# .PCD v0.7 - Point Cloud Data file format
VERSION 0.7
FIELDS x y z vp_x vp_y vp_z
SIZE 4 4 4 4 4 4
TYPE F F F F F F
COUNT 1 1 1 1 1 1
WIDTH 810
HEIGHT 1
VIEWPOINT 0 0 0 1 0 0 0
POINTS 810
DATA ascii
0.022172945 0.079852104 0.068100572 0 0.25019264 0.4048202
0.021171283 0.079961076 0.068326674 0 0.25019264 0.4048202
0.020182835 0.079972304 0.06835907 0 0.25019264 0.4048202
0.019196128 0.079972297 0.06836877 0 0.25019264 0.4048202
0.018218055 0.07989464 0.068224519 0 0.25019264 0.4048202
0.017242277 0.079788491 0.068023451 0 0.25019264 0.4048202
0.016270759 0.079627857 0.067714237 0 0.25019264 0.4048202
0.015302364 0.079414718 0.067300782 0 0.25019264 0.4048202
0.014334826 0.079165004 0.066814572 0 0.25019264 0.4048202
0.013370512 0.078840077 0.066179238 0 0.25019264 0.4048202
0.012404459 0.078490324 0.065494403 0 0.25019264 0.4048202
0.011440951 0.078044556 0.06461934 0 0.25019264 0.4048202
0.010473914 0.077575207 0.063697219 0 0.25019264 0.4048202
0.0095077707 0.07699392 0.062553421 0 0.25019264 0.4048202
0.0085370652 0.07637196 0.061328787 0 0.25019264 0.4048202
0.0075644059 0.075632527 0.059871558 0 0.25019264 0.4048202
0.0065867398 0.074802235 0.058234312 0 0.25019264 0.4048202
0.0056028203 0.073870249 0.056395639 0 0.25019264 0.4048202
0.0046135406 0.072733819 0.054152507 0 0.25019264 0.4048202
0.0036147912 0.071420111 0.051558588 0 0.25019264 0.4048202
0.0026049917 0.06982471 0.048407547 0 0.25019264 0.4048202
0.0015811565 0.067726821 0.044263095 0 0.25019264 0.4048202
0.00053328159 0.065569147 0.039999999 0 0.25019264 0.4048202
0.038978878 0.066949949 0.039999999 0 0.25019264 0.4048202
0.03725319 0.070092134 0.046275206 0 0.25019264 0.4048202
0.035752129 0.072303362 0.050695941 0 0.25019264 0.4048202
0.034404747 0.073863074 0.053818759 0 0.25019264 0.4048202
0.033145729 0.075055622 0.056209903 0 0.25019264 0.4048202
0.031945899 0.076004773 0.058115833 0 0.25019264 0.4048202
0.030781543 0.07681983 0.059754159 0 0.25019264 0.4048202
0.029650342 0.077500448 0.061124239 0 0.25019264 0.4048202
0.028549518 0.078048967 0.062230803 0 0.25019264 0.4048202
0.027462931 0.07855168 0.063245587 0 0.25019264 0.4048202
0.026404021 0.078916043 0.063984469 0 0.25019264 0.4048202
0.025351249 0.079270788 0.064703628 0 0.25019264 0.4048202
0.02432129 0.079497546 0.065167561 0 0.25019264 0.4048202
0.023294501 0.079723537 0.065629415 0 0.25019264 0.4048202
0.022285089 0.079839908 0.06587261 0 0.25019264 0.4048202
0.021278273 0.079949439 0.066101678 0 0.25019264 0.4048202
0.02028317 0.07997445 0.066162072 0 0.25019264 0.4048202
0.019291544 0.079974443 0.066172175 0 0.25019264 0.4048202
0.018307777 0.079904407 0.066042446 0 0.25019264 0.4048202
0.017327234 0.07979773 0.065839335 0 0.25019264 0.4048202
0.01635013 0.079645321 0.065544747 0 0.25019264 0.4048202
0.015377095 0.079431161 0.065126829 0 0.25019264 0.4048202
0.014404241 0.079188399 0.064651504 0 0.25019264 0.4048202
0.013435374 0.078861929 0.064009205 0 0.25019264 0.4048202
0.01246421 0.078517973 0.063331626 0 0.25019264 0.4048202
0.0114962 0.078070119 0.062446903 0 0.25019264 0.4048202
0.010524206 0.077605464 0.06152828 0 0.25019264 0.4048202
0.009553575 0.07702148 0.060371809 0 0.25019264 0.4048202
0.0085780183 0.076403096 0.059146442 0 0.25019264 0.4048202
0.0076008458 0.075660236 0.057673004 0 0.25019264 0.4048202
0.0066183875 0.074832216 0.056029707 0 0.25019264 0.4048202
0.0056298831 0.073895887 0.054170489 0 0.25019264 0.4048202
0.0046358127 0.072760038 0.051913954 0 0.25019264 0.4048202
0.0036322549 0.071445867 0.049302239 0 0.25019264 0.4048202
0.0026176083 0.069848508 0.046126772 0 0.25019264 0.4048202
0.0015888556 0.067746148 0.041946385 0 0.25019264 0.4048202
0.00053245708 0.06676726 0.039999999 0 0.25019264 0.4048202
0.039990924 0.068160281 0.039999999 0 0.25019264 0.4048202
0.038918417 0.06814982 0.039999999 0 0.25019264 0.4048202
0.037561335 0.069510929 0.042747956 0 0.25019264 0.4048202
0.035993572 0.071997784 0.047750812 0 0.25019264 0.4048202
0.034622788 0.073632874 0.05104588 0 0.25019264 0.4048202
0.033348858 0.074863218 0.05352911 0 0.25019264 0.4048202
0.032132506 0.075862914 0.055549428 0 0.25019264 0.4048202
0.030954707 0.076715641 0.057274569 0 0.25019264 0.4048202
0.029816443 0.077400506 0.058662713 0 0.25019264 0.4048202
0.028704789 0.077977128 0.059833363 0 0.25019264 0.4048202
0.02761182 0.078482799 0.06086123 0 0.25019264 0.4048202
0.026543787 0.078868948 0.061649088 0 0.25019264 0.4048202
0.025485134 0.079225674 0.06237739 0 0.25019264 0.4048202
0.024447229 0.07946983 0.062879644 0 0.25019264 0.4048202
0.02341494 0.079697028 0.063347369 0 0.25019264 0.4048202
0.022398427 0.079827577 0.063620962 0 0.25019264 0.4048202
0.021386402 0.079937674 0.063853048 0 0.25019264 0.4048202
0.020384556 0.079976618 0.063942097 0 0.25019264 0.4048202
0.019387957 0.079976611 0.063952602 0 0.25019264 0.4048202
0.018398428 0.079914264 0.063837759 0 0.25019264 0.4048202
0.017413072 0.079807073 0.06363257 0 0.25019264 0.4048202
0.016430316 0.079662971 0.06335298 0 0.25019264 0.4048202
0.015452595 0.079447784 0.062930524 0 0.25019264 0.4048202
0.014474364 0.079212025 0.062466379 0 0.25019264 0.4048202
0.013500899 0.078884006 0.061816998 0 0.25019264 0.4048202
0.012524568 0.078545898 0.0611469 0 0.25019264 0.4048202
0.011552012 0.078095943 0.060252365 0 0.25019264 0.4048202
0.010575007 0.077636033 0.059337407 0 0.25019264 0.4048202
0.009599844 0.077049315 0.058168061 0 0.25019264 0.4048202
0.0086193858 0.076434545 0.056942038 0 0.25019264 0.4048202
0.0076376558 0.075688213 0.055452138 0 0.25019264 0.4048202
0.0066503552 0.074862495 0.053802785 0 0.25019264 0.4048202
0.0056572207 0.073921777 0.051922698 0 0.25019264 0.4048202
0.0046583116 0.072786532 0.04965264 0 0.25019264 0.4048202
0.003649896 0.071471892 0.047022931 0 0.25019264 0.4048202
0.0026303534 0.069872543 0.043822728 0 0.25019264 0.4048202
0.0015949109 0.067962512 0.039999999 0 0.25019264 0.4048202
0.00053163472 0.067962229 0.039999999 0 0.25019264 0.4048202
0.039928943 0.069357269 0.039999999 0 0.25019264 0.4048202
0.038858116 0.06934654 0.039999999 0 0.25019264 0.4048202
0.037787776 0.069336101 0.039999999 0 0.25019264 0.4048202
0.036253273 0.071614727 0.044616614 0 0.25019264 0.4048202
0.034850605 0.073364675 0.048165798 0 0.25019264 0.4048202
0.033554584 0.074668348 0.050813962 0 0.25019264 0.4048202
0.032321397 0.075719319 0.052951626 0 0.25019264 0.4048202
0.031129915 0.07661023 0.054765727 0 0.25019264 0.4048202
0.029984497 0.077299394 0.056172263 0 0.25019264 0.4048202
0.028861832 0.07790447 0.057408545 0 0.25019264 0.4048202
0.027762404 0.078413129 0.058449727 0 0.25019264 0.4048202
0.026685107 0.078821331 0.059287719 0 0.25019264 0.4048202
0.025620507 0.079180054 0.060025327 0 0.25019264 0.4048202
0.024574541 0.079441808 0.060566813 0 0.25019264 0.4048202
0.023536688 0.079670236 0.061040513 0 0.25019264 0.4048202
0.022512978 0.079815112 0.061345205 0 0.25019264 0.4048202
0.021495685 0.079925783 0.06158036 0 0.25019264 0.4048202
0.02048701 0.079978809 0.061698742 0 0.25019264 0.4048202
0.019485386 0.079978801 0.061709661 0 0.25019264 0.4048202
0.018490026 0.079924233 0.061610062 0 0.25019264 0.4048202
0.017499806 0.079816505 0.061402772 0 0.25019264 0.4048202
0.016511332 0.0796808 0.061138552 0 0.25019264 0.4048202
0.015528876 0.07946457 0.060711488 0 0.25019264 0.4048202
0.014545208 0.079235896 0.060258817 0 0.25019264 0.4048202
0.013567097 0.078906313 0.059602246 0 0.25019264 0.4048202
0.012585543 0.078574106 0.058939863 0 0.25019264 0.4048202
0.011608395 0.078122027 0.058035363 0 0.25019264 0.4048202
0.010626325 0.077666909 0.05712422 0 0.25019264 0.4048202
0.0096465852 0.077077441 0.055941798 0 0.25019264 0.4048202
0.0086611742 0.076466307 0.054715209 0 0.25019264 0.4048202
0.0076748417 0.075716488 0.053208586 0 0.25019264 0.4048202
0.0066826488 0.074893087 0.051553171 0 0.25019264 0.4048202
0.0056848386 0.073947936 0.049651887 0 0.25019264 0.4048202
0.0046810405 0.072813287 0.047368176 0 0.25019264 0.4048202
0.003667718 0.07149817 0.044720273 0 0.25019264 0.4048202
0.0026432294 0.069896832 0.041495029 0 0.25019264 0.4048202
0.0015924503 0.069154367 0.039999999 0 0.25019264 0.4048202
0.00053081452 0.069154076 0.039999999 0 0.25019264 0.4048202
0.039867125 0.070551135 0.039999999 0 0.25019264 0.4048202
0.038797967 0.07054013 0.039999999 0 0.25019264 0.4048202
0.037729301 0.070529431 0.039999999 0 0.25019264 0.4048202
0.036516879 0.071225919 0.041435298 0 0.25019264 0.4048202
0.035081554 0.073092796 0.045246132 0 0.25019264 0.4048202
0.033762973 0.074470967 0.048063755 0 0.25019264 0.4048202
0.032512616 0.075573951 0.050321814 0 0.25019264 0.4048202
0.03130997 0.076488219 0.052195936 0 0.25019264 0.4048202
0.030154539 0.077197082 0.053652342 0 0.25019264 0.4048202
0.029020682 0.077830985 0.054955848 0 0.25019264 0.4048202
0.027914714 0.078342661 0.056010578 0 0.25019264 0.4048202
0.026828011 0.078773178 0.056899901 0 0.25019264 0.4048202
0.025757391 0.079133935 0.057646979 0 0.25019264 0.4048202
0.024703247 0.079413481 0.058228619 0 0.25019264 0.4048202
0.023659769 0.079643145 0.058708396 0 0.25019264 0.4048202
0.022628764 0.079802521 0.059044924 0 0.25019264 0.4048202
0.021606147 0.079913765 0.059283201 0 0.25019264 0.4048202
0.020590549 0.079981022 0.059431612 0 0.25019264 0.4048202
0.019583847 0.079981014 0.059442956 0 0.25019264 0.4048202
0.018582586 0.079934299 0.059358973 0 0.25019264 0.4048202
0.017587451 0.079826042 0.059149541 0 0.25019264 0.4048202
0.016593192 0.079698816 0.058901083 0 0.25019264 0.4048202
0.015605953 0.079481535 0.058469336 0 0.25019264 0.4048202
0.014616783 0.079260014 0.058028448 0 0.25019264 0.4048202
0.01363398 0.078928851 0.057364576 0 0.25019264 0.4048202
0.012647597 0.07859648 0.056697708 0 0.25019264 0.4048202
0.011665358 0.07814838 0.055795513 0 0.25019264 0.4048202
0.010678559 0.077691838 0.054875642 0 0.25019264 0.4048202
0.0096938079 0.07710585 0.05369265 0 0.25019264 0.4048202
0.0087033901 0.076498404 0.052465577 0 0.25019264 0.4048202
0.0077124098 0.075745046 0.05094197 0 0.25019264 0.4048202
0.006715274 0.074923985 0.049280491 0 0.25019264 0.4048202
0.0057127415 0.073974371 0.047357671 0 0.25019264 0.4048202
0.0047040037 0.072840318 0.045060184 0 0.25019264 0.4048202
0.0036857235 0.071524732 0.042393878 0 0.25019264 0.4048202
0.0026500155 0.070343718 0.039999999 0 0.25019264 0.4048202
0.001589996 0.070343129 0.039999999 0 0.25019264 0.4048202
0.00052999647 0.070342831 0.039999999 0 0.25019264 0.4048202
0.039805468 0.071741909 0.039999999 0 0.25019264 0.4048202
0.038737979 0.071730636 0.039999999 0 0.25019264 0.4048202
0.037670977 0.071719676 0.039999999 0 0.25019264 0.4048202
0.036604453 0.071709022 0.039999999 0 0.25019264 0.4048202
0.035315704 0.072817147 0.042286012 0 0.25019264 0.4048202
0.033974066 0.074271016 0.045277767 0 0.25019264 0.4048202
0.032706209 0.07542678 0.047659352 0 0.25019264 0.4048202
0.03149537 0.076347269 0.049559269 0 0.25019264 0.4048202
0.030326607 0.077093557 0.051102392 0 0.25019264 0.4048202
0.029181371 0.077756636 0.052474752 0 0.25019264 0.4048202
0.028068783 0.078271382 0.053543273 0 0.25019264 0.4048202
0.026972527 0.078724481 0.054485157 0 0.25019264 0.4048202
0.025895817 0.079087287 0.055241868 0 0.25019264 0.4048202
0.024833376 0.079384841 0.05586461 0 0.25019264 0.4048202
0.023784209 0.079615757 0.056350566 0 0.25019264 0.4048202
0.022745805 0.079789788 0.056719687 0 0.25019264 0.4048202
0.021717805 0.079901621 0.056961138 0 0.25019264 0.4048202
0.020695446 0.079981185 0.057136051 0 0.25019264 0.4048202
0.019683359 0.079983249 0.05715207 0 0.25019264 0.4048202
0.018676125 0.079944476 0.057084084 0 0.25019264 0.4048202
0.017676024 0.079835676 0.05687248 0 0.25019264 0.4048202
0.016675908 0.079717025 0.056640174 0 0.25019264 0.4048202
0.015683837 0.079498678 0.056203675 0 0.25019264 0.4048202
0.014689493 0.079279825 0.055765584 0 0.25019264 0.4048202
0.013701561 0.07895162 0.055103589 0 0.25019264 0.4048202
0.012710404 0.078617647 0.054429241 0 0.25019264 0.4048202
0.011722913 0.078175008 0.053532429 0 0.25019264 0.4048202
0.01073138 0.077716276 0.052602179 0 0.25019264 0.4048202
0.0097415186 0.077134557 0.051420227 0 0.25019264 0.4048202
0.008746041 0.076530829 0.050192762 0 0.25019264 0.4048202
0.0077503668 0.075773902 0.0486519 0 0.25019264 0.4048202
0.0067482353 0.07495521 0.046984352 0 0.25019264 0.4048202
0.0057409336 0.074001074 0.045039654 0 0.25019264 0.4048202
0.0047272053 0.072867639 0.042728256 0 0.25019264 0.4048202
0.003703916 0.071551561 0.040043347 0 0.25019264 0.4048202
0.0026459356 0.071529426 0.039999999 0 0.25019264 0.4048202
0.0015875481 0.071528822 0.039999999 0 0.25019264 0.4048202
0.00052918046 0.071528517 0.039999999 0 0.25019264 0.4048202
0.039743967 0.072929613 0.039999999 0 0.25019264 0.4048202
0.038678143 0.072918072 0.039999999 0 0.25019264 0.4048202
0.037612803 0.072906852 0.039999999 0 0.25019264 0.4048202
0.03654794 0.072895952 0.039999999 0 0.25019264 0.4048202
0.035483535 0.072885357 0.039999999 0 0.25019264 0.4048202
0.034187932 0.074068442 0.04245526 0 0.25019264 0.4048202
0.032902222 0.075277768 0.044963595 0 0.25019264 0.4048202
0.03168308 0.076204576 0.046889804 0 0.25019264 0.4048202
0.03050074 0.076988786 0.048521835 0 0.25019264 0.4048202
0.029343933 0.07768143 0.049964722 0 0.25019264 0.4048202
0.028224641 0.078199275 0.051047292 0 0.25019264 0.4048202
0.027118683 0.078675233 0.052042987 0 0.25019264 0.4048202
0.02603581 0.079040118 0.052809507 0 0.25019264 0.4048202
0.024964949 0.079355881 0.053474326 0 0.25019264 0.4048202
0.023910029 0.079588063 0.053966574 0 0.25019264 0.4048202
0.022864124 0.079776913 0.054369055 0 0.25019264 0.4048202
0.021830684 0.079889342 0.054613732 0 0.25019264 0.4048202
0.020801842 0.079978302 0.054809529 0 0.25019264 0.4048202
0.019783938 0.079985507 0.054836586 0 0.25019264 0.4048202
0.018770657 0.079954758 0.054784987 0 0.25019264 0.4048202
0.017765541 0.079845414 0.05457117 0 0.25019264 0.4048202
0.016759496 0.079735421 0.054355428 0 0.25019264 0.4048202
0.015762543 0.079516001 0.053914096 0 0.25019264 0.4048202
0.014763296 0.079296075 0.053471137 0 0.25019264 0.4048202
0.01376985 0.078974634 0.052818894 0 0.25019264 0.4048202
0.01277387 0.07863903 0.052136946 0 0.25019264 0.4048202
0.011781069 0.078201912 0.051245719 0 0.25019264 0.4048202
0.010784755 0.077740967 0.050304923 0 0.25019264 0.4048202
0.0097897267 0.077163562 0.049124137 0 0.25019264 0.4048202
0.0087892339 0.076561607 0.047892302 0 0.25019264 0.4048202
0.0077887187 0.075803056 0.046337981 0 0.25019264 0.4048202
0.0067815394 0.074986756 0.044664357 0 0.25019264 0.4048202
0.0057694199 0.07402806 0.042697433 0 0.25019264 0.4048202
0.0047506485 0.072895236 0.040371992 0 0.25019264 0.4048202
0.0036986587 0.072713032 0.039999999 0 0.25019264 0.4048202
0.002641866 0.072712101 0.039999999 0 0.25019264 0.4048202
0.0015851064 0.072711483 0.039999999 0 0.25019264 0.4048202
0.0005283666 0.07271117 0.039999999 0 0.25019264 0.4048202
0.039682627 0.074114278 0.039999999 0 0.25019264 0.4048202
0.03861846 0.074102476 0.039999999 0 0.25019264 0.4048202
0.037554778 0.074091002 0.039999999 0 0.25019264 0.4048202
0.036491569 0.074079841 0.039999999 0 0.25019264 0.4048202
0.035428818 0.074069008 0.039999999 0 0.25019264 0.4048202
0.034366515 0.074058495 0.039999999 0 0.25019264 0.4048202
0.033107296 0.075092025 0.042161692 0 0.25019264 0.4048202
0.03187314 0.076060086 0.044186886 0 0.25019264 0.4048202
0.03067698 0.076882742 0.045910083 0 0.25019264 0.4048202
0.029512119 0.077583611 0.047380231 0 0.25019264 0.4048202
0.028382324 0.078126319 0.048522089 0 0.25019264 0.4048202
0.027266512 0.078625426 0.049572892 0 0.25019264 0.4048202
0.026177401 0.078992404 0.050349392 0 0.25019264 0.4048202
0.025097996 0.0793266 0.05105729 0 0.25019264 0.4048202
0.024037253 0.079560064 0.051555939 0 0.25019264 0.4048202
0.022983745 0.079763897 0.051992573 0 0.25019264 0.4048202
0.0219448 0.07987693 0.052240539 0 0.25019264 0.4048202
0.020909397 0.079975396 0.052457709 0 0.25019264 0.4048202
0.019885605 0.079987794 0.052496072 0 0.25019264 0.4048202
0.018866204 0.079965152 0.052461259 0 0.25019264 0.4048202
0.017856015 0.079855256 0.0522452 0 0.25019264 0.4048202
0.016844837 0.079745248 0.052028298 0 0.25019264 0.4048202
0.015842086 0.079533502 0.051600192 0 0.25019264 0.4048202
0.014837882 0.079312488 0.051152285 0 0.25019264 0.4048202
0.01383886 0.078997888 0.050510082 0 0.25019264 0.4048202
0.012838008 0.078660645 0.049820408 0 0.25019264 0.4048202
0.011839835 0.0782291 0.048934981 0 0.25019264 0.4048202
0.010838691 0.077765919 0.047983464 0 0.25019264 0.4048202
0.0098384405 0.077192873 0.04680397 0 0.25019264 0.4048202
0.0088331187 0.076588012 0.045558047 0 0.25019264 0.4048202
0.0078274729 0.075832516 0.043999799 0 0.25019264 0.4048202
0.0068151918 0.075018629 0.042320106 0 0.25019264 0.4048202
0.0057982057 0.074055322 0.040330589 0 0.25019264 0.4048202
0.0047481903 0.073893987 0.039999999 0 0.25019264 0.4048202
0.0036929757 0.073892713 0.039999999 0 0.25019264 0.4048202
0.0026378068 0.073891766 0.039999999 0 0.25019264 0.4048202
0.001582671 0.073891133 0.039999999 0 0.25019264 0.4048202
0.00052755477 0.073890813 0.039999999 0 0.25019264 0.4048202
0.039621439 0.07529594 0.039999999 0 0.25019264 0.4048202
0.038558926 0.07528387 0.039999999 0 0.25019264 0.4048202
0.037496898 0.075272135 0.039999999 0 0.25019264 0.4048202
0.036435343 0.075260729 0.039999999 0 0.25019264 0.4048202
0.035374243 0.075249657 0.039999999 0 0.25019264 0.4048202
0.034313582 0.075238906 0.039999999 0 0.25019264 0.4048202
0.033253353 0.07522849 0.039999999 0 0.25019264 0.4048202
0.0320656 0.075913779 0.041449852 0 0.25019264 0.4048202
0.030855365 0.076775417 0.043266527 0 0.25019264 0.4048202
0.02968299 0.0774808 0.044756576 0 0.25019264 0.4048202
0.028541867 0.078052506 0.045967117 0 0.25019264 0.4048202
0.027416328 0.078573242 0.047070608 0 0.25019264 0.4048202
0.02632062 0.078944147 0.047861017 0 0.25019264 0.4048202
0.025232542 0.079296984 0.048613019 0 0.25019264 0.4048202
0.024165912 0.079531744 0.04911818 0 0.25019264 0.4048202
0.02310469 0.079750739 0.049589779 0 0.25019264 0.4048202
0.022060182 0.079864375 0.049841091 0 0.25019264 0.4048202
0.021018129 0.079972453 0.050080147 0 0.25019264 0.4048202
0.01998838 0.079990104 0.050130084 0 0.25019264 0.4048202
0.018963195 0.079971947 0.05010473 0 0.25019264 0.4048202
0.017947467 0.079865202 0.049894132 0 0.25019264 0.4048202
0.016931154 0.079754643 0.049674924 0 0.25019264 0.4048202
0.015922479 0.079551198 0.04926154 0 0.25019264 0.4048202
0.014913269 0.079329081 0.048808604 0 0.25019264 0.4048202
0.013908603 0.079021387 0.048176739 0 0.25019264 0.4048202
0.012902828 0.078682482 0.047479216 0 0.25019264 0.4048202
0.011899223 0.078256577 0.046599798 0 0.25019264 0.4048202
0.0108932 0.077791139 0.045637388 0 0.25019264 0.4048202
0.0098876674 0.077222489 0.044459321 0 0.25019264 0.4048202
0.0088774683 0.076614693 0.043199077 0 0.25019264 0.4048202
0.0078666359 0.075862288 0.041636944 0 0.25019264 0.4048202
0.0068482817 0.075074278 0.039999999 0 0.25019264 0.4048202
0.0057945559 0.075072333 0.039999999 0 0.25019264 0.4048202
0.0047409018 0.075070716 0.039999999 0 0.25019264 0.4048202
0.003687307 0.07506942 0.039999999 0 0.25019264 0.4048202
0.0026337579 0.075068451 0.039999999 0 0.25019264 0.4048202
0.0015802417 0.075067803 0.039999999 0 0.25019264 0.4048202
0.00052674505 0.075067475 0.039999999 0 0.25019264 0.4048202
0.039560407 0.076474614 0.039999999 0 0.25019264 0.4048202
0.038499549 0.076462284 0.039999999 0 0.25019264 0.4048202
0.037439167 0.076450296 0.039999999 0 0.25019264 0.4048202
0.036379259 0.076438643 0.039999999 0 0.25019264 0.4048202
0.035319801 0.076427326 0.039999999 0 0.25019264 0.4048202
0.034260787 0.076416343 0.039999999 0 0.25019264 0.4048202
0.033202201 0.076405697 0.039999999 0 0.25019264 0.4048202
0.032144029 0.076395392 0.039999999 0 0.25019264 0.4048202
0.031035937 0.076666772 0.040590551 0 0.25019264 0.4048202
0.02985595 0.077376738 0.042100873 0 0.25019264 0.4048202
0.028703304 0.077977821 0.04338181 0 0.25019264 0.4048202
0.027570892 0.078501731 0.044499967 0 0.25019264 0.4048202
0.026465494 0.07889533 0.04534385 0 0.25019264 0.4048202
0.025368944 0.07926482 0.046136364 0 0.25019264 0.4048202
0.024296025 0.079503112 0.046652805 0 0.25019264 0.4048202
0.023226984 0.07973744 0.047160208 0 0.25019264 0.4048202
0.022176847 0.07985168 0.047414921 0 0.25019264 0.4048202
0.021128524 0.079965726 0.047668513 0 0.25019264 0.4048202
0.020092281 0.079992443 0.047738176 0 0.25019264 0.4048202
0.019061713 0.079974614 0.047713701 0 0.25019264 0.4048202
0.01803991 0.079875261 0.047517527 0 0.25019264 0.4048202
0.017018408 0.079764135 0.047295976 0 0.25019264 0.4048202
0.016003739 0.079569086 0.046897709 0 0.25019264 0.4048202
0.014989467 0.079345852 0.046439659 0 0.25019264 0.4048202
0.013979092 0.079045139 0.045818437 0 0.25019264 0.4048202
0.012968343 0.078704558 0.045112934 0 0.25019264 0.4048202
0.011959244 0.078284346 0.044239748 0 0.25019264 0.4048202
0.01094829 0.077816628 0.043266267 0 0.25019264 0.4048202
0.0099374177 0.077252418 0.04208976 0 0.25019264 0.4048202
0.0089222901 0.076641656 0.040814966 0 0.25019264 0.4048202
0.0078899739 0.076250449 0.039999999 0 0.25019264 0.4048202
0.0068377792 0.076248132 0.039999999 0 0.25019264 0.4048202
0.0057856697 0.07624615 0.039999999 0 0.25019264 0.4048202
0.0047336319 0.076244496 0.039999999 0 0.25019264 0.4048202
0.0036816525 0.07624317 0.039999999 0 0.25019264 0.4048202
0.0026297192 0.076242179 0.039999999 0 0.25019264 0.4048202
0.0015778184 0.076241516 0.039999999 0 0.25019264 0.4048202
0.0005259373 0.076241188 0.039999999 0 0.25019264 0.4048202
0.039499529 0.077650331 0.039999999 0 0.25019264 0.4048202
0.038440317 0.077637747 0.039999999 0 0.25019264 0.4048202
0.037381582 0.077625498 0.039999999 0 0.25019264 0.4048202
0.036323313 0.0776136 0.039999999 0 0.25019264 0.4048202
0.035265498 0.077602044 0.039999999 0 0.25019264 0.4048202
0.034208123 0.077590831 0.039999999 0 0.25019264 0.4048202
0.033151176 0.07757996 0.039999999 0 0.25019264 0.4048202
0.032094639 0.07756944 0.039999999 0 0.25019264 0.4048202
0.031038502 0.077559255 0.039999999 0 0.25019264 0.4048202
0.029982753 0.077549413 0.039999999 0 0.25019264 0.4048202
0.028866671 0.077902235 0.040765591 0 0.25019264 0.4048202
0.027727298 0.078429371 0.041898686 0 0.25019264 0.4048202
0.026612056 0.078845948 0.042797361 0 0.25019264 0.4048202
0.0255091 0.079217598 0.04360031 0 0.25019264 0.4048202
0.024427624 0.079474144 0.044159304 0 0.25019264 0.4048202
0.023352459 0.079710782 0.044675473 0 0.25019264 0.4048202
0.022294819 0.07983885 0.044961542 0 0.25019264 0.4048202
0.021240825 0.079953514 0.045218565 0 0.25019264 0.4048202
0.020197343 0.079994656 0.045319576 0 0.25019264 0.4048202
0.019161317 0.079977304 0.045296311 0 0.25019264 0.4048202
0.018133366 0.079885431 0.045114934 0 0.25019264 0.4048202
0.017106617 0.079773732 0.044891 0 0.25019264 0.4048202
0.016085878 0.079587162 0.044508252 0 0.25019264 0.4048202
0.015066493 0.079362802 0.044045009 0 0.25019264 0.4048202
0.01405034 0.079069145 0.043434739 0 0.25019264 0.4048202
0.013034564 0.078726873 0.042721126 0 0.25019264 0.4048202
0.012019907 0.078312412 0.0418544 0 0.25019264 0.4048202
0.011003973 0.077842392 0.040869664 0 0.25019264 0.4048202
0.0099793533 0.077427171 0.039999999 0 0.25019264 0.4048202
0.0089285634 0.077424131 0.039999999 0 0.25019264 0.4048202
0.0078778844 0.077421427 0.039999999 0 0.25019264 0.4048202
0.0068273027 0.077419065 0.039999999 0 0.25019264 0.4048202
0.0057768053 0.077417038 0.039999999 0 0.25019264 0.4048202
0.0047263796 0.077415347 0.039999999 0 0.25019264 0.4048202
0.0036760122 0.077413999 0.039999999 0 0.25019264 0.4048202
0.0026256905 0.077412985 0.039999999 0 0.25019264 0.4048202
0.0015754013 0.077412307 0.039999999 0 0.25019264 0.4048202
0.00052513159 0.077411972 0.039999999 0 0.25019264 0.4048202
0.039438803 0.078823127 0.039999999 0 0.25019264 0.4048202
0.03838123 0.078810275 0.039999999 0 0.25019264 0.4048202
0.037324138 0.07879778 0.039999999 0 0.25019264 0.4048202
0.036267508 0.078785636 0.039999999 0 0.25019264 0.4048202
0.035211328 0.078773841 0.039999999 0 0.25019264 0.4048202
0.034155589 0.078762397 0.039999999 0 0.25019264 0.4048202
0.033100273 0.078751303 0.039999999 0 0.25019264 0.4048202
0.032045372 0.07874056 0.039999999 0 0.25019264 0.4048202
0.030990865 0.078730173 0.039999999 0 0.25019264 0.4048202
0.029936744 0.07872013 0.039999999 0 0.25019264 0.4048202
0.028882995 0.078710437 0.039999999 0 0.25019264 0.4048202
0.027829604 0.078701086 0.039999999 0 0.25019264 0.4048202
0.026760338 0.078795984 0.040220995 0 0.25019264 0.4048202
0.025650896 0.079169817 0.041034564 0 0.25019264 0.4048202
0.024560735 0.079444848 0.041637164 0 0.25019264 0.4048202
0.023479508 0.07968282 0.042160146 0 0.25019264 0.4048202
0.022414126 0.079825871 0.042480465 0 0.25019264 0.4048202
0.021354392 0.079941154 0.042740978 0 0.25019264 0.4048202
0.020304184 0.079991765 0.042863198 0 0.25019264 0.4048202
0.019262027 0.079980031 0.042852085 0 0.25019264 0.4048202
0.018227851 0.079895712 0.042685889 0 0.25019264 0.4048202
0.017195797 0.079783432 0.042459533 0 0.25019264 0.4048202
0.016168915 0.079605438 0.042092722 0 0.25019264 0.4048202
0.01514436 0.079379939 0.0416242 0 0.25019264 0.4048202
0.014122361 0.079093412 0.041025206 0 0.25019264 0.4048202
0.013101505 0.078749426 0.040303349 0 0.25019264 0.4048202
0.01206282 0.078602612 0.039999999 0 0.25019264 0.4048202
0.011013379 0.07859882 0.039999999 0 0.25019264 0.4048202
0.0099640759 0.07859537 0.039999999 0 0.25019264 0.4048202
0.0089148954 0.078592263 0.039999999 0 0.25019264 0.4048202
0.0078658247 0.078589506 0.039999999 0 0.25019264 0.4048202
0.0068168519 0.078587092 0.039999999 0 0.25019264 0.4048202
0.0057679629 0.078585021 0.039999999 0 0.25019264 0.4048202
0.0047191451 0.0785833 0.039999999 0 0.25019264 0.4048202
0.0036703858 0.078581922 0.039999999 0 0.25019264 0.4048202
0.0026216719 0.078580886 0.039999999 0 0.25019264 0.4048202
0.0015729901 0.078580201 0.039999999 0 0.25019264 0.4048202
0.00052432792 0.07857985 0.039999999 0 0.25019264 0.4048202
0.039378226 0.079993017 0.039999999 0 0.25019264 0.4048202
0.038322292 0.079979904 0.039999999 0 0.25019264 0.4048202
0.037266836 0.079967164 0.039999999 0 0.25019264 0.4048202
0.036211841 0.079954773 0.039999999 0 0.25019264 0.4048202
0.035157297 0.07994274 0.039999999 0 0.25019264 0.4048202
0.034103185 0.079931065 0.039999999 0 0.25019264 0.4048202
0.033049501 0.079919755 0.039999999 0 0.25019264 0.4048202
0.031996224 0.079908796 0.039999999 0 0.25019264 0.4048202
0.030943345 0.079898193 0.039999999 0 0.25019264 0.4048202
0.02989085 0.079887949 0.039999999 0 0.25019264 0.4048202
0.028838724 0.079878062 0.039999999 0 0.25019264 0.4048202
0.027786955 0.079868533 0.039999999 0 0.25019264 0.4048202
0.026735529 0.079859354 0.039999999 0 0.25019264 0.4048202
0.025684435 0.079850532 0.039999999 0 0.25019264 0.4048202
0.024633659 0.079842068 0.039999999 0 0.25019264 0.4048202
0.023583187 0.079833955 0.039999999 0 0.25019264 0.4048202
0.022533007 0.079826199 0.039999999 0 0.25019264 0.4048202
0.02146925 0.079928659 0.040235247 0 0.25019264 0.4048202
0.020412229 0.079988845 0.040379196 0 0.25019264 0.4048202
0.019363863 0.079982787 0.040380545 0 0.25019264 0.4048202
0.018323382 0.079906099 0.04022992 0 0.25019264 0.4048202
0.017285967 0.079793245 0.040001106 0 0.25019264 0.4048202
0.016237315 0.07978709 0.039999999 0 0.25019264 0.4048202
0.015188809 0.079781808 0.039999999 0 0.25019264 0.4048202
0.014140491 0.079776883 0.039999999 0 0.25019264 0.4048202
0.013092348 0.079772301 0.039999999 0 0.25019264 0.4048202
0.012044366 0.079768084 0.039999999 0 0.25019264 0.4048202
0.010996534 0.07976421 0.039999999 0 0.25019264 0.4048202
0.0099488357 0.079760693 0.039999999 0 0.25019264 0.4048202
0.0089012608 0.079757527 0.039999999 0 0.25019264 0.4048202
0.0078537958 0.07975471 0.039999999 0 0.25019264 0.4048202
0.0068064271 0.079752252 0.039999999 0 0.25019264 0.4048202
0.0057591423 0.079750136 0.039999999 0 0.25019264 0.4048202
0.0047119288 0.079748377 0.039999999 0 0.25019264 0.4048202
0.0036647734 0.079746969 0.039999999 0 0.25019264 0.4048202
0.002617663 0.079745919 0.039999999 0 0.25019264 0.4048202
0.001570585 0.079745211 0.039999999 0 0.25019264 0.4048202
0.00052352616 0.079744861 0.039999999 0 0.25019264 0.4048202
0.039587624 0.079999998 0.037496325 0 0.25019264 0.4048202
0.038523044 0.079999998 0.03752536 0 0.25019264 0.4048202
0.037459195 0.079999998 0.037553594 0 0.25019264 0.4048202
0.036396045 0.079999998 0.037581034 0 0.25019264 0.4048202
0.035333585 0.079999998 0.037607674 0 0.25019264 0.4048202
0.034271792 0.079999998 0.037633516 0 0.25019264 0.4048202
0.033210639 0.079999998 0.037658565 0 0.25019264 0.4048202
0.032150116 0.079999998 0.03768282 0 0.25019264 0.4048202
0.031090194 0.079999998 0.037706278 0 0.25019264 0.4048202
0.030030856 0.079999998 0.03772895 0 0.25019264 0.4048202
0.028972084 0.079999998 0.037750829 0 0.25019264 0.4048202
0.027913855 0.079999998 0.037771918 0 0.25019264 0.4048202
0.026856149 0.079999998 0.037792217 0 0.25019264 0.4048202
0.025798948 0.079999998 0.037811726 0 0.25019264 0.4048202
0.024742231 0.079999998 0.03783045 0 0.25019264 0.4048202
0.023685975 0.079999998 0.037848391 0 0.25019264 0.4048202
0.022630164 0.079999998 0.037865542 0 0.25019264 0.4048202
0.021574778 0.079999998 0.037881911 0 0.25019264 0.4048202
0.020519795 0.079999998 0.037897494 0 0.25019264 0.4048202
0.019465195 0.079999998 0.037912291 0 0.25019264 0.4048202
0.01841096 0.079999998 0.037926309 0 0.25019264 0.4048202
0.017357068 0.079999998 0.037939545 0 0.25019264 0.4048202
0.016303502 0.079999998 0.037951998 0 0.25019264 0.4048202
0.01525024 0.079999998 0.03796367 0 0.25019264 0.4048202
0.014197263 0.079999998 0.037974562 0 0.25019264 0.4048202
0.013144551 0.079999998 0.037984673 0 0.25019264 0.4048202
0.012092085 0.079999998 0.037994005 0 0.25019264 0.4048202
0.011039844 0.079999998 0.038002558 0 0.25019264 0.4048202
0.0099878088 0.079999998 0.038010333 0 0.25019264 0.4048202
0.0089359609 0.079999998 0.038017329 0 0.25019264 0.4048202
0.0078842789 0.079999998 0.038023546 0 0.25019264 0.4048202
0.0068327445 0.079999998 0.038028989 0 0.25019264 0.4048202
0.0057813372 0.079999998 0.038033649 0 0.25019264 0.4048202
0.0047300383 0.079999998 0.038037535 0 0.25019264 0.4048202
0.0036788271 0.079999998 0.038040642 0 0.25019264 0.4048202
0.0026276847 0.079999998 0.038042974 0 0.25019264 0.4048202
0.0015765912 0.079999998 0.038044527 0 0.25019264 0.4048202
0.00052552711 0.079999998 0.038045306 0 0.25019264 0.4048202
0.03980105 0.079999998 0.034948934 0 0.25019264 0.4048202
0.038730666 0.079999998 0.034978934 0 0.25019264 0.4048202
0.037661016 0.079999998 0.03500811 0 0.25019264 0.4048202
0.036592085 0.079999998 0.035036456 0 0.25019264 0.4048202
0.035523843 0.079999998 0.035063982 0 0.25019264 0.4048202
0.034456279 0.079999998 0.035090685 0 0.25019264 0.4048202
0.033389367 0.079999998 0.035116564 0 0.25019264 0.4048202
0.032323088 0.079999998 0.035141625 0 0.25019264 0.4048202
0.031257421 0.079999998 0.035165865 0 0.25019264 0.4048202
0.030192347 0.079999998 0.03518929 0 0.25019264 0.4048202
0.029127844 0.079999998 0.035211895 0 0.25019264 0.4048202
0.028063891 0.079999998 0.035233684 0 0.25019264 0.4048202
0.027000468 0.079999998 0.035254657 0 0.25019264 0.4048202
0.025937555 0.079999998 0.035274815 0 0.25019264 0.4048202
0.024875132 0.079999998 0.035294164 0 0.25019264 0.4048202
0.023813181 0.079999998 0.035312697 0 0.25019264 0.4048202
0.022751676 0.079999998 0.035330418 0 0.25019264 0.4048202
0.021690601 0.079999998 0.035347328 0 0.25019264 0.4048202
0.020629935 0.079999998 0.035363428 0 0.25019264 0.4048202
0.019569658 0.079999998 0.035378721 0 0.25019264 0.4048202
0.018509751 0.079999998 0.035393201 0 0.25019264 0.4048202
0.017450191 0.079999998 0.035406876 0 0.25019264 0.4048202
0.016390959 0.079999998 0.035419744 0 0.25019264 0.4048202
0.015332037 0.079999998 0.035431802 0 0.25019264 0.4048202
0.014273403 0.079999998 0.035443056 0 0.25019264 0.4048202
0.013215038 0.079999998 0.035453506 0 0.25019264 0.4048202
0.012156921 0.079999998 0.035463147 0 0.25019264 0.4048202
0.011099032 0.079999998 0.035471983 0 0.25019264 0.4048202
0.010041352 0.079999998 0.035480015 0 0.25019264 0.4048202
0.0089838617 0.079999998 0.035487246 0 0.25019264 0.4048202
0.0079265395 0.079999998 0.035493668 0 0.25019264 0.4048202
0.0068693669 0.079999998 0.03549929 0 0.25019264 0.4048202
0.0058123227 0.079999998 0.035504106 0 0.25019264 0.4048202
0.004755388 0.079999998 0.035508119 0 0.25019264 0.4048202
0.0036985422 0.079999998 0.03551133 0 0.25019264 0.4048202
0.0026417663 0.079999998 0.03551374 0 0.25019264 0.4048202
0.0015850399 0.079999998 0.035515346 0 0.25019264 0.4048202
0.00052834337 0.079999998 0.035516147 0 0.25019264 0.4048202
0.038940672 0.079999998 0.032403253 0 0.25019264 0.4048202
0.037865158 0.079999998 0.032433387 0 0.25019264 0.4048202
0.036790371 0.079999998 0.032462668 0 0.25019264 0.4048202
0.035716288 0.079999998 0.032491095 0 0.25019264 0.4048202
0.034642886 0.079999998 0.032518674 0 0.25019264 0.4048202
0.033570144 0.079999998 0.032545403 0 0.25019264 0.4048202
0.032498047 0.079999998 0.032571286 0 0.25019264 0.4048202
0.031426568 0.079999998 0.032596324 0 0.25019264 0.4048202
0.03035569 0.079999998 0.032620512 0 0.25019264 0.4048202
0.029285388 0.079999998 0.032643858 0 0.25019264 0.4048202
0.028215645 0.079999998 0.032666363 0 0.25019264 0.4048202
0.02714644 0.079999998 0.032688025 0 0.25019264 0.4048202
0.026077751 0.079999998 0.032708846 0 0.25019264 0.4048202
0.025009558 0.079999998 0.032728828 0 0.25019264 0.4048202
0.023941841 0.079999998 0.032747969 0 0.25019264 0.4048202
0.022874579 0.079999998 0.032766271 0 0.25019264 0.4048202
0.021807751 0.079999998 0.032783736 0 0.25019264 0.4048202
0.020741338 0.079999998 0.032800365 0 0.25019264 0.4048202
0.019675318 0.079999998 0.032816157 0 0.25019264 0.4048202
0.018609671 0.079999998 0.032831114 0 0.25019264 0.4048202
0.017544378 0.079999998 0.032845236 0 0.25019264 0.4048202
0.016479418 0.079999998 0.032858524 0 0.25019264 0.4048202
0.01541477 0.079999998 0.032870982 0 0.25019264 0.4048202
0.014350414 0.079999998 0.032882605 0 0.25019264 0.4048202
0.01328633 0.079999998 0.032893393 0 0.25019264 0.4048202
0.012222498 0.079999998 0.032903351 0 0.25019264 0.4048202
0.011158898 0.079999998 0.032912478 0 0.25019264 0.4048202
0.010095509 0.079999998 0.032920774 0 0.25019264 0.4048202
0.00903231 0.079999998 0.03292824 0 0.25019264 0.4048202
0.0079692835 0.079999998 0.032934874 0 0.25019264 0.4048202
0.0069064074 0.079999998 0.032940678 0 0.25019264 0.4048202
0.0058436622 0.079999998 0.032945655 0 0.25019264 0.4048202
0.0047810273 0.079999998 0.032949802 0 0.25019264 0.4048202
0.0037184828 0.079999998 0.032953117 0 0.25019264 0.4048202
0.002656009 0.079999998 0.032955602 0 0.25019264 0.4048202
0.0015935852 0.079999998 0.03295726 0 0.25019264 0.4048202
0.00053119176 0.079999998 0.03295809 0 0.25019264 0.4048202
0.039153107 0.079999998 0.029797776 0 0.25019264 0.4048202
0.038071662 0.079999998 0.029828886 0 0.25019264 0.4048202
0.036990952 0.079999998 0.029859114 0 0.25019264 0.4048202
0.035910953 0.079999998 0.029888466 0 0.25019264 0.4048202
0.034831647 0.079999998 0.02991694 0 0.25019264 0.4048202
0.033753011 0.079999998 0.029944537 0 0.25019264 0.4048202
0.032675028 0.079999998 0.029971259 0 0.25019264 0.4048202
0.031597666 0.079999998 0.029997107 0 0.25019264 0.4048202
0.030520918 0.079999998 0.030022083 0 0.25019264 0.4048202
0.029444752 0.079999998 0.030046185 0 0.25019264 0.4048202
0.028369151 0.079999998 0.03006942 0 0.25019264 0.4048202
0.027294096 0.079999998 0.030091783 0 0.25019264 0.4048202
0.026219564 0.079999998 0.03011328 0 0.25019264 0.4048202
0.025145533 0.079999998 0.030133909 0 0.25019264 0.4048202
0.024071986 0.079999998 0.030153669 0 0.25019264 0.4048202
0.022998897 0.079999998 0.030172566 0 0.25019264 0.4048202
0.02192625 0.079999998 0.030190596 0 0.25019264 0.4048202
0.020854022 0.079999998 0.030207764 0 0.25019264 0.4048202
0.019782193 0.079999998 0.030224068 0 0.25019264 0.4048202
0.018710744 0.079999998 0.030239511 0 0.25019264 0.4048202
0.01763965 0.079999998 0.03025409 0 0.25019264 0.4048202
0.016568894 0.079999998 0.03026781 0 0.25019264 0.4048202
0.015498455 0.079999998 0.030280668 0 0.25019264 0.4048202
0.014428311 0.079999998 0.030292667 0 0.25019264 0.4048202
0.013358443 0.079999998 0.030303808 0 0.25019264 0.4048202
0.01228883 0.079999998 0.030314088 0 0.25019264 0.4048202
0.011219452 0.079999998 0.030323511 0 0.25019264 0.4048202
0.010150287 0.079999998 0.030332075 0 0.25019264 0.4048202
0.0090813171 0.079999998 0.030339781 0 0.25019264 0.4048202
0.0080125192 0.079999998 0.030346632 0 0.25019264 0.4048202
0.0069438745 0.079999998 0.030352624 0 0.25019264 0.4048202
0.0058753621 0.079999998 0.030357761 0 0.25019264 0.4048202
0.0048069614 0.079999998 0.03036204 0 0.25019264 0.4048202
0.0037386529 0.079999998 0.030365463 0 0.25019264 0.4048202
0.0026704154 0.079999998 0.030368032 0 0.25019264 0.4048202
0.001602229 0.079999998 0.030369744 0 0.25019264 0.4048202
0.00053407293 0.079999998 0.030370599 0 0.25019264 0.4048202
0.039368015 0.079999998 0.027161943 0 0.25019264 0.4048202
0.038280569 0.079999998 0.027194051 0 0.25019264 0.4048202
0.037193868 0.079999998 0.02722525 0 0.25019264 0.4048202
0.036107887 0.079999998 0.027255543 0 0.25019264 0.4048202
0.035022609 0.079999998 0.02728493 0 0.25019264 0.4048202
0.033938006 0.079999998 0.027313411 0 0.25019264 0.4048202
0.032854065 0.079999998 0.027340991 0 0.25019264 0.4048202
0.031770758 0.079999998 0.027367668 0 0.25019264 0.4048202
0.030688066 0.079999998 0.027393444 0 0.25019264 0.4048202
0.029605968 0.079999998 0.027418321 0 0.25019264 0.4048202
0.028524442 0.079999998 0.027442299 0 0.25019264 0.4048202
0.027443467 0.079999998 0.027465381 0 0.25019264 0.4048202
0.026363023 0.079999998 0.027487565 0 0.25019264 0.4048202
0.025283087 0.079999998 0.027508853 0 0.25019264 0.4048202
0.024203639 0.079999998 0.027529249 0 0.25019264 0.4048202
0.023124659 0.079999998 0.027548751 0 0.25019264 0.4048202
0.022046125 0.079999998 0.027567361 0 0.25019264 0.4048202
0.020968016 0.079999998 0.027585078 0 0.25019264 0.4048202
0.01989031 0.079999998 0.027601903 0 0.25019264 0.4048202
0.018812988 0.079999998 0.02761784 0 0.25019264 0.4048202
0.017736027 0.079999998 0.027632888 0 0.25019264 0.4048202
0.016659409 0.079999998 0.027647046 0 0.25019264 0.4048202
0.015583111 0.079999998 0.027660318 0 0.25019264 0.4048202
0.014507112 0.079999998 0.027672701 0 0.25019264 0.4048202
0.013431393 0.079999998 0.027684197 0 0.25019264 0.4048202
0.012355932 0.079999998 0.027694806 0 0.25019264 0.4048202
0.011280708 0.079999998 0.027704531 0 0.25019264 0.4048202
0.010205702 0.079999998 0.02771337 0 0.25019264 0.4048202
0.0091308914 0.079999998 0.027721323 0 0.25019264 0.4048202
0.008056256 0.079999998 0.027728392 0 0.25019264 0.4048202
0.0069817756 0.079999998 0.027734578 0 0.25019264 0.4048202
0.0059074294 0.079999998 0.027739877 0 0.25019264 0.4048202
0.0048331968 0.079999998 0.027744295 0 0.25019264 0.4048202
0.0037590566 0.079999998 0.027747829 0 0.25019264 0.4048202
0.0026849888 0.079999998 0.027750477 0 0.25019264 0.4048202
0.0016109727 0.079999998 0.027752245 0 0.25019264 0.4048202
0.00053698744 0.079999998 0.027753128 0 0.25019264 0.4048202
0.039585445 0.079999998 0.024495184 0 0.25019264 0.4048202
0.038491927 0.079999998 0.024528312 0 0.25019264 0.4048202
0.037399162 0.079999998 0.024560502 0 0.25019264 0.4048202
0.03630713 0.079999998 0.024591755 0 0.25019264 0.4048202
0.035215806 0.079999998 0.024622075 0 0.25019264 0.4048202
0.034125168 0.079999998 0.02465146 0 0.25019264 0.4048202
0.0330352 0.079999998 0.024679914 0 0.25019264 0.4048202
0.031945873 0.079999998 0.024707438 0 0.25019264 0.4048202
0.030857172 0.079999998 0.024734031 0 0.25019264 0.4048202
0.02976907 0.079999998 0.024759697 0 0.25019264 0.4048202
0.028681548 0.079999998 0.024784436 0 0.25019264 0.4048202
0.027594587 0.079999998 0.024808249 0 0.25019264 0.4048202
0.02650816 0.079999998 0.024831137 0 0.25019264 0.4048202
0.025422251 0.079999998 0.024853101 0 0.25019264 0.4048202
0.024336835 0.079999998 0.024874141 0 0.25019264 0.4048202
0.023251893 0.079999998 0.024894262 0 0.25019264 0.4048202
0.022167401 0.079999998 0.024913462 0 0.25019264 0.4048202
0.021083342 0.079999998 0.02493174 0 0.25019264 0.4048202
0.01999969 0.079999998 0.0249491 0 0.25019264 0.4048202
0.018916426 0.079999998 0.024965541 0 0.25019264 0.4048202
0.017833531 0.079999998 0.024981067 0 0.25019264 0.4048202
0.01675098 0.079999998 0.024995673 0 0.25019264 0.4048202
0.015668755 0.079999998 0.025009364 0 0.25019264 0.4048202
0.014586833 0.079999998 0.02502214 0 0.25019264 0.4048202
0.013505194 0.079999998 0.025034001 0 0.25019264 0.4048202
0.012423816 0.079999998 0.025044946 0 0.25019264 0.4048202
0.011342679 0.079999998 0.025054978 0 0.25019264 0.4048202
0.010261762 0.079999998 0.025064098 0 0.25019264 0.4048202
0.0091810441 0.079999998 0.025072303 0 0.25019264 0.4048202
0.0081005031 0.079999998 0.025079597 0 0.25019264 0.4048202
0.0070201191 0.079999998 0.025085976 0 0.25019264 0.4048202
0.0059398706 0.079999998 0.025091445 0 0.25019264 0.4048202
0.0048597376 0.079999998 0.025096003 0 0.25019264 0.4048202
0.0037796984 0.079999998 0.025099648 0 0.25019264 0.4048202
0.0026997323 0.079999998 0.025102381 0 0.25019264 0.4048202
0.0016198185 0.079999998 0.025104204 0 0.25019264 0.4048202
0.00053993601 0.079999998 0.025105115 0 0.25019264 0.4048202
0.039805446 0.079999998 0.021796918 0 0.25019264 0.4048202
0.038705781 0.079999998 0.021831086 0 0.25019264 0.4048202
0.03760688 0.079999998 0.021864288 0 0.25019264 0.4048202
0.03650872 0.079999998 0.021896522 0 0.25019264 0.4048202
0.035411283 0.079999998 0.021927793 0 0.25019264 0.4048202
0.034314539 0.079999998 0.021958102 0 0.25019264 0.4048202
0.033218469 0.079999998 0.021987449 0 0.25019264 0.4048202
0.032123055 0.079999998 0.022015836 0 0.25019264 0.4048202
0.031028271 0.079999998 0.022043264 0 0.25019264 0.4048202
0.029934095 0.079999998 0.022069735 0 0.25019264 0.4048202
0.028840508 0.079999998 0.02209525 0 0.25019264 0.4048202
0.027747486 0.079999998 0.022119811 0 0.25019264 0.4048202
0.026655009 0.079999998 0.022143416 0 0.25019264 0.4048202
0.025563052 0.079999998 0.02216607 0 0.25019264 0.4048202
0.024471598 0.079999998 0.022187771 0 0.25019264 0.4048202
0.023380622 0.079999998 0.022208521 0 0.25019264 0.4048202
0.022290105 0.079999998 0.022228323 0 0.25019264 0.4048202
0.021200024 0.079999998 0.022247175 0 0.25019264 0.4048202
0.020110356 0.079999998 0.02226508 0 0.25019264 0.4048202
0.019021083 0.079999998 0.022282038 0 0.25019264 0.4048202
0.01793218 0.079999998 0.022298049 0 0.25019264 0.4048202
0.01684363 0.079999998 0.022313114 0 0.25019264 0.4048202
0.015755406 0.079999998 0.022327233 0 0.25019264 0.4048202
0.014667491 0.079999998 0.022340409 0 0.25019264 0.4048202
0.013579863 0.079999998 0.022352643 0 0.25019264 0.4048202
0.012492499 0.079999998 0.022363931 0 0.25019264 0.4048202
0.01140538 0.079999998 0.022374278 0 0.25019264 0.4048202
0.010318482 0.079999998 0.022383682 0 0.25019264 0.4048202
0.0092317862 0.079999998 0.022392146 0 0.25019264 0.4048202
0.0081452699 0.079999998 0.022399668 0 0.25019264 0.4048202
0.0070589134 0.079999998 0.022406248 0 0.25019264 0.4048202
0.0059726937 0.079999998 0.022411888 0 0.25019264 0.4048202
0.0048865904 0.079999998 0.022416588 0 0.25019264 0.4048202
0.0038005828 0.079999998 0.022420347 0 0.25019264 0.4048202
0.0027146491 0.079999998 0.022423167 0 0.25019264 0.4048202
0.0016287683 0.079999998 0.022425046 0 0.25019264 0.4048202
0.00054291921 0.079999998 0.022425987 0 0.25019264 0.4048202
0.038922179 0.079999998 0.019101772 0 0.25019264 0.4048202
0.037817072 0.079999998 0.019136006 0 0.25019264 0.4048202
0.036712714 0.079999998 0.019169243 0 0.25019264 0.4048202
0.035609081 0.079999998 0.019201487 0 0.25019264 0.4048202
0.034506157 0.079999998 0.019232737 0 0.25019264 0.4048202
0.033403918 0.079999998 0.019262996 0 0.25019264 0.4048202
0.032302339 0.079999998 0.019292265 0 0.25019264 0.4048202
0.031201402 0.079999998 0.019320546 0 0.25019264 0.4048202
0.030101079 0.079999998 0.019347839 0 0.25019264 0.4048202
0.029001353 0.079999998 0.019374147 0 0.25019264 0.4048202
0.027902199 0.079999998 0.01939947 0 0.25019264 0.4048202
0.026803598 0.079999998 0.019423809 0 0.25019264 0.4048202
0.025705526 0.079999998 0.019447166 0 0.25019264 0.4048202
0.02460796 0.079999998 0.019469542 0 0.25019264 0.4048202
0.023510879 0.079999998 0.019490939 0 0.25019264 0.4048202
0.022414263 0.079999998 0.019511353 0 0.25019264 0.4048202
0.021318089 0.079999998 0.019530792 0 0.25019264 0.4048202
0.020222334 0.079999998 0.019549252 0 0.25019264 0.4048202
0.01912698 0.079999998 0.019566735 0 0.25019264 0.4048202
0.018031999 0.079999998 0.019583244 0 0.25019264 0.4048202
0.016937375 0.079999998 0.019598776 0 0.25019264 0.4048202
0.015843084 0.079999998 0.019613335 0 0.25019264 0.4048202
0.014749105 0.079999998 0.019626921 0 0.25019264 0.4048202
0.013655416 0.079999998 0.019639533 0 0.25019264 0.4048202
0.012561996 0.079999998 0.019651173 0 0.25019264 0.4048202
0.011468822 0.079999998 0.01966184 0 0.25019264 0.4048202
0.010375873 0.079999998 0.019671537 0 0.25019264 0.4048202
0.0092831291 0.079999998 0.019680262 0 0.25019264 0.4048202
0.0081905676 0.079999998 0.019688018 0 0.25019264 0.4048202
0.0070981663 0.079999998 0.019694801 0 0.25019264 0.4048202
0.0060059051 0.079999998 0.019700617 0 0.25019264 0.4048202
0.0049137613 0.079999998 0.019705463 0 0.25019264 0.4048202
0.0038217143 0.079999998 0.019709339 0 0.25019264 0.4048202
0.0027297423 0.079999998 0.019712245 0 0.25019264 0.4048202
0.001637824 0.079999998 0.019714184 0 0.25019264 0.4048202
0.00054593774 0.079999998 0.019715153 0 0.25019264 0.4048202
0.039141171 0.079999998 0.016339758 0 0.25019264 0.4048202
0.038029779 0.079999998 0.016375046 0 0.25019264 0.4048202
0.036919147 0.079999998 0.016409308 0 0.25019264 0.4048202
0.035809252 0.079999998 0.016442543 0 0.25019264 0.4048202
0.034700073 0.079999998 0.016474755 0 0.25019264 0.4048202
0.033591587 0.079999998 0.016505947 0 0.25019264 0.4048202
0.032483771 0.079999998 0.016536117 0 0.25019264 0.4048202
0.031376604 0.079999998 0.016565267 0 0.25019264 0.4048202
0.030270061 0.079999998 0.0165934 0 0.25019264 0.4048202
0.029164121 0.079999998 0.016620519 0 0.25019264 0.4048202
0.028058762 0.079999998 0.01664662 0 0.25019264 0.4048202
0.026953964 0.079999998 0.016671708 0 0.25019264 0.4048202
0.0258497 0.079999998 0.016695784 0 0.25019264 0.4048202
0.02474595 0.079999998 0.016718848 0 0.25019264 0.4048202
0.023642693 0.079999998 0.016740901 0 0.25019264 0.4048202
0.022539904 0.079999998 0.016761946 0 0.25019264 0.4048202
0.021437565 0.079999998 0.016781982 0 0.25019264 0.4048202
0.02033565 0.079999998 0.016801009 0 0.25019264 0.4048202
0.019234139 0.079999998 0.01681903 0 0.25019264 0.4048202
0.018133009 0.079999998 0.016836047 0 0.25019264 0.4048202
0.01703224 0.079999998 0.016852057 0 0.25019264 0.4048202
0.015931807 0.079999998 0.016867064 0 0.25019264 0.4048202
0.014831692 0.079999998 0.016881065 0 0.25019264 0.4048202
0.01373187 0.079999998 0.016894067 0 0.25019264 0.4048202
0.012632321 0.079999998 0.016906064 0 0.25019264 0.4048202
0.01153302 0.079999998 0.016917059 0 0.25019264 0.4048202
0.01043395 0.079999998 0.016927054 0 0.25019264 0.4048202
0.0093350848 0.079999998 0.016936047 0 0.25019264 0.4048202
0.0082364045 0.079999998 0.016944041 0 0.25019264 0.4048202
0.0071378876 0.079999998 0.016951034 0 0.25019264 0.4048202
0.0060395119 0.079999998 0.016957028 0 0.25019264 0.4048202
0.0049412558 0.079999998 0.016962023 0 0.25019264 0.4048202
0.0038430977 0.079999998 0.016966019 0 0.25019264 0.4048202
0.0027450155 0.079999998 0.016969014 0 0.25019264 0.4048202
0.0016469876 0.079999998 0.016971011 0 0.25019264 0.4048202
