# .PCD v0.7 - Point Cloud Data file format
VERSION 0.7
FIELDS x y z vp_x vp_y vp_z
SIZE 4 4 4 4 4 4
TYPE F F F F F F
COUNT 1 1 1 1 1 1
WIDTH 930
HEIGHT 1
VIEWPOINT 0 0 0 1 0 0 0
POINTS 930
DATA ascii
0.006757082 0.079999998 0.028638532 0 0.47704095 0
0.0057173744 0.079999998 0.028637353 0 0.47704095 0
0.0046777446 0.079999998 0.028636374 0 0.47704095 0
0.0036381795 0.079999998 0.028635588 0 0.47704095 0
0.002598664 0.079999998 0.028634999 0 0.47704095 0
0.0015591842 0.079999998 0.028634606 0 0.47704095 0
0.00051972567 0.079999998 0.02863441 0 0.47704095 0
0.039105117 0.079999998 0.027723217 0 0.47704095 0
0.038055852 0.079999998 0.027716167 0 0.47704095 0
0.037007112 0.079999998 0.027709309 0 0.47704095 0
0.035958886 0.079999998 0.027702643 0 0.47704095 0
0.034911156 0.079999998 0.027696172 0 0.47704095 0
0.033863906 0.079999998 0.027689893 0 0.47704095 0
0.032817125 0.079999998 0.027683806 0 0.47704095 0
0.031770799 0.079999998 0.02767791 0 0.47704095 0
0.030724909 0.079999998 0.027672209 0 0.47704095 0
0.029679442 0.079999998 0.027666699 0 0.47704095 0
0.028634386 0.079999998 0.027661379 0 0.47704095 0
0.027589723 0.079999998 0.027656253 0 0.47704095 0
0.026545441 0.079999998 0.027651317 0 0.47704095 0
0.025501525 0.079999998 0.027646573 0 0.47704095 0
0.024457958 0.079999998 0.027642021 0 0.47704095 0
0.023414729 0.079999998 0.027637659 0 0.47704095 0
0.022371823 0.079999998 0.027633486 0 0.47704095 0
0.021329222 0.079999998 0.027629506 0 0.47704095 0
0.020286916 0.079999998 0.027625715 0 0.47704095 0
0.019244889 0.079999998 0.027622115 0 0.47704095 0
0.018203126 0.079999998 0.027618704 0 0.47704095 0
0.017161613 0.079999998 0.027615484 0 0.47704095 0
0.016120335 0.079999998 0.027612453 0 0.47704095 0
0.015079279 0.079999998 0.027609615 0 0.47704095 0
0.014038431 0.079999998 0.027606964 0 0.47704095 0
0.012997774 0.079999998 0.027604504 0 0.47704095 0
0.011957296 0.079999998 0.027602231 0 0.47704095 0
0.010916983 0.079999998 0.027600151 0 0.47704095 0
0.0098768184 0.079999998 0.027598258 0 0.47704095 0
0.00883679 0.079999998 0.027596556 0 0.47704095 0
0.0077968827 0.079999998 0.027595043 0 0.47704095 0
0.006757082 0.079999998 0.027593719 0 0.47704095 0
0.0057173744 0.079999998 0.027592584 0 0.47704095 0
0.0046777446 0.079999998 0.027591638 0 0.47704095 0
0.0036381795 0.079999998 0.027590882 0 0.47704095 0
0.002598664 0.079999998 0.027590314 0 0.47704095 0
0.0015591842 0.079999998 0.027589936 0 0.47704095 0
0.00051972567 0.079999998 0.027589748 0 0.47704095 0
0.039105117 0.079999998 0.026673883 0 0.47704095 0
0.038055852 0.079999998 0.026667098 0 0.47704095 0
0.037007112 0.079999998 0.0266605 0 0.47704095 0
0.035958886 0.079999998 0.026654087 0 0.47704095 0
0.034911156 0.079999998 0.02664786 0 0.47704095 0
0.033863906 0.079999998 0.026641818 0 0.47704095 0
0.032817125 0.079999998 0.026635962 0 0.47704095 0
0.031770799 0.079999998 0.026630292 0 0.47704095 0
0.030724909 0.079999998 0.026624804 0 0.47704095 0
0.029679442 0.079999998 0.026619503 0 0.47704095 0
0.028634386 0.079999998 0.026614387 0 0.47704095 0
0.027589723 0.079999998 0.026609452 0 0.47704095 0
0.026545441 0.079999998 0.026604705 0 0.47704095 0
0.025501525 0.079999998 0.026600139 0 0.47704095 0
0.024457958 0.079999998 0.026595758 0 0.47704095 0
0.023414729 0.079999998 0.026591562 0 0.47704095 0
0.022371823 0.079999998 0.026587548 0 0.47704095 0
0.021329222 0.079999998 0.026583716 0 0.47704095 0
0.020286916 0.079999998 0.026580069 0 0.47704095 0
0.019244889 0.079999998 0.026576607 0 0.47704095 0
0.018203126 0.079999998 0.026573325 0 0.47704095 0
0.017161613 0.079999998 0.026570227 0 0.47704095 0
0.016120335 0.079999998 0.026567312 0 0.47704095 0
0.015079279 0.079999998 0.026564579 0 0.47704095 0
0.014038431 0.079999998 0.026562029 0 0.47704095 0
0.012997774 0.079999998 0.026559662 0 0.47704095 0
0.011957296 0.079999998 0.026557477 0 0.47704095 0
0.010916983 0.079999998 0.026555473 0 0.47704095 0
0.0098768184 0.079999998 0.026553653 0 0.47704095 0
0.00883679 0.079999998 0.026552014 0 0.47704095 0
0.0077968827 0.079999998 0.026550559 0 0.47704095 0
0.006757082 0.079999998 0.026549285 0 0.47704095 0
0.0057173744 0.079999998 0.026548194 0 0.47704095 0
0.0046777446 0.079999998 0.026547283 0 0.47704095 0
0.0036381795 0.079999998 0.026546555 0 0.47704095 0
0.002598664 0.079999998 0.026546009 0 0.47704095 0
0.0015591842 0.079999998 0.026545646 0 0.47704095 0
0.00051972567 0.079999998 0.026545463 0 0.47704095 0
0.039105117 0.079999998 0.025624916 0 0.47704095 0
0.038055852 0.079999998 0.025618397 0 0.47704095 0
0.037007112 0.079999998 0.025612058 0 0.47704095 0
0.035958886 0.079999998 0.025605898 0 0.47704095 0
0.034911156 0.079999998 0.025599916 0 0.47704095 0
0.033863906 0.079999998 0.025594112 0 0.47704095 0
0.032817125 0.079999998 0.025588486 0 0.47704095 0
0.031770799 0.079999998 0.025583038 0 0.47704095 0
0.030724909 0.079999998 0.025577767 0 0.47704095 0
0.029679442 0.079999998 0.025572674 0 0.47704095 0
0.028634386 0.079999998 0.025567757 0 0.47704095 0
0.027589723 0.079999998 0.025563018 0 0.47704095 0
0.026545441 0.079999998 0.025558457 0 0.47704095 0
0.025501525 0.079999998 0.025554072 0 0.47704095 0
0.024457958 0.079999998 0.025549863 0 0.47704095 0
0.023414729 0.079999998 0.02554583 0 0.47704095 0
0.022371823 0.079999998 0.025541974 0 0.47704095 0
0.021329222 0.079999998 0.025538296 0 0.47704095 0
0.020286916 0.079999998 0.025534792 0 0.47704095 0
0.019244889 0.079999998 0.025531463 0 0.47704095 0
0.018203126 0.079999998 0.025528312 0 0.47704095 0
0.017161613 0.079999998 0.025525335 0 0.47704095 0
0.016120335 0.079999998 0.025522534 0 0.47704095 0
0.015079279 0.079999998 0.025519909 0 0.47704095 0
0.014038431 0.079999998 0.02551746 0 0.47704095 0
0.012997774 0.079999998 0.025515186 0 0.47704095 0
0.011957296 0.079999998 0.025513086 0 0.47704095 0
0.010916983 0.079999998 0.025511162 0 0.47704095 0
0.0098768184 0.079999998 0.025509413 0 0.47704095 0
0.00883679 0.079999998 0.025507839 0 0.47704095 0
0.0077968827 0.079999998 0.025506441 0 0.47704095 0
0.006757082 0.079999998 0.025505217 0 0.47704095 0
0.0057173744 0.079999998 0.025504168 0 0.47704095 0
0.0046777446 0.079999998 0.025503295 0 0.47704095 0
0.0036381795 0.079999998 0.025502594 0 0.47704095 0
0.002598664 0.079999998 0.025502071 0 0.47704095 0
0.0015591842 0.079999998 0.025501721 0 0.47704095 0
0.00051972567 0.079999998 0.025501546 0 0.47704095 0
0.039105117 0.079999998 0.024576301 0 0.47704095 0
0.038055852 0.079999998 0.02457005 0 0.47704095 0
0.037007112 0.079999998 0.02456397 0 0.47704095 0
0.035958886 0.079999998 0.024558062 0 0.47704095 0
0.034911156 0.079999998 0.024552323 0 0.47704095 0
0.033863906 0.079999998 0.024546757 0 0.47704095 0
0.032817125 0.079999998 0.024541361 0 0.47704095 0
0.031770799 0.079999998 0.024536137 0 0.47704095 0
0.030724909 0.079999998 0.024531081 0 0.47704095 0
0.029679442 0.079999998 0.024526196 0 0.47704095 0
0.028634386 0.079999998 0.024521481 0 0.47704095 0
0.027589723 0.079999998 0.024516936 0 0.47704095 0
0.026545441 0.079999998 0.024512561 0 0.47704095 0
0.025501525 0.079999998 0.024508355 0 0.47704095 0
0.024457958 0.079999998 0.024504319 0 0.47704095 0
0.023414729 0.079999998 0.024500452 0 0.47704095 0
0.022371823 0.079999998 0.024496753 0 0.47704095 0
0.021329222 0.079999998 0.024493225 0 0.47704095 0
0.020286916 0.079999998 0.024489865 0 0.47704095 0
0.019244889 0.079999998 0.024486672 0 0.47704095 0
0.018203126 0.079999998 0.024483649 0 0.47704095 0
0.017161613 0.079999998 0.024480795 0 0.47704095 0
0.016120335 0.079999998 0.02447811 0 0.47704095 0
0.015079279 0.079999998 0.024475591 0 0.47704095 0
0.014038431 0.079999998 0.024473242 0 0.47704095 0
0.012997774 0.079999998 0.024471061 0 0.47704095 0
0.011957296 0.079999998 0.024469048 0 0.47704095 0
0.010916983 0.079999998 0.024467202 0 0.47704095 0
0.0098768184 0.079999998 0.024465526 0 0.47704095 0
0.00883679 0.079999998 0.024464015 0 0.47704095 0
0.0077968827 0.079999998 0.024462674 0 0.47704095 0
0.006757082 0.079999998 0.0244615 0 0.47704095 0
0.0057173744 0.079999998 0.024460495 0 0.47704095 0
0.0046777446 0.079999998 0.024459656 0 0.47704095 0
0.0036381795 0.079999998 0.024458986 0 0.47704095 0
0.002598664 0.079999998 0.024458483 0 0.47704095 0
0.0015591842 0.079999998 0.024458148 0 0.47704095 0
0.00051972567 0.079999998 0.02445798 0 0.47704095 0
0.039105117 0.079999998 0.023528023 0 0.47704095 0
0.038055852 0.079999998 0.023522038 0 0.47704095 0
0.037007112 0.079999998 0.023516219 0 0.47704095 0
0.035958886 0.079999998 0.023510562 0 0.47704095 0
0.034911156 0.079999998 0.023505069 0 0.47704095 0
0.033863906 0.079999998 0.02349974 0 0.47704095 0
0.032817125 0.079999998 0.023494575 0 0.47704095 0
0.031770799 0.079999998 0.023489572 0 0.47704095 0
0.030724909 0.079999998 0.023484733 0 0.47704095 0
0.029679442 0.079999998 0.023480056 0 0.47704095 0
0.028634386 0.079999998 0.023475543 0 0.47704095 0
0.027589723 0.079999998 0.023471192 0 0.47704095 0
0.026545441 0.079999998 0.023467002 0 0.47704095 0
0.025501525 0.079999998 0.023462977 0 0.47704095 0
0.024457958 0.079999998 0.023459112 0 0.47704095 0
0.023414729 0.079999998 0.023455409 0 0.47704095 0
0.022371823 0.079999998 0.02345187 0 0.47704095 0
0.021329222 0.079999998 0.023448491 0 0.47704095 0
0.020286916 0.079999998 0.023445275 0 0.47704095 0
0.019244889 0.079999998 0.023442218 0 0.47704095 0
0.018203126 0.079999998 0.023439325 0 0.47704095 0
0.017161613 0.079999998 0.023436591 0 0.47704095 0
0.016120335 0.079999998 0.023434021 0 0.47704095 0
0.015079279 0.079999998 0.02343161 0 0.47704095 0
0.014038431 0.079999998 0.02342936 0 0.47704095 0
0.012997774 0.079999998 0.023427272 0 0.47704095 0
0.011957296 0.079999998 0.023425344 0 0.47704095 0
0.010916983 0.079999998 0.023423579 0 0.47704095 0
0.0098768184 0.079999998 0.023421973 0 0.47704095 0
0.00883679 0.079999998 0.023420528 0 0.47704095 0
0.0077968827 0.079999998 0.023419244 0 0.47704095 0
0.006757082 0.079999998 0.023418119 0 0.47704095 0
0.0057173744 0.079999998 0.023417156 0 0.47704095 0
0.0046777446 0.079999998 0.023416353 0 0.47704095 0
0.0036381795 0.079999998 0.023415713 0 0.47704095 0
0.002598664 0.079999998 0.02341523 0 0.47704095 0
0.0015591842 0.079999998 0.02341491 0 0.47704095 0
0.00051972567 0.079999998 0.02341475 0 0.47704095 0
0.039105117 0.079999998 0.022480071 0 0.47704095 0
0.038055852 0.079999998 0.022474352 0 0.47704095 0
0.037007112 0.079999998 0.02246879 0 0.47704095 0
0.035958886 0.079999998 0.022463387 0 0.47704095 0
0.034911156 0.079999998 0.022458138 0 0.47704095 0
0.033863906 0.079999998 0.022453047 0 0.47704095 0
0.032817125 0.079999998 0.022448111 0 0.47704095 0
0.031770799 0.079999998 0.022443332 0 0.47704095 0
0.030724909 0.079999998 0.022438709 0 0.47704095 0
0.029679442 0.079999998 0.02243424 0 0.47704095 0
0.028634386 0.079999998 0.022429926 0 0.47704095 0
0.027589723 0.079999998 0.022425769 0 0.47704095 0
0.026545441 0.079999998 0.022421768 0 0.47704095 0
0.025501525 0.079999998 0.02241792 0 0.47704095 0
0.024457958 0.079999998 0.022414228 0 0.47704095 0
0.023414729 0.079999998 0.022410691 0 0.47704095 0
0.022371823 0.079999998 0.022407308 0 0.47704095 0
0.021329222 0.079999998 0.02240408 0 0.47704095 0
0.020286916 0.079999998 0.022401007 0 0.47704095 0
0.019244889 0.079999998 0.022398086 0 0.47704095 0
0.018203126 0.079999998 0.022395322 0 0.47704095 0
0.017161613 0.079999998 0.022392711 0 0.47704095 0
0.016120335 0.079999998 0.022390254 0 0.47704095 0
0.015079279 0.079999998 0.022387952 0 0.47704095 0
0.014038431 0.079999998 0.022385802 0 0.47704095 0
0.012997774 0.079999998 0.022383807 0 0.47704095 0
0.011957296 0.079999998 0.022381965 0 0.47704095 0
0.010916983 0.079999998 0.022380278 0 0.47704095 0
0.0098768184 0.079999998 0.022378743 0 0.47704095 0
0.00883679 0.079999998 0.022377362 0 0.47704095 0
0.0077968827 0.079999998 0.022376135 0 0.47704095 0
0.006757082 0.079999998 0.022375062 0 0.47704095 0
0.0057173744 0.079999998 0.022374142 0 0.47704095 0
0.0046777446 0.079999998 0.022373375 0 0.47704095 0
0.0036381795 0.079999998 0.022372762 0 0.47704095 0
0.002598664 0.079999998 0.022372302 0 0.47704095 0
0.0015591842 0.079999998 0.022371994 0 0.47704095 0
0.00051972567 0.079999998 0.022371842 0 0.47704095 0
0.039105117 0.079999998 0.021432426 0 0.47704095 0
0.038055852 0.079999998 0.021426974 0 0.47704095 0
0.037007112 0.079999998 0.021421673 0 0.47704095 0
0.035958886 0.079999998 0.021416519 0 0.47704095 0
0.034911156 0.079999998 0.021411516 0 0.47704095 0
0.033863906 0.079999998 0.021406662 0 0.47704095 0
0.032817125 0.079999998 0.021401957 0 0.47704095 0
0.031770799 0.079999998 0.021397399 0 0.47704095 0
0.030724909 0.079999998 0.021392992 0 0.47704095 0
0.029679442 0.079999998 0.021388732 0 0.47704095 0
0.028634386 0.079999998 0.021384619 0 0.47704095 0
0.027589723 0.079999998 0.021380655 0 0.47704095 0
0.026545441 0.079999998 0.021376841 0 0.47704095 0
0.025501525 0.079999998 0.021373173 0 0.47704095 0
0.024457958 0.079999998 0.021369653 0 0.47704095 0
0.023414729 0.079999998 0.02136628 0 0.47704095 0
0.022371823 0.079999998 0.021363055 0 0.47704095 0
0.021329222 0.079999998 0.021359978 0 0.47704095 0
0.020286916 0.079999998 0.021357046 0 0.47704095 0
0.019244889 0.079999998 0.021354264 0 0.47704095 0
0.018203126 0.079999998 0.021351628 0 0.47704095 0
0.017161613 0.079999998 0.021349138 0 0.47704095 0
0.016120335 0.079999998 0.021346796 0 0.47704095 0
0.015079279 0.079999998 0.0213446 0 0.47704095 0
0.014038431 0.079999998 0.021342551 0 0.47704095 0
0.012997774 0.079999998 0.02134065 0 0.47704095 0
0.011957296 0.079999998 0.021338893 0 0.47704095 0
0.010916983 0.079999998 0.021337284 0 0.47704095 0
0.0098768184 0.079999998 0.021335822 0 0.47704095 0
0.00883679 0.079999998 0.021334505 0 0.47704095 0
0.0077968827 0.079999998 0.021333335 0 0.47704095 0
0.006757082 0.079999998 0.021332311 0 0.47704095 0
0.0057173744 0.079999998 0.021331433 0 0.47704095 0
0.0046777446 0.079999998 0.021330703 0 0.47704095 0
0.0036381795 0.079999998 0.021330118 0 0.47704095 0
0.002598664 0.079999998 0.021329679 0 0.47704095 0
0.0015591842 0.079999998 0.021329388 0 0.47704095 0
0.00051972567 0.079999998 0.021329241 0 0.47704095 0
0.039105117 0.079999998 0.020385075 0 0.47704095 0
0.038055852 0.079999998 0.020379892 0 0.47704095 0
0.037007112 0.079999998 0.020374848 0 0.47704095 0
0.035958886 0.079999998 0.020369947 0 0.47704095 0
0.034911156 0.079999998 0.020365188 0 0.47704095 0
0.033863906 0.079999998 0.02036057 0 0.47704095 0
0.032817125 0.079999998 0.020356096 0 0.47704095 0
0.031770799 0.079999998 0.020351762 0 0.47704095 0
0.030724909 0.079999998 0.020347569 0 0.47704095 0
0.029679442 0.079999998 0.020343518 0 0.47704095 0
0.028634386 0.079999998 0.020339606 0 0.47704095 0
0.027589723 0.079999998 0.020335836 0 0.47704095 0
0.026545441 0.079999998 0.020332208 0 0.47704095 0
0.025501525 0.079999998 0.020328719 0 0.47704095 0
0.024457958 0.079999998 0.02032537 0 0.47704095 0
0.023414729 0.079999998 0.020322163 0 0.47704095 0
0.022371823 0.079999998 0.020319095 0 0.47704095 0
0.021329222 0.079999998 0.020316169 0 0.47704095 0
0.020286916 0.079999998 0.02031338 0 0.47704095 0
0.019244889 0.079999998 0.020310733 0 0.47704095 0
0.018203126 0.079999998 0.020308226 0 0.47704095 0
0.017161613 0.079999998 0.020305859 0 0.47704095 0
0.016120335 0.079999998 0.020303631 0 0.47704095 0
0.015079279 0.079999998 0.020301541 0 0.47704095 0
0.014038431 0.079999998 0.020299593 0 0.47704095 0
0.012997774 0.079999998 0.020297784 0 0.47704095 0
0.011957296 0.079999998 0.020296114 0 0.47704095 0
0.010916983 0.079999998 0.020294584 0 0.47704095 0
0.0098768184 0.079999998 0.020293193 0 0.47704095 0
0.00883679 0.079999998 0.020291941 0 0.47704095 0
0.0077968827 0.079999998 0.020290827 0 0.47704095 0
0.006757082 0.079999998 0.020289853 0 0.47704095 0
0.0057173744 0.079999998 0.020289019 0 0.47704095 0
0.0046777446 0.079999998 0.020288324 0 0.47704095 0
0.0036381795 0.079999998 0.020287769 0 0.47704095 0
0.002598664 0.079999998 0.020287352 0 0.47704095 0
0.0015591842 0.079999998 0.020287072 0 0.47704095 0
0.00051972567 0.079999998 0.020286934 0 0.47704095 0
0.039105117 0.079999998 0.019338006 0 0.47704095 0
0.038055852 0.079999998 0.019333089 0 0.47704095 0
0.037007112 0.079999998 0.019328304 0 0.47704095 0
0.035958886 0.079999998 0.019323654 0 0.47704095 0
0.034911156 0.079999998 0.019319141 0 0.47704095 0
0.033863906 0.079999998 0.01931476 0 0.47704095 0
0.032817125 0.079999998 0.019310515 0 0.47704095 0
0.031770799 0.079999998 0.019306403 0 0.47704095 0
0.030724909 0.079999998 0.019302426 0 0.47704095 0
0.029679442 0.079999998 0.019298581 0 0.47704095 0
0.028634386 0.079999998 0.019294873 0 0.47704095 0
0.027589723 0.079999998 0.019291297 0 0.47704095 0
0.026545441 0.079999998 0.019287853 0 0.47704095 0
0.025501525 0.079999998 0.019284545 0 0.47704095 0
0.024457958 0.079999998 0.019281369 0 0.47704095 0
0.023414729 0.079999998 0.019278325 0 0.47704095 0
0.022371823 0.079999998 0.019275416 0 0.47704095 0
0.021329222 0.079999998 0.019272638 0 0.47704095 0
0.020286916 0.079999998 0.019269994 0 0.47704095 0
0.019244889 0.079999998 0.019267483 0 0.47704095 0
0.018203126 0.079999998 0.019265104 0 0.47704095 0
0.017161613 0.079999998 0.019262858 0 0.47704095 0
0.016120335 0.079999998 0.019260745 0 0.47704095 0
0.015079279 0.079999998 0.019258764 0 0.47704095 0
0.014038431 0.079999998 0.019256914 0 0.47704095 0
0.012997774 0.079999998 0.019255199 0 0.47704095 0
0.011957296 0.079999998 0.019253613 0 0.47704095 0
0.010916983 0.079999998 0.019252162 0 0.47704095 0
0.0098768184 0.079999998 0.019250842 0 0.47704095 0
0.00883679 0.079999998 0.019249655 0 0.47704095 0
0.0077968827 0.079999998 0.019248599 0 0.47704095 0
0.006757082 0.079999998 0.019247675 0 0.47704095 0
0.0057173744 0.079999998 0.019246884 0 0.47704095 0
0.0046777446 0.079999998 0.019246224 0 0.47704095 0
0.0036381795 0.079999998 0.019245697 0 0.47704095 0
0.002598664 0.079999998 0.0192453 0 0.47704095 0
0.0015591842 0.079999998 0.019245038 0 0.47704095 0
0.00051972567 0.079999998 0.019244906 0 0.47704095 0
0.039105117 0.079999998 0.018291203 0 0.47704095 0
0.038055852 0.079999998 0.01828655 0 0.47704095 0
0.037007112 0.079999998 0.018282026 0 0.47704095 0
0.035958886 0.079999998 0.018277628 0 0.47704095 0
0.034911156 0.079999998 0.018273357 0 0.47704095 0
0.033863906 0.079999998 0.018269215 0 0.47704095 0
0.032817125 0.079999998 0.018265199 0 0.47704095 0
0.031770799 0.079999998 0.01826131 0 0.47704095 0
0.030724909 0.079999998 0.018257549 0 0.47704095 0
0.029679442 0.079999998 0.018253913 0 0.47704095 0
0.028634386 0.079999998 0.018250404 0 0.47704095 0
0.027589723 0.079999998 0.018247021 0 0.47704095 0
0.026545441 0.079999998 0.018243765 0 0.47704095 0
0.025501525 0.079999998 0.018240634 0 0.47704095 0
0.024457958 0.079999998 0.01823763 0 0.47704095 0
0.023414729 0.079999998 0.018234752 0 0.47704095 0
0.022371823 0.079999998 0.018231999 0 0.47704095 0
0.021329222 0.079999998 0.018229373 0 0.47704095 0
0.020286916 0.079999998 0.018226871 0 0.47704095 0
0.019244889 0.079999998 0.018224496 0 0.47704095 0
0.018203126 0.079999998 0.018222246 0 0.47704095 0
0.017161613 0.079999998 0.018220123 0 0.47704095 0
0.016120335 0.079999998 0.018218122 0 0.47704095 0
0.015079279 0.079999998 0.018216249 0 0.47704095 0
0.014038431 0.079999998 0.018214501 0 0.47704095 0
0.012997774 0.079999998 0.018212877 0 0.47704095 0
0.011957296 0.079999998 0.01821138 0 0.47704095 0
0.010916983 0.079999998 0.018210005 0 0.47704095 0
0.0098768184 0.079999998 0.018208757 0 0.47704095 0
0.00883679 0.079999998 0.018207634 0 0.47704095 0
0.0077968827 0.079999998 0.018206635 0 0.47704095 0
0.006757082 0.079999998 0.018205762 0 0.47704095 0
0.0057173744 0.079999998 0.018205013 0 0.47704095 0
0.0046777446 0.079999998 0.018204389 0 0.47704095 0
0.0036381795 0.079999998 0.01820389 0 0.47704095 0
0.002598664 0.079999998 0.018203516 0 0.47704095 0
0.0015591842 0.079999998 0.018203266 0 0.47704095 0
0.00051972567 0.079999998 0.018203141 0 0.47704095 0
0.039105117 0.079999998 0.01724465 0 0.47704095 0
0.038055852 0.079999998 0.017240264 0 0.47704095 0
0.037007112 0.079999998 0.017235998 0 0.47704095 0
0.035958886 0.079999998 0.017231852 0 0.47704095 0
0.034911156 0.079999998 0.017227827 0 0.47704095 0
0.033863906 0.079999998 0.017223921 0 0.47704095 0
0.032817125 0.079999998 0.017220136 0 0.47704095 0
0.031770799 0.079999998 0.017216468 0 0.47704095 0
0.030724909 0.079999998 0.017212922 0 0.47704095 0
0.029679442 0.079999998 0.017209494 0 0.47704095 0
0.028634386 0.079999998 0.017206186 0 0.47704095 0
0.027589723 0.079999998 0.017202996 0 0.47704095 0
0.026545441 0.079999998 0.017199926 0 0.47704095 0
0.025501525 0.079999998 0.017196976 0 0.47704095 0
0.024457958 0.079999998 0.017194143 0 0.47704095 0
0.023414729 0.079999998 0.017191429 0 0.47704095 0
0.022371823 0.079999998 0.017188834 0 0.47704095 0
0.021329222 0.079999998 0.017186359 0 0.47704095 0
0.020286916 0.079999998 0.017184 0 0.47704095 0
0.019244889 0.079999998 0.017181762 0 0.47704095 0
0.018203126 0.079999998 0.01717964 0 0.47704095 0
0.017161613 0.079999998 0.017177638 0 0.47704095 0
0.016120335 0.079999998 0.017175753 0 0.47704095 0
0.015079279 0.079999998 0.017173985 0 0.47704095 0
0.014038431 0.079999998 0.017172337 0 0.47704095 0
0.012997774 0.079999998 0.017170805 0 0.47704095 0
0.011957296 0.079999998 0.017169394 0 0.47704095 0
0.010916983 0.079999998 0.017168099 0 0.47704095 0
0.0098768184 0.079999998 0.017166922 0 0.47704095 0
0.00883679 0.079999998 0.017165862 0 0.47704095 0
0.0077968827 0.079999998 0.017164921 0 0.47704095 0
0.006757082 0.079999998 0.017164098 0 0.47704095 0
0.0057173744 0.079999998 0.017163392 0 0.47704095 0
0.0046777446 0.079999998 0.017162804 0 0.47704095 0
0.0036381795 0.079999998 0.017162334 0 0.47704095 0
0.002598664 0.079999998 0.01716198 0 0.47704095 0
0.0015591842 0.079999998 0.017161746 0 0.47704095 0
0.00051972567 0.079999998 0.017161628 0 0.47704095 0
0.039105117 0.079999998 0.016198335 0 0.47704095 0
0.038055852 0.079999998 0.016194215 0 0.47704095 0
0.037007112 0.079999998 0.016190208 0 0.47704095 0
0.035958886 0.079999998 0.016186314 0 0.47704095 0
0.034911156 0.079999998 0.016182533 0 0.47704095 0
0.033863906 0.079999998 0.016178863 0 0.47704095 0
0.032817125 0.079999998 0.016175307 0 0.47704095 0
0.031770799 0.079999998 0.016171863 0 0.47704095 0
0.030724909 0.079999998 0.016168531 0 0.47704095 0
0.029679442 0.079999998 0.016165312 0 0.47704095 0
0.028634386 0.079999998 0.016162204 0 0.47704095 0
0.027589723 0.079999998 0.016159208 0 0.47704095 0
0.026545441 0.079999998 0.016156325 0 0.47704095 0
0.025501525 0.079999998 0.016153552 0 0.47704095 0
0.024457958 0.079999998 0.016150892 0 0.47704095 0
0.023414729 0.079999998 0.016148344 0 0.47704095 0
0.022371823 0.079999998 0.016145905 0 0.47704095 0
0.021329222 0.079999998 0.016143579 0 0.47704095 0
0.020286916 0.079999998 0.016141364 0 0.47704095 0
0.019244889 0.079999998 0.016139261 0 0.47704095 0
0.018203126 0.079999998 0.016137268 0 0.47704095 0
0.017161613 0.079999998 0.016135387 0 0.47704095 0
0.016120335 0.079999998 0.016133618 0 0.47704095 0
0.015079279 0.079999998 0.016131958 0 0.47704095 0
0.014038431 0.079999998 0.016130408 0 0.47704095 0
0.012997774 0.079999998 0.016128972 0 0.47704095 0
0.011957296 0.079999998 0.016127644 0 0.47704095 0
0.010916983 0.079999998 0.016126428 0 0.47704095 0
0.0098768184 0.079999998 0.016125323 0 0.47704095 0
0.00883679 0.079999998 0.016124329 0 0.47704095 0
0.0077968827 0.079999998 0.016123444 0 0.47704095 0
0.006757082 0.079999998 0.016122671 0 0.47704095 0
0.0057173744 0.079999998 0.016122008 0 0.47704095 0
0.0046777446 0.079999998 0.016121455 0 0.47704095 0
0.0036381795 0.079999998 0.016121013 0 0.47704095 0
0.002598664 0.079999998 0.016120682 0 0.47704095 0
0.0015591842 0.079999998 0.01612046 0 0.47704095 0
0.00051972567 0.079999998 0.01612035 0 0.47704095 0
0.039105117 0.079999998 0.015152242 0 0.47704095 0
0.038055852 0.079999998 0.015148388 0 0.47704095 0
0.037007112 0.079999998 0.01514464 0 0.47704095 0
0.035958886 0.079999998 0.015140996 0 0.47704095 0
0.034911156 0.079999998 0.015137459 0 0.47704095 0
0.033863906 0.079999998 0.015134027 0 0.47704095 0
0.032817125 0.079999998 0.015130701 0 0.47704095 0
0.031770799 0.079999998 0.015127479 0 0.47704095 0
0.030724909 0.079999998 0.015124363 0 0.47704095 0
0.029679442 0.079999998 0.015121351 0 0.47704095 0
0.028634386 0.079999998 0.015118444 0 0.47704095 0
0.027589723 0.079999998 0.015115642 0 0.47704095 0
0.026545441 0.079999998 0.015112945 0 0.47704095 0
0.025501525 0.079999998 0.015110351 0 0.47704095 0
0.024457958 0.079999998 0.015107863 0 0.47704095 0
0.023414729 0.079999998 0.015105478 0 0.47704095 0
0.022371823 0.079999998 0.015103199 0 0.47704095 0
0.021329222 0.079999998 0.015101022 0 0.47704095 0
0.020286916 0.079999998 0.015098951 0 0.47704095 0
0.019244889 0.079999998 0.015096983 0 0.47704095 0
0.018203126 0.079999998 0.015095119 0 0.47704095 0
0.017161613 0.079999998 0.015093359 0 0.47704095 0
0.016120335 0.079999998 0.015091703 0 0.47704095 0
0.015079279 0.079999998 0.015090151 0 0.47704095 0
0.014038431 0.079999998 0.015088703 0 0.47704095 0
0.012997774 0.079999998 0.015087358 0 0.47704095 0
0.011957296 0.079999998 0.015086116 0 0.47704095 0
0.010916983 0.079999998 0.015084979 0 0.47704095 0
0.0098768184 0.079999998 0.015083944 0 0.47704095 0
0.00883679 0.079999998 0.015083014 0 0.47704095 0
0.0077968827 0.079999998 0.015082187 0 0.47704095 0
0.006757082 0.079999998 0.015081463 0 0.47704095 0
0.0057173744 0.079999998 0.015080843 0 0.47704095 0
0.0046777446 0.079999998 0.015080326 0 0.47704095 0
0.0036381795 0.079999998 0.015079913 0 0.47704095 0
0.002598664 0.079999998 0.015079603 0 0.47704095 0
0.0015591842 0.079999998 0.015079396 0 0.47704095 0
0.00051972567 0.079999998 0.015079292 0 0.47704095 0
0.039105117 0.079999998 0.014106357 0 0.47704095 0
0.038055852 0.079999998 0.014102769 0 0.47704095 0
0.037007112 0.079999998 0.014099279 0 0.47704095 0
0.035958886 0.079999998 0.014095888 0 0.47704095 0
0.034911156 0.079999998 0.014092594 0 0.47704095 0
0.033863906 0.079999998 0.0140894 0 0.47704095 0
0.032817125 0.079999998 0.014086302 0 0.47704095 0
0.031770799 0.079999998 0.014083304 0 0.47704095 0
0.030724909 0.079999998 0.014080402 0 0.47704095 0
0.029679442 0.079999998 0.014077598 0 0.47704095 0
0.028634386 0.079999998 0.014074892 0 0.47704095 0
0.027589723 0.079999998 0.014072283 0 0.47704095 0
0.026545441 0.079999998 0.014069771 0 0.47704095 0
0.025501525 0.079999998 0.014067357 0 0.47704095 0
0.024457958 0.079999998 0.014065041 0 0.47704095 0
0.023414729 0.079999998 0.014062821 0 0.47704095 0
0.022371823 0.079999998 0.014060698 0 0.47704095 0
0.021329222 0.079999998 0.014058673 0 0.47704095 0
0.020286916 0.079999998 0.014056744 0 0.47704095 0
0.019244889 0.079999998 0.014054912 0 0.47704095 0
0.018203126 0.079999998 0.014053177 0 0.47704095 0
0.017161613 0.079999998 0.014051539 0 0.47704095 0
0.016120335 0.079999998 0.014049997 0 0.47704095 0
0.015079279 0.079999998 0.014048552 0 0.47704095 0
0.014038431 0.079999998 0.014047204 0 0.47704095 0
0.012997774 0.079999998 0.014045951 0 0.47704095 0
0.011957296 0.079999998 0.014044795 0 0.47704095 0
0.010916983 0.079999998 0.014043736 0 0.47704095 0
0.0098768184 0.079999998 0.014042773 0 0.47704095 0
0.00883679 0.079999998 0.014041907 0 0.47704095 0
0.0077968827 0.079999998 0.014041137 0 0.47704095 0
0.006757082 0.079999998 0.014040464 0 0.47704095 0
0.0057173744 0.079999998 0.014039886 0 0.47704095 0
0.0046777446 0.079999998 0.014039405 0 0.47704095 0
0.0036381795 0.079999998 0.01403902 0 0.47704095 0
0.002598664 0.079999998 0.014038731 0 0.47704095 0
0.0015591842 0.079999998 0.014038539 0 0.47704095 0
0.00051972567 0.079999998 0.014038443 0 0.47704095 0
0.039105117 0.079999998 0.013060665 0 0.47704095 0
0.038055852 0.079999998 0.013057343 0 0.47704095 0
0.037007112 0.079999998 0.013054112 0 0.47704095 0
0.035958886 0.079999998 0.013050972 0 0.47704095 0
0.034911156 0.079999998 0.013047923 0 0.47704095 0
0.033863906 0.079999998 0.013044965 0 0.47704095 0
0.032817125 0.079999998 0.013042098 0 0.47704095 0
0.031770799 0.079999998 0.013039321 0 0.47704095 0
0.030724909 0.079999998 0.013036634 0 0.47704095 0
0.029679442 0.079999998 0.013034038 0 0.47704095 0
0.028634386 0.079999998 0.013031533 0 0.47704095 0
0.027589723 0.079999998 0.013029117 0 0.47704095 0
0.026545441 0.079999998 0.013026793 0 0.47704095 0
0.025501525 0.079999998 0.013024557 0 0.47704095 0
0.024457958 0.079999998 0.013022412 0 0.47704095 0
0.023414729 0.079999998 0.013020357 0 0.47704095 0
0.022371823 0.079999998 0.013018391 0 0.47704095 0
0.021329222 0.079999998 0.013016516 0 0.47704095 0
0.020286916 0.079999998 0.01301473 0 0.47704095 0
0.019244889 0.079999998 0.013013034 0 0.47704095 0
0.018203126 0.079999998 0.013011428 0 0.47704095 0
0.017161613 0.079999998 0.01300991 0 0.47704095 0
0.016120335 0.079999998 0.013008483 0 0.47704095 0
0.015079279 0.079999998 0.013007145 0 0.47704095 0
0.014038431 0.079999998 0.013005896 0 0.47704095 0
0.012997774 0.079999998 0.013004737 0 0.47704095 0
0.011957296 0.079999998 0.013003668 0 0.47704095 0
0.010916983 0.079999998 0.013002687 0 0.47704095 0
0.0098768184 0.079999998 0.013001796 0 0.47704095 0
0.00883679 0.079999998 0.013000993 0 0.47704095 0
0.0077968827 0.079999998 0.013000281 0 0.47704095 0
0.006757082 0.079999998 0.012999657 0 0.47704095 0
0.0057173744 0.079999998 0.012999122 0 0.47704095 0
0.0046777446 0.079999998 0.012998677 0 0.47704095 0
0.0036381795 0.079999998 0.01299832 0 0.47704095 0
0.002598664 0.079999998 0.012998053 0 0.47704095 0
0.0015591842 0.079999998 0.012997875 0 0.47704095 0
0.00051972567 0.079999998 0.012997786 0 0.47704095 0
0.039105117 0.079999998 0.012015153 0 0.47704095 0
0.038055852 0.079999998 0.012012097 0 0.47704095 0
0.037007112 0.079999998 0.012009124 0 0.47704095 0
0.035958886 0.079999998 0.012006235 0 0.47704095 0
0.034911156 0.079999998 0.012003431 0 0.47704095 0
0.033863906 0.079999998 0.01200071 0 0.47704095 0
0.032817125 0.079999998 0.011998071 0 0.47704095 0
0.031770799 0.079999998 0.011995517 0 0.47704095 0
0.030724909 0.079999998 0.011993046 0 0.47704095 0
0.029679442 0.079999998 0.011990657 0 0.47704095 0
0.028634386 0.079999998 0.011988352 0 0.47704095 0
0.027589723 0.079999998 0.011986131 0 0.47704095 0
0.026545441 0.079999998 0.011983992 0 0.47704095 0
0.025501525 0.079999998 0.011981935 0 0.47704095 0
0.024457958 0.079999998 0.011979962 0 0.47704095 0
0.023414729 0.079999998 0.011978071 0 0.47704095 0
0.022371823 0.079999998 0.011976263 0 0.47704095 0
0.021329222 0.079999998 0.011974538 0 0.47704095 0
0.020286916 0.079999998 0.011972895 0 0.47704095 0
0.019244889 0.079999998 0.011971335 0 0.47704095 0
0.018203126 0.079999998 0.011969857 0 0.47704095 0
0.017161613 0.079999998 0.011968461 0 0.47704095 0
0.016120335 0.079999998 0.011967148 0 0.47704095 0
0.015079279 0.079999998 0.011965917 0 0.47704095 0
0.014038431 0.079999998 0.011964768 0 0.47704095 0
0.012997774 0.079999998 0.011963702 0 0.47704095 0
0.011957296 0.079999998 0.011962717 0 0.47704095 0
0.010916983 0.079999998 0.011961816 0 0.47704095 0
0.0098768184 0.079999998 0.011960995 0 0.47704095 0
0.00883679 0.079999998 0.011960258 0 0.47704095 0
0.0077968827 0.079999998 0.011959602 0 0.47704095 0
0.006757082 0.079999998 0.011959028 0 0.47704095 0
0.0057173744 0.079999998 0.011958536 0 0.47704095 0
0.0046777446 0.079999998 0.011958126 0 0.47704095 0
0.0036381795 0.079999998 0.011957798 0 0.47704095 0
0.002598664 0.079999998 0.011957552 0 0.47704095 0
0.0015591842 0.079999998 0.011957388 0 0.47704095 0
0.00051972567 0.079999998 0.011957306 0 0.47704095 0
0.039105117 0.079999998 0.010969806 0 0.47704095 0
0.038055852 0.079999998 0.010967015 0 0.47704095 0
0.037007112 0.079999998 0.010964301 0 0.47704095 0
0.035958886 0.079999998 0.010961664 0 0.47704095 0
0.034911156 0.079999998 0.010959103 0 0.47704095 0
0.033863906 0.079999998 0.010956619 0 0.47704095 0
0.032817125 0.079999998 0.010954211 0 0.47704095 0
0.031770799 0.079999998 0.010951878 0 0.47704095 0
0.030724909 0.079999998 0.010949622 0 0.47704095 0
0.029679442 0.079999998 0.010947441 0 0.47704095 0
0.028634386 0.079999998 0.010945337 0 0.47704095 0
0.027589723 0.079999998 0.010943308 0 0.47704095 0
0.026545441 0.079999998 0.010941355 0 0.47704095 0
0.025501525 0.079999998 0.010939478 0 0.47704095 0
0.024457958 0.079999998 0.010937676 0 0.47704095 0
0.023414729 0.079999998 0.01093595 0 0.47704095 0
0.022371823 0.079999998 0.010934299 0 0.47704095 0
0.021329222 0.079999998 0.010932724 0 0.47704095 0
0.020286916 0.079999998 0.010931224 0 0.47704095 0
0.019244889 0.079999998 0.0109298 0 0.47704095 0
0.018203126 0.079999998 0.01092845 0 0.47704095 0
0.017161613 0.079999998 0.010927176 0 0.47704095 0
0.016120335 0.079999998 0.010925977 0 0.47704095 0
0.015079279 0.079999998 0.010924853 0 0.47704095 0
0.014038431 0.079999998 0.010923805 0 0.47704095 0
0.012997774 0.079999998 0.010922831 0 0.47704095 0
0.011957296 0.079999998 0.010921932 0 0.47704095 0
0.010916983 0.079999998 0.010921109 0 0.47704095 0
0.0098768184 0.079999998 0.01092036 0 0.47704095 0
0.00883679 0.079999998 0.010919686 0 0.47704095 0
0.0077968827 0.079999998 0.010919088 0 0.47704095 0
0.006757082 0.079999998 0.010918563 0 0.47704095 0
0.0057173744 0.079999998 0.010918114 0 0.47704095 0
0.0046777446 0.079999998 0.01091774 0 0.47704095 0
0.0036381795 0.079999998 0.010917441 0 0.47704095 0
0.002598664 0.079999998 0.010917217 0 0.47704095 0
0.0015591842 0.079999998 0.010917067 0 0.47704095 0
0.00051972567 0.079999998 0.010916992 0 0.47704095 0
0.039105117 0.079999998 0.0099246083 0 0.47704095 0
0.038055852 0.079999998 0.0099220835 0 0.47704095 0
0.037007112 0.079999998 0.0099196285 0 0.47704095 0
0.035958886 0.079999998 0.0099172425 0 0.47704095 0
0.034911156 0.079999998 0.0099149263 0 0.47704095 0
0.033863906 0.079999998 0.009912678 0 0.47704095 0
0.032817125 0.079999998 0.0099104987 0 0.47704095 0
0.031770799 0.079999998 0.0099083893 0 0.47704095 0
0.030724909 0.079999998 0.0099063478 0 0.47704095 0
0.029679442 0.079999998 0.0099043753 0 0.47704095 0
0.028634386 0.079999998 0.0099024707 0 0.47704095 0
0.027589723 0.079999998 0.009900636 0 0.47704095 0
0.026545441 0.079999998 0.0098988684 0 0.47704095 0
0.025501525 0.079999998 0.0098971706 0 0.47704095 0
0.024457958 0.079999998 0.0098955408 0 0.47704095 0
0.023414729 0.079999998 0.0098939789 0 0.47704095 0
0.022371823 0.079999998 0.0098924851 0 0.47704095 0
0.021329222 0.079999998 0.0098910602 0 0.47704095 0
0.020286916 0.079999998 0.0098897032 0 0.47704095 0
0.019244889 0.079999998 0.0098884143 0 0.47704095 0
0.018203126 0.079999998 0.0098871933 0 0.47704095 0
0.017161613 0.079999998 0.0098860404 0 0.47704095 0
0.016120335 0.079999998 0.0098849563 0 0.47704095 0
0.015079279 0.079999998 0.0098839393 0 0.47704095 0
0.014038431 0.079999998 0.0098829903 0 0.47704095 0
0.012997774 0.079999998 0.0098821092 0 0.47704095 0
0.011957296 0.079999998 0.0098812962 0 0.47704095 0
0.010916983 0.079999998 0.0098805511 0 0.47704095 0
0.0098768184 0.079999998 0.0098798741 0 0.47704095 0
0.00883679 0.079999998 0.009879265 0 0.47704095 0
0.0077968827 0.079999998 0.009878723 0 0.47704095 0
0.006757082 0.079999998 0.0098782489 0 0.47704095 0
0.0057173744 0.079999998 0.0098778429 0 0.47704095 0
0.0046777446 0.079999998 0.0098775038 0 0.47704095 0
0.0036381795 0.079999998 0.0098772328 0 0.47704095 0
0.002598664 0.079999998 0.0098770298 0 0.47704095 0
0.0015591842 0.079999998 0.0098768948 0 0.47704095 0
0.00051972567 0.079999998 0.0098768268 0 0.47704095 0
0.039105117 0.079999998 0.008879547 0 0.47704095 0
0.038055852 0.079999998 0.0088772886 0 0.47704095 0
0.037007112 0.079999998 0.0088750925 0 0.47704095 0
0.035958886 0.079999998 0.0088729579 0 0.47704095 0
0.034911156 0.079999998 0.0088708848 0 0.47704095 0
0.033863906 0.079999998 0.0088688731 0 0.47704095 0
0.032817125 0.079999998 0.0088669239 0 0.47704095 0
0.031770799 0.079999998 0.0088650361 0 0.47704095 0
0.030724909 0.079999998 0.0088632097 0 0.47704095 0
0.029679442 0.079999998 0.0088614449 0 0.47704095 0
0.028634386 0.079999998 0.0088597415 0 0.47704095 0
0.027589723 0.079999998 0.0088580986 0 0.47704095 0
0.026545441 0.079999998 0.0088565182 0 0.47704095 0
0.025501525 0.079999998 0.0088549983 0 0.47704095 0
0.024457958 0.079999998 0.0088535408 0 0.47704095 0
0.023414729 0.079999998 0.0088521428 0 0.47704095 0
0.022371823 0.079999998 0.0088508073 0 0.47704095 0
0.021329222 0.079999998 0.0088495314 0 0.47704095 0
0.020286916 0.079999998 0.0088483179 0 0.47704095 0
0.019244889 0.079999998 0.0088471649 0 0.47704095 0
0.018203126 0.079999998 0.0088460725 0 0.47704095 0
0.017161613 0.079999998 0.0088450406 0 0.47704095 0
0.016120335 0.079999998 0.0088440701 0 0.47704095 0
0.015079279 0.079999998 0.0088431612 0 0.47704095 0
0.014038431 0.079999998 0.0088423118 0 0.47704095 0
0.012997774 0.079999998 0.0088415239 0 0.47704095 0
0.011957296 0.079999998 0.0088407965 0 0.47704095 0
0.010916983 0.079999998 0.0088401297 0 0.47704095 0
0.0098768184 0.079999998 0.0088395234 0 0.47704095 0
0.00883679 0.079999998 0.0088389786 0 0.47704095 0
0.0077968827 0.079999998 0.0088384934 0 0.47704095 0
0.006757082 0.079999998 0.0088380696 0 0.47704095 0
0.0057173744 0.079999998 0.0088377064 0 0.47704095 0
0.0046777446 0.079999998 0.0088374028 0 0.47704095 0
0.0036381795 0.079999998 0.0088371607 0 0.47704095 0
0.002598664 0.079999998 0.008836979 0 0.47704095 0
0.0015591842 0.079999998 0.008836858 0 0.47704095 0
0.00051972567 0.079999998 0.0088367974 0 0.47704095 0
0.039105117 0.079999998 0.0078346087 0 0.47704095 0
0.038055852 0.079999998 0.0078326156 0 0.47704095 0
0.037007112 0.079999998 0.0078306776 0 0.47704095 0
0.035958886 0.079999998 0.0078287935 0 0.47704095 0
0.034911156 0.079999998 0.0078269653 0 0.47704095 0
0.033863906 0.079999998 0.0078251902 0 0.47704095 0
0.032817125 0.079999998 0.00782347 0 0.47704095 0
0.031770799 0.079999998 0.0078218048 0 0.47704095 0
0.030724909 0.079999998 0.0078201927 0 0.47704095 0
0.029679442 0.079999998 0.0078186356 0 0.47704095 0
0.028634386 0.079999998 0.0078171333 0 0.47704095 0
0.027589723 0.079999998 0.0078156842 0 0.47704095 0
0.026545441 0.079999998 0.0078142891 0 0.47704095 0
0.025501525 0.079999998 0.0078129489 0 0.47704095 0
0.024457958 0.079999998 0.0078116618 0 0.47704095 0
0.023414729 0.079999998 0.0078104287 0 0.47704095 0
0.022371823 0.079999998 0.0078092501 0 0.47704095 0
0.021329222 0.079999998 0.0078081251 0 0.47704095 0
0.020286916 0.079999998 0.0078070536 0 0.47704095 0
0.019244889 0.079999998 0.0078060362 0 0.47704095 0
0.018203126 0.079999998 0.0078050727 0 0.47704095 0
0.017161613 0.079999998 0.0078041628 0 0.47704095 0
0.016120335 0.079999998 0.0078033064 0 0.47704095 0
0.015079279 0.079999998 0.0078025036 0 0.47704095 0
0.014038431 0.079999998 0.0078017549 0 0.47704095 0
0.012997774 0.079999998 0.0078010592 0 0.47704095 0
0.011957296 0.079999998 0.0078004175 0 0.47704095 0
0.010916983 0.079999998 0.0077998294 0 0.47704095 0
0.0098768184 0.079999998 0.0077992948 0 0.47704095 0
0.00883679 0.079999998 0.0077988133 0 0.47704095 0
0.0077968827 0.079999998 0.0077983858 0 0.47704095 0
0.006757082 0.079999998 0.0077980114 0 0.47704095 0
0.0057173744 0.079999998 0.007797691 0 0.47704095 0
0.0046777446 0.079999998 0.0077974238 0 0.47704095 0
0.0036381795 0.079999998 0.00779721 0 0.47704095 0
0.002598664 0.079999998 0.0077970494 0 0.47704095 0
0.0015591842 0.079999998 0.0077969427 0 0.47704095 0
0.00051972567 0.079999998 0.0077968892 0 0.47704095 0
0.039105117 0.079999998 0.0067897765 0 0.47704095 0
0.038055852 0.079999998 0.0067880498 0 0.47704095 0
0.037007112 0.079999998 0.0067863702 0 0.47704095 0
0.035958886 0.079999998 0.0067847376 0 0.47704095 0
0.034911156 0.079999998 0.0067831525 0 0.47704095 0
0.033863906 0.079999998 0.0067816149 0 0.47704095 0
0.032817125 0.079999998 0.0067801243 0 0.47704095 0
0.031770799 0.079999998 0.0067786803 0 0.47704095 0
0.030724909 0.079999998 0.0067772837 0 0.47704095 0
0.029679442 0.079999998 0.0067759342 0 0.47704095 0
0.028634386 0.079999998 0.0067746318 0 0.47704095 0
0.027589723 0.079999998 0.0067733764 0 0.47704095 0
0.026545441 0.079999998 0.0067721675 0 0.47704095 0
0.025501525 0.079999998 0.0067710052 0 0.47704095 0
0.024457958 0.079999998 0.0067698904 0 0.47704095 0
0.023414729 0.079999998 0.0067688217 0 0.47704095 0
0.022371823 0.079999998 0.0067678001 0 0.47704095 0
0.021329222 0.079999998 0.006766825 0 0.47704095 0
0.020286916 0.079999998 0.0067658969 0 0.47704095 0
0.019244889 0.079999998 0.006765015 0 0.47704095 0
0.018203126 0.079999998 0.00676418 0 0.47704095 0
0.017161613 0.079999998 0.0067633912 0 0.47704095 0
0.016120335 0.079999998 0.0067626489 0 0.47704095 0
0.015079279 0.079999998 0.0067619537 0 0.47704095 0
0.014038431 0.079999998 0.0067613046 0 0.47704095 0
0.012997774 0.079999998 0.006760702 0 0.47704095 0
0.011957296 0.079999998 0.0067601455 0 0.47704095 0
0.010916983 0.079999998 0.0067596356 0 0.47704095 0
0.0098768184 0.079999998 0.0067591723 0 0.47704095 0
0.00883679 0.079999998 0.0067587555 0 0.47704095 0
0.0077968827 0.079999998 0.0067583849 0 0.47704095 0
0.006757082 0.079999998 0.0067580603 0 0.47704095 0
0.0057173744 0.079999998 0.0067577828 0 0.47704095 0
0.0046777446 0.079999998 0.0067575509 0 0.47704095 0
0.0036381795 0.079999998 0.0067573655 0 0.47704095 0
0.002598664 0.079999998 0.0067572268 0 0.47704095 0
0.0015591842 0.079999998 0.0067571341 0 0.47704095 0
0.00051972567 0.079999998 0.006757088 0 0.47704095 0
0.039105117 0.079999998 0.0057450379 0 0.47704095 0
0.038055852 0.079999998 0.0057435767 0 0.47704095 0
0.037007112 0.079999998 0.0057421555 0 0.47704095 0
0.035958886 0.079999998 0.0057407743 0 0.47704095 0
0.034911156 0.079999998 0.0057394332 0 0.47704095 0
0.033863906 0.079999998 0.0057381322 0 0.47704095 0
0.032817125 0.079999998 0.0057368707 0 0.47704095 0
0.031770799 0.079999998 0.0057356493 0 0.47704095 0
0.030724909 0.079999998 0.0057344674 0 0.47704095 0
0.029679442 0.079999998 0.0057333256 0 0.47704095 0
0.028634386 0.079999998 0.0057322234 0 0.47704095 0
0.027589723 0.079999998 0.0057311612 0 0.47704095 0
0.026545441 0.079999998 0.0057301382 0 0.47704095 0
0.025501525 0.079999998 0.0057291551 0 0.47704095 0
0.024457958 0.079999998 0.0057282117 0 0.47704095 0
0.023414729 0.079999998 0.0057273074 0 0.47704095 0
0.022371823 0.079999998 0.0057264431 0 0.47704095 0
0.021329222 0.079999998 0.005725618 0 0.47704095 0
0.020286916 0.079999998 0.0057248324 0 0.47704095 0
0.019244889 0.079999998 0.0057240864 0 0.47704095 0
0.018203126 0.079999998 0.00572338 0 0.47704095 0
0.017161613 0.079999998 0.0057227127 0 0.47704095 0
0.016120335 0.079999998 0.0057220845 0 0.47704095 0
0.015079279 0.079999998 0.005721496 0 0.47704095 0
0.014038431 0.079999998 0.0057209469 0 0.47704095 0
0.012997774 0.079999998 0.005720437 0 0.47704095 0
0.011957296 0.079999998 0.0057199663 0 0.47704095 0
0.010916983 0.079999998 0.0057195351 0 0.47704095 0
0.0098768184 0.079999998 0.005719143 0 0.47704095 0
0.00883679 0.079999998 0.00571879 0 0.47704095 0
0.0077968827 0.079999998 0.0057184766 0 0.47704095 0
0.006757082 0.079999998 0.0057182023 0 0.47704095 0
0.0057173744 0.079999998 0.0057179672 0 0.47704095 0
0.0046777446 0.079999998 0.0057177711 0 0.47704095 0
0.0036381795 0.079999998 0.0057176142 0 0.47704095 0
0.002598664 0.079999998 0.0057174969 0 0.47704095 0
0.0015591842 0.079999998 0.0057174182 0 0.47704095 0
0.00051972567 0.079999998 0.005717379 0 0.47704095 0
0.039105117 0.079999998 0.0047003785 0 0.47704095 0
0.038055852 0.079999998 0.0046991827 0 0.47704095 0
0.037007112 0.079999998 0.0046980199 0 0.47704095 0
0.035958886 0.079999998 0.0046968898 0 0.47704095 0
0.034911156 0.079999998 0.0046957927 0 0.47704095 0
0.033863906 0.079999998 0.0046947282 0 0.47704095 0
0.032817125 0.079999998 0.0046936963 0 0.47704095 0
0.031770799 0.079999998 0.0046926965 0 0.47704095 0
0.030724909 0.079999998 0.0046917298 0 0.47704095 0
0.029679442 0.079999998 0.0046907957 0 0.47704095 0
0.028634386 0.079999998 0.0046898942 0 0.47704095 0
0.027589723 0.079999998 0.0046890248 0 0.47704095 0
0.026545441 0.079999998 0.004688188 0 0.47704095 0
0.025501525 0.079999998 0.0046873833 0 0.47704095 0
0.024457958 0.079999998 0.0046866117 0 0.47704095 0
0.023414729 0.079999998 0.0046858718 0 0.47704095 0
0.022371823 0.079999998 0.0046851644 0 0.47704095 0
0.021329222 0.079999998 0.0046844897 0 0.47704095 0
0.020286916 0.079999998 0.0046838471 0 0.47704095 0
0.019244889 0.079999998 0.0046832366 0 0.47704095 0
0.018203126 0.079999998 0.0046826582 0 0.47704095 0
0.017161613 0.079999998 0.0046821125 0 0.47704095 0
0.016120335 0.079999998 0.0046815989 0 0.47704095 0
0.015079279 0.079999998 0.0046811174 0 0.47704095 0
0.014038431 0.079999998 0.004680668 0 0.47704095 0
0.012997774 0.079999998 0.0046802508 0 0.47704095 0
0.011957296 0.079999998 0.0046798657 0 0.47704095 0
0.010916983 0.079999998 0.0046795127 0 0.47704095 0
0.0098768184 0.079999998 0.0046791919 0 0.47704095 0
0.00883679 0.079999998 0.0046789031 0 0.47704095 0
0.0077968827 0.079999998 0.0046786466 0 0.47704095 0
0.006757082 0.079999998 0.0046784221 0 0.47704095 0
0.0057173744 0.079999998 0.0046782298 0 0.47704095 0
0.0046777446 0.079999998 0.0046780691 0 0.47704095 0
0.0036381795 0.079999998 0.0046779411 0 0.47704095 0
0.002598664 0.079999998 0.0046778452 0 0.47704095 0
0.0015591842 0.079999998 0.0046777809 0 0.47704095 0
0.00051972567 0.079999998 0.0046777488 0 0.47704095 0
0.039105117 0.079999998 0.0036557829 0 0.47704095 0
0.038055852 0.079999998 0.0036548532 0 0.47704095 0
0.037007112 0.079999998 0.0036539487 0 0.47704095 0
0.035958886 0.079999998 0.00365307 0 0.47704095 0
0.034911156 0.079999998 0.0036522164 0 0.47704095 0
0.033863906 0.079999998 0.0036513885 0 0.47704095 0
0.032817125 0.079999998 0.0036505859 0 0.47704095 0
0.031770799 0.079999998 0.0036498085 0 0.47704095 0
0.030724909 0.079999998 0.0036490567 0 0.47704095 0
0.029679442 0.079999998 0.00364833 0 0.47704095 0
0.028634386 0.079999998 0.0036476287 0 0.47704095 0
0.027589723 0.079999998 0.0036469526 0 0.47704095 0
0.026545441 0.079999998 0.0036463018 0 0.47704095 0
0.025501525 0.079999998 0.0036456762 0 0.47704095 0
0.024457958 0.079999998 0.0036450757 0 0.47704095 0
0.023414729 0.079999998 0.0036445004 0 0.47704095 0
0.022371823 0.079999998 0.0036439502 0 0.47704095 0
0.021329222 0.079999998 0.0036434254 0 0.47704095 0
0.020286916 0.079999998 0.0036429255 0 0.47704095 0
0.019244889 0.079999998 0.0036424508 0 0.47704095 0
0.018203126 0.079999998 0.003642001 0 0.47704095 0
0.017161613 0.079999998 0.0036415765 0 0.47704095 0
0.016120335 0.079999998 0.003641177 0 0.47704095 0
0.015079279 0.079999998 0.0036408023 0 0.47704095 0
0.014038431 0.079999998 0.0036404529 0 0.47704095 0
0.012997774 0.079999998 0.0036401283 0 0.47704095 0
0.011957296 0.079999998 0.0036398289 0 0.47704095 0
0.010916983 0.079999998 0.0036395544 0 0.47704095 0
0.0098768184 0.079999998 0.003639305 0 0.47704095 0
0.00883679 0.079999998 0.0036390803 0 0.47704095 0
0.0077968827 0.079999998 0.0036388808 0 0.47704095 0
0.006757082 0.079999998 0.0036387062 0 0.47704095 0
0.0057173744 0.079999998 0.0036385567 0 0.47704095 0
0.0046777446 0.079999998 0.0036384319 0 0.47704095 0
0.0036381795 0.079999998 0.0036383322 0 0.47704095 0
0.002598664 0.079999998 0.0036382573 0 0.47704095 0
0.0015591842 0.079999998 0.0036382074 0 0.47704095 0
0.00051972567 0.079999998 0.0036381825 0 0.47704095 0
0.039105117 0.079999998 0.0026112378 0 0.47704095 0
0.038055852 0.079999998 0.0026105735 0 0.47704095 0
0.037007112 0.079999998 0.0026099277 0 0.47704095 0
0.035958886 0.079999998 0.0026093 0 0.47704095 0
0.034911156 0.079999998 0.0026086902 0 0.47704095 0
0.033863906 0.079999998 0.0026080988 0 0.47704095 0
0.032817125 0.079999998 0.0026075256 0 0.47704095 0
0.031770799 0.079999998 0.0026069703 0 0.47704095 0
0.030724909 0.079999998 0.0026064334 0 0.47704095 0
0.029679442 0.079999998 0.0026059141 0 0.47704095 0
0.028634386 0.079999998 0.0026054133 0 0.47704095 0
