# .PCD v0.7 - Point Cloud Data file format
VERSION 0.7
FIELDS x y z vp_x vp_y vp_z
SIZE 4 4 4 4 4 4
TYPE F F F F F F
COUNT 1 1 1 1 1 1
WIDTH 1005
HEIGHT 1
VIEWPOINT 0 0 0 1 0 0 0
POINTS 1005
DATA ascii
0.036123328 0.00057208556 0.039999999 0 0 0.47704095
0.033117674 0.074889593 0.07 0 0 0.47704095
0.033101842 0.073788419 0.07 0 0 0.47704095
0.033086255 0.072688289 0.07 0 0 0.47704095
0.033070907 0.071589187 0.07 0 0 0.47704095
0.033055797 0.070491098 0.07 0 0 0.47704095
0.033040933 0.069394 0.07 0 0 0.47704095
0.033026304 0.068297885 0.07 0 0 0.47704095
0.033011917 0.067202732 0.07 0 0 0.47704095
0.032997768 0.066108525 0.07 0 0 0.47704095
0.032983854 0.065015249 0.07 0 0 0.47704095
0.032970183 0.063922882 0.07 0 0 0.47704095
0.032956745 0.062831417 0.07 0 0 0.47704095
0.032943543 0.061740834 0.07 0 0 0.47704095
0.032930579 0.060651116 0.07 0 0 0.47704095
0.032917853 0.059562247 0.07 0 0 0.47704095
0.032905359 0.058474213 0.07 0 0 0.47704095
0.032893103 0.057386998 0.07 0 0 0.47704095
0.032881077 0.056300584 0.07 0 0 0.47704095
0.032869287 0.055214956 0.07 0 0 0.47704095
0.032857731 0.0541301 0.07 0 0 0.47704095
0.03284641 0.053045999 0.07 0 0 0.47704095
0.03283532 0.051962636 0.07 0 0 0.47704095
0.03282446 0.05088 0.07 0 0 0.47704095
0.032813836 0.049798068 0.07 0 0 0.47704095
0.032803442 0.048716832 0.07 0 0 0.47704095
0.032793276 0.047636274 0.07 0 0 0.47704095
0.032783344 0.046556376 0.07 0 0 0.47704095
0.032773644 0.045477126 0.07 0 0 0.47704095
0.033216398 0.045011312 0.064381845 0 0 0.47704095
0.035169058 0.046513338 0.039999999 0 0 0.47704095
0.035159383 0.045356527 0.039999999 0 0 0.47704095
0.035149951 0.044200346 0.039999999 0 0 0.47704095
0.035140768 0.043044776 0.039999999 0 0 0.47704095
0.035131831 0.041889802 0.039999999 0 0 0.47704095
0.035123136 0.040735405 0.039999999 0 0 0.47704095
0.035114687 0.039581574 0.039999999 0 0 0.47704095
0.035106484 0.038428288 0.039999999 0 0 0.47704095
0.035098527 0.037275534 0.039999999 0 0 0.47704095
0.035090812 0.036123298 0.039999999 0 0 0.47704095
0.035083339 0.034971558 0.039999999 0 0 0.47704095
0.035076112 0.033820298 0.039999999 0 0 0.47704095
0.035069127 0.032669507 0.039999999 0 0 0.47704095
0.035062384 0.031519163 0.039999999 0 0 0.47704095
0.035055887 0.030369258 0.039999999 0 0 0.47704095
0.035049632 0.029219769 0.039999999 0 0 0.47704095
0.035043616 0.028070683 0.039999999 0 0 0.47704095
0.035037845 0.026921982 0.039999999 0 0 0.47704095
0.035032317 0.025773652 0.039999999 0 0 0.47704095
0.035027027 0.024625678 0.039999999 0 0 0.47704095
0.035021983 0.02347804 0.039999999 0 0 0.47704095
0.035017177 0.022330727 0.039999999 0 0 0.47704095
0.035012614 0.02118372 0.039999999 0 0 0.47704095
0.035008289 0.020037005 0.039999999 0 0 0.47704095
0.03500421 0.018890565 0.039999999 0 0 0.47704095
0.035000369 0.017744383 0.039999999 0 0 0.47704095
0.03499677 0.016598446 0.039999999 0 0 0.47704095
0.03499341 0.015452736 0.039999999 0 0 0.47704095
0.034990288 0.014307239 0.039999999 0 0 0.47704095
0.034987412 0.013161938 0.039999999 0 0 0.47704095
0.034984775 0.012016817 0.039999999 0 0 0.47704095
0.034982376 0.010871861 0.039999999 0 0 0.47704095
0.034980215 0.0097270552 0.039999999 0 0 0.47704095
0.034978297 0.0085823815 0.039999999 0 0 0.47704095
0.03497662 0.0074378261 0.039999999 0 0 0.47704095
0.034975182 0.0062933727 0.039999999 0 0 0.47704095
0.034973983 0.0051490054 0.039999999 0 0 0.47704095
0.034973025 0.004004709 0.039999999 0 0 0.47704095
0.034972306 0.0028604672 0.039999999 0 0 0.47704095
0.034971826 0.0017162645 0.039999999 0 0 0.47704095
0.034971587 0.00057208556 0.039999999 0 0 0.47704095
0.032027446 0.074889593 0.07 0 0 0.47704095
0.032012135 0.073788419 0.07 0 0 0.47704095
0.031997059 0.072688289 0.07 0 0 0.47704095
0.031982217 0.071589187 0.07 0 0 0.47704095
0.031967606 0.070491098 0.07 0 0 0.47704095
0.031953231 0.069394 0.07 0 0 0.47704095
0.031939086 0.068297885 0.07 0 0 0.47704095
0.031925168 0.067202732 0.07 0 0 0.47704095
0.031911485 0.066108525 0.07 0 0 0.47704095
0.031898033 0.065015249 0.07 0 0 0.47704095
0.031884808 0.063922882 0.07 0 0 0.47704095
0.031871814 0.062831417 0.07 0 0 0.47704095
0.031859048 0.061740834 0.07 0 0 0.47704095
0.031846512 0.060651116 0.07 0 0 0.47704095
0.031834204 0.059562247 0.07 0 0 0.47704095
0.031822119 0.058474213 0.07 0 0 0.47704095
0.031810265 0.057386998 0.07 0 0 0.47704095
0.031798638 0.056300584 0.07 0 0 0.47704095
0.031787235 0.055214956 0.07 0 0 0.47704095
0.031776059 0.0541301 0.07 0 0 0.47704095
0.031765111 0.053045999 0.07 0 0 0.47704095
0.031754386 0.051962636 0.07 0 0 0.47704095
0.031743884 0.05088 0.07 0 0 0.47704095
0.03173361 0.049798068 0.07 0 0 0.47704095
0.031723555 0.048716832 0.07 0 0 0.47704095
0.031713728 0.047636274 0.07 0 0 0.47704095
0.031704124 0.046556376 0.07 0 0 0.47704095
0.03169474 0.045477126 0.07 0 0 0.47704095
0.031685583 0.044398505 0.07 0 0 0.47704095
0.032450516 0.044378836 0.060055844 0 0 0.47704095
0.034001939 0.045356527 0.039999999 0 0 0.47704095
0.033992819 0.044200346 0.039999999 0 0 0.47704095
0.033983938 0.043044776 0.039999999 0 0 0.47704095
0.033975296 0.041889802 0.039999999 0 0 0.47704095
0.033966888 0.040735405 0.039999999 0 0 0.47704095
0.033958718 0.039581574 0.039999999 0 0 0.47704095
0.033950783 0.038428288 0.039999999 0 0 0.47704095
0.033943087 0.037275534 0.039999999 0 0 0.47704095
0.033935625 0.036123298 0.039999999 0 0 0.47704095
0.033928402 0.034971558 0.039999999 0 0 0.47704095
0.033921413 0.033820298 0.039999999 0 0 0.47704095
0.033914655 0.032669507 0.039999999 0 0 0.47704095
0.033908136 0.031519163 0.039999999 0 0 0.47704095
0.033901852 0.030369258 0.039999999 0 0 0.47704095
0.033895802 0.029219769 0.039999999 0 0 0.47704095
0.033889987 0.028070683 0.039999999 0 0 0.47704095
0.033884406 0.026921982 0.039999999 0 0 0.47704095
0.033879057 0.025773652 0.039999999 0 0 0.47704095
0.033873942 0.024625678 0.039999999 0 0 0.47704095
0.033869062 0.02347804 0.039999999 0 0 0.47704095
0.033864416 0.022330727 0.039999999 0 0 0.47704095
0.033860002 0.02118372 0.039999999 0 0 0.47704095
0.033855822 0.020037005 0.039999999 0 0 0.47704095
0.033851877 0.018890565 0.039999999 0 0 0.47704095
0.033848163 0.017744383 0.039999999 0 0 0.47704095
0.03384468 0.016598446 0.039999999 0 0 0.47704095
0.033841431 0.015452736 0.039999999 0 0 0.47704095
0.033838414 0.014307239 0.039999999 0 0 0.47704095
0.033835631 0.013161938 0.039999999 0 0 0.47704095
0.033833079 0.012016817 0.039999999 0 0 0.47704095
0.033830762 0.010871861 0.039999999 0 0 0.47704095
0.033828672 0.0097270552 0.039999999 0 0 0.47704095
0.033826817 0.0085823815 0.039999999 0 0 0.47704095
0.033825196 0.0074378261 0.039999999 0 0 0.47704095
0.033823803 0.0062933727 0.039999999 0 0 0.47704095
0.033822645 0.0051490054 0.039999999 0 0 0.47704095
0.033821717 0.004004709 0.039999999 0 0 0.47704095
0.033821024 0.0028604672 0.039999999 0 0 0.47704095
0.033820558 0.0017162645 0.039999999 0 0 0.47704095
0.033820327 0.00057208556 0.039999999 0 0 0.47704095
0.030952673 0.075991832 0.07 0 0 0.47704095
0.030937659 0.074889593 0.07 0 0 0.47704095
0.030922869 0.073788419 0.07 0 0 0.47704095
0.030908307 0.072688289 0.07 0 0 0.47704095
0.030893968 0.071589187 0.07 0 0 0.47704095
0.030879857 0.070491098 0.07 0 0 0.47704095
0.030865967 0.069394 0.07 0 0 0.47704095
0.030852303 0.068297885 0.07 0 0 0.47704095
0.030838862 0.067202732 0.07 0 0 0.47704095
0.030825645 0.066108525 0.07 0 0 0.47704095
0.030812649 0.065015249 0.07 0 0 0.47704095
0.030799875 0.063922882 0.07 0 0 0.47704095
0.030787323 0.062831417 0.07 0 0 0.47704095
0.030774992 0.061740834 0.07 0 0 0.47704095
0.030762881 0.060651116 0.07 0 0 0.47704095
0.03075099 0.059562247 0.07 0 0 0.47704095
0.03073932 0.058474213 0.07 0 0 0.47704095
0.030727869 0.057386998 0.07 0 0 0.47704095
0.030716637 0.056300584 0.07 0 0 0.47704095
0.030705623 0.055214956 0.07 0 0 0.47704095
0.030694827 0.0541301 0.07 0 0 0.47704095
0.030684249 0.053045999 0.07 0 0 0.47704095
0.030673889 0.051962636 0.07 0 0 0.47704095
0.030663745 0.05088 0.07 0 0 0.47704095
0.030653819 0.049798068 0.07 0 0 0.47704095
0.030644109 0.048716832 0.07 0 0 0.47704095
0.030634616 0.047636274 0.07 0 0 0.47704095
0.030625338 0.046556376 0.07 0 0 0.47704095
0.030616276 0.045477126 0.07 0 0 0.47704095
0.030607427 0.044398505 0.07 0 0 0.47704095
0.030598795 0.043320503 0.07 0 0 0.47704095
0.03175297 0.043848556 0.054530315 0 0 0.47704095
0.032836158 0.044200346 0.039999999 0 0 0.47704095
0.032827578 0.043044776 0.039999999 0 0 0.47704095
0.03281923 0.041889802 0.039999999 0 0 0.47704095
0.032811109 0.040735405 0.039999999 0 0 0.47704095
0.032803215 0.039581574 0.039999999 0 0 0.47704095
0.032795552 0.038428288 0.039999999 0 0 0.47704095
0.032788116 0.037275534 0.039999999 0 0 0.47704095
0.032780912 0.036123298 0.039999999 0 0 0.47704095
0.032773931 0.034971558 0.039999999 0 0 0.47704095
0.03276718 0.033820298 0.039999999 0 0 0.47704095
0.032760654 0.032669507 0.039999999 0 0 0.47704095
0.032754358 0.031519163 0.039999999 0 0 0.47704095
0.032748286 0.030369258 0.039999999 0 0 0.47704095
0.032742441 0.029219769 0.039999999 0 0 0.47704095
0.032736823 0.028070683 0.039999999 0 0 0.47704095
0.032731432 0.026921982 0.039999999 0 0 0.47704095
0.032726265 0.025773652 0.039999999 0 0 0.47704095
0.032721326 0.024625678 0.039999999 0 0 0.47704095
0.032716613 0.02347804 0.039999999 0 0 0.47704095
0.032712124 0.022330727 0.039999999 0 0 0.47704095
0.032707863 0.02118372 0.039999999 0 0 0.47704095
0.032703824 0.020037005 0.039999999 0 0 0.47704095
0.03270001 0.018890565 0.039999999 0 0 0.47704095
0.032696422 0.017744383 0.039999999 0 0 0.47704095
0.032693058 0.016598446 0.039999999 0 0 0.47704095
0.032689922 0.015452736 0.039999999 0 0 0.47704095
0.032687008 0.014307239 0.039999999 0 0 0.47704095
0.032684319 0.013161938 0.039999999 0 0 0.47704095
0.032681853 0.012016817 0.039999999 0 0 0.47704095
0.032679614 0.010871861 0.039999999 0 0 0.47704095
0.032677598 0.0097270552 0.039999999 0 0 0.47704095
0.032675806 0.0085823815 0.039999999 0 0 0.47704095
0.032674238 0.0074378261 0.039999999 0 0 0.47704095
0.032672893 0.0062933727 0.039999999 0 0 0.47704095
0.032671772 0.0051490054 0.039999999 0 0 0.47704095
0.032670878 0.004004709 0.039999999 0 0 0.47704095
0.032670207 0.0028604672 0.039999999 0 0 0.47704095
0.032669757 0.0017162645 0.039999999 0 0 0.47704095
0.032669533 0.00057208556 0.039999999 0 0 0.47704095
0.029877489 0.077095143 0.07 0 0 0.47704095
0.029862784 0.075991832 0.07 0 0 0.47704095
0.029848298 0.074889593 0.07 0 0 0.47704095
0.02983403 0.073788419 0.07 0 0 0.47704095
0.02981998 0.072688289 0.07 0 0 0.47704095
0.029806146 0.071589187 0.07 0 0 0.47704095
0.02979253 0.070491098 0.07 0 0 0.47704095
0.029779132 0.069394 0.07 0 0 0.47704095
0.029765949 0.068297885 0.07 0 0 0.47704095
0.029752981 0.067202732 0.07 0 0 0.47704095
0.029740227 0.066108525 0.07 0 0 0.47704095
0.02972769 0.065015249 0.07 0 0 0.47704095
0.029715367 0.063922882 0.07 0 0 0.47704095
0.029703256 0.062831417 0.07 0 0 0.47704095
0.029691359 0.061740834 0.07 0 0 0.47704095
0.029679675 0.060651116 0.07 0 0 0.47704095
0.029668203 0.059562247 0.07 0 0 0.47704095
0.029656943 0.058474213 0.07 0 0 0.47704095
0.029645896 0.057386998 0.07 0 0 0.47704095
0.029635059 0.056300584 0.07 0 0 0.47704095
0.029624432 0.055214956 0.07 0 0 0.47704095
0.029614016 0.0541301 0.07 0 0 0.47704095
0.029603813 0.053045999 0.07 0 0 0.47704095
0.029593816 0.051962636 0.07 0 0 0.47704095
0.029584032 0.05088 0.07 0 0 0.47704095
0.029574454 0.049798068 0.07 0 0 0.47704095
0.029565087 0.048716832 0.07 0 0 0.47704095
0.029555926 0.047636274 0.07 0 0 0.47704095
0.029546974 0.046556376 0.07 0 0 0.47704095
0.029538231 0.045477126 0.07 0 0 0.47704095
0.029529694 0.044398505 0.07 0 0 0.47704095
0.029521367 0.043320503 0.07 0 0 0.47704095
0.029722933 0.042543232 0.067108005 0 0 0.47704095
0.031075533 0.043357056 0.048338227 0 0 0.47704095
0.031671673 0.043044776 0.039999999 0 0 0.47704095
0.031663615 0.041889802 0.039999999 0 0 0.47704095
0.031655781 0.040735405 0.039999999 0 0 0.47704095
0.031648166 0.039581574 0.039999999 0 0 0.47704095
0.031640776 0.038428288 0.039999999 0 0 0.47704095
0.031633601 0.037275534 0.039999999 0 0 0.47704095
0.031626645 0.036123298 0.039999999 0 0 0.47704095
0.031619914 0.034971558 0.039999999 0 0 0.47704095
0.031613398 0.033820298 0.039999999 0 0 0.47704095
0.031607103 0.032669507 0.039999999 0 0 0.47704095
0.031601027 0.031519163 0.039999999 0 0 0.47704095
0.03159517 0.030369258 0.039999999 0 0 0.47704095
0.03158953 0.029219769 0.039999999 0 0 0.47704095
0.03158411 0.028070683 0.039999999 0 0 0.47704095
0.03157891 0.026921982 0.039999999 0 0 0.47704095
0.031573925 0.025773652 0.039999999 0 0 0.47704095
0.031569161 0.024625678 0.039999999 0 0 0.47704095
0.031564612 0.02347804 0.039999999 0 0 0.47704095
0.031560283 0.022330727 0.039999999 0 0 0.47704095
0.03155617 0.02118372 0.039999999 0 0 0.47704095
0.031552274 0.020037005 0.039999999 0 0 0.47704095
0.031548593 0.018890565 0.039999999 0 0 0.47704095
0.031545132 0.017744383 0.039999999 0 0 0.47704095
0.031541888 0.016598446 0.039999999 0 0 0.47704095
0.031538859 0.015452736 0.039999999 0 0 0.47704095
0.03153605 0.014307239 0.039999999 0 0 0.47704095
0.031533454 0.013161938 0.039999999 0 0 0.47704095
0.031531077 0.012016817 0.039999999 0 0 0.47704095
0.031528916 0.010871861 0.039999999 0 0 0.47704095
0.031526972 0.0097270552 0.039999999 0 0 0.47704095
0.031525243 0.0085823815 0.039999999 0 0 0.47704095
0.031523731 0.0074378261 0.039999999 0 0 0.47704095
0.031522434 0.0062933727 0.039999999 0 0 0.47704095
0.031521354 0.0051490054 0.039999999 0 0 0.47704095
0.03152049 0.004004709 0.039999999 0 0 0.47704095
0.031519841 0.0028604672 0.039999999 0 0 0.47704095
0.031519409 0.0017162645 0.039999999 0 0 0.47704095
0.031519193 0.00057208556 0.039999999 0 0 0.47704095
0.028787475 0.077095143 0.07 0 0 0.47704095
0.028773306 0.075991832 0.07 0 0 0.47704095
0.028759349 0.074889593 0.07 0 0 0.47704095
0.028745601 0.073788419 0.07 0 0 0.47704095
0.028732063 0.072688289 0.07 0 0 0.47704095
0.028718736 0.071589187 0.07 0 0 0.47704095
0.028705617 0.070491098 0.07 0 0 0.47704095
0.028692706 0.069394 0.07 0 0 0.47704095
0.028680004 0.068297885 0.07 0 0 0.47704095
0.02866751 0.067202732 0.07 0 0 0.47704095
0.028655222 0.066108525 0.07 0 0 0.47704095
0.028643141 0.065015249 0.07 0 0 0.47704095
0.028631266 0.063922882 0.07 0 0 0.47704095
0.028619599 0.062831417 0.07 0 0 0.47704095
0.028608136 0.061740834 0.07 0 0 0.47704095
0.028596876 0.060651116 0.07 0 0 0.47704095
0.028585823 0.059562247 0.07 0 0 0.47704095
0.028574975 0.058474213 0.07 0 0 0.47704095
0.02856433 0.057386998 0.07 0 0 0.47704095
0.028553888 0.056300584 0.07 0 0 0.47704095
0.028543651 0.055214956 0.07 0 0 0.47704095
0.028533615 0.0541301 0.07 0 0 0.47704095
0.028523782 0.053045999 0.07 0 0 0.47704095
0.028514152 0.051962636 0.07 0 0 0.47704095
0.028504722 0.05088 0.07 0 0 0.47704095
0.028495496 0.049798068 0.07 0 0 0.47704095
0.02848647 0.048716832 0.07 0 0 0.47704095
0.028477643 0.047636274 0.07 0 0 0.47704095
0.028469019 0.046556376 0.07 0 0 0.47704095
0.028460594 0.045477126 0.07 0 0 0.47704095
0.028452368 0.044398505 0.07 0 0 0.47704095
0.028444344 0.043320503 0.07 0 0 0.47704095
0.028436519 0.042243097 0.07 0 0 0.47704095
0.029168643 0.042237476 0.059408329 0 0 0.47704095
0.030486215 0.043002479 0.040429443 0 0 0.47704095
0.03050844 0.041889802 0.039999999 0 0 0.47704095
0.030500891 0.040735405 0.039999999 0 0 0.47704095
0.030493554 0.039581574 0.039999999 0 0 0.47704095
0.030486429 0.038428288 0.039999999 0 0 0.47704095
0.030479519 0.037275534 0.039999999 0 0 0.47704095
0.030472819 0.036123298 0.039999999 0 0 0.47704095
0.030466329 0.034971558 0.039999999 0 0 0.47704095
0.030460054 0.033820298 0.039999999 0 0 0.47704095
0.030453987 0.032669507 0.039999999 0 0 0.47704095
0.030448133 0.031519163 0.039999999 0 0 0.47704095
0.030442491 0.030369258 0.039999999 0 0 0.47704095
0.030437058 0.029219769 0.039999999 0 0 0.47704095
0.030431835 0.028070683 0.039999999 0 0 0.47704095
0.030426823 0.026921982 0.039999999 0 0 0.47704095
0.030422021 0.025773652 0.039999999 0 0 0.47704095
0.030417429 0.024625678 0.039999999 0 0 0.47704095
0.030413046 0.02347804 0.039999999 0 0 0.47704095
0.030408874 0.022330727 0.039999999 0 0 0.47704095
0.030404912 0.02118372 0.039999999 0 0 0.47704095
0.030401157 0.020037005 0.039999999 0 0 0.47704095
0.030397614 0.018890565 0.039999999 0 0 0.47704095
0.030394278 0.017744383 0.039999999 0 0 0.47704095
0.030391153 0.016598446 0.039999999 0 0 0.47704095
0.030388234 0.015452736 0.039999999 0 0 0.47704095
0.030385526 0.014307239 0.039999999 0 0 0.47704095
0.030383026 0.013161938 0.039999999 0 0 0.47704095
0.030380735 0.012016817 0.039999999 0 0 0.47704095
0.030378653 0.010871861 0.039999999 0 0 0.47704095
0.030376779 0.0097270552 0.039999999 0 0 0.47704095
0.030375112 0.0085823815 0.039999999 0 0 0.47704095
0.030373655 0.0074378261 0.039999999 0 0 0.47704095
0.030372405 0.0062933727 0.039999999 0 0 0.47704095
0.030371366 0.0051490054 0.039999999 0 0 0.47704095
0.030370533 0.004004709 0.039999999 0 0 0.47704095
0.030369908 0.0028604672 0.039999999 0 0 0.47704095
0.030369492 0.0017162645 0.039999999 0 0 0.47704095
0.030369284 0.00057208556 0.039999999 0 0 0.47704095
0.027711693 0.078199551 0.07 0 0 0.47704095
0.027697857 0.077095143 0.07 0 0 0.47704095
0.027684225 0.075991832 0.07 0 0 0.47704095
0.027670795 0.074889593 0.07 0 0 0.47704095
0.027657568 0.073788419 0.07 0 0 0.47704095
0.027644543 0.072688289 0.07 0 0 0.47704095
0.027631721 0.071589187 0.07 0 0 0.47704095
0.027619097 0.070491098 0.07 0 0 0.47704095
0.027606675 0.069394 0.07 0 0 0.47704095
0.027594455 0.068297885 0.07 0 0 0.47704095
0.027582433 0.067202732 0.07 0 0 0.47704095
0.027570609 0.066108525 0.07 0 0 0.47704095
0.027558986 0.065015249 0.07 0 0 0.47704095
0.027547561 0.063922882 0.07 0 0 0.47704095
0.027536334 0.062831417 0.07 0 0 0.47704095
0.027525306 0.061740834 0.07 0 0 0.47704095
0.027514474 0.060651116 0.07 0 0 0.47704095
0.027503839 0.059562247 0.07 0 0 0.47704095
0.0274934 0.058474213 0.07 0 0 0.47704095
0.027483158 0.057386998 0.07 0 0 0.47704095
0.027473113 0.056300584 0.07 0 0 0.47704095
0.027463261 0.055214956 0.07 0 0 0.47704095
0.027453607 0.0541301 0.07 0 0 0.47704095
0.027444145 0.053045999 0.07 0 0 0.47704095
0.02743488 0.051962636 0.07 0 0 0.47704095
0.027425807 0.05088 0.07 0 0 0.47704095
0.02741693 0.049798068 0.07 0 0 0.47704095
0.027408244 0.048716832 0.07 0 0 0.47704095
0.027399752 0.047636274 0.07 0 0 0.47704095
0.027391454 0.046556376 0.07 0 0 0.47704095
0.027383348 0.045477126 0.07 0 0 0.47704095
0.027375435 0.044398505 0.07 0 0 0.47704095
0.027367715 0.043320503 0.07 0 0 0.47704095
0.027360184 0.042243097 0.07 0 0 0.47704095
0.027574565 0.041499969 0.066700585 0 0 0.47704095
0.028645342 0.041995369 0.050654817 0 0 0.47704095
0.029353682 0.041889802 0.039999999 0 0 0.47704095
0.029346419 0.040735405 0.039999999 0 0 0.47704095
0.02933936 0.039581574 0.039999999 0 0 0.47704095
0.029332506 0.038428288 0.039999999 0 0 0.47704095
0.029325856 0.037275534 0.039999999 0 0 0.47704095
0.029319409 0.036123298 0.039999999 0 0 0.47704095
0.029313168 0.034971558 0.039999999 0 0 0.47704095
0.029307129 0.033820298 0.039999999 0 0 0.47704095
0.029301291 0.032669507 0.039999999 0 0 0.47704095
0.029295659 0.031519163 0.039999999 0 0 0.47704095
0.029290229 0.030369258 0.039999999 0 0 0.47704095
0.029285002 0.029219769 0.039999999 0 0 0.47704095
0.029279977 0.028070683 0.039999999 0 0 0.47704095
0.029275155 0.026921982 0.039999999 0 0 0.47704095
0.029270535 0.025773652 0.039999999 0 0 0.47704095
0.029266117 0.024625678 0.039999999 0 0 0.47704095
0.0292619 0.02347804 0.039999999 0 0 0.47704095
0.029257886 0.022330727 0.039999999 0 0 0.47704095
0.029254073 0.02118372 0.039999999 0 0 0.47704095
0.029250462 0.020037005 0.039999999 0 0 0.47704095
0.029247051 0.018890565 0.039999999 0 0 0.47704095
0.029243842 0.017744383 0.039999999 0 0 0.47704095
0.029240835 0.016598446 0.039999999 0 0 0.47704095
0.029238028 0.015452736 0.039999999 0 0 0.47704095
0.029235423 0.014307239 0.039999999 0 0 0.47704095
0.029233016 0.013161938 0.039999999 0 0 0.47704095
0.029230813 0.012016817 0.039999999 0 0 0.47704095
0.029228808 0.010871861 0.039999999 0 0 0.47704095
0.029227005 0.0097270552 0.039999999 0 0 0.47704095
0.029225402 0.0085823815 0.039999999 0 0 0.47704095
0.029224001 0.0074378261 0.039999999 0 0 0.47704095
0.029222798 0.0062933727 0.039999999 0 0 0.47704095
0.029221797 0.0051490054 0.039999999 0 0 0.47704095
0.029220996 0.004004709 0.039999999 0 0 0.47704095
0.029220395 0.0028604672 0.039999999 0 0 0.47704095
0.029219994 0.0017162645 0.039999999 0 0 0.47704095
0.029219793 0.00057208556 0.039999999 0 0 0.47704095
0.026621914 0.078199551 0.07 0 0 0.47704095
0.026608622 0.077095143 0.07 0 0 0.47704095
0.026595525 0.075991832 0.07 0 0 0.47704095
0.026582623 0.074889593 0.07 0 0 0.47704095
0.026569916 0.073788419 0.07 0 0 0.47704095
0.026557403 0.072688289 0.07 0 0 0.47704095
0.026545085 0.071589187 0.07 0 0 0.47704095
0.026532959 0.070491098 0.07 0 0 0.47704095
0.026521025 0.069394 0.07 0 0 0.47704095
0.026509285 0.068297885 0.07 0 0 0.47704095
0.026497735 0.067202732 0.07 0 0 0.47704095
0.026486378 0.066108525 0.07 0 0 0.47704095
0.026475212 0.065015249 0.07 0 0 0.47704095
0.026464235 0.063922882 0.07 0 0 0.47704095
0.02645345 0.062831417 0.07 0 0 0.47704095
0.026442856 0.061740834 0.07 0 0 0.47704095
0.026432449 0.060651116 0.07 0 0 0.47704095
0.026422232 0.059562247 0.07 0 0 0.47704095
0.026412204 0.058474213 0.07 0 0 0.47704095
0.026402365 0.057386998 0.07 0 0 0.47704095
0.026392715 0.056300584 0.07 0 0 0.47704095
0.026383251 0.055214956 0.07 0 0 0.47704095
0.026373975 0.0541301 0.07 0 0 0.47704095
0.026364887 0.053045999 0.07 0 0 0.47704095
0.026355986 0.051962636 0.07 0 0 0.47704095
0.02634727 0.05088 0.07 0 0 0.47704095
0.026338741 0.049798068 0.07 0 0 0.47704095
0.026330397 0.048716832 0.07 0 0 0.47704095
0.02632224 0.047636274 0.07 0 0 0.47704095
0.026314268 0.046556376 0.07 0 0 0.47704095
0.02630648 0.045477126 0.07 0 0 0.47704095
0.026298879 0.044398505 0.07 0 0 0.47704095
0.026291462 0.043320503 0.07 0 0 0.47704095
0.026284227 0.042243097 0.07 0 0 0.47704095
0.026277179 0.041166279 0.07 0 0 0.47704095
0.027068283 0.041307785 0.057635967 0 0 0.47704095
0.028100798 0.041743431 0.041527081 0 0 0.47704095
0.028192353 0.040735405 0.039999999 0 0 0.47704095
0.028185571 0.039581574 0.039999999 0 0 0.47704095
0.028178986 0.038428288 0.039999999 0 0 0.47704095
0.028172597 0.037275534 0.039999999 0 0 0.47704095
0.028166404 0.036123298 0.039999999 0 0 0.47704095
0.028160408 0.034971558 0.039999999 0 0 0.47704095
0.028154606 0.033820298 0.039999999 0 0 0.47704095
0.028148999 0.032669507 0.039999999 0 0 0.47704095
0.028143588 0.031519163 0.039999999 0 0 0.47704095
0.028138373 0.030369258 0.039999999 0 0 0.47704095
0.028133351 0.029219769 0.039999999 0 0 0.47704095
0.028128523 0.028070683 0.039999999 0 0 0.47704095
0.028123891 0.026921982 0.039999999 0 0 0.47704095
0.028119452 0.025773652 0.039999999 0 0 0.47704095
0.028115207 0.024625678 0.039999999 0 0 0.47704095
0.028111158 0.02347804 0.039999999 0 0 0.47704095
0.0281073 0.022330727 0.039999999 0 0 0.47704095
0.028103638 0.02118372 0.039999999 0 0 0.47704095
0.028100168 0.020037005 0.039999999 0 0 0.47704095
0.028096892 0.018890565 0.039999999 0 0 0.47704095
0.028093809 0.017744383 0.039999999 0 0 0.47704095
0.02809092 0.016598446 0.039999999 0 0 0.47704095
0.028088223 0.015452736 0.039999999 0 0 0.47704095
0.02808572 0.014307239 0.039999999 0 0 0.47704095
0.02808341 0.013161938 0.039999999 0 0 0.47704095
0.028081292 0.012016817 0.039999999 0 0 0.47704095
0.028079366 0.010871861 0.039999999 0 0 0.47704095
0.028077634 0.0097270552 0.039999999 0 0 0.47704095
0.028076094 0.0085823815 0.039999999 0 0 0.47704095
0.028074747 0.0074378261 0.039999999 0 0 0.47704095
0.028073592 0.0062933727 0.039999999 0 0 0.47704095
0.028072631 0.0051490054 0.039999999 0 0 0.47704095
0.028071862 0.004004709 0.039999999 0 0 0.47704095
0.028071284 0.0028604672 0.039999999 0 0 0.47704095
0.028070899 0.0017162645 0.039999999 0 0 0.47704095
0.028070707 0.00057208556 0.039999999 0 0 0.47704095
0.025532499 0.078199551 0.07 0 0 0.47704095
0.025519751 0.077095143 0.07 0 0 0.47704095
0.025507191 0.075991832 0.07 0 0 0.47704095
0.025494818 0.074889593 0.07 0 0 0.47704095
0.02548263 0.073788419 0.07 0 0 0.47704095
0.025470629 0.072688289 0.07 0 0 0.47704095
0.025458815 0.071589187 0.07 0 0 0.47704095
0.025447184 0.070491098 0.07 0 0 0.47704095
0.02543574 0.069394 0.07 0 0 0.47704095
0.025424479 0.068297885 0.07 0 0 0.47704095
0.025413403 0.067202732 0.07 0 0 0.47704095
0.025402511 0.066108525 0.07 0 0 0.47704095
0.0253918 0.065015249 0.07 0 0 0.47704095
0.025381275 0.063922882 0.07 0 0 0.47704095
0.025370929 0.062831417 0.07 0 0 0.47704095
0.025360769 0.061740834 0.07 0 0 0.47704095
0.025350789 0.060651116 0.07 0 0 0.47704095
0.025340989 0.059562247 0.07 0 0 0.47704095
0.025331372 0.058474213 0.07 0 0 0.47704095
0.025321936 0.057386998 0.07 0 0 0.47704095
0.025312679 0.056300584 0.07 0 0 0.47704095
0.025303604 0.055214956 0.07 0 0 0.47704095
0.025294708 0.0541301 0.07 0 0 0.47704095
0.025285991 0.053045999 0.07 0 0 0.47704095
0.025277453 0.051962636 0.07 0 0 0.47704095
0.025269095 0.05088 0.07 0 0 0.47704095
0.025260914 0.049798068 0.07 0 0 0.47704095
0.025252912 0.048716832 0.07 0 0 0.47704095
0.025245089 0.047636274 0.07 0 0 0.47704095
0.025237443 0.046556376 0.07 0 0 0.47704095
0.025229976 0.045477126 0.07 0 0 0.47704095
0.025222683 0.044398505 0.07 0 0 0.47704095
0.02521557 0.043320503 0.07 0 0 0.47704095
0.025208632 0.042243097 0.07 0 0 0.47704095
0.025201872 0.041166279 0.07 0 0 0.47704095
0.025663016 0.04083427 0.062443621 0 0 0.47704095
0.026558748 0.041136093 0.047863513 0 0 0.47704095
0.027038673 0.040735405 0.039999999 0 0 0.47704095
0.027032169 0.039581574 0.039999999 0 0 0.47704095
0.027025854 0.038428288 0.039999999 0 0 0.47704095
0.027019726 0.037275534 0.039999999 0 0 0.47704095
0.027013788 0.036123298 0.039999999 0 0 0.47704095
0.027008036 0.034971558 0.039999999 0 0 0.47704095
0.027002472 0.033820298 0.039999999 0 0 0.47704095
0.026997095 0.032669507 0.039999999 0 0 0.47704095
0.026991906 0.031519163 0.039999999 0 0 0.47704095
0.026986903 0.030369258 0.039999999 0 0 0.47704095
0.026982086 0.029219769 0.039999999 0 0 0.47704095
0.026977457 0.028070683 0.039999999 0 0 0.47704095
0.026973013 0.026921982 0.039999999 0 0 0.47704095
0.026968757 0.025773652 0.039999999 0 0 0.47704095
0.026964687 0.024625678 0.039999999 0 0 0.47704095
0.026960801 0.02347804 0.039999999 0 0 0.47704095
0.026957102 0.022330727 0.039999999 0 0 0.47704095
0.026953589 0.02118372 0.039999999 0 0 0.47704095
0.026950262 0.020037005 0.039999999 0 0 0.47704095
0.02694712 0.018890565 0.039999999 0 0 0.47704095
0.026944162 0.017744383 0.039999999 0 0 0.47704095
0.026941393 0.016598446 0.039999999 0 0 0.47704095
0.026938805 0.015452736 0.039999999 0 0 0.47704095
0.026936404 0.014307239 0.039999999 0 0 0.47704095
0.026934188 0.013161938 0.039999999 0 0 0.47704095
0.026932158 0.012016817 0.039999999 0 0 0.47704095
0.026930312 0.010871861 0.039999999 0 0 0.47704095
0.02692865 0.0097270552 0.039999999 0 0 0.47704095
0.026927173 0.0085823815 0.039999999 0 0 0.47704095
0.02692588 0.0074378261 0.039999999 0 0 0.47704095
0.026924774 0.0062933727 0.039999999 0 0 0.47704095
0.02692385 0.0051490054 0.039999999 0 0 0.47704095
0.026923113 0.004004709 0.039999999 0 0 0.47704095
0.026922559 0.0028604672 0.039999999 0 0 0.47704095
0.026922191 0.0017162645 0.039999999 0 0 0.47704095
0.026922006 0.00057208556 0.039999999 0 0 0.47704095
0.024455821 0.079305075 0.07 0 0 0.47704095
0.024443436 0.078199551 0.07 0 0 0.47704095
0.024431232 0.077095143 0.07 0 0 0.47704095
0.024419207 0.075991832 0.07 0 0 0.47704095
0.024407363 0.074889593 0.07 0 0 0.47704095
0.024395695 0.073788419 0.07 0 0 0.47704095
0.024384206 0.072688289 0.07 0 0 0.47704095
0.024372894 0.071589187 0.07 0 0 0.47704095
0.024361761 0.070491098 0.07 0 0 0.47704095
0.024350803 0.069394 0.07 0 0 0.47704095
0.024340024 0.068297885 0.07 0 0 0.47704095
0.02432942 0.067202732 0.07 0 0 0.47704095
0.024318991 0.066108525 0.07 0 0 0.47704095
0.024308739 0.065015249 0.07 0 0 0.47704095
0.024298662 0.063922882 0.07 0 0 0.47704095
0.024288759 0.062831417 0.07 0 0 0.47704095
0.02427903 0.061740834 0.07 0 0 0.47704095
0.024269477 0.060651116 0.07 0 0 0.47704095
0.024260096 0.059562247 0.07 0 0 0.47704095
0.024250889 0.058474213 0.07 0 0 0.47704095
0.024241855 0.057386998 0.07 0 0 0.47704095
0.024232993 0.056300584 0.07 0 0 0.47704095
0.024224304 0.055214956 0.07 0 0 0.47704095
0.024215788 0.0541301 0.07 0 0 0.47704095
0.024207443 0.053045999 0.07 0 0 0.47704095
0.02419927 0.051962636 0.07 0 0 0.47704095
0.024191268 0.05088 0.07 0 0 0.47704095
0.024183435 0.049798068 0.07 0 0 0.47704095
0.024175776 0.048716832 0.07 0 0 0.47704095
0.024168286 0.047636274 0.07 0 0 0.47704095
0.024160966 0.046556376 0.07 0 0 0.47704095
0.024153816 0.045477126 0.07 0 0 0.47704095
0.024146836 0.044398505 0.07 0 0 0.47704095
0.024140025 0.043320503 0.07 0 0 0.47704095
0.024133384 0.042243097 0.07 0 0 0.47704095
0.024126912 0.041166279 0.07 0 0 0.47704095
0.024375988 0.040514495 0.065690376 0 0 0.47704095
0.025146529 0.040684085 0.052579351 0 0 0.47704095
0.025885366 0.040735405 0.039999999 0 0 0.47704095
0.025879139 0.039581574 0.039999999 0 0 0.47704095
0.025873095 0.038428288 0.039999999 0 0 0.47704095
0.025867227 0.037275534 0.039999999 0 0 0.47704095
0.025861543 0.036123298 0.039999999 0 0 0.47704095
0.025856035 0.034971558 0.039999999 0 0 0.47704095
0.02585071 0.033820298 0.039999999 0 0 0.47704095
0.025845561 0.032669507 0.039999999 0 0 0.47704095
0.025840594 0.031519163 0.039999999 0 0 0.47704095
0.025835803 0.030369258 0.039999999 0 0 0.47704095
0.025831193 0.029219769 0.039999999 0 0 0.47704095
0.025826761 0.028070683 0.039999999 0 0 0.47704095
0.025822507 0.026921982 0.039999999 0 0 0.47704095
0.025818432 0.025773652 0.039999999 0 0 0.47704095
0.025814535 0.024625678 0.039999999 0 0 0.47704095
0.025810815 0.02347804 0.039999999 0 0 0.47704095
0.025807275 0.022330727 0.039999999 0 0 0.47704095
0.025803911 0.02118372 0.039999999 0 0 0.47704095
0.025800725 0.020037005 0.039999999 0 0 0.47704095
0.025797717 0.018890565 0.039999999 0 0 0.47704095
0.025794888 0.017744383 0.039999999 0 0 0.47704095
0.025792234 0.016598446 0.039999999 0 0 0.47704095
0.025789758 0.015452736 0.039999999 0 0 0.47704095
0.02578746 0.014307239 0.039999999 0 0 0.47704095
0.025785338 0.013161938 0.039999999 0 0 0.47704095
0.025783394 0.012016817 0.039999999 0 0 0.47704095
0.025781626 0.010871861 0.039999999 0 0 0.47704095
0.025780035 0.0097270552 0.039999999 0 0 0.47704095
0.025778621 0.0085823815 0.039999999 0 0 0.47704095
0.025777385 0.0074378261 0.039999999 0 0 0.47704095
0.025776325 0.0062933727 0.039999999 0 0 0.47704095
0.025775442 0.0051490054 0.039999999 0 0 0.47704095
0.025774734 0.004004709 0.039999999 0 0 0.47704095
0.025774205 0.0028604672 0.039999999 0 0 0.47704095
0.025773851 0.0017162645 0.039999999 0 0 0.47704095
0.025773674 0.00057208556 0.039999999 0 0 0.47704095
0.023366543 0.079305075 0.07 0 0 0.47704095
0.023354711 0.078199551 0.07 0 0 0.47704095
0.023343049 0.077095143 0.07 0 0 0.47704095
0.02333156 0.075991832 0.07 0 0 0.47704095
0.023320243 0.074889593 0.07 0 0 0.47704095
0.023309095 0.073788419 0.07 0 0 0.47704095
0.023298118 0.072688289 0.07 0 0 0.47704095
0.023287309 0.071589187 0.07 0 0 0.47704095
0.023276672 0.070491098 0.07 0 0 0.47704095
0.023266204 0.069394 0.07 0 0 0.47704095
0.023255903 0.068297885 0.07 0 0 0.47704095
0.023245772 0.067202732 0.07 0 0 0.47704095
0.023235809 0.066108525 0.07 0 0 0.47704095
0.023226012 0.065015249 0.07 0 0 0.47704095
0.023216384 0.063922882 0.07 0 0 0.47704095
0.023206921 0.062831417 0.07 0 0 0.47704095
0.023197627 0.061740834 0.07 0 0 0.47704095
0.023188498 0.060651116 0.07 0 0 0.47704095
0.023179535 0.059562247 0.07 0 0 0.47704095
0.023170738 0.058474213 0.07 0 0 0.47704095
0.023162106 0.057386998 0.07 0 0 0.47704095
0.02315364 0.056300584 0.07 0 0 0.47704095
0.023145339 0.055214956 0.07 0 0 0.47704095
0.023137201 0.0541301 0.07 0 0 0.47704095
0.023129227 0.053045999 0.07 0 0 0.47704095
0.023121418 0.051962636 0.07 0 0 0.47704095
0.023113772 0.05088 0.07 0 0 0.47704095
0.02310629 0.049798068 0.07 0 0 0.47704095
0.023098972 0.048716832 0.07 0 0 0.47704095
0.023091815 0.047636274 0.07 0 0 0.47704095
0.023084821 0.046556376 0.07 0 0 0.47704095
0.023077989 0.045477126 0.07 0 0 0.47704095
0.023071321 0.044398505 0.07 0 0 0.47704095
0.023064813 0.043320503 0.07 0 0 0.47704095
0.023058467 0.042243097 0.07 0 0 0.47704095
0.023052283 0.041166279 0.07 0 0 0.47704095
0.02314 0.040253099 0.068344355 0 0 0.47704095
0.023859154 0.04040074 0.055535521 0 0 0.47704095
0.024632577 0.040570967 0.041764218 0 0 0.47704095
0.024726467 0.039581574 0.039999999 0 0 0.47704095
0.024720689 0.038428288 0.039999999 0 0 0.47704095
0.024715085 0.037275534 0.039999999 0 0 0.47704095
0.024709653 0.036123298 0.039999999 0 0 0.47704095
0.024704391 0.034971558 0.039999999 0 0 0.47704095
0.024699302 0.033820298 0.039999999 0 0 0.47704095
0.024694383 0.032669507 0.039999999 0 0 0.47704095
0.024689637 0.031519163 0.039999999 0 0 0.47704095
0.024685061 0.030369258 0.039999999 0 0 0.47704095
0.024680655 0.029219769 0.039999999 0 0 0.47704095
0.02467642 0.028070683 0.039999999 0 0 0.47704095
0.024672356 0.026921982 0.039999999 0 0 0.47704095
0.024668463 0.025773652 0.039999999 0 0 0.47704095
0.024664739 0.024625678 0.039999999 0 0 0.47704095
0.024661185 0.02347804 0.039999999 0 0 0.47704095
0.024657803 0.022330727 0.039999999 0 0 0.47704095
0.024654588 0.02118372 0.039999999 0 0 0.47704095
0.024651544 0.020037005 0.039999999 0 0 0.47704095
0.02464867 0.018890565 0.039999999 0 0 0.47704095
0.024645966 0.017744383 0.039999999 0 0 0.47704095
0.02464343 0.016598446 0.039999999 0 0 0.47704095
0.024641065 0.015452736 0.039999999 0 0 0.47704095
0.024638869 0.014307239 0.039999999 0 0 0.47704095
0.024636842 0.013161938 0.039999999 0 0 0.47704095
0.024634985 0.012016817 0.039999999 0 0 0.47704095
0.024633296 0.010871861 0.039999999 0 0 0.47704095
0.024631776 0.0097270552 0.039999999 0 0 0.47704095
0.024630425 0.0085823815 0.039999999 0 0 0.47704095
0.024629243 0.0074378261 0.039999999 0 0 0.47704095
0.024628231 0.0062933727 0.039999999 0 0 0.47704095
0.024627386 0.0051490054 0.039999999 0 0 0.47704095
0.024626711 0.004004709 0.039999999 0 0 0.47704095
0.024626205 0.0028604672 0.039999999 0 0 0.47704095
0.024625868 0.0017162645 0.039999999 0 0 0.47704095
0.024625698 0.00057208556 0.039999999 0 0 0.47704095
0.022277586 0.079305075 0.07 0 0 0.47704095
0.022266304 0.078199551 0.07 0 0 0.47704095
0.022255188 0.077095143 0.07 0 0 0.47704095
0.022244234 0.075991832 0.07 0 0 0.47704095
0.022233443 0.074889593 0.07 0 0 0.47704095
0.022222815 0.073788419 0.07 0 0 0.47704095
0.022212349 0.072688289 0.07 0 0 0.47704095
0.022202047 0.071589187 0.07 0 0 0.47704095
0.022191904 0.070491098 0.07 0 0 0.47704095
0.022181923 0.069394 0.07 0 0 0.47704095
0.022172103 0.068297885 0.07 0 0 0.47704095
0.022162443 0.067202732 0.07 0 0 0.47704095
0.022152944 0.066108525 0.07 0 0 0.47704095
0.022143604 0.065015249 0.07 0 0 0.47704095
0.022134425 0.063922882 0.07 0 0 0.47704095
0.022125404 0.062831417 0.07 0 0 0.47704095
0.022116542 0.061740834 0.07 0 0 0.47704095
0.02210784 0.060651116 0.07 0 0 0.47704095
0.022099294 0.059562247 0.07 0 0 0.47704095
0.022090906 0.058474213 0.07 0 0 0.47704095
0.022082677 0.057386998 0.07 0 0 0.47704095
0.022074604 0.056300584 0.07 0 0 0.47704095
0.02206669 0.055214956 0.07 0 0 0.47704095
0.022058932 0.0541301 0.07 0 0 0.47704095
0.022051331 0.053045999 0.07 0 0 0.47704095
0.022043886 0.051962636 0.07 0 0 0.47704095
0.022036595 0.05088 0.07 0 0 0.47704095
0.022029461 0.049798068 0.07 0 0 0.47704095
0.022022484 0.048716832 0.07 0 0 0.47704095
0.022015661 0.047636274 0.07 0 0 0.47704095
0.022008993 0.046556376 0.07 0 0 0.47704095
0.022002481 0.045477126 0.07 0 0 0.47704095
0.021996122 0.044398505 0.07 0 0 0.47704095
0.021989917 0.043320503 0.07 0 0 0.47704095
0.021983868 0.042243097 0.07 0 0 0.47704095
0.021977972 0.041166279 0.07 0 0 0.47704095
0.021993225 0.040128343 0.069611028 0 0 0.47704095
0.022633061 0.04019795 0.057651263 0 0 0.47704095
0.023317013 0.040281419 0.044870727 0 0 0.47704095
0.023574132 0.039581574 0.039999999 0 0 0.47704095
0.023568625 0.038428288 0.039999999 0 0 0.47704095
0.023563283 0.037275534 0.039999999 0 0 0.47704095
0.023558103 0.036123298 0.039999999 0 0 0.47704095
0.023553086 0.034971558 0.039999999 0 0 0.47704095
0.023548234 0.033820298 0.039999999 0 0 0.47704095
0.023543544 0.032669507 0.039999999 0 0 0.47704095
0.02353902 0.031519163 0.039999999 0 0 0.47704095
0.023534656 0.030369258 0.039999999 0 0 0.47704095
0.023530455 0.029219769 0.039999999 0 0 0.47704095
0.023526419 0.028070683 0.039999999 0 0 0.47704095
0.023522545 0.026921982 0.039999999 0 0 0.47704095
0.023518832 0.025773652 0.039999999 0 0 0.47704095
0.023515282 0.024625678 0.039999999 0 0 0.47704095
0.023511894 0.02347804 0.039999999 0 0 0.47704095
0.023508668 0.022330727 0.039999999 0 0 0.47704095
0.023505604 0.02118372 0.039999999 0 0 0.47704095
0.023502704 0.020037005 0.039999999 0 0 0.47704095
0.023499962 0.018890565 0.039999999 0 0 0.47704095
0.023497384 0.017744383 0.039999999 0 0 0.47704095
0.023494968 0.016598446 0.039999999 0 0 0.47704095
0.023492713 0.015452736 0.039999999 0 0 0.47704095
0.023490619 0.014307239 0.039999999 0 0 0.47704095
0.023488685 0.013161938 0.039999999 0 0 0.47704095
0.023486914 0.012016817 0.039999999 0 0 0.47704095
0.023485305 0.010871861 0.039999999 0 0 0.47704095
0.023483856 0.0097270552 0.039999999 0 0 0.47704095
0.023482567 0.0085823815 0.039999999 0 0 0.47704095
0.023481442 0.0074378261 0.039999999 0 0 0.47704095
0.023480475 0.0062933727 0.039999999 0 0 0.47704095
0.02347967 0.0051490054 0.039999999 0 0 0.47704095
0.023479026 0.004004709 0.039999999 0 0 0.47704095
0.023478543 0.0028604672 0.039999999 0 0 0.47704095
0.023478223 0.0017162645 0.039999999 0 0 0.47704095
0.023478061 0.00057208556 0.039999999 0 0 0.47704095
0.021188935 0.079305075 0.07 0 0 0.47704095
0.021178206 0.078199551 0.07 0 0 0.47704095
0.021167632 0.077095143 0.07 0 0 0.47704095
0.021157213 0.075991832 0.07 0 0 0.47704095
0.021146949 0.074889593 0.07 0 0 0.47704095
0.021136841 0.073788419 0.07 0 0 0.47704095
0.021126887 0.072688289 0.07 0 0 0.47704095
0.021117087 0.071589187 0.07 0 0 0.47704095
0.021107441 0.070491098 0.07 0 0 0.47704095
0.021097947 0.069394 0.07 0 0 0.47704095
0.021088608 0.068297885 0.07 0 0 0.47704095
0.021079419 0.067202732 0.07 0 0 0.47704095
0.021070385 0.066108525 0.07 0 0 0.47704095
0.021061502 0.065015249 0.07 0 0 0.47704095
0.02105277 0.063922882 0.07 0 0 0.47704095
0.021044191 0.062831417 0.07 0 0 0.47704095
0.021035763 0.061740834 0.07 0 0 0.47704095
0.021027483 0.060651116 0.07 0 0 0.47704095
0.021019356 0.059562247 0.07 0 0 0.47704095
0.021011379 0.058474213 0.07 0 0 0.47704095
0.021003552 0.057386998 0.07 0 0 0.47704095
0.020995874 0.056300584 0.07 0 0 0.47704095
0.020988345 0.055214956 0.07 0 0 0.47704095
0.020980967 0.0541301 0.07 0 0 0.47704095
0.020973736 0.053045999 0.07 0 0 0.47704095
0.020966655 0.051962636 0.07 0 0 0.47704095
0.020959722 0.05088 0.07 0 0 0.47704095
0.020952936 0.049798068 0.07 0 0 0.47704095
0.0209463 0.048716832 0.07 0 0 0.47704095
0.02093981 0.047636274 0.07 0 0 0.47704095
0.020933468 0.046556376 0.07 0 0 0.47704095
0.020927273 0.045477126 0.07 0 0 0.47704095
0.020921227 0.044398505 0.07 0 0 0.47704095
0.020915326 0.043320503 0.07 0 0 0.47704095
0.02090957 0.042243097 0.07 0 0 0.47704095
0.020903964 0.041166279 0.07 0 0 0.47704095
0.0208985 0.040090032 0.07 0 0 0.47704095
0.021458616 0.040070184 0.058984268 0 0 0.47704095
0.022099664 0.040139921 0.046388805 0 0 0.47704095
0.022422124 0.039581574 0.039999999 0 0 0.47704095
0.022416886 0.038428288 0.039999999 0 0 0.47704095
0.022411803 0.037275534 0.039999999 0 0 0.47704095
0.022406876 0.036123298 0.039999999 0 0 0.47704095
0.022402106 0.034971558 0.039999999 0 0 0.47704095
0.02239749 0.033820298 0.039999999 0 0 0.47704095
0.022393031 0.032669507 0.039999999 0 0 0.47704095
0.022388726 0.031519163 0.039999999 0 0 0.47704095
0.022384576 0.030369258 0.039999999 0 0 0.47704095
0.022380581 0.029219769 0.039999999 0 0 0.47704095
0.02237674 0.028070683 0.039999999 0 0 0.47704095
0.022373056 0.026921982 0.039999999 0 0 0.47704095
0.022369524 0.025773652 0.039999999 0 0 0.47704095
0.022366147 0.024625678 0.039999999 0 0 0.47704095
0.022362927 0.02347804 0.039999999 0 0 0.47704095
0.022359857 0.022330727 0.039999999 0 0 0.47704095
0.022356944 0.02118372 0.039999999 0 0 0.47704095
0.022354184 0.020037005 0.039999999 0 0 0.47704095
0.022351578 0.018890565 0.039999999 0 0 0.47704095
0.022349125 0.017744383 0.039999999 0 0 0.47704095
0.022346826 0.016598446 0.039999999 0 0 0.47704095
0.022344682 0.015452736 0.039999999 0 0 0.47704095
0.022342689 0.014307239 0.039999999 0 0 0.47704095
0.022340851 0.013161938 0.039999999 0 0 0.47704095
0.022339167 0.012016817 0.039999999 0 0 0.47704095
0.022337636 0.010871861 0.039999999 0 0 0.47704095
0.022336258 0.0097270552 0.039999999 0 0 0.47704095
0.022335032 0.0085823815 0.039999999 0 0 0.47704095
0.022333961 0.0074378261 0.039999999 0 0 0.47704095
0.022333043 0.0062933727 0.039999999 0 0 0.47704095
0.022332277 0.0051490054 0.039999999 0 0 0.47704095
0.022331664 0.004004709 0.039999999 0 0 0.47704095
0.022331206 0.0028604672 0.039999999 0 0 0.47704095
0.022330899 0.0017162645 0.039999999 0 0 0.47704095
0.022330746 0.00057208556 0.039999999 0 0 0.47704095
0.020100577 0.079305075 0.07 0 0 0.47704095
0.020090397 0.078199551 0.07 0 0 0.47704095
0.020080367 0.077095143 0.07 0 0 0.47704095
0.020070484 0.075991832 0.07 0 0 0.47704095
0.020060748 0.074889593 0.07 0 0 0.47704095
0.020051157 0.073788419 0.07 0 0 0.47704095
0.020041715 0.072688289 0.07 0 0 0.47704095
0.020032419 0.071589187 0.07 0 0 0.47704095
0.020023268 0.070491098 0.07 0 0 0.47704095
0.020014262 0.069394 0.07 0 0 0.47704095
0.020005401 0.068297885 0.07 0 0 0.47704095
0.019996686 0.067202732 0.07 0 0 0.47704095
0.019988114 0.066108525 0.07 0 0 0.47704095
0.019979687 0.065015249 0.07 0 0 0.47704095
0.019971406 0.063922882 0.07 0 0 0.47704095
0.019963266 0.062831417 0.07 0 0 0.47704095
0.01995527 0.061740834 0.07 0 0 0.47704095
0.019947417 0.060651116 0.07 0 0 0.47704095
0.019939708 0.059562247 0.07 0 0 0.47704095
0.01993214 0.058474213 0.07 0 0 0.47704095
0.019924715 0.057386998 0.07 0 0 0.47704095
0.01991743 0.056300584 0.07 0 0 0.47704095
0.019910289 0.055214956 0.07 0 0 0.47704095
0.019903289 0.0541301 0.07 0 0 0.47704095
0.019896431 0.053045999 0.07 0 0 0.47704095
0.019889712 0.051962636 0.07 0 0 0.47704095
0.019883135 0.05088 0.07 0 0 0.47704095
0.0198767 0.049798068 0.07 0 0 0.47704095
0.019870404 0.048716832 0.07 0 0 0.47704095
0.019864248 0.047636274 0.07 0 0 0.47704095
0.019858232 0.046556376 0.07 0 0 0.47704095
0.019852355 0.045477126 0.07 0 0 0.47704095
0.019846618 0.044398505 0.07 0 0 0.47704095
0.019841019 0.043320503 0.07 0 0 0.47704095
0.019835562 0.042243097 0.07 0 0 0.47704095
0.019830242 0.041166279 0.07 0 0 0.47704095
0.01982506 0.040090032 0.07 0 0 0.47704095
0.020335635 0.040029299 0.059410825 0 0 0.47704095
0.02090675 0.040029299 0.047575664 0 0 0.47704095
0.021270422 0.039581574 0.039999999 0 0 0.47704095
0.021265453 0.038428288 0.039999999 0 0 0.47704095
0.021260632 0.037275534 0.039999999 0 0 0.47704095
0.021255959 0.036123298 0.039999999 0 0 0.47704095
0.021251433 0.034971558 0.039999999 0 0 0.47704095
0.021247054 0.033820298 0.039999999 0 0 0.47704095
0.021242823 0.032669507 0.039999999 0 0 0.47704095
0.021238741 0.031519163 0.039999999 0 0 0.47704095
0.021234803 0.030369258 0.039999999 0 0 0.47704095
0.021231014 0.029219769 0.039999999 0 0 0.47704095
0.021227371 0.028070683 0.039999999 0 0 0.47704095
0.021223875 0.026921982 0.039999999 0 0 0.47704095
0.021220526 0.025773652 0.039999999 0 0 0.47704095
0.021217322 0.024625678 0.039999999 0 0 0.47704095
0.021214265 0.02347804 0.039999999 0 0 0.47704095
0.021211356 0.022330727 0.039999999 0 0 0.47704095
0.02120859 0.02118372 0.039999999 0 0 0.47704095
0.021205973 0.020037005 0.039999999 0 0 0.47704095
0.021203499 0.018890565 0.039999999 0 0 0.47704095
0.021201173 0.017744383 0.039999999 0 0 0.47704095
0.021198994 0.016598446 0.039999999 0 0 0.47704095
0.021196958 0.015452736 0.039999999 0 0 0.47704095
0.021195069 0.014307239 0.039999999 0 0 0.47704095
0.021193326 0.013161938 0.039999999 0 0 0.47704095
0.021191727 0.012016817 0.039999999 0 0 0.47704095
0.021190275 0.010871861 0.039999999 0 0 0.47704095
0.021188967 0.0097270552 0.039999999 0 0 0.47704095
0.021187805 0.0085823815 0.039999999 0 0 0.47704095
0.021186788 0.0074378261 0.039999999 0 0 0.47704095
0.021185916 0.0062933727 0.039999999 0 0 0.47704095
0.021185191 0.0051490054 0.039999999 0 0 0.47704095
0.02118461 0.004004709 0.039999999 0 0 0.47704095
0.021184174 0.0028604672 0.039999999 0 0 0.47704095
0.021183884 0.0017162645 0.039999999 0 0 0.47704095
0.021183738 0.00057208556 0.039999999 0 0 0.47704095
0.019012494 0.079305075 0.07 0 0 0.47704095
0.019002866 0.078199551 0.07 0 0 0.47704095
0.018993378 0.077095143 0.07 0 0 0.47704095
0.018984029 0.075991832 0.07 0 0 0.47704095
0.01897482 0.074889593 0.07 0 0 0.47704095
0.018965751 0.073788419 0.07 0 0 0.47704095
0.018956818 0.072688289 0.07 0 0 0.47704095
0.018948024 0.071589187 0.07 0 0 0.47704095
0.018939368 0.070491098 0.07 0 0 0.47704095
0.018930851 0.069394 0.07 0 0 0.47704095
0.018922471 0.068297885 0.07 0 0 0.47704095
0.018914226 0.067202732 0.07 0 0 0.47704095
0.01890612 0.066108525 0.07 0 0 0.47704095
0.018898148 0.065015249 0.07 0 0 0.47704095
0.018890314 0.063922882 0.07 0 0 0.47704095
0.018882615 0.062831417 0.07 0 0 0.47704095
0.018875053 0.061740834 0.07 0 0 0.47704095
0.018867625 0.060651116 0.07 0 0 0.47704095
0.018860333 0.059562247 0.07 0 0 0.47704095
0.018853175 0.058474213 0.07 0 0 0.47704095
0.01884615 0.057386998 0.07 0 0 0.47704095
0.018839262 0.056300584 0.07 0 0 0.47704095
0.018832507 0.055214956 0.07 0 0 0.47704095
0.018825887 0.0541301 0.07 0 0 0.47704095
0.018819399 0.053045999 0.07 0 0 0.47704095
0.018813044 0.051962636 0.07 0 0 0.47704095
0.018806823 0.05088 0.07 0 0 0.47704095
0.018800735 0.049798068 0.07 0 0 0.47704095
0.018794781 0.048716832 0.07 0 0 0.47704095
0.018788958 0.047636274 0.07 0 0 0.47704095
0.018783268 0.046556376 0.07 0 0 0.47704095
0.018777708 0.045477126 0.07 0 0 0.47704095
0.018772282 0.044398505 0.07 0 0 0.47704095
0.018766986 0.043320503 0.07 0 0 0.47704095
0.018761823 0.042243097 0.07 0 0 0.47704095
0.018756792 0.041166279 0.07 0 0 0.47704095
0.018751891 0.040090032 0.07 0 0 0.47704095
0.019234829 0.040029299 0.059410825 0 0 0.47704095
0.019775027 0.040029299 0.047575664 0 0 0.47704095
0.020119013 0.039581574 0.039999999 0 0 0.47704095
0.020114312 0.038428288 0.039999999 0 0 0.47704095
0.020109752 0.037275534 0.039999999 0 0 0.47704095
0.020105332 0.036123298 0.039999999 0 0 0.47704095
0.020101052 0.034971558 0.039999999 0 0 0.47704095
0.020096909 0.033820298 0.039999999 0 0 0.47704095
0.020092908 0.032669507 0.039999999 0 0 0.47704095
0.020089045 0.031519163 0.039999999 0 0 0.47704095
0.020085322 0.030369258 0.039999999 0 0 0.47704095
0.020081738 0.029219769 0.039999999 0 0 0.47704095
0.020078292 0.028070683 0.039999999 0 0 0.47704095
0.020074986 0.026921982 0.039999999 0 0 0.47704095
0.020071818 0.025773652 0.039999999 0 0 0.47704095
0.020068787 0.024625678 0.039999999 0 0 0.47704095
0.020065896 0.02347804 0.039999999 0 0 0.47704095
0.020063143 0.022330727 0.039999999 0 0 0.47704095
0.020060528 0.02118372 0.039999999 0 0 0.47704095
0.020058053 0.020037005 0.039999999 0 0 0.47704095
0.020055713 0.018890565 0.039999999 0 0 0.47704095
0.020053513 0.017744383 0.039999999 0 0 0.47704095
0.020051451 0.016598446 0.039999999 0 0 0.47704095
