# .PCD v0.7 - Point Cloud Data file format
VERSION 0.7
FIELDS x y z vp_x vp_y vp_z
SIZE 4 4 4 4 4 4
TYPE F F F F F F
COUNT 1 1 1 1 1 1
WIDTH 717
HEIGHT 1
VIEWPOINT 0 0 0 1 0 0 0
POINTS 717
DATA ascii
0.011748464 0.027958827 0.039999999 0.14741376 -0.38593423 -0.23852047
0.022237731 0 0.020885907 0.14741376 -0.38593423 -0.23852047
0.014280424 0.028915321 0.039999999 0.14741376 -0.38593423 -0.23852047
0.024879357 0 0.020288724 0.14741376 -0.38593423 -0.23852047
0.016813895 0.029871099 0.039999999 0.14741376 -0.38593423 -0.23852047
0.027510107 0 0.019694716 0.14741376 -0.38593423 -0.23852047
0.028821472 5.5511151e-17 0.019398883 0.14741376 -0.38593423 -0.23852047
0.020617208 0.031303525 0.039999999 0.14741376 -0.38593423 -0.23852047
0.031436313 5.5511151e-17 0.018809535 0.14741376 -0.38593423 -0.23852047
0.032739844 0 0.018516002 0.14741376 -0.38593423 -0.23852047
0.034040816 5.5511151e-17 0.018223226 0.14741376 -0.38593423 -0.23852047
0.035339255 0 0.017931195 0.14741376 -0.38593423 -0.23852047
0.026965387 0.033687979 0.039999999 0.14741376 -0.38593423 -0.23852047
0.028236562 0.034164481 0.039999999 0.14741376 -0.38593423 -0.23852047
0.039219629 0 0.017059527 0.14741376 -0.38593423 -0.23852047
0.039999999 0.001834608 0.017983995 0.14741376 -0.38593423 -0.23852047
0.039999999 0.0065565836 0.020814242 0.14741376 -0.38593423 -0.23852047
0.039999999 0.011385915 0.023709014 0.14741376 -0.38593423 -0.23852047
0.034601014 0.036545377 0.039999999 0.14741376 -0.38593423 -0.23852047
0.039999999 0.021381918 0.029701326 0.14741376 -0.38593423 -0.23852047
0.039999999 0.026556689 0.032803729 0.14741376 -0.38593423 -0.23852047
0.039999999 0.031855032 0.035980411 0.14741376 -0.38593423 -0.23852047
0.039703809 0.038448498 0.039999999 0.14741376 -0.38593423 -0.23852047
0.037916306 0.051158592 0.048020449 0.14741376 -0.38593423 -0.23852047
0.038824756 0.053291891 0.049097024 0.14741376 -0.38593423 -0.23852047
0.039590739 0.056056399 0.0505841 0.14741376 -0.38593423 -0.23852047
0.039974254 0.060475059 0.053148657 0.14741376 -0.38593423 -0.23852047
0.00068515039 0 0.024263164 0.14741376 -0.38593423 -0.23852047
0.002053031 0 0.023952687 0.14741376 -0.38593423 -0.23852047
0.0034177105 0 0.023643108 0.14741376 -0.38593423 -0.23852047
2.7755576e-17 0.0129314 0.032108326 0.14741376 -0.38593423 -0.23852047
0.0061375885 0 0.023026614 0.14741376 -0.38593423 -0.23852047
0.0074928468 0 0.022719681 0.14741376 -0.38593423 -0.23852047
0.0088450257 0 0.022413619 0.14741376 -0.38593423 -0.23852047
0.010194154 0 0.022108417 0.14741376 -0.38593423 -0.23852047
0.01154026 0 0.021804066 0.14741376 -0.38593423 -0.23852047
0.012883375 5.5511151e-17 0.021500565 0.14741376 -0.38593423 -0.23852047
0.0045813294 0.027939392 0.039999999 0.14741376 -0.38593423 -0.23852047
0.015560745 0 0.02089607 0.14741376 -0.38593423 -0.23852047
0.016895058 0 0.020595063 0.14741376 -0.38593423 -0.23852047
0.018226493 0 0.020294873 0.14741376 -0.38593423 -0.23852047
0.019555081 5.5511151e-17 0.019995496 0.14741376 -0.38593423 -0.23852047
0.010931836 0.030345175 0.039999999 0.14741376 -0.38593423 -0.23852047
0.02220382 5.5511151e-17 0.019399147 0.14741376 -0.38593423 -0.23852047
0.023524027 0 0.019102164 0.14741376 -0.38593423 -0.23852047
0.024841497 0 0.018805962 0.14741376 -0.38593423 -0.23852047
0.026156254 0 0.018510539 0.14741376 -0.38593423 -0.23852047
0.027468329 0 0.018215887 0.14741376 -0.38593423 -0.23852047
0.028777746 5.5511151e-17 0.017921999 0.14741376 -0.38593423 -0.23852047
0.030084534 0 0.017628869 0.14741376 -0.38593423 -0.23852047
0.031388715 5.5511151e-17 0.01733649 0.14741376 -0.38593423 -0.23852047
0.03269032 0 0.017044857 0.14741376 -0.38593423 -0.23852047
0.033989377 0 0.016753962 0.14741376 -0.38593423 -0.23852047
0.035285905 0 0.016463799 0.14741376 -0.38593423 -0.23852047
0.026211891 0.036102533 0.039999999 0.14741376 -0.38593423 -0.23852047
0.037871487 5.5511151e-17 0.015885646 0.14741376 -0.38593423 -0.23852047
0.039160591 0 0.015597643 0.14741376 -0.38593423 -0.23852047
0.030042842 0.037539102 0.039999999 0.14741376 -0.38593423 -0.23852047
0.039999999 0.006323365 0.019177968 0.14741376 -0.38593423 -0.23852047
0.039999999 0.011139814 0.022048041 0.14741376 -0.38593423 -0.23852047
0.039999999 0.016066857 0.024984192 0.14741376 -0.38593423 -0.23852047
0.039999999 0.021108421 0.027988762 0.14741376 -0.38593423 -0.23852047
0.039999999 0.026268616 0.031064209 0.14741376 -0.38593423 -0.23852047
0.037720881 0.040410023 0.039999999 0.14741376 -0.38593423 -0.23852047
0.039999999 0.036962379 0.037438169 0.14741376 -0.38593423 -0.23852047
0.037858058 0.051048733 0.046311006 0.14741376 -0.38593423 -0.23852047
0.038770292 0.053155202 0.047364108 0.14741376 -0.38593423 -0.23852047
0.039554212 0.055833612 0.048786849 0.14741376 -0.38593423 -0.23852047
0.039999038 0.059982229 0.051161531 0.14741376 -0.38593423 -0.23852047
0.00068408868 0 0.022747135 0.14741376 -0.38593423 -0.23852047
0.0020498536 0 0.022438917 0.14741376 -0.38593423 -0.23852047
0.0034124269 0 0.022131579 0.14741376 -0.38593423 -0.23852047
0.0047718398 0 0.021825116 0.14741376 -0.38593423 -0.23852047
0.0061281216 0 0.021519518 0.14741376 -0.38593423 -0.23852047
0.0074813031 0 0.021214776 0.14741376 -0.38593423 -0.23852047
0.0088314135 0 0.020910887 0.14741376 -0.38593423 -0.23852047
0.010178483 0 0.020607842 0.14741376 -0.38593423 -0.23852047
0.011522541 0 0.020305634 0.14741376 -0.38593423 -0.23852047
0.012863616 0 0.020004256 0.14741376 -0.38593423 -0.23852047
0.0037313318 0.030334251 0.039999999 0.14741376 -0.38593423 -0.23852047
0.015536931 0 0.019403959 0.14741376 -0.38593423 -0.23852047
0.01686923 0 0.019105026 0.14741376 -0.38593423 -0.23852047
0.01819866 0 0.018806897 0.14741376 -0.38593423 -0.23852047
0.01952525 0 0.018509561 0.14741376 -0.38593423 -0.23852047
0.020849027 0 0.018213015 0.14741376 -0.38593423 -0.23852047
0.02217002 0 0.017917251 0.14741376 -0.38593423 -0.23852047
0.023488255 0 0.017622262 0.14741376 -0.38593423 -0.23852047
0.02480376 0 0.017328041 0.14741376 -0.38593423 -0.23852047
0.026116561 0 0.017034581 0.14741376 -0.38593423 -0.23852047
0.016494114 0.035164237 0.039999999 0.14741376 -0.38593423 -0.23852047
0.028734162 0 0.016449921 0.14741376 -0.38593423 -0.23852047
0.030039016 5.5511151e-17 0.016158709 0.14741376 -0.38593423 -0.23852047
0.031341273 0 0.015868232 0.14741376 -0.38593423 -0.23852047
0.03264096 0 0.015578486 0.14741376 -0.38593423 -0.23852047
0.033938102 0 0.015289463 0.14741376 -0.38593423 -0.23852047
0.024170965 0.038055565 0.039999999 0.14741376 -0.38593423 -0.23852047
0.036524858 0 0.014713563 0.14741376 -0.38593423 -0.23852047
0.037814524 0 0.014426673 0.14741376 -0.38593423 -0.23852047
0.039101746 0 0.014140483 0.14741376 -0.38593423 -0.23852047
0.039999999 0.0013938781 0.014766489 0.14741376 -0.38593423 -0.23852047
0.039999999 0.0060911747 0.017548906 0.14741376 -0.38593423 -0.23852047
0.039999999 0.01089481 0.020394471 0.14741376 -0.38593423 -0.23852047
0.033151057 0.041424528 0.039999999 0.14741376 -0.38593423 -0.23852047
0.039999999 0.020836167 0.026283994 0.14741376 -0.38593423 -0.23852047
0.039999999 0.025981871 0.029332694 0.14741376 -0.38593423 -0.23852047
0.039999999 0.031249903 0.032454036 0.14741376 -0.38593423 -0.23852047
0.039999999 0.036644757 0.035650693 0.14741376 -0.38593423 -0.23852047
0.039583988 0.043829184 0.039999999 0.14741376 -0.38593423 -0.23852047
0.038716037 0.053019039 0.04563782 0.14741376 -0.38593423 -0.23852047
0.039513107 0.055631109 0.047009662 0.14741376 -0.38593423 -0.23852047
0.039981872 0.059665505 0.049297154 0.14741376 -0.38593423 -0.23852047
0.00068303052 0 0.021236116 0.14741376 -0.38593423 -0.23852047
0.0020466864 0 0.020930145 0.14741376 -0.38593423 -0.23852047
0.0034071608 5.5511151e-17 0.020625038 0.14741376 -0.38593423 -0.23852047
0 0.012890197 0.028966079 0.14741376 -0.38593423 -0.23852047
0.0061186864 0 0.020017382 0.14741376 -0.38593423 -0.23852047
0.0074697975 0 0.019714819 0.14741376 -0.38593423 -0.23852047
0.0088178469 0 0.019413093 0.14741376 -0.38593423 -0.23852047
0.010162865 5.5511151e-17 0.019112192 0.14741376 -0.38593423 -0.23852047
0.011504879 0 0.018812113 0.14741376 -0.38593423 -0.23852047
0.01284392 0 0.018512845 0.14741376 -0.38593423 -0.23852047
0.014180016 0 0.018214384 0.14741376 -0.38593423 -0.23852047
0.015513195 0 0.017916724 0.14741376 -0.38593423 -0.23852047
0.016843487 0 0.017619856 0.14741376 -0.38593423 -0.23852047
0.018170917 0 0.017323771 0.14741376 -0.38593423 -0.23852047
0.019495517 0 0.01702847 0.14741376 -0.38593423 -0.23852047
0.0092782313 0.035177331 0.039999999 0.14741376 -0.38593423 -0.23852047
0.022136329 0 0.016440174 0.14741376 -0.38593423 -0.23852047
0.023452599 0 0.016147166 0.14741376 -0.38593423 -0.23852047
0.024766145 0 0.015854914 0.14741376 -0.38593423 -0.23852047
0.026076997 0 0.015563408 0.14741376 -0.38593423 -0.23852047
0.027385179 0 0.015272641 0.14741376 -0.38593423 -0.23852047
0.016974332 0.038086589 0.039999999 0.14741376 -0.38593423 -0.23852047
0.018258443 0.038571049 0.039999999 0.14741376 -0.38593423 -0.23852047
0.031293985 0 0.014404717 0.14741376 -0.38593423 -0.23852047
0.03259176 0 0.014116847 0.14741376 -0.38593423 -0.23852047
0.033886995 0 0.013829686 0.14741376 -0.38593423 -0.23852047
0.035179723 0 0.013543227 0.14741376 -0.38593423 -0.23852047
0.013767497 0.078973837 0.064778857 0.14741376 -0.38593423 -0.23852047
0.037757739 0 0.012972391 0.14741376 -0.38593423 -0.23852047
0.039043084 0 0.012688003 0.14741376 -0.38593423 -0.23852047
0.039999999 0.0011749489 0.013168217 0.14741376 -0.38593423 -0.23852047
0.039999999 0.0058600018 0.015926985 0.14741376 -0.38593423 -0.23852047
0.039999999 0.010650892 0.018748226 0.14741376 -0.38593423 -0.23852047
0.039999999 0.015551316 0.021634117 0.14741376 -0.38593423 -0.23852047
0.039999999 0.020565147 0.024586948 0.14741376 -0.38593423 -0.23852047
0.039999999 0.025696438 0.02760911 0.14741376 -0.38593423 -0.23852047
0.039999999 0.030949445 0.030703114 0.14741376 -0.38593423 -0.23852047
0.039999999 0.036328625 0.033871591 0.14741376 -0.38593423 -0.23852047
0.039999999 0.041838661 0.037117306 0.14741376 -0.38593423 -0.23852047
0.038661987 0.05288339 0.043918096 0.14741376 -0.38593423 -0.23852047
0.039465122 0.055458266 0.045258295 0.14741376 -0.38593423 -0.23852047
0.039964784 0.059350237 0.047441337 0.14741376 -0.38593423 -0.23852047
0.0006819758 0 0.019730065 0.14741376 -0.38593423 -0.23852047
0.0020435296 0 0.019426327 0.14741376 -0.38593423 -0.23852047
0.0034019118 0 0.019123435 0.14741376 -0.38593423 -0.23852047
2.7755576e-17 0.012869701 0.02740293 0.14741376 -0.38593423 -0.23852047
0.0061092814 0 0.018520163 0.14741376 -0.38593423 -0.23852047
0.0074583292 0 0.018219767 0.14741376 -0.38593423 -0.23852047
0.0088043241 0 0.017920189 0.14741376 -0.38593423 -0.23852047
0.010147297 0 0.01762142 0.14741376 -0.38593423 -0.23852047
0.011487275 0 0.017323457 0.14741376 -0.38593423 -0.23852047
0.012824289 0 0.01702629 0.14741376 -0.38593423 -0.23852047
0.014158366 0 0.016729914 0.14741376 -0.38593423 -0.23852047
0.0032956717 0.035672214 0.039999999 0.14741376 -0.38593423 -0.23852047
0.0045815725 0.036160305 0.039999999 0.14741376 -0.38593423 -0.23852047
0.018143265 0 0.015845457 0.14741376 -0.38593423 -0.23852047
0.0071542514 0.037136044 0.039999999 0.14741376 -0.38593423 -0.23852047
0.0084410617 0.037623707 0.039999999 0.14741376 -0.38593423 -0.23852047
0.022102747 0 0.014967869 0.14741376 -0.38593423 -0.23852047
0.023417057 0 0.014676836 0.14741376 -0.38593423 -0.23852047
0.024728652 0 0.014386541 0.14741376 -0.38593423 -0.23852047
0.026037559 0 0.014096976 0.14741376 -0.38593423 -0.23852047
0.027343806 0 0.013808136 0.14741376 -0.38593423 -0.23852047
0.028647419 5.5511151e-17 0.013520014 0.14741376 -0.38593423 -0.23852047
0.029948423 5.5511151e-17 0.013232605 0.14741376 -0.38593423 -0.23852047
0.031246847 0 0.012945902 0.14741376 -0.38593423 -0.23852047
0.0096079819 0.07705421 0.062809646 0.14741376 -0.38593423 -0.23852047
0.033836052 0 0.012374587 0.14741376 -0.38593423 -0.23852047
0.035126887 0 0.012089965 0.14741376 -0.38593423 -0.23852047
0.013707402 0.078953594 0.063017279 0.14741376 -0.38593423 -0.23852047
0.037701141 0 0.011522759 0.14741376 -0.38593423 -0.23852047
0.038984615 0 0.011240163 0.14741376 -0.38593423 -0.23852047
0.039999999 0.00095696427 0.01157684 0.14741376 -0.38593423 -0.23852047
0.039999999 0.0056298375 0.01431214 0.14741376 -0.38593423 -0.23852047
0.039999999 0.010408049 0.017109238 0.14741376 -0.38593423 -0.23852047
0.039999999 0.01529527 0.019970289 0.14741376 -0.38593423 -0.23852047
0.039999999 0.020295346 0.022897547 0.14741376 -0.38593423 -0.23852047
0.039999999 0.025412306 0.025893377 0.14741376 -0.38593423 -0.23852047
0.039999999 0.03065037 0.028960256 0.14741376 -0.38593423 -0.23852047
0.039999999 0.036013965 0.032100778 0.14741376 -0.38593423 -0.23852047
0.038163345 0.048816521 0.039999999 0.14741376 -0.38593423 -0.23852047
0.039462727 0.049302749 0.039999999 0.14741376 -0.38593423 -0.23852047
0.039417326 0.055286106 0.043513831 0.14741376 -0.38593423 -0.23852047
0.039947774 0.059036404 0.045594003 0.14741376 -0.38593423 -0.23852047
0 0.0017909561 0.0194204 0.14741376 -0.38593423 -0.23852047
0 0.0054167667 0.021526784 0.14741376 -0.38593423 -0.23852047
0 0.0091023576 0.023668028 0.14741376 -0.38593423 -0.23852047
0 0.012849273 0.025845032 0.14741376 -0.38593423 -0.23852047
0.0060999077 0 0.017027814 0.14741376 -0.38593423 -0.23852047
0.0074468981 0 0.016729573 0.14741376 -0.38593423 -0.23852047
0.008790846 0 0.016432131 0.14741376 -0.38593423 -0.23852047
0.010131779 0 0.016135484 0.14741376 -0.38593423 -0.23852047
2.7755576e-17 0.032561637 0.037300229 0.14741376 -0.38593423 -0.23852047
0.012804721 0 0.015544547 0.14741376 -0.38593423 -0.23852047
0.0011385457 0.037639402 0.039999999 0.14741376 -0.38593423 -0.23852047
0.0024296392 0.038129918 0.039999999 0.14741376 -0.38593423 -0.23852047
0.016792247 0 0.014663928 0.14741376 -0.38593423 -0.23852047
0.018115699 0 0.014371905 0.14741376 -0.38593423 -0.23852047
0.019436337 0 0.014080631 0.14741376 -0.38593423 -0.23852047
0.020754186 5.5511151e-17 0.013790097 0.14741376 -0.38593423 -0.23852047
0.022069275 0 0.013500297 0.14741376 -0.38593423 -0.23852047
0.02338163 0 0.013211226 0.14741376 -0.38593423 -0.23852047
0.024691278 0 0.012922877 0.14741376 -0.38593423 -0.23852047
0.025998248 0 0.012635244 0.14741376 -0.38593423 -0.23852047
0.027302565 0 0.012348319 0.14741376 -0.38593423 -0.23852047
0.028604254 0 0.012062099 0.14741376 -0.38593423 -0.23852047
0.0070063202 0.075199671 0.060547207 0.14741376 -0.38593423 -0.23852047
0.031199859 0 0.011491742 0.14741376 -0.38593423 -0.23852047
0.032493826 0 0.011207595 0.14741376 -0.38593423 -0.23852047
0.033785272 0 0.010924125 0.14741376 -0.38593423 -0.23852047
0.035074219 0 0.010641329 0.14741376 -0.38593423 -0.23852047
0.036360692 0 0.010359201 0.14741376 -0.38593423 -0.23852047
0.015071693 0.07936395 0.061199747 0.14741376 -0.38593423 -0.23852047
0.038926329 5.5511151e-17 0.0097969193 0.14741376 -0.38593423 -0.23852047
0.039999999 0.00073991535 0.0099922949 0.14741376 -0.38593423 -0.23852047
0.039999999 0.0054006716 0.0127043 0.14741376 -0.38593423 -0.23852047
0.039999999 0.010166271 0.015477438 0.14741376 -0.38593423 -0.23852047
0.022652078 0.07979998 0.059794001 0.14741376 -0.38593423 -0.23852047
0.024261033 0.079510808 0.059273962 0.14741376 -0.38593423 -0.23852047
0.039999999 0.025129462 0.024185421 0.14741376 -0.38593423 -0.23852047
0.039999999 0.030352665 0.027225386 0.14741376 -0.38593423 -0.23852047
0.039999999 0.035700765 0.030338177 0.14741376 -0.38593423 -0.23852047
0.039999999 0.041178375 0.03352648 0.14741376 -0.38593423 -0.23852047
0.038748834 0.051830739 0.039999999 0.14741376 -0.38593423 -0.23852047
0.039369714 0.055114619 0.041776206 0.14741376 -0.38593423 -0.23852047
0.039930843 0.058724001 0.043755062 0.14741376 -0.38593423 -0.23852047
0.00067987666 0 0.016732682 0.14741376 -0.38593423 -0.23852047
0.0020372469 0 0.016433373 0.14741376 -0.38593423 -0.23852047
0.0033914649 0 0.016134877 0.14741376 -0.38593423 -0.23852047
0.0047425609 0 0.015837187 0.14741376 -0.38593423 -0.23852047
0.0060905637 0 0.015540293 0.14741376 -0.38593423 -0.23852047
0.0074355039 0 0.015244193 0.14741376 -0.38593423 -0.23852047
0.0087774107 0 0.014948878 0.14741376 -0.38593423 -0.23852047
0 0.028436296 0.033308692 0.14741376 -0.38593423 -0.23852047
0.011452238 5.5511151e-17 0.014360573 0.14741376 -0.38593423 -0.23852047
0.012785217 5.5511151e-17 0.014067571 0.14741376 -0.38593423 -0.23852047
0.014115276 0 0.013775327 0.14741376 -0.38593423 -0.23852047
0.015442446 0 0.013483834 0.14741376 -0.38593423 -0.23852047
0.016766753 0 0.013193087 0.14741376 -0.38593423 -0.23852047
0.0041502933 0.041593675 0.039999999 0.14741376 -0.38593423 -0.23852047
0.019406889 0 0.012613799 0.14741376 -0.38593423 -0.23852047
0.020722775 0 0.012325248 0.14741376 -0.38593423 -0.23852047
0.022035908 0 0.012037414 0.14741376 -0.38593423 -0.23852047
0.0015771784 0.067716837 0.055663332 0.14741376 -0.38593423 -0.23852047
0.024654025 5.5511151e-17 0.011463881 0.14741376 -0.38593423 -0.23852047
0.025959063 0 0.011178168 0.14741376 -0.38593423 -0.23852047
0.027261455 0 0.010893149 0.14741376 -0.38593423 -0.23852047
0.028561227 0 0.010608819 0.14741376 -0.38593423 -0.23852047
0.0069646509 0.075160205 0.058787543 0.14741376 -0.38593423 -0.23852047
0.031153021 5.5511151e-17 0.010042198 0.14741376 -0.38593423 -0.23852047
0.0095086703 0.076994464 0.059292205 0.14741376 -0.38593423 -0.23852047
0.033734649 0 0.009478258 0.14741376 -0.38593423 -0.23852047
0.035021719 0 0.0091972789 0.14741376 -0.38593423 -0.23852047
0.036306318 0 0.0089169517 0.14741376 -0.38593423 -0.23852047
0.037588481 0 0.0086372709 0.14741376 -0.38593423 -0.23852047
0.016460812 0.079669684 0.059322223 0.14741376 -0.38593423 -0.23852047
0.039999999 0.00052379316 0.0084145153 0.14741376 -0.38593423 -0.23852047
0.039999999 0.0051724948 0.011103397 0.14741376 -0.38593423 -0.23852047
0.039999999 0.0099255471 0.013852754 0.14741376 -0.38593423 -0.23852047
0.039999999 0.014786572 0.016664684 0.14741376 -0.38593423 -0.23852047
0.039999999 0.019759363 0.019541387 0.14741376 -0.38593423 -0.23852047
0.039999999 0.024847891 0.022485163 0.14741376 -0.38593423 -0.23852047
0.039999999 0.030056318 0.025498426 0.14741376 -0.38593423 -0.23852047
0.039999999 0.03538901 0.028583702 0.14741376 -0.38593423 -0.23852047
0.039999999 0.040850542 0.031743646 0.14741376 -0.38593423 -0.23852047
0.039999999 0.046445727 0.034981042 0.14741376 -0.38593423 -0.23852047
0.039999999 0.052179605 0.038298819 0.14741376 -0.38593423 -0.23852047
0.039913986 0.05841301 0.041924436 0.14741376 -0.38593423 -0.23852047
0.00067883224 5.5511151e-17 0.015241262 0.14741376 -0.38593423 -0.23852047
0.002034121 0 0.014944148 0.14741376 -0.38593423 -0.23852047
0.003386267 5.5511151e-17 0.014647831 0.14741376 -0.38593423 -0.23852047
0.0047353003 0 0.014352303 0.14741376 -0.38593423 -0.23852047
0.0060812505 5.5511151e-17 0.014057557 0.14741376 -0.38593423 -0.23852047
0.0074241464 0 0.013763586 0.14741376 -0.38593423 -0.23852047
0.0087640183 0 0.013470383 0.14741376 -0.38593423 -0.23852047
0.010100895 0 0.013177942 0.14741376 -0.38593423 -0.23852047
0.011434804 0 0.012886257 0.14741376 -0.38593423 -0.23852047
0.012765775 0 0.01259532 0.14741376 -0.38593423 -0.23852047
0.014093835 0 0.012305125 0.14741376 -0.38593423 -0.23852047
0.00067549077 0.043108001 0.039999999 0.14741376 -0.38593423 -0.23852047
0.016741337 0 0.011726935 0.14741376 -0.38593423 -0.23852047
0.018060837 0 0.011438928 0.14741376 -0.38593423 -0.23852047
0.019377535 0 0.011151636 0.14741376 -0.38593423 -0.23852047
0.020691464 0 0.010865055 0.14741376 -0.38593423 -0.23852047
0.00076277979 0.065362565 0.052767172 0.14741376 -0.38593423 -0.23852047
0.023311114 0 0.010293998 0.14741376 -0.38593423 -0.23852047
0.02461689 0 0.01000951 0.14741376 -0.38593423 -0.23852047
0.025920002 0 0.0097257067 0.14741376 -0.38593423 -0.23852047
0.027220475 0 0.0094425827 0.14741376 -0.38593423 -0.23852047
0.028518338 5.5511151e-17 0.0091601321 0.14741376 -0.38593423 -0.23852047
0.029813614 0 0.0088783493 0.14741376 -0.38593423 -0.23852047
0.03110633 0 0.0085972277 0.14741376 -0.38593423 -0.23852047
0.032396514 5.5511151e-17 0.0083167609 0.14741376 -0.38593423 -0.23852047
0.03368419 0 0.0080369441 0.14741376 -0.38593423 -0.23852047
0.034969382 0 0.0077577713 0.14741376 -0.38593423 -0.23852047
0.036252115 0 0.0074792365 0.14741376 -0.38593423 -0.23852047
0.037532415 0 0.007201334 0.14741376 -0.38593423 -0.23852047
0.038810309 0 0.0069240578 0.14741376 -0.38593423 -0.23852047
0.039999999 0.00030858885 0.0068434365 0.14741376 -0.38593423 -0.23852047
0.039999999 0.0049452973 0.009509366 0.14741376 -0.38593423 -0.23852047
0.020915924 0.079975218 0.056786567 0.14741376 -0.38593423 -0.23852047
0.039999999 0.014533899 0.015022768 0.14741376 -0.38593423 -0.23852047
0.039999999 0.019493155 0.017874481 0.14741376 -0.38593423 -0.23852047
0.039999999 0.024567584 0.020792531 0.14741376 -0.38593423 -0.23852047
0.039999999 0.029761316 0.023779295 0.14741376 -0.38593423 -0.23852047
0.039999999 0.035078686 0.026837274 0.14741376 -0.38593423 -0.23852047
0.039999999 0.040524233 0.029969083 0.14741376 -0.38593423 -0.23852047
0.039999999 0.046102736 0.033177469 0.14741376 -0.38593423 -0.23852047
0.039999999 0.051819205 0.036465321 0.14741376 -0.38593423 -0.23852047
0.039999999 0.057678897 0.039835669 0.14741376 -0.38593423 -0.23852047
0 0.0017826766 0.01491992 0.14741376 -0.38593423 -0.23852047
0.0020310048 0 0.013459701 0.14741376 -0.38593423 -0.23852047
0.0033810856 0 0.01316555 0.14741376 -0.38593423 -0.23852047
0.004728063 0 0.012872173 0.14741376 -0.38593423 -0.23852047
0.0060719666 5.5511151e-17 0.01257956 0.14741376 -0.38593423 -0.23852047
0.0074128252 0 0.012287707 0.14741376 -0.38593423 -0.23852047
0.0087506687 0 0.011996605 0.14741376 -0.38593423 -0.23852047
0.010085526 0 0.01170625 0.14741376 -0.38593423 -0.23852047
0.011417424 0 0.011416634 0.14741376 -0.38593423 -0.23852047
0.012746394 0 0.01112775 0.14741376 -0.38593423 -0.23852047
0.014072461 0 0.010839594 0.14741376 -0.38593423 -0.23852047
0.015395655 0 0.010552156 0.14741376 -0.38593423 -0.23852047
0.016716003 0 0.010265431 0.14741376 -0.38593423 -0.23852047
0.018033534 5.5511151e-17 0.0099794148 0.14741376 -0.38593423 -0.23852047
0.019348275 0 0.0096940994 0.14741376 -0.38593423 -0.23852047
0.020660251 0 0.0094094779 0.14741376 -0.38593423 -0.23852047
0.021969492 0 0.0091255456 0.14741376 -0.38593423 -0.23852047
0.023276024 0 0.008842295 0.14741376 -0.38593423 -0.23852047
0.0024495849 0.069531582 0.053074758 0.14741376 -0.38593423 -0.23852047
0.025881063 0 0.0082778176 0.14741376 -0.38593423 -0.23852047
0.0045451699 0.072653331 0.054404188 0.14741376 -0.38593423 -0.23852047
0.028475581 0 0.0077159982 0.14741376 -0.38593423 -0.23852047
0.029768961 0 0.0074360701 0.14741376 -0.38593423 -0.23852047
0.008128345 0.076061249 0.05557571 0.14741376 -0.38593423 -0.23852047
0.032348089 0 0.0068781478 0.14741376 -0.38593423 -0.23852047
0.010722973 0.077712387 0.055958051 0.14741376 -0.38593423 -0.23852047
0.034917209 0 0.0063227662 0.14741376 -0.38593423 -0.23852047
0.03619808 0 0.0060460139 0.14741376 -0.38593423 -0.23852047
0.037476525 0 0.0057698796 0.14741376 -0.38593423 -0.23852047
0.038752571 0 0.0054943576 0.14741376 -0.38593423 -0.23852047
0.017807698 0.079850003 0.055649363 0.14741376 -0.38593423 -0.23852047
0.039999999 0.0047190692 0.0079221409 0.14741376 -0.38593423 -0.23852047
0.039999999 0.0094472226 0.010624466 0.14741376 -0.38593423 -0.23852047
0.022408666 0.079826459 0.054643489 0.14741376 -0.38593423 -0.23852047
0.024003239 0.079567552 0.054151788 0.14741376 -0.38593423 -0.23852047
0.025627697 0.079177633 0.05357888 0.14741376 -0.38593423 -0.23852047
0.039999999 0.029467644 0.022067921 0.14741376 -0.38593423 -0.23852047
0.039999999 0.034769773 0.025098816 0.14741376 -0.38593423 -0.23852047
0.039999999 0.040199433 0.028202713 0.14741376 -0.38593423 -0.23852047
0.039999999 0.045761351 0.031382322 0.14741376 -0.38593423 -0.23852047
0.034527421 0.073745146 0.04855765 0.14741376 -0.38593423 -0.23852047
0.039999999 0.057302121 0.037980206 0.14741376 -0.38593423 -0.23852047
0.00067675329 0 0.012272745 0.14741376 -0.38593423 -0.23852047
0.0020278988 0 0.011979987 0.14741376 -0.38593423 -0.23852047
0.0033759207 0 0.011687991 0.14741376 -0.38593423 -0.23852047
0.0047208485 0 0.011396751 0.14741376 -0.38593423 -0.23852047
0.0060627121 0 0.011106261 0.14741376 -0.38593423 -0.23852047
0.0074015399 0 0.010816514 0.14741376 -0.38593423 -0.23852047
0.008737362 0 0.010527502 0.14741376 -0.38593423 -0.23852047
0.010070206 5.5511151e-17 0.01023922 0.14741376 -0.38593423 -0.23852047
0.011400101 5.5511151e-17 0.0099516623 0.14741376 -0.38593423 -0.23852047
0.012727074 0 0.0096648205 0.14741376 -0.38593423 -0.23852047
0.014051155 5.5511151e-17 0.0093786893 0.14741376 -0.38593423 -0.23852047
0.015372371 0 0.0090932632 0.14741376 -0.38593423 -0.23852047
0.00020484616 0.048671421 0.039999999 0.14741376 -0.38593423 -0.23852047
0.0015187777 0.049171101 0.039999999 0.14741376 -0.38593423 -0.23852047
0.019319106 0 0.0082411459 0.14741376 -0.38593423 -0.23852047
0.020629138 0 0.0079584746 0.14741376 -0.38593423 -0.23852047
0.021936441 5.5511151e-17 0.0076764757 0.14741376 -0.38593423 -0.23852047
0.023241043 0 0.0073951446 0.14741376 -0.38593423 -0.23852047
0.024542969 0 0.0071144751 0.14741376 -0.38593423 -0.23852047
0.025842246 0 0.0068344609 0.14741376 -0.38593423 -0.23852047
0.0271389 5.5511151e-17 0.0065550962 0.14741376 -0.38593423 -0.23852047
0.02843296 5.5511151e-17 0.0062763751 0.14741376 -0.38593423 -0.23852047
0.029724447 0 0.005998292 0.14741376 -0.38593423 -0.23852047
0.031013388 0 0.0057208408 0.14741376 -0.38593423 -0.23852047
0.032299813 5.5511151e-17 0.0054440158 0.14741376 -0.38593423 -0.23852047
0.033583742 0 0.0051678121 0.14741376 -0.38593423 -0.23852047
0.034865201 0 0.004892223 0.14741376 -0.38593423 -0.23852047
0.036144216 0 0.0046172431 0.14741376 -0.38593423 -0.23852047
0.014817669 0.07930804 0.054250374 0.14741376 -0.38593423 -0.23852047
0.038695011 0 0.0040690899 0.14741376 -0.38593423 -0.23852047
0.03996684 0 0.0037959053 0.14741376 -0.38593423 -0.23852047
0.039999999 0.0044938023 0.0063416557 0.14741376 -0.38593423 -0.23852047
0.039999999 0.0092096021 0.0090207253 0.14741376 -0.38593423 -0.23852047
0.039999999 0.014031847 0.011760354 0.14741376 -0.38593423 -0.23852047
0.023917826 0.079586349 0.052454695 0.14741376 -0.38593423 -0.23852047
0.039999999 0.024010709 0.01742984 0.14741376 -0.38593423 -0.23852047
0.027198335 0.078648396 0.051218327 0.14741376 -0.38593423 -0.23852047
0.039999999 0.034462266 0.023368249 0.14741376 -0.38593423 -0.23852047
0.03066263 0.076891378 0.049477581 0.14741376 -0.38593423 -0.23852047
0.039999999 0.045421552 0.029595511 0.14741376 -0.38593423 -0.23852047
0.039999999 0.051103495 0.032824233 0.14741376 -0.38593423 -0.23852047
0.036540274 0.071191408 0.044979997 0.14741376 -0.38593423 -0.23852047
0.039999999 0.062897936 0.039526626 0.14741376 -0.38593423 -0.23852047
0.00067571882 0 0.010795563 0.14741376 -0.38593423 -0.23852047
0.0020248024 0 0.010504963 0.14741376 -0.38593423 -0.23852047
0.0033707721 0 0.01021511 0.14741376 -0.38593423 -0.23852047
0.0047136573 0 0.0099259969 0.14741376 -0.38593423 -0.23852047
0.0060534868 0 0.0096376166 0.14741376 -0.38593423 -0.23852047
0.0073902905 0 0.0093499627 0.14741376 -0.38593423 -0.23852047
0.0087240972 0 0.0090630297 0.14741376 -0.38593423 -0.23852047
0.010054934 0 0.008776811 0.14741376 -0.38593423 -0.23852047
0.011382831 0 0.0084912991 0.14741376 -0.38593423 -0.23852047
0 0.036408052 0.031482082 0.14741376 -0.38593423 -0.23852047
0.014029916 0 0.0079223728 0.14741376 -0.38593423 -0.23852047
0.015349161 0 0.0076389457 0.14741376 -0.38593423 -0.23852047
0.016665576 0 0.0073562018 0.14741376 -0.38593423 -0.23852047
0.01797919 5.5511151e-17 0.0070741335 0.14741376 -0.38593423 -0.23852047
0.00014488323 0.057668995 0.043449152 0.14741376 -0.38593423 -0.23852047
0.020598121 0 0.006512003 0.14741376 -0.38593423 -0.23852047
0.021903493 0 0.0062319278 0.14741376 -0.38593423 -0.23852047
0.023206171 5.5511151e-17 0.0059525054 0.14741376 -0.38593423 -0.23852047
0.024506181 0 0.0056737293 0.14741376 -0.38593423 -0.23852047
0.025803549 0 0.0053955941 0.14741376 -0.38593423 -0.23852047
0.027098304 0 0.0051180935 0.14741376 -0.38593423 -0.23852047
0.028390469 0 0.004841222 0.14741376 -0.38593423 -0.23852047
0.02968007 0 0.0045649735 0.14741376 -0.38593423 -0.23852047
0.030967133 0 0.004289343 0.14741376 -0.38593423 -0.23852047
0.032251686 0 0.0040143244 0.14741376 -0.38593423 -0.23852047
0.033533748 0 0.0037399121 0.14741376 -0.38593423 -0.23852047
0.034813348 0 0.0034661007 0.14741376 -0.38593423 -0.23852047
0.013350895 0.078833461 0.052566845 0.14741376 -0.38593423 -0.23852047
0.037365265 5.5511151e-17 0.0029202579 0.14741376 -0.38593423 -0.23852047
0.038637627 0 0.0026482155 0.14741376 -0.38593423 -0.23852047
0.039907627 0 0.0023767522 0.14741376 -0.38593423 -0.23852047
0.039999999 0.0042694872 0.0047678468 0.14741376 -0.38593423 -0.23852047
0.039999999 0.0089729959 0.0074238335 0.14741376 -0.38593423 -0.23852047
0.039999999 0.013782448 0.01013972 0.14741376 -0.38593423 -0.23852047
0.039999999 0.018701535 0.012917593 0.14741376 -0.38593423 -0.23852047
0.039999999 0.023734115 0.015759636 0.14741376 -0.38593423 -0.23852047
0.027105924 0.078679532 0.049541362 0.14741376 -0.38593423 -0.23852047
0.039999999 0.034156147 0.021645496 0.14741376 -0.38593423 -0.23852047
0.039999999 0.039554287 0.024694223 0.14741376 -0.38593423 -0.23852047
0.039999999 0.045083322 0.027816961 0.14741376 -0.38593423 -0.23852047
0.039999999 0.050748155 0.031016476 0.14741376 -0.38593423 -0.23852047
0.039999999 0.056553934 0.034295682 0.14741376 -0.38593423 -0.23852047
0.039999999 0.062506065 0.037657633 0.14741376 -0.38593423 -0.23852047
0.00067468756 0 0.009323041 0.14741376 -0.38593423 -0.23852047
2.7755576e-17 0.00536652 0.012476908 0.14741376 -0.38593423 -0.23852047
0.0033656396 0 0.0087468652 0.14741376 -0.38593423 -0.23852047
0.0047064885 0 0.008459867 0.14741376 -0.38593423 -0.23852047
0.006044291 0 0.0081735849 0.14741376 -0.38593423 -0.23852047
0.0073790764 5.5511151e-17 0.0078880144 0.14741376 -0.38593423 -0.23852047
0.0087108733 5.5511151e-17 0.007603148 0.14741376 -0.38593423 -0.23852047
0.01003971 0 0.0073189796 0.14741376 -0.38593423 -0.23852047
0.011365616 0 0.0070355032 0.14741376 -0.38593423 -0.23852047
0.012688617 0 0.0067527122 0.14741376 -0.38593423 -0.23852047
0.014008744 0 0.0064706006 0.14741376 -0.38593423 -0.23852047
0.015326022 0 0.0061891628 0.14741376 -0.38593423 -0.23852047
0.016640479 0 0.0059083919 0.14741376 -0.38593423 -0.23852047
0.017952144 0 0.0056282822 0.14741376 -0.38593423 -0.23852047
0.019261042 0 0.0053488277 0.14741376 -0.38593423 -0.23852047
0.020567201 0 0.0050700223 0.14741376 -0.38593423 -0.23852047
0.021870647 0 0.0047918609 0.14741376 -0.38593423 -0.23852047
0.023171406 5.5511151e-17 0.0045143366 0.14741376 -0.38593423 -0.23852047
0.024469508 0 0.0042374437 0.14741376 -0.38593423 -0.23852047
0.025764974 0 0.0039611771 0.14741376 -0.38593423 -0.23852047
0.027057832 5.5511151e-17 0.0036855307 0.14741376 -0.38593423 -0.23852047
0.028348111 5.5511151e-17 0.0034104986 0.14741376 -0.38593423 -0.23852047
0.029635832 0 0.0031360756 0.14741376 -0.38593423 -0.23852047
0.030921021 0 0.0028622556 0.14741376 -0.38593423 -0.23852047
0.032203708 0 0.0025890335 0.14741376 -0.38593423 -0.23852047
0.033483911 5.5511151e-17 0.0023164032 0.14741376 -0.38593423 -0.23852047
0.03476166 0 0.0020443597 0.14741376 -0.38593423 -0.23852047
0.036036979 0 0.0017728973 0.14741376 -0.38593423 -0.23852047
0.037309892 0 0.0015020107 0.14741376 -0.38593423 -0.23852047
0.038580421 5.5511151e-17 0.0012316945 0.14741376 -0.38593423 -0.23852047
0.039848596 0 0.00096194318 0.14741376 -0.38593423 -0.23852047
0.039999999 0.0040461142 0.0032006504 0.14741376 -0.38593423 -0.23852047
0.039999999 0.0087373946 0.0058337231 0.14741376 -0.38593423 -0.23852047
0.022167476 0.0798527 0.049539994 0.14741376 -0.38593423 -0.23852047
0.039999999 0.018439956 0.011279673 0.14741376 -0.38593423 -0.23852047
0.039999999 0.023458736 0.014096766 0.14741376 -0.38593423 -0.23852047
0.039999999 0.028594483 0.016979579 0.14741376 -0.38593423 -0.23852047
0.039999999 0.033851404 0.019930478 0.14741376 -0.38593423 -0.23852047
0.030454669 0.077016503 0.046187706 0.14741376 -0.38593423 -0.23852047
0.039999999 0.044746645 0.026046585 0.14741376 -0.38593423 -0.23852047
0.039999999 0.050394468 0.029217128 0.14741376 -0.38593423 -0.23852047
0.039999999 0.056182481 0.032466445 0.14741376 -0.38593423 -0.23852047
0.03835446 0.068980023 0.039999999 0.14741376 -0.38593423 -0.23852047
0.039999999 0.068200849 0.039213624 0.14741376 -0.38593423 -0.23852047
0.00067365961 0 0.0078551369 0.14741376 -0.38593423 -0.23852047
0 0.0053582392 0.010985477 0.14741376 -0.38593423 -0.23852047
0.0033605234 0 0.0072832159 0.14741376 -0.38593423 -0.23852047
0 0.012708154 0.015082833 0.14741376 -0.38593423 -0.23852047
0 0.016474629 0.017182617 0.14741376 -0.38593423 -0.23852047
0.0073678968 0 0.0064306254 0.14741376 -0.38593423 -0.23852047
0.0086976914 0 0.0061478144 0.14741376 -0.38593423 -0.23852047
0.010024534 0 0.0058656856 0.14741376 -0.38593423 -0.23852047
0.011348454 0 0.005584233 0.14741376 -0.38593423 -0.23852047
0.012669479 0 0.0053034509 0.14741376 -0.38593423 -0.23852047
0.013987637 0 0.0050233328 0.14741376 -0.38593423 -0.23852047
0.015302955 0 0.0047438727 0.14741376 -0.38593423 -0.23852047
0.016615462 0 0.0044650645 0.14741376 -0.38593423 -0.23852047
0.017925182 0 0.0041869022 0.14741376 -0.38593423 -0.23852047
0.019232145 0 0.0039093802 0.14741376 -0.38593423 -0.23852047
0.020536376 0 0.0036324929 0.14741376 -0.38593423 -0.23852047
0.021837901 0 0.0033562337 0.14741376 -0.38593423 -0.23852047
0.02313675 0 0.0030805974 0.14741376 -0.38593423 -0.23852047
0.024432946 5.5511151e-17 0.0028055781 0.14741376 -0.38593423 -0.23852047
0.025726516 0 0.0025311701 0.14741376 -0.38593423 -0.23852047
0.0044042603 0.072487436 0.047481053 0.14741376 -0.38593423 -0.23852047
0.028305881 0 0.0019841653 0.14741376 -0.38593423 -0.23852047
0.029591728 5.5511151e-17 0.0017115575 0.14741376 -0.38593423 -0.23852047
0.0079484871 0.075924516 0.04864667 0.14741376 -0.38593423 -0.23852047
0.032155875 0 0.0011681031 0.14741376 -0.38593423 -0.23852047
0.033434227 0 0.00089724554 0.14741376 -0.38593423 -0.23852047
0.011862033 0.078239374 0.049108654 0.14741376 -0.38593423 -0.23852047
0.035983607 0 0.0003572428 0.14741376 -0.38593423 -0.23852047
0.037254684 0 8.808681e-05 0.14741376 -0.38593423 -0.23852047
0.016069112 0.079583474 0.048967555 0.14741376 -0.38593423 -0.23852047
0.039586965 0.0007271542 2.7755576e-17 0.14741376 -0.38593423 -0.23852047
0.019013844 0.079973318 0.048561782 0.14741376 -0.38593423 -0.23852047
0.039999999 0.0085027888 0.0042503304 0.14741376 -0.38593423 -0.23852047
0.039999999 0.013286853 0.0069192611 0.14741376 -0.38593423 -0.23852047
0.039999999 0.018179508 0.0096488269 0.14741376 -0.38593423 -0.23852047
0.02526989 0.079288766 0.046856597 0.14741376 -0.38593423 -0.23852047
0.039999999 0.028306004 0.015298477 0.14741376 -0.38593423 -0.23852047
0.039999999 0.03354802 0.018223124 0.14741376 -0.38593423 -0.23852047
0.039999999 0.03891499 0.021217545 0.14741376 -0.38593423 -0.23852047
0.039999999 0.04441151 0.024284307 0.14741376 -0.38593423 -0.23852047
0.039999999 0.050042417 0.027426107 0.14741376 -0.38593423 -0.23852047
0.039999999 0.055812772 0.030645777 0.14741376 -0.38593423 -0.23852047
0.039999999 0.061727908 0.033946287 0.14741376 -0.38593423 -0.23852047
0.039999999 0.067793429 0.037330773 0.14741376 -0.38593423 -0.23852047
0.00067263481 0 0.0063918093 0.14741376 -0.38593423 -0.23852047
0.0020155718 0 0.0061076153 0.14741376 -0.38593423 -0.23852047
0.003355423 0 0.0058241189 0.14741376 -0.38593423 -0.23852047
0.0046922178 5.5511151e-17 0.0055413144 0.14741376 -0.38593423 -0.23852047
0.0060259844 0 0.0052591949 0.14741376 -0.38593423 -0.23852047
0.0073567522 5.5511151e-17 0.0049777548 0.14741376 -0.38593423 -0.23852047
0.0086845495 5.5511151e-17 0.004696988 0.14741376 -0.38593423 -0.23852047
2.7755576e-17 0.028113894 0.022113984 0.14741376 -0.38593423 -0.23852047
2.7755576e-17 0.032136068 0.024343148 0.14741376 -0.38593423 -0.23852047
0.012650399 0 0.0038586638 0.14741376 -0.38593423 -0.23852047
0 0.040391915 0.028918844 0.14741376 -0.38593423 -0.23852047
0.015279959 0 0.0033030349 0.14741376 -0.38593423 -0.23852047
0.016590519 0 0.0030261788 0.14741376 -0.38593423 -0.23852047
0.017898303 0 0.0027499537 0.14741376 -0.38593423 -0.23852047
0.019203335 0 0.0024743539 0.14741376 -0.38593423 -0.23852047
0.020505644 0 0.0021993737 0.14741376 -0.38593423 -0.23852047
0.021805257 5.5511151e-17 0.001925007 0.14741376 -0.38593423 -0.23852047
0.0231022 0 0.0016512484 0.14741376 -0.38593423 -0.23852047
0.024396498 0 0.0013780923 0.14741376 -0.38593423 -0.23852047
0.025688175 0 0.0011055329 0.14741376 -0.38593423 -0.23852047
0.026977262 0 0.00083356479 0.14741376 -0.38593423 -0.23852047
0.028263781 0 0.00056218228 0.14741376 -0.38593423 -0.23852047
0.029547758 0 0.00029137998 0.14741376 -0.38593423 -0.23852047
0.030829219 0 2.1152404e-05 0.14741376 -0.38593423 -0.23852047
0.031987932 0.00040251028 2.7755576e-17 0.14741376 -0.38593423 -0.23852047
0.010465606 0.077570207 0.047319394 0.14741376 -0.38593423 -0.23852047
0.034285896 0.0012762009 0 0.14741376 -0.38593423 -0.23852047
0.03543552 0.0017131707 2.7755576e-17 0.14741376 -0.38593423 -0.23852047
0.036585588 0.0021502313 0 0.14741376 -0.38593423 -0.23852047
0.01600454 0.079569258 0.047260568 0.14741376 -0.38593423 -0.23852047
0.038887136 0.0030246479 0 0.14741376 -0.38593423 -0.23852047
0.018941369 0.079971358 0.046864972 0.14741376 -0.38593423 -0.23852047
0.039999999 0.0082691694 0.002673591 0.14741376 -0.38593423 -0.23852047
0.039999999 0.013040637 0.0053193029 0.14741376 -0.38593423 -0.23852047
0.039999999 0.017920177 0.0080249859 0.14741376 -0.38593423 -0.23852047
0.025183331 0.079307817 0.045183036 0.14741376 -0.38593423 -0.23852047
0.039999999 0.028018795 0.013624762 0.14741376 -0.38593423 -0.23852047
0.039999999 0.033245984 0.016523357 0.14741376 -0.38593423 -0.23852047
0.03024785 0.077140942 0.042915922 0.14741376 -0.38593423 -0.23852047
0.039999999 0.044077903 0.022530047 0.14741376 -0.38593423 -0.23852047
0.033928927 0.074313775 0.040573988 0.14741376 -0.38593423 -0.23852047
0.039999999 0.055444784 0.028833592 0.14741376 -0.38593423 -0.23852047
0.039999999 0.061341584 0.032103758 0.14741376 -0.38593423 -0.23852047
0.038218867 0.074904919 0.039999999 0.14741376 -0.38593423 -0.23852047
0.039999999 0.07358972 0.038896315 0.14741376 -0.38593423 -0.23852047
0 0.0017663535 0.0060472614 0.14741376 -0.38593423 -0.23852047
0.002012514 0 0.0046509346 0.14741376 -0.38593423 -0.23852047
0.0033503384 0 0.0043695341 0.14741376 -0.38593423 -0.23852047
0.0046851155 0 0.0040888092 0.14741376 -0.38593423 -0.23852047
2.7755576e-17 0.016422691 0.014120609 0.14741376 -0.38593423 -0.23852047
0.007345642 0 0.0035293624 0.14741376 -0.38593423 -0.23852047
2.7755576e-17 0.024121039 0.018361416 0.14741376 -0.38593423 -0.23852047
0.0099943215 0 0.0029725456 0.14741376 -0.38593423 -0.23852047
0.011314289 5.5511151e-17 0.0026951083 0.14741376 -0.38593423 -0.23852047
0.012631378 0 0.0024183104 0.14741376 -0.38593423 -0.23852047
0.013945618 0 0.002142146 0.14741376 -0.38593423 -0.23852047
0.015257034 0 0.0018666096 0.14741376 -0.38593423 -0.23852047
0 0.048860107 0.031990413 0.14741376 -0.38593423 -0.23852047
0.017871505 0 0.0013173964 0.14741376 -0.38593423 -0.23852047
2.7755576e-17 0.057705779 0.036863897 0.14741376 -0.38593423 -0.23852047
0.020475008 5.5511151e-17 0.00077062496 0.14741376 -0.38593423 -0.23852047
0.021772712 0 0.00049814064 0.14741376 -0.38593423 -0.23852047
0.023067754 0 0.0002262498 0.14741376 -0.38593423 -0.23852047
0.024336912 7.2911316e-05 0 0.14741376 -0.38593423 -0.23852047
0.025488537 0.00051161001 0 0.14741376 -0.38593423 -0.23852047
0.026640484 0.00095036905 0 0.14741376 -0.38593423 -0.23852047
0.02779277 0.0013891943 0 0.14741376 -0.38593423 -0.23852047
0.028945407 0.0018280916 2.7755576e-17 0.14741376 -0.38593423 -0.23852047
0.030098414 0.0022670669 0 0.14741376 -0.38593423 -0.23852047
0.0091178138 0.076759301 0.045448698 0.14741376 -0.38593423 -0.23852047
0.032405593 0.0031452754 2.7755576e-17 0.14741376 -0.38593423 -0.23852047
0.033559799 0.0035845204 0 0.14741376 -0.38593423 -0.23852047
0.034714434 0.0040238672 2.7755576e-17 0.14741376 -0.38593423 -0.23852047
0.035869516 0.0044633211 0 0.14741376 -0.38593423 -0.23852047
0.015940165 0.079555094 0.045558821 0.14741376 -0.38593423 -0.23852047
0.038181085 0.0053425767 0 0.14741376 -0.38593423 -0.23852047
0.039337602 0.0057823895 2.7755576e-17 0.14741376 -0.38593423 -0.23852047
0.039999999 0.0080365259 0.0011034415 0.14741376 -0.38593423 -0.23852047
0.039999999 0.01279546 0.0037261057 0.14741376 -0.38593423 -0.23852047
0.039999999 0.017661955 0.0064080828 0.14741376 -0.38593423 -0.23852047
0.039999999 0.02263977 0.0091514438 0.14741376 -0.38593423 -0.23852047
0.039999999 0.02773284 0.011958361 0.14741376 -0.38593423 -0.23852047
0.039999999 0.032945283 0.014831104 0.14741376 -0.38593423 -0.23852047
0.039999999 0.038281426 0.01777206 0.14741376 -0.38593423 -0.23852047
0.039999999 0.043745801 0.020783724 0.14741376 -0.38593423 -0.23852047
0.039999999 0.049343161 0.023868723 0.14741376 -0.38593423 -0.23852047
0.039999999 0.055078503 0.027029807 0.14741376 -0.38593423 -0.23852047
0.039999999 0.060957074 0.030269874 0.14741376 -0.38593423 -0.23852047
0.039999999 0.066984393 0.033591963 0.14741376 -0.38593423 -0.23852047
0.039999999 0.073166266 0.036999278 0.14741376 -0.38593423 -0.23852047
0.00067059469 0 0.0034787194 0.14741376 -0.38593423 -0.23852047
0.0020094656 5.5511151e-17 0.0031987366 0.14741376 -0.38593423 -0.23852047
0.0033452695 0 0.0029194201 0.14741376 -0.38593423 -0.23852047
0.0046780347 5.5511151e-17 0.0026407638 0.14741376 -0.38593423 -0.23852047
0.006007791 0 0.0023627616 0.14741376 -0.38593423 -0.23852047
0.0073345657 5.5511151e-17 0.0020854073 0.14741376 -0.38593423 -0.23852047
0.0086583877 0 0.0018086949 0.14741376 -0.38593423 -0.23852047
0.0099792844 0 0.0015326185 0.14741376 -0.38593423 -0.23852047
0.011297285 5.5511151e-17 0.0012571724 0.14741376 -0.38593423 -0.23852047
0 0.036109153 0.023390947 0.14741376 -0.38593423 -0.23852047
0.013924704 5.5511151e-17 0.0007081473 0.14741376 -0.38593423 -0.23852047
0.015234178 0 0.00043455671 0.14741376 -0.38593423 -0.23852047
2.7755576e-17 0.048777748 0.030328302 0.14741376 -0.38593423 -0.23852047
0 0.053152498 0.032723982 0.14741376 -0.38593423 -0.23852047
0.018939903 0.00062004768 0 0.14741376 -0.38593423 -0.23852047
0.020095481 0.0010607661 2.7755576e-17 0.14741376 -0.38593423 -0.23852047
0.021251313 0.0015015374 0 0.14741376 -0.38593423 -0.23852047
0.02240742 0.0019423676 0 0.14741376 -0.38593423 -0.23852047
0.023563813 0.0023832629 0 0.14741376 -0.38593423 -0.23852047
0.024720509 0.002824229 0 0.14741376 -0.38593423 -0.23852047
0.025877526 0.0032652719 0 0.14741376 -0.38593423 -0.23852047
0.027034877 0.0037063977 0 0.14741376 -0.38593423 -0.23852047
0.0065957196 0.074810743 0.043207865 0.14741376 -0.38593423 -0.23852047
0.029350646 0.0045889216 0 0.14741376 -0.38593423 -0.23852047
0.030509098 0.0050303317 0 0.14741376 -0.38593423 -0.23852047
0.031667944 0.0054718489 2.7755576e-17 0.14741376 -0.38593423 -0.23852047
0.011699243 0.078164056 0.04397944 0.14741376 -0.38593423 -0.23852047
0.0339869 0.0063552274 0 0.14741376 -0.38593423 -0.23852047
0.014448863 0.079203434 0.043975081 0.14741376 -0.38593423 -0.23852047
0.036307637 0.0072391052 0 0.14741376 -0.38593423 -0.23852047
0.037468713 0.0076812464 2.7755576e-17 0.14741376 -0.38593423 -0.23852047
0.038630284 0.0081235301 0 0.14741376 -0.38593423 -0.23852047
0.039792363 0.0085659632 0 0.14741376 -0.38593423 -0.23852047
0.021849243 0.079887323 0.042806298 0.14741376 -0.38593423 -0.23852047
0.039999999 0.017404832 0.004798051 0.14741376 -0.38593423 -0.23852047
0.039999999 0.022369133 0.0075172032 0.14741376 -0.38593423 -0.23852047
0.039999999 0.027448127 0.010299203 0.14741376 -0.38593423 -0.23852047
0.039999999 0.032645907 0.013146292 0.14741376 -0.38593423 -0.23852047
0.039999999 0.037966762 0.016060824 0.14741376 -0.38593423 -0.23852047
0.039999999 0.043415196 0.019045262 0.14741376 -0.38593423 -0.23852047
0.039999999 0.048995923 0.022102196 0.14741376 -0.38593423 -0.23852047
0.039999999 0.054713909 0.02523434 0.14741376 -0.38593423 -0.23852047
0.039999999 0.06057436 0.028444551 0.14741376 -0.38593423 -0.23852047
0.039999999 0.066582747 0.031735826 0.14741376 -0.38593423 -0.23852047
0.03830098 0.079999998 0.039439496 0.14741376 -0.38593423 -0.23852047
0.039999999 0.079066686 0.03857436 0.14741376 -0.38593423 -0.23852047
2.7755576e-17 0.0017609801 0.0031264783 0.14741376 -0.38593423 -0.23852047
0.0020064267 0 0.001750981 0.14741376 -0.38593423 -0.23852047
0.0033402159 0 0.0014737373 0.14741376 -0.38593423 -0.23852047
0.0046709762 0 0.0011971381 0.14741376 -0.38593423 -0.23852047
0 0.016371084 0.01107814 0.14741376 -0.38593423 -0.23852047
0.0073235231 5.5511151e-17 0.00064584933 0.14741376 -0.38593423 -0.23852047
0.0086453659 0 0.00037114782 0.14741376 -0.38593423 -0.23852047
0.0099642938 5.5511151e-17 9.7067124e-05 0.14741376 -0.38593423 -0.23852047
0.011179579 0.00028563011 0 0.14741376 -0.38593423 -0.23852047
0 0.036049973 0.021788888 0.14741376 -0.38593423 -0.23852047
0.01349877 0.0011709665 2.7755576e-17 0.14741376 -0.38593423 -0.23852047
0.014658619 0.0016136909 0 0.14741376 -0.38593423 -0.23852047
0.015818657 0.0020564606 0 0.14741376 -0.38593423 -0.23852047
2.7755576e-17 0.053062256 0.031048568 0.14741376 -0.38593423 -0.23852047
0.01813937 0.0029421607 0 0.14741376 -0.38593423 -0.23852047
0.019300073 0.0033851028 0 0.14741376 -0.38593423 -0.23852047
0.02046103 0.0038281146 0 0.14741376 -0.38593423 -0.23852047
0.00052695954 0.069708839 0.039999999 0.14741376 -0.38593423 -0.23852047
0.022783767 0.0047143707 0 0.14741376 -0.38593423 -0.23852047
0.023945581 0.0051576272 0 0.14741376 -0.38593423 -0.23852047
0.0042651636 0.07232368 0.040646996 0.14741376 -0.38593423 -0.23852047
0.026270172 0.0060444274 0 0.14741376 -0.38593423 -0.23852047
0.027432982 0.0064879833 2.7755576e-17 0.14741376 -0.38593423 -0.23852047
0.028596157 0.0069316509 2.7755576e-17 0.14741376 -0.38593423 -0.23852047
0.029759713 0.0073754368 2.7755576e-17 0.14741376 -0.38593423 -0.23852047
0.030923665 0.0078193462 2.7755576e-17 0.14741376 -0.38593423 -0.23852047
0.011645314 0.078139104 0.04228029 0.14741376 -0.38593423 -0.23852047
0.03325282 0.0087075625 2.7755576e-17 0.14741376 -0.38593423 -0.23852047
0.034418058 0.0091518806 0 0.14741376 -0.38593423 -0.23852047
0.015812004 0.079526886 0.04217086 0.14741376 -0.38593423 -0.23852047
0.017257029 0.079790093 0.042014234 0.14741376 -0.38593423 -0.23852047
0.037916597 0.010485751 2.7755576e-17 0.14741376 -0.38593423 -0.23852047
0.039083775 0.0109307 2.7755576e-17 0.14741376 -0.38593423 -0.23852047
0.039999999 0.012308189 0.00055973587 0.14741376 -0.38593423 -0.23852047
0.039999999 0.017148795 0.003194825 0.14741376 -0.38593423 -0.23852047
0.039999999 0.022099653 0.0058899485 0.14741376 -0.38593423 -0.23852047
0.039999999 0.027164647 0.0086472183 0.14741376 -0.38593423 -0.23852047
0.039999999 0.032347839 0.01146885 0.14741376 -0.38593423 -0.23852047
0.039999999 0.037653491 0.014357161 0.14741376 -0.38593423 -0.23852047
0.039999999 0.043086071 0.017314585 0.14741376 -0.38593423 -0.23852047
0.032251462 0.079999998 0.039017428 0.14741376 -0.38593423 -0.23852047
0.039999999 0.054350991 0.023447109 0.14741376 -0.38593423 -0.23852047
0.039999999 0.060193423 0.026627701 0.14741376 -0.38593423 -0.23852047
0.039999999 0.066182993 0.029888412 0.14741376 -0.38593423 -0.23852047
