# .PCD v0.7 - Point Cloud Data file format
VERSION 0.7
FIELDS x y z vp_x vp_y vp_z
SIZE 4 4 4 4 4 4
TYPE F F F F F F
COUNT 1 1 1 1 1 1
WIDTH 716
HEIGHT 1
VIEWPOINT 0 0 0 1 0 0 0
POINTS 716
DATA ascii
0.038429223 5.5511151e-17 0.017724298 -0.14741376 -0.38593423 -0.23852047
0.039880145 5.5511151e-17 0.018037008 -0.14741376 -0.38593423 -0.23852047
0.00033358217 0.063482001 0.043464035 -0.14741376 -0.38593423 -0.23852047
9.7651893e-05 0.058198903 0.040467817 -0.14741376 -0.38593423 -0.23852047
0 0.053425103 0.037785027 -0.14741376 -0.38593423 -0.23852047
2.7755576e-17 0.049025673 0.035331801 -0.14741376 -0.38593423 -0.23852047
0 0.044704396 0.032922212 -0.14741376 -0.38593423 -0.23852047
0 0.040459149 0.030555081 -0.14741376 -0.38593423 -0.23852047
0 0.036287889 0.028229261 -0.14741376 -0.38593423 -0.23852047
2.7755576e-17 0.032188635 0.025943654 -0.14741376 -0.38593423 -0.23852047
2.7755576e-17 0.02815949 0.023697194 -0.14741376 -0.38593423 -0.23852047
0 0.024198614 0.021488857 -0.14741376 -0.38593423 -0.23852047
0 0.020304231 0.019317649 -0.14741376 -0.38593423 -0.23852047
0 0.016474629 0.017182617 -0.14741376 -0.38593423 -0.23852047
0 0.012708154 0.015082833 -0.14741376 -0.38593423 -0.23852047
0 0.0090032062 0.013017409 -0.14741376 -0.38593423 -0.23852047
2.7755576e-17 0.0053582392 0.010985477 -0.14741376 -0.38593423 -0.23852047
0 0.0017717603 0.0089862067 -0.14741376 -0.38593423 -0.23852047
0.00067444443 0 0.0081421742 -0.14741376 -0.38593423 -0.23852047
0.0020257027 5.5511151e-17 0.0084299399 -0.14741376 -0.38593423 -0.23852047
0.0033801452 0 0.0087184384 -0.14741376 -0.38593423 -0.23852047
0.0047378018 0 0.0090076765 -0.14741376 -0.38593423 -0.23852047
0.006098703 0 0.0092976624 -0.14741376 -0.38593423 -0.23852047
0.0074628796 0 0.0095884008 -0.14741376 -0.38593423 -0.23852047
0.0088303629 5.5511151e-17 0.0098799001 -0.14741376 -0.38593423 -0.23852047
0.010201182 0 0.010172167 -0.14741376 -0.38593423 -0.23852047
0.038938642 0.066422291 0.053317584 -0.14741376 -0.38593423 -0.23852047
0.012952959 0 0.010759029 -0.14741376 -0.38593423 -0.23852047
0.01433398 0 0.011053639 -0.14741376 -0.38593423 -0.23852047
0.015718464 0 0.011349043 -0.14741376 -0.38593423 -0.23852047
0.017106446 0 0.01164525 -0.14741376 -0.38593423 -0.23852047
0.018497955 0 0.011942266 -0.14741376 -0.38593423 -0.23852047
0.019893026 0 0.012240098 -0.14741376 -0.38593423 -0.23852047
0.021291692 0 0.012538754 -0.14741376 -0.38593423 -0.23852047
0.022693988 0 0.012838242 -0.14741376 -0.38593423 -0.23852047
0.024099944 0 0.013138568 -0.14741376 -0.38593423 -0.23852047
0.025509598 0 0.01343974 -0.14741376 -0.38593423 -0.23852047
0.02692298 0 0.013741765 -0.14741376 -0.38593423 -0.23852047
0.028340127 0 0.014044653 -0.14741376 -0.38593423 -0.23852047
0.039999999 0.022303117 0.028961686 -0.14741376 -0.38593423 -0.23852047
0.031185856 0 0.01465304 -0.14741376 -0.38593423 -0.23852047
0.032614507 0 0.014958558 -0.14741376 -0.38593423 -0.23852047
0.034047067 0 0.015264967 -0.14741376 -0.38593423 -0.23852047
0.035483565 5.5511151e-17 0.015572276 -0.14741376 -0.38593423 -0.23852047
0.036924042 0 0.015880493 -0.14741376 -0.38593423 -0.23852047
0.038368534 5.5511151e-17 0.016189627 -0.14741376 -0.38593423 -0.23852047
0.03981708 5.5511151e-17 0.016499685 -0.14741376 -0.38593423 -0.23852047
0.00029800201 0.063264973 0.041659817 -0.14741376 -0.38593423 -0.23852047
0 0.057805158 0.038570516 -0.14741376 -0.38593423 -0.23852047
0 0.053333919 0.036092158 -0.14741376 -0.38593423 -0.23852047
2.7755576e-17 0.048942748 0.033658229 -0.14741376 -0.38593423 -0.23852047
0 0.044629451 0.031267516 -0.14741376 -0.38593423 -0.23852047
0 0.040391915 0.028918844 -0.14741376 -0.38593423 -0.23852047
0 0.036228109 0.026611084 -0.14741376 -0.38593423 -0.23852047
0 0.032136068 0.024343148 -0.14741376 -0.38593423 -0.23852047
0 0.028113894 0.022113984 -0.14741376 -0.38593423 -0.23852047
0 0.024159763 0.019922577 -0.14741376 -0.38593423 -0.23852047
0 0.020271905 0.017767947 -0.14741376 -0.38593423 -0.23852047
0 0.016448619 0.015649149 -0.14741376 -0.38593423 -0.23852047
0 0.012688255 0.013565267 -0.14741376 -0.38593423 -0.23852047
2.7755576e-17 0.0089892233 0.01151542 -0.14741376 -0.38593423 -0.23852047
0 0.0053499849 0.0094987536 -0.14741376 -0.38593423 -0.23852047
0 0.0017690527 0.0075144428 -0.14741376 -0.38593423 -0.23852047
0.00067341723 0 0.0066767079 -0.14741376 -0.38593423 -0.23852047
0.002022614 0 0.006962317 -0.14741376 -0.38593423 -0.23852047
0.003374985 0 0.0072486438 -0.14741376 -0.38593423 -0.23852047
0.0047305608 0 0.0075356942 -0.14741376 -0.38593423 -0.23852047
0.0060893707 5.5511151e-17 0.0078234747 -0.14741376 -0.38593423 -0.23852047
0.0074514463 0 0.0081119919 -0.14741376 -0.38593423 -0.23852047
0.0088168178 0 0.0084012533 -0.14741376 -0.38593423 -0.23852047
0.010185516 0 0.0086912643 -0.14741376 -0.38593423 -0.23852047
0.011557572 0 0.0089820325 -0.14741376 -0.38593423 -0.23852047
0.012933017 0 0.0092735654 -0.14741376 -0.38593423 -0.23852047
0.014311884 0 0.0095658684 -0.14741376 -0.38593423 -0.23852047
0.015694203 0 0.0098589491 -0.14741376 -0.38593423 -0.23852047
0.036823489 0.046322025 0.039999999 -0.14741376 -0.38593423 -0.23852047
0.018469332 5.5511151e-17 0.010447472 -0.14741376 -0.38593423 -0.23852047
0.019862205 0 0.010742928 -0.14741376 -0.38593423 -0.23852047
0.021258662 0 0.011039191 -0.14741376 -0.38593423 -0.23852047
0.022658736 0 0.011336266 -0.14741376 -0.38593423 -0.23852047
0.024062458 0 0.011634163 -0.14741376 -0.38593423 -0.23852047
0.025469868 0 0.011932887 -0.14741376 -0.38593423 -0.23852047
0.026880993 0 0.012232447 -0.14741376 -0.38593423 -0.23852047
0.028295873 0 0.012532849 -0.14741376 -0.38593423 -0.23852047
0.029714538 0 0.012834102 -0.14741376 -0.38593423 -0.23852047
0.031137027 0 0.013136214 -0.14741376 -0.38593423 -0.23852047
0.032563373 5.5511151e-17 0.01343919 -0.14741376 -0.38593423 -0.23852047
0.039999999 0.012778263 0.022095472 -0.14741376 -0.38593423 -0.23852047
0.035427779 5.5511151e-17 0.014047772 -0.14741376 -0.38593423 -0.23852047
0.036865909 0 0.014353392 -0.14741376 -0.38593423 -0.23852047
0.039999999 0.0035159232 0.016966423 -0.14741376 -0.38593423 -0.23852047
0.039754216 0 0.014967332 -0.14741376 -0.38593423 -0.23852047
2.7755576e-17 0.06225054 0.039367877 -0.14741376 -0.38593423 -0.23852047
2.7755576e-17 0.057705779 0.036863897 -0.14741376 -0.38593423 -0.23852047
2.7755576e-17 0.053243052 0.034405161 -0.14741376 -0.38593423 -0.23852047
2.7755576e-17 0.048860107 0.031990413 -0.14741376 -0.38593423 -0.23852047
0 0.044554759 0.029618459 -0.14741376 -0.38593423 -0.23852047
2.7755576e-17 0.040324911 0.027288137 -0.14741376 -0.38593423 -0.23852047
0 0.036168534 0.02499833 -0.14741376 -0.38593423 -0.23852047
2.7755576e-17 0.032083675 0.02274796 -0.14741376 -0.38593423 -0.23852047
0 0.028068449 0.020535991 -0.14741376 -0.38593423 -0.23852047
2.7755576e-17 0.024121039 0.018361416 -0.14741376 -0.38593423 -0.23852047
0 0.020239685 0.016223267 -0.14741376 -0.38593423 -0.23852047
0 0.016422691 0.014120609 -0.14741376 -0.38593423 -0.23852047
2.7755576e-17 0.012668419 0.01205254 -0.14741376 -0.38593423 -0.23852047
0 0.0089752842 0.010018183 -0.14741376 -0.38593423 -0.23852047
0 0.0053417562 0.0080166953 -0.14741376 -0.38593423 -0.23852047
0 0.0017663535 0.0060472614 -0.14741376 -0.38593423 -0.23852047
0.00067239325 0 0.0052157883 -0.14741376 -0.38593423 -0.23852047
0.031561613 0.076296911 0.053740509 -0.14741376 -0.38593423 -0.23852047
0.003369841 0 0.0057834205 -0.14741376 -0.38593423 -0.23852047
0.033993918 0.074252211 0.053126201 -0.14741376 -0.38593423 -0.23852047
0.0060800677 0 0.0063538821 -0.14741376 -0.38593423 -0.23852047
0.0074400483 0 0.0066401903 -0.14741376 -0.38593423 -0.23852047
0.0088033145 0 0.0069272257 -0.14741376 -0.38593423 -0.23852047
0.010169897 0 0.0072149942 -0.14741376 -0.38593423 -0.23852047
0.011539828 0 0.0075035035 -0.14741376 -0.38593423 -0.23852047
0.012913138 0 0.0077927592 -0.14741376 -0.38593423 -0.23852047
0.014289857 0 0.0080827689 -0.14741376 -0.38593423 -0.23852047
0.015670018 0 0.008373539 -0.14741376 -0.38593423 -0.23852047
0.017053656 5.5511151e-17 0.0086650774 -0.14741376 -0.38593423 -0.23852047
0.018440798 0 0.0089573888 -0.14741376 -0.38593423 -0.23852047
0.01983148 0 0.0092504825 -0.14741376 -0.38593423 -0.23852047
0.021225736 0 0.0095443651 -0.14741376 -0.38593423 -0.23852047
0.022623595 0 0.0098390421 -0.14741376 -0.38593423 -0.23852047
0.024025094 0 0.010134523 -0.14741376 -0.38593423 -0.23852047
0.025430264 0 0.010430813 -0.14741376 -0.38593423 -0.23852047
0.026839141 0 0.010727921 -0.14741376 -0.38593423 -0.23852047
0.039999999 0.025810691 0.02771513 -0.14741376 -0.38593423 -0.23852047
0.02966815 0 0.011324618 -0.14741376 -0.38593423 -0.23852047
0.031088352 0 0.011624222 -0.14741376 -0.38593423 -0.23852047
0.032512397 0 0.011924673 -0.14741376 -0.38593423 -0.23852047
0.039999999 0.012895411 0.020604294 -0.14741376 -0.38593423 -0.23852047
0.035372168 0 0.012528147 -0.14741376 -0.38593423 -0.23852047
0.036807962 5.5511151e-17 0.012831185 -0.14741376 -0.38593423 -0.23852047
0.039999999 0.0036424047 0.0155102 -0.14741376 -0.38593423 -0.23852047
0.039691553 5.5511151e-17 0.013439904 -0.14741376 -0.38593423 -0.23852047
2.7755576e-17 0.062142726 0.037647251 -0.14741376 -0.38593423 -0.23852047
2.7755576e-17 0.057606742 0.03516322 -0.14741376 -0.38593423 -0.23852047
2.7755576e-17 0.053152498 0.032723982 -0.14741376 -0.38593423 -0.23852047
0 0.048777748 0.030328302 -0.14741376 -0.38593423 -0.23852047
0 0.04448032 0.027974991 -0.14741376 -0.38593423 -0.23852047
0 0.040258128 0.025662908 -0.14741376 -0.38593423 -0.23852047
0 0.036109153 0.023390947 -0.14741376 -0.38593423 -0.23852047
2.7755576e-17 0.032031454 0.021158041 -0.14741376 -0.38593423 -0.23852047
2.7755576e-17 0.028023154 0.018963166 -0.14741376 -0.38593423 -0.23852047
0 0.024082441 0.016805325 -0.14741376 -0.38593423 -0.23852047
0 0.020207567 0.014683563 -0.14741376 -0.38593423 -0.23852047
0 0.016396847 0.012596955 -0.14741376 -0.38593423 -0.23852047
0 0.012648647 0.010544606 -0.14741376 -0.38593423 -0.23852047
0 0.0089613898 0.0085256528 -0.14741376 -0.38593423 -0.23852047
2.7755576e-17 0.0053335531 0.00653926 -0.14741376 -0.38593423 -0.23852047
0 0.0017636627 0.0045846202 -0.14741376 -0.38593423 -0.23852047
0.030266484 0.077129729 0.052179486 -0.14741376 -0.38593423 -0.23852047
0.0020164652 0 0.0040407083 -0.14741376 -0.38593423 -0.23852047
0.0033647129 0 0.0043227267 -0.14741376 -0.38593423 -0.23852047
0.033987667 0.074258134 0.051385622 -0.14741376 -0.38593423 -0.23852047
0.0060707931 0 0.0048888437 -0.14741376 -0.38593423 -0.23852047
0.0074286857 5.5511151e-17 0.0051729549 -0.14741376 -0.38593423 -0.23852047
0.037199806 0.070192821 0.049831975 -0.14741376 -0.38593423 -0.23852047
0.010154328 5.5511151e-17 0.0057433154 -0.14741376 -0.38593423 -0.23852047
0.011522139 0 0.0060295775 -0.14741376 -0.38593423 -0.23852047
0.012893319 0 0.0063165696 -0.14741376 -0.38593423 -0.23852047
0.014267899 0 0.0066042985 -0.14741376 -0.38593423 -0.23852047
0.01564591 0 0.0068927715 -0.14741376 -0.38593423 -0.23852047
0.017027386 5.5511151e-17 0.0071819942 -0.14741376 -0.38593423 -0.23852047
0.018412355 0 0.0074719745 -0.14741376 -0.38593423 -0.23852047
0.039999999 0.046619978 0.037513167 -0.14741376 -0.38593423 -0.23852047
0.021192912 5.5511151e-17 0.0080542332 -0.14741376 -0.38593423 -0.23852047
0.022588566 0 0.0083465269 -0.14741376 -0.38593423 -0.23852047
0.023987845 0 0.0086396048 -0.14741376 -0.38593423 -0.23852047
0.025390785 0 0.0089334752 -0.14741376 -0.38593423 -0.23852047
0.039999999 0.029247992 0.028003752 -0.14741376 -0.38593423 -0.23852047
0.028207783 5.5511151e-17 0.0095236208 -0.14741376 -0.38593423 -0.23852047
0.029621908 0 0.0098199109 -0.14741376 -0.38593423 -0.23852047
0.031039832 0 0.010117022 -0.14741376 -0.38593423 -0.23852047
0.032461587 0 0.010414962 -0.14741376 -0.38593423 -0.23852047
0.033887211 0 0.010713738 -0.14741376 -0.38593423 -0.23852047
0.035316736 5.5511151e-17 0.011013358 -0.14741376 -0.38593423 -0.23852047
0.036750201 0 0.01131383 -0.14741376 -0.38593423 -0.23852047
0.038187642 0 0.01161516 -0.14741376 -0.38593423 -0.23852047
0.039629094 0 0.011917356 -0.14741376 -0.38593423 -0.23852047
2.7755576e-17 0.066646293 0.038442452 -0.14741376 -0.38593423 -0.23852047
2.7755576e-17 0.062035285 0.035932634 -0.14741376 -0.38593423 -0.23852047
2.7755576e-17 0.057508048 0.033468429 -0.14741376 -0.38593423 -0.23852047
2.7755576e-17 0.053062256 0.031048568 -0.14741376 -0.38593423 -0.23852047
2.7755576e-17 0.048695672 0.028671838 -0.14741376 -0.38593423 -0.23852047
0 0.044406135 0.026337063 -0.14741376 -0.38593423 -0.23852047
0 0.040191568 0.024043109 -0.14741376 -0.38593423 -0.23852047
2.7755576e-17 0.036049973 0.021788888 -0.14741376 -0.38593423 -0.23852047
0 0.031979404 0.019573344 -0.14741376 -0.38593423 -0.23852047
0 0.027978003 0.017395461 -0.14741376 -0.38593423 -0.23852047
0 0.024043966 0.015254259 -0.14741376 -0.38593423 -0.23852047
0 0.020175554 0.01314879 -0.14741376 -0.38593423 -0.23852047
0 0.016371084 0.01107814 -0.14741376 -0.38593423 -0.23852047
2.7755576e-17 0.012628936 0.0090414239 -0.14741376 -0.38593423 -0.23852047
0 0.0089475382 0.0070377877 -0.14741376 -0.38593423 -0.23852047
0 0.0053253756 0.0050664055 -0.14741376 -0.38593423 -0.23852047
0 0.0017609801 0.0031264783 -0.14741376 -0.38593423 -0.23852047
0.0006703547 0 0.002307426 -0.14741376 -0.38593423 -0.23852047
0.0020134049 0 0.0025866393 -0.14741376 -0.38593423 -0.23852047
0.032799084 0.075356178 0.049998906 -0.14741376 -0.38593423 -0.23852047
0.0047089714 0 0.0031470791 -0.14741376 -0.38593423 -0.23852047
0.006061547 0 0.0034283178 -0.14741376 -0.38593423 -0.23852047
0.007417358 5.5511151e-17 0.0037102441 -0.14741376 -0.38593423 -0.23852047
0.0087764347 5.5511151e-17 0.0039928644 -0.14741376 -0.38593423 -0.23852047
0.038100544 0.06849391 0.047366668 -0.14741376 -0.38593423 -0.23852047
0.011504506 5.5511151e-17 0.0045602131 -0.14741376 -0.38593423 -0.23852047
0.039545469 0.064219683 0.045341108 -0.14741376 -0.38593423 -0.23852047
0.014246009 0 0.0051304158 -0.14741376 -0.38593423 -0.23852047
0.015621876 0 0.0054166033 -0.14741376 -0.38593423 -0.23852047
0.017001197 0 0.0057035242 -0.14741376 -0.38593423 -0.23852047
0.018384 5.5511151e-17 0.0059911855 -0.14741376 -0.38593423 -0.23852047
0.019770321 0 0.0062795933 -0.14741376 -0.38593423 -0.23852047
0.021160191 0 0.0065687546 -0.14741376 -0.38593423 -0.23852047
0.022553645 0 0.0068586762 -0.14741376 -0.38593423 -0.23852047
0.023950713 5.5511151e-17 0.0071493657 -0.14741376 -0.38593423 -0.23852047
0.025351429 0 0.0074408296 -0.14741376 -0.38593423 -0.23852047
0.02675583 0 0.0077330749 -0.14741376 -0.38593423 -0.23852047
0.028163945 0 0.0080261091 -0.14741376 -0.38593423 -0.23852047
0.029575812 0 0.0083199386 -0.14741376 -0.38593423 -0.23852047
0.030991465 0 0.0086145708 -0.14741376 -0.38593423 -0.23852047
0.032410935 0 0.0089100143 -0.14741376 -0.38593423 -0.23852047
0.033834264 0 0.0092062755 -0.14741376 -0.38593423 -0.23852047
0.035261478 0 0.0095033608 -0.14741376 -0.38593423 -0.23852047
0.036692623 5.5511151e-17 0.0098012798 -0.14741376 -0.38593423 -0.23852047
0.038127728 0 0.010100039 -0.14741376 -0.38593423 -0.23852047
0.039999999 0.00089407386 0.010976306 -0.14741376 -0.38593423 -0.23852047
2.7755576e-17 0.071218044 0.039249748 -0.14741376 -0.38593423 -0.23852047
0 0.066530205 0.036713634 -0.14741376 -0.38593423 -0.23852047
0 0.06192822 0.03422397 -0.14741376 -0.38593423 -0.23852047
0 0.057409696 0.031779468 -0.14741376 -0.38593423 -0.23852047
0 0.05297232 0.029378871 -0.14741376 -0.38593423 -0.23852047
0 0.048613869 0.027020976 -0.14741376 -0.38593423 -0.23852047
2.7755576e-17 0.044332195 0.024704622 -0.14741376 -0.38593423 -0.23852047
0 0.040125232 0.022428691 -0.14741376 -0.38593423 -0.23852047
0 0.035990983 0.020192105 -0.14741376 -0.38593423 -0.23852047
2.7755576e-17 0.031927526 0.017993821 -0.14741376 -0.38593423 -0.23852047
0 0.027933002 0.015832834 -0.14741376 -0.38593423 -0.23852047
0 0.024005616 0.013708173 -0.14741376 -0.38593423 -0.23852047
2.7755576e-17 0.020143641 0.011618905 -0.14741376 -0.38593423 -0.23852047
0 0.016345404 0.0095641213 -0.14741376 -0.38593423 -0.23852047
2.7755576e-17 0.012609287 0.0075429501 -0.14741376 -0.38593423 -0.23852047
0 0.0089337304 0.0055545452 -0.14741376 -0.38593423 -0.23852047
0 0.0053172233 0.0035980905 -0.14741376 -0.38593423 -0.23852047
2.7755576e-17 0.0017583058 0.0016727953 -0.14741376 -0.38593423 -0.23852047
0.00066934014 5.5511151e-17 0.0008599023 -0.14741376 -0.38593423 -0.23852047
0.031553119 0.07630337 0.048519883 -0.14741376 -0.38593423 -0.23852047
0.0033545038 0 0.0014147649 -0.14741376 -0.38593423 -0.23852047
0.033975229 0.074269913 0.04792035 -0.14741376 -0.38593423 -0.23852047
0.0060523297 0 0.0019722639 -0.14741376 -0.38593423 -0.23852047
0.0074060652 0 0.0022520174 -0.14741376 -0.38593423 -0.23852047
0.0087630562 0 0.0025324486 -0.14741376 -0.38593423 -0.23852047
0.010123333 0 0.0028135641 -0.14741376 -0.38593423 -0.23852047
0.011486927 0 0.0030953698 -0.14741376 -0.38593423 -0.23852047
0.012853867 0 0.0033778723 -0.14741376 -0.38593423 -0.23852047
0.014224187 0 0.0036610782 -0.14741376 -0.38593423 -0.23852047
0.015597917 0 0.0039449935 -0.14741376 -0.38593423 -0.23852047
0.016975088 0 0.0042296257 -0.14741376 -0.38593423 -0.23852047
0.018355733 5.5511151e-17 0.0045149806 -0.14741376 -0.38593423 -0.23852047
0.019739883 0 0.0048010652 -0.14741376 -0.38593423 -0.23852047
0.021127572 0 0.005087886 -0.14741376 -0.38593423 -0.23852047
0.022518832 0 0.00537545 -0.14741376 -0.38593423 -0.23852047
0.023913696 0 0.0056637637 -0.14741376 -0.38593423 -0.23852047
0.025312198 0 0.0059528346 -0.14741376 -0.38593423 -0.23852047
0.039999999 0.029446011 0.024917608 -0.14741376 -0.38593423 -0.23852047
0.028120246 0 0.0065332744 -0.14741376 -0.38593423 -0.23852047
0.02952986 0 0.0068246578 -0.14741376 -0.38593423 -0.23852047
0.030943248 0 0.0071168263 -0.14741376 -0.38593423 -0.23852047
0.032360442 0 0.0074097868 -0.14741376 -0.38593423 -0.23852047
0.039999999 0.013245044 0.016153816 -0.14741376 -0.38593423 -0.23852047
0.035206396 0 0.0079981126 -0.14741376 -0.38593423 -0.23852047
0.039999999 0.0070556304 0.012805735 -0.14741376 -0.38593423 -0.23852047
0.038068004 5.5511151e-17 0.0085896961 -0.14741376 -0.38593423 -0.23852047
0.039504766 0 0.0088867266 -0.14741376 -0.38593423 -0.23852047
2.7755576e-17 0.071093053 0.037506454 -0.14741376 -0.38593423 -0.23852047
0 0.06641452 0.034990836 -0.14741376 -0.38593423 -0.23852047
0 0.061821524 0.032521207 -0.14741376 -0.38593423 -0.23852047
0 0.05731168 0.030096285 -0.14741376 -0.38593423 -0.23852047
0 0.05288269 0.027714834 -0.14741376 -0.38593423 -0.23852047
0 0.048532344 0.025375661 -0.14741376 -0.38593423 -0.23852047
2.7755576e-17 0.044258505 0.02307762 -0.14741376 -0.38593423 -0.23852047
2.7755576e-17 0.040059116 0.020819604 -0.14741376 -0.38593423 -0.23852047
0 0.035932191 0.01860055 -0.14741376 -0.38593423 -0.23852047
0 0.031875815 0.016419424 -0.14741376 -0.38593423 -0.23852047
0 0.027888143 0.014275235 -0.14741376 -0.38593423 -0.23852047
0 0.023967389 0.012167023 -0.14741376 -0.38593423 -0.23852047
0 0.020111831 0.010093861 -0.14741376 -0.38593423 -0.23852047
0 0.016319804 0.0080548553 -0.14741376 -0.38593423 -0.23852047
0 0.0125897 0.0060491418 -0.14741376 -0.38593423 -0.23852047
0 0.0089199645 0.0040758839 -0.14741376 -0.38593423 -0.23852047
0 0.0053090956 0.0021342742 -0.14741376 -0.38593423 -0.23852047
0 0.0017556396 0.00022353088 -0.14741376 -0.38593423 -0.23852047
0.030263517 0.077131517 0.046970099 -0.14741376 -0.38593423 -0.23852047
0.0022006519 0.00049936969 2.7755576e-17 -0.14741376 -0.38593423 -0.23852047
0.0033700208 5.2728916e-05 0 -0.14741376 -0.38593423 -0.23852047
0.0046946886 0 0.0002437042 -0.14741376 -0.38593423 -0.23852047
0.035098631 0.073072687 0.045780625 -0.14741376 -0.38593423 -0.23852047
0.0073948069 5.5511151e-17 0.00079823413 -0.14741376 -0.38593423 -0.23852047
0.0087497188 0 0.0010764883 -0.14741376 -0.38593423 -0.23852047
0.010107907 0 0.0013554102 -0.14741376 -0.38593423 -0.23852047
0.011469401 0 0.0016350062 -0.14741376 -0.38593423 -0.23852047
0.012834232 0 0.0019152825 -0.14741376 -0.38593423 -0.23852047
0.014202432 0 0.0021962454 -0.14741376 -0.38593423 -0.23852047
0.039999999 0.057837564 0.038594831 -0.14741376 -0.38593423 -0.23852047
0.016949059 0 0.0027602569 -0.14741376 -0.38593423 -0.23852047
0.018327553 5.5511151e-17 0.0030433184 -0.14741376 -0.38593423 -0.23852047
0.019709541 0 0.0033270926 -0.14741376 -0.38593423 -0.23852047
0.021095054 0 0.0036115858 -0.14741376 -0.38593423 -0.23852047
0.022484129 0 0.0038968052 -0.14741376 -0.38593423 -0.23852047
0.023876796 0 0.0041827569 -0.14741376 -0.38593423 -0.23852047
0.025273087 5.5511151e-17 0.0044694482 -0.14741376 -0.38593423 -0.23852047
0.026673038 0 0.0047568856 -0.14741376 -0.38593423 -0.23852047
0.028076682 0 0.0050450764 -0.14741376 -0.38593423 -0.23852047
0.029484052 0 0.0053340266 -0.14741376 -0.38593423 -0.23852047
0.039999999 0.016513066 0.016372927 -0.14741376 -0.38593423 -0.23852047
0.033728864 0 0.006205509 -0.14741376 -0.38593423 -0.23852047
0.035151485 0 0.0064975708 -0.14741376 -0.38593423 -0.23852047
0.036578007 0 0.0067904275 -0.14741376 -0.38593423 -0.23852047
0.038008463 0 0.0070840875 -0.14741376 -0.38593423 -0.23852047
0.039442893 0 0.0073785577 -0.14741376 -0.38593423 -0.23852047
0 0.075725459 0.03831134 -0.14741376 -0.38593423 -0.23852047
2.7755576e-17 0.070968501 0.035769254 -0.14741376 -0.38593423 -0.23852047
2.7755576e-17 0.066299237 0.03327401 -0.14741376 -0.38593423 -0.23852047
0 0.061715193 0.030824291 -0.14741376 -0.38593423 -0.23852047
2.7755576e-17 0.057213996 0.02841883 -0.14741376 -0.38593423 -0.23852047
0 0.052793361 0.026056407 -0.14741376 -0.38593423 -0.23852047
0 0.048451092 0.023735844 -0.14741376 -0.38593423 -0.23852047
0 0.044185057 0.021456007 -0.14741376 -0.38593423 -0.23852047
0 0.039993215 0.019215802 -0.14741376 -0.38593423 -0.23852047
0 0.035873588 0.017014176 -0.14741376 -0.38593423 -0.23852047
2.7755576e-17 0.031824272 0.014850109 -0.14741376 -0.38593423 -0.23852047
0 0.027843429 0.012722621 -0.14741376 -0.38593423 -0.23852047
0 0.023929283 0.010630761 -0.14741376 -0.38593423 -0.23852047
0 0.020080119 0.0085736159 -0.14741376 -0.38593423 -0.23852047
2.7755576e-17 0.016294284 0.0065502999 -0.14741376 -0.38593423 -0.23852047
2.7755576e-17 0.012570173 0.0045599574 -0.14741376 -0.38593423 -0.23852047
0 0.0089062415 0.0026017625 -0.14741376 -0.38593423 -0.23852047
0 0.0053009931 0.00067491608 -0.14741376 -0.38593423 -0.23852047
0.00075872394 0.0037483687 0 -0.14741376 -0.38593423 -0.23852047
0.0019333932 0.003299685 0 -0.14741376 -0.38593423 -0.23852047
0.0031080798 0.0028510224 2.7755576e-17 -0.14741376 -0.38593423 -0.23852047
0.0042828005 0.002402375 2.7755576e-17 -0.14741376 -0.38593423 -0.23852047
0.0054575708 0.0019537362 0 -0.14741376 -0.38593423 -0.23852047
0.0066324072 0.0015051001 0 -0.14741376 -0.38593423 -0.23852047
0.007807326 0.0010564602 0 -0.14741376 -0.38593423 -0.23852047
0.0089823445 0.00060781051 0 -0.14741376 -0.38593423 -0.23852047
0.010157477 0.00015914474 0 -0.14741376 -0.38593423 -0.23852047
0.011451929 5.5511151e-17 0.00017908195 -0.14741376 -0.38593423 -0.23852047
0.012814657 0 0.00045714414 -0.14741376 -0.38593423 -0.23852047
0.014180743 0 0.0007358765 -0.14741376 -0.38593423 -0.23852047
0.015550218 5.5511151e-17 0.0010152854 -0.14741376 -0.38593423 -0.23852047
0.016923113 5.5511151e-17 0.001295377 -0.14741376 -0.38593423 -0.23852047
0.018299459 0 0.001576158 -0.14741376 -0.38593423 -0.23852047
0.019679289 5.5511151e-17 0.0018576346 -0.14741376 -0.38593423 -0.23852047
0.021062635 5.5511151e-17 0.0021398135 -0.14741376 -0.38593423 -0.23852047
0.022449531 0 0.0024227009 -0.14741376 -0.38593423 -0.23852047
0.023840006 5.5511151e-17 0.002706304 -0.14741376 -0.38593423 -0.23852047
0.025234096 5.5511151e-17 0.0029906288 -0.14741376 -0.38593423 -0.23852047
0.026631834 0 0.0032756825 -0.14741376 -0.38593423 -0.23852047
0.028033251 0 0.0035614716 -0.14741376 -0.38593423 -0.23852047
0.029438384 0 0.0038480032 -0.14741376 -0.38593423 -0.23852047
0.030847264 5.5511151e-17 0.0041352841 -0.14741376 -0.38593423 -0.23852047
0.039999999 0.01662546 0.01488897 -0.14741376 -0.38593423 -0.23852047
0.033676412 0 0.0047121211 -0.14741376 -0.38593423 -0.23852047
0.036520965 0 0.0052920389 -0.14741376 -0.38593423 -0.23852047
0.037949111 0 0.0055831713 -0.14741376 -0.38593423 -0.23852047
0.039381217 0 0.0058750953 -0.14741376 -0.38593423 -0.23852047
0 0.07559178 0.036559463 -0.14741376 -0.38593423 -0.23852047
0 0.070844389 0.034038097 -0.14741376 -0.38593423 -0.23852047
2.7755576e-17 0.066184349 0.031563096 -0.14741376 -0.38593423 -0.23852047
2.7755576e-17 0.061609223 0.029133165 -0.14741376 -0.38593423 -0.23852047
2.7755576e-17 0.057116643 0.02674705 -0.14741376 -0.38593423 -0.23852047
0 0.052704334 0.024403539 -0.14741376 -0.38593423 -0.23852047
2.7755576e-17 0.048370108 0.022101475 -0.14741376 -0.38593423 -0.23852047
2.7755576e-17 0.044111852 0.019839732 -0.14741376 -0.38593423 -0.23852047
0 0.039927527 0.017617233 -0.14741376 -0.38593423 -0.23852047
2.7755576e-17 0.035815176 0.015432934 -0.14741376 -0.38593423 -0.23852047
0 0.031772893 0.013285829 -0.14741376 -0.38593423 -0.23852047
0 0.027798856 0.011174945 -0.14741376 -0.38593423 -0.23852047
2.7755576e-17 0.023891296 0.0090993466 -0.14741376 -0.38593423 -0.23852047
2.7755576e-17 0.020048508 0.0070581269 -0.14741376 -0.38593423 -0.23852047
2.7755576e-17 0.016268842 0.0050504114 -0.14741376 -0.38593423 -0.23852047
0 0.012550706 0.003075355 -0.14741376 -0.38593423 -0.23852047
0 0.0088925604 0.0011321398 -0.14741376 -0.38593423 -0.23852047
0.0004836632 0.0065765278 2.7755576e-17 -0.14741376 -0.38593423 -0.23852047
0.0016637128 0.0061257421 0 -0.14741376 -0.38593423 -0.23852047
0.00284377 0.0056750001 0 -0.14741376 -0.38593423 -0.23852047
0.0040238509 0.0052242964 2.7755576e-17 -0.14741376 -0.38593423 -0.23852047
0.0052039721 0.0047736238 0 -0.14741376 -0.38593423 -0.23852047
0.0063841497 0.0043229768 0 -0.14741376 -0.38593423 -0.23852047
0.0075644013 0.0038723482 0 -0.14741376 -0.38593423 -0.23852047
0.0087447418 0.0034217325 0 -0.14741376 -0.38593423 -0.23852047
0.0099251885 0.0029711232 0 -0.14741376 -0.38593423 -0.23852047
0.011105758 0.0025205137 0 -0.14741376 -0.38593423 -0.23852047
0.012286467 0.0020698982 0 -0.14741376 -0.38593423 -0.23852047
0.013467331 0.0016192703 0 -0.14741376 -0.38593423 -0.23852047
0.014648369 0.0011686235 2.7755576e-17 -0.14741376 -0.38593423 -0.23852047
0.015829593 0.00071795157 2.7755576e-17 -0.14741376 -0.38593423 -0.23852047
0.017011024 0.00026724831 2.7755576e-17 -0.14741376 -0.38593423 -0.23852047
0.01827145 0 0.00011345862 -0.14741376 -0.38593423 -0.23852047
0.019649131 0 0.00039265037 -0.14741376 -0.38593423 -0.23852047
0.021030316 0 0.00067252741 -0.14741376 -0.38593423 -0.23852047
0.022415038 5.5511151e-17 0.0009530962 -0.14741376 -0.38593423 -0.23852047
0.023803331 0 0.0012343632 -0.14741376 -0.38593423 -0.23852047
0.025195226 0 0.0015163349 -0.14741376 -0.38593423 -0.23852047
0.026590755 0 0.0017990181 -0.14741376 -0.38593423 -0.23852047
0.027989956 0 0.0020824193 -0.14741376 -0.38593423 -0.23852047
0.029392857 5.5511151e-17 0.0023665454 -0.14741376 -0.38593423 -0.23852047
0.039999999 0.019924384 0.015102231 -0.14741376 -0.38593423 -0.23852047
0.032209903 0 0.0029369988 -0.14741376 -0.38593423 -0.23852047
0.03362412 0 0.0032233398 -0.14741376 -0.38593423 -0.23852047
0.039999999 0.010486885 0.010087073 -0.14741376 -0.38593423 -0.23852047
0.036464103 0 0.0037982855 -0.14741376 -0.38593423 -0.23852047
0.037889943 0 0.0040869042 -0.14741376 -0.38593423 -0.23852047
0.039999999 0.0014059576 0.0052611688 -0.14741376 -0.38593423 -0.23852047
2.7755576e-17 0.075458571 0.034813698 -0.14741376 -0.38593423 -0.23852047
2.7755576e-17 0.070720702 0.032312922 -0.14741376 -0.38593423 -0.23852047
0 0.066069864 0.029858045 -0.14741376 -0.38593423 -0.23852047
2.7755576e-17 0.061503615 0.027447781 -0.14741376 -0.38593423 -0.23852047
0 0.057019617 0.025080889 -0.14741376 -0.38593423 -0.23852047
0 0.052615602 0.022756182 -0.14741376 -0.38593423 -0.23852047
2.7755576e-17 0.048289392 0.020472504 -0.14741376 -0.38593423 -0.23852047
0 0.044038884 0.018228751 -0.14741376 -0.38593423 -0.23852047
0 0.039862055 0.016023854 -0.14741376 -0.38593423 -0.23852047
0 0.035756949 0.013856781 -0.14741376 -0.38593423 -0.23852047
2.7755576e-17 0.031721678 0.011726538 -0.14741376 -0.38593423 -0.23852047
2.7755576e-17 0.027754426 0.0096321637 -0.14741376 -0.38593423 -0.23852047
0 0.023853431 0.0075727333 -0.14741376 -0.38593423 -0.23852047
0 0.020016994 0.0055473498 -0.14741376 -0.38593423 -0.23852047
0 0.01624348 0.0035551484 -0.14741376 -0.38593423 -0.23852047
0 0.012531299 0.0015952929 -0.14741376 -0.38593423 -0.23852047
0.00020610844 0.0094309328 0 -0.14741376 -0.38593423 -0.23852047
0.0013915922 0.0089779859 0 -0.14741376 -0.38593423 -0.23852047
0.0025770732 0.0085251061 0 -0.14741376 -0.38593423 -0.23852047
0.0037625676 0.0080722878 0 -0.14741376 -0.38593423 -0.23852047
0.0049480926 0.0076195239 2.7755576e-17 -0.14741376 -0.38593423 -0.23852047
0.0061336649 0.007166808 2.7755576e-17 -0.14741376 -0.38593423 -0.23852047
0.0073193004 0.006714134 0 -0.14741376 -0.38593423 -0.23852047
0.0085050166 0.0062614954 0 -0.14741376 -0.38593423 -0.23852047
0.0096908296 0.0058088866 2.7755576e-17 -0.14741376 -0.38593423 -0.23852047
0.010876756 0.0053563002 2.7755576e-17 -0.14741376 -0.38593423 -0.23852047
0.012062814 0.0049037305 0 -0.14741376 -0.38593423 -0.23852047
0.039999999 0.069451869 0.03971459 -0.14741376 -0.38593423 -0.23852047
0.014435385 0.0039986148 0 -0.14741376 -0.38593423 -0.23852047
0.015621933 0.0035460566 0 -0.14741376 -0.38593423 -0.23852047
0.039999999 0.058031574 0.033683609 -0.14741376 -0.38593423 -0.23852047
0.017995637 0.0026409067 0 -0.14741376 -0.38593423 -0.23852047
0.019182827 0.0021883023 2.7755576e-17 -0.14741376 -0.38593423 -0.23852047
0.020370264 0.0017356703 0 -0.14741376 -0.38593423 -0.23852047
0.021557964 0.0012830037 0 -0.14741376 -0.38593423 -0.23852047
0.022745946 0.00083029637 0 -0.14741376 -0.38593423 -0.23852047
0.023934225 0.00037754202 0 -0.14741376 -0.38593423 -0.23852047
0.025156472 5.5511151e-17 4.6525915e-05 -0.14741376 -0.38593423 -0.23852047
0.026549803 0 0.00032685173 -0.14741376 -0.38593423 -0.23852047
0.027946791 0 0.00060787826 -0.14741376 -0.38593423 -0.23852047
0.029347468 5.5511151e-17 0.00088961213 -0.14741376 -0.38593423 -0.23852047
0.030751873 0 0.0011720599 -0.14741376 -0.38593423 -0.23852047
0.032160033 5.5511151e-17 0.0014552283 -0.14741376 -0.38593423 -0.23852047
0.033571988 5.5511151e-17 0.0017391242 -0.14741376 -0.38593423 -0.23852047
0.03498777 0 0.0020237544 -0.14741376 -0.38593423 -0.23852047
0.036407415 0 0.0023091256 -0.14741376 -0.38593423 -0.23852047
0.039999999 0.0045189285 0.0054184841 -0.14741376 -0.38593423 -0.23852047
0.039999999 0.0015331475 0.0038411058 -0.14741376 -0.38593423 -0.23852047
2.7755576e-17 0.075325817 0.033073992 -0.14741376 -0.38593423 -0.23852047
0 0.070597433 0.03059368 -0.14741376 -0.38593423 -0.23852047
2.7755576e-17 0.065955758 0.028158801 -0.14741376 -0.38593423 -0.23852047
2.7755576e-17 0.061398365 0.025768083 -0.14741376 -0.38593423 -0.23852047
2.7755576e-17 0.056922916 0.023420302 -0.14741376 -0.38593423 -0.23852047
0 0.052527163 0.021114282 -0.14741376 -0.38593423 -0.23852047
2.7755576e-17 0.048208941 0.018848883 -0.14741376 -0.38593423 -0.23852047
0 0.043966155 0.016623013 -0.14741376 -0.38593423 -0.23852047
0 0.039796796 0.014435614 -0.14741376 -0.38593423 -0.23852047
0 0.035698909 0.012285668 -0.14741376 -0.38593423 -0.23852047
2.7755576e-17 0.031670626 0.010172191 -0.14741376 -0.38593423 -0.23852047
2.7755576e-17 0.027710134 0.0080942335 -0.14741376 -0.38593423 -0.23852047
0 0.02381568 0.0060508791 -0.14741376 -0.38593423 -0.23852047
0 0.019985579 0.0040412429 -0.14741376 -0.38593423 -0.23852047
0 0.016218195 0.0020644688 -0.14741376 -0.38593423 -0.23852047
0 0.01251195 0.00011973047 -0.14741376 -0.38593423 -0.23852047
0.0011170122 0.011856874 0 -0.14741376 -0.38593423 -0.23852047
0.027589003 0.078493349 0.040275004 -0.14741376 -0.38593423 -0.23852047
0.0034989342 0.010946802 0 -0.14741376 -0.38593423 -0.23852047
0.004689917 0.010491887 0 -0.14741376 -0.38593423 -0.23852047
0.031588532 0.076441616 0.039999999 -0.14741376 -0.38593423 -0.23852047
0.0070720105 0.0095822662 0 -0.14741376 -0.38593423 -0.23852047
0.0082631549 0.009127547 0 -0.14741376 -0.38593423 -0.23852047
0.0094543872 0.0086728809 0 -0.14741376 -0.38593423 -0.23852047
0.037152376 0.074317828 0.039999999 -0.14741376 -0.38593423 -0.23852047
0.011837182 0.0077636796 0 -0.14741376 -0.38593423 -0.23852047
0.039935071 0.073256232 0.039999999 -0.14741376 -0.38593423 -0.23852047
0.014220529 0.0068546119 0 -0.14741376 -0.38593423 -0.23852047
0.039999999 0.065644495 0.036017746 -0.14741376 -0.38593423 -0.23852047
0.039999999 0.061843034 0.034022357 -0.14741376 -0.38593423 -0.23852047
0.039999999 0.058095891 0.03205543 -0.14741376 -0.38593423 -0.23852047
0.018989421 0.0050366689 0 -0.14741376 -0.38593423 -0.23852047
0.039999999 0.050759763 0.028204443 -0.14741376 -0.38593423 -0.23852047
0.021375235 0.0041276915 0 -0.14741376 -0.38593423 -0.23852047
0.039999999 0.043626886 0.024459949 -0.14741376 -0.38593423 -0.23852047
0.023762144 0.0032186415 2.7755576e-17 -0.14741376 -0.38593423 -0.23852047
0.024956051 0.0027640732 0 -0.14741376 -0.38593423 -0.23852047
0.026150282 0.0023094674 0 -0.14741376 -0.38593423 -0.23852047
0.039999999 0.029936559 0.017272457 -0.14741376 -0.38593423 -0.23852047
0.028539786 0.0014001175 2.7755576e-17 -0.14741376 -0.38593423 -0.23852047
0.029735092 0.00094536075 0 -0.14741376 -0.38593423 -0.23852047
0.030930789 0.00049054064 0 -0.14741376 -0.38593423 -0.23852047
0.032126896 3.5650821e-05 0 -0.14741376 -0.38593423 -0.23852047
0.033520017 5.5511151e-17 0.00025943291 -0.14741376 -0.38593423 -0.23852047
0.034933534 0 0.00054161361 -0.14741376 -0.38593423 -0.23852047
0.039999999 0.0076636742 0.0055773016 -0.14741376 -0.38593423 -0.23852047
0.037772153 0 0.0011081515 -0.14741376 -0.38593423 -0.23852047
0.039197322 0 0.0013925222 -0.14741376 -0.38593423 -0.23852047
2.7755576e-17 0.075193524 0.03134029 -0.14741376 -0.38593423 -0.23852047
0 0.070474595 0.028880317 -0.14741376 -0.38593423 -0.23852047
0 0.065842047 0.026465312 -0.14741376 -0.38593423 -0.23852047
0 0.061293468 0.024094021 -0.14741376 -0.38593423 -0.23852047
0 0.056826536 0.021765238 -0.14741376 -0.38593423 -0.23852047
2.7755576e-17 0.052439019 0.019477792 -0.14741376 -0.38593423 -0.23852047
2.7755576e-17 0.048128754 0.017230565 -0.14741376 -0.38593423 -0.23852047
0 0.043893661 0.015022472 -0.14741376 -0.38593423 -0.23852047
2.7755576e-17 0.039731741 0.012852469 -0.14741376 -0.38593423 -0.23852047
0 0.035641056 0.010719551 -0.14741376 -0.38593423 -0.23852047
2.7755576e-17 0.031619735 0.0086227432 -0.14741376 -0.38593423 -0.23852047
0 0.02766598 0.0065611089 -0.14741376 -0.38593423 -0.23852047
0 0.023778049 0.0045337407 -0.14741376 -0.38593423 -0.23852047
0 0.019954259 0.0025397635 -0.14741376 -0.38593423 -0.23852047
0 0.016192986 0.00057833135 -0.14741376 -0.38593423 -0.23852047
0.024977006 0.079999998 0.038833302 -0.14741376 -0.38593423 -0.23852047
0.026566872 0.079999998 0.039150219 -0.14741376 -0.38593423 -0.23852047
0.0032329324 0.013848303 0 -0.14741376 -0.38593423 -0.23852047
0.029757384 0.079999998 0.039786018 -0.14741376 -0.38593423 -0.23852047
0.0056259506 0.012934145 0 -0.14741376 -0.38593423 -0.23852047
0.0068225167 0.012477203 0 -0.14741376 -0.38593423 -0.23852047
0.0080191437 0.012020345 0 -0.14741376 -0.38593423 -0.23852047
0.0092158495 0.011563562 0 -0.14741376 -0.38593423 -0.23852047
0.010412649 0.011106849 2.7755576e-17 -0.14741376 -0.38593423 -0.23852047
0.011609562 0.0106502 0 -0.14741376 -0.38593423 -0.23852047
0.012806603 0.010193607 0 -0.14741376 -0.38593423 -0.23852047
0.01400379 0.0097370641 2.7755576e-17 -0.14741376 -0.38593423 -0.23852047
0.01520114 0.0092805652 0 -0.14741376 -0.38593423 -0.23852047
0.01639867 0.0088241044 0 -0.14741376 -0.38593423 -0.23852047
0.039999999 0.061902449 0.032384172 -0.14741376 -0.38593423 -0.23852047
0.018794341 0.0079112668 0 -0.14741376 -0.38593423 -0.23852047
0.019992515 0.0074548787 0 -0.14741376 -0.38593423 -0.23852047
0.021190938 0.0069985017 2.7755576e-17 -0.14741376 -0.38593423 -0.23852047
0.022389626 0.0065421294 0 -0.14741376 -0.38593423 -0.23852047
0.023588598 0.0060857558 0 -0.14741376 -0.38593423 -0.23852047
0.024787869 0.0056293737 2.7755576e-17 -0.14741376 -0.38593423 -0.23852047
0.025987457 0.0051729768 0 -0.14741376 -0.38593423 -0.23852047
0.027187381 0.0047165593 2.7755576e-17 -0.14741376 -0.38593423 -0.23852047
0.028387655 0.0042601135 0 -0.14741376 -0.38593423 -0.23852047
0.039999999 0.02672898 0.014030365 -0.14741376 -0.38593423 -0.23852047
0.030789329 0.0033471137 0 -0.14741376 -0.38593423 -0.23852047
0.031990763 0.0028905463 2.7755576e-17 -0.14741376 -0.38593423 -0.23852047
0.033192616 0.0024339249 0 -0.14741376 -0.38593423 -0.23852047
0.034394909 0.0019772437 0 -0.14741376 -0.38593423 -0.23852047
0.035597656 0.0015204954 0 -0.14741376 -0.38593423 -0.23852047
0.036800876 0.0010636738 2.7755576e-17 -0.14741376 -0.38593423 -0.23852047
0.038004585 0.00060677237 0 -0.14741376 -0.38593423 -0.23852047
0.039208803 0.00014978455 2.7755576e-17 -0.14741376 -0.38593423 -0.23852047
2.7755576e-17 0.079859756 0.0320981 -0.14741376 -0.38593423 -0.23852047
0 0.075061686 0.029612537 -0.14741376 -0.38593423 -0.23852047
2.7755576e-17 0.070352167 0.027172776 -0.14741376 -0.38593423 -0.23852047
2.7755576e-17 0.065728717 0.024777524 -0.14741376 -0.38593423 -0.23852047
2.7755576e-17 0.061188918 0.022425545 -0.14741376 -0.38593423 -0.23852047
0 0.056730475 0.020115642 -0.14741376 -0.38593423 -0.23852047
2.7755576e-17 0.052351162 0.017846663 -0.14741376 -0.38593423 -0.23852047
2.7755576e-17 0.048048824 0.015617498 -0.14741376 -0.38593423 -0.23852047
2.7755576e-17 0.043821402 0.01342708 -0.14741376 -0.38593423 -0.23852047
0 0.039666899 0.011274373 -0.14741376 -0.38593423 -0.23852047
0 0.035583384 0.0091583841 -0.14741376 -0.38593423 -0.23852047
0 0.031569004 0.0070781517 -0.14741376 -0.38593423 -0.23852047
0 0.027621964 0.0050327471 -0.14741376 -0.38593423 -0.23852047
2.7755576e-17 0.023740532 0.0030212752 -0.14741376 -0.38593423 -0.23852047
0 0.019923035 0.0010428699 -0.14741376 -0.38593423 -0.23852047
0.00056039554 0.017696451 2.7755576e-17 -0.14741376 -0.38593423 -0.23852047
0.001762479 0.017236792 0 -0.14741376 -0.38593423 -0.23852047
0.026572831 0.079999998 0.037445955 -0.14741376 -0.38593423 -0.23852047
0.028163904 0.079999998 0.037761129 -0.14741376 -0.38593423 -0.23852047
0.0053686895 0.015858581 2.7755576e-17 -0.14741376 -0.38593423 -0.23852047
0.0065708039 0.015399415 2.7755576e-17 -0.14741376 -0.38593423 -0.23852047
0.0077729686 0.014940355 0 -0.14741376 -0.38593423 -0.23852047
0.0089752022 0.014481396 0 -0.14741376 -0.38593423 -0.23852047
0.01017752 0.014022531 0 -0.14741376 -0.38593423 -0.23852047
0.01137994 0.013563753 2.7755576e-17 -0.14741376 -0.38593423 -0.23852047
0.012582481 0.013105056 2.7755576e-17 -0.14741376 -0.38593423 -0.23852047
0.013785159 0.012646433 0 -0.14741376 -0.38593423 -0.23852047
0.01498799 0.012187878 0 -0.14741376 -0.38593423 -0.23852047
0.016190993 0.011729384 0 -0.14741376 -0.38593423 -0.23852047
0.017394185 0.011270944 0 -0.14741376 -0.38593423 -0.23852047
0.018597584 0.010812553 0 -0.14741376 -0.38593423 -0.23852047
0.019801205 0.010354202 2.7755576e-17 -0.14741376 -0.38593423 -0.23852047
0.021005066 0.0098958863 0 -0.14741376 -0.38593423 -0.23852047
0.022209186 0.0094375992 0 -0.14741376 -0.38593423 -0.23852047
0.023413582 0.0089793345 0 -0.14741376 -0.38593423 -0.23852047
0.025823267 0.0080628423 0 -0.14741376 -0.38593423 -0.23852047
0.027028592 0.0076046032 0 -0.14741376 -0.38593423 -0.23852047
0.028234262 0.007146359 0 -0.14741376 -0.38593423 -0.23852047
0.029440295 0.006688104 0 -0.14741376 -0.38593423 -0.23852047
0.030646706 0.0062298309 0 -0.14741376 -0.38593423 -0.23852047
0.031853516 0.0057715341 2.7755576e-17 -0.14741376 -0.38593423 -0.23852047
0.033060741 0.005313206 0 -0.14741376 -0.38593423 -0.23852047
0.034268394 0.0048548407 0 -0.14741376 -0.38593423 -0.23852047
0.039999999 0.014050638 0.0058994237 -0.14741376 -0.38593423 -0.23852047
0.039999999 0.010958103 0.004294856 -0.14741376 -0.38593423 -0.23852047
0.03789413 0.0034794544 0 -0.14741376 -0.38593423 -0.23852047
0.039103687 0.0030208735 0 -0.14741376 -0.38593423 -0.23852047
0 0.079718664 0.030355683 -0.14741376 -0.38593423 -0.23852047
2.7755576e-17 0.074930303 0.027890678 -0.14741376 -0.38593423 -0.23852047
2.7755576e-17 0.070230164 0.025471006 -0.14741376 -0.38593423 -0.23852047
2.7755576e-17 0.065615758 0.023095388 -0.14741376 -0.38593423 -0.23852047
0 0.061084718 0.020762602 -0.14741376 -0.38593423 -0.23852047
2.7755576e-17 0.056634732 0.018471468 -0.14741376 -0.38593423 -0.23852047
0 0.052263588 0.016220845 -0.14741376 -0.38593423 -0.23852047
0 0.047969155 0.014009639 -0.14741376 -0.38593423 -0.23852047
0 0.043749373 0.01183679 -0.14741376 -0.38593423 -0.23852047
2.7755576e-17 0.039602257 0.0097012799 -0.14741376 -0.38593423 -0.23852047
2.7755576e-17 0.035525892 0.0076021235 -0.14741376 -0.38593423 -0.23852047
0 0.03151843 0.0055383714 -0.14741376 -0.38593423 -0.23852047
2.7755576e-17 0.027578084 0.0035091056 -0.14741376 -0.38593423 -0.23852047
0 0.023703132 0.0015134406 -0.14741376 -0.38593423 -0.23852047
0.00027831789 0.020658107 0 -0.14741376 -0.38593423 -0.23852047
0.0014860494 0.02019606 0 -0.14741376 -0.38593423 -0.23852047
0.024993625 0.079999998 0.035434444 -0.14741376 -0.38593423 -0.23852047
0.0039014416 0.01927243 0 -0.14741376 -0.38593423 -0.23852047
0.0051091374 0.018810837 0 -0.14741376 -0.38593423 -0.23852047
0.029759774 0.079999998 0.036372818 -0.14741376 -0.38593423 -0.23852047
0.0087324325 0.017426861 0 -0.14741376 -0.38593423 -0.23852047
0.0099403244 0.016965782 2.7755576e-17 -0.14741376 -0.38593423 -0.23852047
0.036165584 0.079999998 0.037632782 -0.14741376 -0.38593423 -0.23852047
0.012356404 0.016043952 0 -0.14741376 -0.38593423 -0.23852047
0.013564627 0.015583189 0 -0.14741376 -0.38593423 -0.23852047
0.014772994 0.015122518 0 -0.14741376 -0.38593423 -0.23852047
0.015981523 0.014661932 0 -0.14741376 -0.38593423 -0.23852047
0.017190235 0.014201425 2.7755576e-17 -0.14741376 -0.38593423 -0.23852047
0.018399142 0.013740989 0 -0.14741376 -0.38593423 -0.23852047
0.019608265 0.01328062 2.7755576e-17 -0.14741376 -0.38593423 -0.23852047
0.020817619 0.012820309 0 -0.14741376 -0.38593423 -0.23852047
0.022027224 0.01236005 2.7755576e-17 -0.14741376 -0.38593423 -0.23852047
0.039999999 0.050978772 0.023429682 -0.14741376 -0.38593423 -0.23852047
0.039999999 0.047400437 0.021585165 -0.14741376 -0.38593423 -0.23852047
0.039999999 0.043871429 0.01976599 -0.14741376 -0.38593423 -0.23852047
0.026868492 0.010519406 0 -0.14741376 -0.38593423 -0.23852047
0.039999999 0.036957175 0.016201505 -0.14741376 -0.38593423 -0.23852047
0.029291082 0.0095992237 0 -0.14741376 -0.38593423 -0.23852047
0.030502928 0.0091391448 2.7755576e-17 -0.14741376 -0.38593423 -0.23852047
0.031715166 0.0086790649 2.7755576e-17 -0.14741376 -0.38593423 -0.23852047
0.032927807 0.0082189776 0 -0.14741376 -0.38593423 -0.23852047
0.035354394 0.0072987541 2.7755576e-17 -0.14741376 -0.38593423 -0.23852047
0.03656837 0.0068386043 2.7755576e-17 -0.14741376 -0.38593423 -0.23852047
0.037782822 0.0063784206 0 -0.14741376 -0.38593423 -0.23852047
0.038997773 0.0059181959 0 -0.14741376 -0.38593423 -0.23852047
0 0.079578042 0.028619235 -0.14741376 -0.38593423 -0.23852047
0 0.074799359 0.026174663 -0.14741376 -0.38593423 -0.23852047
0 0.070108563 0.023774954 -0.14741376 -0.38593423 -0.23852047
0 0.065503187 0.021418851 -0.14741376 -0.38593423 -0.23852047
2.7755576e-17 0.06098086 0.019105144 -0.14741376 -0.38593423 -0.23852047
0 0.056539297 0.016832666 -0.14741376 -0.38593423 -0.23852047
0 0.0521763 0.014600292 -0.14741376 -0.38593423 -0.23852047
2.7755576e-17 0.047889743 0.012406937 -0.14741376 -0.38593423 -0.23852047
0 0.043677572 0.010251557 -0.14741376 -0.38593423 -0.23852047
2.7755576e-17 0.039537825 0.0081331441 -0.14741376 -0.38593423 -0.23852047
0 0.035468582 0.0060507241 -0.14741376 -0.38593423 -0.23852047
0 0.031468015 0.004003359 -0.14741376 -0.38593423 -0.23852047
0 0.02753434 0.0019901411 -0.14741376 -0.38593423 -0.23852047
2.7755576e-17 0.023665844 1.019537e-05 -0.14741376 -0.38593423 -0.23852047
0.0012071372 0.023183834 2.7755576e-17 -0.14741376 -0.38593423 -0.23852047
0.0024205346 0.022719514 2.7755576e-17 -0.14741376 -0.38593423 -0.23852047
0.0036339087 0.022255372 0 -0.14741376 -0.38593423 -0.23852047
0.0048472774 0.0217914 0 -0.14741376 -0.38593423 -0.23852047
0.006060658 0.021327594 0 -0.14741376 -0.38593423 -0.23852047
0.0072740684 0.020863943 0 -0.14741376 -0.38593423 -0.23852047
0.0084875263 0.020400444 0 -0.14741376 -0.38593423 -0.23852047
0.009701049 0.019937089 0 -0.14741376 -0.38593423 -0.23852047
0.010914654 0.019473869 2.7755576e-17 -0.14741376 -0.38593423 -0.23852047
0.01212836 0.01901078 0 -0.14741376 -0.38593423 -0.23852047
0.013342183 0.018547814 2.7755576e-17 -0.14741376 -0.38593423 -0.23852047
0.014556143 0.018084968 2.7755576e-17 -0.14741376 -0.38593423 -0.23852047
0.039999999 0.077542737 0.035415784 -0.14741376 -0.38593423 -0.23852047
0.016984539 0.017159594 0 -0.14741376 -0.38593423 -0.23852047
0.01819901 0.016697055 0 -0.14741376 -0.38593423 -0.23852047
0.039999999 0.065861769 0.029433144 -0.14741376 -0.38593423 -0.23852047
0.039999999 0.05835145 0.02558611 -0.14741376 -0.38593423 -0.23852047
0.023059137 0.014847736 0 -0.14741376 -0.38593423 -0.23852047
0.039999999 0.051051397 0.021846402 -0.14741376 -0.38593423 -0.23852047
0.039999999 0.047477357 0.020015337 -0.14741376 -0.38593423 -0.23852047
0.039999999 0.043952521 0.018209385 -0.14741376 -0.38593423 -0.23852047
0.039999999 0.04047583 0.016428007 -0.14741376 -0.38593423 -0.23852047
0.029140664 0.012537457 2.7755576e-17 -0.14741376 -0.38593423 -0.23852047
0.030357996 0.012075517 0 -0.14741376 -0.38593423 -0.23852047
0.031575713 0.0116136 2.7755576e-17 -0.14741376 -0.38593423 -0.23852047
0.039999999 0.027030433 0.0095379939 -0.14741376 -0.38593423 -0.23852047
0.034012366 0.010689808 0 -0.14741376 -0.38593423 -0.23852047
0.035231341 0.01022792 0 -0.14741376 -0.38593423 -0.23852047
0.036450773 0.0097660273 0 -0.14741376 -0.38593423 -0.23852047
0.037670676 0.0093041249 2.7755576e-17 -0.14741376 -0.38593423 -0.23852047
0.03889107 0.0088422047 0 -0.14741376 -0.38593423 -0.23852047
0 0.079437912 0.026888702 -0.14741376 -0.38593423 -0.23852047
0 0.074668862 0.024464434 -0.14741376 -0.38593423 -0.23852047
0 0.069987364 0.022084568 -0.14741376 -0.38593423 -0.23852047
0 0.065390982 0.019747863 -0.14741376 -0.38593423 -0.23852047
0 0.060877342 0.017453121 -0.14741376 -0.38593423 -0.23852047
0 0.056444176 0.015199188 -0.14741376 -0.38593423 -0.23852047
2.7755576e-17 0.052089293 0.012984954 -0.14741376 -0.38593423 -0.23852047
0 0.047810581 0.010809347 -0.14741376 -0.38593423 -0.23852047
0 0.043606002 0.0086713349 -0.14741376 -0.38593423 -0.23852047
0 0.03947359 0.0065699206 -0.14741376 -0.38593423 -0.23852047
0 0.035411451 0.0045041423 -0.14741376 -0.38593423 -0.23852047
0 0.031417754 0.0024730715 -0.14741376 -0.38593423 -0.23852047
2.7755576e-17 0.027490728 0.00047581186 -0.14741376 -0.38593423 -0.23852047
0.00092572207 0.026200624 0 -0.14741376 -0.38593423 -0.23852047
0.0021448741 0.025733808 2.7755576e-17 -0.14741376 -0.38593423 -0.23852047
0.0033639912 0.025267195 0 -0.14741376 -0.38593423 -0.23852047
0.0045830915 0.024800779 0 -0.14741376 -0.38593423 -0.23852047
0.0058021927 0.024334554 2.7755576e-17 -0.14741376 -0.38593423 -0.23852047
0.0070213126 0.02386851 0 -0.14741376 -0.38593423 -0.23852047
