# .PCD v0.7 - Point Cloud Data file format
VERSION 0.7
FIELDS x y z vp_x vp_y vp_z
SIZE 4 4 4 4 4 4
TYPE F F F F F F
COUNT 1 1 1 1 1 1
WIDTH 730
HEIGHT 1
VIEWPOINT 0 0 0 1 0 0 0
POINTS 730
DATA ascii
0 0.077405751 0.037668541 -0.38593423 0.23852047 -0.14741376
0 0.076115526 0.037952475 -0.38593423 0.23852047 -0.14741376
0.0036639473 0.073267981 0.039999999 -0.38593423 0.23852047 -0.14741376
0 0.073525399 0.038523562 -0.38593423 0.23852047 -0.14741376
0 0.072225437 0.03881073 -0.38593423 0.23852047 -0.14741376
0 0.070922159 0.039098993 -0.38593423 0.23852047 -0.14741376
0 0.069615535 0.039388362 -0.38593423 0.23852047 -0.14741376
0 0.068305545 0.039678838 -0.38593423 0.23852047 -0.14741376
0 0.066992141 0.039970439 -0.38593423 0.23852047 -0.14741376
0.00075564807 0.065336876 0.040630631 -0.38593423 0.23852047 -0.14741376
0.00044386412 0.064154685 0.040773217 -0.38593423 0.23852047 -0.14741376
0.00024165712 0.062921293 0.040969927 -0.38593423 0.23852047 -0.14741376
9.0139038e-05 0.061662529 0.041192248 -0.38593423 0.23852047 -0.14741376
1.9724544e-05 0.060363799 0.041455191 -0.38593423 0.23852047 -0.14741376
5.3485852e-05 0.059013505 0.041770257 -0.38593423 0.23852047 -0.14741376
0.00015139386 0.05762928 0.042118046 -0.38593423 0.23852047 -0.14741376
0.00038992392 0.05617433 0.042536322 -0.38593423 0.23852047 -0.14741376
0.00075871724 0.054652069 0.043020323 -0.38593423 0.23852047 -0.14741376
0.001269465 0.053055488 0.043576136 -0.38593423 0.23852047 -0.14741376
0.0019792875 0.051355489 0.044232327 -0.38593423 0.23852047 -0.14741376
0.0029909548 0.049499977 0.045040242 -0.38593423 0.23852047 -0.14741376
0.0045143538 0.047382951 0.04610464 -0.38593423 0.23852047 -0.14741376
0.0070739435 0.044740323 0.047687124 -0.38593423 0.23852047 -0.14741376
0.023567189 0.079663523 0.044951264 -0.38593423 0.23852047 -0.14741376
0.019331222 0.079981901 0.043248005 -0.38593423 0.23852047 -0.14741376
0.016650477 0.07971143 0.04227256 -0.38593423 0.23852047 -0.14741376
0.014532468 0.079231605 0.041559882 -0.38593423 0.23852047 -0.14741376
0.0093290415 0.079999998 0.039387058 -0.38593423 0.23852047 -0.14741376
0.0061030849 0.079999998 0.03814378 -0.38593423 0.23852047 -0.14741376
0.0029217897 0.079999998 0.03691807 -0.38593423 0.23852047 -0.14741376
0 0.079911307 0.035812002 -0.38593423 0.23852047 -0.14741376
0 0.078628398 0.036091998 -0.38593423 0.23852047 -0.14741376
0 0.077342339 0.036373034 -0.38593423 0.23852047 -0.14741376
0 0.076053098 0.036655121 -0.38593423 0.23852047 -0.14741376
0 0.074760638 0.036938261 -0.38593423 0.23852047 -0.14741376
0 0.073464938 0.037222464 -0.38593423 0.23852047 -0.14741376
0 0.072165966 0.037507739 -0.38593423 0.23852047 -0.14741376
0.0390343 0.053906485 0.056526456 -0.38593423 0.23852047 -0.14741376
0 0.069558069 0.038081538 -0.38593423 0.23852047 -0.14741376
0 0.068249084 0.038370077 -0.38593423 0.23852047 -0.14741376
0.03745326 0.050285228 0.056717355 -0.38593423 0.23852047 -0.14741376
0 0.065620877 0.038950481 -0.38593423 0.23852047 -0.14741376
0 0.064301588 0.039242361 -0.38593423 0.23852047 -0.14741376
0 0.062978804 0.03953537 -0.38593423 0.23852047 -0.14741376
0.034225713 0.045967344 0.056434773 -0.38593423 0.23852047 -0.14741376
1.7063818e-05 0.060314726 0.040133111 -0.38593423 0.23852047 -0.14741376
5.6225879e-05 0.058962967 0.04044864 -0.38593423 0.23852047 -0.14741376
0.00015995791 0.057577044 0.040796872 -0.38593423 0.23852047 -0.14741376
0.00039831069 0.056123175 0.041212168 -0.38593423 0.23852047 -0.14741376
0.00077348942 0.054598864 0.04169593 -0.38593423 0.23852047 -0.14741376
0.0012917066 0.052999664 0.042251535 -0.38593423 0.23852047 -0.14741376
0.0020107583 0.05129613 0.042907685 -0.38593423 0.23852047 -0.14741376
0.0030346448 0.049435537 0.043715972 -0.38593423 0.23852047 -0.14741376
0.0045758248 0.047310583 0.044781696 -0.38593423 0.23852047 -0.14741376
0.007229113 0.044622362 0.046399333 -0.38593423 0.23852047 -0.14741376
0.023162048 0.079744503 0.043407574 -0.38593423 0.23852047 -0.14741376
0.019153217 0.079977088 0.041822352 -0.38593423 0.23852047 -0.14741376
0.016531715 0.079685286 0.040881574 -0.38593423 0.23852047 -0.14741376
0.012421486 0.079999998 0.039240554 -0.38593423 0.23852047 -0.14741376
0.0091552297 0.079999998 0.037990775 -0.38593423 0.23852047 -0.14741376
0.005934495 0.079999998 0.036758758 -0.38593423 0.23852047 -0.14741376
0.039312303 0.065092176 0.052750122 -0.38593423 0.23852047 -0.14741376
0 0.079846092 0.034522958 -0.38593423 0.23852047 -0.14741376
0 0.078564152 0.03480114 -0.38593423 0.23852047 -0.14741376
0 0.077279061 0.035080351 -0.38593423 0.23852047 -0.14741376
0 0.075990796 0.035360593 -0.38593423 0.23852047 -0.14741376
0 0.074699327 0.035641875 -0.38593423 0.23852047 -0.14741376
0.039653551 0.056439467 0.054761618 -0.38593423 0.23852047 -0.14741376
0 0.07210663 0.036207598 -0.38593423 0.23852047 -0.14741376
5.5511151e-17 0.070805348 0.03649205 -0.38593423 0.23852047 -0.14741376
0 0.069500729 0.036777578 -0.38593423 0.23852047 -0.14741376
0 0.06819275 0.037064184 -0.38593423 0.23852047 -0.14741376
0 0.066881374 0.037351884 -0.38593423 0.23852047 -0.14741376
0 0.06556657 0.03764068 -0.38593423 0.23852047 -0.14741376
0 0.064248301 0.037930582 -0.38593423 0.23852047 -0.14741376
0 0.062926546 0.038221598 -0.38593423 0.23852047 -0.14741376
0.034186039 0.045929763 0.054983191 -0.38593423 0.23852047 -0.14741376
0.033159435 0.044957358 0.054807089 -0.38593423 0.23852047 -0.14741376
5.5511151e-17 0.058939975 0.039101433 -0.38593423 0.23852047 -0.14741376
5.5511151e-17 0.057603911 0.039396998 -0.38593423 0.23852047 -0.14741376
0 0.056264181 0.039693724 -0.38593423 0.23852047 -0.14741376
0 0.054920759 0.039991617 -0.38593423 0.23852047 -0.14741376
0.0013139014 0.05294396 0.040929724 -0.38593423 0.23852047 -0.14741376
0.0020421641 0.051236894 0.04158577 -0.38593423 0.23852047 -0.14741376
0.0030782474 0.049371231 0.042394347 -0.38593423 0.23852047 -0.14741376
0.0046371785 0.04723835 0.043461286 -0.38593423 0.23852047 -0.14741376
0.0073840595 0.044504568 0.045113392 -0.38593423 0.23852047 -0.14741376
0.022890076 0.079774089 0.041931141 -0.38593423 0.23852047 -0.14741376
0.018975748 0.07997229 0.040401004 -0.38593423 0.23852047 -0.14741376
0.015550194 0.079999998 0.039093453 -0.38593423 0.23852047 -0.14741376
0.012242866 0.079999998 0.037837103 -0.38593423 0.23852047 -0.14741376
0.0089819441 0.079999998 0.03659872 -0.38593423 0.23852047 -0.14741376
0.0057664122 0.079999998 0.035377905 -0.38593423 0.23852047 -0.14741376
0.0025952854 0.079999998 0.034174286 -0.38593423 0.23852047 -0.14741376
0 0.079781018 0.033236697 -0.38593423 0.23852047 -0.14741376
0 0.078500047 0.033513073 -0.38593423 0.23852047 -0.14741376
0 0.077215925 0.033790462 -0.38593423 0.23852047 -0.14741376
0 0.075928636 0.034068868 -0.38593423 0.23852047 -0.14741376
0 0.074638143 0.034348302 -0.38593423 0.23852047 -0.14741376
0 0.073344417 0.034628768 -0.38593423 0.23852047 -0.14741376
0.03935748 0.055070542 0.053503636 -0.38593423 0.23852047 -0.14741376
0 0.07074713 0.035192836 -0.38593423 0.23852047 -0.14741376
0 0.069443516 0.035476454 -0.38593423 0.23852047 -0.14741376
0 0.068136543 0.035761137 -0.38593423 0.23852047 -0.14741376
0 0.066826172 0.036046896 -0.38593423 0.23852047 -0.14741376
0 0.065512381 0.036333736 -0.38593423 0.23852047 -0.14741376
0.035959698 0.04795225 0.053769302 -0.38593423 0.23852047 -0.14741376
0 0.062874399 0.036910702 -0.38593423 0.23852047 -0.14741376
0 0.061550144 0.037200842 -0.38593423 0.23852047 -0.14741376
0 0.060222335 0.0374921 -0.38593423 0.23852047 -0.14741376
0 0.058890935 0.037784483 -0.38593423 0.23852047 -0.14741376
0 0.057555918 0.038077999 -0.38593423 0.23852047 -0.14741376
0 0.056217242 0.038372662 -0.38593423 0.23852047 -0.14741376
0 0.054874875 0.038668476 -0.38593423 0.23852047 -0.14741376
0 0.053528782 0.038965449 -0.38593423 0.23852047 -0.14741376
0 0.05217893 0.039263595 -0.38593423 0.23852047 -0.14741376
0 0.050825287 0.039562922 -0.38593423 0.23852047 -0.14741376
0 0.049467809 0.039863437 -0.38593423 0.23852047 -0.14741376
0.0075387848 0.044386946 0.043829288 -0.38593423 0.23852047 -0.14741376
0.022619041 0.079803579 0.040459808 -0.38593423 0.23852047 -0.14741376
0.018715855 0.079999998 0.038945723 -0.38593423 0.23852047 -0.14741376
0.015366663 0.079999998 0.037682727 -0.38593423 0.23852047 -0.14741376
0.012064787 0.079999998 0.036437903 -0.38593423 0.23852047 -0.14741376
0.00880918 0.079999998 0.035210855 -0.38593423 0.23852047 -0.14741376
0.0055988333 0.079999998 0.03400119 -0.38593423 0.23852047 -0.14741376
0.0024327633 0.079999998 0.032808531 -0.38593423 0.23852047 -0.14741376
0 0.079716086 0.031953193 -0.38593423 0.23852047 -0.14741376
0 0.078436077 0.032227769 -0.38593423 0.23852047 -0.14741376
0 0.077152923 0.03250334 -0.38593423 0.23852047 -0.14741376
0 0.07586661 0.032779921 -0.38593423 0.23852047 -0.14741376
0 0.074577093 0.033057507 -0.38593423 0.23852047 -0.14741376
0 0.07328435 0.033336118 -0.38593423 0.23852047 -0.14741376
0 0.071988344 0.033615753 -0.38593423 0.23852047 -0.14741376
0.038986664 0.053734895 0.052212186 -0.38593423 0.23852047 -0.14741376
0 0.069386423 0.034178138 -0.38593423 0.23852047 -0.14741376
0.037992299 0.051301923 0.052365087 -0.38593423 0.23852047 -0.14741376
0 0.06677109 0.034744732 -0.38593423 0.23852047 -0.14741376
0.036677625 0.049011186 0.052368306 -0.38593423 0.23852047 -0.14741376
0 0.064142078 0.035315592 -0.38593423 0.23852047 -0.14741376
0 0.062822372 0.035602648 -0.38593423 0.23852047 -0.14741376
0.034106966 0.045854867 0.052090351 -0.38593423 0.23852047 -0.14741376
0 0.060172364 0.036180042 -0.38593423 0.23852047 -0.14741376
0 0.058842003 0.036470398 -0.38593423 0.23852047 -0.14741376
0 0.057508029 0.036761876 -0.38593423 0.23852047 -0.14741376
0 0.0561704 0.037054483 -0.38593423 0.23852047 -0.14741376
0.027792523 0.041600809 0.050653603 -0.38593423 0.23852047 -0.14741376
0 0.05348406 0.037643109 -0.38593423 0.23852047 -0.14741376
5.5511151e-17 0.052135274 0.03793915 -0.38593423 0.23852047 -0.14741376
0 0.050782703 0.038236354 -0.38593423 0.23852047 -0.14741376
0 0.049426302 0.038534731 -0.38593423 0.23852047 -0.14741376
0 0.048066046 0.038834289 -0.38593423 0.23852047 -0.14741376
5.5511151e-17 0.046701889 0.039135039 -0.38593423 0.23852047 -0.14741376
0 0.045333799 0.039436992 -0.38593423 0.23852047 -0.14741376
0 0.043961741 0.039740153 -0.38593423 0.23852047 -0.14741376
0.02191917 0.079999998 0.038797311 -0.38593423 0.23852047 -0.14741376
0.018527308 0.079999998 0.037527598 -0.38593423 0.23852047 -0.14741376
0.015183688 0.079999998 0.03627627 -0.38593423 0.23852047 -0.14741376
0.011887243 0.079999998 0.035042919 -0.38593423 0.23852047 -0.14741376
0.038272653 0.068093732 0.04743991 -0.38593423 0.23852047 -0.14741376
0.0054317527 0.079999998 0.03262857 -0.38593423 0.23852047 -0.14741376
0.0022707223 0.079999998 0.031446815 -0.38593423 0.23852047 -0.14741376
0 0.079651289 0.030672418 -0.38593423 0.23852047 -0.14741376
0 0.07837224 0.0309452 -0.38593423 0.23852047 -0.14741376
0 0.077090062 0.031218966 -0.38593423 0.23852047 -0.14741376
0 0.07580471 0.03149372 -0.38593423 0.23852047 -0.14741376
0 0.074516177 0.031769473 -0.38593423 0.23852047 -0.14741376
0 0.07322441 0.032046229 -0.38593423 0.23852047 -0.14741376
0 0.071929388 0.032323997 -0.38593423 0.23852047 -0.14741376
0 0.070631079 0.032602791 -0.38593423 0.23852047 -0.14741376
5.5511151e-17 0.069329455 0.032882608 -0.38593423 0.23852047 -0.14741376
0 0.068024479 0.033163462 -0.38593423 0.23852047 -0.14741376
0 0.066716127 0.033445362 -0.38593423 0.23852047 -0.14741376
0 0.065404356 0.033728316 -0.38593423 0.23852047 -0.14741376
0.035895485 0.047865402 0.05088665 -0.38593423 0.23852047 -0.14741376
0 0.062770449 0.03429741 -0.38593423 0.23852047 -0.14741376
0.034067571 0.04581755 0.050649021 -0.38593423 0.23852047 -0.14741376
0.033043936 0.044847954 0.050478138 -0.38593423 0.23852047 -0.14741376
0.031881407 0.043946195 0.050241213 -0.38593423 0.23852047 -0.14741376
5.5511151e-17 0.057460241 0.0354486 -0.38593423 0.23852047 -0.14741376
0 0.056123663 0.035739157 -0.38593423 0.23852047 -0.14741376
0 0.054783404 0.036030833 -0.38593423 0.23852047 -0.14741376
0 0.053439435 0.036323637 -0.38593423 0.23852047 -0.14741376
0 0.052091714 0.036617581 -0.38593423 0.23852047 -0.14741376
0 0.050740212 0.036912672 -0.38593423 0.23852047 -0.14741376
0 0.049384888 0.037208918 -0.38593423 0.23852047 -0.14741376
0.0052043661 0.045456868 0.039999999 -0.38593423 0.23852047 -0.14741376
0 0.046662644 0.03780492 -0.38593423 0.23852047 -0.14741376
0 0.045295652 0.038104691 -0.38593423 0.23852047 -0.14741376
0 0.043924693 0.038405657 -0.38593423 0.23852047 -0.14741376
0 0.042549733 0.038707823 -0.38593423 0.23852047 -0.14741376
0 0.041170739 0.039011206 -0.38593423 0.23852047 -0.14741376
0 0.039787665 0.039315809 -0.38593423 0.23852047 -0.14741376
0 0.038400479 0.039621644 -0.38593423 0.23852047 -0.14741376
0 0.037009139 0.039928723 -0.38593423 0.23852047 -0.14741376
0.028646559 0.079999998 0.039943703 -0.38593423 0.23852047 -0.14741376
0.025160868 0.079999998 0.038648177 -0.38593423 0.23852047 -0.14741376
0.021725502 0.079999998 0.037371676 -0.38593423 0.23852047 -0.14741376
0.018339332 0.079999998 0.036113773 -0.38593423 0.23852047 -0.14741376
0.015001264 0.079999998 0.034874048 -0.38593423 0.23852047 -0.14741376
0.01171023 0.079999998 0.033652104 -0.38593423 0.23852047 -0.14741376
0.03830786 0.068005376 0.046056952 -0.38593423 0.23852047 -0.14741376
0.0052651661 0.079999998 0.031260006 -0.38593423 0.23852047 -0.14741376
0.0021091576 0.079999998 0.030089105 -0.38593423 0.23852047 -0.14741376
0 0.079586625 0.029394347 -0.38593423 0.23852047 -0.14741376
0 0.078308545 0.029665342 -0.38593423 0.23852047 -0.14741376
0 0.077027328 0.029937306 -0.38593423 0.23852047 -0.14741376
0 0.075742953 0.030210244 -0.38593423 0.23852047 -0.14741376
0 0.07445538 0.030484166 -0.38593423 0.23852047 -0.14741376
0 0.073164597 0.030759078 -0.38593423 0.23852047 -0.14741376
0 0.071870558 0.031034987 -0.38593423 0.23852047 -0.14741376
0 0.070573241 0.031311903 -0.38593423 0.23852047 -0.14741376
0 0.069272608 0.031589832 -0.38593423 0.23852047 -0.14741376
5.5511151e-17 0.067968629 0.031868786 -0.38593423 0.23852047 -0.14741376
0.037323665 0.050040793 0.049514242 -0.38593423 0.23852047 -0.14741376
5.5511151e-17 0.065350518 0.032429785 -0.38593423 0.23852047 -0.14741376
0 0.064036317 0.032711849 -0.38593423 0.23852047 -0.14741376
0 0.062718645 0.032994967 -0.38593423 0.23852047 -0.14741376
0.034028269 0.045780323 0.049211051 -0.38593423 0.23852047 -0.14741376
0 0.060072746 0.033564396 -0.38593423 0.23852047 -0.14741376
0 0.058744457 0.033850729 -0.38593423 0.23852047 -0.14741376
0 0.057412561 0.034138147 -0.38593423 0.23852047 -0.14741376
0 0.056077026 0.034426659 -0.38593423 0.23852047 -0.14741376
0 0.054737817 0.034716275 -0.38593423 0.23852047 -0.14741376
5.5511151e-17 0.053394902 0.035007007 -0.38593423 0.23852047 -0.14741376
0 0.052048247 0.035298862 -0.38593423 0.23852047 -0.14741376
0 0.050697811 0.035591844 -0.38593423 0.23852047 -0.14741376
0.019001756 0.040029299 0.04491087 -0.38593423 0.23852047 -0.14741376
0.014737424 0.040709626 0.04319207 -0.38593423 0.23852047 -0.14741376
5.5511151e-17 0.046623483 0.036477678 -0.38593423 0.23852047 -0.14741376
5.5511151e-17 0.045257583 0.03677528 -0.38593423 0.23852047 -0.14741376
5.5511151e-17 0.043887723 0.037074056 -0.38593423 0.23852047 -0.14741376
0.0054844306 0.039728459 0.039999999 -0.38593423 0.23852047 -0.14741376
0 0.041135985 0.03767518 -0.38593423 0.23852047 -0.14741376
0 0.039754029 0.037977543 -0.38593423 0.23852047 -0.14741376
0 0.038367968 0.038281124 -0.38593423 0.23852047 -0.14741376
0 0.03697776 0.038585927 -0.38593423 0.23852047 -0.14741376
0.0022952973 0.034376424 0.039999999 -0.38593423 0.23852047 -0.14741376
0 0.034184754 0.039199252 -0.38593423 0.23852047 -0.14741376
0 0.032781877 0.039507791 -0.38593423 0.23852047 -0.14741376
0 0.031374697 0.039817598 -0.38593423 0.23852047 -0.14741376
0.03197274 0.079999998 0.039800886 -0.38593423 0.23852047 -0.14741376
0.028441684 0.079999998 0.038498275 -0.38593423 0.23852047 -0.14741376
0.024961965 0.079999998 0.037214909 -0.38593423 0.23852047 -0.14741376
0.02153242 0.079999998 0.035950359 -0.38593423 0.23852047 -0.14741376
0.018151924 0.079999998 0.034704197 -0.38593423 0.23852047 -0.14741376
0.014819385 0.079999998 0.033476021 -0.38593423 0.23852047 -0.14741376
0.011533745 0.079999998 0.032265428 -0.38593423 0.23852047 -0.14741376
0.0082939724 0.079999998 0.031072035 -0.38593423 0.23852047 -0.14741376
0.0050990693 0.079999998 0.029895468 -0.38593423 0.23852047 -0.14741376
0.001948065 0.079999998 0.028735362 -0.38593423 0.23852047 -0.14741376
0 0.079522103 0.028118955 -0.38593423 0.23852047 -0.14741376
0 0.078244977 0.028388169 -0.38593423 0.23852047 -0.14741376
0 0.076964721 0.028658336 -0.38593423 0.23852047 -0.14741376
0 0.075681314 0.028929465 -0.38593423 0.23852047 -0.14741376
0 0.074394718 0.029201562 -0.38593423 0.23852047 -0.14741376
0 0.073104911 0.029474635 -0.38593423 0.23852047 -0.14741376
0 0.071811855 0.029748693 -0.38593423 0.23852047 -0.14741376
0 0.070515521 0.030023741 -0.38593423 0.23852047 -0.14741376
0 0.069215879 0.030299788 -0.38593423 0.23852047 -0.14741376
0 0.067912899 0.030576842 -0.38593423 0.23852047 -0.14741376
0 0.066606544 0.030854911 -0.38593423 0.23852047 -0.14741376
0 0.065296791 0.031134002 -0.38593423 0.23852047 -0.14741376
0.03582469 0.04778206 0.048013985 -0.38593423 0.23852047 -0.14741376
0 0.062666945 0.031695284 -0.38593423 0.23852047 -0.14741376
5.5511151e-17 0.061346784 0.031977493 -0.38593423 0.23852047 -0.14741376
0.032967381 0.044775441 0.047608964 -0.38593423 0.23852047 -0.14741376
0 0.058695838 0.032545082 -0.38593423 0.23852047 -0.14741376
0 0.057364982 0.03283048 -0.38593423 0.23852047 -0.14741376
0.029169228 0.042237744 0.046761621 -0.38593423 0.23852047 -0.14741376
5.5511151e-17 0.054692332 0.033404529 -0.38593423 0.23852047 -0.14741376
0.025911763 0.040918089 0.04585278 -0.38593423 0.23852047 -0.14741376
0 0.05200487 0.033982966 -0.38593423 0.23852047 -0.14741376
0 0.050655503 0.034273852 -0.38593423 0.23852047 -0.14741376
5.5511151e-17 0.049302325 0.034565862 -0.38593423 0.23852047 -0.14741376
5.5511151e-17 0.047945306 0.034859005 -0.38593423 0.23852047 -0.14741376
0 0.046584409 0.035153292 -0.38593423 0.23852047 -0.14741376
0 0.045219596 0.035448726 -0.38593423 0.23852047 -0.14741376
5.5511151e-17 0.043850835 0.035745323 -0.38593423 0.23852047 -0.14741376
5.5511151e-17 0.042478081 0.036043093 -0.38593423 0.23852047 -0.14741376
5.5511151e-17 0.041101307 0.036342036 -0.38593423 0.23852047 -0.14741376
5.5511151e-17 0.039720468 0.036642171 -0.38593423 0.23852047 -0.14741376
5.5511151e-17 0.038335528 0.036943503 -0.38593423 0.23852047 -0.14741376
0 0.036946446 0.037246041 -0.38593423 0.23852047 -0.14741376
0 0.035553191 0.037549801 -0.38593423 0.23852047 -0.14741376
5.5511151e-17 0.034155719 0.037854787 -0.38593423 0.23852047 -0.14741376
0 0.032753989 0.038161006 -0.38593423 0.23852047 -0.14741376
0 0.031347968 0.038468476 -0.38593423 0.23852047 -0.14741376
0 0.029937608 0.038777206 -0.38593423 0.23852047 -0.14741376
0 0.028522875 0.039087202 -0.38593423 0.23852047 -0.14741376
5.5511151e-17 0.027103724 0.039398476 -0.38593423 0.23852047 -0.14741376
0 0.025680117 0.039711036 -0.38593423 0.23852047 -0.14741376
0.035339706 0.079999998 0.039657336 -0.38593423 0.23852047 -0.14741376
0.031762384 0.079999998 0.038347557 -0.38593423 0.23852047 -0.14741376
0.028237436 0.079999998 0.037057251 -0.38593423 0.23852047 -0.14741376
0.024763664 0.079999998 0.035785984 -0.38593423 0.23852047 -0.14741376
0.021339918 0.079999998 0.034533318 -0.38593423 0.23852047 -0.14741376
0.017965075 0.079999998 0.033298843 -0.38593423 0.23852047 -0.14741376
0.014638048 0.079999998 0.032082152 -0.38593423 0.23852047 -0.14741376
0.011357781 0.079999998 0.030882852 -0.38593423 0.23852047 -0.14741376
0.0081232488 0.079999998 0.029700564 -0.38593423 0.23852047 -0.14741376
0.0049334578 0.079999998 0.028534917 -0.38593423 0.23852047 -0.14741376
0.0017874405 0.079999998 0.027385551 -0.38593423 0.23852047 -0.14741376
0 0.079457715 0.026846213 -0.38593423 0.23852047 -0.14741376
0 0.078181542 0.027113652 -0.38593423 0.23852047 -0.14741376
0 0.076902248 0.027382031 -0.38593423 0.23852047 -0.14741376
0 0.075619809 0.027651357 -0.38593423 0.23852047 -0.14741376
0 0.074334182 0.027921636 -0.38593423 0.23852047 -0.14741376
0 0.073045351 0.028192878 -0.38593423 0.23852047 -0.14741376
0 0.071753271 0.028465087 -0.38593423 0.23852047 -0.14741376
0 0.07045792 0.028738275 -0.38593423 0.23852047 -0.14741376
0 0.069159269 0.029012445 -0.38593423 0.23852047 -0.14741376
0 0.06785728 0.02928761 -0.38593423 0.23852047 -0.14741376
0 0.066551931 0.029563773 -0.38593423 0.23852047 -0.14741376
0 0.065243177 0.029840944 -0.38593423 0.23852047 -0.14741376
0 0.063930996 0.030119132 -0.38593423 0.23852047 -0.14741376
0 0.062615357 0.030398343 -0.38593423 0.23852047 -0.14741376
0 0.061296217 0.030678585 -0.38593423 0.23852047 -0.14741376
5.5511151e-17 0.059973549 0.030959867 -0.38593423 0.23852047 -0.14741376
0.031752639 0.043848306 0.04594107 -0.38593423 0.23852047 -0.14741376
5.5511151e-17 0.057317499 0.031525586 -0.38593423 0.23852047 -0.14741376
0 0.05598405 0.031810038 -0.38593423 0.23852047 -0.14741376
0 0.054646939 0.032095559 -0.38593423 0.23852047 -0.14741376
0.025853839 0.040898569 0.044426747 -0.38593423 0.23852047 -0.14741376
5.5511151e-17 0.05196159 0.032669865 -0.38593423 0.23852047 -0.14741376
0 0.050613284 0.03295866 -0.38593423 0.23852047 -0.14741376
0 0.049261175 0.033248562 -0.38593423 0.23852047 -0.14741376
0.014272247 0.040856086 0.040231425 -0.38593423 0.23852047 -0.14741376
0 0.046545416 0.03383173 -0.38593423 0.23852047 -0.14741376
0 0.045181692 0.034125011 -0.38593423 0.23852047 -0.14741376
0 0.043814022 0.034419436 -0.38593423 0.23852047 -0.14741376
0 0.042442374 0.034715012 -0.38593423 0.23852047 -0.14741376
0 0.041066702 0.035011753 -0.38593423 0.23852047 -0.14741376
5.5511151e-17 0.039686978 0.035309665 -0.38593423 0.23852047 -0.14741376
0 0.038303155 0.035608757 -0.38593423 0.23852047 -0.14741376
0 0.036915202 0.035909038 -0.38593423 0.23852047 -0.14741376
5.5511151e-17 0.035523079 0.036210522 -0.38593423 0.23852047 -0.14741376
0 0.034126747 0.036513217 -0.38593423 0.23852047 -0.14741376
0 0.032726165 0.03681713 -0.38593423 0.23852047 -0.14741376
0.0060184062 0.028090151 0.039999999 -0.38593423 0.23852047 -0.14741376
0 0.029912097 0.037428658 -0.38593423 0.23852047 -0.14741376
0 0.02849853 0.037736289 -0.38593423 0.23852047 -0.14741376
0.004067909 0.02485189 0.039999999 -0.38593423 0.23852047 -0.14741376
0 0.025658131 0.038355347 -0.38593423 0.23852047 -0.14741376
0 0.024231214 0.038666792 -0.38593423 0.23852047 -0.14741376
0 0.022799764 0.03897953 -0.38593423 0.23852047 -0.14741376
5.5511151e-17 0.021363739 0.039293569 -0.38593423 0.23852047 -0.14741376
0 0.019923095 0.039608922 -0.38593423 0.23852047 -0.14741376
0 0.01847779 0.039925598 -0.38593423 0.23852047 -0.14741376
0.038748257 0.079999998 0.039513003 -0.38593423 0.23852047 -0.14741376
0.035123747 0.079999998 0.038195975 -0.38593423 0.23852047 -0.14741376
0.031552672 0.079999998 0.036898654 -0.38593423 0.23852047 -0.14741376
0.028033804 0.079999998 0.035620596 -0.38593423 0.23852047 -0.14741376
0.024565963 0.079999998 0.034361359 -0.38593423 0.23852047 -0.14741376
0.021147992 0.079999998 0.033120517 -0.38593423 0.23852047 -0.14741376
0.017778782 0.079999998 0.031897668 -0.38593423 0.23852047 -0.14741376
0.014457246 0.079999998 0.030692402 -0.38593423 0.23852047 -0.14741376
0.011182333 0.079999998 0.029504336 -0.38593423 0.23852047 -0.14741376
0.0079530245 0.079999998 0.028333098 -0.38593423 0.23852047 -0.14741376
0.0047683273 0.079999998 0.027178315 -0.38593423 0.23852047 -0.14741376
0.0016272796 0.079999998 0.026039638 -0.38593423 0.23852047 -0.14741376
0 0.079393461 0.0255761 -0.38593423 0.23852047 -0.14741376
0 0.078118242 0.025841769 -0.38593423 0.23852047 -0.14741376
0 0.076839909 0.026108364 -0.38593423 0.23852047 -0.14741376
0 0.075558431 0.026375894 -0.38593423 0.23852047 -0.14741376
0 0.074273773 0.02664436 -0.38593423 0.23852047 -0.14741376
0 0.07298591 0.026913777 -0.38593423 0.23852047 -0.14741376
0 0.071694814 0.027184147 -0.38593423 0.23852047 -0.14741376
0 0.070400447 0.027455479 -0.38593423 0.23852047 -0.14741376
0 0.069102779 0.027727783 -0.38593423 0.23852047 -0.14741376
0 0.067801788 0.028001063 -0.38593423 0.23852047 -0.14741376
0 0.06649743 0.028275328 -0.38593423 0.23852047 -0.14741376
0 0.065189682 0.028550584 -0.38593423 0.23852047 -0.14741376
0.035754219 0.047699098 0.045154355 -0.38593423 0.23852047 -0.14741376
5.5511151e-17 0.062563874 0.02910411 -0.38593423 0.23852047 -0.14741376
0 0.061245751 0.029382395 -0.38593423 0.23852047 -0.14741376
0 0.059924107 0.029661704 -0.38593423 0.23852047 -0.14741376
5.5511151e-17 0.05859891 0.029942045 -0.38593423 0.23852047 -0.14741376
0 0.057270121 0.030223427 -0.38593423 0.23852047 -0.14741376
5.5511151e-17 0.055937707 0.030505858 -0.38593423 0.23852047 -0.14741376
0 0.05460164 0.030789347 -0.38593423 0.23852047 -0.14741376
0 0.053261884 0.031073902 -0.38593423 0.23852047 -0.14741376
0 0.051918399 0.031359531 -0.38593423 0.23852047 -0.14741376
0 0.050571155 0.031646244 -0.38593423 0.23852047 -0.14741376
0 0.049220115 0.031934049 -0.38593423 0.23852047 -0.14741376
0 0.047865245 0.032222953 -0.38593423 0.23852047 -0.14741376
5.5511151e-17 0.046506509 0.032512967 -0.38593423 0.23852047 -0.14741376
0 0.045143869 0.032804102 -0.38593423 0.23852047 -0.14741376
0 0.043777291 0.033096362 -0.38593423 0.23852047 -0.14741376
0 0.042406738 0.033389758 -0.38593423 0.23852047 -0.14741376
0 0.041032173 0.033684298 -0.38593423 0.23852047 -0.14741376
5.5511151e-17 0.039653558 0.033979997 -0.38593423 0.23852047 -0.14741376
0 0.038270853 0.034276858 -0.38593423 0.23852047 -0.14741376
5.5511151e-17 0.036884025 0.034574892 -0.38593423 0.23852047 -0.14741376
0 0.035493031 0.034874108 -0.38593423 0.23852047 -0.14741376
0 0.034097835 0.035174519 -0.38593423 0.23852047 -0.14741376
0.0095462631 0.027607294 0.039999999 -0.38593423 0.23852047 -0.14741376
0 0.031294681 0.035778958 -0.38593423 0.23852047 -0.14741376
0 0.029886641 0.036083005 -0.38593423 0.23852047 -0.14741376
0 0.02847424 0.036388285 -0.38593423 0.23852047 -0.14741376
5.5511151e-17 0.027057437 0.036694806 -0.38593423 0.23852047 -0.14741376
0.0062727947 0.02217607 0.039999999 -0.38593423 0.23852047 -0.14741376
5.5511151e-17 0.024210462 0.037311621 -0.38593423 0.23852047 -0.14741376
0 0.022780206 0.03762193 -0.38593423 0.23852047 -0.14741376
5.5511151e-17 0.021345384 0.037933525 -0.38593423 0.23852047 -0.14741376
0.0036451975 0.017841108 0.039999999 -0.38593423 0.23852047 -0.14741376
0 0.018461864 0.03856061 -0.38593423 0.23852047 -0.14741376
0.0023283232 0.015676737 0.039999999 -0.38593423 0.23852047 -0.14741376
0.0016690955 0.014595293 0.039999999 -0.38593423 0.23852047 -0.14741376
5.5511151e-17 0.01410125 0.039511137 -0.38593423 0.23852047 -0.14741376
0 0.012638113 0.039830662 -0.38593423 0.23852047 -0.14741376
0.038526572 0.079999998 0.03804348 -0.38593423 0.23852047 -0.14741376
0.031343594 0.079999998 0.035454143 -0.38593423 0.23852047 -0.14741376
0.027830787 0.079999998 0.034188263 -0.38593423 0.23852047 -0.14741376
0.039999999 0.073960908 0.039811894 -0.38593423 0.23852047 -0.14741376
0.020956639 0.079999998 0.031711917 -0.38593423 0.23852047 -0.14741376
0.017593039 0.079999998 0.03050063 -0.38593423 0.23852047 -0.14741376
0.038493548 0.070408009 0.039999999 -0.38593423 0.23852047 -0.14741376
0.011007399 0.079999998 0.028129848 -0.38593423 0.23852047 -0.14741376
0.0077832942 0.079999998 0.0269696 -0.38593423 0.23852047 -0.14741376
0.0046036732 0.079999998 0.025825629 -0.38593423 0.23852047 -0.14741376
0.0014675782 0.079999998 0.024697585 -0.38593423 0.23852047 -0.14741376
0 0.079329334 0.024308585 -0.38593423 0.23852047 -0.14741376
0 0.078055069 0.024572494 -0.38593423 0.23852047 -0.14741376
0 0.076777697 0.024837311 -0.38593423 0.23852047 -0.14741376
0 0.075497173 0.025103049 -0.38593423 0.23852047 -0.14741376
0 0.07421349 0.025369711 -0.38593423 0.23852047 -0.14741376
0 0.072926596 0.025637308 -0.38593423 0.23852047 -0.14741376
0 0.071636468 0.025905844 -0.38593423 0.23852047 -0.14741376
0 0.070343085 0.026175329 -0.38593423 0.23852047 -0.14741376
0 0.069046408 0.026445769 -0.38593423 0.23852047 -0.14741376
0 0.067746401 0.026717171 -0.38593423 0.23852047 -0.14741376
0 0.066443041 0.026989546 -0.38593423 0.23852047 -0.14741376
0 0.065136291 0.027262896 -0.38593423 0.23852047 -0.14741376
5.5511151e-17 0.063826121 0.027537232 -0.38593423 0.23852047 -0.14741376
0.03484039 0.046623297 0.043631203 -0.38593423 0.23852047 -0.14741376
0.033871952 0.045632258 0.043492086 -0.38593423 0.23852047 -0.14741376
5.5511151e-17 0.059874769 0.028366238 -0.38593423 0.23852047 -0.14741376
0 0.058550596 0.028644597 -0.38593423 0.23852047 -0.14741376
0 0.057222839 0.028923983 -0.38593423 0.23852047 -0.14741376
0 0.055891465 0.0292044 -0.38593423 0.23852047 -0.14741376
0 0.054556437 0.029485861 -0.38593423 0.23852047 -0.14741376
0 0.053217728 0.029768372 -0.38593423 0.23852047 -0.14741376
0 0.051875297 0.030051941 -0.38593423 0.23852047 -0.14741376
0 0.050529111 0.030336579 -0.38593423 0.23852047 -0.14741376
0 0.049179137 0.03062229 -0.38593423 0.23852047 -0.14741376
5.5511151e-17 0.04782534 0.030909088 -0.38593423 0.23852047 -0.14741376
5.5511151e-17 0.04646768 0.031196978 -0.38593423 0.23852047 -0.14741376
0.018367019 0.03590133 0.039999999 -0.38593423 0.23852047 -0.14741376
0 0.043740638 0.031776074 -0.38593423 0.23852047 -0.14741376
0 0.04237118 0.032067299 -0.38593423 0.23852047 -0.14741376
5.5511151e-17 0.040997714 0.032359648 -0.38593423 0.23852047 -0.14741376
0 0.039620209 0.032653138 -0.38593423 0.23852047 -0.14741376
0 0.038238619 0.032947775 -0.38593423 0.23852047 -0.14741376
0 0.036852911 0.03324357 -0.38593423 0.23852047 -0.14741376
0 0.035463046 0.033540532 -0.38593423 0.23852047 -0.14741376
0.013119103 0.027119046 0.039999999 -0.38593423 0.23852047 -0.14741376
0.012461192 0.026024135 0.039999999 -0.38593423 0.23852047 -0.14741376
0 0.031268124 0.034438502 -0.38593423 0.23852047 -0.14741376
0 0.029861238 0.034740221 -0.38593423 0.23852047 -0.14741376
5.5511151e-17 0.028449999 0.035043158 -0.38593423 0.23852047 -0.14741376
5.5511151e-17 0.027034367 0.035347316 -0.38593423 0.23852047 -0.14741376
0 0.025614299 0.035652712 -0.38593423 0.23852047 -0.14741376
0.0085041085 0.019466951 0.039999999 -0.38593423 0.23852047 -0.14741376
5.5511151e-17 0.022760691 0.036267243 -0.38593423 0.23852047 -0.14741376
0 0.021327069 0.036576401 -0.38593423 0.23852047 -0.14741376
0 0.019888842 0.036886837 -0.38593423 0.23852047 -0.14741376
0 0.018445972 0.037198562 -0.38593423 0.23852047 -0.14741376
0 0.016998412 0.03751158 -0.38593423 0.23852047 -0.14741376
0.0045295707 0.012929151 0.039999999 -0.38593423 0.23852047 -0.14741376
0 0.014089052 0.038141556 -0.38593423 0.23852047 -0.14741376
0.0032006118 0.010753795 0.039999999 -0.38593423 0.23852047 -0.14741376
0 0.011160407 0.038776848 -0.38593423 0.23852047 -0.14741376
0 0.0096887415 0.039096519 -0.38593423 0.23852047 -0.14741376
0.0012031442 0.0074941362 0.039999999 -0.38593423 0.23852047 -0.14741376
0 0.0067304932 0.039739966 -0.38593423 0.23852047 -0.14741376
0.038305566 0.079999998 0.036578439 -0.38593423 0.23852047 -0.14741376
0.034693804 0.079999998 0.035286576 -0.38593423 0.23852047 -0.14741376
0.031135144 0.079999998 0.034013979 -0.38593423 0.23852047 -0.14741376
0.027628377 0.079999998 0.032760218 -0.38593423 0.23852047 -0.14741376
0.024172325 0.079999998 0.031524856 -0.38593423 0.23852047 -0.14741376
0.039999999 0.07250306 0.03871249 -0.38593423 0.23852047 -0.14741376
0.039999999 0.071120888 0.038995087 -0.38593423 0.23852047 -0.14741376
0.014097231 0.079999998 0.027925111 -0.38593423 0.23852047 -0.14741376
0.010832972 0.079999998 0.026759347 -0.38593423 0.23852047 -0.14741376
0.0076140529 0.079999998 0.025610037 -0.38593423 0.23852047 -0.14741376
0.0044394913 0.079999998 0.024476822 -0.38593423 0.23852047 -0.14741376
0.0013083322 0.079999998 0.023359358 -0.38593423 0.23852047 -0.14741376
0 0.079265341 0.023043647 -0.38593423 0.23852047 -0.14741376
0 0.077992029 0.023305798 -0.38593423 0.23852047 -0.14741376
0 0.076715603 0.023568846 -0.38593423 0.23852047 -0.14741376
0 0.075436048 0.023832798 -0.38593423 0.23852047 -0.14741376
0 0.074153326 0.024097662 -0.38593423 0.23852047 -0.14741376
0 0.072867401 0.024363445 -0.38593423 0.23852047 -0.14741376
0 0.071578249 0.024630155 -0.38593423 0.23852047 -0.14741376
0 0.070285842 0.024897799 -0.38593423 0.23852047 -0.14741376
0 0.068990149 0.025166381 -0.38593423 0.23852047 -0.14741376
0 0.067691132 0.025435913 -0.38593423 0.23852047 -0.14741376
0 0.066388763 0.025706401 -0.38593423 0.23852047 -0.14741376
0 0.065083012 0.025977854 -0.38593423 0.23852047 -0.14741376
0.035684064 0.047616504 0.042307515 -0.38593423 0.23852047 -0.14741376
0 0.062461231 0.026523676 -0.38593423 0.23852047 -0.14741376
0.033833094 0.045595452 0.042070419 -0.38593423 0.23852047 -0.14741376
5.5511151e-17 0.059825532 0.027073445 -0.38593423 0.23852047 -0.14741376
0 0.058502384 0.02734983 -0.38593423 0.23852047 -0.14741376
0 0.057175655 0.027627224 -0.38593423 0.23852047 -0.14741376
5.5511151e-17 0.055845313 0.027905637 -0.38593423 0.23852047 -0.14741376
0 0.054511331 0.028185075 -0.38593423 0.23852047 -0.14741376
0 0.053173665 0.02846555 -0.38593423 0.23852047 -0.14741376
0 0.051832285 0.028747067 -0.38593423 0.23852047 -0.14741376
0 0.050487157 0.029029636 -0.38593423 0.23852047 -0.14741376
0 0.049138248 0.029313264 -0.38593423 0.23852047 -0.14741376
0 0.047785517 0.02959796 -0.38593423 0.23852047 -0.14741376
0 0.046428934 0.029883735 -0.38593423 0.23852047 -0.14741376
0 0.045068458 0.030170593 -0.38593423 0.23852047 -0.14741376
0 0.043704059 0.030458549 -0.38593423 0.23852047 -0.14741376
0 0.042335693 0.030747605 -0.38593423 0.23852047 -0.14741376
0 0.040963329 0.031037776 -0.38593423 0.23852047 -0.14741376
0 0.039586931 0.031329066 -0.38593423 0.23852047 -0.14741376
0 0.038206454 0.03162149 -0.38593423 0.23852047 -0.14741376
5.5511151e-17 0.036821865 0.03191505 -0.38593423 0.23852047 -0.14741376
5.5511151e-17 0.035433128 0.032209761 -0.38593423 0.23852047 -0.14741376
0.016075719 0.02552277 0.039999999 -0.38593423 0.23852047 -0.14741376
0 0.032643043 0.032802667 -0.38593423 0.23852047 -0.14741376
5.5511151e-17 0.03124162 0.033100881 -0.38593423 0.23852047 -0.14741376
0 0.029835889 0.033400282 -0.38593423 0.23852047 -0.14741376
0.013422689 0.021118775 0.039999999 -0.38593423 0.23852047 -0.14741376
0 0.027011346 0.034002684 -0.38593423 0.23852047 -0.14741376
0 0.025592454 0.034305707 -0.38593423 0.23852047 -0.14741376
5.5511151e-17 0.024169091 0.034609955 -0.38593423 0.23852047 -0.14741376
0 0.022741219 0.03491544 -0.38593423 0.23852047 -0.14741376
0 0.021308793 0.035222173 -0.38593423 0.23852047 -0.14741376
0 0.019871771 0.035530165 -0.38593423 0.23852047 -0.14741376
5.5511151e-17 0.018430114 0.035839424 -0.38593423 0.23852047 -0.14741376
5.5511151e-17 0.016983775 0.03614996 -0.38593423 0.23852047 -0.14741376
0 0.015532712 0.036461785 -0.38593423 0.23852047 -0.14741376
0 0.014076879 0.036774915 -0.38593423 0.23852047 -0.14741376
5.5511151e-17 0.012616236 0.037089352 -0.38593423 0.23852047 -0.14741376
5.5511151e-17 0.011150734 0.037405111 -0.38593423 0.23852047 -0.14741376
0 0.0096803289 0.037722204 -0.38593423 0.23852047 -0.14741376
0.0040774606 0.0057716542 0.039999999 -0.38593423 0.23852047 -0.14741376
5.5511151e-17 0.0067246296 0.038360436 -0.38593423 0.23852047 -0.14741376
0.002734174 0.0035865463 0.039999999 -0.38593423 0.23852047 -0.14741376
0 0.0037487647 0.039004136 -0.38593423 0.23852047 -0.14741376
5.5511151e-17 0.0022531527 0.039328065 -0.38593423 0.23852047 -0.14741376
0.00071506802 0.00031181451 0.039999999 -0.38593423 0.23852047 -0.14741376
0.038085226 0.079999998 0.035117839 -0.38593423 0.23852047 -0.14741376
0.034479801 0.079999998 0.033838458 -0.38593423 0.23852047 -0.14741376
0.030927319 0.079999998 0.032578129 -0.38593423 0.23852047 -0.14741376
0.027426569 0.079999998 0.031336416 -0.38593423 0.23852047 -0.14741376
0.023976382 0.079999998 0.0301129 -0.38593423 0.23852047 -0.14741376
0.039999999 0.072425365 0.037332363 -0.38593423 0.23852047 -0.14741376
0.017223187 0.079999998 0.027718833 -0.38593423 0.23852047 -0.14741376
0.013918009 0.079999998 0.026547499 -0.38593423 0.23852047 -0.14741376
0.010659048 0.079999998 0.025392801 -0.38593423 0.23852047 -0.14741376
0.0074452977 0.079999998 0.02425437 -0.38593423 0.23852047 -0.14741376
0.0042757774 0.079999998 0.02313186 -0.38593423 0.23852047 -0.14741376
0.0011495374 0.079999998 0.022024926 -0.38593423 0.23852047 -0.14741376
0 0.079201475 0.02178126 -0.38593423 0.23852047 -0.14741376
0 0.077929109 0.02204166 -0.38593423 0.23852047 -0.14741376
0 0.076653644 0.022302942 -0.38593423 0.23852047 -0.14741376
0 0.075375043 0.022565117 -0.38593423 0.23852047 -0.14741376
0 0.074093282 0.022828188 -0.38593423 0.23852047 -0.14741376
0 0.072808325 0.023092166 -0.38593423 0.23852047 -0.14741376
0 0.07152015 0.023357054 -0.38593423 0.23852047 -0.14741376
0 0.070228718 0.023622861 -0.38593423 0.23852047 -0.14741376
0 0.068934001 0.023889596 -0.38593423 0.23852047 -0.14741376
0 0.067635968 0.024157263 -0.38593423 0.23852047 -0.14741376
0 0.06633459 0.024425872 -0.38593423 0.23852047 -0.14741376
0 0.065029837 0.02469543 -0.38593423 0.23852047 -0.14741376
0 0.063721672 0.024965944 -0.38593423 0.23852047 -0.14741376
0.034772027 0.046542812 0.040793005 -0.38593423 0.23852047 -0.14741376
0 0.061094984 0.025509872 -0.38593423 0.23852047 -0.14741376
0.032751504 0.04460765 0.04048131 -0.38593423 0.23852047 -0.14741376
0 0.058454268 0.026057716 -0.38593423 0.23852047 -0.14741376
0 0.057128567 0.026333127 -0.38593423 0.23852047 -0.14741376
5.5511151e-17 0.055799261 0.02660954 -0.38593423 0.23852047 -0.14741376
0 0.054466315 0.026886966 -0.38593423 0.23852047 -0.14741376
0.028372841 0.039500263 0.039999999 -0.38593423 0.23852047 -0.14741376
0 0.051789362 0.027444882 -0.38593423 0.23852047 -0.14741376
0 0.050445292 0.027725389 -0.38593423 0.23852047 -0.14741376
0 0.049097441 0.028006941 -0.38593423 0.23852047 -0.14741376
0 0.047745779 0.028289545 -0.38593423 0.23852047 -0.14741376
0 0.046390269 0.028573209 -0.38593423 0.23852047 -0.14741376
0.024394728 0.032800481 0.039999999 -0.38593423 0.23852047 -0.14741376
0 0.043667555 0.029143756 -0.38593423 0.23852047 -0.14741376
0 0.042300284 0.029430656 -0.38593423 0.23852047 -0.14741376
0.022400891 0.02946016 0.039999999 -0.38593423 0.23852047 -0.14741376
0 0.039553721 0.030007752 -0.38593423 0.23852047 -0.14741376
0 0.038174354 0.030297967 -0.38593423 0.23852047 -0.14741376
0 0.036790885 0.030589303 -0.38593423 0.23852047 -0.14741376
0 0.03540327 0.030881772 -0.38593423 0.23852047 -0.14741376
0 0.034011472 0.031175382 -0.38593423 0.23852047 -0.14741376
0.018402793 0.022797128 0.039999999 -0.38593423 0.23852047 -0.14741376
0 0.031215174 0.031766064 -0.38593423 0.23852047 -0.14741376
0 0.029810594 0.032063156 -0.38593423 0.23852047 -0.14741376
0 0.028401675 0.032361425 -0.38593423 0.23852047 -0.14741376
0 0.026988374 0.032660887 -0.38593423 0.23852047 -0.14741376
0 0.025570655 0.032961544 -0.38593423 0.23852047 -0.14741376
5.5511151e-17 0.024148472 0.033263411 -0.38593423 0.23852047 -0.14741376
0 0.022721786 0.033566497 -0.38593423 0.23852047 -0.14741376
5.5511151e-17 0.021290556 0.033870813 -0.38593423 0.23852047 -0.14741376
0 0.019854737 0.034176365 -0.38593423 0.23852047 -0.14741376
0 0.018414289 0.034483172 -0.38593423 0.23852047 -0.14741376
5.5511151e-17 0.016969169 0.034791235 -0.38593423 0.23852047 -0.14741376
0 0.015519331 0.035100568 -0.38593423 0.23852047 -0.14741376
0.009686755 0.0084310072 0.039999999 -0.38593423 0.23852047 -0.14741376
0 0.012605332 0.035723094 -0.38593423 0.23852047 -0.14741376
0 0.01114108 0.036036305 -0.38593423 0.23852047 -0.14741376
0 0.0096719349 0.036350828 -0.38593423 0.23852047 -0.14741376
5.5511151e-17 0.0081978496 0.036666676 -0.38593423 0.23852047 -0.14741376
0 0.0067187785 0.036983863 -0.38593423 0.23852047 -0.14741376
0 0.0052346746 0.037302397 -0.38593423 0.23852047 -0.14741376
0 0.0037454916 0.037622288 -0.38593423 0.23852047 -0.14741376
0 0.002251182 0.037943553 -0.38593423 0.23852047 -0.14741376
0 0.00075169769 0.038266197 -0.38593423 0.23852047 -0.14741376
0.037865553 0.079999998 0.033661637 -0.38593423 0.23852047 -0.14741376
0.034266442 0.079999998 0.032394677 -0.38593423 0.23852047 -0.14741376
0.030720111 0.079999998 0.031146549 -0.38593423 0.23852047 -0.14741376
0.027225357 0.079999998 0.029916827 -0.38593423 0.23852047 -0.14741376
0.023781013 0.079999998 0.028705094 -0.38593423 0.23852047 -0.14741376
0.020385949 0.079999998 0.027510948 -0.38593423 0.23852047 -0.14741376
0.039999999 0.070967689 0.036233936 -0.38593423 0.23852047 -0.14741376
0.013739303 0.079999998 0.02517386 -0.38593423 0.23852047 -0.14741376
0.010485623 0.079999998 0.024030169 -0.38593423 0.23852047 -0.14741376
0.0072770226 0.079999998 0.022902569 -0.38593423 0.23852047 -0.14741376
0.0041125272 0.079999998 0.021790707 -0.38593423 0.23852047 -0.14741376
0.00099118974 0.079999998 0.020694248 -0.38593423 0.23852047 -0.14741376
0 0.079137735 0.020521397 -0.38593423 0.23852047 -0.14741376
0 0.077866316 0.020780053 -0.38593423 0.23852047 -0.14741376
0 0.076591805 0.021039577 -0.38593423 0.23852047 -0.14741376
0 0.075314164 0.021299979 -0.38593423 0.23852047 -0.14741376
0 0.074033357 0.021561263 -0.38593423 0.23852047 -0.14741376
0 0.072749369 0.02182344 -0.38593423 0.23852047 -0.14741376
0 0.071462162 0.022086514 -0.38593423 0.23852047 -0.14741376
0 0.070171706 0.022350492 -0.38593423 0.23852047 -0.14741376
0 0.068877973 0.022615382 -0.38593423 0.23852047 -0.14741376
0 0.067580923 0.022881193 -0.38593423 0.23852047 -0.14741376
0 0.066280536 0.023147929 -0.38593423 0.23852047 -0.14741376
0 0.064976774 0.023415601 -0.38593423 0.23852047 -0.14741376
0 0.063669607 0.023684213 -0.38593423 0.23852047 -0.14741376
0 0.062359005 0.023953775 -0.38593423 0.23852047 -0.14741376
0 0.061044931 0.024224292 -0.38593423 0.23852047 -0.14741376
0 0.05972736 0.024495775 -0.38593423 0.23852047 -0.14741376
0.034140974 0.042472772 0.039999999 -0.38593423 0.23852047 -0.14741376
0 0.057081576 0.025041664 -0.38593423 0.23852047 -0.14741376
0 0.055753298 0.025316088 -0.38593423 0.23852047 -0.14741376
0 0.054421388 0.025591504 -0.38593423 0.23852047 -0.14741376
0 0.053085811 0.025867926 -0.38593423 0.23852047 -0.14741376
0 0.051746529 0.02614536 -0.38593423 0.23852047 -0.14741376
0 0.050403509 0.026423814 -0.38593423 0.23852047 -0.14741376
0 0.04905672 0.026703294 -0.38593423 0.23852047 -0.14741376
0 0.04770612 0.026983814 -0.38593423 0.23852047 -0.14741376
0 0.046351679 0.027265377 -0.38593423 0.23852047 -0.14741376
5.5511151e-17 0.044993363 0.027547993 -0.38593423 0.23852047 -0.14741376
5.5511151e-17 0.043631129 0.027831672 -0.38593423 0.23852047 -0.14741376
0 0.042264946 0.028116422 -0.38593423 0.23852047 -0.14741376
5.5511151e-17 0.040894777 0.02840225 -0.38593423 0.23852047 -0.14741376
5.5511151e-17 0.03952058 0.028689168 -0.38593423 0.23852047 -0.14741376
0.024117351 0.025620526 0.039999999 -0.38593423 0.23852047 -0.14741376
0 0.036759965 0.029266302 -0.38593423 0.23852047 -0.14741376
0 0.035373472 0.029556537 -0.38593423 0.23852047 -0.14741376
0 0.033982802 0.029847898 -0.38593423 0.23852047 -0.14741376
0 0.032587919 0.030140391 -0.38593423 0.23852047 -0.14741376
0 0.031188782 0.030434027 -0.38593423 0.23852047 -0.14741376
0 0.029785352 0.030728817 -0.38593423 0.23852047 -0.14741376
0.019412003 0.017807666 0.039999999 -0.38593423 0.23852047 -0.14741376
5.5511151e-17 0.02696545 0.031321891 -0.38593423 0.23852047 -0.14741376
5.5511151e-17 0.025548901 0.031620193 -0.38593423 0.23852047 -0.14741376
5.5511151e-17 0.024127895 0.031919688 -0.38593423 0.23852047 -0.14741376
5.5511151e-17 0.022702394 0.032220382 -0.38593423 0.23852047 -0.14741376
0 0.021272356 0.032522287 -0.38593423 0.23852047 -0.14741376
0 0.019837739 0.032825414 -0.38593423 0.23852047 -0.14741376
0 0.018398499 0.033129774 -0.38593423 0.23852047 -0.14741376
0 0.016954593 0.033435374 -0.38593423 0.23852047 -0.14741376
0 0.015505979 0.033742227 -0.38593423 0.23852047 -0.14741376
5.5511151e-17 0.014052613 0.034050338 -0.38593423 0.23852047 -0.14741376
0 0.012594451 0.034359727 -0.38593423 0.23852047 -0.14741376
0 0.011131448 0.034670398 -0.38593423 0.23852047 -0.14741376
0 0.0096635586 0.034982365 -0.38593423 0.23852047 -0.14741376
0 0.008190738 0.035295635 -0.38593423 0.23852047 -0.14741376
0 0.0067129396 0.035610221 -0.38593423 0.23852047 -0.14741376
0 0.0052301181 0.035926137 -0.38593423 0.23852047 -0.14741376
0 0.0037422257 0.036243394 -0.38593423 0.23852047 -0.14741376
5.5511151e-17 0.0022492157 0.036561999 -0.38593423 0.23852047 -0.14741376
0.0012190467 2.7755576e-17 0.037464101 -0.38593423 0.23852047 -0.14741376
0.037646536 0.079999998 0.032209799 -0.38593423 0.23852047 -0.14741376
0.034053717 0.079999998 0.030955192 -0.38593423 0.23852047 -0.14741376
0.030513518 0.079999998 0.029719202 -0.38593423 0.23852047 -0.14741376
0.027024737 0.079999998 0.028501408 -0.38593423 0.23852047 -0.14741376
0.023586214 0.079999998 0.027301399 -0.38593423 0.23852047 -0.14741376
0.020196825 0.079999998 0.026118776 -0.38593423 0.23852047 -0.14741376
0.016855476 0.079999998 0.024953155 -0.38593423 0.23852047 -0.14741376
0.013561109 0.079999998 0.023804158 -0.38593423 0.23852047 -0.14741376
0.010312691 0.079999998 0.022671422 -0.38593423 0.23852047 -0.14741376
0.0071092243 0.079999998 0.021554593 -0.38593423 0.23852047 -0.14741376
0.0039497367 0.079999998 0.02045333 -0.38593423 0.23852047 -0.14741376
0.00083328527 0.079999998 0.019367296 -0.38593423 0.23852047 -0.14741376
0 0.079074122 0.019264035 -0.38593423 0.23852047 -0.14741376
0 0.077803656 0.019520951 -0.38593423 0.23852047 -0.14741376
0 0.076530091 0.019778725 -0.38593423 0.23852047 -0.14741376
0 0.075253397 0.020037359 -0.38593423 0.23852047 -0.14741376
0 0.073973559 0.020296864 -0.38593423 0.23852047 -0.14741376
0 0.072690532 0.020557245 -0.38593423 0.23852047 -0.14741376
0 0.071404293 0.020818511 -0.38593423 0.23852047 -0.14741376
0 0.070114806 0.021080667 -0.38593423 0.23852047 -0.14741376
0 0.068822049 0.021343721 -0.38593423 0.23852047 -0.14741376
0 0.067525983 0.02160768 -0.38593423 0.23852047 -0.14741376
0 0.066226587 0.02187255 -0.38593423 0.23852047 -0.14741376
0 0.064923815 0.02213834 -0.38593423 0.23852047 -0.14741376
0 0.063617647 0.022405058 -0.38593423 0.23852047 -0.14741376
0 0.062308047 0.022672711 -0.38593423 0.23852047 -0.14741376
0 0.060994983 0.022941304 -0.38593423 0.23852047 -0.14741376
0 0.05967842 0.023210846 -0.38593423 0.23852047 -0.14741376
5.5511151e-17 0.05835833 0.023481347 -0.38593423 0.23852047 -0.14741376
0.036633004 0.03980799 0.039999999 -0.38593423 0.23852047 -0.14741376
0 0.055707432 0.024025248 -0.38593423 0.23852047 -0.14741376
0 0.054376557 0.024298666 -0.38593423 0.23852047 -0.14741376
0 0.053042017 0.024573073 -0.38593423 0.23852047 -0.14741376
0 0.051703781 0.024848476 -0.38593423 0.23852047 -0.14741376
5.5511151e-17 0.050361812 0.025124881 -0.38593423 0.23852047 -0.14741376
0 0.049016077 0.025402302 -0.38593423 0.23852047 -0.14741376
0.031926442 0.031878136 0.039999999 -0.38593423 0.23852047 -0.14741376
0 0.04631317 0.025960211 -0.38593423 0.23852047 -0.14741376
0 0.044955928 0.026240718 -0.38593423 0.23852047 -0.14741376
0 0.043594778 0.026522269 -0.38593423 0.23852047 -0.14741376
0 0.042229678 0.026804876 -0.38593423 0.23852047 -0.14741376
0 0.040860601 0.027088547 -0.38593423 0.23852047 -0.14741376
0.027880097 0.025109258 0.039999999 -0.38593423 0.23852047 -0.14741376
0 0.038110357 0.027659111 -0.38593423 0.23852047 -0.14741376
0 0.036729112 0.027946021 -0.38593423 0.23852047 -0.14741376
