# .PCD v0.7 - Point Cloud Data file format
VERSION 0.7
FIELDS x y z vp_x vp_y vp_z
SIZE 4 4 4 4 4 4
TYPE F F F F F F
COUNT 1 1 1 1 1 1
WIDTH 687
HEIGHT 1
VIEWPOINT 0 0 0 1 0 0 0
POINTS 687
DATA ascii
0.010849505 0.042229079 0.053010713 -0.38593423 -0.23852047 0.14741376
0.012198266 0.04160507 0.052841675 -0.38593423 -0.23852047 0.14741376
0.013666877 0.041060068 0.052645098 -0.38593423 -0.23852047 0.14741376
0.015258582 0.040594924 0.052420355 -0.38593423 -0.23852047 0.14741376
0.017014062 0.040236339 0.052157965 -0.38593423 -0.23852047 0.14741376
0.019001471 0.040029299 0.051842034 -0.38593423 -0.23852047 0.14741376
0.021348065 0.040058158 0.051442839 -0.38593423 -0.23852047 0.14741376
0.024325192 0.040503312 0.050896954 -0.38593423 -0.23852047 0.14741376
0.02939013 0.042342994 0.049862809 -0.38593423 -0.23852047 0.14741376
0.0030221473 0.070546031 0.050363824 -0.38593423 -0.23852047 0.14741376
0.0015836996 0.067733206 0.050877094 -0.38593423 -0.23852047 0.14741376
0.00078496296 0.065442458 0.05122989 -0.38593423 -0.23852047 0.14741376
0.00032510175 0.063430279 0.051497683 -0.38593423 -0.23852047 0.14741376
8.6804139e-05 0.06160102 0.051709961 -0.38593423 -0.23852047 0.14741376
5.3281965e-06 0.059901726 0.051883023 -0.38593423 -0.23852047 0.14741376
9.0131791e-05 0.058337606 0.05201472 -0.38593423 -0.23852047 0.14741376
0.00027783663 0.056858025 0.052120887 -0.38593423 -0.23852047 0.14741376
0.0005399551 0.055439964 0.052208666 -0.38593423 -0.23852047 0.14741376
0.00090986426 0.054107696 0.052269943 -0.38593423 -0.23852047 0.14741376
0.0013566792 0.05283659 0.05231243 -0.38593423 -0.23852047 0.14741376
0.0018486489 0.051601902 0.052344006 -0.38593423 -0.23852047 0.14741376
0.0024563945 0.050455574 0.052347437 -0.38593423 -0.23852047 0.14741376
0.0031009598 0.04933773 0.052342162 -0.38593423 -0.23852047 0.14741376
0.0038207364 0.048276141 0.052318852 -0.38593423 -0.23852047 0.14741376
0.0046124491 0.047267463 0.052278399 -0.38593423 -0.23852047 0.14741376
0.005444549 0.046287842 0.052228566 -0.38593423 -0.23852047 0.14741376
0.0063867373 0.045387205 0.052152473 -0.38593423 -0.23852047 0.14741376
0.0073704813 0.044514891 0.052066863 -0.38593423 -0.23852047 0.14741376
0.0084398631 0.043701936 0.051961124 -0.38593423 -0.23852047 0.14741376
0.0095997369 0.042950749 0.051834177 -0.38593423 -0.23852047 0.14741376
0.010823227 0.042241234 0.051692616 -0.38593423 -0.23852047 0.14741376
0.012173029 0.041616745 0.051521417 -0.38593423 -0.23852047 0.14741376
0.013639744 0.04106921 0.051322985 -0.38593423 -0.23852047 0.14741376
0.01522929 0.040601369 0.051096037 -0.38593423 -0.23852047 0.14741376
0.016982164 0.040239811 0.050831012 -0.38593423 -0.23852047 0.14741376
0.018966204 0.040029299 0.050511859 -0.38593423 -0.23852047 0.14741376
0.021308083 0.040053807 0.050108589 -0.38593423 -0.23852047 0.14741376
0.024277879 0.0404929 0.049557183 -0.38593423 -0.23852047 0.14741376
0.029279312 0.042288676 0.048524044 -0.38593423 -0.23852047 0.14741376
0.0031132835 0.070680447 0.048983086 -0.38593423 -0.23852047 0.14741376
0.001618666 0.067820966 0.049518555 -0.38593423 -0.23852047 0.14741376
0.00080569944 0.065517142 0.049880661 -0.38593423 -0.23852047 0.14741376
0.00033576656 0.063495331 0.050155494 -0.38593423 -0.23852047 0.14741376
8.9922549e-05 0.061658535 0.050373379 -0.38593423 -0.23852047 0.14741376
2.5439431e-06 0.059953079 0.050551061 -0.38593423 -0.23852047 0.14741376
8.7427565e-05 0.058387481 0.050685275 -0.38593423 -0.23852047 0.14741376
0.00027048987 0.056902837 0.050794773 -0.38593423 -0.23852047 0.14741376
0.00052873907 0.055480361 0.050885417 -0.38593423 -0.23852047 0.14741376
0.00089897722 0.054146908 0.050948117 -0.38593423 -0.23852047 0.14741376
0.0013425832 0.052871969 0.050992634 -0.38593423 -0.23852047 0.14741376
0.0018349492 0.051636185 0.051025171 -0.38593423 -0.23852047 0.14741376
0.0024400055 0.050486486 0.051029924 -0.38593423 -0.23852047 0.14741376
0.0030821369 0.049365494 0.051025767 -0.38593423 -0.23852047 0.14741376
0.003802513 0.048303019 0.051002562 -0.38593423 -0.23852047 0.14741376
0.0045920741 0.04729145 0.050962638 -0.38593423 -0.23852047 0.14741376
0.0054248553 0.046311028 0.050912488 -0.38593423 -0.23852047 0.14741376
0.0063651013 0.045407701 0.050836351 -0.38593423 -0.23852047 0.14741376
0.0073469696 0.044532765 0.050750531 -0.38593423 -0.23852047 0.14741376
0.0084172003 0.043719161 0.050643615 -0.38593423 -0.23852047 0.14741376
0.0095752859 0.042965461 0.050515834 -0.38593423 -0.23852047 0.14741376
0.010796926 0.042253405 0.050373238 -0.38593423 -0.23852047 0.14741376
0.012147767 0.041628432 0.05019987 -0.38593423 -0.23852047 0.14741376
0.013612586 0.041078363 0.049999598 -0.38593423 -0.23852047 0.14741376
0.01519997 0.040607825 0.049770463 -0.38593423 -0.23852047 0.14741376
0.016950237 0.040243283 0.04950282 -0.38593423 -0.23852047 0.14741376
0.018930905 0.040029299 0.049180474 -0.38593423 -0.23852047 0.14741376
0.021268064 0.040049452 0.048773155 -0.38593423 -0.23852047 0.14741376
0.024230525 0.040482476 0.048216268 -0.38593423 -0.23852047 0.14741376
0.029182708 0.04224398 0.047181107 -0.38593423 -0.23852047 0.14741376
0.0032045713 0.070815086 0.047600057 -0.38593423 -0.23852047 0.14741376
0.0016536802 0.067908846 0.048158158 -0.38593423 -0.23852047 0.14741376
0.0008264627 0.065591924 0.048529688 -0.38593423 -0.23852047 0.14741376
0.00034644452 0.063560456 0.048811648 -0.38593423 -0.23852047 0.14741376
9.3044684e-05 0.061716121 0.049035199 -0.38593423 -0.23852047 0.14741376
2.6485915e-07 0.060004883 0.049217425 -0.38593423 -0.23852047 0.14741376
8.4720217e-05 0.058437414 0.049354296 -0.38593423 -0.23852047 0.14741376
0.00026313483 0.056947701 0.049467165 -0.38593423 -0.23852047 0.14741376
0.00051751063 0.055520803 0.0495607 -0.38593423 -0.23852047 0.14741376
0.00088807812 0.054186162 0.04962483 -0.38593423 -0.23852047 0.14741376
0.0013284719 0.052907389 0.049671404 -0.38593423 -0.23852047 0.14741376
0.0018212652 0.051670533 0.049704898 -0.38593423 -0.23852047 0.14741376
0.0024235991 0.050517432 0.049711008 -0.38593423 -0.23852047 0.14741376
0.0030632941 0.049393285 0.04970799 -0.38593423 -0.23852047 0.14741376
0.0037842705 0.048329923 0.04968489 -0.38593423 -0.23852047 0.14741376
0.0045716781 0.047315463 0.049645517 -0.38593423 -0.23852047 0.14741376
0.005405141 0.046334237 0.049595051 -0.38593423 -0.23852047 0.14741376
0.0063434429 0.045428216 0.049518883 -0.38593423 -0.23852047 0.14741376
0.0073234346 0.044550657 0.04943287 -0.38593423 -0.23852047 0.14741376
0.0083945142 0.043736409 0.049324777 -0.38593423 -0.23852047 0.14741376
0.0095508108 0.042980187 0.049196176 -0.38593423 -0.23852047 0.14741376
0.010770597 0.042265583 0.049052559 -0.38593423 -0.23852047 0.14741376
0.01212248 0.041640133 0.048877016 -0.38593423 -0.23852047 0.14741376
0.013585401 0.041087523 0.048674915 -0.38593423 -0.23852047 0.14741376
0.015170621 0.040614285 0.048443615 -0.38593423 -0.23852047 0.14741376
0.016918277 0.040246759 0.048173368 -0.38593423 -0.23852047 0.14741376
0.018898526 0.040031329 0.047847122 -0.38593423 -0.23852047 0.14741376
0.021228008 0.040045097 0.047436513 -0.38593423 -0.23852047 0.14741376
0.024183132 0.040472046 0.046874195 -0.38593423 -0.23852047 0.14741376
0.029086042 0.042199258 0.045837324 -0.38593423 -0.23852047 0.14741376
0.0032960121 0.070949949 0.046214711 -0.38593423 -0.23852047 0.14741376
0.0016887429 0.067996852 0.046795879 -0.38593423 -0.23852047 0.14741376
0.00084725313 0.065666802 0.04717695 -0.38593423 -0.23852047 0.14741376
0.00035713587 0.063625671 0.047466118 -0.38593423 -0.23852047 0.14741376
9.6170588e-05 0.061773777 0.047695406 -0.38593423 -0.23852047 0.14741376
3.2999831e-06 0.060060862 0.047880847 -0.38593423 -0.23852047 0.14741376
8.2009705e-05 0.058487408 0.04802176 -0.38593423 -0.23852047 0.14741376
0.00025577139 0.056992613 0.048138041 -0.38593423 -0.23852047 0.14741376
0.00050626957 0.055561289 0.048234504 -0.38593423 -0.23852047 0.14741376
0.00087716687 0.05422546 0.048300069 -0.38593423 -0.23852047 0.14741376
0.0013143453 0.052942842 0.048348729 -0.38593423 -0.23852047 0.14741376
0.0018075662 0.051704913 0.04838318 -0.38593423 -0.23852047 0.14741376
0.002407175 0.050548412 0.048390668 -0.38593423 -0.23852047 0.14741376
0.0030444313 0.049421106 0.048388816 -0.38593423 -0.23852047 0.14741376
0.0037660087 0.048356861 0.048365816 -0.38593423 -0.23852047 0.14741376
0.0045512607 0.047339503 0.048327014 -0.38593423 -0.23852047 0.14741376
0.0053854063 0.046357471 0.048276231 -0.38593423 -0.23852047 0.14741376
0.0063217627 0.04544875 0.048200049 -0.38593423 -0.23852047 0.14741376
0.0072998754 0.044568568 0.048113856 -0.38593423 -0.23852047 0.14741376
0.0083718058 0.043753672 0.048004586 -0.38593423 -0.23852047 0.14741376
0.0095263114 0.042994928 0.047875181 -0.38593423 -0.23852047 0.14741376
0.010744243 0.042277776 0.047730558 -0.38593423 -0.23852047 0.14741376
0.012097168 0.041651841 0.047552835 -0.38593423 -0.23852047 0.14741376
0.013558188 0.041096691 0.047348924 -0.38593423 -0.23852047 0.14741376
0.015141243 0.040620748 0.047115467 -0.38593423 -0.23852047 0.14741376
0.016886288 0.040250242 0.046842642 -0.38593423 -0.23852047 0.14741376
0.018867988 0.040034652 0.04651203 -0.38593423 -0.23852047 0.14741376
0.021187918 0.040040735 0.046098646 -0.38593423 -0.23852047 0.14741376
0.024135696 0.040461607 0.045530941 -0.38593423 -0.23852047 0.14741376
0.028989315 0.042154506 0.044492677 -0.38593423 -0.23852047 0.14741376
0.0033876076 0.071085043 0.044827018 -0.38593423 -0.23852047 0.14741376
0.0017238547 0.068084978 0.045431692 -0.38593423 -0.23852047 0.14741376
0.00086807099 0.065741785 0.045822423 -0.38593423 -0.23852047 0.14741376
0.00036784072 0.063690968 0.046118889 -0.38593423 -0.23852047 0.14741376
9.930032e-05 0.0618315 0.046353973 -0.38593423 -0.23852047 0.14741376
6.3388056e-06 0.060116913 0.046542641 -0.38593423 -0.23852047 0.14741376
7.9295976e-05 0.058537461 0.046687644 -0.38593423 -0.23852047 0.14741376
0.00024839939 0.057037581 0.046807375 -0.38593423 -0.23852047 0.14741376
0.00049501582 0.05560182 0.046906803 -0.38593423 -0.23852047 0.14741376
0.00086624327 0.054264802 0.046973806 -0.38593423 -0.23852047 0.14741376
0.0013002028 0.052978341 0.047024578 -0.38593423 -0.23852047 0.14741376
0.001793852 0.051739335 0.047059994 -0.38593423 -0.23852047 0.14741376
0.002390733 0.050579425 0.047068883 -0.38593423 -0.23852047 0.14741376
0.0030255483 0.049448956 0.04706822 -0.38593423 -0.23852047 0.14741376
0.0037477273 0.048383821 0.047045324 -0.38593423 -0.23852047 0.14741376
0.0045308215 0.047363564 0.04700711 -0.38593423 -0.23852047 0.14741376
0.0053656502 0.046380728 0.04695601 -0.38593423 -0.23852047 0.14741376
0.0063000591 0.04546931 0.046879832 -0.38593423 -0.23852047 0.14741376
0.0072762915 0.044586495 0.046793479 -0.38593423 -0.23852047 0.14741376
0.0083490731 0.043770954 0.046683025 -0.38593423 -0.23852047 0.14741376
0.0095017869 0.043009683 0.046552829 -0.38593423 -0.23852047 0.14741376
0.010717862 0.042289983 0.046407212 -0.38593423 -0.23852047 0.14741376
0.01207183 0.041663565 0.04622731 -0.38593423 -0.23852047 0.14741376
0.013530949 0.04110587 0.046021599 -0.38593423 -0.23852047 0.14741376
0.015111837 0.040627223 0.045786005 -0.38593423 -0.23852047 0.14741376
0.016854269 0.040253725 0.045510612 -0.38593423 -0.23852047 0.14741376
0.018837422 0.040037978 0.045175627 -0.38593423 -0.23852047 0.14741376
0.021147789 0.040036369 0.044759534 -0.38593423 -0.23852047 0.14741376
0.024088219 0.040451158 0.044186488 -0.38593423 -0.23852047 0.14741376
0.028892525 0.042109728 0.04314715 -0.38593423 -0.23852047 0.14741376
0.0034793597 0.071220368 0.043436952 -0.38593423 -0.23852047 0.14741376
0.0017590161 0.06817323 0.044065576 -0.38593423 -0.23852047 0.14741376
0.00088891672 0.065816857 0.044466089 -0.38593423 -0.23852047 0.14741376
0.00037855929 0.063756347 0.044769932 -0.38593423 -0.23852047 0.14741376
0.00010243391 0.061889298 0.04501088 -0.38593423 -0.23852047 0.14741376
9.3813751e-06 0.060173031 0.045202784 -0.38593423 -0.23852047 0.14741376
7.6578988e-05 0.058587573 0.04535193 -0.38593423 -0.23852047 0.14741376
0.00024101879 0.057082601 0.045475151 -0.38593423 -0.23852047 0.14741376
0.00048374914 0.055642396 0.045577578 -0.38593423 -0.23852047 0.14741376
0.00085530715 0.05430419 0.045646019 -0.38593423 -0.23852047 0.14741376
0.0012860444 0.053013876 0.045698937 -0.38593423 -0.23852047 0.14741376
0.0017801223 0.051773794 0.045735322 -0.38593423 -0.23852047 0.14741376
0.0023742726 0.050610472 0.045745637 -0.38593423 -0.23852047 0.14741376
0.0030066445 0.049476836 0.045746181 -0.38593423 -0.23852047 0.14741376
0.0037294258 0.048410814 0.04572339 -0.38593423 -0.23852047 0.14741376
0.0045103603 0.047387652 0.045685783 -0.38593423 -0.23852047 0.14741376
0.0053458731 0.046404012 0.045634367 -0.38593423 -0.23852047 0.14741376
0.0062783328 0.045489889 0.045558207 -0.38593423 -0.23852047 0.14741376
0.0072526829 0.044604443 0.045471709 -0.38593423 -0.23852047 0.14741376
0.0083263163 0.043788254 0.04536007 -0.38593423 -0.23852047 0.14741376
0.0094772363 0.043024454 0.0452291 -0.38593423 -0.23852047 0.14741376
0.010691454 0.042302199 0.04508251 -0.38593423 -0.23852047 0.14741376
0.012046467 0.041675299 0.044900414 -0.38593423 -0.23852047 0.14741376
0.013503682 0.041115057 0.044692922 -0.38593423 -0.23852047 0.14741376
0.0150824 0.040633701 0.044455204 -0.38593423 -0.23852047 0.14741376
0.016822217 0.040257212 0.044177268 -0.38593423 -0.23852047 0.14741376
0.018806824 0.040041305 0.043837894 -0.38593423 -0.23852047 0.14741376
0.021107621 0.040031999 0.043419152 -0.38593423 -0.23852047 0.14741376
0.024040697 0.040440697 0.042840812 -0.38593423 -0.23852047 0.14741376
0.028795669 0.042064916 0.041800719 -0.38593423 -0.23852047 0.14741376
0.036557049 0.045680363 0.039999999 -0.38593423 -0.23852047 0.14741376
0.037248518 0.044513132 0.039999999 -0.38593423 -0.23852047 0.14741376
0.037941311 0.043347236 0.039999999 -0.38593423 -0.23852047 0.14741376
0.03863544 0.042182636 0.039999999 -0.38593423 -0.23852047 0.14741376
0.039330926 0.041019309 0.039999999 -0.38593423 -0.23852047 0.14741376
0.0098247183 0.079783328 0.039999999 -0.38593423 -0.23852047 0.14741376
0.010476422 0.078574814 0.039999999 -0.38593423 -0.23852047 0.14741376
0.0035712696 0.071355924 0.042044498 -0.38593423 -0.23852047 0.14741376
0.0017942277 0.068261608 0.042697512 -0.38593423 -0.23852047 0.14741376
0.00090979057 0.065892041 0.043107919 -0.38593423 -0.23852047 0.14741376
0.00038929173 0.063821815 0.043419231 -0.38593423 -0.23852047 0.14741376
0.00010557144 0.061947167 0.043666106 -0.38593423 -0.23852047 0.14741376
1.242774e-05 0.060229216 0.043861259 -0.38593423 -0.23852047 0.14741376
7.3858704e-05 0.058637746 0.044014592 -0.38593423 -0.23852047 0.14741376
0.00023362943 0.057127673 0.044141348 -0.38593423 -0.23852047 0.14741376
0.00047246934 0.055683024 0.044246811 -0.38593423 -0.23852047 0.14741376
0.00084435835 0.054343622 0.044316694 -0.38593423 -0.23852047 0.14741376
0.0012718699 0.053049453 0.044371787 -0.38593423 -0.23852047 0.14741376
0.0017663769 0.051808294 0.044409137 -0.38593423 -0.23852047 0.14741376
0.0023577937 0.050641555 0.044420905 -0.38593423 -0.23852047 0.14741376
0.0029877198 0.049504746 0.044422682 -0.38593423 -0.23852047 0.14741376
0.0037111039 0.048437838 0.044399995 -0.38593423 -0.23852047 0.14741376
0.0044898768 0.047411766 0.044363014 -0.38593423 -0.23852047 0.14741376
0.0053260745 0.046427321 0.044311278 -0.38593423 -0.23852047 0.14741376
0.0062565831 0.045510489 0.044235159 -0.38593423 -0.23852047 0.14741376
0.0072290492 0.04462241 0.044148535 -0.38593423 -0.23852047 0.14741376
0.0083035352 0.043805573 0.044035703 -0.38593423 -0.23852047 0.14741376
0.0094526596 0.04303924 0.043903977 -0.38593423 -0.23852047 0.14741376
0.010665018 0.042314433 0.043756422 -0.38593423 -0.23852047 0.14741376
0.012021076 0.041687045 0.043572135 -0.38593423 -0.23852047 0.14741376
0.013476387 0.041124254 0.043362871 -0.38593423 -0.23852047 0.14741376
0.015052934 0.040640187 0.043123048 -0.38593423 -0.23852047 0.14741376
0.016790133 0.040260702 0.042842582 -0.38593423 -0.23852047 0.14741376
0.018776195 0.040044639 0.042498812 -0.38593423 -0.23852047 0.14741376
0.021069862 0.040029299 0.042076856 -0.38593423 -0.23852047 0.14741376
0.023993133 0.040430229 0.041493896 -0.38593423 -0.23852047 0.14741376
0.028698748 0.042020075 0.040453371 -0.38593423 -0.23852047 0.14741376
0.031138957 0.042055167 0.039999999 -0.38593423 -0.23852047 0.14741376
0.031822905 0.040902436 0.039999999 -0.38593423 -0.23852047 0.14741376
0.032508112 0.039750975 0.039999999 -0.38593423 -0.23852047 0.14741376
0.033194583 0.038600758 0.039999999 -0.38593423 -0.23852047 0.14741376
0.033882342 0.037451759 0.039999999 -0.38593423 -0.23852047 0.14741376
0.034571406 0.036303952 0.039999999 -0.38593423 -0.23852047 0.14741376
0.03526178 0.035157308 0.039999999 -0.38593423 -0.23852047 0.14741376
0.035953492 0.0340118 0.039999999 -0.38593423 -0.23852047 0.14741376
0.036646549 0.032867398 0.039999999 -0.38593423 -0.23852047 0.14741376
0.037340969 0.03172408 0.039999999 -0.38593423 -0.23852047 0.14741376
0.038036771 0.030581819 0.039999999 -0.38593423 -0.23852047 0.14741376
0.03873397 0.029440584 0.039999999 -0.38593423 -0.23852047 0.14741376
0.039432582 0.028300351 0.039999999 -0.38593423 -0.23852047 0.14741376
0.002806064 0.079350054 0.039999999 -0.38593423 -0.23852047 0.14741376
0.0034502312 0.078151278 0.039999999 -0.38593423 -0.23852047 0.14741376
0.0040950845 0.076954715 0.039999999 -0.38593423 -0.23852047 0.14741376
0.0047406368 0.075760342 0.039999999 -0.38593423 -0.23852047 0.14741376
0.005386903 0.074568123 0.039999999 -0.38593423 -0.23852047 0.14741376
0.0036633394 0.071491718 0.040649619 -0.38593423 -0.23852047 0.14741376
0.0018294902 0.068350106 0.041327473 -0.38593423 -0.23852047 0.14741376
0.00093069294 0.065967321 0.041747898 -0.38593423 -0.23852047 0.14741376
0.00040003823 0.063887365 0.04206676 -0.38593423 -0.23852047 0.14741376
0.00010871293 0.062005106 0.042319629 -0.38593423 -0.23852047 0.14741376
1.547795e-05 0.060285475 0.042518038 -0.38593423 -0.23852047 0.14741376
7.113508e-05 0.058687981 0.042675611 -0.38593423 -0.23852047 0.14741376
0.00022623119 0.057172798 0.042805944 -0.38593423 -0.23852047 0.14741376
0.00046351107 0.055725474 0.042913843 -0.38593423 -0.23852047 0.14741376
0.00083339663 0.054383103 0.042985808 -0.38593423 -0.23852047 0.14741376
0.001257679 0.05308507 0.043043103 -0.38593423 -0.23852047 0.14741376
0.0017526158 0.051842835 0.043081425 -0.38593423 -0.23852047 0.14741376
0.0023412963 0.050672673 0.043094669 -0.38593423 -0.23852047 0.14741376
0.0029687742 0.049532689 0.043097697 -0.38593423 -0.23852047 0.14741376
0.0036927618 0.048464891 0.043075114 -0.38593423 -0.23852047 0.14741376
0.0044693705 0.04743591 0.043038782 -0.38593423 -0.23852047 0.14741376
0.0053062537 0.046450656 0.042986728 -0.38593423 -0.23852047 0.14741376
0.0062348093 0.045531116 0.042910665 -0.38593423 -0.23852047 0.14741376
0.0072053899 0.044640396 0.042823926 -0.38593423 -0.23852047 0.14741376
0.0082807299 0.043822911 0.042709906 -0.38593423 -0.23852047 0.14741376
0.0094280578 0.043054041 0.042577431 -0.38593423 -0.23852047 0.14741376
0.010638554 0.042326674 0.042428933 -0.38593423 -0.23852047 0.14741376
0.011995658 0.041698806 0.042242445 -0.38593423 -0.23852047 0.14741376
0.013449063 0.04113346 0.04203143 -0.38593423 -0.23852047 0.14741376
0.015023437 0.040646676 0.041789513 -0.38593423 -0.23852047 0.14741376
0.016758796 0.040264733 0.041506331 -0.38593423 -0.23852047 0.14741376
0.018745534 0.040047973 0.041158359 -0.38593423 -0.23852047 0.14741376
0.021036014 0.040029299 0.040732197 -0.38593423 -0.23852047 0.14741376
0.023945523 0.04041975 0.040145718 -0.38593423 -0.23852047 0.14741376
0.025176588 0.039657563 0.039999999 -0.38593423 -0.23852047 0.14741376
0.025852008 0.038517717 0.039999999 -0.38593423 -0.23852047 0.14741376
0.026528602 0.03737912 0.039999999 -0.38593423 -0.23852047 0.14741376
0.027206386 0.036241736 0.039999999 -0.38593423 -0.23852047 0.14741376
0.027885372 0.035105545 0.039999999 -0.38593423 -0.23852047 0.14741376
0.028565578 0.033970524 0.039999999 -0.38593423 -0.23852047 0.14741376
0.029247018 0.032836635 0.039999999 -0.38593423 -0.23852047 0.14741376
0.029929707 0.031703863 0.039999999 -0.38593423 -0.23852047 0.14741376
0.030613663 0.030572174 0.039999999 -0.38593423 -0.23852047 0.14741376
0.031298898 0.029441545 0.039999999 -0.38593423 -0.23852047 0.14741376
0.031985428 0.028311949 0.039999999 -0.38593423 -0.23852047 0.14741376
0.03267327 0.027183361 0.039999999 -0.38593423 -0.23852047 0.14741376
0.033362441 0.026055753 0.039999999 -0.38593423 -0.23852047 0.14741376
0.034052953 0.024929101 0.039999999 -0.38593423 -0.23852047 0.14741376
0.034744821 0.023803378 0.039999999 -0.38593423 -0.23852047 0.14741376
0.035438068 0.022678556 0.039999999 -0.38593423 -0.23852047 0.14741376
0.036132704 0.021554613 0.039999999 -0.38593423 -0.23852047 0.14741376
0.036828745 0.02043152 0.039999999 -0.38593423 -0.23852047 0.14741376
0.037526209 0.019309254 0.039999999 -0.38593423 -0.23852047 0.14741376
0.038225111 0.018187786 0.039999999 -0.38593423 -0.23852047 0.14741376
0.038925469 0.017067093 0.039999999 -0.38593423 -0.23852047 0.14741376
0.039627295 0.015947148 0.039999999 -0.38593423 -0.23852047 0.14741376
0 0.078845315 0.039221238 -0.38593423 -0.23852047 0.14741376
0 0.077126004 0.039401188 -0.38593423 -0.23852047 0.14741376
0 0.075414076 0.039580718 -0.38593423 -0.23852047 0.14741376
0 0.073709451 0.039759822 -0.38593423 -0.23852047 0.14741376
0 0.072012067 0.039938517 -0.38593423 -0.23852047 0.14741376
0.00042013085 0.070658065 0.039999999 -0.38593423 -0.23852047 0.14741376
0.0010617095 0.069483742 0.039999999 -0.38593423 -0.23852047 0.14741376
0.0017039765 0.068311445 0.039999999 -0.38593423 -0.23852047 0.14741376
0.00095162418 0.066042706 0.040385999 -0.38593423 -0.23852047 0.14741376
0.00041079897 0.063952997 0.040712502 -0.38593423 -0.23852047 0.14741376
0.00011185845 0.062063124 0.040971428 -0.38593423 -0.23852047 0.14741376
1.8532053e-05 0.060341805 0.041173104 -0.38593423 -0.23852047 0.14741376
6.8408073e-05 0.058738276 0.041334964 -0.38593423 -0.23852047 0.14741376
0.00021882396 0.057217982 0.041468915 -0.38593423 -0.23852047 0.14741376
0.00045632097 0.055769332 0.041578785 -0.38593423 -0.23852047 0.14741376
0.00082242192 0.054422628 0.041653339 -0.38593423 -0.23852047 0.14741376
0.0012434714 0.053120729 0.041712865 -0.38593423 -0.23852047 0.14741376
0.0017388385 0.051877413 0.04175216 -0.38593423 -0.23852047 0.14741376
0.0023247798 0.050703824 0.041766904 -0.38593423 -0.23852047 0.14741376
0.0029498069 0.049560666 0.041771211 -0.38593423 -0.23852047 0.14741376
0.0036743989 0.048491973 0.041748736 -0.38593423 -0.23852047 0.14741376
0.0044488413 0.047460079 0.041713066 -0.38593423 -0.23852047 0.14741376
0.0052864109 0.046474017 0.041660693 -0.38593423 -0.23852047 0.14741376
0.0062130117 0.045551762 0.041584704 -0.38593423 -0.23852047 0.14741376
0.007181705 0.044658404 0.041497871 -0.38593423 -0.23852047 0.14741376
0.0082578985 0.043840267 0.041382656 -0.38593423 -0.23852047 0.14741376
0.0094034281 0.04306886 0.04124945 -0.38593423 -0.23852047 0.14741376
0.010614157 0.042340416 0.041099463 -0.38593423 -0.23852047 0.14741376
0.011970214 0.041710578 0.040911328 -0.38593423 -0.23852047 0.14741376
0.01342171 0.041142676 0.040698569 -0.38593423 -0.23852047 0.14741376
0.01499391 0.040653177 0.040454581 -0.38593423 -0.23852047 0.14741376
0.016730567 0.040270947 0.040167861 -0.38593423 -0.23852047 0.14741376
0.018024806 0.039576273 0.039999999 -0.38593423 -0.23852047 0.14741376
0.018689847 0.038446531 0.039999999 -0.38593423 -0.23852047 0.14741376
0.019355953 0.037318058 0.039999999 -0.38593423 -0.23852047 0.14741376
0.020023143 0.03619083 0.039999999 -0.38593423 -0.23852047 0.14741376
0.020691428 0.03506482 0.039999999 -0.38593423 -0.23852047 0.14741376
0.021360826 0.033940006 0.039999999 -0.38593423 -0.23852047 0.14741376
0.02203135 0.032816354 0.039999999 -0.38593423 -0.23852047 0.14741376
0.022703012 0.031693846 0.039999999 -0.38593423 -0.23852047 0.14741376
0.023375833 0.030572452 0.039999999 -0.38593423 -0.23852047 0.14741376
0.024049822 0.029452147 0.039999999 -0.38593423 -0.23852047 0.14741376
0.024724998 0.028332904 0.039999999 -0.38593423 -0.23852047 0.14741376
0.025401372 0.0272147 0.039999999 -0.38593423 -0.23852047 0.14741376
0.026078964 0.026097508 0.039999999 -0.38593423 -0.23852047 0.14741376
0.026757784 0.024981303 0.039999999 -0.38593423 -0.23852047 0.14741376
0.027437851 0.023866057 0.039999999 -0.38593423 -0.23852047 0.14741376
0.028119177 0.02275175 0.039999999 -0.38593423 -0.23852047 0.14741376
0.02880178 0.021638351 0.039999999 -0.38593423 -0.23852047 0.14741376
0.029485675 0.020525837 0.039999999 -0.38593423 -0.23852047 0.14741376
0.030170877 0.019414185 0.039999999 -0.38593423 -0.23852047 0.14741376
0.030857401 0.018303366 0.039999999 -0.38593423 -0.23852047 0.14741376
0.031545263 0.017193357 0.039999999 -0.38593423 -0.23852047 0.14741376
0.032234479 0.016084131 0.039999999 -0.38593423 -0.23852047 0.14741376
0.032925062 0.014975665 0.039999999 -0.38593423 -0.23852047 0.14741376
0.033617031 0.013867933 0.039999999 -0.38593423 -0.23852047 0.14741376
0.0343104 0.012760911 0.039999999 -0.38593423 -0.23852047 0.14741376
0.035005189 0.011654573 0.039999999 -0.38593423 -0.23852047 0.14741376
0.035701409 0.010548894 0.039999999 -0.38593423 -0.23852047 0.14741376
0.036399074 0.0094438493 0.039999999 -0.38593423 -0.23852047 0.14741376
0.037098207 0.0083394144 0.039999999 -0.38593423 -0.23852047 0.14741376
0.037798822 0.0072355643 0.039999999 -0.38593423 -0.23852047 0.14741376
0.038500935 0.0061322735 0.039999999 -0.38593423 -0.23852047 0.14741376
0.03920456 0.0050295177 0.039999999 -0.38593423 -0.23852047 0.14741376
0.039909717 0.0039272723 0.039999999 -0.38593423 -0.23852047 0.14741376
0 0.078917593 0.037842132 -0.38593423 -0.23852047 0.14741376
0 0.077196553 0.038025226 -0.38593423 -0.23852047 0.14741376
0 0.075482905 0.038207874 -0.38593423 -0.23852047 0.14741376
0 0.07377658 0.038390081 -0.38593423 -0.23852047 0.14741376
0 0.072077513 0.038571849 -0.38593423 -0.23852047 0.14741376
0 0.070385627 0.038753189 -0.38593423 -0.23852047 0.14741376
0 0.067023143 0.039114594 -0.38593423 -0.23852047 0.14741376
0 0.065352418 0.039294671 -0.38593423 -0.23852047 0.14741376
0.020830363 0.079999998 0.033648424 -0.38593423 -0.23852047 0.14741376
0 0.062031649 0.039653592 -0.38593423 -0.23852047 0.14741376
0 0.060381487 0.03983245 -0.38593423 -0.23852047 0.14741376
3.9207964e-05 0.05876825 0.039999999 -0.38593423 -0.23852047 0.14741376
0.00021140762 0.057263218 0.040130243 -0.38593423 -0.23852047 0.14741376
0.00044912202 0.055813242 0.040242087 -0.38593423 -0.23852047 0.14741376
0.000811434 0.054462202 0.040319264 -0.38593423 -0.23852047 0.14741376
0.0012292471 0.053156432 0.040381052 -0.38593423 -0.23852047 0.14741376
0.0017250449 0.051912032 0.040421322 -0.38593423 -0.23852047 0.14741376
0.0023082441 0.050735015 0.040437594 -0.38593423 -0.23852047 0.14741376
0.0029308177 0.049588673 0.040443201 -0.38593423 -0.23852047 0.14741376
0.0036560146 0.04851909 0.04042083 -0.38593423 -0.23852047 0.14741376
0.0044282889 0.047484275 0.04038585 -0.38593423 -0.23852047 0.14741376
0.0052665453 0.046497405 0.040333152 -0.38593423 -0.23852047 0.14741376
0.0061911894 0.045572434 0.040257253 -0.38593423 -0.23852047 0.14741376
0.0071579935 0.044676427 0.040170342 -0.38593423 -0.23852047 0.14741376
0.0082350429 0.043857642 0.04005393 -0.38593423 -0.23852047 0.14741376
0.0090846121 0.042874146 0.039999999 -0.38593423 -0.23852047 0.14741376
0.0097370911 0.041750208 0.039999999 -0.38593423 -0.23852047 0.14741376
0.010390494 0.04062764 0.039999999 -0.38593423 -0.23852047 0.14741376
0.011044835 0.03950642 0.039999999 -0.38593423 -0.23852047 0.14741376
0.011700128 0.038386524 0.039999999 -0.38593423 -0.23852047 0.14741376
0.012356387 0.03726792 0.039999999 -0.38593423 -0.23852047 0.14741376
0.013013627 0.036150586 0.039999999 -0.38593423 -0.23852047 0.14741376
0.013671862 0.035034496 0.039999999 -0.38593423 -0.23852047 0.14741376
0.014331105 0.033919625 0.039999999 -0.38593423 -0.23852047 0.14741376
0.01499137 0.032805946 0.039999999 -0.38593423 -0.23852047 0.14741376
0.015652673 0.031693436 0.039999999 -0.38593423 -0.23852047 0.14741376
0.016315026 0.030582067 0.039999999 -0.38593423 -0.23852047 0.14741376
0.016978446 0.029471815 0.039999999 -0.38593423 -0.23852047 0.14741376
0.017642947 0.028362654 0.039999999 -0.38593423 -0.23852047 0.14741376
0.018308541 0.027254561 0.039999999 -0.38593423 -0.23852047 0.14741376
0.018975245 0.026147509 0.039999999 -0.38593423 -0.23852047 0.14741376
0.019643072 0.025041472 0.039999999 -0.38593423 -0.23852047 0.14741376
0.020312037 0.023936428 0.039999999 -0.38593423 -0.23852047 0.14741376
0.020982156 0.022832351 0.039999999 -0.38593423 -0.23852047 0.14741376
0.02165344 0.021729214 0.039999999 -0.38593423 -0.23852047 0.14741376
0.022325909 0.020626996 0.039999999 -0.38593423 -0.23852047 0.14741376
0.022999573 0.01952567 0.039999999 -0.38593423 -0.23852047 0.14741376
0.023674451 0.018425209 0.039999999 -0.38593423 -0.23852047 0.14741376
0.024350556 0.017325593 0.039999999 -0.38593423 -0.23852047 0.14741376
0.025027903 0.016226796 0.039999999 -0.38593423 -0.23852047 0.14741376
0.025706505 0.015128792 0.039999999 -0.38593423 -0.23852047 0.14741376
0.026386382 0.014031558 0.039999999 -0.38593423 -0.23852047 0.14741376
0.027067546 0.012935068 0.039999999 -0.38593423 -0.23852047 0.14741376
0.027750012 0.0118393 0.039999999 -0.38593423 -0.23852047 0.14741376
0.028433796 0.010744227 0.039999999 -0.38593423 -0.23852047 0.14741376
0.029118912 0.0096498262 0.039999999 -0.38593423 -0.23852047 0.14741376
0.029805379 0.0085560726 0.039999999 -0.38593423 -0.23852047 0.14741376
0.030493211 0.007462942 0.039999999 -0.38593423 -0.23852047 0.14741376
0.031182423 0.0063704103 0.039999999 -0.38593423 -0.23852047 0.14741376
0.031873029 0.0052784532 0.039999999 -0.38593423 -0.23852047 0.14741376
0.03256505 0.004187047 0.039999999 -0.38593423 -0.23852047 0.14741376
0.033258494 0.0030961665 0.039999999 -0.38593423 -0.23852047 0.14741376
0.033953384 0.0020057883 0.039999999 -0.38593423 -0.23852047 0.14741376
0.034649733 0.00091588777 0.039999999 -0.38593423 -0.23852047 0.14741376
0.035654329 0 0.039921783 -0.38593423 -0.23852047 0.14741376
0.038292464 0 0.039428394 -0.38593423 -0.23852047 0.14741376
0 0.077267192 0.036647435 -0.38593423 -0.23852047 0.14741376
0 0.07555183 0.036833216 -0.38593423 -0.23852047 0.14741376
0 0.0738438 0.037018526 -0.38593423 -0.23852047 0.14741376
0 0.072143041 0.037203383 -0.38593423 -0.23852047 0.14741376
0 0.070449486 0.037387785 -0.38593423 -0.23852047 0.14741376
0 0.067083701 0.037755247 -0.38593423 -0.23852047 0.14741376
0 0.065411337 0.037938319 -0.38593423 -0.23852047 0.14741376
0 0.060435589 0.038484961 -0.38593423 -0.23852047 0.14741376
0 0.058790572 0.03866633 -0.38593423 -0.23852047 0.14741376
0 0.057152238 0.03884729 -0.38593423 -0.23852047 0.14741376
0 0.055520516 0.03902784 -0.38593423 -0.23852047 0.14741376
0 0.052276682 0.039387733 -0.38593423 -0.23852047 0.14741376
0 0.050664447 0.039567087 -0.38593423 -0.23852047 0.14741376
0 0.049058586 0.039746054 -0.38593423 -0.23852047 0.14741376
0.039999999 0.077099279 0.028783964 -0.38593423 -0.23852047 0.14741376
0.00036983669 0.046138287 0.039999999 -0.38593423 -0.23852047 0.14741376
0.0010110465 0.045019541 0.039999999 -0.38593423 -0.23852047 0.14741376
0.0016530447 0.043902263 0.039999999 -0.38593423 -0.23852047 0.14741376
0.002295845 0.042786434 0.039999999 -0.38593423 -0.23852047 0.14741376
0.0029394606 0.041672029 0.039999999 -0.38593423 -0.23852047 0.14741376
0.0035839053 0.040559012 0.039999999 -0.38593423 -0.23852047 0.14741376
0.0042291926 0.039447367 0.039999999 -0.38593423 -0.23852047 0.14741376
0.0048753358 0.038337067 0.039999999 -0.38593423 -0.23852047 0.14741376
0.0055223489 0.037228085 0.039999999 -0.38593423 -0.23852047 0.14741376
0.0061702454 0.036120392 0.039999999 -0.38593423 -0.23852047 0.14741376
0.0068190391 0.03501397 0.039999999 -0.38593423 -0.23852047 0.14741376
0.0074687432 0.033908792 0.039999999 -0.38593423 -0.23852047 0.14741376
0.0081193727 0.032804832 0.039999999 -0.38593423 -0.23852047 0.14741376
0.0087709399 0.03170206 0.039999999 -0.38593423 -0.23852047 0.14741376
0.0094234589 0.03060046 0.039999999 -0.38593423 -0.23852047 0.14741376
0.010076945 0.029500004 0.039999999 -0.38593423 -0.23852047 0.14741376
0.01073141 0.028400663 0.039999999 -0.38593423 -0.23852047 0.14741376
0.011386869 0.027302418 0.039999999 -0.38593423 -0.23852047 0.14741376
0.012043337 0.026205242 0.039999999 -0.38593423 -0.23852047 0.14741376
0.012700827 0.02510911 0.039999999 -0.38593423 -0.23852047 0.14741376
0.013359352 0.024014 0.039999999 -0.38593423 -0.23852047 0.14741376
0.014018929 0.022919884 0.039999999 -0.38593423 -0.23852047 0.14741376
0.014679569 0.02182674 0.039999999 -0.38593423 -0.23852047 0.14741376
0.015341287 0.020734543 0.039999999 -0.38593423 -0.23852047 0.14741376
0.0160041 0.019643269 0.039999999 -0.38593423 -0.23852047 0.14741376
0.01666802 0.018552894 0.039999999 -0.38593423 -0.23852047 0.14741376
0.017333061 0.017463394 0.039999999 -0.38593423 -0.23852047 0.14741376
0.017999237 0.016374744 0.039999999 -0.38593423 -0.23852047 0.14741376
0.018666565 0.015286921 0.039999999 -0.38593423 -0.23852047 0.14741376
0.019335059 0.0141999 0.039999999 -0.38593423 -0.23852047 0.14741376
0.020004733 0.013113658 0.039999999 -0.38593423 -0.23852047 0.14741376
0.020675601 0.012028171 0.039999999 -0.38593423 -0.23852047 0.14741376
0.021347677 0.010943415 0.039999999 -0.38593423 -0.23852047 0.14741376
0.022020979 0.0098593654 0.039999999 -0.38593423 -0.23852047 0.14741376
0.022695519 0.0087759998 0.039999999 -0.38593423 -0.23852047 0.14741376
0.023371315 0.007693294 0.039999999 -0.38593423 -0.23852047 0.14741376
0.024048377 0.0066112233 0.039999999 -0.38593423 -0.23852047 0.14741376
0.024726724 0.0055297655 0.039999999 -0.38593423 -0.23852047 0.14741376
0.025406372 0.0044488958 0.039999999 -0.38593423 -0.23852047 0.14741376
0.026087333 0.003368591 0.039999999 -0.38593423 -0.23852047 0.14741376
0.026769623 0.0022888272 0.039999999 -0.38593423 -0.23852047 0.14741376
0.027453259 0.0012095813 0.039999999 -0.38593423 -0.23852047 0.14741376
0.028138254 0.00013082926 0.039999999 -0.38593423 -0.23852047 0.14741376
0.030478703 2.7755576e-17 0.039571628 -0.38593423 -0.23852047 0.14741376
0.033070173 2.7755576e-17 0.039080136 -0.38593423 -0.23852047 0.14741376
0.035686038 0 0.038584337 -0.38593423 -0.23852047 0.14741376
0.038326681 2.7755576e-17 0.038084164 -0.38593423 -0.23852047 0.14741376
0 0.079062425 0.03507838 -0.38593423 -0.23852047 0.14741376
0 0.077337921 0.035267793 -0.38593423 -0.23852047 0.14741376
0 0.075620838 0.035456713 -0.38593423 -0.23852047 0.14741376
0 0.073911108 0.035645146 -0.38593423 -0.23852047 0.14741376
0 0.072208665 0.035833094 -0.38593423 -0.23852047 0.14741376
0 0.068825342 0.036207572 -0.38593423 -0.23852047 0.14741376
0 0.067144327 0.036394108 -0.38593423 -0.23852047 0.14741376
0 0.06547033 0.036580186 -0.38593423 -0.23852047 0.14741376
0 0.063803278 0.03676581 -0.38593423 -0.23852047 0.14741376
5.5511151e-17 0.060489759 0.037135713 -0.38593423 -0.23852047 0.14741376
0 0.058843162 0.037320003 -0.38593423 -0.23852047 0.14741376
0 0.057203256 0.037503857 -0.38593423 -0.23852047 0.14741376
0 0.05556998 0.037687283 -0.38593423 -0.23852047 0.14741376
0 0.052323069 0.038052868 -0.38593423 -0.23852047 0.14741376
5.5511151e-17 0.050709315 0.038235039 -0.38593423 -0.23852047 0.14741376
0.039999999 0.078912459 0.027119851 -0.38593423 -0.23852047 0.14741376
0 0.047500908 0.038598154 -0.38593423 -0.23852047 0.14741376
0 0.045906141 0.03877911 -0.38593423 -0.23852047 0.14741376
0 0.044317584 0.038959667 -0.38593423 -0.23852047 0.14741376
0 0.042735185 0.039139837 -0.38593423 -0.23852047 0.14741376
5.5511151e-17 0.041158885 0.03931962 -0.38593423 -0.23852047 0.14741376
0 0.03958863 0.039499022 -0.38593423 -0.23852047 0.14741376
0 0.038024362 0.039678048 -0.38593423 -0.23852047 0.14741376
0 0.036466032 0.039856702 -0.38593423 -0.23852047 0.14741376
0.00012575435 0.035002675 0.039999999 -0.38593423 -0.23852047 0.14741376
0.00076650089 0.033906944 0.039999999 -0.38593423 -0.23852047 0.14741376
0.0014080782 0.032812458 0.039999999 -0.38593423 -0.23852047 0.14741376
0.0020504999 0.031719185 0.039999999 -0.38593423 -0.23852047 0.14741376
0.0026937793 0.030627105 0.039999999 -0.38593423 -0.23852047 0.14741376
0.0033379297 0.029536195 0.039999999 -0.38593423 -0.23852047 0.14741376
0.0039829649 0.028446427 0.039999999 -0.38593423 -0.23852047 0.14741376
0.0046288981 0.027357779 0.039999999 -0.38593423 -0.23852047 0.14741376
0.0052757431 0.026270226 0.039999999 -0.38593423 -0.23852047 0.14741376
0.0059235133 0.025183745 0.039999999 -0.38593423 -0.23852047 0.14741376
0.0065722223 0.024098311 0.039999999 -0.38593423 -0.23852047 0.14741376
0.0072218841 0.023013899 0.039999999 -0.38593423 -0.23852047 0.14741376
0.0078725116 0.021930488 0.039999999 -0.38593423 -0.23852047 0.14741376
0.0085241199 0.020848053 0.039999999 -0.38593423 -0.23852047 0.14741376
0.0091767218 0.019766569 0.039999999 -0.38593423 -0.23852047 0.14741376
0.0098303314 0.018686013 0.039999999 -0.38593423 -0.23852047 0.14741376
0.010484963 0.017606363 0.039999999 -0.38593423 -0.23852047 0.14741376
0.01114063 0.016527593 0.039999999 -0.38593423 -0.23852047 0.14741376
0.011797346 0.015449681 0.039999999 -0.38593423 -0.23852047 0.14741376
0.012455126 0.014372603 0.039999999 -0.38593423 -0.23852047 0.14741376
0.013113983 0.013296336 0.039999999 -0.38593423 -0.23852047 0.14741376
0.013773933 0.012220856 0.039999999 -0.38593423 -0.23852047 0.14741376
0.014434989 0.011146139 0.039999999 -0.38593423 -0.23852047 0.14741376
0.015097164 0.010072164 0.039999999 -0.38593423 -0.23852047 0.14741376
0.015760474 0.0089989053 0.039999999 -0.38593423 -0.23852047 0.14741376
0.016424933 0.0079263411 0.039999999 -0.38593423 -0.23852047 0.14741376
0.017090555 0.0068544471 0.039999999 -0.38593423 -0.23852047 0.14741376
0.017757356 0.0057832012 0.039999999 -0.38593423 -0.23852047 0.14741376
0.018425349 0.0047125798 0.039999999 -0.38593423 -0.23852047 0.14741376
0.019094549 0.0036425595 0.039999999 -0.38593423 -0.23852047 0.14741376
0.019764969 0.0025731176 0.039999999 -0.38593423 -0.23852047 0.14741376
0.020436628 0.001504231 0.039999999 -0.38593423 -0.23852047 0.14741376
0.021109536 0.00043587666 0.039999999 -0.38593423 -0.23852047 0.14741376
0.022866845 2.7755576e-17 0.039714646 -0.38593423 -0.23852047 0.14741376
0.025389625 2.7755576e-17 0.039229244 -0.38593423 -0.23852047 0.14741376
0.027935745 0 0.038739659 -0.38593423 -0.23852047 0.14741376
0.030505568 0 0.038245827 -0.38593423 -0.23852047 0.14741376
0.039999999 0.0039278958 0.035941731 -0.38593423 -0.23852047 0.14741376
0.035717789 0 0.037245162 -0.38593423 -0.23852047 0.14741376
0.038360942 0 0.036738187 -0.38593423 -0.23852047 0.14741376
0 0.079134993 0.033693694 -0.38593423 -0.23852047 0.14741376
0 0.073978513 0.03426991 -0.38593423 -0.23852047 0.14741376
0 0.070577458 0.034651518 -0.38593423 -0.23852047 0.14741376
0 0.068887703 0.034841582 -0.38593423 -0.23852047 0.14741376
0 0.067205042 0.035031155 -0.38593423 -0.23852047 0.14741376
0 0.065529406 0.035220247 -0.38593423 -0.23852047 0.14741376
0 0.063860729 0.035408862 -0.38593423 -0.23852047 0.14741376
0 0.060544003 0.035784684 -0.38593423 -0.23852047 0.14741376
0 0.058895823 0.035971902 -0.38593423 -0.23852047 0.14741376
0 0.055619508 0.036344975 -0.38593423 -0.23852047 0.14741376
0 0.053991251 0.036530841 -0.38593423 -0.23852047 0.14741376
0 0.052369516 0.036716267 -0.38593423 -0.23852047 0.14741376
0.039999999 0.078960374 0.025650928 -0.38593423 -0.23852047 0.14741376
0 0.047542825 0.037269961 -0.38593423 -0.23852047 0.14741376
0 0.045946568 0.037453678 -0.38593423 -0.23852047 0.14741376
0 0.04435654 0.03763698 -0.38593423 -0.23852047 0.14741376
0.039999999 0.07192719 0.026461057 -0.38593423 -0.23852047 0.14741376
0 0.041194923 0.038002361 -0.38593423 -0.23852047 0.14741376
0 0.039623227 0.038184445 -0.38593423 -0.23852047 0.14741376
0 0.038057532 0.038366135 -0.38593423 -0.23852047 0.14741376
0.039999999 0.065001935 0.027264025 -0.38593423 -0.23852047 0.14741376
5.5511151e-17 0.034943916 0.038728345 -0.38593423 -0.23852047 0.14741376
5.5511151e-17 0.03339589 0.038908873 -0.38593423 -0.23852047 0.14741376
0 0.03185365 0.039089024 -0.38593423 -0.23852047 0.14741376
0 0.030317143 0.039268803 -0.38593423 -0.23852047 0.14741376
0.039999999 0.056491219 0.028258165 -0.38593423 -0.23852047 0.14741376
0 0.027261112 0.039627258 -0.38593423 -0.23852047 0.14741376
0 0.025741488 0.039805941 -0.38593423 -0.23852047 0.14741376
0 0.024227392 0.039984271 -0.38593423 -0.23852047 0.14741376
0.00058383401 0.02311397 0.039999999 -0.38593423 -0.23852047 0.14741376
0.0012250461 0.022040043 0.039999999 -0.38593423 -0.23852047 0.14741376
0.0018671443 0.020967118 0.039999999 -0.38593423 -0.23852047 0.14741376
0.0025101418 0.019895174 0.039999999 -0.38593423 -0.23852047 0.14741376
0.0031540522 0.018824186 0.039999999 -0.38593423 -0.23852047 0.14741376
0.003798889 0.01775413 0.039999999 -0.38593423 -0.23852047 0.14741376
0.0044446653 0.016684985 0.039999999 -0.38593423 -0.23852047 0.14741376
0.0050913952 0.015616726 0.039999999 -0.38593423 -0.23852047 0.14741376
0.0057390914 0.014549332 0.039999999 -0.38593423 -0.23852047 0.14741376
0.0063877683 0.013482777 0.039999999 -0.38593423 -0.23852047 0.14741376
0.0070374389 0.012417041 0.039999999 -0.38593423 -0.23852047 0.14741376
0.0076881177 0.011352099 0.039999999 -0.38593423 -0.23852047 0.14741376
0.0083398176 0.01028793 0.039999999 -0.38593423 -0.23852047 0.14741376
0.0089925528 0.0092245108 0.039999999 -0.38593423 -0.23852047 0.14741376
0.0096463375 0.0081618177 0.039999999 -0.38593423 -0.23852047 0.14741376
0.010301185 0.0070998282 0.039999999 -0.38593423 -0.23852047 0.14741376
0.01095711 0.0060385205 0.039999999 -0.38593423 -0.23852047 0.14741376
0.011614125 0.0049778712 0.039999999 -0.38593423 -0.23852047 0.14741376
0.012272245 0.0039178575 0.039999999 -0.38593423 -0.23852047 0.14741376
0.012931485 0.0028584576 0.039999999 -0.38593423 -0.23852047 0.14741376
0.013591858 0.0017996484 0.039999999 -0.38593423 -0.23852047 0.14741376
0.014253377 0.00074140751 0.039999999 -0.38593423 -0.23852047 0.14741376
0.015448309 0 0.039857376 -0.38593423 -0.23852047 0.14741376
0.039999999 0.013049817 0.033467095 -0.38593423 -0.23852047 0.14741376
0.020384686 2.7755576e-17 0.038894366 -0.38593423 -0.23852047 0.14741376
0.039999999 0.0099844802 0.033843663 -0.38593423 -0.23852047 0.14741376
0.025411805 0 0.03791485 -0.38593423 -0.23852047 0.14741376
0.027960265 0 0.037418745 -0.38593423 -0.23852047 0.14741376
0.030532466 2.7755576e-17 0.03691832 -0.38593423 -0.23852047 0.14741376
0.033128779 0 0.036413506 -0.38593423 -0.23852047 0.14741376
0.035749581 0 0.035904236 -0.38593423 -0.23852047 0.14741376
0.039999999 0.00090204831 0.034966789 -0.38593423 -0.23852047 0.14741376
0 0.079207659 0.032307103 -0.38593423 -0.23852047 0.14741376
0 0.077479675 0.032502875 -0.38593423 -0.23852047 0.14741376
0 0.074046001 0.032892797 -0.38593423 -0.23852047 0.14741376
0 0.07064157 0.033280615 -0.38593423 -0.23852047 0.14741376
0 0.067265838 0.033666365 -0.38593423 -0.23852047 0.14741376
0 0.065588564 0.033858478 -0.38593423 -0.23852047 0.14741376
0 0.063918263 0.034050096 -0.38593423 -0.23852047 0.14741376
0 0.062254868 0.034241218 -0.38593423 -0.23852047 0.14741376
0 0.060598321 0.034431856 -0.38593423 -0.23852047 0.14741376
0 0.05894855 0.03462201 -0.38593423 -0.23852047 0.14741376
5.5511151e-17 0.055669103 0.03500089 -0.38593423 -0.23852047 0.14741376
5.5511151e-17 0.050799225 0.035565734 -0.38593423 -0.23852047 0.14741376
0.039999999 0.079008348 0.024180084 -0.38593423 -0.23852047 0.14741376
0 0.047584794 0.035940036 -0.38593423 -0.23852047 0.14741376
0 0.045987051 0.036126524 -0.38593423 -0.23852047 0.14741376
0 0.044395544 0.036312576 -0.38593423 -0.23852047 0.14741376
0 0.042810217 0.0364982 -0.38593423 -0.23852047 0.14741376
0 0.04123101 0.036683396 -0.38593423 -0.23852047 0.14741376
0.039999999 0.068489552 0.025410721 -0.38593423 -0.23852047 0.14741376
0 0.038090739 0.037052535 -0.38593423 -0.23852047 0.14741376
0 0.036529567 0.037236486 -0.38593423 -0.23852047 0.14741376
0 0.034974292 0.037420031 -0.38593423 -0.23852047 0.14741376
0 0.033424869 0.037603177 -0.38593423 -0.23852047 0.14741376
0.039999999 0.059906915 0.026423588 -0.38593423 -0.23852047 0.14741376
5.5511151e-17 0.03034335 0.037968278 -0.38593423 -0.23852047 0.14741376
0 0.028811151 0.038150247 -0.38593423 -0.23852047 0.14741376
0.039999999 0.054833852 0.027026078 -0.38593423 -0.23852047 0.14741376
0 0.025763618 0.038513038 -0.38593423 -0.23852047 0.14741376
0 0.024248181 0.038693871 -0.38593423 -0.23852047 0.14741376
0 0.022738231 0.038874332 -0.38593423 -0.23852047 0.14741376
0.039999999 0.04815584 0.027823571 -0.38593423 -0.23852047 0.14741376
0 0.019734595 0.039234169 -0.38593423 -0.23852047 0.14741376
5.5511151e-17 0.018240811 0.039413549 -0.38593423 -0.23852047 0.14741376
5.5511151e-17 0.016752318 0.039592579 -0.38593423 -0.23852047 0.14741376
0 0.015269069 0.039771259 -0.38593423 -0.23852047 0.14741376
0 0.013791017 0.039949592 -0.38593423 -0.23852047 0.14741376
0.00045897509 0.012616428 0.039999999 -0.38593423 -0.23852047 0.14741376
0.0010998849 0.011561007 0.039999999 -0.38593423 -0.23852047 0.14741376
0.001741722 0.01050639 0.039999999 -0.38593423 -0.23852047 0.14741376
0.0023844999 0.0094525516 0.039999999 -0.38593423 -0.23852047 0.14741376
0.0030282319 0.0083994716 0.039999999 -0.38593423 -0.23852047 0.14741376
0.0036729316 0.007347126 0.039999999 -0.38593423 -0.23852047 0.14741376
0.0043186122 0.0062954938 0.039999999 -0.38593423 -0.23852047 0.14741376
0.0049652872 0.0052445526 0.039999999 -0.38593423 -0.23852047 0.14741376
0.0056129699 0.0041942801 0.039999999 -0.38593423 -0.23852047 0.14741376
0.0062616747 0.003144654 0.039999999 -0.38593423 -0.23852047 0.14741376
0.0069114142 0.0020956525 0.039999999 -0.38593423 -0.23852047 0.14741376
0.0075622029 0.0010472536 0.039999999 -0.38593423 -0.23852047 0.14741376
0.039999999 0.019234786 0.031337656 -0.38593423 -0.23852047 0.14741376
0.010609004 0 0.039526045 -0.38593423 -0.23852047 0.14741376
0.013024423 0 0.039048396 -0.38593423 -0.23852047 0.14741376
0.015461566 0 0.038566738 -0.38593423 -0.23852047 0.14741376
0.01792076 2.7755576e-17 0.038081009 -0.38593423 -0.23852047 0.14741376
0.020402338 2.7755576e-17 0.037591144 -0.38593423 -0.23852047 0.14741376
0.022906641 0 0.037097085 -0.38593423 -0.23852047 0.14741376
0.025434015 0 0.036598764 -0.38593423 -0.23852047 0.14741376
0.039999999 0.0069237389 0.032864805 -0.38593423 -0.23852047 0.14741376
0.0305594 2.7755576e-17 0.03558908 -0.38593423 -0.23852047 0.14741376
0.033158142 0 0.035077579 -0.38593423 -0.23852047 0.14741376
0.035781413 0 0.034561545 -0.38593423 -0.23852047 0.14741376
0.038429603 0 0.034040906 -0.38593423 -0.23852047 0.14741376
0 0.079280421 0.030918583 -0.38593423 -0.23852047 0.14741376
0 0.077550702 0.031117547 -0.38593423 -0.23852047 0.14741376
0 0.075828448 0.031315945 -0.38593423 -0.23852047 0.14741376
0 0.074113585 0.031513788 -0.38593423 -0.23852047 0.14741376
5.5511151e-17 0.072406054 0.031711079 -0.38593423 -0.23852047 0.14741376
0 0.070705771 0.031907827 -0.38593423 -0.23852047 0.14741376
0 0.069012687 0.032104034 -0.38593423 -0.23852047 0.14741376
0 0.067326717 0.032299712 -0.38593423 -0.23852047 0.14741376
0 0.065647796 0.032494858 -0.38593423 -0.23852047 0.14741376
0 0.063975871 0.032689486 -0.38593423 -0.23852047 0.14741376
0 0.060652707 0.033077203 -0.38593423 -0.23852047 0.14741376
0 0.059001349 0.033270303 -0.38593423 -0.23852047 0.14741376
0 0.057356723 0.033462904 -0.38593423 -0.23852047 0.14741376
