# .PCD v0.7 - Point Cloud Data file format
VERSION 0.7
FIELDS x y z vp_x vp_y vp_z
SIZE 4 4 4 4 4 4
TYPE F F F F F F
COUNT 1 1 1 1 1 1
WIDTH 688
HEIGHT 1
VIEWPOINT 0 0 0 1 0 0 0
POINTS 688
DATA ascii
0.039999999 0.017250689 0.017024722 0.38593423 0.23852047 -0.14741376
0.039999999 0.018619852 0.016735364 0.38593423 0.23852047 -0.14741376
0.039999999 0.019984137 0.016447252 0.38593423 0.23852047 -0.14741376
0.039999999 0.021343587 0.016160376 0.38593423 0.23852047 -0.14741376
0.039999999 0.02269825 0.015874729 0.38593423 0.23852047 -0.14741376
0.039999999 0.024048166 0.015590296 0.38593423 0.23852047 -0.14741376
0.039999999 0.025393382 0.01530707 0.38593423 0.23852047 -0.14741376
0.039999999 0.026733942 0.015025038 0.38593423 0.23852047 -0.14741376
0.039999999 0.028069887 0.014744191 0.38593423 0.23852047 -0.14741376
0.039999999 0.029401261 0.014464521 0.38593423 0.23852047 -0.14741376
0.039999999 0.030728105 0.014186014 0.38593423 0.23852047 -0.14741376
0.039999999 0.032050461 0.013908663 0.38593423 0.23852047 -0.14741376
0.039999999 0.033368371 0.013632458 0.38593423 0.23852047 -0.14741376
0.039999999 0.034681879 0.013357388 0.38593423 0.23852047 -0.14741376
0.039999999 0.035991017 0.013083444 0.38593423 0.23852047 -0.14741376
0.039999999 0.037295833 0.012810617 0.38593423 0.23852047 -0.14741376
0.039999999 0.038596366 0.012538898 0.38593423 0.23852047 -0.14741376
0.039999999 0.039892651 0.012268276 0.38593423 0.23852047 -0.14741376
0.039999999 0.041184731 0.011998744 0.38593423 0.23852047 -0.14741376
0.039999999 0.042472646 0.011730291 0.38593423 0.23852047 -0.14741376
0.039999999 0.043756425 0.011462909 0.38593423 0.23852047 -0.14741376
0.039999999 0.045036118 0.011196589 0.38593423 0.23852047 -0.14741376
0.039999999 0.046311755 0.010931323 0.38593423 0.23852047 -0.14741376
0.039999999 0.047583375 0.010667101 0.38593423 0.23852047 -0.14741376
0.039999999 0.048851017 0.010403914 0.38593423 0.23852047 -0.14741376
0.039999999 0.050114717 0.010141755 0.38593423 0.23852047 -0.14741376
0.039999999 0.051374506 0.0098806145 0.38593423 0.23852047 -0.14741376
0.039999999 0.052630424 0.009620484 0.38593423 0.23852047 -0.14741376
0.039999999 0.053882509 0.0093613556 0.38593423 0.23852047 -0.14741376
0.039999999 0.055130795 0.0091032209 0.38593423 0.23852047 -0.14741376
0.039999999 0.05637531 0.0088460715 0.38593423 0.23852047 -0.14741376
0.039999999 0.057616096 0.0085899001 0.38593423 0.23852047 -0.14741376
0.039999999 0.058853187 0.0083346982 0.38593423 0.23852047 -0.14741376
0.039999999 0.060086615 0.0080804583 0.38593423 0.23852047 -0.14741376
0.039999999 0.061316412 0.0078271711 0.38593423 0.23852047 -0.14741376
0.039999999 0.062542617 0.0075748307 0.38593423 0.23852047 -0.14741376
0.039999999 0.06376525 0.0073234281 0.38593423 0.23852047 -0.14741376
0.039999999 0.064984359 0.0070729563 0.38593423 0.23852047 -0.14741376
0.039999999 0.066199973 0.006823408 0.38593423 0.23852047 -0.14741376
0.039999999 0.067412116 0.0065747746 0.38593423 0.23852047 -0.14741376
0.039999999 0.068620831 0.0063270498 0.38593423 0.23852047 -0.14741376
0.039999999 0.069826141 0.0060802256 0.38593423 0.23852047 -0.14741376
0.039999999 0.071028084 0.0058342949 0.38593423 0.23852047 -0.14741376
0.039999999 0.072226681 0.0055892509 0.38593423 0.23852047 -0.14741376
0.039999999 0.07342197 0.0053450861 0.38593423 0.23852047 -0.14741376
0.039999999 0.074613988 0.005101793 0.38593423 0.23852047 -0.14741376
0.039999999 0.075802751 0.0048593655 0.38593423 0.23852047 -0.14741376
0.039999999 0.076988295 0.0046177958 0.38593423 0.23852047 -0.14741376
0.039999999 0.078170657 0.0043770778 0.38593423 0.23852047 -0.14741376
0.039999999 0.079349861 0.0041372036 0.38593423 0.23852047 -0.14741376
0.038848456 0.079999998 0.0044018528 0.38593423 0.23852047 -0.14741376
0.036252376 0.079999998 0.0052965954 0.38593423 0.23852047 -0.14741376
0.03362412 0.079999998 0.0062026312 0.38593423 0.23852047 -0.14741376
0.030963048 0.079999998 0.0071201851 0.38593423 0.23852047 -0.14741376
0.028268503 0.079999998 0.0080494881 0.38593423 0.23852047 -0.14741376
0.025539812 0.079999998 0.0089907749 0.38593423 0.23852047 -0.14741376
0.02277628 0.079999998 0.0099442899 0.38593423 0.23852047 -0.14741376
0.019977199 0.079999998 0.010910282 0.38593423 0.23852047 -0.14741376
0.017141834 0.079999998 0.011889007 0.38593423 0.23852047 -0.14741376
0.014269438 0.079999998 0.01288073 0.38593423 0.23852047 -0.14741376
0.011359236 0.079999998 0.013885719 0.38593423 0.23852047 -0.14741376
0.008410437 0.079999998 0.014904254 0.38593423 0.23852047 -0.14741376
0.0054222248 0.079999998 0.015936621 0.38593423 0.23852047 -0.14741376
0.0023937598 0.079999998 0.016983114 0.38593423 0.23852047 -0.14741376
0.039999999 0.00044494082 0.019319559 0.38593423 0.23852047 -0.14741376
0.039999999 0.0018750272 0.019017067 0.38593423 0.23852047 -0.14741376
0.039999999 0.0032996638 0.01871594 0.38593423 0.23852047 -0.14741376
0.039999999 0.0047189011 0.018416166 0.38593423 0.23852047 -0.14741376
0.039999999 0.0061327908 0.018117733 0.38593423 0.23852047 -0.14741376
0.039999999 0.0075413822 0.01782063 0.38593423 0.23852047 -0.14741376
0.039999999 0.0089447247 0.017524846 0.38593423 0.23852047 -0.14741376
0.039999999 0.010342868 0.017230367 0.38593423 0.23852047 -0.14741376
0.039999999 0.01173586 0.016937183 0.38593423 0.23852047 -0.14741376
0.039999999 0.01312375 0.016645283 0.38593423 0.23852047 -0.14741376
0.039999999 0.014506583 0.016354654 0.38593423 0.23852047 -0.14741376
0.039999999 0.015884409 0.016065288 0.38593423 0.23852047 -0.14741376
0.039999999 0.017257271 0.015777173 0.38593423 0.23852047 -0.14741376
0.039999999 0.018625218 0.015490296 0.38593423 0.23852047 -0.14741376
0.039999999 0.019988295 0.015204649 0.38593423 0.23852047 -0.14741376
0.039999999 0.021346547 0.014920221 0.38593423 0.23852047 -0.14741376
0.039999999 0.022700019 0.014637 0.38593423 0.23852047 -0.14741376
0.039999999 0.024048753 0.014354977 0.38593423 0.23852047 -0.14741376
0.039999999 0.025392797 0.014074142 0.38593423 0.23852047 -0.14741376
0.039999999 0.02673219 0.013794484 0.38593423 0.23852047 -0.14741376
0.039999999 0.028066978 0.013515993 0.38593423 0.23852047 -0.14741376
0.039999999 0.029397203 0.01323866 0.38593423 0.23852047 -0.14741376
0.039999999 0.030722905 0.012962474 0.38593423 0.23852047 -0.14741376
0.039999999 0.032044128 0.012687426 0.38593423 0.23852047 -0.14741376
0.039999999 0.03336091 0.012413506 0.38593423 0.23852047 -0.14741376
0.039999999 0.034673296 0.012140705 0.38593423 0.23852047 -0.14741376
0.039999999 0.035981327 0.011869013 0.38593423 0.23852047 -0.14741376
0.039999999 0.037285037 0.011598421 0.38593423 0.23852047 -0.14741376
0.039999999 0.038584471 0.01132892 0.38593423 0.23852047 -0.14741376
0.039999999 0.039879669 0.011060501 0.38593423 0.23852047 -0.14741376
0.039999999 0.041170664 0.010793153 0.38593423 0.23852047 -0.14741376
0.039999999 0.042457502 0.010526869 0.38593423 0.23852047 -0.14741376
0.039999999 0.043740217 0.010261639 0.38593423 0.23852047 -0.14741376
0.039999999 0.045018844 0.0099974554 0.38593423 0.23852047 -0.14741376
0.039999999 0.046293426 0.0097343093 0.38593423 0.23852047 -0.14741376
0.039999999 0.047563996 0.0094721913 0.38593423 0.23852047 -0.14741376
0.039999999 0.048830595 0.0092110932 0.38593423 0.23852047 -0.14741376
0.039999999 0.05009326 0.0089510065 0.38593423 0.23852047 -0.14741376
0.039999999 0.05135202 0.0086919228 0.38593423 0.23852047 -0.14741376
0.039999999 0.052606914 0.0084338346 0.38593423 0.23852047 -0.14741376
0.039999999 0.053857982 0.0081767319 0.38593423 0.23852047 -0.14741376
0.039999999 0.055105254 0.0079206089 0.38593423 0.23852047 -0.14741376
0.039999999 0.056348767 0.0076654558 0.38593423 0.23852047 -0.14741376
0.039999999 0.057588555 0.0074112648 0.38593423 0.23852047 -0.14741376
0.039999999 0.058824651 0.0071580289 0.38593423 0.23852047 -0.14741376
0.039999999 0.060057089 0.0069057397 0.38593423 0.23852047 -0.14741376
0.039999999 0.061285906 0.0066543892 0.38593423 0.23852047 -0.14741376
0.039999999 0.062511131 0.0064039701 0.38593423 0.23852047 -0.14741376
0.039999999 0.063732803 0.0061544748 0.38593423 0.23852047 -0.14741376
0.039999999 0.064950943 0.0059058955 0.38593423 0.23852047 -0.14741376
0.039999999 0.066165596 0.0056582252 0.38593423 0.23852047 -0.14741376
0.039999999 0.067376785 0.0054114563 0.38593423 0.23852047 -0.14741376
0.039999999 0.068584546 0.0051655811 0.38593423 0.23852047 -0.14741376
0.039999999 0.069788918 0.004920593 0.38593423 0.23852047 -0.14741376
0.039999999 0.070989914 0.0046764845 0.38593423 0.23852047 -0.14741376
0.039999999 0.072187588 0.0044332482 0.38593423 0.23852047 -0.14741376
0.039999999 0.073381945 0.0041908775 0.38593423 0.23852047 -0.14741376
0.039999999 0.07457304 0.0039493651 0.38593423 0.23852047 -0.14741376
0.039999999 0.075760886 0.0037087044 0.38593423 0.23852047 -0.14741376
0.039999999 0.076945513 0.0034688881 0.38593423 0.23852047 -0.14741376
0.039999999 0.078126967 0.0032299096 0.38593423 0.23852047 -0.14741376
0.039999999 0.079305261 0.0029917625 0.38593423 0.23852047 -0.14741376
0.038948372 0.079999998 0.0032109451 0.38593423 0.23852047 -0.14741376
0.036355786 0.079999998 0.0040973765 0.38593423 0.23852047 -0.14741376
0.033731103 0.079999998 0.0049949773 0.38593423 0.23852047 -0.14741376
0.031073689 0.079999998 0.00590397 0.38593423 0.23852047 -0.14741376
0.028382886 0.079999998 0.006824581 0.38593423 0.23852047 -0.14741376
0.025658023 0.079999998 0.0077570453 0.38593423 0.23852047 -0.14741376
0.02289841 0.079999998 0.008701602 0.38593423 0.23852047 -0.14741376
0.020103337 0.079999998 0.0096584968 0.38593423 0.23852047 -0.14741376
0.017272079 0.079999998 0.010627984 0.38593423 0.23852047 -0.14741376
0.014403884 0.079999998 0.011610324 0.38593423 0.23852047 -0.14741376
0.011497987 0.079999998 0.012605784 0.38593423 0.23852047 -0.14741376
0.0085535934 0.079999998 0.013614637 0.38593423 0.23852047 -0.14741376
0.0055698948 0.079999998 0.014637167 0.38593423 0.23852047 -0.14741376
0.0025460531 0.079999998 0.015673663 0.38593423 0.23852047 -0.14741376
0.039999999 0.00046678318 0.018043432 0.38593423 0.23852047 -0.14741376
0.039999999 0.0018955437 0.017743649 0.38593423 0.23852047 -0.14741376
0.039999999 0.0033188642 0.01744521 0.38593423 0.23852047 -0.14741376
0.039999999 0.004736796 0.017148104 0.38593423 0.23852047 -0.14741376
0.039999999 0.0061493893 0.016852319 0.38593423 0.23852047 -0.14741376
0.039999999 0.0075566941 0.016557844 0.38593423 0.23852047 -0.14741376
0.039999999 0.0089587597 0.016264668 0.38593423 0.23852047 -0.14741376
0.039999999 0.010355636 0.015972776 0.38593423 0.23852047 -0.14741376
0.039999999 0.01174737 0.015682163 0.38593423 0.23852047 -0.14741376
0.039999999 0.01313401 0.015392812 0.38593423 0.23852047 -0.14741376
0.039999999 0.014515604 0.015104714 0.38593423 0.23852047 -0.14741376
0.039999999 0.015892198 0.014817859 0.38593423 0.23852047 -0.14741376
0.039999999 0.017263839 0.014532236 0.38593423 0.23852047 -0.14741376
0.039999999 0.018630574 0.014247835 0.38593423 0.23852047 -0.14741376
0.039999999 0.019992445 0.013964643 0.38593423 0.23852047 -0.14741376
0.039999999 0.021349501 0.013682651 0.38593423 0.23852047 -0.14741376
0.039999999 0.022701785 0.01340185 0.38593423 0.23852047 -0.14741376
0.039999999 0.02404934 0.013122228 0.38593423 0.23852047 -0.14741376
0.039999999 0.025392212 0.012843776 0.38593423 0.23852047 -0.14741376
0.039999999 0.026730442 0.012566483 0.38593423 0.23852047 -0.14741376
0.039999999 0.028064076 0.012290339 0.38593423 0.23852047 -0.14741376
0.039999999 0.029393151 0.012015335 0.38593423 0.23852047 -0.14741376
0.039999999 0.030717714 0.011741461 0.38593423 0.23852047 -0.14741376
0.039999999 0.032037806 0.011468709 0.38593423 0.23852047 -0.14741376
0.039999999 0.033353467 0.011197066 0.38593423 0.23852047 -0.14741376
0.039999999 0.034664735 0.010926526 0.38593423 0.23852047 -0.14741376
0.039999999 0.035971653 0.010657078 0.38593423 0.23852047 -0.14741376
0.039999999 0.037274264 0.010388712 0.38593423 0.23852047 -0.14741376
0.039999999 0.038572602 0.010121421 0.38593423 0.23852047 -0.14741376
0.039999999 0.039866712 0.0098551949 0.38593423 0.23852047 -0.14741376
0.039999999 0.041156627 0.0095900251 0.38593423 0.23852047 -0.14741376
0.039999999 0.042442389 0.009325902 0.38593423 0.23852047 -0.14741376
0.039999999 0.043724038 0.0090628173 0.38593423 0.23852047 -0.14741376
0.039999999 0.045001604 0.0088007618 0.38593423 0.23852047 -0.14741376
0.039999999 0.046275135 0.0085397279 0.38593423 0.23852047 -0.14741376
0.039999999 0.047544658 0.0082797064 0.38593423 0.23852047 -0.14741376
0.039999999 0.048810218 0.0080206897 0.38593423 0.23852047 -0.14741376
0.039999999 0.050071843 0.0077626687 0.38593423 0.23852047 -0.14741376
0.039999999 0.051329575 0.0075056348 0.38593423 0.23852047 -0.14741376
0.039999999 0.052583452 0.0072495807 0.38593423 0.23852047 -0.14741376
0.039999999 0.053833503 0.0069944975 0.38593423 0.23852047 -0.14741376
0.039999999 0.055079766 0.0067403782 0.38593423 0.23852047 -0.14741376
0.039999999 0.056322277 0.006487214 0.38593423 0.23852047 -0.14741376
0.039999999 0.057561066 0.006234997 0.38593423 0.23852047 -0.14741376
0.039999999 0.058796171 0.0059837201 0.38593423 0.23852047 -0.14741376
0.039999999 0.060027625 0.005733375 0.38593423 0.23852047 -0.14741376
0.039999999 0.061255459 0.0054839542 0.38593423 0.23852047 -0.14741376
0.039999999 0.062479712 0.0052354499 0.38593423 0.23852047 -0.14741376
0.039999999 0.063700408 0.004987855 0.38593423 0.23852047 -0.14741376
0.039999999 0.064917594 0.0047411621 0.38593423 0.23852047 -0.14741376
0.039999999 0.066131286 0.0044953637 0.38593423 0.23852047 -0.14741376
0.039999999 0.067341521 0.0042504524 0.38593423 0.23852047 -0.14741376
0.039999999 0.068548344 0.0040064207 0.38593423 0.23852047 -0.14741376
0.039999999 0.069751762 0.0037632619 0.38593423 0.23852047 -0.14741376
0.039999999 0.070951827 0.0035209688 0.38593423 0.23852047 -0.14741376
0.039999999 0.072148561 0.0032795344 0.38593423 0.23852047 -0.14741376
0.039999999 0.073342003 0.0030389517 0.38593423 0.23852047 -0.14741376
0.039999999 0.074532166 0.0027992139 0.38593423 0.23852047 -0.14741376
0.039999999 0.075719096 0.0025603138 0.38593423 0.23852047 -0.14741376
0.039999999 0.076902822 0.0023222449 0.38593423 0.23852047 -0.14741376
0.039999999 0.078083359 0.0020850005 0.38593423 0.23852047 -0.14741376
0.039999999 0.079260752 0.0018485738 0.38593423 0.23852047 -0.14741376
0.039048035 0.079999998 0.0020230601 0.38593423 0.23852047 -0.14741376
0.036458932 0.079999998 0.0029012177 0.38593423 0.23852047 -0.14741376
0.033837814 0.079999998 0.0037904219 0.38593423 0.23852047 -0.14741376
0.031184046 0.079999998 0.0046908916 0.38593423 0.23852047 -0.14741376
0.028496971 0.079999998 0.0056028515 0.38593423 0.23852047 -0.14741376
0.025775926 0.079999998 0.006526533 0.38593423 0.23852047 -0.14741376
0.023020219 0.079999998 0.0074621723 0.38593423 0.23852047 -0.14741376
0.020229144 0.079999998 0.0084100133 0.38593423 0.23852047 -0.14741376
0.017401977 0.079999998 0.0093703056 0.38593423 0.23852047 -0.14741376
0.014537972 0.079999998 0.010343307 0.38593423 0.23852047 -0.14741376
0.011636363 0.079999998 0.01132928 0.38593423 0.23852047 -0.14741376
0.0086963642 0.079999998 0.012328498 0.38593423 0.23852047 -0.14741376
0.0057171639 0.079999998 0.013341239 0.38593423 0.23852047 -0.14741376
0.0026979309 0.079999998 0.014367789 0.38593423 0.23852047 -0.14741376
0.039999999 0.00048857927 0.016770011 0.38593423 0.23852047 -0.14741376
0.039999999 0.0019160166 0.016472925 0.38593423 0.23852047 -0.14741376
0.039999999 0.0033380243 0.016177164 0.38593423 0.23852047 -0.14741376
0.039999999 0.0047546527 0.015882717 0.38593423 0.23852047 -0.14741376
0.039999999 0.0061659529 0.015589571 0.38593423 0.23852047 -0.14741376
0.039999999 0.0075719738 0.015297714 0.38593423 0.23852047 -0.14741376
0.039999999 0.0089727659 0.015007135 0.38593423 0.23852047 -0.14741376
0.039999999 0.010368377 0.014717824 0.38593423 0.23852047 -0.14741376
0.039999999 0.011758856 0.014429769 0.38593423 0.23852047 -0.14741376
0.039999999 0.013144249 0.014142958 0.38593423 0.23852047 -0.14741376
0.039999999 0.014524606 0.013857382 0.38593423 0.23852047 -0.14741376
0.039999999 0.015899971 0.01357303 0.38593423 0.23852047 -0.14741376
0.039999999 0.017270394 0.01328989 0.38593423 0.23852047 -0.14741376
0.039999999 0.018635917 0.013007953 0.38593423 0.23852047 -0.14741376
0.039999999 0.019996587 0.012727208 0.38593423 0.23852047 -0.14741376
0.039999999 0.021352449 0.012447645 0.38593423 0.23852047 -0.14741376
0.039999999 0.022703547 0.012169253 0.38593423 0.23852047 -0.14741376
0.039999999 0.024049927 0.011892023 0.38593423 0.23852047 -0.14741376
0.039999999 0.025391629 0.011615945 0.38593423 0.23852047 -0.14741376
0.039999999 0.026728699 0.011341008 0.38593423 0.23852047 -0.14741376
0.039999999 0.028061178 0.011067203 0.38593423 0.23852047 -0.14741376
0.039999999 0.029389109 0.010794521 0.38593423 0.23852047 -0.14741376
0.039999999 0.030712536 0.010522951 0.38593423 0.23852047 -0.14741376
0.039999999 0.032031495 0.010252485 0.38593423 0.23852047 -0.14741376
0.039999999 0.033346035 0.0099831121 0.38593423 0.23852047 -0.14741376
0.039999999 0.034656189 0.0097148241 0.38593423 0.23852047 -0.14741376
0.039999999 0.035962 0.0094476119 0.38593423 0.23852047 -0.14741376
0.039999999 0.037263513 0.009181465 0.38593423 0.23852047 -0.14741376
0.039999999 0.038560759 0.0089163762 0.38593423 0.23852047 -0.14741376
0.039999999 0.039853781 0.008652336 0.38593423 0.23852047 -0.14741376
0.039999999 0.041142616 0.0083893351 0.38593423 0.23852047 -0.14741376
0.039999999 0.042427309 0.0081273653 0.38593423 0.23852047 -0.14741376
0.039999999 0.043707892 0.007866418 0.38593423 0.23852047 -0.14741376
0.039999999 0.0449844 0.007606484 0.38593423 0.23852047 -0.14741376
0.039999999 0.046256877 0.0073475554 0.38593423 0.23852047 -0.14741376
0.039999999 0.047525357 0.0070896233 0.38593423 0.23852047 -0.14741376
0.039999999 0.048789877 0.0068326797 0.38593423 0.23852047 -0.14741376
0.039999999 0.050050475 0.0065767169 0.38593423 0.23852047 -0.14741376
0.039999999 0.051307179 0.0063217259 0.38593423 0.23852047 -0.14741376
0.039999999 0.052560035 0.0060676988 0.38593423 0.23852047 -0.14741376
0.039999999 0.053809073 0.0058146282 0.38593423 0.23852047 -0.14741376
0.039999999 0.055054329 0.0055625057 0.38593423 0.23852047 -0.14741376
0.039999999 0.056295838 0.0053113233 0.38593423 0.23852047 -0.14741376
0.039999999 0.057533633 0.0050610737 0.38593423 0.23852047 -0.14741376
0.039999999 0.058767747 0.0048117484 0.38593423 0.23852047 -0.14741376
0.039999999 0.059998218 0.0045633409 0.38593423 0.23852047 -0.14741376
0.039999999 0.061225075 0.0043158429 0.38593423 0.23852047 -0.14741376
0.039999999 0.062448353 0.0040692473 0.38593423 0.23852047 -0.14741376
0.039999999 0.063668087 0.0038235462 0.38593423 0.23852047 -0.14741376
0.039999999 0.064884305 0.003578733 0.38593423 0.23852047 -0.14741376
0.039999999 0.066097043 0.0033347998 0.38593423 0.23852047 -0.14741376
0.039999999 0.067306332 0.0030917395 0.38593423 0.23852047 -0.14741376
0.039999999 0.068512201 0.0028495451 0.38593423 0.23852047 -0.14741376
0.039999999 0.069714688 0.0026082096 0.38593423 0.23852047 -0.14741376
0.039999999 0.070913814 0.0023677258 0.38593423 0.23852047 -0.14741376
0.039999999 0.072109617 0.002128087 0.38593423 0.23852047 -0.14741376
0.039999999 0.073302135 0.0018892862 0.38593423 0.23852047 -0.14741376
0.039999999 0.074491382 0.0016513166 0.38593423 0.23852047 -0.14741376
0.039999999 0.075677395 0.0014141714 0.38593423 0.23852047 -0.14741376
0.039999999 0.076860204 0.0011778439 0.38593423 0.23852047 -0.14741376
0.039999999 0.07803984 0.00094232761 0.38593423 0.23852047 -0.14741376
0.039999999 0.079216331 0.00070761581 0.38593423 0.23852047 -0.14741376
0.039147444 0.079999998 0.0008381707 0.38593423 0.23852047 -0.14741376
0.036561817 0.079999998 0.0017080916 0.38593423 0.23852047 -0.14741376
0.033944253 0.079999998 0.0025889366 0.38593423 0.23852047 -0.14741376
0.031294119 0.079999998 0.0034809222 0.38593423 0.23852047 -0.14741376
0.028610764 0.079999998 0.0043842704 0.38593423 0.23852047 -0.14741376
0.025893522 0.079999998 0.0052992087 0.38593423 0.23852047 -0.14741376
0.02314171 0.079999998 0.006225972 0.38593423 0.23852047 -0.14741376
0.020354621 0.079999998 0.0071648005 0.38593423 0.23852047 -0.14741376
0.017531533 0.079999998 0.0081159407 0.38593423 0.23852047 -0.14741376
0.014671705 0.079999998 0.0090796473 0.38593423 0.23852047 -0.14741376
0.011774372 0.079999998 0.01005618 0.38593423 0.23852047 -0.14741376
0.0088387514 0.079999998 0.011045807 0.38593423 0.23852047 -0.14741376
0.0058640358 0.079999998 0.012048805 0.38593423 0.23852047 -0.14741376
0.0028493968 0.079999998 0.013065456 0.38593423 0.23852047 -0.14741376
0.039999999 0.00051032944 0.015499267 0.38593423 0.23852047 -0.14741376
0.039999999 0.0019364466 0.01520487 0.38593423 0.23852047 -0.14741376
0.039999999 0.0033571438 0.014911778 0.38593423 0.23852047 -0.14741376
0.039999999 0.0047724722 0.014619979 0.38593423 0.23852047 -0.14741376
0.039999999 0.0061824815 0.01432946 0.38593423 0.23852047 -0.14741376
0.039999999 0.0075872219 0.014040212 0.38593423 0.23852047 -0.14741376
0.039999999 0.0089867422 0.013752222 0.38593423 0.23852047 -0.14741376
0.039999999 0.010381091 0.01346548 0.38593423 0.23852047 -0.14741376
0.039999999 0.011770317 0.013179976 0.38593423 0.23852047 -0.14741376
0.039999999 0.013154468 0.012895696 0.38593423 0.23852047 -0.14741376
0.039999999 0.01453359 0.012612632 0.38593423 0.23852047 -0.14741376
0.039999999 0.015907729 0.012330773 0.38593423 0.23852047 -0.14741376
0.039999999 0.017276933 0.012050108 0.38593423 0.23852047 -0.14741376
0.039999999 0.018641248 0.011770627 0.38593423 0.23852047 -0.14741376
0.039999999 0.02000072 0.01149232 0.38593423 0.23852047 -0.14741376
0.039999999 0.021355391 0.011215176 0.38593423 0.23852047 -0.14741376
0.039999999 0.022705305 0.010939186 0.38593423 0.23852047 -0.14741376
0.039999999 0.02405051 0.010664339 0.38593423 0.23852047 -0.14741376
0.039999999 0.025391046 0.010390626 0.38593423 0.23852047 -0.14741376
0.039999999 0.026726957 0.010118037 0.38593423 0.23852047 -0.14741376
0.039999999 0.028058287 0.0098465635 0.38593423 0.23852047 -0.14741376
0.039999999 0.029385075 0.009576194 0.38593423 0.23852047 -0.14741376
0.039999999 0.030707367 0.0093069198 0.38593423 0.23852047 -0.14741376
0.039999999 0.032025199 0.0090387315 0.38593423 0.23852047 -0.14741376
0.039999999 0.033338618 0.0087716198 0.38593423 0.23852047 -0.14741376
0.039999999 0.034647662 0.0085055763 0.38593423 0.23852047 -0.14741376
0.039999999 0.035952367 0.0082405917 0.38593423 0.23852047 -0.14741376
0.039999999 0.03725278 0.0079766568 0.38593423 0.23852047 -0.14741376
0.039999999 0.038548935 0.0077137621 0.38593423 0.23852047 -0.14741376
0.039999999 0.039840877 0.0074518998 0.38593423 0.23852047 -0.14741376
0.039999999 0.041128635 0.007191061 0.38593423 0.23852047 -0.14741376
0.039999999 0.042412259 0.0069312365 0.38593423 0.23852047 -0.14741376
0.039999999 0.043691777 0.0066724187 0.38593423 0.23852047 -0.14741376
0.039999999 0.04496723 0.0064145983 0.38593423 0.23852047 -0.14741376
0.039999999 0.046238657 0.006157767 0.38593423 0.23852047 -0.14741376
0.039999999 0.047506094 0.0059019173 0.38593423 0.23852047 -0.14741376
0.039999999 0.048769578 0.0056470404 0.38593423 0.23852047 -0.14741376
0.039999999 0.050029144 0.0053931284 0.38593423 0.23852047 -0.14741376
0.039999999 0.051284827 0.0051401728 0.38593423 0.23852047 -0.14741376
0.039999999 0.052536666 0.0048881662 0.38593423 0.23852047 -0.14741376
0.039999999 0.053784691 0.0046371007 0.38593423 0.23852047 -0.14741376
0.039999999 0.055028941 0.004386968 0.38593423 0.23852047 -0.14741376
0.039999999 0.056269452 0.0041377605 0.38593423 0.23852047 -0.14741376
0.039999999 0.057506252 0.0038894711 0.38593423 0.23852047 -0.14741376
0.039999999 0.058739379 0.0036420918 0.38593423 0.23852047 -0.14741376
0.039999999 0.059968866 0.0033956149 0.38593423 0.23852047 -0.14741376
0.039999999 0.061194751 0.0031500331 0.38593423 0.23852047 -0.14741376
0.039999999 0.062417056 0.002905339 0.38593423 0.23852047 -0.14741376
0.039999999 0.063635826 0.0026615255 0.38593423 0.23852047 -0.14741376
0.039999999 0.064851083 0.0024185851 0.38593423 0.23852047 -0.14741376
0.039999999 0.066062868 0.0021765109 0.38593423 0.23852047 -0.14741376
0.039999999 0.06727121 0.0019352956 0.38593423 0.23852047 -0.14741376
0.039999999 0.068476133 0.0016949321 0.38593423 0.23852047 -0.14741376
0.039999999 0.069677681 0.0014554136 0.38593423 0.23852047 -0.14741376
0.039999999 0.070875876 0.0012167331 0.38593423 0.23852047 -0.14741376
0.039999999 0.072070755 0.00097888371 0.38593423 0.23852047 -0.14741376
0.039999999 0.073262341 0.00074185873 0.38593423 0.23852047 -0.14741376
0.039999999 0.074450672 0.00050565141 0.38593423 0.23852047 -0.14741376
0.039999999 0.075635768 0.00027025508 0.38593423 0.23852047 -0.14741376
0.039999999 0.076817676 3.5663103e-05 0.38593423 0.23852047 -0.14741376
0.03953442 0.077780366 0 0.38593423 0.23852047 -0.14741376
0.038985293 0.078704596 0 0.38593423 0.23852047 -0.14741376
0.038436282 0.079629481 0 0.38593423 0.23852047 -0.14741376
0.036664441 0.079999998 0.00051796995 0.38593423 0.23852047 -0.14741376
0.03405042 0.079999998 0.0013904932 0.38593423 0.23852047 -0.14741376
0.03140391 0.079999998 0.0022740329 0.38593423 0.23852047 -0.14741376
0.028724264 0.079999998 0.0031688078 0.38593423 0.23852047 -0.14741376
0.026010817 0.079999998 0.0040750438 0.38593423 0.23852047 -0.14741376
0.023262886 0.079999998 0.0049929717 0.38593423 0.23852047 -0.14741376
0.02047977 0.079999998 0.0059228288 0.38593423 0.23852047 -0.14741376
0.01766075 0.079999998 0.0068648593 0.38593423 0.23852047 -0.14741376
0.014805086 0.079999998 0.0078193145 0.38593423 0.23852047 -0.14741376
0.011912016 0.079999998 0.0087864501 0.38593423 0.23852047 -0.14741376
0.0089807604 0.079999998 0.009766533 0.38593423 0.23852047 -0.14741376
0.0060105147 0.079999998 0.010759833 0.38593423 0.23852047 -0.14741376
0.0030004545 0.079999998 0.011766633 0.38593423 0.23852047 -0.14741376
0.039999999 0.00053203426 0.014231176 0.38593423 0.23852047 -0.14741376
0.039999999 0.001956834 0.013939459 0.38593423 0.23852047 -0.14741376
0.039999999 0.0033762238 0.013649025 0.38593423 0.23852047 -0.14741376
0.039999999 0.0047902549 0.013359863 0.38593423 0.23852047 -0.14741376
0.039999999 0.0061989762 0.013071964 0.38593423 0.23852047 -0.14741376
0.039999999 0.0076024383 0.012785315 0.38593423 0.23852047 -0.14741376
0.039999999 0.0090006897 0.012499904 0.38593423 0.23852047 -0.14741376
0.039999999 0.01039378 0.012215722 0.38593423 0.23852047 -0.14741376
0.039999999 0.011781755 0.011932758 0.38593423 0.23852047 -0.14741376
0.039999999 0.013164665 0.011651001 0.38593423 0.23852047 -0.14741376
0.039999999 0.014542555 0.01137044 0.38593423 0.23852047 -0.14741376
0.039999999 0.015915472 0.011091065 0.38593423 0.23852047 -0.14741376
0.039999999 0.017283462 0.010812866 0.38593423 0.23852047 -0.14741376
0.039999999 0.018646572 0.010535832 0.38593423 0.23852047 -0.14741376
0.039999999 0.020004844 0.010259953 0.38593423 0.23852047 -0.14741376
0.039999999 0.021358326 0.0099852206 0.38593423 0.23852047 -0.14741376
0.039999999 0.022707062 0.0097116232 0.38593423 0.23852047 -0.14741376
0.039999999 0.024051093 0.0094391517 0.38593423 0.23852047 -0.14741376
0.039999999 0.025390465 0.009167796 0.38593423 0.23852047 -0.14741376
0.039999999 0.026725221 0.0088975457 0.38593423 0.23852047 -0.14741376
0.039999999 0.028055402 0.0086283935 0.38593423 0.23852047 -0.14741376
0.039999999 0.02938105 0.0083603282 0.38593423 0.23852047 -0.14741376
0.039999999 0.030702209 0.0080933422 0.38593423 0.23852047 -0.14741376
0.039999999 0.032018919 0.0078274244 0.38593423 0.23852047 -0.14741376
0.039999999 0.033331219 0.0075625661 0.38593423 0.23852047 -0.14741376
0.039999999 0.03463915 0.0072987592 0.38593423 0.23852047 -0.14741376
0.039999999 0.035942756 0.007035994 0.38593423 0.23852047 -0.14741376
0.039999999 0.03724207 0.0067742621 0.38593423 0.23852047 -0.14741376
0.039999999 0.038537141 0.0065135546 0.38593423 0.23852047 -0.14741376
0.039999999 0.039827999 0.0062538628 0.38593423 0.23852047 -0.14741376
0.039999999 0.041114684 0.0059951777 0.38593423 0.23852047 -0.14741376
0.039999999 0.042397238 0.0057374914 0.38593423 0.23852047 -0.14741376
0.039999999 0.043675695 0.0054807956 0.38593423 0.23852047 -0.14741376
0.039999999 0.044950098 0.0052250815 0.38593423 0.23852047 -0.14741376
0.039999999 0.046220478 0.004970341 0.38593423 0.23852047 -0.14741376
0.039999999 0.047486871 0.0047165658 0.38593423 0.23852047 -0.14741376
0.039999999 0.04874932 0.0044637481 0.38593423 0.23852047 -0.14741376
0.039999999 0.050007857 0.0042118798 0.38593423 0.23852047 -0.14741376
0.039999999 0.05126252 0.0039609526 0.38593423 0.23852047 -0.14741376
0.039999999 0.052513342 0.0037109593 0.38593423 0.23852047 -0.14741376
0.039999999 0.053760357 0.0034618918 0.38593423 0.23852047 -0.14741376
0.039999999 0.055003606 0.0032137423 0.38593423 0.23852047 -0.14741376
0.039999999 0.056243118 0.0029665034 0.38593423 0.23852047 -0.14741376
0.039999999 0.057478927 0.0027201672 0.38593423 0.23852047 -0.14741376
0.039999999 0.058711067 0.0024747264 0.38593423 0.23852047 -0.14741376
0.039999999 0.059939578 0.0022301737 0.38593423 0.23852047 -0.14741376
0.039999999 0.061164483 0.0019865015 0.38593423 0.23852047 -0.14741376
0.039999999 0.062385824 0.0017437028 0.38593423 0.23852047 -0.14741376
0.039999999 0.063603625 0.0015017702 0.38593423 0.23852047 -0.14741376
0.039999999 0.064817928 0.0012606966 0.38593423 0.23852047 -0.14741376
0.039999999 0.066028759 0.0010204748 0.38593423 0.23852047 -0.14741376
0.039999999 0.067236155 0.00078109809 0.38593423 0.23852047 -0.14741376
0.039999999 0.068440139 0.00054255931 0.38593423 0.23852047 -0.14741376
0.039999999 0.069640748 0.00030485156 0.38593423 0.23852047 -0.14741376
0.039999999 0.070838012 6.7968111e-05 0.38593423 0.23852047 -0.14741376
0.039605074 0.071841896 0 0.38593423 0.23852047 -0.14741376
0.039050858 0.072769098 0 0.38593423 0.23852047 -0.14741376
0.038496766 0.073696911 0 0.38593423 0.23852047 -0.14741376
0.037942797 0.074625343 0 0.38593423 0.23852047 -0.14741376
0.037388943 0.075554401 0 0.38593423 0.23852047 -0.14741376
0.036835201 0.076484092 0 0.38593423 0.23852047 -0.14741376
0.03628156 0.077414438 0 0.38593423 0.23852047 -0.14741376
0.035728015 0.078345448 0 0.38593423 0.23852047 -0.14741376
0.035174564 0.079277121 0 0.38593423 0.23852047 -0.14741376
0.034156322 0.079999998 0.00019506404 0.38593423 0.23852047 -0.14741376
0.031513426 0.079999998 0.0010701955 0.38593423 0.23852047 -0.14741376
0.028837478 0.079999998 0.0019564363 0.38593423 0.23852047 -0.14741376
0.026127813 0.079999998 0.0028540087 0.38593423 0.23852047 -0.14741376
0.023383752 0.079999998 0.0037631413 0.38593423 0.23852047 -0.14741376
0.020604597 0.079999998 0.0046840687 0.38593423 0.23852047 -0.14741376
0.017789632 0.079999998 0.0056170314 0.38593423 0.23852047 -0.14741376
0.014938117 0.079999998 0.0065622777 0.38593423 0.23852047 -0.14741376
0.012049297 0.079999998 0.007520061 0.38593423 0.23852047 -0.14741376
0.0091223922 0.079999998 0.0084906435 0.38593423 0.23852047 -0.14741376
0.0061566038 0.079999998 0.0094742933 0.38593423 0.23852047 -0.14741376
0.0031511078 0.079999998 0.010471287 0.38593423 0.23852047 -0.14741376
0.00010505901 0.079999998 0.011481909 0.38593423 0.23852047 -0.14741376
0.039999999 0.00055369415 0.012965714 0.38593423 0.23852047 -0.14741376
0.039999999 0.0019771792 0.012676665 0.38593423 0.23852047 -0.14741376
0.039999999 0.0033952645 0.012388879 0.38593423 0.23852047 -0.14741376
0.039999999 0.0048080003 0.012102347 0.38593423 0.23852047 -0.14741376
0.039999999 0.0062154368 0.011817056 0.38593423 0.23852047 -0.14741376
0.039999999 0.0076176235 0.011532996 0.38593423 0.23852047 -0.14741376
0.039999999 0.0090146093 0.011250156 0.38593423 0.23852047 -0.14741376
0.039999999 0.010406442 0.010968525 0.38593423 0.23852047 -0.14741376
0.039999999 0.01179317 0.010688092 0.38593423 0.23852047 -0.14741376
0.039999999 0.01317484 0.010408848 0.38593423 0.23852047 -0.14741376
0.039999999 0.014551501 0.010130781 0.38593423 0.23852047 -0.14741376
0.039999999 0.015923196 0.0098538809 0.38593423 0.23852047 -0.14741376
0.039999999 0.017289976 0.0095781386 0.38593423 0.23852047 -0.14741376
0.039999999 0.018651882 0.0093035428 0.38593423 0.23852047 -0.14741376
0.039999999 0.020008961 0.0090300851 0.38593423 0.23852047 -0.14741376
0.039999999 0.021361256 0.0087577533 0.38593423 0.23852047 -0.14741376
0.039999999 0.022708813 0.0084865401 0.38593423 0.23852047 -0.14741376
0.039999999 0.024051676 0.0082164351 0.38593423 0.23852047 -0.14741376
0.039999999 0.025389886 0.0079474272 0.38593423 0.23852047 -0.14741376
0.039999999 0.026723487 0.0076795095 0.38593423 0.23852047 -0.14741376
0.039999999 0.028052522 0.0074126706 0.38593423 0.23852047 -0.14741376
0.039999999 0.029377032 0.0071469019 0.38593423 0.23852047 -0.14741376
0.039999999 0.030697061 0.0068821944 0.38593423 0.23852047 -0.14741376
0.039999999 0.032012645 0.0066185389 0.38593423 0.23852047 -0.14741376
0.039999999 0.033323832 0.0063559264 0.38593423 0.23852047 -0.14741376
0.039999999 0.034630656 0.0060943477 0.38593423 0.23852047 -0.14741376
0.039999999 0.035933159 0.0058337948 0.38593423 0.23852047 -0.14741376
0.039999999 0.037231382 0.005574258 0.38593423 0.23852047 -0.14741376
0.039999999 0.038525365 0.0053157299 0.38593423 0.23852047 -0.14741376
0.039999999 0.039815143 0.0050582006 0.38593423 0.23852047 -0.14741376
0.039999999 0.041100759 0.0048016622 0.38593423 0.23852047 -0.14741376
0.039999999 0.042382248 0.0045461068 0.38593423 0.23852047 -0.14741376
0.039999999 0.043659646 0.0042915251 0.38593423 0.23852047 -0.14741376
0.039999999 0.044932995 0.0040379101 0.38593423 0.23852047 -0.14741376
0.039999999 0.046202328 0.0037852526 0.38593423 0.23852047 -0.14741376
0.039999999 0.047467686 0.0035335452 0.38593423 0.23852047 -0.14741376
0.039999999 0.048729103 0.0032827796 0.38593423 0.23852047 -0.14741376
0.039999999 0.049986612 0.0030329479 0.38593423 0.23852047 -0.14741376
0.039999999 0.051240254 0.0027840424 0.38593423 0.23852047 -0.14741376
0.039999999 0.052490063 0.0025360554 0.38593423 0.23852047 -0.14741376
0.039999999 0.053736072 0.002288979 0.38593423 0.23852047 -0.14741376
0.039999999 0.054978319 0.0020428058 0.38593423 0.23852047 -0.14741376
0.039999999 0.056216832 0.0017975282 0.38593423 0.23852047 -0.14741376
0.039999999 0.057451654 0.0015531387 0.38593423 0.23852047 -0.14741376
0.039999999 0.058682811 0.0013096301 0.38593423 0.23852047 -0.14741376
0.039999999 0.059910342 0.0010669949 0.38593423 0.23852047 -0.14741376
0.039999999 0.061134275 0.0008252259 0.38593423 0.23852047 -0.14741376
0.039999999 0.06235465 0.00058431586 0.38593423 0.23852047 -0.14741376
0.039999999 0.06357149 0.00034425774 0.38593423 0.23852047 -0.14741376
0.039999999 0.06478484 0.0001050445 0.38593423 0.23852047 -0.14741376
0.039686829 0.065838531 0 0.38593423 0.23852047 -0.14741376
0.039127477 0.066769056 0 0.38593423 0.23852047 -0.14741376
0.038568258 0.06770014 0 0.38593423 0.23852047 -0.14741376
0.038009178 0.068631783 0 0.38593423 0.23852047 -0.14741376
0.037450224 0.069564007 0 0.38593423 0.23852047 -0.14741376
0.036891393 0.070496812 0 0.38593423 0.23852047 -0.14741376
0.036332678 0.071430214 0 0.38593423 0.23852047 -0.14741376
0.035774071 0.072364219 0 0.38593423 0.23852047 -0.14741376
0.035215568 0.073298849 0 0.38593423 0.23852047 -0.14741376
0.034657162 0.074234098 0 0.38593423 0.23852047 -0.14741376
0.034098849 0.075169995 0 0.38593423 0.23852047 -0.14741376
0.033540621 0.076106533 0 0.38593423 0.23852047 -0.14741376
0.032982472 0.077043742 0 0.38593423 0.23852047 -0.14741376
0.032424398 0.077981614 0 0.38593423 0.23852047 -0.14741376
0.03186639 0.078920171 0 0.38593423 0.23852047 -0.14741376
0.031308446 0.079859413 0 0.38593423 0.23852047 -0.14741376
0.028950404 0.079999998 0.00074712682 0.38593423 0.23852047 -0.14741376
0.02624451 0.079999998 0.0016360751 0.38593423 0.23852047 -0.14741376
0.023504309 0.079999998 0.0025364524 0.38593423 0.23852047 -0.14741376
0.020729104 0.079999998 0.0034484905 0.38593423 0.23852047 -0.14741376
0.017918181 0.079999998 0.0043724272 0.38593423 0.23852047 -0.14741376
0.015070803 0.079999998 0.0053085075 0.38593423 0.23852047 -0.14741376
0.012186219 0.079999998 0.0062569813 0.38593423 0.23852047 -0.14741376
0.0092636524 0.079999998 0.007218108 0.38593423 0.23852047 -0.14741376
0.006302306 0.079999998 0.0081921527 0.38593423 0.23852047 -0.14741376
0.0033013602 0.079999998 0.0091793872 0.38593423 0.23852047 -0.14741376
0.00025997226 0.079999998 0.010180093 0.38593423 0.23852047 -0.14741376
0.039999999 0.00057530944 0.011702852 0.38593423 0.23852047 -0.14741376
0.039999999 0.0019974827 0.011416462 0.38593423 0.23852047 -0.14741376
0.039999999 0.003414266 0.011131315 0.38593423 0.23852047 -0.14741376
0.039999999 0.0048257099 0.010847403 0.38593423 0.23852047 -0.14741376
0.039999999 0.006231864 0.010564711 0.38593423 0.23852047 -0.14741376
0.039999999 0.0076327776 0.010283231 0.38593423 0.23852047 -0.14741376
0.039999999 0.0090284999 0.010002951 0.38593423 0.23852047 -0.14741376
0.039999999 0.010419078 0.0097238617 0.38593423 0.23852047 -0.14741376
0.039999999 0.011804561 0.0094459523 0.38593423 0.23852047 -0.14741376
0.039999999 0.013184996 0.0091692107 0.38593423 0.23852047 -0.14741376
0.039999999 0.014560429 0.0088936286 0.38593423 0.23852047 -0.14741376
0.039999999 0.015930908 0.0086191958 0.38593423 0.23852047 -0.14741376
0.039999999 0.017296476 0.008345901 0.38593423 0.23852047 -0.14741376
0.039999999 0.018657181 0.0080737351 0.38593423 0.23852047 -0.14741376
0.039999999 0.020013068 0.0078026885 0.38593423 0.23852047 -0.14741376
0.039999999 0.02136418 0.0075327512 0.38593423 0.23852047 -0.14741376
0.039999999 0.022710562 0.0072639133 0.38593423 0.23852047 -0.14741376
0.039999999 0.024052257 0.0069961655 0.38593423 0.23852047 -0.14741376
0.039999999 0.025389306 0.0067294985 0.38593423 0.23852047 -0.14741376
0.039999999 0.026721757 0.006463903 0.38593423 0.23852047 -0.14741376
0.039999999 0.028049648 0.0061993697 0.38593423 0.23852047 -0.14741376
0.039999999 0.029373024 0.0059358892 0.38593423 0.23852047 -0.14741376
0.039999999 0.030691924 0.0056734532 0.38593423 0.23852047 -0.14741376
0.039999999 0.032006387 0.0054120519 0.38593423 0.23852047 -0.14741376
0.039999999 0.03331646 0.0051516769 0.38593423 0.23852047 -0.14741376
0.039999999 0.034622177 0.004892319 0.38593423 0.23852047 -0.14741376
0.039999999 0.035923585 0.0046339701 0.38593423 0.23852047 -0.14741376
0.039999999 0.037220716 0.0043766215 0.38593423 0.23852047 -0.14741376
0.039999999 0.038513616 0.0041202642 0.38593423 0.23852047 -0.14741376
0.039999999 0.039802317 0.0038648904 0.38593423 0.23852047 -0.14741376
0.039999999 0.04108686 0.0036104915 0.38593423 0.23852047 -0.14741376
0.039999999 0.042367283 0.0033570589 0.38593423 0.23852047 -0.14741376
0.039999999 0.043643627 0.0031045848 0.38593423 0.23852047 -0.14741376
0.039999999 0.044915926 0.0028530611 0.38593423 0.23852047 -0.14741376
0.039999999 0.046184216 0.0026024797 0.38593423 0.23852047 -0.14741376
0.039999999 0.047448538 0.0023528326 0.38593423 0.23852047 -0.14741376
0.039999999 0.048708923 0.0021041119 0.38593423 0.23852047 -0.14741376
0.039999999 0.049965411 0.0018563099 0.38593423 0.23852047 -0.14741376
0.039999999 0.051218033 0.0016094189 0.38593423 0.23852047 -0.14741376
0.039999999 0.052466832 0.0013634312 0.38593423 0.23852047 -0.14741376
0.039999999 0.053711835 0.0011183392 0.38593423 0.23852047 -0.14741376
0.039999999 0.05495308 0.00087413564 0.38593423 0.23852047 -0.14741376
0.039999999 0.056190602 0.00063081278 0.38593423 0.23852047 -0.14741376
0.039999999 0.057424434 0.00038836341 0.38593423 0.23852047 -0.14741376
0.039999999 0.05865461 0.00014678024 0.38593423 0.23852047 -0.14741376
0.039779402 0.059767246 0 0.38593423 0.23852047 -0.14741376
0.039214857 0.06070146 0 0.38593423 0.23852047 -0.14741376
0.038650468 0.061636169 0 0.38593423 0.23852047 -0.14741376
0.038086224 0.062571391 0 0.38593423 0.23852047 -0.14741376
0.037522122 0.063507132 0 0.38593423 0.23852047 -0.14741376
0.036958158 0.064443402 0 0.38593423 0.23852047 -0.14741376
0.03639432 0.065380216 0 0.38593423 0.23852047 -0.14741376
0.035830606 0.066317581 0 0.38593423 0.23852047 -0.14741376
0.035267007 0.067255512 0 0.38593423 0.23852047 -0.14741376
0.034703519 0.068194009 0 0.38593423 0.23852047 -0.14741376
0.034140132 0.069133095 0 0.38593423 0.23852047 -0.14741376
0.033576846 0.070072778 0 0.38593423 0.23852047 -0.14741376
0.033013653 0.071013071 0 0.38593423 0.23852047 -0.14741376
0.032450546 0.071953975 0 0.38593423 0.23852047 -0.14741376
0.031887516 0.072895505 0 0.38593423 0.23852047 -0.14741376
0.031324562 0.073837675 0 0.38593423 0.23852047 -0.14741376
0.030761674 0.074780494 0 0.38593423 0.23852047 -0.14741376
0.030198848 0.075723976 0 0.38593423 0.23852047 -0.14741376
0.029636076 0.076668128 0 0.38593423 0.23852047 -0.14741376
0.029073354 0.077612959 0 0.38593423 0.23852047 -0.14741376
0.028510673 0.078558482 0 0.38593423 0.23852047 -0.14741376
0.027948029 0.079504713 0 0.38593423 0.23852047 -0.14741376
0.026360914 0.079999998 0.00042121444 0.38593423 0.23852047 -0.14741376
0.02362456 0.079999998 0.0013128762 0.38593423 0.23852047 -0.14741376
0.020853292 0.079999998 0.0022160655 0.38593423 0.23852047 -0.14741376
0.018046398 0.079999998 0.0031310176 0.38593423 0.23852047 -0.14741376
0.015203147 0.079999998 0.0040579736 0.38593423 0.23852047 -0.14741376
0.012322786 0.079999998 0.0049971817 0.38593423 0.23852047 -0.14741376
0.0094045438 0.079999998 0.0059488965 0.38593423 0.23852047 -0.14741376
0.0064476258 0.079999998 0.0069133802 0.38593423 0.23852047 -0.14741376
0.0034512153 0.079999998 0.0078909025 0.38593423 0.23852047 -0.14741376
0.00041447359 0.079999998 0.0088817393 0.38593423 0.23852047 -0.14741376
0.039999999 0.00059688062 0.010442567 0.38593423 0.23852047 -0.14741376
0.039999999 0.0020177448 0.010158827 0.38593423 0.23852047 -0.14741376
0.039999999 0.0034332292 0.0098763099 0.38593423 0.23852047 -0.14741376
0.039999999 0.0048433836 0.0095950058 0.38593423 0.23852047 -0.14741376
0.039999999 0.0062482576 0.0093149049 0.38593423 0.23852047 -0.14741376
0.039999999 0.0076479013 0.0090359952 0.38593423 0.23852047 -0.14741376
0.039999999 0.0090423627 0.0087582674 0.38593423 0.23852047 -0.14741376
0.039999999 0.010431689 0.0084817102 0.38593423 0.23852047 -0.14741376
0.039999999 0.01181593 0.0082063135 0.38593423 0.23852047 -0.14741376
0.039999999 0.013195131 0.0079320669 0.38593423 0.23852047 -0.14741376
0.039999999 0.01456934 0.0076589608 0.38593423 0.23852047 -0.14741376
0.039999999 0.015938602 0.0073869848 0.38593423 0.23852047 -0.14741376
0.039999999 0.017302964 0.0071161296 0.38593423 0.23852047 -0.14741376
0.039999999 0.018662471 0.0068463846 0.38593423 0.23852047 -0.14741376
0.039999999 0.020017168 0.0065777409 0.38593423 0.23852047 -0.14741376
0.039999999 0.021367097 0.0063101882 0.38593423 0.23852047 -0.14741376
0.039999999 0.022712305 0.0060437177 0.38593423 0.23852047 -0.14741376
0.039999999 0.024052836 0.0057783197 0.38593423 0.23852047 -0.14741376
0.039999999 0.025388729 0.0055139847 0.38593423 0.23852047 -0.14741376
0.039999999 0.02672003 0.0052507035 0.38593423 0.23852047 -0.14741376
0.039999999 0.028046781 0.0049884678 0.38593423 0.23852047 -0.14741376
0.039999999 0.029369021 0.0047272677 0.38593423 0.23852047 -0.14741376
0.039999999 0.030686796 0.0044670948 0.38593423 0.23852047 -0.14741376
0.039999999 0.032000143 0.0042079398 0.38593423 0.23852047 -0.14741376
0.039999999 0.033309102 0.0039497945 0.38593423 0.23852047 -0.14741376
0.039999999 0.034613717 0.0036926495 0.38593423 0.23852047 -0.14741376
0.039999999 0.03591403 0.0034364972 0.38593423 0.23852047 -0.14741376
0.039999999 0.03721007 0.0031813285 0.38593423 0.23852047 -0.14741376
0.039999999 0.038501885 0.0029271352 0.38593423 0.23852047 -0.14741376
0.039999999 0.039789513 0.0026739091 0.38593423 0.23852047 -0.14741376
0.039999999 0.041072987 0.0024216417 0.38593423 0.23852047 -0.14741376
0.039999999 0.042352352 0.002170325 0.38593423 0.23852047 -0.14741376
0.039999999 0.043627642 0.0019199509 0.38593423 0.23852047 -0.14741376
0.039999999 0.04489889 0.0016705116 0.38593423 0.23852047 -0.14741376
0.039999999 0.046166141 0.0014219988 0.38593423 0.23852047 -0.14741376
0.039999999 0.047429428 0.001174405 0.38593423 0.23852047 -0.14741376
0.039999999 0.048688784 0.00092772231 0.38593423 0.23852047 -0.14741376
0.039999999 0.049944248 0.00068194303 0.38593423 0.23852047 -0.14741376
0.039999999 0.051195856 0.00043705961 0.38593423 0.23852047 -0.14741376
0.039999999 0.052443642 0.00019306449 0.38593423 0.23852047 -0.14741376
0.039882507 0.053624865 0 0.38593423 0.23852047 -0.14741376
0.03931272 0.054563142 0 0.38593423 0.23852047 -0.14741376
0.038743101 0.05550186 0 0.38593423 0.23852047 -0.14741376
0.038173646 0.056441028 0 0.38593423 0.23852047 -0.14741376
0.037604343 0.057380665 0 0.38593423 0.23852047 -0.14741376
0.03703519 0.058320772 0 0.38593423 0.23852047 -0.14741376
0.036466178 0.059261367 0 0.38593423 0.23852047 -0.14741376
0.035897307 0.060202461 0 0.38593423 0.23852047 -0.14741376
0.035328563 0.061144058 0 0.38593423 0.23852047 -0.14741376
0.034759942 0.062086172 0 0.38593423 0.23852047 -0.14741376
0.034191441 0.06302882 0 0.38593423 0.23852047 -0.14741376
0.033623047 0.063972004 0 0.38593423 0.23852047 -0.14741376
0.033054762 0.064915739 0 0.38593423 0.23852047 -0.14741376
0.032486577 0.065860033 0 0.38593423 0.23852047 -0.14741376
0.031918481 0.066804901 0 0.38593423 0.23852047 -0.14741376
0.031350471 0.06775035 0 0.38593423 0.23852047 -0.14741376
0.030782545 0.068696395 0 0.38593423 0.23852047 -0.14741376
0.03021469 0.06964305 0 0.38593423 0.23852047 -0.14741376
0.029646901 0.07059031 0 0.38593423 0.23852047 -0.14741376
0.029079176 0.071538202 0 0.38593423 0.23852047 -0.14741376
0.028511504 0.072486736 0 0.38593423 0.23852047 -0.14741376
0.027943881 0.073435917 0 0.38593423 0.23852047 -0.14741376
0.0273763 0.074385755 0 0.38593423 0.23852047 -0.14741376
0.026808755 0.07533627 0 0.38593423 0.23852047 -0.14741376
0.026241239 0.076287463 0 0.38593423 0.23852047 -0.14741376
0.025673749 0.077239349 0 0.38593423 0.23852047 -0.14741376
0.025106274 0.078191936 0 0.38593423 0.23852047 -0.14741376
0.024538809 0.079145245 0 0.38593423 0.23852047 -0.14741376
0.023744507 0.079999998 9.2383976e-05 0.38593423 0.23852047 -0.14741376
0.020977166 0.079999998 0.00098676479 0.38593423 0.23852047 -0.14741376
0.018174289 0.079999998 0.001892773 0.38593423 0.23852047 -0.14741376
0.015335151 0.079999998 0.002810647 0.38593423 0.23852047 -0.14741376
0.012459001 0.079999998 0.0037406315 0.38593423 0.23852047 -0.14741376
0.0095450692 0.079999998 0.0046829786 0.38593423 0.23852047 -0.14741376
0.0065925661 0.079999998 0.0056379461 0.38593423 0.23852047 -0.14741376
0.0036006772 0.079999998 0.0066058012 0.38593423 0.23852047 -0.14741376
0.00056856673 0.079999998 0.0075868159 0.38593423 0.23852047 -0.14741376
0.039999999 0.00061840814 0.0091848345 0.38593423 0.23852047 -0.14741376
0.039999999 0.0020379662 0.0089037325 0.38593423 0.23852047 -0.14741376
0.039999999 0.0034521536 0.0086238356 0.38593423 0.23852047 -0.14741376
0.039999999 0.0048610214 0.0083451318 0.38593423 0.23852047 -0.14741376
0.039999999 0.0062646186 0.0080676116 0.38593423 0.23852047 -0.14741376
0.039999999 0.0076629943 0.0077912635 0.38593423 0.23852047 -0.14741376
0.039999999 0.0090561975 0.0075160777 0.38593423 0.23852047 -0.14741376
0.039999999 0.010444275 0.007242044 0.38593423 0.23852047 -0.14741376
0.039999999 0.011827276 0.0069691516 0.38593423 0.23852047 -0.14741376
0.039999999 0.013205246 0.0066973907 0.38593423 0.23852047 -0.14741376
0.039999999 0.014578233 0.0064267521 0.38593423 0.23852047 -0.14741376
0.039999999 0.015946282 0.006157225 0.38593423 0.23852047 -0.14741376
