# .PCD v0.7 - Point Cloud Data file format
VERSION 0.7
FIELDS x y z vp_x vp_y vp_z
SIZE 4 4 4 4 4 4
TYPE F F F F F F
COUNT 1 1 1 1 1 1
WIDTH 693
HEIGHT 1
VIEWPOINT 0 0 0 1 0 0 0
POINTS 693
DATA ascii
0.0059613357 0 0.021436064 0.38593423 -0.23852047 -0.14741376
0 0.0052481322 0.024383612 0.38593423 -0.23852047 -0.14741376
0.010635647 0 0.019940635 0.38593423 -0.23852047 -0.14741376
0.012942069 0 0.01920299 0.38593423 -0.23852047 -0.14741376
0.015228403 0 0.01847193 0.38593423 -0.23852047 -0.14741376
5.5511151e-17 0.011325886 0.025589852 0.38593423 -0.23852047 -0.14741376
0.019741969 2.7755576e-17 0.017029174 0.38593423 -0.23852047 -0.14741376
0.021969771 0 0.016317293 0.38593423 -0.23852047 -0.14741376
0.024178622 2.7755576e-17 0.015611622 0.38593423 -0.23852047 -0.14741376
0.026368797 0 0.014912074 0.38593423 -0.23852047 -0.14741376
0.028540557 2.7755576e-17 0.014218561 0.38593423 -0.23852047 -0.14741376
0.030694166 0 0.013530998 0.38593423 -0.23852047 -0.14741376
0.032829881 0 0.012849298 0.38593423 -0.23852047 -0.14741376
0.034947954 0 0.012173383 0.38593423 -0.23852047 -0.14741376
0.03704863 0 0.011503171 0.38593423 -0.23852047 -0.14741376
0.039132152 0 0.010838582 0.38593423 -0.23852047 -0.14741376
0.039999999 0.00082941441 0.010727543 0.38593423 -0.23852047 -0.14741376
0.039999999 0.0022611916 0.011013766 0.38593423 -0.23852047 -0.14741376
0.039999999 0.0036985027 0.011301246 0.38593423 -0.23852047 -0.14741376
0.039999999 0.0051414003 0.011589994 0.38593423 -0.23852047 -0.14741376
0.039999999 0.006589937 0.011880022 0.38593423 -0.23852047 -0.14741376
0.039999999 0.0080441665 0.012171343 0.38593423 -0.23852047 -0.14741376
0.039999999 0.0095041431 0.012463967 0.38593423 -0.23852047 -0.14741376
0.039999999 0.010969922 0.012757907 0.38593423 -0.23852047 -0.14741376
0.039999999 0.012441558 0.013053174 0.38593423 -0.23852047 -0.14741376
0.039999999 0.013919107 0.013349781 0.38593423 -0.23852047 -0.14741376
0.039999999 0.015402624 0.01364774 0.38593423 -0.23852047 -0.14741376
0.039999999 0.016892169 0.013947062 0.38593423 -0.23852047 -0.14741376
0.039999999 0.018387798 0.014247763 0.38593423 -0.23852047 -0.14741376
0 0.049769245 0.03327753 0.38593423 -0.23852047 -0.14741376
0.039999999 0.021397546 0.014853344 0.38593423 -0.23852047 -0.14741376
0.039999999 0.022911783 0.015158251 0.38593423 -0.23852047 -0.14741376
0.039999999 0.024432341 0.015464587 0.38593423 -0.23852047 -0.14741376
0.039999999 0.025959283 0.015772365 0.38593423 -0.23852047 -0.14741376
0.039999999 0.02749267 0.016081598 0.38593423 -0.23852047 -0.14741376
0.039999999 0.029032566 0.0163923 0.38593423 -0.23852047 -0.14741376
0.039999999 0.030579032 0.016704485 0.38593423 -0.23852047 -0.14741376
0.039999999 0.032132134 0.017018165 0.38593423 -0.23852047 -0.14741376
0.039999999 0.033691935 0.017333357 0.38593423 -0.23852047 -0.14741376
0.039999999 0.035258502 0.017650073 0.38593423 -0.23852047 -0.14741376
0.039999999 0.036831897 0.017968329 0.38593423 -0.23852047 -0.14741376
0.039999999 0.038412195 0.018288137 0.38593423 -0.23852047 -0.14741376
0.039999999 0.039999455 0.018609516 0.38593423 -0.23852047 -0.14741376
0.039999999 0.041593753 0.018932477 0.38593423 -0.23852047 -0.14741376
0.039999999 0.043195155 0.019257037 0.38593423 -0.23852047 -0.14741376
0.039999999 0.044803727 0.019583212 0.38593423 -0.23852047 -0.14741376
0.039999999 0.046419546 0.019911015 0.38593423 -0.23852047 -0.14741376
0.039999999 0.048042685 0.020240463 0.38593423 -0.23852047 -0.14741376
0.039999999 0.049673211 0.020571573 0.38593423 -0.23852047 -0.14741376
0.039999999 0.051311202 0.02090436 0.38593423 -0.23852047 -0.14741376
0.039999999 0.054609872 0.021575028 0.38593423 -0.23852047 -0.14741376
0.039999999 0.056270704 0.021912944 0.38593423 -0.23852047 -0.14741376
0.039999999 0.057939302 0.022252603 0.38593423 -0.23852047 -0.14741376
0.039999999 0.059615742 0.022594022 0.38593423 -0.23852047 -0.14741376
0.039999999 0.06130011 0.022937218 0.38593423 -0.23852047 -0.14741376
0.039999999 0.062992483 0.023282209 0.38593423 -0.23852047 -0.14741376
0.039999999 0.064692937 0.023629013 0.38593423 -0.23852047 -0.14741376
0.039999999 0.066401564 0.023977647 0.38593423 -0.23852047 -0.14741376
0.039999999 0.071577273 0.025034714 0.38593423 -0.23852047 -0.14741376
0.039999999 0.073319405 0.025390854 0.38593423 -0.23852047 -0.14741376
0.039999999 0.075070135 0.025748918 0.38593423 -0.23852047 -0.14741376
0.039999999 0.076829538 0.026108924 0.38593423 -0.23852047 -0.14741376
0.039999999 0.078597724 0.026470892 0.38593423 -0.23852047 -0.14741376
5.5511151e-17 0.00074517907 0.022135766 0.38593423 -0.23852047 -0.14741376
0.0035897465 0 0.020849455 0.38593423 -0.23852047 -0.14741376
0 0.0037388618 0.022723891 0.38593423 -0.23852047 -0.14741376
5.5511151e-17 0.0052435673 0.023019729 0.38593423 -0.23852047 -0.14741376
0.010626636 0 0.018615728 0.38593423 -0.23852047 -0.14741376
0.012931151 0 0.017884502 0.38593423 -0.23852047 -0.14741376
0.015215612 0 0.017159788 0.38593423 -0.23852047 -0.14741376
0.017480308 0 0.016441491 0.38593423 -0.23852047 -0.14741376
0.019725529 0 0.015729519 0.38593423 -0.23852047 -0.14741376
0.021951554 0 0.015023779 0.38593423 -0.23852047 -0.14741376
0 0.015927928 0.025124727 0.38593423 -0.23852047 -0.14741376
0.026347117 0 0.013630647 0.38593423 -0.23852047 -0.14741376
0 0.019030806 0.025737453 0.38593423 -0.23852047 -0.14741376
0.030669143 0 0.012261398 0.38593423 -0.23852047 -0.14741376
0.032803226 0 0.011585521 0.38593423 -0.23852047 -0.14741376
0.034919698 0 0.010915364 0.38593423 -0.23852047 -0.14741376
0.037018798 0 0.010250851 0.38593423 -0.23852047 -0.14741376
0.03910077 0 0.0095918998 0.38593423 -0.23852047 -0.14741376
0.039999999 0.00080657052 0.009467151 0.38593423 -0.23852047 -0.14741376
0.039999999 0.0022370212 0.0097506931 0.38593423 -0.23852047 -0.14741376
0.039999999 0.0036729956 0.010035473 0.38593423 -0.23852047 -0.14741376
0.039999999 0.005114546 0.010321501 0.38593423 -0.23852047 -0.14741376
0.039999999 0.0065617249 0.010608789 0.38593423 -0.23852047 -0.14741376
0.039999999 0.0080145868 0.010897348 0.38593423 -0.23852047 -0.14741376
0.039999999 0.0094731841 0.011187189 0.38593423 -0.23852047 -0.14741376
0.039999999 0.010937572 0.011478325 0.38593423 -0.23852047 -0.14741376
0.039999999 0.012407808 0.011770767 0.38593423 -0.23852047 -0.14741376
0.039999999 0.013883944 0.012064528 0.38593423 -0.23852047 -0.14741376
0.039999999 0.015366038 0.012359618 0.38593423 -0.23852047 -0.14741376
0.039999999 0.016854148 0.012656051 0.38593423 -0.23852047 -0.14741376
0.039999999 0.018348331 0.012953838 0.38593423 -0.23852047 -0.14741376
0.039999999 0.019848643 0.013252993 0.38593423 -0.23852047 -0.14741376
0 0.051404282 0.032166 0.38593423 -0.23852047 -0.14741376
0.039999999 0.022867901 0.013855456 0.38593423 -0.23852047 -0.14741376
0.039999999 0.024386965 0.01415879 0.38593423 -0.23852047 -0.14741376
0.039999999 0.025912398 0.014463542 0.38593423 -0.23852047 -0.14741376
0.039999999 0.027444266 0.014769726 0.38593423 -0.23852047 -0.14741376
0.039999999 0.028982628 0.015077356 0.38593423 -0.23852047 -0.14741376
0.039999999 0.030527547 0.015386445 0.38593423 -0.23852047 -0.14741376
0 0.063368224 0.034557328 0.38593423 -0.23852047 -0.14741376
0.039999999 0.033637319 0.016009055 0.38593423 -0.23852047 -0.14741376
0.039999999 0.035202298 0.016322603 0.38593423 -0.23852047 -0.14741376
0.039999999 0.036774095 0.016637666 0.38593423 -0.23852047 -0.14741376
0.039999999 0.038352776 0.01695426 0.38593423 -0.23852047 -0.14741376
0.039999999 0.039938409 0.017272396 0.38593423 -0.23852047 -0.14741376
0.039999999 0.041531064 0.017592089 0.38593423 -0.23852047 -0.14741376
0.039999999 0.043130808 0.017913358 0.38593423 -0.23852047 -0.14741376
0.039999999 0.044737712 0.018236214 0.38593423 -0.23852047 -0.14741376
0.039999999 0.046351846 0.018560672 0.38593423 -0.23852047 -0.14741376
0.039999999 0.047973283 0.018886752 0.38593423 -0.23852047 -0.14741376
0.039999999 0.049602091 0.019214464 0.38593423 -0.23852047 -0.14741376
0.039999999 0.051238351 0.019543828 0.38593423 -0.23852047 -0.14741376
0.039999999 0.052882131 0.019874858 0.38593423 -0.23852047 -0.14741376
0.039999999 0.054533508 0.020207571 0.38593423 -0.23852047 -0.14741376
0.039999999 0.056192558 0.020541981 0.38593423 -0.23852047 -0.14741376
0.039999999 0.057859361 0.020878108 0.38593423 -0.23852047 -0.14741376
0.039999999 0.059533991 0.021215968 0.38593423 -0.23852047 -0.14741376
0.039999999 0.061216526 0.021555575 0.38593423 -0.23852047 -0.14741376
0.039999999 0.062907048 0.021896951 0.38593423 -0.23852047 -0.14741376
0.039999999 0.064605646 0.022240108 0.38593423 -0.23852047 -0.14741376
0.039999999 0.066312388 0.02258507 0.38593423 -0.23852047 -0.14741376
0.039999999 0.068027362 0.022931848 0.38593423 -0.23852047 -0.14741376
0.039999999 0.069750652 0.023280466 0.38593423 -0.23852047 -0.14741376
0.039999999 0.073222525 0.023983285 0.38593423 -0.23852047 -0.14741376
0.039999999 0.074971274 0.024337526 0.38593423 -0.23852047 -0.14741376
0.039999999 0.076728694 0.024693679 0.38593423 -0.23852047 -0.14741376
0.039999999 0.078494862 0.025051763 0.38593423 -0.23852047 -0.14741376
0.0012009343 0 0.020259043 0.38593423 -0.23852047 -0.14741376
0.0035866674 2.7755576e-17 0.019507471 0.38593423 -0.23852047 -0.14741376
0.005951154 0 0.018762736 0.38593423 -0.23852047 -0.14741376
0 0.0052390117 0.021658527 0.38593423 -0.23852047 -0.14741376
0.010617642 0 0.017293364 0.38593423 -0.23852047 -0.14741376
0.012920255 2.7755576e-17 0.016568532 0.38593423 -0.23852047 -0.14741376
0.015202845 2.7755576e-17 0.015850144 0.38593423 -0.23852047 -0.14741376
0.017465705 0 0.015138103 0.38593423 -0.23852047 -0.14741376
0.019709121 0 0.014432319 0.38593423 -0.23852047 -0.14741376
0.021933373 2.7755576e-17 0.013732702 0.38593423 -0.23852047 -0.14741376
0.024138736 0 0.013039161 0.38593423 -0.23852047 -0.14741376
0 0.017461104 0.024047382 0.38593423 -0.23852047 -0.14741376
5.5511151e-17 0.019014001 0.024351561 0.38593423 -0.23852047 -0.14741376
0.030644165 0 0.010994155 0.38593423 -0.23852047 -0.14741376
0.032776624 0 0.010324078 0.38593423 -0.23852047 -0.14741376
0.034891494 0 0.0096596619 0.38593423 -0.23852047 -0.14741376
0.036989018 0 0.0090008276 0.38593423 -0.23852047 -0.14741376
0.039069444 0 0.0083474973 0.38593423 -0.23852047 -0.14741376
0.039999999 0.00078377262 0.0082092937 0.38593423 -0.23852047 -0.14741376
0.039999999 0.0022128995 0.0084901666 0.38593423 -0.23852047 -0.14741376
0.039999999 0.00364754 0.0087722568 0.38593423 -0.23852047 -0.14741376
0.039999999 0.0050877458 0.0090555744 0.38593423 -0.23852047 -0.14741376
0.039999999 0.0065335706 0.0093401307 0.38593423 -0.23852047 -0.14741376
0.039999999 0.0079850666 0.0096259378 0.38593423 -0.23852047 -0.14741376
0.039999999 0.0094422875 0.0099130068 0.38593423 -0.23852047 -0.14741376
0.039999999 0.010905289 0.01020135 0.38593423 -0.23852047 -0.14741376
0.039999999 0.012374125 0.010490977 0.38593423 -0.23852047 -0.14741376
0.039999999 0.013848852 0.010781901 0.38593423 -0.23852047 -0.14741376
0.039999999 0.015329526 0.011074133 0.38593423 -0.23852047 -0.14741376
0.039999999 0.016816204 0.011367687 0.38593423 -0.23852047 -0.14741376
0.039999999 0.018308941 0.011662574 0.38593423 -0.23852047 -0.14741376
0.039999999 0.019807801 0.011958805 0.38593423 -0.23852047 -0.14741376
0.039999999 0.021312837 0.012256394 0.38593423 -0.23852047 -0.14741376
0 0.053043101 0.031052409 0.38593423 -0.23852047 -0.14741376
0.039999999 0.024341682 0.012855696 0.38593423 -0.23852047 -0.14741376
0.039999999 0.025865611 0.013157435 0.38593423 -0.23852047 -0.14741376
0.039999999 0.027395962 0.013460581 0.38593423 -0.23852047 -0.14741376
0.039999999 0.028932793 0.013765151 0.38593423 -0.23852047 -0.14741376
0.039999999 0.03047617 0.014071155 0.38593423 -0.23852047 -0.14741376
0.039999999 0.032026157 0.014378609 0.38593423 -0.23852047 -0.14741376
0.039999999 0.033582814 0.014687526 0.38593423 -0.23852047 -0.14741376
0.039999999 0.03514621 0.014997919 0.38593423 -0.23852047 -0.14741376
0.039999999 0.036716413 0.015309802 0.38593423 -0.23852047 -0.14741376
0.039999999 0.038293485 0.01562319 0.38593423 -0.23852047 -0.14741376
0.039999999 0.039877493 0.015938096 0.38593423 -0.23852047 -0.14741376
0 0.07384333 0.035179324 0.38593423 -0.23852047 -0.14741376
0.039999999 0.043066598 0.016572524 0.38593423 -0.23852047 -0.14741376
0 0.077417053 0.035890579 0.38593423 -0.23852047 -0.14741376
0.039999999 0.046284288 0.017213203 0.38593423 -0.23852047 -0.14741376
0.039999999 0.047904026 0.017535925 0.38593423 -0.23852047 -0.14741376
0.039999999 0.049531125 0.017860254 0.38593423 -0.23852047 -0.14741376
0.039999999 0.051165652 0.018186208 0.38593423 -0.23852047 -0.14741376
0.039999999 0.052807689 0.018513801 0.38593423 -0.23852047 -0.14741376
0.039999999 0.054457307 0.018843049 0.38593423 -0.23852047 -0.14741376
0.039999999 0.056114584 0.01917397 0.38593423 -0.23852047 -0.14741376
0.039999999 0.057779592 0.019506579 0.38593423 -0.23852047 -0.14741376
0.039999999 0.059452415 0.019840892 0.38593423 -0.23852047 -0.14741376
0.039999999 0.061133124 0.020176927 0.38593423 -0.23852047 -0.14741376
0.039999999 0.062821805 0.020514699 0.38593423 -0.23852047 -0.14741376
0.039999999 0.064518541 0.020854227 0.38593423 -0.23852047 -0.14741376
0.039999999 0.066223405 0.021195529 0.38593423 -0.23852047 -0.14741376
0.039999999 0.067936487 0.021538619 0.38593423 -0.23852047 -0.14741376
0.039999999 0.071387626 0.022230243 0.38593423 -0.23852047 -0.14741376
0.039999999 0.073125854 0.022578813 0.38593423 -0.23852047 -0.14741376
0.039999999 0.074872643 0.022929246 0.38593423 -0.23852047 -0.14741376
0.039999999 0.076628067 0.023281561 0.38593423 -0.23852047 -0.14741376
0.039999999 0.07839223 0.023635775 0.38593423 -0.23852047 -0.14741376
5.5511151e-17 0.00074389222 0.019431718 0.38593423 -0.23852047 -0.14741376
0.0035835945 2.7755576e-17 0.018168073 0.38593423 -0.23852047 -0.14741376
0.0059460774 0 0.017429926 0.38593423 -0.23852047 -0.14741376
0.0082876645 2.7755576e-17 0.016698441 0.38593423 -0.23852047 -0.14741376
0.010608664 0 0.015973516 0.38593423 -0.23852047 -0.14741376
0.012909378 2.7755576e-17 0.015255058 0.38593423 -0.23852047 -0.14741376
0.015190103 2.7755576e-17 0.014542973 0.38593423 -0.23852047 -0.14741376
0.01745113 0 0.013837167 0.38593423 -0.23852047 -0.14741376
0.019692743 2.7755576e-17 0.01313755 0.38593423 -0.23852047 -0.14741376
0.021915225 0 0.012444033 0.38593423 -0.23852047 -0.14741376
0.024118848 2.7755576e-17 0.011756529 0.38593423 -0.23852047 -0.14741376
0.026303882 0 0.011074952 0.38593423 -0.23852047 -0.14741376
0.028470591 0 0.010399217 0.38593423 -0.23852047 -0.14741376
0.030619234 0 0.009729242 0.38593423 -0.23852047 -0.14741376
0.032750066 0 0.0090649473 0.38593423 -0.23852047 -0.14741376
0.034863338 0 0.0084062517 0.38593423 -0.23852047 -0.14741376
0.036959294 0 0.0077530784 0.38593423 -0.23852047 -0.14741376
0.039038178 0 0.00710535 0.38593423 -0.23852047 -0.14741376
0.039999999 0.00076102017 0.0069539486 0.38593423 -0.23852047 -0.14741376
0.039999999 0.0021888262 0.0072321612 0.38593423 -0.23852047 -0.14741376
0.039999999 0.0036221354 0.0075115706 0.38593423 -0.23852047 -0.14741376
0.039999999 0.0050610001 0.0077921879 0.38593423 -0.23852047 -0.14741376
0.039999999 0.0065054726 0.0080740238 0.38593423 -0.23852047 -0.14741376
0.039999999 0.0079556061 0.008357089 0.38593423 -0.23852047 -0.14741376
0.039999999 0.0094114542 0.0086413957 0.38593423 -0.23852047 -0.14741376
0.039999999 0.010873071 0.0089269551 0.38593423 -0.23852047 -0.14741376
0.039999999 0.012340512 0.0092137773 0.38593423 -0.23852047 -0.14741376
0.039999999 0.013813833 0.0095018763 0.38593423 -0.23852047 -0.14741376
0.039999999 0.015293089 0.0097912615 0.38593423 -0.23852047 -0.14741376
0.039999999 0.016778337 0.010081946 0.38593423 -0.23852047 -0.14741376
0.039999999 0.018269634 0.010373942 0.38593423 -0.23852047 -0.14741376
0.039999999 0.01976704 0.010667261 0.38593423 -0.23852047 -0.14741376
5.5511151e-17 0.051309973 0.029274723 0.38593423 -0.23852047 -0.14741376
0.039999999 0.022780409 0.011257917 0.38593423 -0.23852047 -0.14741376
0.039999999 0.02429649 0.01155528 0.38593423 -0.23852047 -0.14741376
0.039999999 0.02581892 0.011854015 0.38593423 -0.23852047 -0.14741376
0.039999999 0.027347757 0.012154137 0.38593423 -0.23852047 -0.14741376
0.039999999 0.028883062 0.012455657 0.38593423 -0.23852047 -0.14741376
0.039999999 0.030424898 0.012758589 0.38593423 -0.23852047 -0.14741376
0 0.063250236 0.031618696 0.38593423 -0.23852047 -0.14741376
0.039999999 0.033528425 0.013368743 0.38593423 -0.23852047 -0.14741376
0.039999999 0.035090242 0.013675992 0.38593423 -0.23852047 -0.14741376
0.039999999 0.03665885 0.013984707 0.38593423 -0.23852047 -0.14741376
0.039999999 0.038234316 0.014294903 0.38593423 -0.23852047 -0.14741376
0.039999999 0.039816704 0.014606592 0.38593423 -0.23852047 -0.14741376
0.039999999 0.041406084 0.01491979 0.38593423 -0.23852047 -0.14741376
0.039999999 0.043002527 0.015234509 0.38593423 -0.23852047 -0.14741376
0.039999999 0.044606097 0.015550768 0.38593423 -0.23852047 -0.14741376
0.039999999 0.046216872 0.015868578 0.38593423 -0.23852047 -0.14741376
0.039999999 0.047834918 0.016187955 0.38593423 -0.23852047 -0.14741376
0.039999999 0.049460307 0.016508915 0.38593423 -0.23852047 -0.14741376
0.039999999 0.051093109 0.016831473 0.38593423 -0.23852047 -0.14741376
0.039999999 0.05438127 0.017481441 0.38593423 -0.23852047 -0.14741376
0.039999999 0.056036774 0.017808884 0.38593423 -0.23852047 -0.14741376
0.039999999 0.057699997 0.018137988 0.38593423 -0.23852047 -0.14741376
0.016044052 0.079999998 0.029956136 0.38593423 -0.23852047 -0.14741376
0.039999999 0.061049905 0.018801244 0.38593423 -0.23852047 -0.14741376
0.039999999 0.064431623 0.01947134 0.38593423 -0.23852047 -0.14741376
0.039999999 0.066134617 0.019808996 0.38593423 -0.23852047 -0.14741376
0.039999999 0.067845806 0.020148413 0.38593423 -0.23852047 -0.14741376
0.039999999 0.069565274 0.020489609 0.38593423 -0.23852047 -0.14741376
0.039999999 0.071293108 0.020832602 0.38593423 -0.23852047 -0.14741376
0.039999999 0.074774221 0.021524049 0.38593423 -0.23852047 -0.14741376
0.039999999 0.07652767 0.021872541 0.38593423 -0.23852047 -0.14741376
0.0011988691 0 0.017569501 0.38593423 -0.23852047 -0.14741376
0.0035805271 0 0.016831234 0.38593423 -0.23852047 -0.14741376
0.005941011 2.7755576e-17 0.016099654 0.38593423 -0.23852047 -0.14741376
0.0082806339 0 0.015374661 0.38593423 -0.23852047 -0.14741376
0.010599704 0 0.01465616 0.38593423 -0.23852047 -0.14741376
0 0.0082473652 0.019523352 0.38593423 -0.23852047 -0.14741376
0.015177385 0 0.013238251 0.38593423 -0.23852047 -0.14741376
0.017436581 2.7755576e-17 0.012538659 0.38593423 -0.23852047 -0.14741376
0.019676397 0 0.011845189 0.38593423 -0.23852047 -0.14741376
0.021897111 0 0.011157752 0.38593423 -0.23852047 -0.14741376
0.024098996 0 0.010476262 0.38593423 -0.23852047 -0.14741376
0.026282322 0 0.0098006353 0.38593423 -0.23852047 -0.14741376
0.028447352 0 0.0091307871 0.38593423 -0.23852047 -0.14741376
0.030594347 0 0.0084666377 0.38593423 -0.23852047 -0.14741376
0.032723557 0 0.0078081051 0.38593423 -0.23852047 -0.14741376
0.034835234 0 0.007155112 0.38593423 -0.23852047 -0.14741376
0.036929626 0 0.0065075806 0.38593423 -0.23852047 -0.14741376
0.039006967 0 0.005865436 0.38593423 -0.23852047 -0.14741376
0.039999999 0.00073831284 0.0057010902 0.38593423 -0.23852047 -0.14741376
0.039999999 0.0021648004 0.0059766518 0.38593423 -0.23852047 -0.14741376
0.039999999 0.0035967813 0.0062533906 0.38593423 -0.23852047 -0.14741376
0.039999999 0.005034307 0.0065313168 0.38593423 -0.23852047 -0.14741376
0.039999999 0.0064774305 0.0068104416 0.38593423 -0.23852047 -0.14741376
0.039999999 0.0079262042 0.0070907753 0.38593423 -0.23852047 -0.14741376
0.039999999 0.0093806814 0.0073723295 0.38593423 -0.23852047 -0.14741376
0.039999999 0.010840918 0.0076551153 0.38593423 -0.23852047 -0.14741376
0.039999999 0.012306966 0.007939144 0.38593423 -0.23852047 -0.14741376
0.039999999 0.013778883 0.0082244268 0.38593423 -0.23852047 -0.14741376
0.039999999 0.015256724 0.0085109761 0.38593423 -0.23852047 -0.14741376
0.039999999 0.016740547 0.0087988023 0.38593423 -0.23852047 -0.14741376
0.039999999 0.018230407 0.0090879174 0.38593423 -0.23852047 -0.14741376
0.039999999 0.019726362 0.0093783345 0.38593423 -0.23852047 -0.14741376
0.039999999 0.021228474 0.0096700648 0.38593423 -0.23852047 -0.14741376
0 0.052945692 0.028160438 0.38593423 -0.23852047 -0.14741376
0.039999999 0.024251394 0.010257514 0.38593423 -0.23852047 -0.14741376
0.039999999 0.025772324 0.010553258 0.38593423 -0.23852047 -0.14741376
0.039999999 0.02729965 0.010850364 0.38593423 -0.23852047 -0.14741376
0.039999999 0.028833432 0.011148848 0.38593423 -0.23852047 -0.14741376
5.5511151e-17 0.061465677 0.029817816 0.38593423 -0.23852047 -0.14741376
0.039999999 0.031920616 0.011749992 0.38593423 -0.23852047 -0.14741376
0.039999999 0.033474147 0.01205268 0.38593423 -0.23852047 -0.14741376
0.039999999 0.035034388 0.012356797 0.38593423 -0.23852047 -0.14741376
0.039999999 0.036601409 0.012662357 0.38593423 -0.23852047 -0.14741376
0.039999999 0.03817527 0.012969371 0.38593423 -0.23852047 -0.14741376
0.039999999 0.039756041 0.013277855 0.38593423 -0.23852047 -0.14741376
0.039999999 0.041343793 0.013587823 0.38593423 -0.23852047 -0.14741376
0.039999999 0.042938586 0.013899288 0.38593423 -0.23852047 -0.14741376
0.039999999 0.044540498 0.014212266 0.38593423 -0.23852047 -0.14741376
0.039999999 0.046149597 0.01452677 0.38593423 -0.23852047 -0.14741376
0.039999999 0.047765952 0.014842816 0.38593423 -0.23852047 -0.14741376
0.039999999 0.049389634 0.015160418 0.38593423 -0.23852047 -0.14741376
0.039999999 0.051020723 0.015479592 0.38593423 -0.23852047 -0.14741376
0.039999999 0.052659284 0.015800351 0.38593423 -0.23852047 -0.14741376
0.039999999 0.054305393 0.016122714 0.38593423 -0.23852047 -0.14741376
0.039999999 0.055959132 0.016446693 0.38593423 -0.23852047 -0.14741376
0.039999999 0.057620566 0.016772307 0.38593423 -0.23852047 -0.14741376
0.039999999 0.059289783 0.017099569 0.38593423 -0.23852047 -0.14741376
0.039999999 0.060966857 0.017428499 0.38593423 -0.23852047 -0.14741376
0.039999999 0.062651865 0.017759109 0.38593423 -0.23852047 -0.14741376
0.039999999 0.064344898 0.018091418 0.38593423 -0.23852047 -0.14741376
0.039999999 0.069472887 0.019098708 0.38593423 -0.23852047 -0.14741376
0.039999999 0.071198799 0.019437982 0.38593423 -0.23852047 -0.14741376
0.039999999 0.072933145 0.019779041 0.38593423 -0.23852047 -0.14741376
0.039999999 0.074676014 0.020121904 0.38593423 -0.23852047 -0.14741376
0.039999999 0.076427482 0.020466588 0.38593423 -0.23852047 -0.14741376
0.039999999 0.078187644 0.020813111 0.38593423 -0.23852047 -0.14741376
0.039999999 0.079956591 0.021161491 0.38593423 -0.23852047 -0.14741376
0.0011978395 0 0.016228575 0.38593423 -0.23852047 -0.14741376
0 0.0022316822 0.017021177 0.38593423 -0.23852047 -0.14741376
0.0059359539 2.7755576e-17 0.014771892 0.38593423 -0.23852047 -0.14741376
0.0082736164 0 0.014053372 0.38593423 -0.23852047 -0.14741376
0.01059076 2.7755576e-17 0.013341271 0.38593423 -0.23852047 -0.14741376
0 0.0082401969 0.018164737 0.38593423 -0.23852047 -0.14741376
0.01516469 2.7755576e-17 0.011935954 0.38593423 -0.23852047 -0.14741376
0 0.011276474 0.01874331 0.38593423 -0.23852047 -0.14741376
0.01966008 0 0.010555211 0.38593423 -0.23852047 -0.14741376
0 0.01433463 0.019326521 0.38593423 -0.23852047 -0.14741376
0.024079181 0 0.0091983378 0.38593423 -0.23852047 -0.14741376
0.026260803 0 0.0085286414 0.38593423 -0.23852047 -0.14741376
0.028424159 0 0.0078646615 0.38593423 -0.23852047 -0.14741376
0.030569505 0 0.0072063161 0.38593423 -0.23852047 -0.14741376
0.032697096 0 0.0065535279 0.38593423 -0.23852047 -0.14741376
0.034807183 0 0.0059062187 0.38593423 -0.23852047 -0.14741376
0.03690001 0 0.0052643116 0.38593423 -0.23852047 -0.14741376
0.038975809 0 0.0046277321 0.38593423 -0.23852047 -0.14741376
0.039999999 0.00071565015 0.0044506937 0.38593423 -0.23852047 -0.14741376
0.039999999 0.0021408221 0.0047236145 0.38593423 -0.23852047 -0.14741376
0.039999999 0.0035714773 0.0049976921 0.38593423 -0.23852047 -0.14741376
0.039999999 0.005007667 0.005272937 0.38593423 -0.23852047 -0.14741376
0.039999999 0.0064494438 0.0055493601 0.38593423 -0.23852047 -0.14741376
0.039999999 0.0078968601 0.0058269724 0.38593423 -0.23852047 -0.14741376
0.039999999 0.0093499701 0.0061057843 0.38593423 -0.23852047 -0.14741376
0.039999999 0.010808828 0.0063858069 0.38593423 -0.23852047 -0.14741376
0.039999999 0.012273488 0.0066670515 0.38593423 -0.23852047 -0.14741376
0.039999999 0.013744004 0.0069495291 0.38593423 -0.23852047 -0.14741376
0.039999999 0.015220433 0.0072332514 0.38593423 -0.23852047 -0.14741376
0.039999999 0.016702833 0.00751823 0.38593423 -0.23852047 -0.14741376
5.5511151e-17 0.047874555 0.025752192 0.38593423 -0.23852047 -0.14741376
0.039999999 0.019685768 0.0080920011 0.38593423 -0.23852047 -0.14741376
0.039999999 0.021186419 0.0083808182 0.38593423 -0.23852047 -0.14741376
0.039999999 0.022693273 0.0086709382 0.38593423 -0.23852047 -0.14741376
0.039999999 0.024206387 0.0089623732 0.38593423 -0.23852047 -0.14741376
0.039999999 0.025725823 0.0092551373 0.38593423 -0.23852047 -0.14741376
0.039999999 0.02725164 0.0095492406 0.38593423 -0.23852047 -0.14741376
0.039999999 0.028783903 0.0098446971 0.38593423 -0.23852047 -0.14741376
0.039999999 0.030322673 0.010141519 0.38593423 -0.23852047 -0.14741376
0.039999999 0.031868011 0.010439719 0.38593423 -0.23852047 -0.14741376
0.039999999 0.033419982 0.010739312 0.38593423 -0.23852047 -0.14741376
5.5511151e-17 0.066603057 0.029362179 0.38593423 -0.23852047 -0.14741376
0.039999999 0.036544085 0.011342722 0.38593423 -0.23852047 -0.14741376
0.039999999 0.038116347 0.011646568 0.38593423 -0.23852047 -0.14741376
0.039999999 0.039695505 0.011951859 0.38593423 -0.23852047 -0.14741376
0.039999999 0.041281626 0.012258609 0.38593423 -0.23852047 -0.14741376
0.039999999 0.04287478 0.012566832 0.38593423 -0.23852047 -0.14741376
0.039999999 0.044475038 0.012876541 0.38593423 -0.23852047 -0.14741376
0.039999999 0.046082463 0.013187753 0.38593423 -0.23852047 -0.14741376
0.039999999 0.047697131 0.01350048 0.38593423 -0.23852047 -0.14741376
0.039999999 0.049319115 0.013814737 0.38593423 -0.23852047 -0.14741376
0.039999999 0.052585311 0.014447903 0.38593423 -0.23852047 -0.14741376
0.039999999 0.057541307 0.015409507 0.38593423 -0.23852047 -0.14741376
0.039999999 0.059208728 0.015733264 0.38593423 -0.23852047 -0.14741376
0.039999999 0.060883991 0.016058661 0.38593423 -0.23852047 -0.14741376
0.039999999 0.062567167 0.016385712 0.38593423 -0.23852047 -0.14741376
0.039999999 0.064258352 0.016714433 0.38593423 -0.23852047 -0.14741376
0.039999999 0.065957613 0.01704484 0.38593423 -0.23852047 -0.14741376
0.039999999 0.067665033 0.017376954 0.38593423 -0.23852047 -0.14741376
0.039999999 0.069380701 0.017710786 0.38593423 -0.23852047 -0.14741376
0.039999999 0.071104698 0.018046359 0.38593423 -0.23852047 -0.14741376
0.039999999 0.072837107 0.018383685 0.38593423 -0.23852047 -0.14741376
0.039999999 0.074578017 0.018722784 0.38593423 -0.23852047 -0.14741376
0.039999999 0.07632751 0.019063676 0.38593423 -0.23852047 -0.14741376
0.039999999 0.078085683 0.019406375 0.38593423 -0.23852047 -0.14741376
0.039999999 0.079852626 0.019750902 0.38593423 -0.23852047 -0.14741376
0 0.00074197125 0.015395065 0.38593423 -0.23852047 -0.14741376
0 0.0022297583 0.015675616 0.38593423 -0.23852047 -0.14741376
0.0059309062 2.7755576e-17 0.013446616 0.38593423 -0.23852047 -0.14741376
0.008266612 0 0.012734545 0.38593423 -0.23852047 -0.14741376
0.010581833 0 0.012028824 0.38593423 -0.23852047 -0.14741376
0.012876871 0 0.011329358 0.38593423 -0.23852047 -0.14741376
0.015152019 0 0.010636055 0.38593423 -0.23852047 -0.14741376
0 0.011266649 0.01738194 0.38593423 -0.23852047 -0.14741376
0.019643793 2.7755576e-17 0.00926759 0.38593423 -0.23852047 -0.14741376
0.021860981 0 0.0085922517 0.38593423 -0.23852047 -0.14741376
0.024059402 0 0.0079227323 0.38593423 -0.23852047 -0.14741376
0.026239322 0 0.0072589465 0.38593423 -0.23852047 -0.14741376
0.028401006 0 0.0066008144 0.38593423 -0.23852047 -0.14741376
0.030544709 0 0.0059482558 0.38593423 -0.23852047 -0.14741376
0.032670684 0 0.0053011924 0.38593423 -0.23852047 -0.14741376
0.034779184 0 0.0046595484 0.38593423 -0.23852047 -0.14741376
0.036870442 0 0.0040232469 0.38593423 -0.23852047 -0.14741376
0.03894471 0 0.0033922154 0.38593423 -0.23852047 -0.14741376
0.039999999 0.00069303164 0.0032027352 0.38593423 -0.23852047 -0.14741376
0.039999999 0.0021168906 0.0034730241 0.38593423 -0.23852047 -0.14741376
0.039999999 0.0035462226 0.0037444499 0.38593423 -0.23852047 -0.14741376
0.039999999 0.0049810791 0.0040170234 0.38593423 -0.23852047 -0.14741376
0.039999999 0.006421512 0.0042907549 0.38593423 -0.23852047 -0.14741376
0.039999999 0.0078675747 0.0045656548 0.38593423 -0.23852047 -0.14741376
0.039999999 0.0093193203 0.0048417342 0.38593423 -0.23852047 -0.14741376
0.039999999 0.010776802 0.0051190038 0.38593423 -0.23852047 -0.14741376
0.039999999 0.012240075 0.0053974744 0.38593423 -0.23852047 -0.14741376
0.039999999 0.013709193 0.0056771571 0.38593423 -0.23852047 -0.14741376
0.039999999 0.015184214 0.0059580631 0.38593423 -0.23852047 -0.14741376
0.039999999 0.016665192 0.006240204 0.38593423 -0.23852047 -0.14741376
0.039999999 0.018152187 0.006523591 0.38593423 -0.23852047 -0.14741376
0.039999999 0.019645253 0.0068082358 0.38593423 -0.23852047 -0.14741376
0.039999999 0.02114445 0.0070941495 0.38593423 -0.23852047 -0.14741376
0.039999999 0.022649836 0.0073813447 0.38593423 -0.23852047 -0.14741376
0.039999999 0.024161471 0.007669833 0.38593423 -0.23852047 -0.14741376
0.039999999 0.025679415 0.0079596266 0.38593423 -0.23852047 -0.14741376
0.039999999 0.027203729 0.0082507385 0.38593423 -0.23852047 -0.14741376
0.039999999 0.028734475 0.0085431794 0.38593423 -0.23852047 -0.14741376
0.039999999 0.030271715 0.0088369632 0.38593423 -0.23852047 -0.14741376
0.039999999 0.03181551 0.0091321021 0.38593423 -0.23852047 -0.14741376
0.039999999 0.033365924 0.0094286082 0.38593423 -0.23852047 -0.14741376
0.039999999 0.034923024 0.0097264964 0.38593423 -0.23852047 -0.14741376
0.039999999 0.036486875 0.010025778 0.38593423 -0.23852047 -0.14741376
0.039999999 0.038057543 0.010326467 0.38593423 -0.23852047 -0.14741376
0.039999999 0.039635092 0.010628577 0.38593423 -0.23852047 -0.14741376
0.039999999 0.041219588 0.010932121 0.38593423 -0.23852047 -0.14741376
0.039999999 0.042811103 0.011237114 0.38593423 -0.23852047 -0.14741376
0.039999999 0.044409707 0.011543568 0.38593423 -0.23852047 -0.14741376
5.5511151e-17 0.07891605 0.030267168 0.38593423 -0.23852047 -0.14741376
0.039999999 0.047628455 0.01216092 0.38593423 -0.23852047 -0.14741376
0.039999999 0.04924874 0.012471845 0.38593423 -0.23852047 -0.14741376
0.039999999 0.050876398 0.01278429 0.38593423 -0.23852047 -0.14741376
0.039999999 0.052511498 0.013098269 0.38593423 -0.23852047 -0.14741376
0.039999999 0.054154117 0.013413797 0.38593423 -0.23852047 -0.14741376
0.039999999 0.055804331 0.013730889 0.38593423 -0.23852047 -0.14741376
0.039999999 0.057462212 0.014049562 0.38593423 -0.23852047 -0.14741376
0.039999999 0.060801294 0.014691706 0.38593423 -0.23852047 -0.14741376
0.039999999 0.062482651 0.01501521 0.38593423 -0.23852047 -0.14741376
0.039999999 0.064171992 0.015340356 0.38593423 -0.23852047 -0.14741376
0.039999999 0.065869391 0.015667163 0.38593423 -0.23852047 -0.14741376
0.039999999 0.067574933 0.015995644 0.38593423 -0.23852047 -0.14741376
0.039999999 0.069288708 0.016325817 0.38593423 -0.23852047 -0.14741376
0.039999999 0.074480228 0.017326659 0.38593423 -0.23852047 -0.14741376
0.039999999 0.076227762 0.017663771 0.38593423 -0.23852047 -0.14741376
0.039999999 0.077983946 0.018002665 0.38593423 -0.23852047 -0.14741376
0.039999999 0.079748876 0.018343352 0.38593423 -0.23852047 -0.14741376
0.0011957859 2.7755576e-17 0.013554293 0.38593423 -0.23852047 -0.14741376
0.0035713601 0 0.012835813 0.38593423 -0.23852047 -0.14741376
0.0059258677 0 0.0121238 0.38593423 -0.23852047 -0.14741376
0.0082596205 2.7755576e-17 0.011418157 0.38593423 -0.23852047 -0.14741376
0.010572923 0 0.010718794 0.38593423 -0.23852047 -0.14741376
0.012866075 0 0.010025615 0.38593423 -0.23852047 -0.14741376
0.01513937 0 0.0093385316 0.38593423 -0.23852047 -0.14741376
0.017393095 0 0.0086574573 0.38593423 -0.23852047 -0.14741376
0.019627536 0 0.0079823034 0.38593423 -0.23852047 -0.14741376
0.021842966 0 0.0073129851 0.38593423 -0.23852047 -0.14741376
0.02403966 0 0.0066494206 0.38593423 -0.23852047 -0.14741376
0.026217882 0 0.0059915264 0.38593423 -0.23852047 -0.14741376
0.028377894 0 0.0053392234 0.38593423 -0.23852047 -0.14741376
0.030519957 0 0.0046924325 0.38593423 -0.23852047 -0.14741376
0.03264432 0 0.0040510758 0.38593423 -0.23852047 -0.14741376
0.034751229 0 0.0034150784 0.38593423 -0.23852047 -0.14741376
0.036840931 0 0.0027843651 0.38593423 -0.23852047 -0.14741376
0.038913663 0 0.0021588632 0.38593423 -0.23852047 -0.14741376
0.039999999 0.00067045685 0.0019571905 0.38593423 -0.23852047 -0.14741376
0.039999999 0.0020930055 0.0022248568 0.38593423 -0.23852047 -0.14741376
0.039999999 0.003521017 0.0024936404 0.38593423 -0.23852047 -0.14741376
0.039999999 0.004954543 0.0027635519 0.38593423 -0.23852047 -0.14741376
0.039999999 0.0063936352 0.0030346012 0.38593423 -0.23852047 -0.14741376
0.039999999 0.0078383461 0.0033067989 0.38593423 -0.23852047 -0.14741376
0.039999999 0.0092887292 0.0035801555 0.38593423 -0.23852047 -0.14741376
0.039999999 0.010744838 0.0038546817 0.38593423 -0.23852047 -0.14741376
0.039999999 0.012206728 0.0041303881 0.38593423 -0.23852047 -0.14741376
0.039999999 0.013674451 0.0044072862 0.38593423 -0.23852047 -0.14741376
0.039999999 0.015148066 0.0046853861 0.38593423 -0.23852047 -0.14741376
0.039999999 0.016627628 0.0049646995 0.38593423 -0.23852047 -0.14741376
0.039999999 0.018113192 0.0052452376 0.38593423 -0.23852047 -0.14741376
0.039999999 0.019604819 0.0055270121 0.38593423 -0.23852047 -0.14741376
0.039999999 0.021102563 0.005810034 0.38593423 -0.23852047 -0.14741376
0 0.052800313 0.023844287 0.38593423 -0.23852047 -0.14741376
0.039999999 0.024116645 0.006379867 0.38593423 -0.23852047 -0.14741376
0.039999999 0.0256331 0.0066667018 0.38593423 -0.23852047 -0.14741376
0.039999999 0.027155913 0.006954832 0.38593423 -0.23852047 -0.14741376
0.039999999 0.028685145 0.0072442689 0.38593423 -0.23852047 -0.14741376
0.039999999 0.030220859 0.0075350255 0.38593423 -0.23852047 -0.14741376
0.039999999 0.031763114 0.0078271143 0.38593423 -0.23852047 -0.14741376
0.039999999 0.033311978 0.008120547 0.38593423 -0.23852047 -0.14741376
0 0.066479072 0.026433688 0.38593423 -0.23852047 -0.14741376
0.039999999 0.036429785 0.0087114982 0.38593423 -0.23852047 -0.14741376
0.039999999 0.037998859 0.0090090428 0.38593423 -0.23852047 -0.14741376
0.039999999 0.039574798 0.0093079833 0.38593423 -0.23852047 -0.14741376
5.5511151e-17 0.073496558 0.02776463 0.38593423 -0.23852047 -0.14741376
0.039999999 0.042747557 0.0099101076 0.38593423 -0.23852047 -0.14741376
0.039999999 0.044344511 0.010213319 0.38593423 -0.23852047 -0.14741376
0.039999999 0.04594861 0.010517981 0.38593423 -0.23852047 -0.14741376
0.039999999 0.047559917 0.010824108 0.38593423 -0.23852047 -0.14741376
0.039999999 0.049178507 0.011131714 0.38593423 -0.23852047 -0.14741376
0.039999999 0.050804459 0.011440814 0.38593423 -0.23852047 -0.14741376
0.039999999 0.055727173 0.012377221 0.38593423 -0.23852047 -0.14741376
0.039999999 0.057383284 0.012692442 0.38593423 -0.23852047 -0.14741376
0.039999999 0.060718775 0.013327603 0.38593423 -0.23852047 -0.14741376
0.039999999 0.062398307 0.013647575 0.38593423 -0.23852047 -0.14741376
0.039999999 0.064085811 0.013969161 0.38593423 -0.23852047 -0.14741376
0.039999999 0.065781355 0.014292378 0.38593423 -0.23852047 -0.14741376
0.039999999 0.067485027 0.014617242 0.38593423 -0.23852047 -0.14741376
0.039999999 0.06919691 0.014943769 0.38593423 -0.23852047 -0.14741376
0.029845798 0.079999998 0.020047288 0.38593423 -0.23852047 -0.14741376
0.039999999 0.072645634 0.015601882 0.38593423 -0.23852047 -0.14741376
0.039999999 0.077882424 0.01660195 0.38593423 -0.23852047 -0.14741376
0.039999999 0.079645351 0.016938815 0.38593423 -0.23852047 -0.14741376
0.0011947621 0 0.012220884 0.38593423 -0.23852047 -0.14741376
0.0035683159 0 0.011508955 0.38593423 -0.23852047 -0.14741376
0.005920839 0 0.010803419 0.38593423 -0.23852047 -0.14741376
5.5511151e-17 0.0052118613 0.013546076 0.38593423 -0.23852047 -0.14741376
0.010564029 0 0.0094111552 0.38593423 -0.23852047 -0.14741376
0 0.0082187755 0.01410434 0.38593423 -0.23852047 -0.14741376
0 0.011247055 0.014666924 0.38593423 -0.23852047 -0.14741376
0.019611308 0 0.0066993269 0.38593423 -0.23852047 -0.14741376
0 0.014297097 0.015233904 0.38593423 -0.23852047 -0.14741376
0 0.015830407 0.015519068 0.38593423 -0.23852047 -0.14741376
0.026196478 0 0.0047263582 0.38593423 -0.23852047 -0.14741376
0.028354824 0 0.0040798653 0.38593423 -0.23852047 -0.14741376
0.030495247 0 0.0034388229 0.38593423 -0.23852047 -0.14741376
0.032617997 0 0.002803155 0.38593423 -0.23852047 -0.14741376
0.034723327 0 0.002172786 0.38593423 -0.23852047 -0.14741376
0.036811471 0 0.0015476429 0.38593423 -0.23852047 -0.14741376
0.038882673 0 0.00092765299 0.38593423 -0.23852047 -0.14741376
0.039999999 0.00064792536 0.00071403501 0.38593423 -0.23852047 -0.14741376
0.039999999 0.0020691664 0.00097908813 0.38593423 -0.23852047 -0.14741376
0.039999999 0.0034958599 0.0012452392 0.38593423 -0.23852047 -0.14741376
0.039999999 0.004928058 0.0015124979 0.38593423 -0.23852047 -0.14741376
0.039999999 0.0063658115 0.0017808746 0.38593423 -0.23852047 -0.14741376
0.039999999 0.0078091738 0.0020503795 0.38593423 -0.23852047 -0.14741376
0.039999999 0.0092581976 0.0023210233 0.38593423 -0.23852047 -0.14741376
0.039999999 0.010712937 0.0025928158 0.38593423 -0.23852047 -0.14741376
0.039999999 0.012173445 0.0028657683 0.38593423 -0.23852047 -0.14741376
0.039999999 0.013639777 0.0031398912 0.38593423 -0.23852047 -0.14741376
0.039999999 0.015111988 0.0034151953 0.38593423 -0.23852047 -0.14741376
0.039999999 0.016590135 0.0036916917 0.38593423 -0.23852047 -0.14741376
0.039999999 0.018074274 0.0039693913 0.38593423 -0.23852047 -0.14741376
0.039999999 0.019564463 0.0042483057 0.38593423 -0.23852047 -0.14741376
0.039999999 0.021060759 0.0045284457 0.38593423 -0.23852047 -0.14741376
0.039999999 0.022563219 0.0048098229 0.38593423 -0.23852047 -0.14741376
0.039999999 0.024071906 0.0050924495 0.38593423 -0.23852047 -0.14741376
0.039999999 0.025586875 0.0053763366 0.38593423 -0.23852047 -0.14741376
0.039999999 0.027108191 0.005661496 0.38593423 -0.23852047 -0.14741376
0.039999999 0.028635914 0.0059479401 0.38593423 -0.23852047 -0.14741376
0.039999999 0.030170104 0.0062356805 0.38593423 -0.23852047 -0.14741376
0.039999999 0.031710826 0.00652473 0.38593423 -0.23852047 -0.14741376
0.039999999 0.03325814 0.006815101 0.38593423 -0.23852047 -0.14741376
0.039999999 0.034812111 0.0071068057 0.38593423 -0.23852047 -0.14741376
0.039999999 0.036372807 0.007399857 0.38593423 -0.23852047 -0.14741376
0.039999999 0.03794029 0.0076942677 0.38593423 -0.23852047 -0.14741376
0.039999999 0.039514631 0.0079900511 0.38593423 -0.23852047 -0.14741376
0.039999999 0.04109589 0.0082872193 0.38593423 -0.23852047 -0.14741376
0.039999999 0.042684142 0.0085857874 0.38593423 -0.23852047 -0.14741376
0.039999999 0.044279449 0.0088857673 0.38593423 -0.23852047 -0.14741376
0.039999999 0.045881886 0.0091871731 0.38593423 -0.23852047 -0.14741376
0.039999999 0.047491517 0.0094900187 0.38593423 -0.23852047 -0.14741376
0.039999999 0.04910842 0.0097943181 0.38593423 -0.23852047 -0.14741376
0.039999999 0.050732665 0.010100085 0.38593423 -0.23852047 -0.14741376
0.039999999 0.052364323 0.010407335 0.38593423 -0.23852047 -0.14741376
0.039999999 0.054003466 0.010716082 0.38593423 -0.23852047 -0.14741376
0.039999999 0.055650175 0.011026339 0.38593423 -0.23852047 -0.14741376
0.039999999 0.057304516 0.011338121 0.38593423 -0.23852047 -0.14741376
0.039999999 0.060636424 0.011966326 0.38593423 -0.23852047 -0.14741376
0.039999999 0.062314142 0.012282779 0.38593423 -0.23852047 -0.14741376
0.039999999 0.065693498 0.012920461 0.38593423 -0.23852047 -0.14741376
0.039999999 0.067395307 0.013241721 0.38593423 -0.23852047 -0.14741376
0.039999999 0.069105305 0.013564617 0.38593423 -0.23852047 -0.14741376
0.039999999 0.070823573 0.013889165 0.38593423 -0.23852047 -0.14741376
0.039999999 0.074285284 0.01454328 0.38593423 -0.23852047 -0.14741376
0.039999999 0.076028891 0.014872882 0.38593423 -0.23852047 -0.14741376
0.039999999 0.077781111 0.015204202 0.38593423 -0.23852047 -0.14741376
0.039999999 0.079542048 0.015537258 0.38593423 -0.23852047 -0.14741376
0.0011937401 2.7755576e-17 0.01088993 0.38593423 -0.23852047 -0.14741376
0.0035652772 0 0.010184529 0.38593423 -0.23852047 -0.14741376
0.0059158192 0 0.0094854496 0.38593423 -0.23852047 -0.14741376
0.0082456758 0 0.0087925987 0.38593423 -0.23852047 -0.14741376
0.010555151 0 0.0081058852 0.38593423 -0.23852047 -0.14741376
0 0.0082116621 0.012755938 0.38593423 -0.23852047 -0.14741376
0.015114143 2.7755576e-17 0.0067505133 0.38593423 -0.23852047 -0.14741376
0 0.011237285 0.013313228 0.38593423 -0.23852047 -0.14741376
5.5511151e-17 0.012758219 0.013593487 0.38593423 -0.23852047 -0.14741376
0.021807032 0 0.0047612996 0.38593423 -0.23852047 -0.14741376
0.024000278 0 0.0041095866 0.38593423 -0.23852047 -0.14741376
0.026175112 0 0.0034634185 0.38593423 -0.23852047 -0.14741376
0.028331794 0 0.0028227167 0.38593423 -0.23852047 -0.14741376
0.030470582 0 0.0021874048 0.38593423 -0.23852047 -0.14741376
0.032591727 0 0.0015574066 0.38593423 -0.23852047 -0.14741376
0.034695469 0 0.00093264855 0.38593423 -0.23852047 -0.14741376
0.03678206 0 0.00031305759 0.38593423 -0.23852047 -0.14741376
0.03814055 0.00048873568 0 0.38593423 -0.23852047 -0.14741376
0.038759436 0.0014830428 0 0.38593423 -0.23852047 -0.14741376
0.039378643 0.0024774696 0 0.38593423 -0.23852047 -0.14741376
0.039998174 0.0034720281 0 0.38593423 -0.23852047 -0.14741376
0.039999999 0.0049016234 0.00026383752 0.38593423 -0.23852047 -0.14741376
0.039999999 0.0063380417 0.00052955106 0.38593423 -0.23852047 -0.14741376
0.039999999 0.0077800578 0.00079637289 0.38593423 -0.23852047 -0.14741376
0.039999999 0.0092277247 0.0010643131 0.38593423 -0.23852047 -0.14741376
0.039999999 0.010681096 0.001333382 0.38593423 -0.23852047 -0.14741376
0.039999999 0.012140227 0.0016035901 0.38593423 -0.23852047 -0.14741376
0.039999999 0.01360517 0.0018749479 0.38593423 -0.23852047 -0.14741376
0.039999999 0.015075982 0.0021474659 0.38593423 -0.23852047 -0.14741376
0.039999999 0.016552716 0.0024211553 0.38593423 -0.23852047 -0.14741376
0.039999999 0.018035432 0.0026960268 0.38593423 -0.23852047 -0.14741376
0.039999999 0.019524187 0.0029720913 0.38593423 -0.23852047 -0.14741376
0.039999999 0.021019036 0.0032493602 0.38593423 -0.23852047 -0.14741376
0.039999999 0.022520039 0.0035278446 0.38593423 -0.23852047 -0.14741376
0.039999999 0.024027254 0.0038075559 0.38593423 -0.23852047 -0.14741376
0.039999999 0.025540743 0.0040885056 0.38593423 -0.23852047 -0.14741376
0.039999999 0.027060565 0.0043707052 0.38593423 -0.23852047 -0.14741376
0.039999999 0.028586779 0.0046541672 0.38593423 -0.23852047 -0.14741376
0.039999999 0.030119449 0.0049389028 0.38593423 -0.23852047 -0.14741376
0.039999999 0.031658638 0.0052249245 0.38593423 -0.23852047 -0.14741376
0.039999999 0.033204406 0.0055122445 0.38593423 -0.23852047 -0.14741376
0.039999999 0.034756821 0.0058008749 0.38593423 -0.23852047 -0.14741376
0.039999999 0.036315944 0.0060908278 0.38593423 -0.23852047 -0.14741376
0.039999999 0.037881844 0.006382117 0.38593423 -0.23852047 -0.14741376
0.039999999 0.039454583 0.0066747544 0.38593423 -0.23852047 -0.14741376
0.039999999 0.041034229 0.0069687529 0.38593423 -0.23852047 -0.14741376
0.039999999 0.042620853 0.0072641261 0.38593423 -0.23852047 -0.14741376
0.039999999 0.044214517 0.0075608869 0.38593423 -0.23852047 -0.14741376
0.039999999 0.045815296 0.0078590494 0.38593423 -0.23852047 -0.14741376
0.039999999 0.047423258 0.008158626 0.38593423 -0.23852047 -0.14741376
0.039999999 0.049038477 0.0084596304 0.38593423 -0.23852047 -0.14741376
0.039999999 0.05066102 0.0087620774 0.38593423 -0.23852047 -0.14741376
0.039999999 0.052290957 0.009065981 0.38593423 -0.23852047 -0.14741376
0.039999999 0.053928372 0.0093713552 0.38593423 -0.23852047 -0.14741376
0.039999999 0.055573329 0.0096782148 0.38593423 -0.23852047 -0.14741376
0.039999999 0.058886189 0.010296446 0.38593423 -0.23852047 -0.14741376
0.039999999 0.06055424 0.010607848 0.38593423 -0.23852047 -0.14741376
0.039999999 0.062230147 0.010920795 0.38593423 -0.23852047 -0.14741376
0.039999999 0.063913986 0.0112353 0.38593423 -0.23852047 -0.14741376
0.039999999 0.065605834 0.011551382 0.38593423 -0.23852047 -0.14741376
0.039999999 0.067305773 0.011869053 0.38593423 -0.23852047 -0.14741376
0.039999999 0.069013886 0.012188332 0.38593423 -0.23852047 -0.14741376
0.039999999 0.070730262 0.012509233 0.38593423 -0.23852047 -0.14741376
0.039999999 0.072454974 0.012831774 0.38593423 -0.23852047 -0.14741376
0.039999999 0.074188113 0.013155969 0.38593423 -0.23852047 -0.14741376
0.039999999 0.075929768 0.013481837 0.38593423 -0.23852047 -0.14741376
0.039999999 0.077680014 0.013809394 0.38593423 -0.23852047 -0.14741376
0.039999999 0.079438955 0.014138657 0.38593423 -0.23852047 -0.14741376
0.00119272 0 0.0095614055 0.38593423 -0.23852047 -0.14741376
0.0035622439 0 0.0088625113 0.38593423 -0.23852047 -0.14741376
0.0059108082 0 0.0081698662 0.38593423 -0.23852047 -0.14741376
0.0082387226 0 0.007483379 0.38593423 -0.23852047 -0.14741376
0.010546288 0 0.0068029594 0.38593423 -0.23852047 -0.14741376
0.012833805 0 0.0061285188 0.38593423 -0.23852047 -0.14741376
0.015101562 0 0.0054599703 0.38593423 -0.23852047 -0.14741376
0.017349847 2.7755576e-17 0.0047972286 0.38593423 -0.23852047 -0.14741376
0.019578937 0 0.0041402103 0.38593423 -0.23852047 -0.14741376
0.021789111 0 0.0034888333 0.38593423 -0.23852047 -0.14741376
0.026153782 0 0.0022026838 0.38593423 -0.23852047 -0.14741376
0.028308805 0 0.0015677549 0.38593423 -0.23852047 -0.14741376
0.030445959 0 0.0009381547 0.38593423 -0.23852047 -0.14741376
0.032565497 0 0.00031380856 0.38593423 -0.23852047 -0.14741376
0.033938531 0.00049510307 0 0.38593423 -0.23852047 -0.14741376
0.034561202 0.001496978 0 0.38593423 -0.23852047 -0.14741376
0.035184164 0.0024989631 0 0.38593423 -0.23852047 -0.14741376
0.035807416 0.0035010709 0 0.38593423 -0.23852047 -0.14741376
0.03643097 0.0045033139 0 0.38593423 -0.23852047 -0.14741376
0.037054837 0.0055057053 0 0.38593423 -0.23852047 -0.14741376
0.03767902 0.0065082568 0 0.38593423 -0.23852047 -0.14741376
0.038303528 0.0075109815 0 0.38593423 -0.23852047 -0.14741376
0.038928371 0.0085138921 0 0.38593423 -0.23852047 -0.14741376
0.039553557 0.0095170019 0 0.38593423 -0.23852047 -0.14741376
0.039999999 0.010649318 7.6355791e-05 0.38593423 -0.23852047 -0.14741376
0.039999999 0.012107072 0.00034382928 0.38593423 -0.23852047 -0.14741376
0.039999999 0.013570629 0.00061243185 0.38593423 -0.23852047 -0.14741376
0.039999999 0.015040043 0.00088217406 0.38593423 -0.23852047 -0.14741376
0.039999999 0.01651537 0.0011530664 0.38593423 -0.23852047 -0.14741376
0.039999999 0.017996667 0.0014251197 0.38593423 -0.23852047 -0.14741376
0.039999999 0.019483989 0.0016983447 0.38593423 -0.23852047 -0.14741376
0.039999999 0.020977395 0.0019727526 0.38593423 -0.23852047 -0.14741376
0.039999999 0.022476943 0.0022483543 0.38593423 -0.23852047 -0.14741376
0.039999999 0.023982691 0.002525161 0.38593423 -0.23852047 -0.14741376
0.039999999 0.0254947 0.0028031841 0.38593423 -0.23852047 -0.14741376
0.039999999 0.02701303 0.0030824349 0.38593423 -0.23852047 -0.14741376
