# .PCD v0.7 - Point Cloud Data file format
VERSION 0.7
FIELDS x y z vp_x vp_y vp_z
SIZE 4 4 4 4 4 4
TYPE F F F F F F
COUNT 1 1 1 1 1 1
WIDTH 795
HEIGHT 1
VIEWPOINT 0 0 0 1 0 0 0
POINTS 795
DATA ascii
0.0053347182 0.028299525 0.039999999 -0.4048202 0 0.25019264
0.0053220144 0.027091799 0.039999999 -0.4048202 0 0.25019264
0.0053098667 0.025884531 0.039999999 -0.4048202 0 0.25019264
0.0052982746 0.024677699 0.039999999 -0.4048202 0 0.25019264
0.0052872375 0.023471281 0.039999999 -0.4048202 0 0.25019264
0.005276755 0.022265257 0.039999999 -0.4048202 0 0.25019264
0.0052668266 0.02105961 0.039999999 -0.4048202 0 0.25019264
0.0052574519 0.019854315 0.039999999 -0.4048202 0 0.25019264
0.0052486309 0.018649353 0.039999999 -0.4048202 0 0.25019264
0.0052403626 0.017444706 0.039999999 -0.4048202 0 0.25019264
0.0052326475 0.016240351 0.039999999 -0.4048202 0 0.25019264
0.0052254843 0.015036269 0.039999999 -0.4048202 0 0.25019264
0.0052188737 0.013832439 0.039999999 -0.4048202 0 0.25019264
0.0052128145 0.012628841 0.039999999 -0.4048202 0 0.25019264
0.0052073072 0.011425456 0.039999999 -0.4048202 0 0.25019264
0.0052023511 0.010222262 0.039999999 -0.4048202 0 0.25019264
0.005197946 0.0090192398 0.039999999 -0.4048202 0 0.25019264
0.0051940922 0.0078163687 0.039999999 -0.4048202 0 0.25019264
0.0051907892 0.0066136285 0.039999999 -0.4048202 0 0.25019264
0.0051880367 0.0054109995 0.039999999 -0.4048202 0 0.25019264
0.0051858351 0.0042084609 0.039999999 -0.4048202 0 0.25019264
0.0051841838 0.0030059931 0.039999999 -0.4048202 0 0.25019264
0.005183083 0.0018035758 0.039999999 -0.4048202 0 0.25019264
0.0051825326 0.00060118857 0.039999999 -0.4048202 0 0.25019264
0.0036989762 0.079318225 0.039999999 -0.4048202 0 0.25019264
0.0036637266 0.078078642 0.039999999 -0.4048202 0 0.25019264
0.0036290498 0.076840393 0.039999999 -0.4048202 0 0.25019264
0.003594944 0.07560347 0.039999999 -0.4048202 0 0.25019264
0.0035614083 0.074367851 0.039999999 -0.4048202 0 0.25019264
0.0035284406 0.073133506 0.039999999 -0.4048202 0 0.25019264
0.0034960401 0.071900412 0.039999999 -0.4048202 0 0.25019264
0.003057488 0.070598155 0.040209386 -0.4048202 0 0.25019264
0.0022975358 0.069244787 0.040584568 -0.4048202 0 0.25019264
0.0016568528 0.067916811 0.040898688 -0.4048202 0 0.25019264
0.0011375748 0.06661348 0.041150626 -0.4048202 0 0.25019264
0.00075546885 0.065336227 0.041332249 -0.4048202 0 0.25019264
0.00043016073 0.064071096 0.04148493 -0.4048202 0 0.25019264
0.00022629365 0.06282758 0.041575372 -0.4048202 0 0.25019264
8.652392e-05 0.06159585 0.041633096 -0.4048202 0 0.25019264
2.0426376e-05 0.060376745 0.041653164 -0.4048202 0 0.25019264
4.4889741e-05 0.059172049 0.041626863 -0.4048202 0 0.25019264
0.00010985777 0.05797378 0.041579977 -0.4048202 0 0.25019264
0.00028868834 0.056791831 0.0414747 -0.4048202 0 0.25019264
0.00049193739 0.055612907 0.041357115 -0.4048202 0 0.25019264
0.00081494282 0.054449566 0.041178085 -0.4048202 0 0.25019264
0.0011760278 0.053290006 0.040979695 -0.4048202 0 0.25019264
0.0016336705 0.052141372 0.040731803 -0.4048202 0 0.25019264
0.0021676219 0.051000256 0.04044484 -0.4048202 0 0.25019264
0.0027695312 0.049864937 0.040123098 -0.4048202 0 0.25019264
0.0029865168 0.048680741 0.039999999 -0.4048202 0 0.25019264
0.002965206 0.047468144 0.039999999 -0.4048202 0 0.25019264
0.0029444392 0.046256348 0.039999999 -0.4048202 0 0.25019264
0.002924215 0.045045331 0.039999999 -0.4048202 0 0.25019264
0.0029045332 0.043835074 0.039999999 -0.4048202 0 0.25019264
0.0028853926 0.042625554 0.039999999 -0.4048202 0 0.25019264
0.0028667927 0.041416749 0.039999999 -0.4048202 0 0.25019264
0.0028487325 0.040208641 0.039999999 -0.4048202 0 0.25019264
0.0028312113 0.039001212 0.039999999 -0.4048202 0 0.25019264
0.0028142286 0.037794437 0.039999999 -0.4048202 0 0.25019264
0.0027977836 0.036588293 0.039999999 -0.4048202 0 0.25019264
0.0027818754 0.035382766 0.039999999 -0.4048202 0 0.25019264
0.0027665037 0.034177832 0.039999999 -0.4048202 0 0.25019264
0.0027516678 0.032973468 0.039999999 -0.4048202 0 0.25019264
0.0027373668 0.031769659 0.039999999 -0.4048202 0 0.25019264
0.0027236007 0.030566381 0.039999999 -0.4048202 0 0.25019264
0.0027103683 0.029363615 0.039999999 -0.4048202 0 0.25019264
0.0026976694 0.028161341 0.039999999 -0.4048202 0 0.25019264
0.0026855036 0.026959538 0.039999999 -0.4048202 0 0.25019264
0.0026738702 0.025758184 0.039999999 -0.4048202 0 0.25019264
0.0026627688 0.024557263 0.039999999 -0.4048202 0 0.25019264
0.0026521988 0.023356751 0.039999999 -0.4048202 0 0.25019264
0.00264216 0.02215663 0.039999999 -0.4048202 0 0.25019264
0.0026326519 0.020956878 0.039999999 -0.4048202 0 0.25019264
0.0026236742 0.019757476 0.039999999 -0.4048202 0 0.25019264
0.0026152264 0.018558402 0.039999999 -0.4048202 0 0.25019264
0.0026073083 0.01735964 0.039999999 -0.4048202 0 0.25019264
0.0025999197 0.016161166 0.039999999 -0.4048202 0 0.25019264
0.0025930598 0.014962963 0.039999999 -0.4048202 0 0.25019264
0.0025867287 0.013765008 0.039999999 -0.4048202 0 0.25019264
0.0025809261 0.012567284 0.039999999 -0.4048202 0 0.25019264
0.0025756517 0.011369768 0.039999999 -0.4048202 0 0.25019264
0.0025709055 0.010172442 0.039999999 -0.4048202 0 0.25019264
0.0025666871 0.0089752851 0.039999999 -0.4048202 0 0.25019264
0.0025629962 0.0077782786 0.039999999 -0.4048202 0 0.25019264
0.002559833 0.006581401 0.039999999 -0.4048202 0 0.25019264
0.0025571971 0.0053846333 0.039999999 -0.4048202 0 0.25019264
0.0025550886 0.0041879551 0.039999999 -0.4048202 0 0.25019264
0.0025535072 0.0029913466 0.039999999 -0.4048202 0 0.25019264
0.0025524532 0.0017947881 0.039999999 -0.4048202 0 0.25019264
0.0025519261 0.00059825939 0.039999999 -0.4048202 0 0.25019264
0.0010450942 0.078927271 0.039999999 -0.4048202 0 0.25019264
0.0010113788 0.077693991 0.039999999 -0.4048202 0 0.25019264
0.00097821106 0.076462038 0.039999999 -0.4048202 0 0.25019264
0.00094558945 0.075231388 0.039999999 -0.4048202 0 0.25019264
0.0009135126 0.074002028 0.039999999 -0.4048202 0 0.25019264
0.00088197936 0.072773926 0.039999999 -0.4048202 0 0.25019264
0.0008509882 0.071547061 0.039999999 -0.4048202 0 0.25019264
0.00082053803 0.070321418 0.039999999 -0.4048202 0 0.25019264
0.0007906275 0.069096968 0.039999999 -0.4048202 0 0.25019264
0.00076125539 0.067873694 0.039999999 -0.4048202 0 0.25019264
0.00073242048 0.066651568 0.039999999 -0.4048202 0 0.25019264
0.0007041216 0.065430574 0.039999999 -0.4048202 0 0.25019264
0.00044709389 0.064174384 0.04011884 -0.4048202 0 0.25019264
0.00024288401 0.062928773 0.040210593 -0.4048202 0 0.25019264
9.1807808e-05 0.061693307 0.040275089 -0.4048202 0 0.25019264
2.56031e-05 0.060472224 0.040295865 -0.4048202 0 0.25019264
3.9898656e-05 0.059264105 0.040275179 -0.4048202 0 0.25019264
0.00010496855 0.058063954 0.040228438 -0.4048202 0 0.25019264
0.00027442613 0.056878828 0.040127832 -0.4048202 0 0.25019264
0.00046863654 0.055696826 0.040014651 -0.4048202 0 0.25019264
0.00047336851 0.05448892 0.039999999 -0.4048202 0 0.25019264
0.00045036967 0.053278044 0.039999999 -0.4048202 0 0.25019264
0.00042789534 0.052068062 0.039999999 -0.4048202 0 0.25019264
0.00040594456 0.050858956 0.039999999 -0.4048202 0 0.25019264
0.00038451646 0.049650703 0.039999999 -0.4048202 0 0.25019264
0.00036361016 0.04844328 0.039999999 -0.4048202 0 0.25019264
0.00034322482 0.04723667 0.039999999 -0.4048202 0 0.25019264
0.00032335962 0.046030853 0.039999999 -0.4048202 0 0.25019264
0.00030401375 0.044825807 0.039999999 -0.4048202 0 0.25019264
0.00028518643 0.043621507 0.039999999 -0.4048202 0 0.25019264
0.00026687686 0.04241794 0.039999999 -0.4048202 0 0.25019264
0.00024908435 0.041215077 0.039999999 -0.4048202 0 0.25019264
0.00023180815 0.040012907 0.039999999 -0.4048202 0 0.25019264
0.00021504759 0.038811401 0.039999999 -0.4048202 0 0.25019264
0.00019880198 0.037610546 0.039999999 -0.4048202 0 0.25019264
0.00018307065 0.036410313 0.039999999 -0.4048202 0 0.25019264
0.00016785298 0.035210691 0.039999999 -0.4048202 0 0.25019264
0.00015314836 0.034011655 0.039999999 -0.4048202 0 0.25019264
0.00013895619 0.032813184 0.039999999 -0.4048202 0 0.25019264
0.00012527591 0.031615257 0.039999999 -0.4048202 0 0.25019264
0.00011210696 0.030417858 0.039999999 -0.4048202 0 0.25019264
9.9448815e-05 0.029220965 0.039999999 -0.4048202 0 0.25019264
8.7300963e-05 0.028024556 0.039999999 -0.4048202 0 0.25019264
7.5662916e-05 0.026828613 0.039999999 -0.4048202 0 0.25019264
6.4534215e-05 0.025633117 0.039999999 -0.4048202 0 0.25019264
5.3914402e-05 0.024438046 0.039999999 -0.4048202 0 0.25019264
4.3803062e-05 0.023243379 0.039999999 -0.4048202 0 0.25019264
3.4199784e-05 0.022049099 0.039999999 -0.4048202 0 0.25019264
2.5104182e-05 0.020855183 0.039999999 -0.4048202 0 0.25019264
1.6515894e-05 0.019661615 0.039999999 -0.4048202 0 0.25019264
8.4345756e-06 0.018468371 0.039999999 -0.4048202 0 0.25019264
8.5990433e-07 0.017275434 0.039999999 -0.4048202 0 0.25019264
5.5511151e-17 0.016083028 0.039996777 -0.4048202 0 0.25019264
5.5511151e-17 0.014890866 0.039993368 -0.4048202 0 0.25019264
5.5511151e-17 0.013698895 0.039990224 -0.4048202 0 0.25019264
5.5511151e-17 0.0125071 0.039987341 -0.4048202 0 0.25019264
5.5511151e-17 0.011315465 0.039984722 -0.4048202 0 0.25019264
5.5511151e-17 0.010123975 0.039982364 -0.4048202 0 0.25019264
5.5511151e-17 0.0089326138 0.039980266 -0.4048202 0 0.25019264
5.5511151e-17 0.007741367 0.039978433 -0.4048202 0 0.25019264
5.5511151e-17 0.0065502198 0.039976861 -0.4048202 0 0.25019264
5.5511151e-17 0.0053591565 0.039975554 -0.4048202 0 0.25019264
5.5511151e-17 0.0041681617 0.039974503 -0.4048202 0 0.25019264
5.5511151e-17 0.0029772203 0.039973717 -0.4048202 0 0.25019264
5.5511151e-17 0.0017863169 0.039973196 -0.4048202 0 0.25019264
5.5511151e-17 0.00059543643 0.039972935 -0.4048202 0 0.25019264
5.5511151e-17 0.078848377 0.039175503 -0.4048202 0 0.25019264
0 0.077622727 0.039158646 -0.4048202 0 0.25019264
5.5511151e-17 0.076398097 0.039142061 -0.4048202 0 0.25019264
5.5511151e-17 0.075174473 0.039125744 -0.4048202 0 0.25019264
5.5511151e-17 0.073951833 0.039109699 -0.4048202 0 0.25019264
0 0.072730176 0.039093923 -0.4048202 0 0.25019264
1.110223e-16 0.071509466 0.039078414 -0.4048202 0 0.25019264
0 0.070289701 0.039063178 -0.4048202 0 0.25019264
5.5511151e-17 0.069070853 0.039048206 -0.4048202 0 0.25019264
5.5511151e-17 0.067852914 0.039033502 -0.4048202 0 0.25019264
1.110223e-16 0.066635862 0.039019067 -0.4048202 0 0.25019264
5.5511151e-17 0.065419681 0.039004896 -0.4048202 0 0.25019264
5.5511151e-17 0.064204358 0.038990989 -0.4048202 0 0.25019264
0 0.062989876 0.038977351 -0.4048202 0 0.25019264
1.110223e-16 0.061776217 0.038963977 -0.4048202 0 0.25019264
1.110223e-16 0.060563363 0.038950868 -0.4048202 0 0.25019264
5.5511151e-17 0.059351295 0.038938023 -0.4048202 0 0.25019264
1.110223e-16 0.058140006 0.038925443 -0.4048202 0 0.25019264
0 0.056929473 0.038913123 -0.4048202 0 0.25019264
5.5511151e-17 0.055719681 0.038901068 -0.4048202 0 0.25019264
5.5511151e-17 0.054510612 0.038889274 -0.4048202 0 0.25019264
5.5511151e-17 0.053302255 0.038877744 -0.4048202 0 0.25019264
5.5511151e-17 0.05209459 0.038866475 -0.4048202 0 0.25019264
1.110223e-16 0.0508876 0.038855467 -0.4048202 0 0.25019264
5.5511151e-17 0.049681272 0.03884472 -0.4048202 0 0.25019264
1.110223e-16 0.04847559 0.038834233 -0.4048202 0 0.25019264
5.5511151e-17 0.047270533 0.038824007 -0.4048202 0 0.25019264
5.5511151e-17 0.04606609 0.038814042 -0.4048202 0 0.25019264
5.5511151e-17 0.044862248 0.038804334 -0.4048202 0 0.25019264
5.5511151e-17 0.043658983 0.038794886 -0.4048202 0 0.25019264
0 0.04245628 0.0387857 -0.4048202 0 0.25019264
1.110223e-16 0.041254133 0.03877677 -0.4048202 0 0.25019264
5.5511151e-17 0.040052515 0.038768098 -0.4048202 0 0.25019264
1.110223e-16 0.038851414 0.038759686 -0.4048202 0 0.25019264
5.5511151e-17 0.03765082 0.038751531 -0.4048202 0 0.25019264
1.110223e-16 0.036450706 0.038743634 -0.4048202 0 0.25019264
5.5511151e-17 0.035251066 0.038735993 -0.4048202 0 0.25019264
5.5511151e-17 0.03405188 0.03872861 -0.4048202 0 0.25019264
1.110223e-16 0.032853134 0.038721483 -0.4048202 0 0.25019264
5.5511151e-17 0.031654812 0.038714614 -0.4048202 0 0.25019264
5.5511151e-17 0.030456895 0.038707998 -0.4048202 0 0.25019264
5.5511151e-17 0.029259373 0.038701642 -0.4048202 0 0.25019264
5.5511151e-17 0.028062228 0.03869554 -0.4048202 0 0.25019264
5.5511151e-17 0.026865443 0.038689695 -0.4048202 0 0.25019264
5.5511151e-17 0.025669005 0.038684104 -0.4048202 0 0.25019264
5.5511151e-17 0.024472896 0.038678769 -0.4048202 0 0.25019264
5.5511151e-17 0.023277102 0.038673688 -0.4048202 0 0.25019264
5.5511151e-17 0.02208161 0.038668863 -0.4048202 0 0.25019264
5.5511151e-17 0.020886399 0.038664296 -0.4048202 0 0.25019264
5.5511151e-17 0.019691458 0.038659979 -0.4048202 0 0.25019264
5.5511151e-17 0.018496769 0.038655918 -0.4048202 0 0.25019264
5.5511151e-17 0.017302318 0.038652111 -0.4048202 0 0.25019264
5.5511151e-17 0.01610809 0.038648561 -0.4048202 0 0.25019264
5.5511151e-17 0.014914068 0.038645264 -0.4048202 0 0.25019264
5.5511151e-17 0.013720239 0.03864222 -0.4048202 0 0.25019264
5.5511151e-17 0.012526585 0.03863943 -0.4048202 0 0.25019264
5.5511151e-17 0.011333092 0.038636893 -0.4048202 0 0.25019264
5.5511151e-17 0.010139745 0.038634613 -0.4048202 0 0.25019264
5.5511151e-17 0.0089465268 0.038632583 -0.4048202 0 0.25019264
5.5511151e-17 0.0077534248 0.03863081 -0.4048202 0 0.25019264
5.5511151e-17 0.0065604215 0.03862929 -0.4048202 0 0.25019264
5.5511151e-17 0.005367503 0.038628019 -0.4048202 0 0.25019264
5.5511151e-17 0.004174653 0.038627006 -0.4048202 0 0.25019264
5.5511151e-17 0.0029818569 0.038626246 -0.4048202 0 0.25019264
5.5511151e-17 0.0017890988 0.03862574 -0.4048202 0 0.25019264
5.5511151e-17 0.00059636374 0.038625486 -0.4048202 0 0.25019264
5.5511151e-17 0.07897307 0.037805963 -0.4048202 0 0.25019264
5.5511151e-17 0.077745423 0.037789669 -0.4048202 0 0.25019264
5.5511151e-17 0.076518811 0.037773639 -0.4048202 0 0.25019264
5.5511151e-17 0.075293198 0.03775787 -0.4048202 0 0.25019264
5.5511151e-17 0.074068584 0.037742361 -0.4048202 0 0.25019264
5.5511151e-17 0.072844952 0.03772711 -0.4048202 0 0.25019264
5.5511151e-17 0.071622275 0.037712123 -0.4048202 0 0.25019264
5.5511151e-17 0.070400536 0.037697393 -0.4048202 0 0.25019264
5.5511151e-17 0.069179729 0.037682924 -0.4048202 0 0.25019264
5.5511151e-17 0.06795983 0.037668712 -0.4048202 0 0.25019264
5.5511151e-17 0.066740818 0.037654757 -0.4048202 0 0.25019264
5.5511151e-17 0.065522686 0.03764106 -0.4048202 0 0.25019264
1.110223e-16 0.064305417 0.037627622 -0.4048202 0 0.25019264
0 0.063088983 0.037614439 -0.4048202 0 0.25019264
5.5511151e-17 0.06187338 0.037601512 -0.4048202 0 0.25019264
5.5511151e-17 0.060658585 0.037588842 -0.4048202 0 0.25019264
5.5511151e-17 0.059444584 0.037576426 -0.4048202 0 0.25019264
5.5511151e-17 0.058231361 0.037564263 -0.4048202 0 0.25019264
1.110223e-16 0.057018898 0.037552357 -0.4048202 0 0.25019264
1.110223e-16 0.055807177 0.037540708 -0.4048202 0 0.25019264
5.5511151e-17 0.054596186 0.037529308 -0.4048202 0 0.25019264
0 0.053385906 0.037518162 -0.4048202 0 0.25019264
5.5511151e-17 0.052176323 0.03750727 -0.4048202 0 0.25019264
1.110223e-16 0.050967418 0.03749663 -0.4048202 0 0.25019264
5.5511151e-17 0.049759176 0.037486244 -0.4048202 0 0.25019264
1.110223e-16 0.048551578 0.037476107 -0.4048202 0 0.25019264
0 0.047344618 0.037466224 -0.4048202 0 0.25019264
1.110223e-16 0.046138268 0.037456591 -0.4048202 0 0.25019264
5.5511151e-17 0.044932518 0.03744721 -0.4048202 0 0.25019264
5.5511151e-17 0.043727353 0.03743808 -0.4048202 0 0.25019264
0 0.042522755 0.037429199 -0.4048202 0 0.25019264
5.5511151e-17 0.041318707 0.037420567 -0.4048202 0 0.25019264
5.5511151e-17 0.040115193 0.037412185 -0.4048202 0 0.25019264
0 0.038912203 0.037404057 -0.4048202 0 0.25019264
0 0.037709713 0.037396174 -0.4048202 0 0.25019264
0 0.036507715 0.037388541 -0.4048202 0 0.25019264
5.5511151e-17 0.035306185 0.037381154 -0.4048202 0 0.25019264
0 0.034105115 0.03737402 -0.4048202 0 0.25019264
1.110223e-16 0.032904483 0.037367132 -0.4048202 0 0.25019264
5.5511151e-17 0.031704281 0.037360489 -0.4048202 0 0.25019264
0 0.030504484 0.037354097 -0.4048202 0 0.25019264
5.5511151e-17 0.029305084 0.037347954 -0.4048202 0 0.25019264
5.5511151e-17 0.02810606 0.037342057 -0.4048202 0 0.25019264
5.5511151e-17 0.026907401 0.037336405 -0.4048202 0 0.25019264
0 0.025709087 0.037331004 -0.4048202 0 0.25019264
5.5511151e-17 0.024511106 0.037325848 -0.4048202 0 0.25019264
5.5511151e-17 0.02331344 0.037320938 -0.4048202 0 0.25019264
0 0.022116076 0.037316274 -0.4048202 0 0.25019264
0 0.020918997 0.037311856 -0.4048202 0 0.25019264
1.110223e-16 0.019722188 0.037307687 -0.4048202 0 0.25019264
5.5511151e-17 0.018525632 0.037303761 -0.4048202 0 0.25019264
5.5511151e-17 0.017329315 0.037300084 -0.4048202 0 0.25019264
5.5511151e-17 0.016133221 0.037296649 -0.4048202 0 0.25019264
5.5511151e-17 0.014937334 0.03729346 -0.4048202 0 0.25019264
5.5511151e-17 0.013741639 0.037290521 -0.4048202 0 0.25019264
5.5511151e-17 0.012546123 0.037287824 -0.4048202 0 0.25019264
5.5511151e-17 0.011350767 0.037285373 -0.4048202 0 0.25019264
5.5511151e-17 0.010155558 0.037283167 -0.4048202 0 0.25019264
5.5511151e-17 0.0089604789 0.037281208 -0.4048202 0 0.25019264
5.5511151e-17 0.0077655152 0.03727949 -0.4048202 0 0.25019264
5.5511151e-17 0.0065706517 0.037278023 -0.4048202 0 0.25019264
5.5511151e-17 0.0053758724 0.037276797 -0.4048202 0 0.25019264
5.5511151e-17 0.0041811625 0.037275817 -0.4048202 0 0.25019264
5.5511151e-17 0.0029865061 0.037275083 -0.4048202 0 0.25019264
5.5511151e-17 0.0017918883 0.037274592 -0.4048202 0 0.25019264
5.5511151e-17 0.00059729355 0.037274346 -0.4048202 0 0.25019264
0 0.079098113 0.036432587 -0.4048202 0 0.25019264
5.5511151e-17 0.077868469 0.036416858 -0.4048202 0 0.25019264
5.5511151e-17 0.076639861 0.036401387 -0.4048202 0 0.25019264
5.5511151e-17 0.075412266 0.036386166 -0.4048202 0 0.25019264
0 0.074185662 0.036371198 -0.4048202 0 0.25019264
1.110223e-16 0.072960049 0.036356479 -0.4048202 0 0.25019264
5.5511151e-17 0.07173539 0.03634201 -0.4048202 0 0.25019264
5.5511151e-17 0.070511684 0.036327794 -0.4048202 0 0.25019264
0 0.069288902 0.036313828 -0.4048202 0 0.25019264
0 0.068067037 0.036300112 -0.4048202 0 0.25019264
5.5511151e-17 0.066846073 0.036286641 -0.4048202 0 0.25019264
5.5511151e-17 0.06562598 0.036273424 -0.4048202 0 0.25019264
5.5511151e-17 0.064406753 0.036260452 -0.4048202 0 0.25019264
5.5511151e-17 0.063188367 0.036247727 -0.4048202 0 0.25019264
5.5511151e-17 0.061970815 0.036235251 -0.4048202 0 0.25019264
5.5511151e-17 0.060754076 0.03622302 -0.4048202 0 0.25019264
0 0.059538133 0.03621104 -0.4048202 0 0.25019264
5.5511151e-17 0.05832297 0.036199301 -0.4048202 0 0.25019264
1.110223e-16 0.05710857 0.036187809 -0.4048202 0 0.25019264
5.5511151e-17 0.055894919 0.036176562 -0.4048202 0 0.25019264
5.5511151e-17 0.054681998 0.036165562 -0.4048202 0 0.25019264
5.5511151e-17 0.053469788 0.036154803 -0.4048202 0 0.25019264
0 0.052258279 0.03614429 -0.4048202 0 0.25019264
5.5511151e-17 0.051047452 0.036134023 -0.4048202 0 0.25019264
1.110223e-16 0.049837291 0.036123998 -0.4048202 0 0.25019264
5.5511151e-17 0.048627783 0.036114216 -0.4048202 0 0.25019264
0 0.047418904 0.036104675 -0.4048202 0 0.25019264
5.5511151e-17 0.046210643 0.036095377 -0.4048202 0 0.25019264
5.5511151e-17 0.045002986 0.036086321 -0.4048202 0 0.25019264
5.5511151e-17 0.043795913 0.036077511 -0.4048202 0 0.25019264
5.5511151e-17 0.042589407 0.036068939 -0.4048202 0 0.25019264
5.5511151e-17 0.04138346 0.036060609 -0.4048202 0 0.25019264
5.5511151e-17 0.040178046 0.036052518 -0.4048202 0 0.25019264
0 0.038973156 0.036044672 -0.4048202 0 0.25019264
0 0.037768774 0.036037061 -0.4048202 0 0.25019264
5.5511151e-17 0.036564879 0.036029696 -0.4048202 0 0.25019264
5.5511151e-17 0.035361458 0.03602257 -0.4048202 0 0.25019264
5.5511151e-17 0.034158498 0.036015682 -0.4048202 0 0.25019264
5.5511151e-17 0.032955978 0.036009032 -0.4048202 0 0.25019264
1.110223e-16 0.031753886 0.036002625 -0.4048202 0 0.25019264
5.5511151e-17 0.030552205 0.035996456 -0.4048202 0 0.25019264
5.5511151e-17 0.02935092 0.035990525 -0.4048202 0 0.25019264
5.5511151e-17 0.028150015 0.035984833 -0.4048202 0 0.25019264
5.5511151e-17 0.026949473 0.035979379 -0.4048202 0 0.25019264
5.5511151e-17 0.025749281 0.035974164 -0.4048202 0 0.25019264
5.5511151e-17 0.024549421 0.035969187 -0.4048202 0 0.25019264
5.5511151e-17 0.023349879 0.035964448 -0.4048202 0 0.25019264
0 0.022150639 0.035959948 -0.4048202 0 0.25019264
1.110223e-16 0.020951685 0.035955682 -0.4048202 0 0.25019264
5.5511151e-17 0.019753002 0.035951659 -0.4048202 0 0.25019264
5.5511151e-17 0.018554574 0.03594787 -0.4048202 0 0.25019264
5.5511151e-17 0.017356385 0.03594432 -0.4048202 0 0.25019264
5.5511151e-17 0.016158419 0.035941008 -0.4048202 0 0.25019264
1.110223e-16 0.014960663 0.035937931 -0.4048202 0 0.25019264
5.5511151e-17 0.0137631 0.035935093 -0.4048202 0 0.25019264
0 0.012565714 0.035932489 -0.4048202 0 0.25019264
5.5511151e-17 0.011368492 0.035930123 -0.4048202 0 0.25019264
1.110223e-16 0.010171414 0.035927996 -0.4048202 0 0.25019264
5.5511151e-17 0.0089744693 0.035926104 -0.4048202 0 0.25019264
0 0.0077776392 0.035924446 -0.4048202 0 0.25019264
5.5511151e-17 0.0065809097 0.03592303 -0.4048202 0 0.25019264
5.5511151e-17 0.005384265 0.035921846 -0.4048202 0 0.25019264
5.5511151e-17 0.0041876896 0.035920899 -0.4048202 0 0.25019264
1.110223e-16 0.0029911683 0.035920192 -0.4048202 0 0.25019264
5.5511151e-17 0.0017946855 0.035919718 -0.4048202 0 0.25019264
5.5511151e-17 0.00059822592 0.03591948 -0.4048202 0 0.25019264
0 0.079223506 0.035055336 -0.4048202 0 0.25019264
5.5511151e-17 0.077991858 0.035040181 -0.4048202 0 0.25019264
1.110223e-16 0.076761253 0.035025269 -0.4048202 0 0.25019264
0 0.075531662 0.035010599 -0.4048202 0 0.25019264
5.5511151e-17 0.074303068 0.034996174 -0.4048202 0 0.25019264
5.5511151e-17 0.073075466 0.034981988 -0.4048202 0 0.25019264
1.110223e-16 0.071848832 0.034968048 -0.4048202 0 0.25019264
1.110223e-16 0.070623145 0.034954347 -0.4048202 0 0.25019264
5.5511151e-17 0.069398388 0.034940887 -0.4048202 0 0.25019264
5.5511151e-17 0.068174548 0.034927666 -0.4048202 0 0.25019264
1.110223e-16 0.06695161 0.034914687 -0.4048202 0 0.25019264
5.5511151e-17 0.065729558 0.034901947 -0.4048202 0 0.25019264
0 0.064508371 0.034889448 -0.4048202 0 0.25019264
5.5511151e-17 0.063288033 0.034877185 -0.4048202 0 0.25019264
5.5511151e-17 0.062068526 0.03486516 -0.4048202 0 0.25019264
5.5511151e-17 0.060849834 0.034853376 -0.4048202 0 0.25019264
5.5511151e-17 0.059631944 0.034841828 -0.4048202 0 0.25019264
5.5511151e-17 0.058414835 0.034830514 -0.4048202 0 0.25019264
1.110223e-16 0.057198495 0.034819443 -0.4048202 0 0.25019264
5.5511151e-17 0.055982903 0.034808602 -0.4048202 0 0.25019264
5.5511151e-17 0.054768045 0.034798 -0.4048202 0 0.25019264
5.5511151e-17 0.053553905 0.034787633 -0.4048202 0 0.25019264
5.5511151e-17 0.052340467 0.034777503 -0.4048202 0 0.25019264
5.5511151e-17 0.051127713 0.034767605 -0.4048202 0 0.25019264
1.110223e-16 0.049915627 0.034757946 -0.4048202 0 0.25019264
5.5511151e-17 0.048704196 0.034748517 -0.4048202 0 0.25019264
5.5511151e-17 0.047493398 0.034739323 -0.4048202 0 0.25019264
5.5511151e-17 0.046283223 0.034730364 -0.4048202 0 0.25019264
1.110223e-16 0.045073647 0.034721639 -0.4048202 0 0.25019264
0 0.043864664 0.034713145 -0.4048202 0 0.25019264
5.5511151e-17 0.04265625 0.034704886 -0.4048202 0 0.25019264
0 0.041448392 0.034696858 -0.4048202 0 0.25019264
5.5511151e-17 0.040241074 0.034689061 -0.4048202 0 0.25019264
5.5511151e-17 0.039034281 0.034681499 -0.4048202 0 0.25019264
1.110223e-16 0.037827995 0.034674168 -0.4048202 0 0.25019264
5.5511151e-17 0.0366222 0.034667067 -0.4048202 0 0.25019264
5.5511151e-17 0.035416882 0.034660198 -0.4048202 0 0.25019264
5.5511151e-17 0.034212027 0.034653563 -0.4048202 0 0.25019264
1.110223e-16 0.033007614 0.034647156 -0.4048202 0 0.25019264
0 0.03180363 0.034640979 -0.4048202 0 0.25019264
5.5511151e-17 0.030600058 0.034635033 -0.4048202 0 0.25019264
5.5511151e-17 0.029396884 0.034629319 -0.4048202 0 0.25019264
5.5511151e-17 0.02819409 0.034623832 -0.4048202 0 0.25019264
1.110223e-16 0.026991664 0.034618579 -0.4048202 0 0.25019264
5.5511151e-17 0.025789587 0.034613553 -0.4048202 0 0.25019264
1.110223e-16 0.024587844 0.034608755 -0.4048202 0 0.25019264
0 0.023386419 0.034604188 -0.4048202 0 0.25019264
5.5511151e-17 0.022185298 0.034599852 -0.4048202 0 0.25019264
5.5511151e-17 0.020984463 0.034595743 -0.4048202 0 0.25019264
1.110223e-16 0.019783901 0.034591865 -0.4048202 0 0.25019264
5.5511151e-17 0.018583596 0.034588214 -0.4048202 0 0.25019264
5.5511151e-17 0.017383529 0.034584794 -0.4048202 0 0.25019264
5.5511151e-17 0.016183689 0.034581598 -0.4048202 0 0.25019264
5.5511151e-17 0.014984057 0.034578636 -0.4048202 0 0.25019264
5.5511151e-17 0.01378462 0.034575898 -0.4048202 0 0.25019264
5.5511151e-17 0.012585361 0.034573391 -0.4048202 0 0.25019264
1.110223e-16 0.011386265 0.034571111 -0.4048202 0 0.25019264
0 0.010187316 0.034569059 -0.4048202 0 0.25019264
0 0.0089884978 0.034567237 -0.4048202 0 0.25019264
5.5511151e-17 0.0077897967 0.034565642 -0.4048202 0 0.25019264
1.110223e-16 0.0065911962 0.034564275 -0.4048202 0 0.25019264
1.110223e-16 0.0053926804 0.034563135 -0.4048202 0 0.25019264
1.110223e-16 0.004194235 0.034562223 -0.4048202 0 0.25019264
5.5511151e-17 0.0029958433 0.034561541 -0.4048202 0 0.25019264
5.5511151e-17 0.0017974905 0.034561083 -0.4048202 0 0.25019264
5.5511151e-17 0.00059916091 0.034560855 -0.4048202 0 0.25019264
0 0.07934925 0.033674177 -0.4048202 0 0.25019264
0 0.078115597 0.033659596 -0.4048202 0 0.25019264
5.5511151e-17 0.076882988 0.033645246 -0.4048202 0 0.25019264
0 0.075651392 0.033631135 -0.4048202 0 0.25019264
5.5511151e-17 0.07442081 0.033617254 -0.4048202 0 0.25019264
1.110223e-16 0.073191211 0.033603609 -0.4048202 0 0.25019264
5.5511151e-17 0.071962588 0.033590194 -0.4048202 0 0.25019264
5.5511151e-17 0.070734918 0.033577014 -0.4048202 0 0.25019264
5.5511151e-17 0.06950818 0.033564065 -0.4048202 0 0.25019264
5.5511151e-17 0.068282366 0.033551343 -0.4048202 0 0.25019264
5.5511151e-17 0.067057453 0.033538856 -0.4048202 0 0.25019264
5.5511151e-17 0.065833434 0.033526599 -0.4048202 0 0.25019264
5.5511151e-17 0.06461028 0.03351457 -0.4048202 0 0.25019264
5.5511151e-17 0.063387975 0.033502776 -0.4048202 0 0.25019264
5.5511151e-17 0.062166508 0.033491205 -0.4048202 0 0.25019264
5.5511151e-17 0.060945861 0.033479866 -0.4048202 0 0.25019264
5.5511151e-17 0.059726018 0.033468757 -0.4048202 0 0.25019264
5.5511151e-17 0.058506958 0.033457875 -0.4048202 0 0.25019264
5.5511151e-17 0.057288673 0.033447217 -0.4048202 0 0.25019264
5.5511151e-17 0.056071136 0.03343679 -0.4048202 0 0.25019264
5.5511151e-17 0.054854337 0.03342659 -0.4048202 0 0.25019264
5.5511151e-17 0.053638261 0.033416618 -0.4048202 0 0.25019264
0 0.052422885 0.033406869 -0.4048202 0 0.25019264
1.110223e-16 0.051208198 0.03339735 -0.4048202 0 0.25019264
5.5511151e-17 0.049994186 0.033388052 -0.4048202 0 0.25019264
0 0.048780825 0.033378985 -0.4048202 0 0.25019264
0 0.047568101 0.033370137 -0.4048202 0 0.25019264
5.5511151e-17 0.046356004 0.033361517 -0.4048202 0 0.25019264
5.5511151e-17 0.04514451 0.033353124 -0.4048202 0 0.25019264
5.5511151e-17 0.043933608 0.033344951 -0.4048202 0 0.25019264
5.5511151e-17 0.042723279 0.033337004 -0.4048202 0 0.25019264
5.5511151e-17 0.04151351 0.033329282 -0.4048202 0 0.25019264
5.5511151e-17 0.040304281 0.033321783 -0.4048202 0 0.25019264
5.5511151e-17 0.039095577 0.033314504 -0.4048202 0 0.25019264
5.5511151e-17 0.037887383 0.033307452 -0.4048202 0 0.25019264
5.5511151e-17 0.036679685 0.03330062 -0.4048202 0 0.25019264
5.5511151e-17 0.035472464 0.033294011 -0.4048202 0 0.25019264
5.5511151e-17 0.034265708 0.033287626 -0.4048202 0 0.25019264
5.5511151e-17 0.033059396 0.033281464 -0.4048202 0 0.25019264
5.5511151e-17 0.031853512 0.033275522 -0.4048202 0 0.25019264
5.5511151e-17 0.030648045 0.0332698 -0.4048202 0 0.25019264
5.5511151e-17 0.029442977 0.033264302 -0.4048202 0 0.25019264
0 0.028238291 0.033259027 -0.4048202 0 0.25019264
5.5511151e-17 0.027033972 0.033253968 -0.4048202 0 0.25019264
5.5511151e-17 0.025830004 0.033249132 -0.4048202 0 0.25019264
5.5511151e-17 0.024626372 0.03324452 -0.4048202 0 0.25019264
5.5511151e-17 0.023423061 0.033240128 -0.4048202 0 0.25019264
5.5511151e-17 0.022220053 0.033235952 -0.4048202 0 0.25019264
5.5511151e-17 0.021017335 0.033232 -0.4048202 0 0.25019264
5.5511151e-17 0.019814888 0.033228271 -0.4048202 0 0.25019264
5.5511151e-17 0.0186127 0.033224758 -0.4048202 0 0.25019264
5.5511151e-17 0.017410751 0.033221465 -0.4048202 0 0.25019264
1.110223e-16 0.016209029 0.033218391 -0.4048202 0 0.25019264
5.5511151e-17 0.015007517 0.033215541 -0.4048202 0 0.25019264
5.5511151e-17 0.013806201 0.033212908 -0.4048202 0 0.25019264
0 0.012605063 0.033210497 -0.4048202 0 0.25019264
5.5511151e-17 0.011404088 0.033208303 -0.4048202 0 0.25019264
1.110223e-16 0.010203261 0.033206329 -0.4048202 0 0.25019264
1.110223e-16 0.0090025663 0.033204574 -0.4048202 0 0.25019264
1.110223e-16 0.0078019882 0.033203039 -0.4048202 0 0.25019264
5.5511151e-17 0.006601511 0.033201724 -0.4048202 0 0.25019264
5.5511151e-17 0.0054011196 0.033200629 -0.4048202 0 0.25019264
5.5511151e-17 0.0042007985 0.03319975 -0.4048202 0 0.25019264
0 0.0030005313 0.033199094 -0.4048202 0 0.25019264
5.5511151e-17 0.0018003033 0.033198655 -0.4048202 0 0.25019264
5.5511151e-17 0.00060009852 0.033198435 -0.4048202 0 0.25019264
5.5511151e-17 0.079475358 0.032289073 -0.4048202 0 0.25019264
5.5511151e-17 0.078239694 0.03227507 -0.4048202 0 0.25019264
1.110223e-16 0.077005066 0.03226129 -0.4048202 0 0.25019264
0 0.075771473 0.032247737 -0.4048202 0 0.25019264
0 0.074538887 0.032234408 -0.4048202 0 0.25019264
5.5511151e-17 0.073307291 0.032221302 -0.4048202 0 0.25019264
5.5511151e-17 0.072076671 0.032208417 -0.4048202 0 0.25019264
1.110223e-16 0.070847012 0.032195758 -0.4048202 0 0.25019264
5.5511151e-17 0.069618285 0.032183323 -0.4048202 0 0.25019264
1.110223e-16 0.068390489 0.032171108 -0.4048202 0 0.25019264
0 0.067163602 0.032159116 -0.4048202 0 0.25019264
0 0.065937601 0.032147344 -0.4048202 0 0.25019264
5.5511151e-17 0.064712472 0.032135792 -0.4048202 0 0.25019264
5.5511151e-17 0.0634882 0.032124463 -0.4048202 0 0.25019264
5.5511151e-17 0.06226477 0.032113351 -0.4048202 0 0.25019264
5.5511151e-17 0.06104216 0.032102462 -0.4048202 0 0.25019264
5.5511151e-17 0.059820358 0.032091793 -0.4048202 0 0.25019264
5.5511151e-17 0.058599345 0.03208134 -0.4048202 0 0.25019264
0 0.057379104 0.032071106 -0.4048202 0 0.25019264
5.5511151e-17 0.056159619 0.032061093 -0.4048202 0 0.25019264
5.5511151e-17 0.054940876 0.032051299 -0.4048202 0 0.25019264
5.5511151e-17 0.053722855 0.032041721 -0.4048202 0 0.25019264
5.5511151e-17 0.052505538 0.032032359 -0.4048202 0 0.25019264
0 0.051288914 0.032023214 -0.4048202 0 0.25019264
5.5511151e-17 0.050072964 0.032014288 -0.4048202 0 0.25019264
0 0.04885767 0.032005578 -0.4048202 0 0.25019264
1.110223e-16 0.047643017 0.031997081 -0.4048202 0 0.25019264
0 0.04642899 0.031988803 -0.4048202 0 0.25019264
0 0.045215573 0.031980742 -0.4048202 0 0.25019264
5.5511151e-17 0.044002745 0.031972896 -0.4048202 0 0.25019264
5.5511151e-17 0.042790499 0.031965263 -0.4048202 0 0.25019264
5.5511151e-17 0.041578807 0.031957846 -0.4048202 0 0.25019264
1.110223e-16 0.040367663 0.031950641 -0.4048202 0 0.25019264
5.5511151e-17 0.039157048 0.031943653 -0.4048202 0 0.25019264
5.5511151e-17 0.037946943 0.03193688 -0.4048202 0 0.25019264
5.5511151e-17 0.036737334 0.03193032 -0.4048202 0 0.25019264
5.5511151e-17 0.035528202 0.031923976 -0.4048202 0 0.25019264
1.110223e-16 0.034319539 0.03191784 -0.4048202 0 0.25019264
1.110223e-16 0.033111323 0.031911921 -0.4048202 0 0.25019264
0 0.031903535 0.031906217 -0.4048202 0 0.25019264
5.5511151e-17 0.030696169 0.031900723 -0.4048202 0 0.25019264
5.5511151e-17 0.029489199 0.03189544 -0.4048202 0 0.25019264
5.5511151e-17 0.028282614 0.031890374 -0.4048202 0 0.25019264
5.5511151e-17 0.027076399 0.03188552 -0.4048202 0 0.25019264
5.5511151e-17 0.025870537 0.031880874 -0.4048202 0 0.25019264
5.5511151e-17 0.024665011 0.031876445 -0.4048202 0 0.25019264
1.110223e-16 0.023459807 0.031872224 -0.4048202 0 0.25019264
5.5511151e-17 0.022254907 0.031868216 -0.4048202 0 0.25019264
5.5511151e-17 0.021050297 0.03186442 -0.4048202 0 0.25019264
5.5511151e-17 0.019845963 0.031860836 -0.4048202 0 0.25019264
5.5511151e-17 0.018641884 0.031857464 -0.4048202 0 0.25019264
5.5511151e-17 0.017438048 0.031854302 -0.4048202 0 0.25019264
5.5511151e-17 0.016234441 0.031851351 -0.4048202 0 0.25019264
5.5511151e-17 0.015031043 0.031848613 -0.4048202 0 0.25019264
5.5511151e-17 0.013827841 0.031846084 -0.4048202 0 0.25019264
1.110223e-16 0.012624819 0.03184377 -0.4048202 0 0.25019264
5.5511151e-17 0.011421961 0.031841662 -0.4048202 0 0.25019264
1.110223e-16 0.010219251 0.031839766 -0.4048202 0 0.25019264
1.110223e-16 0.009016674 0.031838082 -0.4048202 0 0.25019264
5.5511151e-17 0.0078142136 0.031836607 -0.4048202 0 0.25019264
5.5511151e-17 0.0066118552 0.031835344 -0.4048202 0 0.25019264
0 0.0054095825 0.031834293 -0.4048202 0 0.25019264
5.5511151e-17 0.0042073806 0.031833451 -0.4048202 0 0.25019264
5.5511151e-17 0.0030052327 0.031832818 -0.4048202 0 0.25019264
0 0.001803124 0.031832397 -0.4048202 0 0.25019264
5.5511151e-17 0.00060103874 0.031832188 -0.4048202 0 0.25019264
1.110223e-16 0.079601832 0.030899992 -0.4048202 0 0.25019264
5.5511151e-17 0.078364141 0.030886568 -0.4048202 0 0.25019264
0 0.077127501 0.030873362 -0.4048202 0 0.25019264
1.110223e-16 0.075891897 0.03086037 -0.4048202 0 0.25019264
5.5511151e-17 0.074657299 0.030847592 -0.4048202 0 0.25019264
5.5511151e-17 0.073423699 0.030835031 -0.4048202 0 0.25019264
5.5511151e-17 0.072191082 0.030822683 -0.4048202 0 0.25019264
5.5511151e-17 0.070959419 0.030810548 -0.4048202 0 0.25019264
5.5511151e-17 0.06972871 0.030798629 -0.4048202 0 0.25019264
5.5511151e-17 0.068498924 0.03078692 -0.4048202 0 0.25019264
5.5511151e-17 0.067270048 0.030775426 -0.4048202 0 0.25019264
5.5511151e-17 0.066042066 0.030764142 -0.4048202 0 0.25019264
1.110223e-16 0.064814962 0.030753072 -0.4048202 0 0.25019264
0 0.063588716 0.030742211 -0.4048202 0 0.25019264
5.5511151e-17 0.062363312 0.030731563 -0.4048202 0 0.25019264
5.5511151e-17 0.061138738 0.030721126 -0.4048202 0 0.25019264
5.5511151e-17 0.059914969 0.030710898 -0.4048202 0 0.25019264
5.5511151e-17 0.058691993 0.030700881 -0.4048202 0 0.25019264
5.5511151e-17 0.057469796 0.030691072 -0.4048202 0 0.25019264
1.110223e-16 0.056248356 0.030681474 -0.4048202 0 0.25019264
5.5511151e-17 0.05502766 0.030672085 -0.4048202 0 0.25019264
1.110223e-16 0.053807687 0.030662904 -0.4048202 0 0.25019264
5.5511151e-17 0.052588426 0.030653931 -0.4048202 0 0.25019264
0 0.051369857 0.030645167 -0.4048202 0 0.25019264
0 0.050151967 0.03063661 -0.4048202 0 0.25019264
5.5511151e-17 0.048934732 0.030628262 -0.4048202 0 0.25019264
0 0.047718145 0.03062012 -0.4048202 0 0.25019264
5.5511151e-17 0.046502184 0.030612186 -0.4048202 0 0.25019264
1.110223e-16 0.045286834 0.030604457 -0.4048202 0 0.25019264
0 0.04407208 0.030596936 -0.4048202 0 0.25019264
5.5511151e-17 0.042857908 0.030589622 -0.4048202 0 0.25019264
0 0.041644294 0.030582512 -0.4048202 0 0.25019264
1.110223e-16 0.040431228 0.030575609 -0.4048202 0 0.25019264
1.110223e-16 0.03921869 0.030568911 -0.4048202 0 0.25019264
5.5511151e-17 0.038006667 0.030562419 -0.4048202 0 0.25019264
5.5511151e-17 0.036795143 0.030556131 -0.4048202 0 0.25019264
5.5511151e-17 0.0355841 0.030550048 -0.4048202 0 0.25019264
5.5511151e-17 0.034373522 0.030544171 -0.4048202 0 0.25019264
0 0.033163395 0.030538497 -0.4048202 0 0.25019264
5.5511151e-17 0.031953704 0.030533027 -0.4048202 0 0.25019264
1.110223e-16 0.030744426 0.030527763 -0.4048202 0 0.25019264
5.5511151e-17 0.029535552 0.0305227 -0.4048202 0 0.25019264
5.5511151e-17 0.028327065 0.030517844 -0.4048202 0 0.25019264
0 0.027118947 0.03051319 -0.4048202 0 0.25019264
5.5511151e-17 0.025911184 0.03050874 -0.4048202 0 0.25019264
0 0.024703758 0.030504491 -0.4048202 0 0.25019264
0 0.023496656 0.030500447 -0.4048202 0 0.25019264
0 0.022289859 0.030496607 -0.4048202 0 0.25019264
1.110223e-16 0.021083353 0.030492969 -0.4048202 0 0.25019264
5.5511151e-17 0.019877123 0.030489534 -0.4048202 0 0.25019264
5.5511151e-17 0.018671151 0.030486301 -0.4048202 0 0.25019264
5.5511151e-17 0.017465424 0.03048327 -0.4048202 0 0.25019264
5.5511151e-17 0.016259924 0.030480443 -0.4048202 0 0.25019264
1.110223e-16 0.015054636 0.030477818 -0.4048202 0 0.25019264
5.5511151e-17 0.013849543 0.030475395 -0.4048202 0 0.25019264
1.110223e-16 0.012644632 0.030473175 -0.4048202 0 0.25019264
5.5511151e-17 0.011439884 0.030471155 -0.4048202 0 0.25019264
1.110223e-16 0.010235286 0.030469339 -0.4048202 0 0.25019264
5.5511151e-17 0.0090308217 0.030467724 -0.4048202 0 0.25019264
1.110223e-16 0.0078264745 0.030466311 -0.4048202 0 0.25019264
1.110223e-16 0.0066222288 0.0304651 -0.4048202 0 0.25019264
5.5511151e-17 0.0054180697 0.030464092 -0.4048202 0 0.25019264
5.5511151e-17 0.0042139809 0.030463284 -0.4048202 0 0.25019264
1.110223e-16 0.0030099472 0.030462679 -0.4048202 0 0.25019264
5.5511151e-17 0.0018059526 0.030462276 -0.4048202 0 0.25019264
5.5511151e-17 0.00060198159 0.030462073 -0.4048202 0 0.25019264
5.5511151e-17 0.079728663 0.029506892 -0.4048202 0 0.25019264
5.5511151e-17 0.078488953 0.029494055 -0.4048202 0 0.25019264
1.110223e-16 0.077250287 0.029481422 -0.4048202 0 0.25019264
0 0.076012664 0.029468996 -0.4048202 0 0.25019264
5.5511151e-17 0.074776053 0.029456776 -0.4048202 0 0.25019264
0 0.073540442 0.029444762 -0.4048202 0 0.25019264
5.5511151e-17 0.072305821 0.029432952 -0.4048202 0 0.25019264
0 0.071072161 0.029421346 -0.4048202 0 0.25019264
5.5511151e-17 0.069839448 0.029409945 -0.4048202 0 0.25019264
5.5511151e-17 0.068607666 0.029398749 -0.4048202 0 0.25019264
5.5511151e-17 0.0673768 0.029387753 -0.4048202 0 0.25019264
1.110223e-16 0.066146836 0.029376963 -0.4048202 0 0.25019264
5.5511151e-17 0.064917743 0.029366374 -0.4048202 0 0.25019264
5.5511151e-17 0.063689515 0.029355988 -0.4048202 0 0.25019264
5.5511151e-17 0.06246214 0.029345803 -0.4048202 0 0.25019264
5.5511151e-17 0.061235588 0.029335819 -0.4048202 0 0.25019264
5.5511151e-17 0.060009852 0.029326038 -0.4048202 0 0.25019264
5.5511151e-17 0.05878491 0.029316457 -0.4048202 0 0.25019264
5.5511151e-17 0.057560746 0.029307077 -0.4048202 0 0.25019264
5.5511151e-17 0.056337345 0.029297896 -0.4048202 0 0.25019264
5.5511151e-17 0.05511469 0.029288916 -0.4048202 0 0.25019264
0 0.053892765 0.029280135 -0.4048202 0 0.25019264
1.110223e-16 0.052671552 0.029271554 -0.4048202 0 0.25019264
5.5511151e-17 0.051451031 0.029263172 -0.4048202 0 0.25019264
1.110223e-16 0.050231192 0.02925499 -0.4048202 0 0.25019264
5.5511151e-17 0.049012017 0.029247005 -0.4048202 0 0.25019264
1.110223e-16 0.047793489 0.029239217 -0.4048202 0 0.25019264
0 0.046575591 0.029231628 -0.4048202 0 0.25019264
1.110223e-16 0.045358304 0.029224237 -0.4048202 0 0.25019264
5.5511151e-17 0.044141617 0.029217044 -0.4048202 0 0.25019264
0 0.042925507 0.029210048 -0.4048202 0 0.25019264
5.5511151e-17 0.041709967 0.029203249 -0.4048202 0 0.25019264
5.5511151e-17 0.040494971 0.029196646 -0.4048202 0 0.25019264
5.5511151e-17 0.039280508 0.02919024 -0.4048202 0 0.25019264
1.110223e-16 0.038066562 0.02918403 -0.4048202 0 0.25019264
1.110223e-16 0.036853116 0.029178018 -0.4048202 0 0.25019264
5.5511151e-17 0.035640154 0.029172201 -0.4048202 0 0.25019264
5.5511151e-17 0.034427661 0.029166577 -0.4048202 0 0.25019264
5.5511151e-17 0.03321562 0.029161151 -0.4048202 0 0.25019264
0 0.03200401 0.029155921 -0.4048202 0 0.25019264
5.5511151e-17 0.030792823 0.029150885 -0.4048202 0 0.25019264
0 0.029582039 0.029146045 -0.4048202 0 0.25019264
5.5511151e-17 0.028371641 0.0291414 -0.4048202 0 0.25019264
5.5511151e-17 0.027161617 0.029136948 -0.4048202 0 0.25019264
5.5511151e-17 0.025951946 0.029132692 -0.4048202 0 0.25019264
5.5511151e-17 0.024742616 0.02912863 -0.4048202 0 0.25019264
5.5511151e-17 0.023533611 0.029124763 -0.4048202 0 0.25019264
5.5511151e-17 0.02232491 0.029121088 -0.4048202 0 0.25019264
5.5511151e-17 0.021116504 0.029117608 -0.4048202 0 0.25019264
5.5511151e-17 0.019908374 0.029114323 -0.4048202 0 0.25019264
5.5511151e-17 0.018700503 0.029111233 -0.4048202 0 0.25019264
5.5511151e-17 0.017492877 0.029108334 -0.4048202 0 0.25019264
1.110223e-16 0.016285479 0.02910563 -0.4048202 0 0.25019264
5.5511151e-17 0.015078295 0.029103119 -0.4048202 0 0.25019264
5.5511151e-17 0.013871307 0.029100802 -0.4048202 0 0.25019264
5.5511151e-17 0.012664501 0.029098677 -0.4048202 0 0.25019264
5.5511151e-17 0.011457859 0.029096747 -0.4048202 0 0.25019264
0 0.010251367 0.029095009 -0.4048202 0 0.25019264
0 0.0090450095 0.029093465 -0.4048202 0 0.25019264
5.5511151e-17 0.0078387698 0.029092114 -0.4048202 0 0.25019264
5.5511151e-17 0.0066326316 0.029090956 -0.4048202 0 0.25019264
5.5511151e-17 0.0054265806 0.029089991 -0.4048202 0 0.25019264
5.5511151e-17 0.0042206002 0.02908922 -0.4048202 0 0.25019264
5.5511151e-17 0.0030146753 0.029088641 -0.4048202 0 0.25019264
5.5511151e-17 0.0018087894 0.029088255 -0.4048202 0 0.25019264
5.5511151e-17 0.00060292718 0.029088061 -0.4048202 0 0.25019264
5.5511151e-17 0.079855874 0.02810974 -0.4048202 0 0.25019264
5.5511151e-17 0.078614123 0.02809749 -0.4048202 0 0.25019264
0 0.07737343 0.028085439 -0.4048202 0 0.25019264
5.5511151e-17 0.07613378 0.028073581 -0.4048202 0 0.25019264
0 0.074895151 0.028061921 -0.4048202 0 0.25019264
5.5511151e-17 0.073657528 0.028050458 -0.4048202 0 0.25019264
5.5511151e-17 0.072420895 0.028039189 -0.4048202 0 0.25019264
0 0.071185224 0.028028116 -0.4048202 0 0.25019264
1.110223e-16 0.069950506 0.028017238 -0.4048202 0 0.25019264
5.5511151e-17 0.068716727 0.028006554 -0.4048202 0 0.25019264
5.5511151e-17 0.067483865 0.027996063 -0.4048202 0 0.25019264
5.5511151e-17 0.066251904 0.027985767 -0.4048202 0 0.25019264
1.110223e-16 0.065020822 0.027975664 -0.4048202 0 0.25019264
5.5511151e-17 0.063790612 0.027965752 -0.4048202 0 0.25019264
5.5511151e-17 0.062561251 0.027956035 -0.4048202 0 0.25019264
5.5511151e-17 0.061332721 0.027946509 -0.4048202 0 0.25019264
5.5511151e-17 0.060105007 0.027937176 -0.4048202 0 0.25019264
5.5511151e-17 0.058878094 0.027928034 -0.4048202 0 0.25019264
5.5511151e-17 0.057651959 0.027919084 -0.4048202 0 0.25019264
0 0.056426592 0.027910326 -0.4048202 0 0.25019264
5.5511151e-17 0.055201974 0.027901758 -0.4048202 0 0.25019264
5.5511151e-17 0.053978086 0.027893379 -0.4048202 0 0.25019264
1.110223e-16 0.052754916 0.027885191 -0.4048202 0 0.25019264
5.5511151e-17 0.051532444 0.027877193 -0.4048202 0 0.25019264
5.5511151e-17 0.050310653 0.027869385 -0.4048202 0 0.25019264
0 0.049089525 0.027861767 -0.4048202 0 0.25019264
5.5511151e-17 0.047869049 0.027854336 -0.4048202 0 0.25019264
5.5511151e-17 0.046649206 0.027847096 -0.4048202 0 0.25019264
5.5511151e-17 0.045429979 0.027840044 -0.4048202 0 0.25019264
5.5511151e-17 0.04421135 0.027833181 -0.4048202 0 0.25019264
1.110223e-16 0.042993303 0.027826505 -0.4048202 0 0.25019264
5.5511151e-17 0.041775826 0.027820017 -0.4048202 0 0.25019264
0 0.040558901 0.027813718 -0.4048202 0 0.25019264
5.5511151e-17 0.039342508 0.027807606 -0.4048202 0 0.25019264
5.5511151e-17 0.038126633 0.027801681 -0.4048202 0 0.25019264
5.5511151e-17 0.03691126 0.027795944 -0.4048202 0 0.25019264
0 0.035696372 0.027790394 -0.4048202 0 0.25019264
0 0.034481954 0.027785029 -0.4048202 0 0.25019264
5.5511151e-17 0.03326799 0.027779851 -0.4048202 0 0.25019264
5.5511151e-17 0.032054465 0.027774861 -0.4048202 0 0.25019264
5.5511151e-17 0.030841358 0.027770055 -0.4048202 0 0.25019264
5.5511151e-17 0.029628657 0.027765438 -0.4048202 0 0.25019264
5.5511151e-17 0.028416347 0.027761005 -0.4048202 0 0.25019264
1.110223e-16 0.027204407 0.027756758 -0.4048202 0 0.25019264
5.5511151e-17 0.025992826 0.027752697 -0.4048202 0 0.25019264
5.5511151e-17 0.024781585 0.027748821 -0.4048202 0 0.25019264
5.5511151e-17 0.02357067 0.027745131 -0.4048202 0 0.25019264
5.5511151e-17 0.022360064 0.027741626 -0.4048202 0 0.25019264
5.5511151e-17 0.021149751 0.027738307 -0.4048202 0 0.25019264
5.5511151e-17 0.019939713 0.027735172 -0.4048202 0 0.25019264
1.110223e-16 0.018729938 0.027732221 -0.4048202 0 0.25019264
0 0.017520409 0.027729455 -0.4048202 0 0.25019264
0 0.016311109 0.027726876 -0.4048202 0 0.25019264
5.5511151e-17 0.015102022 0.02772448 -0.4048202 0 0.25019264
5.5511151e-17 0.013893133 0.027722269 -0.4048202 0 0.25019264
5.5511151e-17 0.012684426 0.027720243 -0.4048202 0 0.25019264
5.5511151e-17 0.011475885 0.027718401 -0.4048202 0 0.25019264
5.5511151e-17 0.010267494 0.027716743 -0.4048202 0 0.25019264
5.5511151e-17 0.0090592382 0.027715269 -0.4048202 0 0.25019264
0 0.0078510996 0.027713981 -0.4048202 0 0.25019264
5.5511151e-17 0.0066430643 0.027712876 -0.4048202 0 0.25019264
1.110223e-16 0.0054351161 0.027711954 -0.4048202 0 0.25019264
5.5511151e-17 0.0042272387 0.027711218 -0.4048202 0 0.25019264
5.5511151e-17 0.0030194167 0.027710665 -0.4048202 0 0.25019264
1.110223e-16 0.0018116343 0.027710298 -0.4048202 0 0.25019264
5.5511151e-17 0.00060387544 0.027710114 -0.4048202 0 0.25019264
5.5511151e-17 0.07998345 0.026708499 -0.4048202 0 0.25019264
1.110223e-16 0.078739665 0.02669684 -0.4048202 0 0.25019264
0 0.077496938 0.02668537 -0.4048202 0 0.25019264
5.5511151e-17 0.076255254 0.026674088 -0.4048202 0 0.25019264
5.5511151e-17 0.075014599 0.02666299 -0.4048202 0 0.25019264
5.5511151e-17 0.073774956 0.026652081 -0.4048202 0 0.25019264
0 0.072536297 0.026641358 -0.4048202 0 0.25019264
5.5511151e-17 0.071298622 0.026630819 -0.4048202 0 0.25019264
0 0.070061892 0.026620466 -0.4048202 0 0.25019264
5.5511151e-17 0.068826102 0.026610298 -0.4048202 0 0.25019264
5.5511151e-17 0.067591242 0.026600316 -0.4048202 0 0.25019264
5.5511151e-17 0.066357277 0.026590517 -0.4048202 0 0.25019264
0 0.065124206 0.026580902 -0.4048202 0 0.25019264
0 0.063891999 0.026571471 -0.4048202 0 0.25019264
0 0.062660649 0.026562223 -0.4048202 0 0.25019264
0 0.061430134 0.026553158 -0.4048202 0 0.25019264
5.5511151e-17 0.060200442 0.026544277 -0.4048202 0 0.25019264
5.5511151e-17 0.058971547 0.026535576 -0.4048202 0 0.25019264
5.5511151e-17 0.057743438 0.026527058 -0.4048202 0 0.25019264
5.5511151e-17 0.0565161 0.026518723 -0.4048202 0 0.25019264
5.5511151e-17 0.055289511 0.02651057 -0.4048202 0 0.25019264
5.5511151e-17 0.054063655 0.026502596 -0.4048202 0 0.25019264
5.5511151e-17 0.052838523 0.026494805 -0.4048202 0 0.25019264
0 0.051614087 0.026487194 -0.4048202 0 0.25019264
5.5511151e-17 0.05039034 0.026479764 -0.4048202 0 0.25019264
1.110223e-16 0.049167257 0.026472513 -0.4048202 0 0.25019264
0 0.047944829 0.026465442 -0.4048202 0 0.25019264
5.5511151e-17 0.046723034 0.026458552 -0.4048202 0 0.25019264
1.110223e-16 0.045501858 0.026451841 -0.4048202 0 0.25019264
0 0.044281285 0.026445309 -0.4048202 0 0.25019264
5.5511151e-17 0.043061297 0.026438957 -0.4048202 0 0.25019264
5.5511151e-17 0.041841879 0.026432782 -0.4048202 0 0.25019264
5.5511151e-17 0.040623013 0.026426788 -0.4048202 0 0.25019264
5.5511151e-17 0.039404683 0.026420971 -0.4048202 0 0.25019264
5.5511151e-17 0.038186874 0.026415333 -0.4048202 0 0.25019264
5.5511151e-17 0.036969569 0.026409874 -0.4048202 0 0.25019264
5.5511151e-17 0.035752751 0.026404591 -0.4048202 0 0.25019264
5.5511151e-17 0.034536406 0.026399486 -0.4048202 0 0.25019264
1.110223e-16 0.033320516 0.026394559 -0.4048202 0 0.25019264
5.5511151e-17 0.032105062 0.026389809 -0.4048202 0 0.25019264
5.5511151e-17 0.030890035 0.026385238 -0.4048202 0 0.25019264
1.110223e-16 0.029675411 0.026380843 -0.4048202 0 0.25019264
5.5511151e-17 0.028461181 0.026376624 -0.4048202 0 0.25019264
1.110223e-16 0.027247323 0.026372584 -0.4048202 0 0.25019264
5.5511151e-17 0.026033824 0.026368719 -0.4048202 0 0.25019264
