# .PCD v0.7 - Point Cloud Data file format
VERSION 0.7
FIELDS x y z vp_x vp_y vp_z
SIZE 4 4 4 4 4 4
TYPE F F F F F F
COUNT 1 1 1 1 1 1
WIDTH 819
HEIGHT 1
VIEWPOINT 0 0 0 1 0 0 0
POINTS 819
DATA ascii
0.0023517245 0.0097901942 0.039999999 0 0.33897066 0.54846609
0.0014110301 0.0097902669 0.039999999 0 0.33897066 0.54846609
0.00047034261 0.0097903041 0.039999999 0 0.33897066 0.54846609
0.039999437 0.010879521 0.039999999 0 0.33897066 0.54846609
0.039055582 0.010880943 0.039999999 0 0.33897066 0.54846609
0.038111918 0.010882331 0.039999999 0 0.33897066 0.54846609
0.037168443 0.010883684 0.039999999 0 0.33897066 0.54846609
0.036225151 0.010885004 0.039999999 0 0.33897066 0.54846609
0.035282038 0.010886289 0.039999999 0 0.33897066 0.54846609
0.0343391 0.010887541 0.039999999 0 0.33897066 0.54846609
0.03339633 0.010888758 0.039999999 0 0.33897066 0.54846609
0.032453727 0.010889942 0.039999999 0 0.33897066 0.54846609
0.031511281 0.010891091 0.039999999 0 0.33897066 0.54846609
0.030568991 0.010892207 0.039999999 0 0.33897066 0.54846609
0.029626852 0.010893289 0.039999999 0 0.33897066 0.54846609
0.02868486 0.010894337 0.039999999 0 0.33897066 0.54846609
0.027743008 0.01089535 0.039999999 0 0.33897066 0.54846609
0.026801292 0.01089633 0.039999999 0 0.33897066 0.54846609
0.02585971 0.010897276 0.039999999 0 0.33897066 0.54846609
0.024918253 0.010898188 0.039999999 0 0.33897066 0.54846609
0.02397692 0.010899066 0.039999999 0 0.33897066 0.54846609
0.023035705 0.010899911 0.039999999 0 0.33897066 0.54846609
0.022094602 0.010900721 0.039999999 0 0.33897066 0.54846609
0.021153608 0.010901498 0.039999999 0 0.33897066 0.54846609
0.020212719 0.01090224 0.039999999 0 0.33897066 0.54846609
0.019271931 0.01090295 0.039999999 0 0.33897066 0.54846609
0.018331235 0.010903625 0.039999999 0 0.33897066 0.54846609
0.017390631 0.010904266 0.039999999 0 0.33897066 0.54846609
0.016450111 0.010904874 0.039999999 0 0.33897066 0.54846609
0.015509673 0.010905447 0.039999999 0 0.33897066 0.54846609
0.01456931 0.010905987 0.039999999 0 0.33897066 0.54846609
0.01362902 0.010906493 0.039999999 0 0.33897066 0.54846609
0.012688797 0.010906965 0.039999999 0 0.33897066 0.54846609
0.011748636 0.010907404 0.039999999 0 0.33897066 0.54846609
0.010808532 0.010907809 0.039999999 0 0.33897066 0.54846609
0.0098684821 0.01090818 0.039999999 0 0.33897066 0.54846609
0.0089284806 0.010908518 0.039999999 0 0.33897066 0.54846609
0.0079885228 0.010908822 0.039999999 0 0.33897066 0.54846609
0.0070486041 0.010909091 0.039999999 0 0.33897066 0.54846609
0.0061087203 0.010909327 0.039999999 0 0.33897066 0.54846609
0.0051688664 0.010909529 0.039999999 0 0.33897066 0.54846609
0.004229038 0.010909698 0.039999999 0 0.33897066 0.54846609
0.0032892302 0.010909833 0.039999999 0 0.33897066 0.54846609
0.0023494386 0.010909935 0.039999999 0 0.33897066 0.54846609
0.0014096585 0.010910002 0.039999999 0 0.33897066 0.54846609
0.00046988539 0.010910036 0.039999999 0 0.33897066 0.54846609
0.039960507 0.011999507 0.039999999 0 0.33897066 0.54846609
0.039017573 0.012000813 0.039999999 0 0.33897066 0.54846609
0.038074832 0.012002087 0.039999999 0 0.33897066 0.54846609
0.037132282 0.01200333 0.039999999 0 0.33897066 0.54846609
0.03618991 0.012004541 0.039999999 0 0.33897066 0.54846609
0.035247717 0.012005722 0.039999999 0 0.33897066 0.54846609
0.034305699 0.01200687 0.039999999 0 0.33897066 0.54846609
0.033363849 0.012007989 0.039999999 0 0.33897066 0.54846609
0.032422166 0.012009076 0.039999999 0 0.33897066 0.54846609
0.03148064 0.012010131 0.039999999 0 0.33897066 0.54846609
0.030539269 0.012011155 0.039999999 0 0.33897066 0.54846609
0.029598048 0.012012148 0.039999999 0 0.33897066 0.54846609
0.028656973 0.01201311 0.039999999 0 0.33897066 0.54846609
0.027716039 0.012014041 0.039999999 0 0.33897066 0.54846609
0.026775241 0.01201494 0.039999999 0 0.33897066 0.54846609
0.025834573 0.012015809 0.039999999 0 0.33897066 0.54846609
0.024894034 0.012016647 0.039999999 0 0.33897066 0.54846609
0.023953618 0.012017453 0.039999999 0 0.33897066 0.54846609
0.023013318 0.012018229 0.039999999 0 0.33897066 0.54846609
0.022073133 0.012018973 0.039999999 0 0.33897066 0.54846609
0.021133054 0.012019685 0.039999999 0 0.33897066 0.54846609
0.020193081 0.012020368 0.039999999 0 0.33897066 0.54846609
0.019253206 0.012021019 0.039999999 0 0.33897066 0.54846609
0.018313427 0.012021638 0.039999999 0 0.33897066 0.54846609
0.017373735 0.012022227 0.039999999 0 0.33897066 0.54846609
0.016434131 0.012022785 0.039999999 0 0.33897066 0.54846609
0.015494607 0.012023312 0.039999999 0 0.33897066 0.54846609
0.014555159 0.012023808 0.039999999 0 0.33897066 0.54846609
0.013615782 0.012024273 0.039999999 0 0.33897066 0.54846609
0.012676473 0.012024706 0.039999999 0 0.33897066 0.54846609
0.011737225 0.012025109 0.039999999 0 0.33897066 0.54846609
0.010798035 0.012025481 0.039999999 0 0.33897066 0.54846609
0.0098588979 0.012025822 0.039999999 0 0.33897066 0.54846609
0.008919809 0.012026131 0.039999999 0 0.33897066 0.54846609
0.0079807648 0.012026411 0.039999999 0 0.33897066 0.54846609
0.0070417589 0.012026658 0.039999999 0 0.33897066 0.54846609
0.0061027878 0.012026875 0.039999999 0 0.33897066 0.54846609
0.005163847 0.012027061 0.039999999 0 0.33897066 0.54846609
0.0042249309 0.012027215 0.039999999 0 0.33897066 0.54846609
0.003286036 0.012027339 0.039999999 0 0.33897066 0.54846609
0.0023471571 0.012027432 0.039999999 0 0.33897066 0.54846609
0.0014082897 0.012027495 0.039999999 0 0.33897066 0.54846609
0.0004694291 0.012027525 0.039999999 0 0.33897066 0.54846609
0.039921656 0.013117254 0.039999999 0 0.33897066 0.54846609
0.038979646 0.013118443 0.039999999 0 0.33897066 0.54846609
0.038037825 0.013119604 0.039999999 0 0.33897066 0.54846609
0.037096191 0.013120737 0.039999999 0 0.33897066 0.54846609
0.03615474 0.013121841 0.039999999 0 0.33897066 0.54846609
0.035213467 0.013122916 0.039999999 0 0.33897066 0.54846609
0.034272365 0.013123964 0.039999999 0 0.33897066 0.54846609
0.033331435 0.013124982 0.039999999 0 0.33897066 0.54846609
0.032390669 0.013125973 0.039999999 0 0.33897066 0.54846609
0.031450059 0.013126934 0.039999999 0 0.33897066 0.54846609
0.030509604 0.013127868 0.039999999 0 0.33897066 0.54846609
0.0295693 0.013128772 0.039999999 0 0.33897066 0.54846609
0.028629141 0.01312965 0.039999999 0 0.33897066 0.54846609
0.027689124 0.013130497 0.039999999 0 0.33897066 0.54846609
0.02674924 0.013131318 0.039999999 0 0.33897066 0.54846609
0.025809489 0.013132108 0.039999999 0 0.33897066 0.54846609
0.024869865 0.013132872 0.039999999 0 0.33897066 0.54846609
0.023930363 0.013133607 0.039999999 0 0.33897066 0.54846609
0.022990977 0.013134313 0.039999999 0 0.33897066 0.54846609
0.022051705 0.013134991 0.039999999 0 0.33897066 0.54846609
0.021112541 0.013135641 0.039999999 0 0.33897066 0.54846609
0.020173481 0.013136263 0.039999999 0 0.33897066 0.54846609
0.019234519 0.013136855 0.039999999 0 0.33897066 0.54846609
0.018295653 0.013137421 0.039999999 0 0.33897066 0.54846609
0.017356874 0.013137957 0.039999999 0 0.33897066 0.54846609
0.016418183 0.013138466 0.039999999 0 0.33897066 0.54846609
0.015479571 0.013138946 0.039999999 0 0.33897066 0.54846609
0.014541036 0.013139398 0.039999999 0 0.33897066 0.54846609
0.013602571 0.013139821 0.039999999 0 0.33897066 0.54846609
0.012664173 0.013140216 0.039999999 0 0.33897066 0.54846609
0.011725836 0.013140583 0.039999999 0 0.33897066 0.54846609
0.010787559 0.013140922 0.039999999 0 0.33897066 0.54846609
0.0098493332 0.013141233 0.039999999 0 0.33897066 0.54846609
0.0089111552 0.013141515 0.039999999 0 0.33897066 0.54846609
0.0079730218 0.013141769 0.039999999 0 0.33897066 0.54846609
0.0070349276 0.013141994 0.039999999 0 0.33897066 0.54846609
0.0060968674 0.013142193 0.039999999 0 0.33897066 0.54846609
0.0051588374 0.013142361 0.039999999 0 0.33897066 0.54846609
0.0042208326 0.013142503 0.039999999 0 0.33897066 0.54846609
0.0032828483 0.013142616 0.039999999 0 0.33897066 0.54846609
0.00234488 0.0131427 0.039999999 0 0.33897066 0.54846609
0.0014069234 0.013142757 0.039999999 0 0.33897066 0.54846609
0.00046897371 0.013142785 0.039999999 0 0.33897066 0.54846609
0.039882883 0.014232771 0.039999999 0 0.33897066 0.54846609
0.038941789 0.014233846 0.039999999 0 0.33897066 0.54846609
0.038000889 0.014234895 0.039999999 0 0.33897066 0.54846609
0.037060171 0.014235917 0.039999999 0 0.33897066 0.54846609
0.03611964 0.014236914 0.039999999 0 0.33897066 0.54846609
0.035179283 0.014237885 0.039999999 0 0.33897066 0.54846609
0.034239098 0.014238831 0.039999999 0 0.33897066 0.54846609
0.033299085 0.014239751 0.039999999 0 0.33897066 0.54846609
0.032359231 0.014240645 0.039999999 0 0.33897066 0.54846609
0.031419538 0.014241514 0.039999999 0 0.33897066 0.54846609
0.030479999 0.014242357 0.039999999 0 0.33897066 0.54846609
0.029540611 0.014243173 0.039999999 0 0.33897066 0.54846609
0.028601365 0.014243965 0.039999999 0 0.33897066 0.54846609
0.02766226 0.014244731 0.039999999 0 0.33897066 0.54846609
0.026723292 0.014245471 0.039999999 0 0.33897066 0.54846609
0.025784455 0.014246186 0.039999999 0 0.33897066 0.54846609
0.024845744 0.014246875 0.039999999 0 0.33897066 0.54846609
0.023907153 0.014247539 0.039999999 0 0.33897066 0.54846609
0.022968682 0.014248176 0.039999999 0 0.33897066 0.54846609
0.022030322 0.014248789 0.039999999 0 0.33897066 0.54846609
0.021092068 0.014249376 0.039999999 0 0.33897066 0.54846609
0.020153919 0.014249937 0.039999999 0 0.33897066 0.54846609
0.019215871 0.014250472 0.039999999 0 0.33897066 0.54846609
0.018277913 0.014250983 0.039999999 0 0.33897066 0.54846609
0.017340047 0.014251467 0.039999999 0 0.33897066 0.54846609
0.016402267 0.014251926 0.039999999 0 0.33897066 0.54846609
0.015464565 0.01425236 0.039999999 0 0.33897066 0.54846609
0.014526939 0.014252768 0.039999999 0 0.33897066 0.54846609
0.013589385 0.01425315 0.039999999 0 0.33897066 0.54846609
0.012651897 0.014253507 0.039999999 0 0.33897066 0.54846609
0.011714472 0.014253839 0.039999999 0 0.33897066 0.54846609
0.010777103 0.014254144 0.039999999 0 0.33897066 0.54846609
0.0098397862 0.014254425 0.039999999 0 0.33897066 0.54846609
0.008902519 0.01425468 0.039999999 0 0.33897066 0.54846609
0.0079652946 0.014254909 0.039999999 0 0.33897066 0.54846609
0.0070281094 0.014255113 0.039999999 0 0.33897066 0.54846609
0.0060909586 0.014255292 0.039999999 0 0.33897066 0.54846609
0.0051538376 0.014255445 0.039999999 0 0.33897066 0.54846609
0.0042167418 0.014255572 0.039999999 0 0.33897066 0.54846609
0.0032796669 0.014255674 0.039999999 0 0.33897066 0.54846609
0.0023426076 0.01425575 0.039999999 0 0.33897066 0.54846609
0.0014055601 0.014255801 0.039999999 0 0.33897066 0.54846609
0.00046851923 0.014255826 0.039999999 0 0.33897066 0.54846609
0.039844189 0.015346074 0.039999999 0 0.33897066 0.54846609
0.038904011 0.015347034 0.039999999 0 0.33897066 0.54846609
0.037964027 0.01534797 0.039999999 0 0.33897066 0.54846609
0.037024226 0.015348883 0.039999999 0 0.33897066 0.54846609
0.036084607 0.015349774 0.039999999 0 0.33897066 0.54846609
0.035145167 0.015350641 0.039999999 0 0.33897066 0.54846609
0.034205899 0.015351485 0.039999999 0 0.33897066 0.54846609
0.033266798 0.015352307 0.039999999 0 0.33897066 0.54846609
0.032327861 0.015353105 0.039999999 0 0.33897066 0.54846609
0.03138908 0.015353881 0.039999999 0 0.33897066 0.54846609
0.030450454 0.015354633 0.039999999 0 0.33897066 0.54846609
0.029511977 0.015355363 0.039999999 0 0.33897066 0.54846609
0.028573645 0.01535607 0.039999999 0 0.33897066 0.54846609
0.027635453 0.015356754 0.039999999 0 0.33897066 0.54846609
0.026697395 0.015357415 0.039999999 0 0.33897066 0.54846609
0.02575947 0.015358053 0.039999999 0 0.33897066 0.54846609
0.024821669 0.015358669 0.039999999 0 0.33897066 0.54846609
0.023883991 0.015359261 0.039999999 0 0.33897066 0.54846609
0.022946429 0.015359831 0.039999999 0 0.33897066 0.54846609
0.02200898 0.015360378 0.039999999 0 0.33897066 0.54846609
0.021071637 0.015360901 0.039999999 0 0.33897066 0.54846609
0.020134399 0.015361403 0.039999999 0 0.33897066 0.54846609
0.019197257 0.015361881 0.039999999 0 0.33897066 0.54846609
0.018260211 0.015362336 0.039999999 0 0.33897066 0.54846609
0.017323254 0.015362769 0.039999999 0 0.33897066 0.54846609
0.01638638 0.015363179 0.039999999 0 0.33897066 0.54846609
0.015449588 0.015363567 0.039999999 0 0.33897066 0.54846609
0.014512871 0.015363931 0.039999999 0 0.33897066 0.54846609
0.013576225 0.015364273 0.039999999 0 0.33897066 0.54846609
0.012639646 0.015364591 0.039999999 0 0.33897066 0.54846609
0.011703128 0.015364887 0.039999999 0 0.33897066 0.54846609
0.010766667 0.01536516 0.039999999 0 0.33897066 0.54846609
0.0098302597 0.015365411 0.039999999 0 0.33897066 0.54846609
0.0088938996 0.015365638 0.039999999 0 0.33897066 0.54846609
0.0079575824 0.015365843 0.039999999 0 0.33897066 0.54846609
0.0070213052 0.015366025 0.039999999 0 0.33897066 0.54846609
0.0060850619 0.015366185 0.039999999 0 0.33897066 0.54846609
0.0051488481 0.01536632 0.039999999 0 0.33897066 0.54846609
0.0042126598 0.015366434 0.039999999 0 0.33897066 0.54846609
0.0032764915 0.015366525 0.039999999 0 0.33897066 0.54846609
0.0023403398 0.015366594 0.039999999 0 0.33897066 0.54846609
0.0014041993 0.015366639 0.039999999 0 0.33897066 0.54846609
0.00046806567 0.015366662 0.039999999 0 0.33897066 0.54846609
0.039805569 0.016457174 0.039999999 0 0.33897066 0.54846609
0.038866308 0.016458018 0.039999999 0 0.33897066 0.54846609
0.037927236 0.016458843 0.039999999 0 0.33897066 0.54846609
0.036988351 0.016459648 0.039999999 0 0.33897066 0.54846609
0.036049645 0.016460432 0.039999999 0 0.33897066 0.54846609
0.035111118 0.016461195 0.039999999 0 0.33897066 0.54846609
0.034172762 0.016461939 0.039999999 0 0.33897066 0.54846609
0.033234574 0.016462661 0.039999999 0 0.33897066 0.54846609
0.03229655 0.016463365 0.039999999 0 0.33897066 0.54846609
0.031358682 0.016464047 0.039999999 0 0.33897066 0.54846609
0.030420966 0.01646471 0.039999999 0 0.33897066 0.54846609
0.0294834 0.016465353 0.039999999 0 0.33897066 0.54846609
0.028545979 0.016465975 0.039999999 0 0.33897066 0.54846609
0.027608698 0.016466578 0.039999999 0 0.33897066 0.54846609
0.026671551 0.01646716 0.039999999 0 0.33897066 0.54846609
0.025734534 0.016467722 0.039999999 0 0.33897066 0.54846609
0.024797643 0.016468264 0.039999999 0 0.33897066 0.54846609
0.023860874 0.016468786 0.039999999 0 0.33897066 0.54846609
0.02292422 0.016469287 0.039999999 0 0.33897066 0.54846609
0.021987678 0.016469769 0.039999999 0 0.33897066 0.54846609
0.021051245 0.016470231 0.039999999 0 0.33897066 0.54846609
0.020114914 0.016470673 0.039999999 0 0.33897066 0.54846609
0.019178681 0.016471094 0.039999999 0 0.33897066 0.54846609
0.018242544 0.016471494 0.039999999 0 0.33897066 0.54846609
0.017306494 0.016471876 0.039999999 0 0.33897066 0.54846609
0.016370527 0.016472237 0.039999999 0 0.33897066 0.54846609
0.015434642 0.016472578 0.039999999 0 0.33897066 0.54846609
0.014498832 0.016472898 0.039999999 0 0.33897066 0.54846609
0.013563092 0.016473198 0.039999999 0 0.33897066 0.54846609
0.012627419 0.01647348 0.039999999 0 0.33897066 0.54846609
0.011691808 0.01647374 0.039999999 0 0.33897066 0.54846609
0.010756253 0.016473981 0.039999999 0 0.33897066 0.54846609
0.0098207509 0.0164742 0.039999999 0 0.33897066 0.54846609
0.008885297 0.016474402 0.039999999 0 0.33897066 0.54846609
0.0079498859 0.016474582 0.039999999 0 0.33897066 0.54846609
0.0070145139 0.016474742 0.039999999 0 0.33897066 0.54846609
0.0060791764 0.016474882 0.039999999 0 0.33897066 0.54846609
0.0051438683 0.016475003 0.039999999 0 0.33897066 0.54846609
0.0042085852 0.016475104 0.039999999 0 0.33897066 0.54846609
0.0032733227 0.016475184 0.039999999 0 0.33897066 0.54846609
0.0023380762 0.016475243 0.039999999 0 0.33897066 0.54846609
0.0014028412 0.016475283 0.039999999 0 0.33897066 0.54846609
0.00046761299 0.016475303 0.039999999 0 0.33897066 0.54846609
0.039767027 0.017566081 0.039999999 0 0.33897066 0.54846609
0.038828678 0.017566811 0.039999999 0 0.33897066 0.54846609
0.03789052 0.017567525 0.039999999 0 0.33897066 0.54846609
0.036952548 0.017568219 0.039999999 0 0.33897066 0.54846609
0.036014754 0.017568897 0.039999999 0 0.33897066 0.54846609
0.03507714 0.017569559 0.039999999 0 0.33897066 0.54846609
0.034139693 0.017570201 0.039999999 0 0.33897066 0.54846609
0.033202417 0.017570827 0.039999999 0 0.33897066 0.54846609
0.032265302 0.017571436 0.039999999 0 0.33897066 0.54846609
0.031328343 0.017572027 0.039999999 0 0.33897066 0.54846609
0.030391537 0.0175726 0.039999999 0 0.33897066 0.54846609
0.029454881 0.017573155 0.039999999 0 0.33897066 0.54846609
0.028518368 0.017573694 0.039999999 0 0.33897066 0.54846609
0.027581995 0.017574215 0.039999999 0 0.33897066 0.54846609
0.026645755 0.017574718 0.039999999 0 0.33897066 0.54846609
0.025709648 0.017575204 0.039999999 0 0.33897066 0.54846609
0.024773665 0.017575674 0.039999999 0 0.33897066 0.54846609
0.023837801 0.017576125 0.039999999 0 0.33897066 0.54846609
0.022902055 0.017576559 0.039999999 0 0.33897066 0.54846609
0.021966422 0.017576976 0.039999999 0 0.33897066 0.54846609
0.021030894 0.017577374 0.039999999 0 0.33897066 0.54846609
0.020095469 0.017577756 0.039999999 0 0.33897066 0.54846609
0.019160142 0.017578121 0.039999999 0 0.33897066 0.54846609
0.01822491 0.017578468 0.039999999 0 0.33897066 0.54846609
0.017289765 0.017578797 0.039999999 0 0.33897066 0.54846609
0.016354704 0.01757911 0.039999999 0 0.33897066 0.54846609
0.015419724 0.017579405 0.039999999 0 0.33897066 0.54846609
0.014484819 0.017579682 0.039999999 0 0.33897066 0.54846609
0.013549984 0.017579943 0.039999999 0 0.33897066 0.54846609
0.012615216 0.017580185 0.039999999 0 0.33897066 0.54846609
0.011680509 0.01758041 0.039999999 0 0.33897066 0.54846609
0.010745859 0.017580619 0.039999999 0 0.33897066 0.54846609
0.0098112617 0.017580809 0.039999999 0 0.33897066 0.54846609
0.0088767111 0.017580982 0.039999999 0 0.33897066 0.54846609
0.0079422044 0.017581139 0.039999999 0 0.33897066 0.54846609
0.0070077367 0.017581277 0.039999999 0 0.33897066 0.54846609
0.0060733026 0.017581398 0.039999999 0 0.33897066 0.54846609
0.0051388983 0.017581502 0.039999999 0 0.33897066 0.54846609
0.0042045191 0.01758159 0.039999999 0 0.33897066 0.54846609
0.0032701602 0.017581658 0.039999999 0 0.33897066 0.54846609
0.0023358173 0.017581711 0.039999999 0 0.33897066 0.54846609
0.0014014859 0.017581746 0.039999999 0 0.33897066 0.54846609
0.00046716118 0.017581763 0.039999999 0 0.33897066 0.54846609
0.03972856 0.018672807 0.039999999 0 0.33897066 0.54846609
0.038791124 0.018673424 0.039999999 0 0.33897066 0.54846609
0.037853874 0.018674027 0.039999999 0 0.33897066 0.54846609
0.036916811 0.018674614 0.039999999 0 0.33897066 0.54846609
0.03597993 0.018675188 0.039999999 0 0.33897066 0.54846609
0.035043225 0.018675745 0.039999999 0 0.33897066 0.54846609
0.03410669 0.018676288 0.039999999 0 0.33897066 0.54846609
0.03317032 0.018676816 0.039999999 0 0.33897066 0.54846609
0.032234114 0.01867733 0.039999999 0 0.33897066 0.54846609
0.031298064 0.018677829 0.039999999 0 0.33897066 0.54846609
0.030362166 0.018678313 0.039999999 0 0.33897066 0.54846609
0.029426416 0.018678783 0.039999999 0 0.33897066 0.54846609
0.028490812 0.018679237 0.039999999 0 0.33897066 0.54846609
0.027555345 0.018679677 0.039999999 0 0.33897066 0.54846609
0.026620012 0.018680103 0.039999999 0 0.33897066 0.54846609
0.025684809 0.018680513 0.039999999 0 0.33897066 0.54846609
0.024749732 0.01868091 0.039999999 0 0.33897066 0.54846609
0.023814775 0.01868129 0.039999999 0 0.33897066 0.54846609
0.022879934 0.018681657 0.039999999 0 0.33897066 0.54846609
0.021945205 0.018682009 0.039999999 0 0.33897066 0.54846609
0.021010583 0.018682346 0.039999999 0 0.33897066 0.54846609
0.020076063 0.018682668 0.039999999 0 0.33897066 0.54846609
0.019141641 0.018682975 0.039999999 0 0.33897066 0.54846609
0.01820731 0.018683268 0.039999999 0 0.33897066 0.54846609
0.01727307 0.018683547 0.039999999 0 0.33897066 0.54846609
0.016338913 0.01868381 0.039999999 0 0.33897066 0.54846609
0.015404836 0.018684059 0.039999999 0 0.33897066 0.54846609
0.014470834 0.018684294 0.039999999 0 0.33897066 0.54846609
0.013536903 0.018684514 0.039999999 0 0.33897066 0.54846609
0.012603037 0.018684719 0.039999999 0 0.33897066 0.54846609
0.011669233 0.018684909 0.039999999 0 0.33897066 0.54846609
0.010735486 0.018685084 0.039999999 0 0.33897066 0.54846609
0.0098017901 0.018685246 0.039999999 0 0.33897066 0.54846609
0.008868143 0.018685393 0.039999999 0 0.33897066 0.54846609
0.0079345377 0.018685523 0.039999999 0 0.33897066 0.54846609
0.0070009721 0.018685641 0.039999999 0 0.33897066 0.54846609
0.0060674404 0.018685743 0.039999999 0 0.33897066 0.54846609
0.005133938 0.018685831 0.039999999 0 0.33897066 0.54846609
0.0042004609 0.018685905 0.039999999 0 0.33897066 0.54846609
0.0032670037 0.018685963 0.039999999 0 0.33897066 0.54846609
0.0023335628 0.018686008 0.039999999 0 0.33897066 0.54846609
0.0014001331 0.018686036 0.039999999 0 0.33897066 0.54846609
0.00046671028 0.018686051 0.039999999 0 0.33897066 0.54846609
0.039690167 0.019777365 0.039999999 0 0.33897066 0.54846609
0.03875364 0.01977787 0.039999999 0 0.33897066 0.54846609
0.037817303 0.019778362 0.039999999 0 0.33897066 0.54846609
0.036881149 0.019778842 0.039999999 0 0.33897066 0.54846609
0.035945173 0.01977931 0.039999999 0 0.33897066 0.54846609
0.035009377 0.019779764 0.039999999 0 0.33897066 0.54846609
0.034073748 0.019780207 0.039999999 0 0.33897066 0.54846609
0.033138286 0.01978064 0.039999999 0 0.33897066 0.54846609
0.032202985 0.019781059 0.039999999 0 0.33897066 0.54846609
0.031267844 0.019781467 0.039999999 0 0.33897066 0.54846609
0.030332852 0.019781861 0.039999999 0 0.33897066 0.54846609
0.029398009 0.019782245 0.039999999 0 0.33897066 0.54846609
0.028463308 0.019782616 0.039999999 0 0.33897066 0.54846609
0.027528746 0.019782975 0.039999999 0 0.33897066 0.54846609
0.026594318 0.019783324 0.039999999 0 0.33897066 0.54846609
0.025660021 0.019783659 0.039999999 0 0.33897066 0.54846609
0.024725847 0.019783981 0.039999999 0 0.33897066 0.54846609
0.023791794 0.019784292 0.039999999 0 0.33897066 0.54846609
0.022857856 0.019784592 0.039999999 0 0.33897066 0.54846609
0.02192403 0.019784879 0.039999999 0 0.33897066 0.54846609
0.02099031 0.019785155 0.039999999 0 0.33897066 0.54846609
0.020056693 0.019785417 0.039999999 0 0.33897066 0.54846609
0.019123172 0.019785669 0.039999999 0 0.33897066 0.54846609
0.018189747 0.019785909 0.039999999 0 0.33897066 0.54846609
0.017256407 0.019786136 0.039999999 0 0.33897066 0.54846609
0.016323153 0.01978635 0.039999999 0 0.33897066 0.54846609
0.015389978 0.019786553 0.039999999 0 0.33897066 0.54846609
0.014456877 0.019786745 0.039999999 0 0.33897066 0.54846609
0.013523847 0.019786926 0.039999999 0 0.33897066 0.54846609
0.012590882 0.019787092 0.039999999 0 0.33897066 0.54846609
0.011657979 0.019787248 0.039999999 0 0.33897066 0.54846609
0.010725132 0.019787392 0.039999999 0 0.33897066 0.54846609
0.0097923372 0.019787524 0.039999999 0 0.33897066 0.54846609
0.0088595906 0.019787643 0.039999999 0 0.33897066 0.54846609
0.0079268869 0.019787751 0.039999999 0 0.33897066 0.54846609
0.0069942209 0.019787846 0.039999999 0 0.33897066 0.54846609
0.0060615893 0.01978793 0.039999999 0 0.33897066 0.54846609
0.0051289876 0.019788001 0.039999999 0 0.33897066 0.54846609
0.0041964105 0.01978806 0.039999999 0 0.33897066 0.54846609
0.0032638535 0.019788109 0.039999999 0 0.33897066 0.54846609
0.0023313127 0.019788144 0.039999999 0 0.33897066 0.54846609
0.0013987831 0.019788168 0.039999999 0 0.33897066 0.54846609
0.00046626027 0.019788181 0.039999999 0 0.33897066 0.54846609
0.039651848 0.020879768 0.039999999 0 0.33897066 0.54846609
0.038716231 0.020880159 0.039999999 0 0.33897066 0.54846609
0.037780799 0.020880541 0.039999999 0 0.33897066 0.54846609
0.036845554 0.020880913 0.039999999 0 0.33897066 0.54846609
0.035910487 0.020881277 0.039999999 0 0.33897066 0.54846609
0.034975596 0.02088163 0.039999999 0 0.33897066 0.54846609
0.034040872 0.020881973 0.039999999 0 0.33897066 0.54846609
0.033106316 0.020882308 0.039999999 0 0.33897066 0.54846609
0.03217192 0.020882634 0.039999999 0 0.33897066 0.54846609
0.031237682 0.020882951 0.039999999 0 0.33897066 0.54846609
0.030303596 0.020883258 0.039999999 0 0.33897066 0.54846609
0.029369656 0.020883555 0.039999999 0 0.33897066 0.54846609
0.02843586 0.020883843 0.039999999 0 0.33897066 0.54846609
0.0275022 0.020884123 0.039999999 0 0.33897066 0.54846609
0.026568675 0.020884393 0.039999999 0 0.33897066 0.54846609
0.02563528 0.020884652 0.039999999 0 0.33897066 0.54846609
0.024702009 0.020884903 0.039999999 0 0.33897066 0.54846609
0.023768857 0.020885145 0.039999999 0 0.33897066 0.54846609
0.022835821 0.020885378 0.039999999 0 0.33897066 0.54846609
0.021902896 0.0208856 0.039999999 0 0.33897066 0.54846609
0.020970078 0.020885814 0.039999999 0 0.33897066 0.54846609
0.020037362 0.020886019 0.039999999 0 0.33897066 0.54846609
0.019104743 0.020886213 0.039999999 0 0.33897066 0.54846609
0.018172216 0.020886399 0.039999999 0 0.33897066 0.54846609
0.017239777 0.020886576 0.039999999 0 0.33897066 0.54846609
0.016307423 0.020886743 0.039999999 0 0.33897066 0.54846609
0.015375148 0.0208869 0.039999999 0 0.33897066 0.54846609
0.014442947 0.020887049 0.039999999 0 0.33897066 0.54846609
0.013510816 0.020887189 0.039999999 0 0.33897066 0.54846609
0.012578751 0.020887319 0.039999999 0 0.33897066 0.54846609
0.011646747 0.020887438 0.039999999 0 0.33897066 0.54846609
0.010714799 0.02088755 0.039999999 0 0.33897066 0.54846609
0.0097829038 0.020887652 0.039999999 0 0.33897066 0.54846609
0.0088510551 0.020887746 0.039999999 0 0.33897066 0.54846609
0.0079192501 0.020887829 0.039999999 0 0.33897066 0.54846609
0.0069874832 0.020887904 0.039999999 0 0.33897066 0.54846609
0.00605575 0.020887967 0.039999999 0 0.33897066 0.54846609
0.0051240465 0.020888023 0.039999999 0 0.33897066 0.54846609
0.0041923677 0.02088807 0.039999999 0 0.33897066 0.54846609
0.0032607096 0.020888107 0.039999999 0 0.33897066 0.54846609
0.0023290669 0.020888135 0.039999999 0 0.33897066 0.54846609
0.0013974357 0.020888153 0.039999999 0 0.33897066 0.54846609
0.00046581111 0.020888163 0.039999999 0 0.33897066 0.54846609
0.039613608 0.021980025 0.039999999 0 0.33897066 0.54846609
0.038678896 0.021980304 0.039999999 0 0.33897066 0.54846609
0.037744369 0.021980576 0.039999999 0 0.33897066 0.54846609
0.036810029 0.021980841 0.039999999 0 0.33897066 0.54846609
0.035875868 0.0219811 0.039999999 0 0.33897066 0.54846609
0.034941878 0.021981351 0.039999999 0 0.33897066 0.54846609
0.03400806 0.021981597 0.039999999 0 0.33897066 0.54846609
0.033074409 0.021981835 0.039999999 0 0.33897066 0.54846609
0.032140914 0.021982068 0.039999999 0 0.33897066 0.54846609
0.03120758 0.021982294 0.039999999 0 0.33897066 0.54846609
0.030274395 0.021982513 0.039999999 0 0.33897066 0.54846609
0.029341359 0.021982726 0.039999999 0 0.33897066 0.54846609
0.028408462 0.021982931 0.039999999 0 0.33897066 0.54846609
0.027475705 0.02198313 0.039999999 0 0.33897066 0.54846609
0.024977013 0.040685888 0.07 0 0.33897066 0.54846609
0.024099536 0.040686063 0.07 0 0.33897066 0.54846609
0.023222176 0.040686231 0.07 0 0.33897066 0.54846609
0.02234493 0.040686391 0.07 0 0.33897066 0.54846609
0.021467792 0.040686548 0.07 0 0.33897066 0.54846609
0.020590756 0.040686697 0.07 0 0.33897066 0.54846609
0.01975728 0.040029299 0.068945259 0 0.33897066 0.54846609
0.018836983 0.04068698 0.07 0 0.33897066 0.54846609
0.017960234 0.04068711 0.07 0 0.33897066 0.54846609
0.017109996 0.040225904 0.069259994 0 0.33897066 0.54846609
0.016206997 0.040687352 0.07 0 0.33897066 0.54846609
0.015330496 0.040687464 0.07 0 0.33897066 0.54846609
0.015360347 0.02198511 0.039999999 0 0.33897066 0.54846609
0.014429044 0.021985216 0.039999999 0 0.33897066 0.54846609
0.013497811 0.021985315 0.039999999 0 0.33897066 0.54846609
0.012566643 0.021985408 0.039999999 0 0.33897066 0.54846609
0.011635536 0.021985494 0.039999999 0 0.33897066 0.54846609
0.010704486 0.021985574 0.039999999 0 0.33897066 0.54846609
0.0097734872 0.021985646 0.039999999 0 0.33897066 0.54846609
0.0088425362 0.021985712 0.039999999 0 0.33897066 0.54846609
0.0079116281 0.021985771 0.039999999 0 0.33897066 0.54846609
0.0069807582 0.021985825 0.039999999 0 0.33897066 0.54846609
0.0060499222 0.02198587 0.039999999 0 0.33897066 0.54846609
0.0051191151 0.021985911 0.039999999 0 0.33897066 0.54846609
0.0041883332 0.021985942 0.039999999 0 0.33897066 0.54846609
0.0032575715 0.02198597 0.039999999 0 0.33897066 0.54846609
0.0023268254 0.021985989 0.039999999 0 0.33897066 0.54846609
0.0013960908 0.021986002 0.039999999 0 0.33897066 0.54846609
0.00046536286 0.02198601 0.039999999 0 0.33897066 0.54846609
0.039575439 0.023078147 0.039999999 0 0.33897066 0.54846609
0.038641632 0.023078315 0.039999999 0 0.33897066 0.54846609
0.037708011 0.023078477 0.039999999 0 0.33897066 0.54846609
0.036774572 0.023078637 0.039999999 0 0.33897066 0.54846609
0.035841312 0.023078792 0.039999999 0 0.33897066 0.54846609
0.034908228 0.023078943 0.039999999 0 0.33897066 0.54846609
0.033975311 0.02307909 0.039999999 0 0.33897066 0.54846609
0.033042561 0.023079233 0.039999999 0 0.33897066 0.54846609
0.032109972 0.023079371 0.039999999 0 0.33897066 0.54846609
0.031177536 0.023079507 0.039999999 0 0.33897066 0.54846609
0.030245252 0.023079637 0.039999999 0 0.33897066 0.54846609
0.027583612 0.041717641 0.07 0 0.33897066 0.54846609
0.026706606 0.041717757 0.07 0 0.33897066 0.54846609
0.025829729 0.041717868 0.07 0 0.33897066 0.54846609
0.025041705 0.040661015 0.068298683 0 0.33897066 0.54846609
0.024076346 0.041718081 0.07 0 0.33897066 0.54846609
0.023199832 0.041718181 0.07 0 0.33897066 0.54846609
0.02232343 0.041718278 0.07 0 0.33897066 0.54846609
0.021447137 0.041718371 0.07 0 0.33897066 0.54846609
0.020570947 0.041718461 0.07 0 0.33897066 0.54846609
0.019694857 0.041718546 0.07 0 0.33897066 0.54846609
0.018818863 0.041718628 0.07 0 0.33897066 0.54846609
0.017942959 0.041718706 0.07 0 0.33897066 0.54846609
0.017067142 0.041718781 0.07 0 0.33897066 0.54846609
0.01626469 0.040373486 0.067834452 0 0.33897066 0.54846609
0.015315752 0.041718919 0.07 0 0.33897066 0.54846609
0.014485581 0.040784203 0.068495341 0 0.33897066 0.54846609
0.013593603 0.041084759 0.068979032 0 0.33897066 0.54846609
0.012689212 0.041719098 0.07 0 0.33897066 0.54846609
0.012554559 0.023081372 0.039999999 0 0.33897066 0.54846609
0.011624347 0.023081424 0.039999999 0 0.33897066 0.54846609
0.010694193 0.02308147 0.039999999 0 0.33897066 0.54846609
0.0097640902 0.023081515 0.039999999 0 0.33897066 0.54846609
0.0088340342 0.023081554 0.039999999 0 0.33897066 0.54846609
0.0079040211 0.023081589 0.039999999 0 0.33897066 0.54846609
0.0069740466 0.023081621 0.039999999 0 0.33897066 0.54846609
0.0060441052 0.023081649 0.039999999 0 0.33897066 0.54846609
0.0051141935 0.023081673 0.039999999 0 0.33897066 0.54846609
0.0041843066 0.023081692 0.039999999 0 0.33897066 0.54846609
0.0032544397 0.023081709 0.039999999 0 0.33897066 0.54846609
0.0023245884 0.02308172 0.039999999 0 0.33897066 0.54846609
0.0013947486 0.023081727 0.039999999 0 0.33897066 0.54846609
0.00046491544 0.023081733 0.039999999 0 0.33897066 0.54846609
0.039537344 0.02417415 0.039999999 0 0.33897066 0.54846609
0.038604438 0.024174204 0.039999999 0 0.33897066 0.54846609
0.037671719 0.024174258 0.039999999 0 0.33897066 0.54846609
0.036739185 0.024174312 0.039999999 0 0.33897066 0.54846609
0.035806827 0.024174364 0.039999999 0 0.33897066 0.54846609
0.03487464 0.024174415 0.039999999 0 0.33897066 0.54846609
0.033942629 0.024174463 0.039999999 0 0.33897066 0.54846609
0.033010777 0.02417451 0.039999999 0 0.33897066 0.54846609
0.032079086 0.024174556 0.039999999 0 0.33897066 0.54846609
0.029309813 0.042747881 0.07 0 0.33897066 0.54846609
0.028433381 0.042747922 0.07 0 0.33897066 0.54846609
0.027557086 0.042747959 0.07 0 0.33897066 0.54846609
0.026680926 0.042748 0.07 0 0.33897066 0.54846609
0.025962807 0.040935289 0.067072004 0 0.33897066 0.54846609
0.024928987 0.042748071 0.07 0 0.33897066 0.54846609
0.024237052 0.040483914 0.066342823 0 0.33897066 0.54846609
0.023177531 0.042748142 0.07 0 0.33897066 0.54846609
0.022301972 0.042748172 0.07 0 0.33897066 0.54846609
0.021426523 0.042748205 0.07 0 0.33897066 0.54846609
0.020551177 0.042748235 0.07 0 0.33897066 0.54846609
0.019675929 0.042748261 0.07 0 0.33897066 0.54846609
0.018800776 0.042748291 0.07 0 0.33897066 0.54846609
0.017925715 0.042748317 0.07 0 0.33897066 0.54846609
0.017050741 0.042748339 0.07 0 0.33897066 0.54846609
0.016175849 0.042748366 0.07 0 0.33897066 0.54846609
0.015301036 0.042748388 0.07 0 0.33897066 0.54846609
0.014522562 0.040771741 0.066807233 0 0.33897066 0.54846609
0.013551625 0.042748429 0.07 0 0.33897066 0.54846609
0.012735851 0.041373782 0.067779608 0 0.33897066 0.54846609
0.011802478 0.042748462 0.07 0 0.33897066 0.54846609
0.010927992 0.042748481 0.07 0 0.33897066 0.54846609
0.010053558 0.042748496 0.07 0 0.33897066 0.54846609
0.0097547108 0.02417527 0.039999999 0 0.33897066 0.54846609
0.008825548 0.024175283 0.039999999 0 0.33897066 0.54846609
0.0078964289 0.024175294 0.039999999 0 0.33897066 0.54846609
0.0069673476 0.024175305 0.039999999 0 0.33897066 0.54846609
0.0060382998 0.024175314 0.039999999 0 0.33897066 0.54846609
0.0051092813 0.024175322 0.039999999 0 0.33897066 0.54846609
0.0041802875 0.024175329 0.039999999 0 0.33897066 0.54846609
0.0032513137 0.024175333 0.039999999 0 0.33897066 0.54846609
0.0023223558 0.024175338 0.039999999 0 0.33897066 0.54846609
0.001393409 0.02417534 0.039999999 0 0.33897066 0.54846609
0.0004644689 0.024175342 0.039999999 0 0.33897066 0.54846609
0.039499324 0.025268041 0.039999999 0 0.33897066 0.54846609
0.03856732 0.025267985 0.039999999 0 0.33897066 0.54846609
0.037635501 0.025267931 0.039999999 0 0.33897066 0.54846609
0.036703866 0.025267879 0.039999999 0 0.33897066 0.54846609
0.035772406 0.025267826 0.039999999 0 0.33897066 0.54846609
0.03484112 0.025267776 0.039999999 0 0.33897066 0.54846609
0.033910006 0.025267728 0.039999999 0 0.33897066 0.54846609
0.031033255 0.043776467 0.07 0 0.33897066 0.54846609
0.03015738 0.043776423 0.07 0 0.33897066 0.54846609
0.029281652 0.043776382 0.07 0 0.33897066 0.54846609
0.028406063 0.043776341 0.07 0 0.33897066 0.54846609
0.027530612 0.0437763 0.07 0 0.33897066 0.54846609
0.026655296 0.043776263 0.07 0 0.33897066 0.54846609
0.025780106 0.043776225 0.07 0 0.33897066 0.54846609
0.024905043 0.043776188 0.07 0 0.33897066 0.54846609
0.024030099 0.043776155 0.07 0 0.33897066 0.54846609
0.02342749 0.040305734 0.064375028 0 0.33897066 0.54846609
0.022280555 0.043776087 0.07 0 0.33897066 0.54846609
0.021672986 0.040093504 0.064031139 0 0.33897066 0.54846609
0.020531442 0.043776028 0.07 0 0.33897066 0.54846609
0.019657036 0.043775998 0.07 0 0.33897066 0.54846609
0.018782726 0.043775972 0.07 0 0.33897066 0.54846609
0.017908506 0.043775946 0.07 0 0.33897066 0.54846609
0.017240046 0.040211756 0.064223029 0 0.33897066 0.54846609
0.016160322 0.043775897 0.07 0 0.33897066 0.54846609
0.015286348 0.043775875 0.07 0 0.33897066 0.54846609
0.014412449 0.043775853 0.07 0 0.33897066 0.54846609
0.013538619 0.043775834 0.07 0 0.33897066 0.54846609
0.012664854 0.043775816 0.07 0 0.33897066 0.54846609
0.01179115 0.043775797 0.07 0 0.33897066 0.54846609
0.010917503 0.043775782 0.07 0 0.33897066 0.54846609
0.01008185 0.042660683 0.068192616 0 0.33897066 0.54846609
0.0091883028 0.043198291 0.069064021 0 0.33897066 0.54846609
0.0088170785 0.02526691 0.039999999 0 0.33897066 0.54846609
0.0078888508 0.025266897 0.039999999 0 0.33897066 0.54846609
0.0069606616 0.025266888 0.039999999 0 0.33897066 0.54846609
0.0060325055 0.025266878 0.039999999 0 0.33897066 0.54846609
0.0051043783 0.025266869 0.039999999 0 0.33897066 0.54846609
0.0041762763 0.025266863 0.039999999 0 0.33897066 0.54846609
0.0032481938 0.025266858 0.039999999 0 0.33897066 0.54846609
0.0023201273 0.025266854 0.039999999 0 0.33897066 0.54846609
0.0013920718 0.02526685 0.039999999 0 0.33897066 0.54846609
0.00046402321 0.02526685 0.039999999 0 0.33897066 0.54846609
0.039461374 0.026359832 0.039999999 0 0.33897066 0.54846609
0.038530268 0.026359666 0.039999999 0 0.33897066 0.54846609
0.037599351 0.026359504 0.039999999 0 0.33897066 0.54846609
0.036668614 0.026359346 0.039999999 0 0.33897066 0.54846609
0.035738051 0.026359191 0.039999999 0 0.33897066 0.54846609
0.032753978 0.044803437 0.07 0 0.33897066 0.54846609
0.031878643 0.044803299 0.07 0 0.33897066 0.54846609
0.03100346 0.044803165 0.07 0 0.33897066 0.54846609
0.030128429 0.044803035 0.07 0 0.33897066 0.54846609
0.029253542 0.044802908 0.07 0 0.33897066 0.54846609
0.028378798 0.044802785 0.07 0 0.33897066 0.54846609
0.027504189 0.044802666 0.07 0 0.33897066 0.54846609
0.026629714 0.04480255 0.07 0 0.33897066 0.54846609
0.02609019 0.040978208 0.063779868 0 0.33897066 0.54846609
0.024881145 0.044802334 0.07 0 0.33897066 0.54846609
0.024007041 0.04480223 0.07 0 0.33897066 0.54846609
0.023133054 0.044802129 0.07 0 0.33897066 0.54846609
0.02225918 0.044802032 0.07 0 0.33897066 0.54846609
0.021385413 0.044801939 0.07 0 0.33897066 0.54846609
0.020511746 0.04480185 0.07 0 0.33897066 0.54846609
0.019638181 0.044801764 0.07 0 0.33897066 0.54846609
0.01876471 0.044801682 0.07 0 0.33897066 0.54846609
0.017891331 0.044801604 0.07 0 0.33897066 0.54846609
0.017018035 0.044801529 0.07 0 0.33897066 0.54846609
0.016389349 0.040346049 0.062753275 0 0.33897066 0.54846609
0.015271689 0.044801395 0.07 0 0.33897066 0.54846609
0.014597092 0.040746626 0.063405029 0 0.33897066 0.54846609
0.013525636 0.044801272 0.07 0 0.33897066 0.54846609
0.01265271 0.044801217 0.07 0 0.33897066 0.54846609
0.011779844 0.044801164 0.07 0 0.33897066 0.54846609
0.010907035 0.044801116 0.07 0 0.33897066 0.54846609
0.010034279 0.044801071 0.07 0 0.33897066 0.54846609
0.009161572 0.04480103 0.07 0 0.33897066 0.54846609
0.0082889078 0.044800993 0.07 0 0.33897066 0.54846609
0.0074162842 0.04480096 0.07 0 0.33897066 0.54846609
0.0069539882 0.026356379 0.039999999 0 0.33897066 0.54846609
0.006026722 0.026356351 0.039999999 0 0.33897066 0.54846609
0.0050994852 0.026356326 0.039999999 0 0.33897066 0.54846609
0.0041722725 0.026356308 0.039999999 0 0.33897066 0.54846609
0.0032450799 0.026356291 0.039999999 0 0.33897066 0.54846609
0.0023179031 0.02635628 0.039999999 0 0.33897066 0.54846609
0.0013907374 0.026356272 0.039999999 0 0.33897066 0.54846609
0.00046357838 0.026356269 0.039999999 0 0.33897066 0.54846609
0.039423499 0.027449535 0.039999999 0 0.33897066 0.54846609
0.038493291 0.02744926 0.039999999 0 0.33897066 0.54846609
0.037563268 0.027448989 0.039999999 0 0.33897066 0.54846609
0.036633428 0.027448727 0.039999999 0 0.33897066 0.54846609
0.033597205 0.045828588 0.07 0 0.33897066 0.54846609
0.032850426 0.044682849 0.068130314 0 0.33897066 0.54846609
0.031848062 0.045828123 0.07 0 0.33897066 0.54846609
0.030973723 0.045827903 0.07 0 0.33897066 0.54846609
0.030099532 0.045827683 0.07 0 0.33897066 0.54846609
0.029225487 0.045827474 0.07 0 0.33897066 0.54846609
0.028351583 0.04582727 0.07 0 0.33897066 0.54846609
0.027477816 0.045827072 0.07 0 0.33897066 0.54846609
0.026604181 0.045826882 0.07 0 0.33897066 0.54846609
0.025730675 0.045826696 0.07 0 0.33897066 0.54846609
0.024857292 0.045826517 0.07 0 0.33897066 0.54846609
0.023984028 0.045826346 0.07 0 0.33897066 0.54846609
0.023110881 0.045826178 0.07 0 0.33897066 0.54846609
0.022237845 0.045826018 0.07 0 0.33897066 0.54846609
0.021364916 0.045825861 0.07 0 0.33897066 0.54846609
0.02049209 0.045825712 0.07 0 0.33897066 0.54846609
0.019619362 0.045825571 0.07 0 0.33897066 0.54846609
0.018746728 0.045825437 0.07 0 0.33897066 0.54846609
0.017874187 0.045825306 0.07 0 0.33897066 0.54846609
0.017327849 0.040202204 0.060822286 0 0.33897066 0.54846609
0.016129354 0.045825068 0.07 0 0.33897066 0.54846609
0.015257057 0.045824956 0.07 0 0.33897066 0.54846609
0.014384833 0.045824852 0.07 0 0.33897066 0.54846609
0.013512678 0.045824751 0.07 0 0.33897066 0.54846609
0.012833938 0.041340731 0.062681437 0 0.33897066 0.54846609
0.01176856 0.045824572 0.07 0 0.33897066 0.54846609
0.010896588 0.045824494 0.07 0 0.33897066 0.54846609
0.010133929 0.042629346 0.064785086 0 0.33897066 0.54846609
0.0091527961 0.045824349 0.07 0 0.33897066 0.54846609
0.0082809683 0.045824289 0.07 0 0.33897066 0.54846609
0.0074091805 0.045824233 0.07 0 0.33897066 0.54846609
0.0065374286 0.045824185 0.07 0 0.33897066 0.54846609
0.0060209497 0.027443744 0.039999999 0 0.33897066 0.54846609
0.0050946008 0.027443705 0.039999999 0 0.33897066 0.54846609
0.0041682762 0.027443673 0.039999999 0 0.33897066 0.54846609
0.0032419721 0.027443647 0.039999999 0 0.33897066 0.54846609
0.0023156831 0.027443627 0.039999999 0 0.33897066 0.54846609
0.0013894055 0.027443614 0.039999999 0 0.33897066 0.54846609
0.00046313441 0.027443608 0.039999999 0 0.33897066 0.54846609
0.039385695 0.028537162 0.039999999 0 0.33897066 0.54846609
0.038456384 0.028536776 0.039999999 0 0.33897066 0.54846609
0.037527256 0.0285364 0.039999999 0 0.33897066 0.54846609
0.034511369 0.046237919 0.068994217 0 0.33897066 0.54846609
0.033565003 0.046851646 0.07 0 0.33897066 0.54846609
0.032691192 0.046851318 0.07 0 0.33897066 0.54846609
0.031817541 0.046850998 0.07 0 0.33897066 0.54846609
0.030944042 0.046850685 0.07 0 0.33897066 0.54846609
0.03007069 0.046850383 0.07 0 0.33897066 0.54846609
0.029633345 0.042489331 0.062857486 0 0.33897066 0.54846609
0.028324421 0.046849806 0.07 0 0.33897066 0.54846609
0.027938388 0.041668292 0.06151364 0 0.33897066 0.54846609
0.026578696 0.046849262 0.07 0 0.33897066 0.54846609
0.025706029 0.046849001 0.07 0 0.33897066 0.54846609
0.024833484 0.046848752 0.07 0 0.33897066 0.54846609
0.024478747 0.040537111 0.059662577 0 0.33897066 0.54846609
0.023088749 0.046848278 0.07 0 0.33897066 0.54846609
0.022216551 0.046848051 0.07 0 0.33897066 0.54846609
0.021344459 0.046847839 0.07 0 0.33897066 0.54846609
0.020472469 0.04684763 0.07 0 0.33897066 0.54846609
0.019600578 0.046847433 0.07 0 0.33897066 0.54846609
0.018728781 0.046847243 0.07 0 0.33897066 0.54846609
0.017857075 0.04684706 0.07 0 0.33897066 0.54846609
0.017372087 0.040197391 0.059108865 0 0.33897066 0.54846609
0.016113915 0.046846725 0.07 0 0.33897066 0.54846609
0.015572254 0.040525887 0.059647437 0 0.33897066 0.54846609
0.014371064 0.046846423 0.07 0 0.33897066 0.54846609
0.013499745 0.046846285 0.07 0 0.33897066 0.54846609
0.01286697 0.0413296 0.060964521 0 0.33897066 0.54846609
0.011963869 0.041713513 0.061593529 0 0.33897066 0.54846609
0.01088616 0.046845924 0.07 0 0.33897066 0.54846609
0.010015074 0.04684582 0.07 0 0.33897066 0.54846609
0.009144037 0.046845727 0.07 0 0.33897066 0.54846609
0.0082730446 0.046845637 0.07 0 0.33897066 0.54846609
0.0074020908 0.046845563 0.07 0 0.33897066 0.54846609
0.0065311729 0.046845492 0.07 0 0.33897066 0.54846609
0.0056602866 0.046845432 0.07 0 0.33897066 0.54846609
0.0050897258 0.028529016 0.039999999 0 0.33897066 0.54846609
0.0041642878 0.02852897 0.039999999 0 0.33897066 0.54846609
0.0032388698 0.028528934 0.039999999 0 0.33897066 0.54846609
0.0023134674 0.028528906 0.039999999 0 0.33897066 0.54846609
0.001388076 0.028528888 0.039999999 0 0.33897066 0.54846609
0.00046269127 0.028528878 0.039999999 0 0.33897066 0.54846609
0.039347965 0.029622724 0.039999999 0 0.33897066 0.54846609
0.038419545 0.029622229 0.039999999 0 0.33897066 0.54846609
0.035357099 0.047231592 0.068944693 0 0.33897066 0.54846609
0.034405991 0.047873192 0.07 0 0.33897066 0.54846609
0.033532858 0.047872759 0.07 0 0.33897066 0.54846609
0.032659888 0.047872338 0.07 0 0.33897066 0.54846609
0.032190125 0.044180885 0.063933201 0 0.33897066 0.54846609
0.030914417 0.04787153 0.07 0 0.33897066 0.54846609
0.030540958 0.043035414 0.062051754 0 0.33897066 0.54846609
0.029169537 0.047870766 0.07 0 0.33897066 0.54846609
0.028297311 0.047870398 0.07 0 0.33897066 0.54846609
0.028006531 0.041699819 0.059858341 0 0.33897066 0.54846609
0.027149327 0.041335091 0.059259433 0 0.33897066 0.54846609
0.02568143 0.047869369 0.07 0 0.33897066 0.54846609
0.024809722 0.047869049 0.07 0 0.33897066 0.54846609
0.023938132 0.047868736 0.07 0 0.33897066 0.54846609
0.023661833 0.04035731 0.05765444 0 0.33897066 0.54846609
0.022195296 0.047868151 0.07 0 0.33897066 0.54846609
0.02132404 0.047867876 0.07 0 0.33897066 0.54846609
0.020452887 0.047867607 0.07 0 0.33897066 0.54846609
0.020109078 0.040029299 0.057117138 0 0.33897066 0.54846609
0.018710868 0.047867112 0.07 0 0.33897066 0.54846609
0.017839996 0.047866877 0.07 0 0.33897066 0.54846609
0.01696921 0.047866657 0.07 0 0.33897066 0.54846609
0.016098505 0.047866445 0.07 0 0.33897066 0.54846609
0.015227878 0.047866248 0.07 0 0.33897066 0.54846609
0.014357323 0.047866058 0.07 0 0.33897066 0.54846609
0.013804294 0.041013762 0.05873771 0 0.33897066 0.54846609
0.012900175 0.041318413 0.059238717 0 0.33897066 0.54846609
0.011994869 0.041699171 0.0598648 0 0.33897066 0.54846609
0.010875751 0.047865417 0.07 0 0.33897066 0.54846609
0.010005499 0.047865286 0.07 0 0.33897066 0.54846609
0.0091352947 0.047865164 0.07 0 0.33897066 0.54846609
0.0082651349 0.047865052 0.07 0 0.33897066 0.54846609
0.0073950142 0.047864955 0.07 0 0.33897066 0.54846609
0.0065249293 0.047864866 0.07 0 0.33897066 0.54846609
0.0056548752 0.047864787 0.07 0 0.33897066 0.54846609
0.0047848485 0.04786472 0.07 0 0.33897066 0.54846609
0.0041603073 0.029612212 0.039999999 0 0.33897066 0.54846609
0.0032357736 0.029612165 0.039999999 0 0.33897066 0.54846609
0.0023112558 0.02961213 0.039999999 0 0.33897066 0.54846609
0.0013867491 0.029612105 0.039999999 0 0.33897066 0.54846609
0.00046224895 0.029612094 0.039999999 0 0.33897066 0.54846609
0.039310303 0.030706231 0.039999999 0 0.33897066 0.54846609
0.036118157 0.048893567 0.07 0 0.33897066 0.54846609
0.035245527 0.048893012 0.07 0 0.33897066 0.54846609
0.034373071 0.048892472 0.07 0 0.33897066 0.54846609
0.033500776 0.048891943 0.07 0 0.33897066 0.54846609
0.032628644 0.048891429 0.07 0 0.33897066 0.54846609
0.031756669 0.04889093 0.07 0 0.33897066 0.54846609
0.030884847 0.048890442 0.07 0 0.33897066 0.54846609
0.030013172 0.048889969 0.07 0 0.33897066 0.54846609
0.029141642 0.04888951 0.07 0 0.33897066 0.54846609
0.028270252 0.048889063 0.07 0 0.33897066 0.54846609
0.027398996 0.048888631 0.07 0 0.33897066 0.54846609
0.026527874 0.048888214 0.07 0 0.33897066 0.54846609
0.025656877 0.048887808 0.07 0 0.33897066 0.54846609
0.024786005 0.048887417 0.07 0 0.33897066 0.54846609
0.02391525 0.048887037 0.07 0 0.33897066 0.54846609
0.023721157 0.040370367 0.055953164 0 0.33897066 0.54846609
0.022836531 0.040220086 0.055705883 0 0.33897066 0.54846609
0.021947185 0.040123336 0.055546872 0 0.33897066 0.54846609
0.02043334 0.048885658 0.07 0 0.33897066 0.54846609
0.019563118 0.048885349 0.07 0 0.33897066 0.54846609
0.018692989 0.048885051 0.07 0 0.33897066 0.54846609
0.017822949 0.048884768 0.07 0 0.33897066 0.54846609
0.016952997 0.0488845 0.07 0 0.33897066 0.54846609
0.016083125 0.048884243 0.07 0 0.33897066 0.54846609
0.015652589 0.040508203 0.056185048 0 0.33897066 0.54846609
0.014343606 0.04888377 0.07 0 0.33897066 0.54846609
0.013473953 0.048883554 0.07 0 0.33897066 0.54846609
0.01293355 0.041307166 0.057503942 0 0.33897066 0.54846609
0.011734835 0.048883162 0.07 0 0.33897066 0.54846609
0.011119262 0.042104274 0.058819298 0 0.33897066 0.54846609
0.009995942 0.048882823 0.07 0 0.33897066 0.54846609
0.0091265691 0.048882678 0.07 0 0.33897066 0.54846609
0.0084039271 0.043729253 0.061500262 0 0.33897066 0.54846609
0.007387951 0.048882421 0.07 0 0.33897066 0.54846609
0.0066018151 0.04518348 0.063899219 0 0.33897066 0.54846609
0.0056494744 0.048882216 0.07 0 0.33897066 0.54846609
0.004780279 0.048882138 0.07 0 0.33897066 0.54846609
0.0039111059 0.048882071 0.07 0 0.33897066 0.54846609
0.0032326835 0.03069335 0.039999999 0 0.33897066 0.54846609
0.0023090485 0.030693308 0.039999999 0 0.33897066 0.54846609
0.0013854248 0.030693278 0.039999999 0 0.33897066 0.54846609
