# .PCD v0.7 - Point Cloud Data file format
VERSION 0.7
FIELDS x y z vp_x vp_y vp_z
SIZE 4 4 4 4 4 4
TYPE F F F F F F
COUNT 1 1 1 1 1 1
WIDTH 840
HEIGHT 1
VIEWPOINT 0 0 0 1 0 0 0
POINTS 840
DATA ascii
0 0.075058721 0.018651856 -0.54846609 0 -0.33897066
0 0.074028574 0.018648507 -0.54846609 0 -0.33897066
1.110223e-16 0.072998792 0.018645205 -0.54846609 0 -0.33897066
1.110223e-16 0.071969375 0.018641949 -0.54846609 0 -0.33897066
0 0.070940316 0.018638739 -0.54846609 0 -0.33897066
1.110223e-16 0.069911614 0.018635577 -0.54846609 0 -0.33897066
0 0.068883255 0.018632462 -0.54846609 0 -0.33897066
1.110223e-16 0.067855246 0.018629393 -0.54846609 0 -0.33897066
1.110223e-16 0.066827573 0.018626371 -0.54846609 0 -0.33897066
0 0.065800235 0.018623395 -0.54846609 0 -0.33897066
1.110223e-16 0.064773224 0.018620467 -0.54846609 0 -0.33897066
1.110223e-16 0.063746534 0.018617583 -0.54846609 0 -0.33897066
0 0.062720165 0.018614748 -0.54846609 0 -0.33897066
1.110223e-16 0.061694108 0.018611958 -0.54846609 0 -0.33897066
0 0.06066836 0.018609215 -0.54846609 0 -0.33897066
0 0.059642911 0.018606519 -0.54846609 0 -0.33897066
1.110223e-16 0.058617759 0.018603869 -0.54846609 0 -0.33897066
0 0.057592899 0.018601265 -0.54846609 0 -0.33897066
1.110223e-16 0.056568325 0.018598706 -0.54846609 0 -0.33897066
0 0.055544034 0.018596195 -0.54846609 0 -0.33897066
1.110223e-16 0.054520018 0.018593729 -0.54846609 0 -0.33897066
1.110223e-16 0.053496271 0.018591311 -0.54846609 0 -0.33897066
1.110223e-16 0.052472793 0.018588938 -0.54846609 0 -0.33897066
1.110223e-16 0.051449575 0.01858661 -0.54846609 0 -0.33897066
1.110223e-16 0.05042661 0.01858433 -0.54846609 0 -0.33897066
1.110223e-16 0.049403898 0.018582094 -0.54846609 0 -0.33897066
0 0.048381429 0.018579906 -0.54846609 0 -0.33897066
0 0.047359202 0.018577764 -0.54846609 0 -0.33897066
1.110223e-16 0.04633721 0.018575666 -0.54846609 0 -0.33897066
0 0.045315448 0.018573616 -0.54846609 0 -0.33897066
1.110223e-16 0.04429391 0.018571611 -0.54846609 0 -0.33897066
0 0.043272592 0.018569652 -0.54846609 0 -0.33897066
1.110223e-16 0.042251486 0.018567739 -0.54846609 0 -0.33897066
1.110223e-16 0.041230593 0.018565873 -0.54846609 0 -0.33897066
1.110223e-16 0.040209901 0.018564051 -0.54846609 0 -0.33897066
0 0.039189413 0.018562276 -0.54846609 0 -0.33897066
0 0.038169116 0.018560546 -0.54846609 0 -0.33897066
0 0.037149008 0.018558862 -0.54846609 0 -0.33897066
0 0.036129083 0.018557224 -0.54846609 0 -0.33897066
0 0.035109337 0.018555632 -0.54846609 0 -0.33897066
0 0.034089766 0.018554086 -0.54846609 0 -0.33897066
1.110223e-16 0.033070363 0.018552585 -0.54846609 0 -0.33897066
0 0.032051124 0.018551128 -0.54846609 0 -0.33897066
1.110223e-16 0.031032044 0.01854972 -0.54846609 0 -0.33897066
0 0.030013118 0.018548355 -0.54846609 0 -0.33897066
1.110223e-16 0.02899434 0.018547038 -0.54846609 0 -0.33897066
0 0.027975705 0.018545764 -0.54846609 0 -0.33897066
0 0.026957208 0.018544536 -0.54846609 0 -0.33897066
0 0.025938844 0.018543355 -0.54846609 0 -0.33897066
0 0.024920609 0.018542219 -0.54846609 0 -0.33897066
0 0.023902496 0.018541129 -0.54846609 0 -0.33897066
0 0.022884503 0.018540084 -0.54846609 0 -0.33897066
1.110223e-16 0.021866621 0.018539084 -0.54846609 0 -0.33897066
0 0.02084885 0.01853813 -0.54846609 0 -0.33897066
0 0.019831181 0.018537221 -0.54846609 0 -0.33897066
0 0.018813608 0.018536359 -0.54846609 0 -0.33897066
0 0.017796129 0.018535541 -0.54846609 0 -0.33897066
1.110223e-16 0.016778737 0.01853477 -0.54846609 0 -0.33897066
0 0.015761429 0.018534044 -0.54846609 0 -0.33897066
1.110223e-16 0.014744199 0.018533362 -0.54846609 0 -0.33897066
0 0.013727042 0.018532727 -0.54846609 0 -0.33897066
1.110223e-16 0.012709952 0.018532136 -0.54846609 0 -0.33897066
1.110223e-16 0.011692925 0.018531593 -0.54846609 0 -0.33897066
0 0.010675956 0.018531093 -0.54846609 0 -0.33897066
1.110223e-16 0.0096590389 0.018530639 -0.54846609 0 -0.33897066
0 0.0086421706 0.018530229 -0.54846609 0 -0.33897066
0 0.0076253437 0.018529868 -0.54846609 0 -0.33897066
1.110223e-16 0.0066085551 0.018529549 -0.54846609 0 -0.33897066
0 0.0055917995 0.018529277 -0.54846609 0 -0.33897066
1.110223e-16 0.0045750709 0.01852905 -0.54846609 0 -0.33897066
0 0.0035583649 0.018528868 -0.54846609 0 -0.33897066
0 0.0025416769 0.018528732 -0.54846609 0 -0.33897066
1.110223e-16 0.001525001 0.018528642 -0.54846609 0 -0.33897066
1.110223e-16 0.00050833286 0.018528596 -0.54846609 0 -0.33897066
1.110223e-16 0.079105437 0.017443927 -0.54846609 0 -0.33897066
1.110223e-16 0.078074776 0.017440625 -0.54846609 0 -0.33897066
1.110223e-16 0.077044509 0.017437365 -0.54846609 0 -0.33897066
1.110223e-16 0.07601463 0.017434152 -0.54846609 0 -0.33897066
0 0.074985124 0.01743098 -0.54846609 0 -0.33897066
1.110223e-16 0.073955998 0.017427852 -0.54846609 0 -0.33897066
0 0.072927237 0.01742477 -0.54846609 0 -0.33897066
1.110223e-16 0.07189884 0.01742173 -0.54846609 0 -0.33897066
0 0.070870802 0.017418735 -0.54846609 0 -0.33897066
1.110223e-16 0.069843121 0.017415782 -0.54846609 0 -0.33897066
1.110223e-16 0.068815783 0.017412873 -0.54846609 0 -0.33897066
1.110223e-16 0.067788787 0.017410008 -0.54846609 0 -0.33897066
0 0.066762134 0.017407186 -0.54846609 0 -0.33897066
0 0.06573581 0.017404409 -0.54846609 0 -0.33897066
1.110223e-16 0.06470982 0.017401675 -0.54846609 0 -0.33897066
1.110223e-16 0.063684143 0.017398983 -0.54846609 0 -0.33897066
0 0.062658787 0.017396335 -0.54846609 0 -0.33897066
1.110223e-16 0.061633743 0.017393731 -0.54846609 0 -0.33897066
1.110223e-16 0.060609005 0.017391169 -0.54846609 0 -0.33897066
1.110223e-16 0.059584569 0.017388651 -0.54846609 0 -0.33897066
1.110223e-16 0.058560427 0.017386178 -0.54846609 0 -0.33897066
1.110223e-16 0.057536576 0.017383747 -0.54846609 0 -0.33897066
0 0.056513015 0.017381359 -0.54846609 0 -0.33897066
1.110223e-16 0.05548973 0.017379014 -0.54846609 0 -0.33897066
0 0.054466721 0.017376712 -0.54846609 0 -0.33897066
1.110223e-16 0.053443983 0.017374452 -0.54846609 0 -0.33897066
0 0.05242151 0.017372238 -0.54846609 0 -0.33897066
1.110223e-16 0.051399298 0.017370066 -0.54846609 0 -0.33897066
0 0.050377343 0.017367935 -0.54846609 0 -0.33897066
1.110223e-16 0.049355634 0.017365849 -0.54846609 0 -0.33897066
0 0.04833417 0.017363805 -0.54846609 0 -0.33897066
0 0.047312949 0.017361805 -0.54846609 0 -0.33897066
1.110223e-16 0.046291959 0.017359847 -0.54846609 0 -0.33897066
1.110223e-16 0.045271199 0.017357932 -0.54846609 0 -0.33897066
0 0.044250663 0.01735606 -0.54846609 0 -0.33897066
0 0.043230344 0.017354233 -0.54846609 0 -0.33897066
1.110223e-16 0.042210244 0.017352447 -0.54846609 0 -0.33897066
0 0.041190349 0.017350703 -0.54846609 0 -0.33897066
0 0.040170658 0.017349003 -0.54846609 0 -0.33897066
0 0.039151169 0.017347345 -0.54846609 0 -0.33897066
1.110223e-16 0.03813187 0.01734573 -0.54846609 0 -0.33897066
0 0.037112761 0.017344158 -0.54846609 0 -0.33897066
1.110223e-16 0.036093835 0.017342629 -0.54846609 0 -0.33897066
0 0.035075087 0.017341143 -0.54846609 0 -0.33897066
0 0.034056515 0.017339697 -0.54846609 0 -0.33897066
0 0.03303811 0.017338296 -0.54846609 0 -0.33897066
0 0.032019865 0.017336939 -0.54846609 0 -0.33897066
1.110223e-16 0.031001782 0.017335622 -0.54846609 0 -0.33897066
1.110223e-16 0.02998385 0.017334348 -0.54846609 0 -0.33897066
1.110223e-16 0.028966067 0.017333118 -0.54846609 0 -0.33897066
0 0.027948428 0.01733193 -0.54846609 0 -0.33897066
1.110223e-16 0.026930926 0.017330784 -0.54846609 0 -0.33897066
0 0.025913557 0.01732968 -0.54846609 0 -0.33897066
1.110223e-16 0.024896316 0.01732862 -0.54846609 0 -0.33897066
0 0.023879198 0.017327601 -0.54846609 0 -0.33897066
0 0.022862198 0.017326627 -0.54846609 0 -0.33897066
0 0.021845309 0.017325694 -0.54846609 0 -0.33897066
1.110223e-16 0.02082853 0.017324802 -0.54846609 0 -0.33897066
1.110223e-16 0.019811854 0.017323954 -0.54846609 0 -0.33897066
0 0.018795274 0.017323149 -0.54846609 0 -0.33897066
0 0.017778788 0.017322386 -0.54846609 0 -0.33897066
1.110223e-16 0.016762389 0.017321665 -0.54846609 0 -0.33897066
0 0.015746072 0.017320987 -0.54846609 0 -0.33897066
0 0.014729833 0.01732035 -0.54846609 0 -0.33897066
0 0.013713667 0.017319757 -0.54846609 0 -0.33897066
0 0.012697569 0.017319206 -0.54846609 0 -0.33897066
0 0.011681533 0.017318698 -0.54846609 0 -0.33897066
0 0.010665555 0.017318232 -0.54846609 0 -0.33897066
1.110223e-16 0.0096496288 0.017317807 -0.54846609 0 -0.33897066
1.110223e-16 0.0086337514 0.017317425 -0.54846609 0 -0.33897066
1.110223e-16 0.0076179155 0.017317086 -0.54846609 0 -0.33897066
0 0.0066021173 0.01731679 -0.54846609 0 -0.33897066
1.110223e-16 0.0055863522 0.017316537 -0.54846609 0 -0.33897066
1.110223e-16 0.0045706141 0.017316325 -0.54846609 0 -0.33897066
1.110223e-16 0.0035548988 0.017316155 -0.54846609 0 -0.33897066
0 0.0025392009 0.017316028 -0.54846609 0 -0.33897066
0 0.0015235156 0.017315943 -0.54846609 0 -0.33897066
1.110223e-16 0.00050783769 0.0173159 -0.54846609 0 -0.33897066
0 0.079027891 0.016224612 -0.54846609 0 -0.33897066
0 0.077998258 0.016221542 -0.54846609 0 -0.33897066
0 0.076969013 0.016218515 -0.54846609 0 -0.33897066
1.110223e-16 0.075940154 0.016215527 -0.54846609 0 -0.33897066
1.110223e-16 0.074911669 0.016212581 -0.54846609 0 -0.33897066
0 0.073883563 0.016209675 -0.54846609 0 -0.33897066
1.110223e-16 0.072855823 0.01620681 -0.54846609 0 -0.33897066
0 0.071828447 0.016203986 -0.54846609 0 -0.33897066
0 0.070801429 0.016201204 -0.54846609 0 -0.33897066
1.110223e-16 0.069774762 0.01619846 -0.54846609 0 -0.33897066
1.110223e-16 0.068748444 0.016195757 -0.54846609 0 -0.33897066
0 0.06772247 0.016193094 -0.54846609 0 -0.33897066
1.110223e-16 0.06669683 0.016190473 -0.54846609 0 -0.33897066
1.110223e-16 0.065671518 0.016187891 -0.54846609 0 -0.33897066
1.110223e-16 0.064646535 0.016185351 -0.54846609 0 -0.33897066
1.110223e-16 0.063621879 0.016182849 -0.54846609 0 -0.33897066
0 0.062597536 0.01618039 -0.54846609 0 -0.33897066
1.110223e-16 0.061573498 0.016177969 -0.54846609 0 -0.33897066
0 0.06054977 0.01617559 -0.54846609 0 -0.33897066
1.110223e-16 0.059526343 0.016173251 -0.54846609 0 -0.33897066
1.110223e-16 0.058503211 0.016170951 -0.54846609 0 -0.33897066
1.110223e-16 0.057480369 0.016168691 -0.54846609 0 -0.33897066
1.110223e-16 0.056457814 0.016166473 -0.54846609 0 -0.33897066
0 0.055435538 0.016164294 -0.54846609 0 -0.33897066
0 0.054413535 0.016162155 -0.54846609 0 -0.33897066
1.110223e-16 0.053391803 0.016160056 -0.54846609 0 -0.33897066
1.110223e-16 0.052370336 0.016157998 -0.54846609 0 -0.33897066
0 0.051349126 0.016155979 -0.54846609 0 -0.33897066
1.110223e-16 0.050328173 0.016154001 -0.54846609 0 -0.33897066
0 0.049307469 0.016152062 -0.54846609 0 -0.33897066
0 0.048287008 0.016150163 -0.54846609 0 -0.33897066
0 0.047266785 0.016148305 -0.54846609 0 -0.33897066
0 0.046246797 0.016146485 -0.54846609 0 -0.33897066
0 0.04522704 0.016144706 -0.54846609 0 -0.33897066
0 0.044207502 0.016142968 -0.54846609 0 -0.33897066
0 0.043188184 0.016141267 -0.54846609 0 -0.33897066
0 0.042169083 0.016139608 -0.54846609 0 -0.33897066
0 0.041150186 0.016137989 -0.54846609 0 -0.33897066
1.110223e-16 0.040131494 0.016136408 -0.54846609 0 -0.33897066
0 0.039113 0.016134867 -0.54846609 0 -0.33897066
0 0.038094699 0.016133368 -0.54846609 0 -0.33897066
1.110223e-16 0.037076589 0.016131908 -0.54846609 0 -0.33897066
0 0.036058657 0.016130487 -0.54846609 0 -0.33897066
1.110223e-16 0.035040908 0.016129104 -0.54846609 0 -0.33897066
0 0.03402333 0.016127763 -0.54846609 0 -0.33897066
0 0.033005919 0.016126461 -0.54846609 0 -0.33897066
0 0.031988669 0.016125198 -0.54846609 0 -0.33897066
1.110223e-16 0.030971581 0.016123975 -0.54846609 0 -0.33897066
0 0.029954644 0.016122792 -0.54846609 0 -0.33897066
0 0.028937854 0.016121648 -0.54846609 0 -0.33897066
0 0.027921207 0.016120544 -0.54846609 0 -0.33897066
1.110223e-16 0.026904698 0.016119478 -0.54846609 0 -0.33897066
0 0.025888322 0.016118454 -0.54846609 0 -0.33897066
0 0.024872072 0.016117468 -0.54846609 0 -0.33897066
1.110223e-16 0.023855945 0.016116522 -0.54846609 0 -0.33897066
0 0.022839937 0.016115615 -0.54846609 0 -0.33897066
0 0.021824041 0.016114749 -0.54846609 0 -0.33897066
0 0.020808252 0.016113922 -0.54846609 0 -0.33897066
1.110223e-16 0.019792566 0.016113134 -0.54846609 0 -0.33897066
1.110223e-16 0.018776977 0.016112385 -0.54846609 0 -0.33897066
0 0.01776148 0.016111676 -0.54846609 0 -0.33897066
1.110223e-16 0.016746072 0.016111005 -0.54846609 0 -0.33897066
0 0.015730744 0.016110376 -0.54846609 0 -0.33897066
0 0.014715496 0.016109785 -0.54846609 0 -0.33897066
1.110223e-16 0.013700319 0.016109234 -0.54846609 0 -0.33897066
0 0.01268521 0.016108721 -0.54846609 0 -0.33897066
1.110223e-16 0.011670164 0.016108248 -0.54846609 0 -0.33897066
1.110223e-16 0.010655175 0.016107816 -0.54846609 0 -0.33897066
0 0.0096402382 0.016107421 -0.54846609 0 -0.33897066
0 0.008625349 0.016107067 -0.54846609 0 -0.33897066
0 0.0076105022 0.016106753 -0.54846609 0 -0.33897066
1.110223e-16 0.0065956926 0.016106477 -0.54846609 0 -0.33897066
1.110223e-16 0.0055809161 0.01610624 -0.54846609 0 -0.33897066
0 0.0045661665 0.016106043 -0.54846609 0 -0.33897066
0 0.0035514396 0.016105887 -0.54846609 0 -0.33897066
0 0.0025367299 0.016105767 -0.54846609 0 -0.33897066
0 0.001522033 0.016105689 -0.54846609 0 -0.33897066
1.110223e-16 0.0005073435 0.01610565 -0.54846609 0 -0.33897066
1.110223e-16 0.079979509 0.015010637 -0.54846609 0 -0.33897066
0 0.078950502 0.015007763 -0.54846609 0 -0.33897066
0 0.07792189 0.015004927 -0.54846609 0 -0.33897066
1.110223e-16 0.076893672 0.01500213 -0.54846609 0 -0.33897066
0 0.075865828 0.014999369 -0.54846609 0 -0.33897066
1.110223e-16 0.07483837 0.014996647 -0.54846609 0 -0.33897066
1.110223e-16 0.073811278 0.014993962 -0.54846609 0 -0.33897066
1.110223e-16 0.072784558 0.014991314 -0.54846609 0 -0.33897066
1.110223e-16 0.071758196 0.014988704 -0.54846609 0 -0.33897066
0 0.070732199 0.014986131 -0.54846609 0 -0.33897066
1.110223e-16 0.069706544 0.014983596 -0.54846609 0 -0.33897066
1.110223e-16 0.06868124 0.014981099 -0.54846609 0 -0.33897066
1.110223e-16 0.067656279 0.014978639 -0.54846609 0 -0.33897066
1.110223e-16 0.066631652 0.014976216 -0.54846609 0 -0.33897066
0 0.065607354 0.01497383 -0.54846609 0 -0.33897066
1.110223e-16 0.064583384 0.014971483 -0.54846609 0 -0.33897066
0 0.063559733 0.014969172 -0.54846609 0 -0.33897066
1.110223e-16 0.062536404 0.014966899 -0.54846609 0 -0.33897066
1.110223e-16 0.061513375 0.014964662 -0.54846609 0 -0.33897066
1.110223e-16 0.060490657 0.014962463 -0.54846609 0 -0.33897066
0 0.059468236 0.014960301 -0.54846609 0 -0.33897066
1.110223e-16 0.058446113 0.014958176 -0.54846609 0 -0.33897066
1.110223e-16 0.057424277 0.014956089 -0.54846609 0 -0.33897066
1.110223e-16 0.056402724 0.014954038 -0.54846609 0 -0.33897066
1.110223e-16 0.055381455 0.014952024 -0.54846609 0 -0.33897066
0 0.054360457 0.014950048 -0.54846609 0 -0.33897066
1.110223e-16 0.053339727 0.014948108 -0.54846609 0 -0.33897066
0 0.052319262 0.014946206 -0.54846609 0 -0.33897066
0 0.051299054 0.014944341 -0.54846609 0 -0.33897066
0 0.050279103 0.014942512 -0.54846609 0 -0.33897066
0 0.049259398 0.014940721 -0.54846609 0 -0.33897066
0 0.048239939 0.014938966 -0.54846609 0 -0.33897066
0 0.047220718 0.014937248 -0.54846609 0 -0.33897066
1.110223e-16 0.046201728 0.014935567 -0.54846609 0 -0.33897066
0 0.045182969 0.014933923 -0.54846609 0 -0.33897066
1.110223e-16 0.04416443 0.014932316 -0.54846609 0 -0.33897066
0 0.043146111 0.014930746 -0.54846609 0 -0.33897066
1.110223e-16 0.042128004 0.014929212 -0.54846609 0 -0.33897066
0 0.041110106 0.014927715 -0.54846609 0 -0.33897066
1.110223e-16 0.040092409 0.014926255 -0.54846609 0 -0.33897066
1.110223e-16 0.039074913 0.014924832 -0.54846609 0 -0.33897066
0 0.038057607 0.014923445 -0.54846609 0 -0.33897066
0 0.037040487 0.014922095 -0.54846609 0 -0.33897066
1.110223e-16 0.036023553 0.014920782 -0.54846609 0 -0.33897066
1.110223e-16 0.035006795 0.014919505 -0.54846609 0 -0.33897066
0 0.033990212 0.014918265 -0.54846609 0 -0.33897066
0 0.032973792 0.014917062 -0.54846609 0 -0.33897066
0 0.031957537 0.014915896 -0.54846609 0 -0.33897066
0 0.03094144 0.014914765 -0.54846609 0 -0.33897066
1.110223e-16 0.029925494 0.014913672 -0.54846609 0 -0.33897066
1.110223e-16 0.028909696 0.014912615 -0.54846609 0 -0.33897066
1.110223e-16 0.027894041 0.014911595 -0.54846609 0 -0.33897066
1.110223e-16 0.026878521 0.01491061 -0.54846609 0 -0.33897066
0 0.025863135 0.014909663 -0.54846609 0 -0.33897066
1.110223e-16 0.024847876 0.014908752 -0.54846609 0 -0.33897066
0 0.02383274 0.014907879 -0.54846609 0 -0.33897066
1.110223e-16 0.022817722 0.014907041 -0.54846609 0 -0.33897066
1.110223e-16 0.021802815 0.01490624 -0.54846609 0 -0.33897066
0 0.020788014 0.014905475 -0.54846609 0 -0.33897066
0 0.019773318 0.014904747 -0.54846609 0 -0.33897066
1.110223e-16 0.018758716 0.014904055 -0.54846609 0 -0.33897066
1.110223e-16 0.017744208 0.014903399 -0.54846609 0 -0.33897066
1.110223e-16 0.016729787 0.014902781 -0.54846609 0 -0.33897066
1.110223e-16 0.01571545 0.014902198 -0.54846609 0 -0.33897066
0 0.014701188 0.014901652 -0.54846609 0 -0.33897066
0 0.013686999 0.014901143 -0.54846609 0 -0.33897066
1.110223e-16 0.012672877 0.014900669 -0.54846609 0 -0.33897066
1.110223e-16 0.011658818 0.014900233 -0.54846609 0 -0.33897066
1.110223e-16 0.010644816 0.014899832 -0.54846609 0 -0.33897066
0 0.0096308663 0.014899468 -0.54846609 0 -0.33897066
0 0.0086169634 0.014899141 -0.54846609 0 -0.33897066
0 0.0076031038 0.01489885 -0.54846609 0 -0.33897066
1.110223e-16 0.0065892809 0.014898595 -0.54846609 0 -0.33897066
1.110223e-16 0.0055754906 0.014898377 -0.54846609 0 -0.33897066
0 0.0045617279 0.014898195 -0.54846609 0 -0.33897066
0 0.0035479872 0.01489805 -0.54846609 0 -0.33897066
1.110223e-16 0.002534264 0.01489794 -0.54846609 0 -0.33897066
1.110223e-16 0.0015205535 0.014897867 -0.54846609 0 -0.33897066
1.110223e-16 0.00050685031 0.014897831 -0.54846609 0 -0.33897066
0 0.079901256 0.013796007 -0.54846609 0 -0.33897066
1.110223e-16 0.078873269 0.01379337 -0.54846609 0 -0.33897066
0 0.077845685 0.013790766 -0.54846609 0 -0.33897066
0 0.076818481 0.013788196 -0.54846609 0 -0.33897066
1.110223e-16 0.075791657 0.013785662 -0.54846609 0 -0.33897066
0 0.074765213 0.013783162 -0.54846609 0 -0.33897066
1.110223e-16 0.073739141 0.013780696 -0.54846609 0 -0.33897066
0 0.072713435 0.013778266 -0.54846609 0 -0.33897066
0 0.071688093 0.013775869 -0.54846609 0 -0.33897066
0 0.070663102 0.013773507 -0.54846609 0 -0.33897066
0 0.069638468 0.01377118 -0.54846609 0 -0.33897066
0 0.068614177 0.013768886 -0.54846609 0 -0.33897066
0 0.067590222 0.013766628 -0.54846609 0 -0.33897066
0 0.066566609 0.013764403 -0.54846609 0 -0.33897066
0 0.065543324 0.013762213 -0.54846609 0 -0.33897066
0 0.064520359 0.013760057 -0.54846609 0 -0.33897066
1.110223e-16 0.063497715 0.013757935 -0.54846609 0 -0.33897066
1.110223e-16 0.062475391 0.013755848 -0.54846609 0 -0.33897066
0 0.061453372 0.013753794 -0.54846609 0 -0.33897066
1.110223e-16 0.060431659 0.013751775 -0.54846609 0 -0.33897066
0 0.059410248 0.01374979 -0.54846609 0 -0.33897066
1.110223e-16 0.058389127 0.013747839 -0.54846609 0 -0.33897066
1.110223e-16 0.057368293 0.013745922 -0.54846609 0 -0.33897066
0 0.056347746 0.013744039 -0.54846609 0 -0.33897066
1.110223e-16 0.055327479 0.013742191 -0.54846609 0 -0.33897066
0 0.054307483 0.013740376 -0.54846609 0 -0.33897066
1.110223e-16 0.053287756 0.013738595 -0.54846609 0 -0.33897066
0 0.052268293 0.013736849 -0.54846609 0 -0.33897066
1.110223e-16 0.051249087 0.013735135 -0.54846609 0 -0.33897066
1.110223e-16 0.050230134 0.013733457 -0.54846609 0 -0.33897066
1.110223e-16 0.049211428 0.013731811 -0.54846609 0 -0.33897066
0 0.048192967 0.013730201 -0.54846609 0 -0.33897066
1.110223e-16 0.047174741 0.013728623 -0.54846609 0 -0.33897066
0 0.046156749 0.01372708 -0.54846609 0 -0.33897066
1.110223e-16 0.045138985 0.01372557 -0.54846609 0 -0.33897066
0 0.044121444 0.013724094 -0.54846609 0 -0.33897066
1.110223e-16 0.04310412 0.013722653 -0.54846609 0 -0.33897066
1.110223e-16 0.042087007 0.013721244 -0.54846609 0 -0.33897066
0 0.041070104 0.01371987 -0.54846609 0 -0.33897066
1.110223e-16 0.040053401 0.01371853 -0.54846609 0 -0.33897066
1.110223e-16 0.039036896 0.013717223 -0.54846609 0 -0.33897066
1.110223e-16 0.038020585 0.01371595 -0.54846609 0 -0.33897066
0 0.03700446 0.01371471 -0.54846609 0 -0.33897066
1.110223e-16 0.035988517 0.013713504 -0.54846609 0 -0.33897066
1.110223e-16 0.03497275 0.013712332 -0.54846609 0 -0.33897066
1.110223e-16 0.033957157 0.013711194 -0.54846609 0 -0.33897066
1.110223e-16 0.032941733 0.013710088 -0.54846609 0 -0.33897066
0 0.031926468 0.013709017 -0.54846609 0 -0.33897066
0 0.030911358 0.01370798 -0.54846609 0 -0.33897066
0 0.029896403 0.013706976 -0.54846609 0 -0.33897066
0 0.028881595 0.013706005 -0.54846609 0 -0.33897066
1.110223e-16 0.027866928 0.013705068 -0.54846609 0 -0.33897066
0 0.026852399 0.013704165 -0.54846609 0 -0.33897066
1.110223e-16 0.025838001 0.013703295 -0.54846609 0 -0.33897066
0 0.024823731 0.013702459 -0.54846609 0 -0.33897066
1.110223e-16 0.023809582 0.013701656 -0.54846609 0 -0.33897066
1.110223e-16 0.022795549 0.013700887 -0.54846609 0 -0.33897066
0 0.021781629 0.013700151 -0.54846609 0 -0.33897066
0 0.020767817 0.013699449 -0.54846609 0 -0.33897066
0 0.019754106 0.01369878 -0.54846609 0 -0.33897066
1.110223e-16 0.018740492 0.013698145 -0.54846609 0 -0.33897066
1.110223e-16 0.017726971 0.013697543 -0.54846609 0 -0.33897066
0 0.016713537 0.013696975 -0.54846609 0 -0.33897066
0 0.015700184 0.01369644 -0.54846609 0 -0.33897066
0 0.014686909 0.013695939 -0.54846609 0 -0.33897066
1.110223e-16 0.013673705 0.013695471 -0.54846609 0 -0.33897066
1.110223e-16 0.012660569 0.013695037 -0.54846609 0 -0.33897066
0 0.011647495 0.013694636 -0.54846609 0 -0.33897066
0 0.010634477 0.013694269 -0.54846609 0 -0.33897066
1.110223e-16 0.0096215131 0.013693934 -0.54846609 0 -0.33897066
1.110223e-16 0.0086085955 0.013693633 -0.54846609 0 -0.33897066
1.110223e-16 0.0075957198 0.013693366 -0.54846609 0 -0.33897066
0 0.0065828818 0.013693132 -0.54846609 0 -0.33897066
1.110223e-16 0.0055700764 0.013692931 -0.54846609 0 -0.33897066
1.110223e-16 0.0045572976 0.013692765 -0.54846609 0 -0.33897066
1.110223e-16 0.0035445418 0.013692631 -0.54846609 0 -0.33897066
1.110223e-16 0.0025318032 0.013692531 -0.54846609 0 -0.33897066
1.110223e-16 0.0015190769 0.013692464 -0.54846609 0 -0.33897066
1.110223e-16 0.00050635816 0.01369243 -0.54846609 0 -0.33897066
0 0.079823159 0.01258382 -0.54846609 0 -0.33897066
0 0.078796193 0.012581416 -0.54846609 0 -0.33897066
0 0.077769622 0.012579043 -0.54846609 0 -0.33897066
0 0.076743439 0.012576703 -0.54846609 0 -0.33897066
1.110223e-16 0.075717635 0.012574393 -0.54846609 0 -0.33897066
0 0.074692205 0.012572115 -0.54846609 0 -0.33897066
1.110223e-16 0.073667146 0.012569868 -0.54846609 0 -0.33897066
0 0.072642453 0.012567653 -0.54846609 0 -0.33897066
0 0.071618125 0.012565469 -0.54846609 0 -0.33897066
1.110223e-16 0.070594147 0.012563317 -0.54846609 0 -0.33897066
0 0.069570526 0.012561196 -0.54846609 0 -0.33897066
1.110223e-16 0.068547241 0.012559107 -0.54846609 0 -0.33897066
1.110223e-16 0.067524299 0.012557048 -0.54846609 0 -0.33897066
1.110223e-16 0.066501692 0.012555021 -0.54846609 0 -0.33897066
1.110223e-16 0.065479413 0.012553025 -0.54846609 0 -0.33897066
0 0.064457461 0.01255106 -0.54846609 0 -0.33897066
1.110223e-16 0.063435823 0.012549127 -0.54846609 0 -0.33897066
1.110223e-16 0.062414505 0.012547225 -0.54846609 0 -0.33897066
1.110223e-16 0.061393492 0.012545354 -0.54846609 0 -0.33897066
0 0.060372785 0.012543513 -0.54846609 0 -0.33897066
0 0.059352372 0.012541705 -0.54846609 0 -0.33897066
1.110223e-16 0.058332257 0.012539927 -0.54846609 0 -0.33897066
0 0.057312425 0.01253818 -0.54846609 0 -0.33897066
1.110223e-16 0.05629288 0.012536464 -0.54846609 0 -0.33897066
1.110223e-16 0.055273611 0.012534779 -0.54846609 0 -0.33897066
0 0.054254618 0.012533126 -0.54846609 0 -0.33897066
0 0.053235888 0.012531503 -0.54846609 0 -0.33897066
0 0.052217424 0.012529911 -0.54846609 0 -0.33897066
1.110223e-16 0.051199216 0.012528351 -0.54846609 0 -0.33897066
0 0.050181258 0.01252682 -0.54846609 0 -0.33897066
0 0.04916355 0.012525322 -0.54846609 0 -0.33897066
0 0.048146084 0.012523854 -0.54846609 0 -0.33897066
1.110223e-16 0.047128856 0.012522416 -0.54846609 0 -0.33897066
1.110223e-16 0.046111859 0.01252101 -0.54846609 0 -0.33897066
1.110223e-16 0.04509509 0.012519634 -0.54846609 0 -0.33897066
0 0.044078544 0.012518289 -0.54846609 0 -0.33897066
0 0.043062214 0.012516975 -0.54846609 0 -0.33897066
0 0.042046096 0.012515693 -0.54846609 0 -0.33897066
1.110223e-16 0.041030183 0.01251444 -0.54846609 0 -0.33897066
0 0.040014472 0.012513218 -0.54846609 0 -0.33897066
1.110223e-16 0.038998961 0.012512027 -0.54846609 0 -0.33897066
1.110223e-16 0.037983641 0.012510868 -0.54846609 0 -0.33897066
1.110223e-16 0.036968503 0.012509738 -0.54846609 0 -0.33897066
0 0.035953552 0.012508639 -0.54846609 0 -0.33897066
0 0.034938775 0.012507571 -0.54846609 0 -0.33897066
1.110223e-16 0.03392417 0.012506533 -0.54846609 0 -0.33897066
0 0.032909732 0.012505527 -0.54846609 0 -0.33897066
1.110223e-16 0.031895459 0.012504551 -0.54846609 0 -0.33897066
0 0.030881338 0.012503604 -0.54846609 0 -0.33897066
0 0.02986737 0.01250269 -0.54846609 0 -0.33897066
0 0.028853549 0.012501805 -0.54846609 0 -0.33897066
0 0.027839869 0.012500952 -0.54846609 0 -0.33897066
0 0.026826328 0.012500129 -0.54846609 0 -0.33897066
1.110223e-16 0.025812916 0.012499336 -0.54846609 0 -0.33897066
0 0.024799632 0.012498574 -0.54846609 0 -0.33897066
0 0.023786468 0.012497842 -0.54846609 0 -0.33897066
0 0.022773422 0.012497142 -0.54846609 0 -0.33897066
1.110223e-16 0.021760488 0.012496471 -0.54846609 0 -0.33897066
1.110223e-16 0.02074766 0.012495832 -0.54846609 0 -0.33897066
0 0.019734934 0.012495222 -0.54846609 0 -0.33897066
0 0.018722305 0.012494643 -0.54846609 0 -0.33897066
1.110223e-16 0.017709767 0.012494095 -0.54846609 0 -0.33897066
1.110223e-16 0.016697317 0.012493577 -0.54846609 0 -0.33897066
0 0.015684949 0.01249309 -0.54846609 0 -0.33897066
0 0.014672657 0.012492632 -0.54846609 0 -0.33897066
0 0.013660437 0.012492207 -0.54846609 0 -0.33897066
1.110223e-16 0.012648284 0.012491811 -0.54846609 0 -0.33897066
0 0.011636194 0.012491445 -0.54846609 0 -0.33897066
0 0.01062416 0.01249111 -0.54846609 0 -0.33897066
0 0.0096121784 0.012490806 -0.54846609 0 -0.33897066
1.110223e-16 0.0086002434 0.012490531 -0.54846609 0 -0.33897066
1.110223e-16 0.0075883511 0.012490288 -0.54846609 0 -0.33897066
0 0.0065764957 0.012490075 -0.54846609 0 -0.33897066
0 0.0055646724 0.012489893 -0.54846609 0 -0.33897066
1.110223e-16 0.0045528766 0.01248974 -0.54846609 0 -0.33897066
0 0.0035411033 0.012489619 -0.54846609 0 -0.33897066
0 0.0025293471 0.012489527 -0.54846609 0 -0.33897066
1.110223e-16 0.0015176033 0.012489466 -0.54846609 0 -0.33897066
1.110223e-16 0.00050586695 0.012489435 -0.54846609 0 -0.33897066
1.110223e-16 0.079745218 0.011374062 -0.54846609 0 -0.33897066
1.110223e-16 0.078719273 0.011371891 -0.54846609 0 -0.33897066
0 0.077693716 0.011369748 -0.54846609 0 -0.33897066
0 0.076668546 0.011367634 -0.54846609 0 -0.33897066
1.110223e-16 0.075643755 0.011365549 -0.54846609 0 -0.33897066
1.110223e-16 0.074619345 0.011363491 -0.54846609 0 -0.33897066
1.110223e-16 0.0735953 0.011361463 -0.54846609 0 -0.33897066
0 0.07257162 0.011359463 -0.54846609 0 -0.33897066
0 0.071548298 0.011357491 -0.54846609 0 -0.33897066
0 0.070525333 0.011355547 -0.54846609 0 -0.33897066
1.110223e-16 0.069502719 0.011353632 -0.54846609 0 -0.33897066
1.110223e-16 0.068480447 0.011351746 -0.54846609 0 -0.33897066
0 0.06745851 0.011349887 -0.54846609 0 -0.33897066
1.110223e-16 0.066436909 0.011348056 -0.54846609 0 -0.33897066
0 0.065415636 0.011346254 -0.54846609 0 -0.33897066
0 0.06439469 0.011344479 -0.54846609 0 -0.33897066
0 0.063374057 0.011342734 -0.54846609 0 -0.33897066
0 0.062353741 0.011341016 -0.54846609 0 -0.33897066
0 0.061333731 0.011339326 -0.54846609 0 -0.33897066
0 0.060314022 0.011337665 -0.54846609 0 -0.33897066
0 0.059294615 0.011336031 -0.54846609 0 -0.33897066
0 0.058275498 0.011334427 -0.54846609 0 -0.33897066
0 0.057256669 0.011332849 -0.54846609 0 -0.33897066
0 0.056238122 0.011331299 -0.54846609 0 -0.33897066
0 0.055219851 0.011329778 -0.54846609 0 -0.33897066
0 0.054201856 0.011328286 -0.54846609 0 -0.33897066
1.110223e-16 0.053184126 0.01132682 -0.54846609 0 -0.33897066
0 0.052166656 0.011325383 -0.54846609 0 -0.33897066
1.110223e-16 0.051149443 0.011323974 -0.54846609 0 -0.33897066
1.110223e-16 0.050132483 0.011322591 -0.54846609 0 -0.33897066
0 0.04911577 0.011321238 -0.54846609 0 -0.33897066
1.110223e-16 0.048099298 0.011319913 -0.54846609 0 -0.33897066
0 0.047083065 0.011318615 -0.54846609 0 -0.33897066
1.110223e-16 0.046067063 0.011317344 -0.54846609 0 -0.33897066
1.110223e-16 0.045051284 0.011316103 -0.54846609 0 -0.33897066
0 0.044035729 0.011314888 -0.54846609 0 -0.33897066
0 0.04302039 0.011313702 -0.54846609 0 -0.33897066
0 0.042005263 0.011312543 -0.54846609 0 -0.33897066
0 0.040990341 0.011311412 -0.54846609 0 -0.33897066
0 0.039975621 0.011310309 -0.54846609 0 -0.33897066
0 0.038961098 0.011309233 -0.54846609 0 -0.33897066
0 0.037946768 0.011308186 -0.54846609 0 -0.33897066
1.110223e-16 0.036932621 0.011307166 -0.54846609 0 -0.33897066
0 0.035918657 0.011306174 -0.54846609 0 -0.33897066
0 0.034904867 0.011305209 -0.54846609 0 -0.33897066
0 0.033891249 0.011304272 -0.54846609 0 -0.33897066
0 0.032877799 0.011303363 -0.54846609 0 -0.33897066
1.110223e-16 0.031864509 0.011302481 -0.54846609 0 -0.33897066
1.110223e-16 0.030851377 0.011301628 -0.54846609 0 -0.33897066
1.110223e-16 0.029838396 0.011300802 -0.54846609 0 -0.33897066
1.110223e-16 0.028825561 0.011300003 -0.54846609 0 -0.33897066
1.110223e-16 0.027812866 0.011299232 -0.54846609 0 -0.33897066
0 0.026800308 0.011298489 -0.54846609 0 -0.33897066
0 0.025787881 0.011297774 -0.54846609 0 -0.33897066
0 0.024775581 0.011297085 -0.54846609 0 -0.33897066
0 0.023763401 0.011296425 -0.54846609 0 -0.33897066
0 0.022751339 0.011295792 -0.54846609 0 -0.33897066
0 0.021739388 0.011295186 -0.54846609 0 -0.33897066
1.110223e-16 0.020727543 0.011294609 -0.54846609 0 -0.33897066
1.110223e-16 0.019715801 0.011294059 -0.54846609 0 -0.33897066
0 0.018704154 0.011293536 -0.54846609 0 -0.33897066
0 0.017692599 0.011293041 -0.54846609 0 -0.33897066
1.110223e-16 0.016681131 0.011292573 -0.54846609 0 -0.33897066
0 0.015669744 0.011292133 -0.54846609 0 -0.33897066
0 0.014658434 0.01129172 -0.54846609 0 -0.33897066
1.110223e-16 0.013647196 0.011291335 -0.54846609 0 -0.33897066
0 0.012636025 0.011290978 -0.54846609 0 -0.33897066
1.110223e-16 0.011624916 0.011290648 -0.54846609 0 -0.33897066
1.110223e-16 0.010613862 0.011290345 -0.54846609 0 -0.33897066
0 0.0096028624 0.011290071 -0.54846609 0 -0.33897066
1.110223e-16 0.008591908 0.011289823 -0.54846609 0 -0.33897066
0 0.0075809965 0.011289603 -0.54846609 0 -0.33897066
0 0.0065701222 0.01128941 -0.54846609 0 -0.33897066
1.110223e-16 0.0055592796 0.011289245 -0.54846609 0 -0.33897066
0 0.0045484644 0.011289109 -0.54846609 0 -0.33897066
0 0.0035376716 0.011288999 -0.54846609 0 -0.33897066
1.110223e-16 0.0025268958 0.011288916 -0.54846609 0 -0.33897066
1.110223e-16 0.0015161326 0.011288861 -0.54846609 0 -0.33897066
0 0.00050537672 0.011288834 -0.54846609 0 -0.33897066
0 0.079667434 0.010166719 -0.54846609 0 -0.33897066
0 0.078642502 0.01016478 -0.54846609 0 -0.33897066
0 0.077617966 0.010162867 -0.54846609 0 -0.33897066
0 0.076593809 0.010160979 -0.54846609 0 -0.33897066
0 0.075570032 0.010159116 -0.54846609 0 -0.33897066
0 0.074546628 0.01015728 -0.54846609 0 -0.33897066
1.110223e-16 0.073523596 0.010155468 -0.54846609 0 -0.33897066
0 0.072500922 0.010153682 -0.54846609 0 -0.33897066
0 0.071478613 0.010151921 -0.54846609 0 -0.33897066
0 0.070456654 0.010150186 -0.54846609 0 -0.33897066
0 0.069435045 0.010148475 -0.54846609 0 -0.33897066
0 0.068413779 0.01014679 -0.54846609 0 -0.33897066
1.110223e-16 0.067392848 0.010145131 -0.54846609 0 -0.33897066
1.110223e-16 0.066372253 0.010143496 -0.54846609 0 -0.33897066
1.110223e-16 0.065351985 0.010141887 -0.54846609 0 -0.33897066
0 0.064332038 0.010140303 -0.54846609 0 -0.33897066
1.110223e-16 0.063312411 0.010138744 -0.54846609 0 -0.33897066
0 0.062293097 0.01013721 -0.54846609 0 -0.33897066
0 0.061274089 0.0101357 -0.54846609 0 -0.33897066
0 0.060255382 0.010134216 -0.54846609 0 -0.33897066
0 0.05923697 0.010132758 -0.54846609 0 -0.33897066
1.110223e-16 0.058218852 0.010131325 -0.54846609 0 -0.33897066
0 0.05720102 0.010129916 -0.54846609 0 -0.33897066
1.110223e-16 0.056183472 0.010128533 -0.54846609 0 -0.33897066
0 0.0551662 0.010127175 -0.54846609 0 -0.33897066
0 0.054149199 0.010125841 -0.54846609 0 -0.33897066
0 0.053132463 0.010124533 -0.54846609 0 -0.33897066
0 0.052115988 0.010123249 -0.54846609 0 -0.33897066
0 0.051099773 0.01012199 -0.54846609 0 -0.33897066
0 0.050083805 0.010120757 -0.54846609 0 -0.33897066
0 0.049068086 0.010119548 -0.54846609 0 -0.33897066
0 0.048052605 0.010118364 -0.54846609 0 -0.33897066
0 0.047037363 0.010117205 -0.54846609 0 -0.33897066
0 0.046022352 0.010116071 -0.54846609 0 -0.33897066
0 0.045007564 0.010114962 -0.54846609 0 -0.33897066
0 0.043993 0.010113877 -0.54846609 0 -0.33897066
1.110223e-16 0.042978652 0.010112818 -0.54846609 0 -0.33897066
0 0.041964512 0.010111784 -0.54846609 0 -0.33897066
1.110223e-16 0.040950578 0.010110773 -0.54846609 0 -0.33897066
0 0.039936848 0.010109788 -0.54846609 0 -0.33897066
0 0.038923312 0.010108828 -0.54846609 0 -0.33897066
0 0.037909966 0.010107893 -0.54846609 0 -0.33897066
0 0.036896806 0.010106982 -0.54846609 0 -0.33897066
0 0.035883829 0.010106095 -0.54846609 0 -0.33897066
1.110223e-16 0.034871027 0.010105235 -0.54846609 0 -0.33897066
0 0.033858396 0.010104397 -0.54846609 0 -0.33897066
1.110223e-16 0.032845929 0.010103586 -0.54846609 0 -0.33897066
0 0.031833626 0.010102798 -0.54846609 0 -0.33897066
1.110223e-16 0.030821476 0.010102036 -0.54846609 0 -0.33897066
0 0.029809479 0.010101298 -0.54846609 0 -0.33897066
0 0.028797626 0.010100585 -0.54846609 0 -0.33897066
0 0.027785916 0.010099897 -0.54846609 0 -0.33897066
0 0.026774339 0.010099233 -0.54846609 0 -0.33897066
0 0.025762895 0.010098594 -0.54846609 0 -0.33897066
0 0.024751578 0.01009798 -0.54846609 0 -0.33897066
1.110223e-16 0.023740381 0.01009739 -0.54846609 0 -0.33897066
1.110223e-16 0.0227293 0.010096825 -0.54846609 0 -0.33897066
0 0.021718331 0.010096284 -0.54846609 0 -0.33897066
0 0.020707468 0.010095768 -0.54846609 0 -0.33897066
0 0.019696705 0.010095277 -0.54846609 0 -0.33897066
0 0.018686039 0.010094809 -0.54846609 0 -0.33897066
0 0.017675465 0.010094368 -0.54846609 0 -0.33897066
1.110223e-16 0.016664976 0.01009395 -0.54846609 0 -0.33897066
0 0.015654569 0.010093557 -0.54846609 0 -0.33897066
1.110223e-16 0.01464424 0.010093189 -0.54846609 0 -0.33897066
0 0.013633981 0.010092845 -0.54846609 0 -0.33897066
1.110223e-16 0.01262379 0.010092526 -0.54846609 0 -0.33897066
0 0.01161366 0.010092231 -0.54846609 0 -0.33897066
0 0.010603586 0.01009196 -0.54846609 0 -0.33897066
1.110223e-16 0.0095935641 0.010091715 -0.54846609 0 -0.33897066
1.110223e-16 0.0085835895 0.010091495 -0.54846609 0 -0.33897066
1.110223e-16 0.0075736572 0.010091298 -0.54846609 0 -0.33897066
0 0.0065637613 0.010091126 -0.54846609 0 -0.33897066
0 0.0055538975 0.010090979 -0.54846609 0 -0.33897066
0 0.0045440611 0.010090856 -0.54846609 0 -0.33897066
0 0.0035342467 0.010090758 -0.54846609 0 -0.33897066
0 0.0025244495 0.010090685 -0.54846609 0 -0.33897066
0 0.0015146649 0.010090635 -0.54846609 0 -0.33897066
1.110223e-16 0.00050488743 0.010090611 -0.54846609 0 -0.33897066
0 0.079589806 0.0089617772 -0.54846609 0 -0.33897066
1.110223e-16 0.078565888 0.0089600701 -0.54846609 0 -0.33897066
0 0.077542357 0.0089583853 -0.54846609 0 -0.33897066
0 0.076519214 0.0089567229 -0.54846609 0 -0.33897066
0 0.07549645 0.0089550829 -0.54846609 0 -0.33897066
1.110223e-16 0.074474052 0.0089534651 -0.54846609 0 -0.33897066
1.110223e-16 0.073452026 0.0089518698 -0.54846609 0 -0.33897066
0 0.072430365 0.0089502968 -0.54846609 0 -0.33897066
1.110223e-16 0.071409062 0.0089487461 -0.54846609 0 -0.33897066
0 0.070388108 0.0089472178 -0.54846609 0 -0.33897066
0 0.069367506 0.0089457119 -0.54846609 0 -0.33897066
1.110223e-16 0.068347245 0.0089442283 -0.54846609 0 -0.33897066
1.110223e-16 0.067327321 0.0089427661 -0.54846609 0 -0.33897066
1.110223e-16 0.066307724 0.0089413272 -0.54846609 0 -0.33897066
1.110223e-16 0.065288462 0.0089399097 -0.54846609 0 -0.33897066
0 0.064269513 0.0089385146 -0.54846609 0 -0.33897066
1.110223e-16 0.063250892 0.0089371419 -0.54846609 0 -0.33897066
1.110223e-16 0.062232573 0.0089357905 -0.54846609 0 -0.33897066
0 0.061214563 0.0089344624 -0.54846609 0 -0.33897066
0 0.060196854 0.0089331558 -0.54846609 0 -0.33897066
0 0.059179444 0.0089318715 -0.54846609 0 -0.33897066
0 0.05816232 0.0089306086 -0.54846609 0 -0.33897066
0 0.057145488 0.0089293681 -0.54846609 0 -0.33897066
1.110223e-16 0.05612893 0.0089281499 -0.54846609 0 -0.33897066
1.110223e-16 0.055112652 0.0089269541 -0.54846609 0 -0.33897066
0 0.054096647 0.0089257797 -0.54846609 0 -0.33897066
0 0.053080905 0.0089246267 -0.54846609 0 -0.33897066
0 0.052065425 0.0089234971 -0.54846609 0 -0.33897066
1.110223e-16 0.051050197 0.0089223888 -0.54846609 0 -0.33897066
0 0.050035223 0.0089213019 -0.54846609 0 -0.33897066
1.110223e-16 0.049020495 0.0089202374 -0.54846609 0 -0.33897066
0 0.048006006 0.0089191953 -0.54846609 0 -0.33897066
0 0.046991751 0.0089181745 -0.54846609 0 -0.33897066
0 0.04597773 0.0089171762 -0.54846609 0 -0.33897066
0 0.04496393 0.0089161992 -0.54846609 0 -0.33897066
0 0.043950353 0.0089152446 -0.54846609 0 -0.33897066
0 0.042936992 0.0089143114 -0.54846609 0 -0.33897066
0 0.041923843 0.0089133997 -0.54846609 0 -0.33897066
1.110223e-16 0.040910896 0.0089125102 -0.54846609 0 -0.33897066
0 0.03989815 0.0089116432 -0.54846609 0 -0.33897066
1.110223e-16 0.038885601 0.0089107975 -0.54846609 0 -0.33897066
0 0.037873242 0.0089099733 -0.54846609 0 -0.33897066
1.110223e-16 0.036861066 0.0089091714 -0.54846609 0 -0.33897066
1.110223e-16 0.035849072 0.008908391 -0.54846609 0 -0.33897066
0 0.034837253 0.0089076329 -0.54846609 0 -0.33897066
1.110223e-16 0.033825606 0.0089068962 -0.54846609 0 -0.33897066
0 0.032814123 0.008906181 -0.54846609 0 -0.33897066
0 0.0318028 0.0089054881 -0.54846609 0 -0.33897066
0 0.030791635 0.0089048166 -0.54846609 0 -0.33897066
0 0.029780619 0.0089041665 -0.54846609 0 -0.33897066
0 0.028769748 0.0089035388 -0.54846609 0 -0.33897066
0 0.027759017 0.0089029325 -0.54846609 0 -0.33897066
1.110223e-16 0.026748424 0.0089023476 -0.54846609 0 -0.33897066
0 0.02573796 0.0089017851 -0.54846609 0 -0.33897066
1.110223e-16 0.024727622 0.008901244 -0.54846609 0 -0.33897066
0 0.023717405 0.0089007244 -0.54846609 0 -0.33897066
1.110223e-16 0.022707304 0.008900227 -0.54846609 0 -0.33897066
0 0.021697314 0.0088997502 -0.54846609 0 -0.33897066
1.110223e-16 0.020687429 0.0088992966 -0.54846609 0 -0.33897066
0 0.019677646 0.0088988636 -0.54846609 0 -0.33897066
0 0.018667961 0.0088984529 -0.54846609 0 -0.33897066
1.110223e-16 0.017658364 0.0088980636 -0.54846609 0 -0.33897066
0 0.016648853 0.0088976957 -0.54846609 0 -0.33897066
0 0.015639426 0.0088973492 -0.54846609 0 -0.33897066
0 0.014630074 0.0088970251 -0.54846609 0 -0.33897066
1.110223e-16 0.013620793 0.0088967225 -0.54846609 0 -0.33897066
0 0.012611578 0.0088964412 -0.54846609 0 -0.33897066
0 0.011602426 0.0088961814 -0.54846609 0 -0.33897066
0 0.01059333 0.0088959439 -0.54846609 0 -0.33897066
0 0.0095842853 0.0088957278 -0.54846609 0 -0.33897066
0 0.0085752876 0.0088955332 -0.54846609 0 -0.33897066
0 0.0075663319 0.0088953599 -0.54846609 0 -0.33897066
0 0.0065574129 0.0088952091 -0.54846609 0 -0.33897066
0 0.0055485261 0.0088950787 -0.54846609 0 -0.33897066
1.110223e-16 0.0045396662 0.0088949706 -0.54846609 0 -0.33897066
0 0.0035308285 0.008894884 -0.54846609 0 -0.33897066
0 0.002522008 0.0088948198 -0.54846609 0 -0.33897066
0 0.0015131999 0.008894776 -0.54846609 0 -0.33897066
0 0.00050439913 0.0088947546 -0.54846609 0 -0.33897066
0 0.079512328 0.0077592256 -0.54846609 0 -0.33897066
0 0.078489423 0.0077577489 -0.54846609 0 -0.33897066
0 0.077466905 0.0077562919 -0.54846609 0 -0.33897066
0 0.076444767 0.0077548539 -0.54846609 0 -0.33897066
0 0.07542301 0.0077534355 -0.54846609 0 -0.33897066
0 0.074401625 0.0077520362 -0.54846609 0 -0.33897066
0 0.073380604 0.0077506565 -0.54846609 0 -0.33897066
0 0.072359949 0.0077492958 -0.54846609 0 -0.33897066
1.110223e-16 0.071339652 0.0077479542 -0.54846609 0 -0.33897066
1.110223e-16 0.070319705 0.0077466322 -0.54846609 0 -0.33897066
0 0.0693001 0.0077453298 -0.54846609 0 -0.33897066
0 0.068280846 0.0077440459 -0.54846609 0 -0.33897066
0 0.067261919 0.0077427817 -0.54846609 0 -0.33897066
1.110223e-16 0.066243328 0.0077415369 -0.54846609 0 -0.33897066
1.110223e-16 0.065225065 0.0077403109 -0.54846609 0 -0.33897066
1.110223e-16 0.064207114 0.0077391043 -0.54846609 0 -0.33897066
1.110223e-16 0.063189484 0.0077379164 -0.54846609 0 -0.33897066
0 0.062172171 0.0077367481 -0.54846609 0 -0.33897066
1.110223e-16 0.061155155 0.0077355988 -0.54846609 0 -0.33897066
0 0.060138445 0.0077344687 -0.54846609 0 -0.33897066
0 0.059122026 0.0077333576 -0.54846609 0 -0.33897066
1.110223e-16 0.058105901 0.0077322656 -0.54846609 0 -0.33897066
1.110223e-16 0.057090059 0.0077311927 -0.54846609 0 -0.33897066
0 0.0560745 0.007730139 -0.54846609 0 -0.33897066
0 0.055059213 0.0077291043 -0.54846609 0 -0.33897066
1.110223e-16 0.054044198 0.0077280886 -0.54846609 0 -0.33897066
0 0.053029448 0.0077270917 -0.54846609 0 -0.33897066
0 0.052014958 0.0077261142 -0.54846609 0 -0.33897066
0 0.051000722 0.0077251554 -0.54846609 0 -0.33897066
1.110223e-16 0.049986735 0.0077242157 -0.54846609 0 -0.33897066
1.110223e-16 0.048972998 0.0077232951 -0.54846609 0 -0.33897066
0 0.047959495 0.0077223931 -0.54846609 0 -0.33897066
0 0.046946231 0.0077215107 -0.54846609 0 -0.33897066
0 0.045933194 0.0077206464 -0.54846609 0 -0.33897066
0 0.044920385 0.0077198017 -0.54846609 0 -0.33897066
0 0.043907795 0.0077189757 -0.54846609 0 -0.33897066
0 0.042895418 0.0077181687 -0.54846609 0 -0.33897066
0 0.041883253 0.0077173808 -0.54846609 0 -0.33897066
1.110223e-16 0.040871289 0.0077166115 -0.54846609 0 -0.33897066
1.110223e-16 0.03985953 0.0077158608 -0.54846609 0 -0.33897066
0 0.038847964 0.0077151293 -0.54846609 0 -0.33897066
0 0.037836585 0.0077144168 -0.54846609 0 -0.33897066
0 0.036825396 0.007713723 -0.54846609 0 -0.33897066
0 0.035814382 0.0077130483 -0.54846609 0 -0.33897066
0 0.034803547 0.0077123921 -0.54846609 0 -0.33897066
1.110223e-16 0.033792879 0.0077117546 -0.54846609 0 -0.33897066
1.110223e-16 0.03278238 0.0077111362 -0.54846609 0 -0.33897066
0 0.031772036 0.0077105365 -0.54846609 0 -0.33897066
0 0.030761851 0.0077099558 -0.54846609 0 -0.33897066
0 0.029751815 0.0077093937 -0.54846609 0 -0.33897066
0 0.028741924 0.0077088508 -0.54846609 0 -0.33897066
1.110223e-16 0.027732173 0.0077083264 -0.54846609 0 -0.33897066
0 0.026722558 0.0077078207 -0.54846609 0 -0.33897066
0 0.025713073 0.0077073337 -0.54846609 0 -0.33897066
0 0.024703713 0.0077068657 -0.54846609 0 -0.33897066
1.110223e-16 0.023694474 0.0077064163 -0.54846609 0 -0.33897066
1.110223e-16 0.022685353 0.007705986 -0.54846609 0 -0.33897066
1.110223e-16 0.021676339 0.0077055744 -0.54846609 0 -0.33897066
1.110223e-16 0.020667432 0.0077051809 -0.54846609 0 -0.33897066
1.110223e-16 0.019658627 0.007704807 -0.54846609 0 -0.33897066
0 0.018649915 0.0077044512 -0.54846609 0 -0.33897066
0 0.017641297 0.0077041145 -0.54846609 0 -0.33897066
1.110223e-16 0.016632764 0.0077037965 -0.54846609 0 -0.33897066
0 0.015624311 0.0077034971 -0.54846609 0 -0.33897066
1.110223e-16 0.014615934 0.0077032163 -0.54846609 0 -0.33897066
0 0.01360763 0.0077029546 -0.54846609 0 -0.33897066
1.110223e-16 0.012599391 0.0077027115 -0.54846609 0 -0.33897066
1.110223e-16 0.011591214 0.0077024871 -0.54846609 0 -0.33897066
0 0.010583093 0.0077022812 -0.54846609 0 -0.33897066
0 0.0095750242 0.007702094 -0.54846609 0 -0.33897066
1.110223e-16 0.0085670017 0.0077019259 -0.54846609 0 -0.33897066
0 0.007559021 0.0077017765 -0.54846609 0 -0.33897066
1.110223e-16 0.0065510771 0.0077016456 -0.54846609 0 -0.33897066
0 0.0055431649 0.0077015334 -0.54846609 0 -0.33897066
1.110223e-16 0.0045352802 0.0077014398 -0.54846609 0 -0.33897066
1.110223e-16 0.0035274171 0.0077013648 -0.54846609 0 -0.33897066
1.110223e-16 0.0025195715 0.0077013089 -0.54846609 0 -0.33897066
0 0.0015117379 0.0077012712 -0.54846609 0 -0.33897066
0 0.00050391181 0.0077012526 -0.54846609 0 -0.33897066
0 0.079435006 0.0065590506 -0.54846609 0 -0.33897066
0 0.078413114 0.0065578036 -0.54846609 0 -0.33897066
0 0.077391602 0.0065565729 -0.54846609 0 -0.33897066
0 0.07637047 0.0065553589 -0.54846609 0 -0.33897066
1.110223e-16 0.075349718 0.0065541607 -0.54846609 0 -0.33897066
1.110223e-16 0.074329339 0.0065529789 -0.54846609 0 -0.33897066
0 0.073309325 0.0065518138 -0.54846609 0 -0.33897066
0 0.072289675 0.006550665 -0.54846609 0 -0.33897066
0 0.071270376 0.0065495321 -0.54846609 0 -0.33897066
1.110223e-16 0.070251435 0.0065484154 -0.54846609 0 -0.33897066
0 0.069232829 0.0065473155 -0.54846609 0 -0.33897066
0 0.068214573 0.0065462315 -0.54846609 0 -0.33897066
0 0.067196652 0.0065451637 -0.54846609 0 -0.33897066
1.110223e-16 0.066179052 0.0065441122 -0.54846609 0 -0.33897066
0 0.065161787 0.0065430771 -0.54846609 0 -0.33897066
1.110223e-16 0.064144842 0.0065420582 -0.54846609 0 -0.33897066
0 0.063128203 0.0065410552 -0.54846609 0 -0.33897066
1.110223e-16 0.062111884 0.0065400684 -0.54846609 0 -0.33897066
0 0.061095867 0.006539098 -0.54846609 0 -0.33897066
1.110223e-16 0.060080148 0.0065381434 -0.54846609 0 -0.33897066
0 0.059064724 0.0065372051 -0.54846609 0 -0.33897066
1.110223e-16 0.058049593 0.0065362831 -0.54846609 0 -0.33897066
0 0.057034742 0.0065353769 -0.54846609 0 -0.33897066
0 0.056020174 0.006534487 -0.54846609 0 -0.33897066
0 0.055005878 0.006533613 -0.54846609 0 -0.33897066
0 0.053991854 0.0065327552 -0.54846609 0 -0.33897066
0 0.052978091 0.0065319133 -0.54846609 0 -0.33897066
0 0.051964592 0.0065310877 -0.54846609 0 -0.33897066
1.110223e-16 0.050951343 0.0065302784 -0.54846609 0 -0.33897066
1.110223e-16 0.049938347 0.0065294849 -0.54846609 0 -0.33897066
0 0.048925593 0.0065287072 -0.54846609 0 -0.33897066
0 0.047913078 0.0065279454 -0.54846609 0 -0.33897066
0 0.046900798 0.0065271999 -0.54846609 0 -0.33897066
1.110223e-16 0.045888748 0.0065264706 -0.54846609 0 -0.33897066
1.110223e-16 0.044876922 0.0065257568 -0.54846609 0 -0.33897066
0 0.043865316 0.0065250592 -0.54846609 0 -0.33897066
1.110223e-16 0.042853925 0.006524378 -0.54846609 0 -0.33897066
0 0.04184274 0.0065237121 -0.54846609 0 -0.33897066
0 0.040831763 0.0065230625 -0.54846609 0 -0.33897066
0 0.039820984 0.0065224287 -0.54846609 0 -0.33897066
1.110223e-16 0.038810398 0.0065218112 -0.54846609 0 -0.33897066
0 0.037800003 0.0065212091 -0.54846609 0 -0.33897066
0 0.036789794 0.0065206233 -0.54846609 0 -0.33897066
1.110223e-16 0.035779763 0.0065200534 -0.54846609 0 -0.33897066
1.110223e-16 0.034769904 0.0065194992 -0.54846609 0 -0.33897066
1.110223e-16 0.03376022 0.0065189609 -0.54846609 0 -0.33897066
1.110223e-16 0.032750696 0.0065184389 -0.54846609 0 -0.33897066
1.110223e-16 0.031741332 0.0065179323 -0.54846609 0 -0.33897066
1.110223e-16 0.030732125 0.0065174419 -0.54846609 0 -0.33897066
1.110223e-16 0.029723069 0.0065169674 -0.54846609 0 -0.33897066
0 0.028714156 0.0065165088 -0.54846609 0 -0.33897066
1.110223e-16 0.027705383 0.0065160659 -0.54846609 0 -0.33897066
0 0.026696743 0.0065156389 -0.54846609 0 -0.33897066
1.110223e-16 0.025688235 0.0065152277 -0.54846609 0 -0.33897066
1.110223e-16 0.024679853 0.0065148324 -0.54846609 0 -0.33897066
1.110223e-16 0.02367159 0.0065144529 -0.54846609 0 -0.33897066
1.110223e-16 0.022663442 0.0065140892 -0.54846609 0 -0.33897066
