# .PCD v0.7 - Point Cloud Data file format
VERSION 0.7
FIELDS x y z vp_x vp_y vp_z
SIZE 4 4 4 4 4 4
TYPE F F F F F F
COUNT 1 1 1 1 1 1
WIDTH 671
HEIGHT 1
VIEWPOINT 0 0 0 1 0 0 0
POINTS 671
DATA ascii
0.0060743717 0.074316911 0.060039181 -0.19972187 0.52287865 -0.32315677
0.0053467047 0.073596962 0.060351901 -0.19972187 0.52287865 -0.32315677
0.0046584634 0.072786711 0.060741454 -0.19972187 0.52287865 -0.32315677
0.0039777244 0.071955398 0.061148636 -0.19972187 0.52287865 -0.32315677
0.0033423933 0.071018361 0.061645519 -0.19972187 0.52287865 -0.32315677
0.0027211928 0.070043884 0.062173769 -0.19972187 0.52287865 -0.32315677
0.0021461844 0.068959311 0.06279511 -0.19972187 0.52287865 -0.32315677
0.0016058746 0.067788862 0.063488737 -0.19972187 0.52287865 -0.32315677
0.0011026378 0.066525795 0.0642602 -0.19972187 0.52287865 -0.32315677
0.00068081333 0.065067351 0.065196492 -0.19972187 0.52287865 -0.32315677
0.00032692126 0.063441373 0.066273637 -0.19972187 0.52287865 -0.32315677
8.3832449e-05 0.06154621 0.067577392 -0.19972187 0.52287865 -0.32315677
4.5583423e-05 0.059159257 0.069295637 -0.19972187 0.52287865 -0.32315677
0.034349658 0.073915251 0.067244403 -0.19972187 0.52287865 -0.32315677
0.032297287 0.075737648 0.065338977 -0.19972187 0.52287865 -0.32315677
0.030573644 0.076944917 0.063971035 -0.19972187 0.52287865 -0.32315677
0.029023847 0.077829517 0.062885575 -0.19972187 0.52287865 -0.32315677
0.027594715 0.078490712 0.061995849 -0.19972187 0.52287865 -0.32315677
0.02626751 0.078962043 0.061272331 -0.19972187 0.52287865 -0.32315677
0.024986267 0.079351194 0.060621437 -0.19972187 0.52287865 -0.32315677
0.023770187 0.079618841 0.060076974 -0.19972187 0.52287865 -0.32315677
0.022597851 0.079805881 0.059603367 -0.19972187 0.52287865 -0.32315677
0.021459993 0.079929665 0.059185445 -0.19972187 0.52287865 -0.32315677
0.020360403 0.07998161 0.058830488 -0.19972187 0.52287865 -0.32315677
0.019289127 0.079980768 0.058521915 -0.19972187 0.52287865 -0.32315677
0.018259536 0.079899155 0.058283702 -0.19972187 0.52287865 -0.32315677
0.01724554 0.079788841 0.058070887 -0.19972187 0.52287865 -0.32315677
0.016258905 0.079625241 0.057904538 -0.19972187 0.52287865 -0.32315677
0.015296751 0.079413481 0.057780143 -0.19972187 0.52287865 -0.32315677
0.014350628 0.079170331 0.057683196 -0.19972187 0.52287865 -0.32315677
0.013436396 0.078862272 0.057642382 -0.19972187 0.52287865 -0.32315677
0.01252619 0.078546651 0.057608426 -0.19972187 0.52287865 -0.32315677
0.011657385 0.078144692 0.057648752 -0.19972187 0.52287865 -0.32315677
0.010788541 0.077742718 0.057689335 -0.19972187 0.52287865 -0.32315677
0.0099559547 0.077263571 0.057796132 -0.19972187 0.52287865 -0.32315677
0.0091309939 0.076767229 0.057917751 -0.19972187 0.52287865 -0.32315677
0.0083313016 0.076215535 0.058086723 -0.19972187 0.52287865 -0.32315677
0.0075503085 0.075621814 0.058291573 -0.19972187 0.52287865 -0.32315677
0.0067856135 0.074990615 0.058528334 -0.19972187 0.52287865 -0.32315677
0.0060498924 0.074293725 0.058820959 -0.19972187 0.52287865 -0.32315677
0.0053245453 0.073570877 0.059135504 -0.19972187 0.52287865 -0.32315677
0.0046369443 0.072761372 0.059523527 -0.19972187 0.52287865 -0.32315677
0.0039585312 0.071927093 0.059932284 -0.19972187 0.52287865 -0.32315677
0.0033237832 0.070990913 0.060427193 -0.19972187 0.52287865 -0.32315677
0.0027049654 0.070013277 0.060956776 -0.19972187 0.52287865 -0.32315677
0.002130477 0.06892968 0.061575636 -0.19972187 0.52287865 -0.32315677
0.0015926735 0.067755729 0.06227034 -0.19972187 0.52287865 -0.32315677
0.0010898851 0.066493787 0.063038714 -0.19972187 0.52287865 -0.32315677
0.00067078986 0.065031253 0.063975796 -0.19972187 0.52287865 -0.32315677
0.00032013227 0.063399963 0.06505429 -0.19972187 0.52287865 -0.32315677
8.1181919e-05 0.061497323 0.066360496 -0.19972187 0.52287865 -0.32315677
4.8872749e-05 0.059098586 0.068083473 -0.19972187 0.52287865 -0.32315677
0.034220919 0.074037194 0.065865099 -0.19972187 0.52287865 -0.32315677
0.032192092 0.075817615 0.064002804 -0.19972187 0.52287865 -0.32315677
0.030483216 0.076999329 0.062661976 -0.19972187 0.52287865 -0.32315677
0.028943796 0.077866554 0.061595574 -0.19972187 0.52287865 -0.32315677
0.027516456 0.078526914 0.060709957 -0.19972187 0.52287865 -0.32315677
0.026196903 0.078985833 0.059999999 -0.19972187 0.52287865 -0.32315677
0.024921808 0.07936538 0.059359983 -0.19972187 0.52287865 -0.32315677
0.023707123 0.079632722 0.05881802 -0.19972187 0.52287865 -0.32315677
0.022539807 0.079812199 0.058352921 -0.19972187 0.52287865 -0.32315677
0.021403208 0.079935849 0.057936925 -0.19972187 0.52287865 -0.32315677
0.020307263 0.079982825 0.057587836 -0.19972187 0.52287865 -0.32315677
0.01923842 0.07997939 0.057282925 -0.19972187 0.52287865 -0.32315677
0.018211842 0.079893969 0.057049192 -0.19972187 0.52287865 -0.32315677
0.017198911 0.079783767 0.056837395 -0.19972187 0.52287865 -0.32315677
0.016215561 0.079615705 0.056675836 -0.19972187 0.52287865 -0.32315677
0.015254393 0.07940416 0.056552075 -0.19972187 0.52287865 -0.32315677
0.014311259 0.079157062 0.056459229 -0.19972187 0.52287865 -0.32315677
0.013397944 0.078849316 0.056418691 -0.19972187 0.52287865 -0.32315677
0.012490501 0.078530133 0.056388285 -0.19972187 0.52287865 -0.32315677
0.011622554 0.078128576 0.05642854 -0.19972187 0.52287865 -0.32315677
0.010754566 0.077726997 0.056469046 -0.19972187 0.52287865 -0.32315677
0.0099245189 0.077244662 0.05657861 -0.19972187 0.52287865 -0.32315677
0.0091003589 0.076748796 0.056699816 -0.19972187 0.52287865 -0.32315677
0.0083030909 0.076194093 0.056871187 -0.19972187 0.52287865 -0.32315677
0.0075228447 0.075600937 0.05707527 -0.19972187 0.52287865 -0.32315677
0.0067604985 0.074966826 0.057314117 -0.19972187 0.52287865 -0.32315677
0.0060254703 0.074270591 0.057605606 -0.19972187 0.52287865 -0.32315677
0.0053024376 0.073544852 0.057921961 -0.19972187 0.52287865 -0.32315677
0.0046154754 0.072736099 0.058308456 -0.19972187 0.52287865 -0.32315677
0.0039393827 0.071898848 0.058718767 -0.19972187 0.52287865 -0.32315677
0.0033052166 0.070963524 0.059211709 -0.19972187 0.52287865 -0.32315677
0.0026887753 0.069982745 0.059742603 -0.19972187 0.52287865 -0.32315677
0.0021148061 0.068900123 0.060358986 -0.19972187 0.52287865 -0.32315677
0.0015795027 0.067722671 0.061054751 -0.19972187 0.52287865 -0.32315677
0.0010771619 0.066461854 0.061820041 -0.19972187 0.52287865 -0.32315677
0.00066078932 0.064995229 0.062757887 -0.19972187 0.52287865 -0.32315677
0.00031335864 0.06335865 0.063837707 -0.19972187 0.52287865 -0.32315677
7.853729e-05 0.061448544 0.065146305 -0.19972187 0.52287865 -0.32315677
5.2154908e-05 0.05903805 0.066873945 -0.19972187 0.52287865 -0.32315677
0.00056721363 0.055341791 0.069679543 -0.19972187 0.52287865 -0.32315677
0.034092568 0.074158773 0.064489983 -0.19972187 0.52287865 -0.32315677
0.032087199 0.075897358 0.062670447 -0.19972187 0.52287865 -0.32315677
0.030393034 0.077053584 0.061356496 -0.19972187 0.52287865 -0.32315677
0.028863957 0.077903494 0.060309011 -0.19972187 0.52287865 -0.32315677
0.027438406 0.078563027 0.059427481 -0.19972187 0.52287865 -0.32315677
0.026126478 0.079009563 0.058730971 -0.19972187 0.52287865 -0.32315677
0.024857517 0.079379529 0.058101743 -0.19972187 0.52287865 -0.32315677
0.023644222 0.079646565 0.057562269 -0.19972187 0.52287865 -0.32315677
0.022481909 0.079818495 0.057105619 -0.19972187 0.52287865 -0.32315677
0.021346565 0.07994201 0.056691542 -0.19972187 0.52287865 -0.32315677
0.020254254 0.079984032 0.056348272 -0.19972187 0.52287865 -0.32315677
0.019187838 0.079978026 0.056046996 -0.19972187 0.52287865 -0.32315677
0.018164266 0.079888791 0.055817712 -0.19972187 0.52287865 -0.32315677
0.017152395 0.079778709 0.055606928 -0.19972187 0.52287865 -0.32315677
0.016172323 0.07960619 0.055450119 -0.19972187 0.52287865 -0.32315677
0.015212138 0.079394862 0.055326987 -0.19972187 0.52287865 -0.32315677
0.014271983 0.07914383 0.05523821 -0.19972187 0.52287865 -0.32315677
0.013359585 0.078836389 0.055197943 -0.19972187 0.52287865 -0.32315677
0.012454897 0.07851366 0.055171061 -0.19972187 0.52287865 -0.32315677
0.011587804 0.078112498 0.055211242 -0.19972187 0.52287865 -0.32315677
0.010720672 0.077711321 0.055251677 -0.19972187 0.52287865 -0.32315677
0.0098931575 0.077225789 0.055363983 -0.19972187 0.52287865 -0.32315677
0.0090697967 0.076730408 0.055484772 -0.19972187 0.52287865 -0.32315677
0.0082749473 0.076172695 0.055658519 -0.19972187 0.52287865 -0.32315677
0.0074954457 0.075580105 0.055861842 -0.19972187 0.52287865 -0.32315677
0.0067354427 0.074943095 0.056102745 -0.19972187 0.52287865 -0.32315677
0.006001106 0.074247517 0.056393109 -0.19972187 0.52287865 -0.32315677
0.0052803815 0.07351888 0.056711249 -0.19972187 0.52287865 -0.32315677
0.0045940569 0.072710879 0.057096221 -0.19972187 0.52287865 -0.32315677
0.0039202785 0.07187067 0.057508066 -0.19972187 0.52287865 -0.32315677
0.003286693 0.070936203 0.057999045 -0.19972187 0.52287865 -0.32315677
0.0026726227 0.069952272 0.058531232 -0.19972187 0.52287865 -0.32315677
0.0020991715 0.068870634 0.059145153 -0.19972187 0.52287865 -0.32315677
0.0015663621 0.067689687 0.059841953 -0.19972187 0.52287865 -0.32315677
0.0010644678 0.066429995 0.060604174 -0.19972187 0.52287865 -0.32315677
0.00065081159 0.064959295 0.061542757 -0.19972187 0.52287865 -0.32315677
0.0003066003 0.063317426 0.062623866 -0.19972187 0.52287865 -0.32315677
7.5898541e-05 0.061399877 0.063934818 -0.19972187 0.52287865 -0.32315677
5.542994e-05 0.058977649 0.065667048 -0.19972187 0.52287865 -0.32315677
0.00060741423 0.055197004 0.068534583 -0.19972187 0.52287865 -0.32315677
0.037844501 0.068976842 0.068007253 -0.19972187 0.52287865 -0.32315677
0.033964608 0.074279979 0.063119039 -0.19972187 0.52287865 -0.32315677
0.031982604 0.075976871 0.061341878 -0.19972187 0.52287865 -0.32315677
0.0303031 0.077107698 0.060054585 -0.19972187 0.52287865 -0.32315677
0.028784329 0.07794033 0.059025854 -0.19972187 0.52287865 -0.32315677
0.027363839 0.078592628 0.058153901 -0.19972187 0.52287865 -0.32315677
0.026056238 0.079033233 0.057465225 -0.19972187 0.52287865 -0.32315677
0.024793388 0.07939364 0.056846708 -0.19972187 0.52287865 -0.32315677
0.023581479 0.079660378 0.056309711 -0.19972187 0.52287865 -0.32315677
0.022424154 0.079824775 0.05586144 -0.19972187 0.52287865 -0.32315677
0.021290066 0.079948157 0.055449273 -0.19972187 0.52287865 -0.32315677
0.020201378 0.079985239 0.055111781 -0.19972187 0.52287865 -0.32315677
0.019137383 0.079976663 0.054814111 -0.19972187 0.52287865 -0.32315677
0.018116806 0.079883628 0.054589242 -0.19972187 0.52287865 -0.32315677
0.017105991 0.079773664 0.054379467 -0.19972187 0.52287865 -0.32315677
0.016129188 0.079596698 0.054227371 -0.19972187 0.52287865 -0.32315677
0.015169986 0.079385579 0.054104872 -0.19972187 0.52287865 -0.32315677
0.014232802 0.079130627 0.054020125 -0.19972187 0.52287865 -0.32315677
0.013321318 0.078823499 0.053980131 -0.19972187 0.52287865 -0.32315677
0.012419377 0.078497231 0.053956736 -0.19972187 0.52287865 -0.32315677
0.011553138 0.078096464 0.05399685 -0.19972187 0.52287865 -0.32315677
0.010686859 0.077695675 0.05403721 -0.19972187 0.52287865 -0.32315677
0.0098618707 0.077206969 0.054152232 -0.19972187 0.52287865 -0.32315677
0.0090393061 0.076712064 0.054272607 -0.19972187 0.52287865 -0.32315677
0.0082468698 0.076151349 0.054448709 -0.19972187 0.52287865 -0.32315677
0.0074681109 0.075559326 0.054651268 -0.19972187 0.52287865 -0.32315677
0.006710445 0.074919418 0.054894213 -0.19972187 0.52287865 -0.32315677
0.0059767985 0.074224487 0.055183452 -0.19972187 0.52287865 -0.32315677
0.0052583767 0.073492974 0.055503353 -0.19972187 0.52287865 -0.32315677
0.0045726881 0.072685726 0.055886813 -0.19972187 0.52287865 -0.32315677
0.003901219 0.071842559 0.056300167 -0.19972187 0.52287865 -0.32315677
0.0032682123 0.070908949 0.056789193 -0.19972187 0.52287865 -0.32315677
0.0026565073 0.069921881 0.057322647 -0.19972187 0.52287865 -0.32315677
0.0020835728 0.068841211 0.057934113 -0.19972187 0.52287865 -0.32315677
0.0015532516 0.067656785 0.058631931 -0.19972187 0.52287865 -0.32315677
0.0010518028 0.066398203 0.059391089 -0.19972187 0.52287865 -0.32315677
0.00064085651 0.064923443 0.060330383 -0.19972187 0.52287865 -0.32315677
0.00029985714 0.063276291 0.061412752 -0.19972187 0.52287865 -0.32315677
7.3265641e-05 0.061351314 0.062726021 -0.19972187 0.52287865 -0.32315677
5.8697889e-05 0.058917373 0.064462759 -0.19972187 0.52287865 -0.32315677
0.00064754224 0.055052478 0.067391694 -0.19972187 0.52287865 -0.32315677
0.036885746 0.07068184 0.06526316 -0.19972187 0.52287865 -0.32315677
0.033837032 0.074400812 0.061752241 -0.19972187 0.52287865 -0.32315677
0.031878304 0.07605616 0.060017079 -0.19972187 0.52287865 -0.32315677
0.030213412 0.077161662 0.058756214 -0.19972187 0.52287865 -0.32315677
0.028704913 0.077977076 0.05774609 -0.19972187 0.52287865 -0.32315677
0.027292224 0.078616761 0.056888256 -0.19972187 0.52287865 -0.32315677
0.025986176 0.079056844 0.056202751 -0.19972187 0.52287865 -0.32315677
0.024729421 0.079407722 0.055594854 -0.19972187 0.52287865 -0.32315677
0.023518896 0.079674147 0.055060323 -0.19972187 0.52287865 -0.32315677
0.022366546 0.079831041 0.054620367 -0.19972187 0.52287865 -0.32315677
0.021233706 0.079954289 0.0542101 -0.19972187 0.52287865 -0.32315677
0.020148631 0.079986446 0.053878341 -0.19972187 0.52287865 -0.32315677
0.019087048 0.0799753 0.053584259 -0.19972187 0.52287865 -0.32315677
0.018069461 0.079878479 0.053363767 -0.19972187 0.52287865 -0.32315677
0.017059702 0.079768628 0.053154998 -0.19972187 0.52287865 -0.32315677
0.016086159 0.079587221 0.053007577 -0.19972187 0.52287865 -0.32315677
0.015127935 0.079376325 0.0528857 -0.19972187 0.52287865 -0.32315677
0.014193716 0.079117455 0.052804958 -0.19972187 0.52287865 -0.32315677
0.013283143 0.078810632 0.052765235 -0.19972187 0.52287865 -0.32315677
0.012383943 0.07848084 0.052745301 -0.19972187 0.52287865 -0.32315677
0.011518555 0.07808046 0.052785341 -0.19972187 0.52287865 -0.32315677
0.010653126 0.077680066 0.052825626 -0.19972187 0.52287865 -0.32315677
0.0098306583 0.077188186 0.052943341 -0.19972187 0.52287865 -0.32315677
0.0090088891 0.076693766 0.053063303 -0.19972187 0.52287865 -0.32315677
0.0082188584 0.076130055 0.053241733 -0.19972187 0.52287865 -0.32315677
0.0074408408 0.075538598 0.053443536 -0.19972187 0.52287865 -0.32315677
0.0066855061 0.074895792 0.053688496 -0.19972187 0.52287865 -0.32315677
0.0059525478 0.074201517 0.053976618 -0.19972187 0.52287865 -0.32315677
0.0052364231 0.073467128 0.054298259 -0.19972187 0.52287865 -0.32315677
0.0045513688 0.072660625 0.05468021 -0.19972187 0.52287865 -0.32315677
0.0038822033 0.071814515 0.05509505 -0.19972187 0.52287865 -0.32315677
0.0032497742 0.070881754 0.055582136 -0.19972187 0.52287865 -0.32315677
0.0026404287 0.06989155 0.056116838 -0.19972187 0.52287865 -0.32315677
0.0020680099 0.068811856 0.056725856 -0.19972187 0.52287865 -0.32315677
0.0015401711 0.067623951 0.057424664 -0.19972187 0.52287865 -0.32315677
0.0010406111 0.066363208 0.058183521 -0.19972187 0.52287865 -0.32315677
0.00063092401 0.064887665 0.059120759 -0.19972187 0.52287865 -0.32315677
0.00029312909 0.063235253 0.060204349 -0.19972187 0.52287865 -0.32315677
7.0638554e-05 0.061302859 0.061519884 -0.19972187 0.52287865 -0.32315677
6.1958788e-05 0.058857229 0.063261069 -0.19972187 0.52287865 -0.32315677
0.00068759813 0.054908212 0.066250861 -0.19972187 0.52287865 -0.32315677
0.036595896 0.071109369 0.063625544 -0.19972187 0.52287865 -0.32315677
0.033709843 0.074521288 0.06038956 -0.19972187 0.52287865 -0.32315677
0.031774301 0.076135226 0.058696024 -0.19972187 0.52287865 -0.32315677
0.030123966 0.077215478 0.05746137 -0.19972187 0.52287865 -0.32315677
0.028625706 0.078013718 0.056469698 -0.19972187 0.52287865 -0.32315677
0.027220791 0.078640826 0.055625875 -0.19972187 0.52287865 -0.32315677
0.025916297 0.079080388 0.054943521 -0.19972187 0.52287865 -0.32315677
0.024665616 0.079421766 0.054346167 -0.19972187 0.52287865 -0.32315677
0.023456471 0.079687886 0.053814091 -0.19972187 0.52287865 -0.32315677
0.02230908 0.0798373 0.053382382 -0.19972187 0.52287865 -0.32315677
0.021177487 0.079960398 0.052974012 -0.19972187 0.52287865 -0.32315677
0.020096015 0.079987645 0.052647941 -0.19972187 0.52287865 -0.32315677
0.019036839 0.079973936 0.052357417 -0.19972187 0.52287865 -0.32315677
0.018022232 0.079873338 0.052141272 -0.19972187 0.52287865 -0.32315677
0.017013526 0.079763606 0.051933501 -0.19972187 0.52287865 -0.32315677
0.016043233 0.079577774 0.051790718 -0.19972187 0.52287865 -0.32315677
0.015085985 0.079367094 0.051669467 -0.19972187 0.52287865 -0.32315677
0.014154721 0.079104319 0.051592689 -0.19972187 0.52287865 -0.32315677
0.013245058 0.078797802 0.051553234 -0.19972187 0.52287865 -0.32315677
0.012348592 0.078464478 0.051536731 -0.19972187 0.52287865 -0.32315677
0.011484053 0.078064501 0.051576704 -0.19972187 0.52287865 -0.32315677
0.010620103 0.077663161 0.05161804 -0.19972187 0.52287865 -0.32315677
0.0097995186 0.077169456 0.051737294 -0.19972187 0.52287865 -0.32315677
0.0089785419 0.076675504 0.051856846 -0.19972187 0.52287865 -0.32315677
0.0081909122 0.076108813 0.052037582 -0.19972187 0.52287865 -0.32315677
0.0074136341 0.075517915 0.052238628 -0.19972187 0.52287865 -0.32315677
0.0066606249 0.074872226 0.052485581 -0.19972187 0.52287865 -0.32315677
0.0059283534 0.074178599 0.052772589 -0.19972187 0.52287865 -0.32315677
0.0052145198 0.073441349 0.053095955 -0.19972187 0.52287865 -0.32315677
0.0045300988 0.072635584 0.053476397 -0.19972187 0.52287865 -0.32315677
0.003863231 0.07178653 0.053892709 -0.19972187 0.52287865 -0.32315677
0.0032313787 0.070854619 0.054377858 -0.19972187 0.52287865 -0.32315677
0.0026243872 0.069861293 0.054913782 -0.19972187 0.52287865 -0.32315677
0.0020524827 0.068782568 0.055520363 -0.19972187 0.52287865 -0.32315677
0.0015271202 0.067591198 0.056220144 -0.19972187 0.52287865 -0.32315677
0.0010303463 0.066326238 0.05698039 -0.19972187 0.52287865 -0.32315677
0.00062101393 0.064851977 0.057913866 -0.19972187 0.52287865 -0.32315677
0.00028641606 0.063194305 0.058998652 -0.19972187 0.52287865 -0.32315677
6.8017245e-05 0.061254513 0.060316402 -0.19972187 0.52287865 -0.32315677
6.5212669e-05 0.058797214 0.062061965 -0.19972187 0.52287865 -0.32315677
0.0007275822 0.054764204 0.065112069 -0.19972187 0.52287865 -0.32315677
0.036307305 0.071535036 0.061995052 -0.19972187 0.52287865 -0.32315677
0.033583034 0.074641407 0.059030969 -0.19972187 0.52287865 -0.32315677
0.031670593 0.076214068 0.057378694 -0.19972187 0.52287865 -0.32315677
0.030034762 0.077269152 0.056170024 -0.19972187 0.52287865 -0.32315677
0.028546708 0.078050271 0.055196658 -0.19972187 0.52287865 -0.32315677
0.027149543 0.078664839 0.05436673 -0.19972187 0.52287865 -0.32315677
0.025846595 0.079103872 0.05368752 -0.19972187 0.52287865 -0.32315677
0.024601972 0.079435773 0.053100619 -0.19972187 0.52287865 -0.32315677
0.023394203 0.079701595 0.052570995 -0.19972187 0.52287865 -0.32315677
0.022251755 0.079843536 0.05214747 -0.19972187 0.52287865 -0.32315677
0.021121407 0.0799665 0.051740985 -0.19972187 0.52287865 -0.32315677
0.020043528 0.079988845 0.051420558 -0.19972187 0.52287865 -0.32315677
0.018986752 0.079972588 0.051133569 -0.19972187 0.52287865 -0.32315677
0.017975116 0.079868212 0.050921734 -0.19972187 0.52287865 -0.32315677
0.016967461 0.079758592 0.050714962 -0.19972187 0.52287865 -0.32315677
0.016000409 0.079568349 0.05057678 -0.19972187 0.52287865 -0.32315677
0.015044136 0.079357885 0.050456148 -0.19972187 0.52287865 -0.32315677
0.014115821 0.079091214 0.050383307 -0.19972187 0.52287865 -0.32315677
0.013207065 0.078784995 0.050344121 -0.19972187 0.52287865 -0.32315677
0.012313325 0.078448161 0.050331019 -0.19972187 0.52287865 -0.32315677
0.011449632 0.078048572 0.05037092 -0.19972187 0.52287865 -0.32315677
0.010588246 0.077643998 0.050415225 -0.19972187 0.52287865 -0.32315677
0.0097684525 0.077150762 0.050534077 -0.19972187 0.52287865 -0.32315677
0.0089482674 0.076657288 0.050653215 -0.19972187 0.52287865 -0.32315677
0.0081630312 0.076087616 0.050836239 -0.19972187 0.52287865 -0.32315677
0.0073864912 0.075497277 0.051036533 -0.19972187 0.52287865 -0.32315677
0.0066358014 0.074848711 0.051285457 -0.19972187 0.52287865 -0.32315677
0.0059042154 0.07415574 0.051571351 -0.19972187 0.52287865 -0.32315677
0.0051926677 0.073415622 0.051896416 -0.19972187 0.52287865 -0.32315677
0.0045088781 0.072610602 0.05227536 -0.19972187 0.52287865 -0.32315677
0.0038443024 0.071758613 0.052693121 -0.19972187 0.52287865 -0.32315677
0.0032130254 0.070827551 0.05317634 -0.19972187 0.52287865 -0.32315677
0.0026083819 0.069831103 0.053713471 -0.19972187 0.52287865 -0.32315677
0.0020369911 0.068753347 0.05431762 -0.19972187 0.52287865 -0.32315677
0.001514099 0.067558512 0.05501835 -0.19972187 0.52287865 -0.32315677
0.0010201044 0.06628935 0.05577996 -0.19972187 0.52287865 -0.32315677
0.00061112613 0.064816363 0.056709684 -0.19972187 0.52287865 -0.32315677
0.00027971799 0.063153453 0.057795636 -0.19972187 0.52287865 -0.32315677
6.5401684e-05 0.06120627 0.059115563 -0.19972187 0.52287865 -0.32315677
6.8459587e-05 0.058737326 0.060865432 -0.19972187 0.52287865 -0.32315677
0.0007674949 0.054620456 0.063975312 -0.19972187 0.52287865 -0.32315677
0.03601997 0.071958855 0.060371634 -0.19972187 0.52287865 -0.32315677
0.033456605 0.07476116 0.057676446 -0.19972187 0.52287865 -0.32315677
0.031567171 0.076292686 0.056065064 -0.19972187 0.52287865 -0.32315677
0.029945798 0.077322677 0.054882161 -0.19972187 0.52287865 -0.32315677
0.028467916 0.078086719 0.053926952 -0.19972187 0.52287865 -0.32315677
0.027078476 0.078688785 0.053110816 -0.19972187 0.52287865 -0.32315677
0.025777072 0.079127304 0.052434728 -0.19972187 0.52287865 -0.32315677
0.024538487 0.079449743 0.051858205 -0.19972187 0.52287865 -0.32315677
0.023332091 0.079715267 0.051331017 -0.19972187 0.52287865 -0.32315677
0.022194574 0.07984975 0.050915614 -0.19972187 0.52287865 -0.32315677
0.021066183 0.07997115 0.050512217 -0.19972187 0.52287865 -0.32315677
0.019991169 0.079990044 0.050196182 -0.19972187 0.52287865 -0.32315677
0.018936787 0.079971232 0.049912699 -0.19972187 0.52287865 -0.32315677
0.017928116 0.079863101 0.049705144 -0.19972187 0.52287865 -0.32315677
0.016921505 0.079753593 0.049499366 -0.19972187 0.52287865 -0.32315677
0.015957689 0.079558946 0.049365744 -0.19972187 0.52287865 -0.32315677
0.015002387 0.079348691 0.04924573 -0.19972187 0.52287865 -0.32315677
0.014077011 0.07907813 0.04917679 -0.19972187 0.52287865 -0.32315677
0.013169161 0.078772224 0.049137872 -0.19972187 0.52287865 -0.32315677
0.012278141 0.078431889 0.049128141 -0.19972187 0.52287865 -0.32315677
0.011415293 0.078032687 0.049167972 -0.19972187 0.52287865 -0.32315677
0.010556464 0.077624872 0.049215224 -0.19972187 0.52287865 -0.32315677
0.009737459 0.077132113 0.049333669 -0.19972187 0.52287865 -0.32315677
0.0089180628 0.076639116 0.049452402 -0.19972187 0.52287865 -0.32315677
0.0081352154 0.076066464 0.049637683 -0.19972187 0.52287865 -0.32315677
0.0073594111 0.075476691 0.049837228 -0.19972187 0.52287865 -0.32315677
0.0066110352 0.07482525 0.050088104 -0.19972187 0.52287865 -0.32315677
0.0058801328 0.074132927 0.050372891 -0.19972187 0.52287865 -0.32315677
0.0051708655 0.073389955 0.050699636 -0.19972187 0.52287865 -0.32315677
0.0044877063 0.07258568 0.051077086 -0.19972187 0.52287865 -0.32315677
0.0038254173 0.071730763 0.051496275 -0.19972187 0.52287865 -0.32315677
0.003194714 0.070800543 0.051977567 -0.19972187 0.52287865 -0.32315677
0.0025924132 0.06980098 0.052515883 -0.19972187 0.52287865 -0.32315677
0.0020215344 0.068724193 0.053117614 -0.19972187 0.52287865 -0.32315677
0.001501107 0.067525908 0.053819273 -0.19972187 0.52287865 -0.32315677
0.0010098855 0.066252545 0.054582216 -0.19972187 0.52287865 -0.32315677
0.00060126052 0.064780831 0.055508208 -0.19972187 0.52287865 -0.32315677
0.00027303479 0.063112684 0.056595288 -0.19972187 0.52287865 -0.32315677
6.2791842e-05 0.061158136 0.057917345 -0.19972187 0.52287865 -0.32315677
7.1699571e-05 0.058677569 0.05967145 -0.19972187 0.52287865 -0.32315677
0.00080733665 0.054476961 0.062840581 -0.19972187 0.52287865 -0.32315677
0.035809934 0.072235316 0.058878604 -0.19972187 0.52287865 -0.32315677
0.033330552 0.074880555 0.056325965 -0.19972187 0.52287865 -0.32315677
0.031464044 0.076371089 0.054755114 -0.19972187 0.52287865 -0.32315677
0.029857073 0.07737606 0.053597759 -0.19972187 0.52287865 -0.32315677
0.028389329 0.078123078 0.052660558 -0.19972187 0.52287865 -0.32315677
0.027007591 0.078712672 0.051858101 -0.19972187 0.52287865 -0.32315677
0.025707727 0.079150669 0.051185131 -0.19972187 0.52287865 -0.32315677
0.024475163 0.079463683 0.050618898 -0.19972187 0.52287865 -0.32315677
0.023270134 0.079728901 0.050094139 -0.19972187 0.52287865 -0.32315677
0.022137532 0.079855956 0.04968679 -0.19972187 0.52287865 -0.32315677
0.021012682 0.079972602 0.049289152 -0.19972187 0.52287865 -0.32315677
0.019938938 0.079991236 0.04897479 -0.19972187 0.52287865 -0.32315677
0.018888101 0.079967536 0.048696764 -0.19972187 0.52287865 -0.32315677
0.017881228 0.079857998 0.048491478 -0.19972187 0.52287865 -0.32315677
0.016875662 0.079748608 0.048286691 -0.19972187 0.52287865 -0.32315677
0.01591507 0.079549566 0.048157595 -0.19972187 0.52287865 -0.32315677
0.014960737 0.079339527 0.0480382 -0.19972187 0.52287865 -0.32315677
0.014038295 0.079065084 0.047973126 -0.19972187 0.52287865 -0.32315677
0.013131347 0.078759484 0.047934473 -0.19972187 0.52287865 -0.32315677
0.01224304 0.078415647 0.047928087 -0.19972187 0.52287865 -0.32315677
0.011381035 0.07801684 0.047967847 -0.19972187 0.52287865 -0.32315677
0.010524756 0.077605799 0.04801802 -0.19972187 0.52287865 -0.32315677
0.0097065372 0.077113509 0.048136063 -0.19972187 0.52287865 -0.32315677
0.0088879289 0.076620989 0.048254389 -0.19972187 0.52287865 -0.32315677
0.0081074638 0.076045372 0.048441906 -0.19972187 0.52287865 -0.32315677
0.0073323939 0.07545615 0.048640706 -0.19972187 0.52287865 -0.32315677
0.0065863263 0.074801847 0.048893508 -0.19972187 0.52287865 -0.32315677
0.0058561061 0.074110165 0.049177192 -0.19972187 0.52287865 -0.32315677
0.005149113 0.07336434 0.049505595 -0.19972187 0.52287865 -0.32315677
0.0044665826 0.07256081 0.049881559 -0.19972187 0.52287865 -0.32315677
0.0038065747 0.071702972 0.050302155 -0.19972187 0.52287865 -0.32315677
0.0031764442 0.070773602 0.050781529 -0.19972187 0.52287865 -0.32315677
0.0025764806 0.069770932 0.051321007 -0.19972187 0.52287865 -0.32315677
0.0020061128 0.068695106 0.051920332 -0.19972187 0.52287865 -0.32315677
0.0014881444 0.067493372 0.052622892 -0.19972187 0.52287865 -0.32315677
0.00099968934 0.066215821 0.053387146 -0.19972187 0.52287865 -0.32315677
0.0005914169 0.064745381 0.054309417 -0.19972187 0.52287865 -0.32315677
0.00026636635 0.063072011 0.055397596 -0.19972187 0.52287865 -0.32315677
6.0187689e-05 0.061110105 0.056721743 -0.19972187 0.52287865 -0.32315677
7.493265e-05 0.058617938 0.058480013 -0.19972187 0.52287865 -0.32315677
0.00084710767 0.05433372 0.061707854 -0.19972187 0.52287865 -0.32315677
0.035640165 0.07243517 0.057454918 -0.19972187 0.52287865 -0.32315677
0.03320488 0.074999593 0.054979499 -0.19972187 0.52287865 -0.32315677
0.0313612 0.076449268 0.053448822 -0.19972187 0.52287865 -0.32315677
0.029768586 0.077429302 0.052316796 -0.19972187 0.52287865 -0.32315677
0.028310947 0.07815934 0.051397458 -0.19972187 0.52287865 -0.32315677
0.026936887 0.078736492 0.050608575 -0.19972187 0.52287865 -0.32315677
0.025638558 0.079173975 0.049938705 -0.19972187 0.52287865 -0.32315677
0.024411995 0.079477586 0.049382687 -0.19972187 0.52287865 -0.32315677
0.023209946 0.079739295 0.048863038 -0.19972187 0.52287865 -0.32315677
0.022080632 0.079862148 0.048460986 -0.19972187 0.52287865 -0.32315677
0.020959314 0.07997404 0.04806906 -0.19972187 0.52287865 -0.32315677
0.019886835 0.079992421 0.047756366 -0.19972187 0.52287865 -0.32315677
0.018840281 0.079962336 0.04748502 -0.19972187 0.52287865 -0.32315677
0.017834451 0.079852909 0.047280729 -0.19972187 0.52287865 -0.32315677
0.016829928 0.079743631 0.047076926 -0.19972187 0.52287865 -0.32315677
0.015872551 0.079540208 0.046952315 -0.19972187 0.52287865 -0.32315677
0.014919186 0.079330385 0.046833534 -0.19972187 0.52287865 -0.32315677
0.013999669 0.079052076 0.046772297 -0.19972187 0.52287865 -0.32315677
0.013093622 0.078746773 0.046733912 -0.19972187 0.52287865 -0.32315677
0.01220802 0.078399442 0.046730839 -0.19972187 0.52287865 -0.32315677
0.011346856 0.078001022 0.046770532 -0.19972187 0.52287865 -0.32315677
0.010493121 0.077586763 0.046823595 -0.19972187 0.52287865 -0.32315677
0.0096756881 0.07709495 0.046941236 -0.19972187 0.52287865 -0.32315677
0.0088578649 0.076602899 0.04705916 -0.19972187 0.52287865 -0.32315677
0.0080797756 0.076024324 0.047248889 -0.19972187 0.52287865 -0.32315677
0.0073054391 0.075435661 0.047446944 -0.19972187 0.52287865 -0.32315677
0.0065616737 0.074778497 0.047701653 -0.19972187 0.52287865 -0.32315677
0.0058321343 0.074087463 0.047984239 -0.19972187 0.52287865 -0.32315677
0.0051274099 0.073338792 0.048314277 -0.19972187 0.52287865 -0.32315677
0.0044455072 0.072535999 0.048688762 -0.19972187 0.52287865 -0.32315677
0.0037877753 0.071675248 0.049110744 -0.19972187 0.52287865 -0.32315677
0.0031582161 0.07074672 0.049588211 -0.19972187 0.52287865 -0.32315677
0.0025605839 0.069740944 0.050128829 -0.19972187 0.52287865 -0.32315677
0.0019907262 0.068666086 0.050725751 -0.19972187 0.52287865 -0.32315677
0.0014752108 0.067460909 0.051429193 -0.19972187 0.52287865 -0.32315677
0.00098951592 0.066179179 0.052194733 -0.19972187 0.52287865 -0.32315677
0.00058159529 0.064710006 0.053113293 -0.19972187 0.52287865 -0.32315677
0.00025971263 0.063031428 0.054202545 -0.19972187 0.52287865 -0.32315677
5.758919e-05 0.061062176 0.055528734 -0.19972187 0.52287865 -0.32315677
7.8158875e-05 0.058558434 0.057291102 -0.19972187 0.52287865 -0.32315677
0.0008868085 0.054190733 0.060577132 -0.19972187 0.52287865 -0.32315677
0.035470959 0.072634369 0.056035962 -0.19972187 0.52287865 -0.32315677
0.033079576 0.075118288 0.053637031 -0.19972187 0.52287865 -0.32315677
0.031258646 0.07652723 0.052146163 -0.19972187 0.52287865 -0.32315677
0.029680336 0.077482395 0.05103926 -0.19972187 0.52287865 -0.32315677
0.028232768 0.078195512 0.050137635 -0.19972187 0.52287865 -0.32315677
0.026866361 0.078760259 0.049362216 -0.19972187 0.52287865 -0.32315677
0.025569562 0.079197221 0.048695434 -0.19972187 0.52287865 -0.32315677
0.024348985 0.079491451 0.048149552 -0.19972187 0.52287865 -0.32315677
0.023151947 0.079745598 0.047638372 -0.19972187 0.52287865 -0.32315677
0.02202387 0.079868324 0.047238186 -0.19972187 0.52287865 -0.32315677
0.020906074 0.079975486 0.046851929 -0.19972187 0.52287865 -0.32315677
0.019834856 0.079993613 0.046540897 -0.19972187 0.52287865 -0.32315677
0.018792575 0.079957142 0.046276178 -0.19972187 0.52287865 -0.32315677
0.017787788 0.079847835 0.04607287 -0.19972187 0.52287865 -0.32315677
0.016784305 0.079738669 0.045870051 -0.19972187 0.52287865 -0.32315677
0.015830135 0.079530872 0.045749892 -0.19972187 0.52287865 -0.32315677
0.014877734 0.079321258 0.045631722 -0.19972187 0.52287865 -0.32315677
0.013961134 0.079039089 0.045574289 -0.19972187 0.52287865 -0.32315677
0.013055986 0.078734092 0.045536168 -0.19972187 0.52287865 -0.32315677
0.012173082 0.078383282 0.04553638 -0.19972187 0.52287865 -0.32315677
0.011312757 0.077985249 0.045576002 -0.19972187 0.52287865 -0.32315677
0.01046156 0.077567779 0.045631934 -0.19972187 0.52287865 -0.32315677
0.0096449098 0.077076428 0.045749176 -0.19972187 0.52287865 -0.32315677
0.0088278707 0.076584853 0.045866694 -0.19972187 0.52287865 -0.32315677
0.0080521517 0.076003321 0.046058614 -0.19972187 0.52287865 -0.32315677
0.0072785462 0.075415216 0.046255931 -0.19972187 0.52287865 -0.32315677
0.0065370779 0.074755199 0.046512526 -0.19972187 0.52287865 -0.32315677
0.0058082175 0.074064806 0.046794016 -0.19972187 0.52287865 -0.32315677
0.0051057567 0.073313303 0.047125671 -0.19972187 0.52287865 -0.32315677
0.0044244803 0.072511241 0.047498677 -0.19972187 0.52287865 -0.32315677
0.0037690182 0.071647577 0.047922026 -0.19972187 0.52287865 -0.32315677
0.0031400293 0.07071989 0.048397593 -0.19972187 0.52287865 -0.32315677
0.002544723 0.06971103 0.048939332 -0.19972187 0.52287865 -0.32315677
0.0019753743 0.068637125 0.049533863 -0.19972187 0.52287865 -0.32315677
0.0014623061 0.067428522 0.050238166 -0.19972187 0.52287865 -0.32315677
0.00097936497 0.066142619 0.051004961 -0.19972187 0.52287865 -0.32315677
0.00057179545 0.064674713 0.051919829 -0.19972187 0.52287865 -0.32315677
0.00025307349 0.062990926 0.053010121 -0.19972187 0.52287865 -0.32315677
5.4996315e-05 0.061014354 0.05433831 -0.19972187 0.52287865 -0.32315677
8.1378283e-05 0.058499053 0.056104701 -0.19972187 0.52287865 -0.32315677
0.00092643948 0.054047998 0.059448399 -0.19972187 0.52287865 -0.32315677
0.035302315 0.072832905 0.054621704 -0.19972187 0.52287865 -0.32315677
0.032954641 0.075236626 0.052298531 -0.19972187 0.52287865 -0.32315677
0.031164393 0.07658948 0.050860111 -0.19972187 0.52287865 -0.32315677
0.02959232 0.077535354 0.049765121 -0.19972187 0.52287865 -0.32315677
0.028154792 0.078231588 0.048881069 -0.19972187 0.52287865 -0.32315677
0.026796015 0.078783959 0.048119009 -0.19972187 0.52287865 -0.32315677
0.025500743 0.079220414 0.047455303 -0.19972187 0.52287865 -0.32315677
0.02428613 0.079505287 0.046919473 -0.19972187 0.52287865 -0.32315677
0.023094092 0.079751894 0.0464167 -0.19972187 0.52287865 -0.32315677
0.021967247 0.079874486 0.046018373 -0.19972187 0.52287865 -0.32315677
0.020852963 0.079976924 0.045637742 -0.19972187 0.52287865 -0.32315677
0.019783331 0.079994135 0.045328908 -0.19972187 0.52287865 -0.32315677
0.018744983 0.079951964 0.045070216 -0.19972187 0.52287865 -0.32315677
0.017741235 0.079842769 0.044867892 -0.19972187 0.52287865 -0.32315677
0.016740046 0.079731144 0.044668186 -0.19972187 0.52287865 -0.32315677
0.015787818 0.079521559 0.044550307 -0.19972187 0.52287865 -0.32315677
0.014836379 0.079312153 0.044432744 -0.19972187 0.52287865 -0.32315677
0.013922689 0.079026133 0.044379085 -0.19972187 0.52287865 -0.32315677
0.013018438 0.078721441 0.044341225 -0.19972187 0.52287865 -0.32315677
0.012138225 0.078367151 0.044344697 -0.19972187 0.52287865 -0.32315677
0.011278737 0.077969506 0.044384252 -0.19972187 0.52287865 -0.32315677
0.010430071 0.077548832 0.044443026 -0.19972187 0.52287865 -0.32315677
0.0096142022 0.077057958 0.044559866 -0.19972187 0.52287865 -0.32315677
0.0087979455 0.076566845 0.044676986 -0.19972187 0.52287865 -0.32315677
0.008024591 0.075982369 0.044871073 -0.19972187 0.52287865 -0.32315677
0.0072517153 0.075394817 0.045067649 -0.19972187 0.52287865 -0.32315677
0.0065125381 0.074731953 0.045326106 -0.19972187 0.52287865 -0.32315677
0.0057843551 0.074042201 0.045606509 -0.19972187 0.52287865 -0.32315677
0.0050841523 0.073287867 0.045939758 -0.19972187 0.52287865 -0.32315677
0.0044035004 0.072486542 0.046311297 -0.19972187 0.52287865 -0.32315677
0 0.079937369 0.0399183 -0.19972187 0.52287865 -0.32315677
0.0031218834 0.070693128 0.047209661 -0.19972187 0.52287865 -0.32315677
0.0025288975 0.069681183 0.047752503 -0.19972187 0.52287865 -0.32315677
0.0019600568 0.068608232 0.048344649 -0.19972187 0.52287865 -0.32315677
0.0014494302 0.067396201 0.049049791 -0.19972187 0.52287865 -0.32315677
0.00096923648 0.066106141 0.049817823 -0.19972187 0.52287865 -0.32315677
0.00056201732 0.064639494 0.050729007 -0.19972187 0.52287865 -0.32315677
0.00024644894 0.062950522 0.051820308 -0.19972187 0.52287865 -0.32315677
5.2409036e-05 0.060966633 0.053150453 -0.19972187 0.52287865 -0.32315677
8.4590902e-05 0.058439802 0.054920804 -0.19972187 0.52287865 -0.32315677
0.00096600089 0.053905513 0.058321647 -0.19972187 0.52287865 -0.32315677
0.035134226 0.073030785 0.053212114 -0.19972187 0.52287865 -0.32315677
0.032848969 0.075318255 0.05099437 -0.19972187 0.52287865 -0.32315677
0.031074543 0.076643541 0.049584225 -0.19972187 0.52287865 -0.32315677
0.029504539 0.077588171 0.048494365 -0.19972187 0.52287865 -0.32315677
0.028077016 0.078267574 0.04762774 -0.19972187 0.52287865 -0.32315677
0.026725845 0.078807607 0.046878934 -0.19972187 0.52287865 -0.32315677
0.025432095 0.079243541 0.046218291 -0.19972187 0.52287865 -0.32315677
0.024223432 0.079519086 0.045692433 -0.19972187 0.52287865 -0.32315677
0.023036376 0.079758175 0.045198005 -0.19972187 0.52287865 -0.32315677
0.021910762 0.079880632 0.044801526 -0.19972187 0.52287865 -0.32315677
0.02079998 0.079978354 0.044426482 -0.19972187 0.52287865 -0.32315677
0.019732865 0.079992771 0.044121403 -0.19972187 0.52287865 -0.32315677
0.018697504 0.079946801 0.043867122 -0.19972187 0.52287865 -0.32315677
0.017694794 0.079837717 0.043665778 -0.19972187 0.52287865 -0.32315677
0.016696867 0.079721637 0.043470815 -0.19972187 0.52287865 -0.32315677
0.015745601 0.079512268 0.043353546 -0.19972187 0.52287865 -0.32315677
0.014795123 0.079303078 0.043236587 -0.19972187 0.52287865 -0.32315677
0.013884334 0.079013206 0.043186668 -0.19972187 0.52287865 -0.32315677
0.012980977 0.07870882 0.043149076 -0.19972187 0.52287865 -0.32315677
0.01210345 0.078351066 0.043155774 -0.19972187 0.52287865 -0.32315677
0.011244796 0.077953808 0.043195259 -0.19972187 0.52287865 -0.32315677
0.010398654 0.07752993 0.043256849 -0.19972187 0.52287865 -0.32315677
0.0095835654 0.077039525 0.043373294 -0.19972187 0.52287865 -0.32315677
0.0087685362 0.076547928 0.043490797 -0.19972187 0.52287865 -0.32315677
0.0079970937 0.075961463 0.043686245 -0.19972187 0.52287865 -0.32315677
0.0072249454 0.075374469 0.043882087 -0.19972187 0.52287865 -0.32315677
0.004053473 0.079999998 0.039805934 -0.19972187 0.52287865 -0.32315677
0.0030228137 0.079999998 0.039524291 -0.19972187 0.52287865 -0.32315677
0.0019938964 0.079999998 0.039243337 -0.19972187 0.52287865 -0.32315677
0.00096671091 0.079999998 0.038963068 -0.19972187 0.52287865 -0.32315677
0 0.07986968 0.038789958 -0.19972187 0.52287865 -0.32315677
0.0031037782 0.070666425 0.046024401 -0.19972187 0.52287865 -0.32315677
0.0025131076 0.069651395 0.046568327 -0.19972187 0.52287865 -0.32315677
0.0019447735 0.068579406 0.047158096 -0.19972187 0.52287865 -0.32315677
0.001436583 0.067363955 0.047864057 -0.19972187 0.52287865 -0.32315677
0.0009591303 0.066069745 0.048633292 -0.19972187 0.52287865 -0.32315677
0.00055226078 0.064604349 0.04954081 -0.19972187 0.52287865 -0.32315677
0.00023983882 0.062910199 0.050633088 -0.19972187 0.52287865 -0.32315677
4.9827322e-05 0.060919017 0.051965147 -0.19972187 0.52287865 -0.32315677
8.7796769e-05 0.058380671 0.053739395 -0.19972187 0.52287865 -0.32315677
0.0010054932 0.053763278 0.057196863 -0.19972187 0.52287865 -0.32315677
0.034966689 0.073228016 0.051807165 -0.19972187 0.52287865 -0.32315677
0.032744702 0.075397521 0.049695615 -0.19972187 0.52287865 -0.32315677
0.030984931 0.076697461 0.048311725 -0.19972187 0.52287865 -0.32315677
0.02941699 0.077640846 0.047226969 -0.19972187 0.52287865 -0.32315677
0.02799944 0.078303464 0.046377633 -0.19972187 0.52287865 -0.32315677
0.026655853 0.078831188 0.045641974 -0.19972187 0.52287865 -0.32315677
0.02536362 0.079266615 0.044984382 -0.19972187 0.52287865 -0.32315677
0.024160888 0.079532854 0.044468418 -0.19972187 0.52287865 -0.32315677
0.022978799 0.079764441 0.043982267 -0.19972187 0.52287865 -0.32315677
0.021854414 0.079886757 0.043587632 -0.19972187 0.52287865 -0.32315677
0.020747125 0.079979785 0.043218136 -0.19972187 0.52287865 -0.32315677
0.019682519 0.079991408 0.042916782 -0.19972187 0.52287865 -0.32315677
0.018650137 0.079941645 0.042666882 -0.19972187 0.52287865 -0.32315677
0.01764846 0.079832681 0.04246651 -0.19972187 0.52287865 -0.32315677
0.016653789 0.079712152 0.042276252 -0.19972187 0.52287865 -0.32315677
0.015703481 0.079503 0.042159591 -0.19972187 0.52287865 -0.32315677
0.014753962 0.079294018 0.042043239 -0.19972187 0.52287865 -0.32315677
0.013846068 0.079000317 0.041997027 -0.19972187 0.52287865 -0.32315677
0.012943604 0.078696221 0.041959696 -0.19972187 0.52287865 -0.32315677
0.012068753 0.07833501 0.041969597 -0.19972187 0.52287865 -0.32315677
0.011210933 0.077938139 0.042009015 -0.19972187 0.52287865 -0.32315677
0.010367311 0.077511072 0.042073391 -0.19972187 0.52287865 -0.32315677
0.0081547908 0.079999998 0.03974849 -0.19972187 0.52287865 -0.32315677
0.007118139 0.079999998 0.039465368 -0.19972187 0.52287865 -0.32315677
0.0060832654 0.079999998 0.039182939 -0.19972187 0.52287865 -0.32315677
0.0050501605 0.079999998 0.038901206 -0.19972187 0.52287865 -0.32315677
0.0040188134 0.079999998 0.038620159 -0.19972187 0.52287865 -0.32315677
0.0029892146 0.079999998 0.038339801 -0.19972187 0.52287865 -0.32315677
0.0019613542 0.079999998 0.038060121 -0.19972187 0.52287865 -0.32315677
0.00093522196 0.079999998 0.037781123 -0.19972187 0.52287865 -0.32315677
0 0.079802126 0.037663933 -0.19972187 0.52287865 -0.32315677
0 0.077520587 0.039242707 -0.19972187 0.52287865 -0.32315677
0.0024973527 0.069621682 0.045386788 -0.19972187 0.52287865 -0.32315677
0.0019295244 0.068550646 0.045974188 -0.19972187 0.52287865 -0.32315677
0.0014237642 0.067331783 0.04668095 -0.19972187 0.52287865 -0.32315677
0.00094904628 0.066033423 0.047451366 -0.19972187 0.52287865 -0.32315677
0.00054252567 0.064569287 0.048355225 -0.19972187 0.52287865 -0.32315677
0.00023324309 0.062869973 0.049448453 -0.19972187 0.52287865 -0.32315677
4.7251138e-05 0.060871501 0.050782386 -0.19972187 0.52287865 -0.32315677
9.0995934e-05 0.058321666 0.052560456 -0.19972187 0.52287865 -0.32315677
0.0010449168 0.053621288 0.056074034 -0.19972187 0.52287865 -0.32315677
0.034799702 0.0734246 0.050406825 -0.19972187 0.52287865 -0.32315677
0.032640725 0.075476564 0.048400439 -0.19972187 0.52287865 -0.32315677
0.030895557 0.076751232 0.04704259 -0.19972187 0.52287865 -0.32315677
0.029333288 0.077686355 0.045968749 -0.19972187 0.52287865 -0.32315677
0.027922062 0.078339264 0.045130722 -0.19972187 0.52287865 -0.32315677
0.026586033 0.078854717 0.044408113 -0.19972187 0.52287865 -0.32315677
0.025299005 0.079282358 0.043759573 -0.19972187 0.52287865 -0.32315677
0.024098497 0.079546586 0.043247409 -0.19972187 0.52287865 -0.32315677
0.022921365 0.079770684 0.042769477 -0.19972187 0.52287865 -0.32315677
0.021798203 0.079892874 0.042376675 -0.19972187 0.52287865 -0.32315677
0.020694396 0.079981208 0.04201268 -0.19972187 0.52287865 -0.32315677
0.019632295 0.079990052 0.04171503 -0.19972187 0.52287865 -0.32315677
0.018602882 0.079936512 0.041469473 -0.19972187 0.52287865 -0.32315677
0.017602239 0.079827651 0.041270074 -0.19972187 0.52287865 -0.32315677
0.016610811 0.079702698 0.041084483 -0.19972187 0.52287865 -0.32315677
0.015661461 0.079493754 0.040968429 -0.19972187 0.52287865 -0.32315677
0.014712897 0.079284981 0.040852677 -0.19972187 0.52287865 -0.32315677
0.013320814 0.079999998 0.039979912 -0.19972187 0.52287865 -0.32315677
0.012276209 0.079999998 0.039694592 -0.19972187 0.52287865 -0.32315677
0.01123343 0.079999998 0.03940998 -0.19972187 0.52287865 -0.32315677
0.010192467 0.079999998 0.039126072 -0.19972187 0.52287865 -0.32315677
0.0091533083 0.079999998 0.038842861 -0.19972187 0.52287865 -0.32315677
0.0089431489 0.078237318 0.039999999 -0.19972187 0.52287865 -0.32315677
0.0070803654 0.079999998 0.038278528 -0.19972187 0.52287865 -0.32315677
0.0060465611 0.079999998 0.037997395 -0.19972187 0.52287865 -0.32315677
0.0050145211 0.079999998 0.037716947 -0.19972187 0.52287865 -0.32315677
0.0039842357 0.079999998 0.037437186 -0.19972187 0.52287865 -0.32315677
0.0029556949 0.079999998 0.037158102 -0.19972187 0.52287865 -0.32315677
0.0019288886 0.079999998 0.036879692 -0.19972187 0.52287865 -0.32315677
0.00090380717 0.079999998 0.036601961 -0.19972187 0.52287865 -0.32315677
0 0.07973472 0.036540221 -0.19972187 0.52287865 -0.32315677
0 0.077454828 0.038112812 -0.19972187 0.52287865 -0.32315677
0 0.075155191 0.039699223 -0.19972187 0.52287865 -0.32315677
0.001914309 0.068521947 0.044792913 -0.19972187 0.52287865 -0.32315677
0.0014109735 0.067299679 0.04550045 -0.19972187 0.52287865 -0.32315677
0.00093898433 0.065997183 0.046272025 -0.19972187 0.52287865 -0.32315677
0.00053281192 0.064534307 0.047172241 -0.19972187 0.52287865 -0.32315677
0.00022666165 0.06282983 0.048266388 -0.19972187 0.52287865 -0.32315677
4.4680459e-05 0.060824089 0.049602147 -0.19972187 0.52287865 -0.32315677
9.4188421e-05 0.058262784 0.05138398 -0.19972187 0.52287865 -0.32315677
0.0013207922 0.052926663 0.055398513 -0.19972187 0.52287865 -0.32315677
0.034633264 0.073620543 0.049011067 -0.19972187 0.52287865 -0.32315677
0.032537032 0.075555392 0.047108829 -0.19972187 0.52287865 -0.32315677
0.030806417 0.076804869 0.045776799 -0.19972187 0.52287865 -0.32315677
0.029254369 0.077722862 0.04472113 -0.19972187 0.52287865 -0.32315677
0.027844884 0.078374967 0.043887001 -0.19972187 0.52287865 -0.32315677
0.026516391 0.078878179 0.043177329 -0.19972187 0.52287865 -0.32315677
0.025235416 0.079296358 0.042539183 -0.19972187 0.52287865 -0.32315677
0.02403626 0.07956028 0.042029392 -0.19972187 0.52287865 -0.32315677
0.022864066 0.07977692 0.041559607 -0.19972187 0.52287865 -0.32315677
0.021742126 0.079898976 0.041168634 -0.19972187 0.52287865 -0.32315677
0.020641793 0.079982631 0.040810104 -0.19972187 0.52287865 -0.32315677
0.019582188 0.079988696 0.040516131 -0.19972187 0.52287865 -0.32315677
0.018555738 0.079931378 0.040274885 -0.19972187 0.52287865 -0.32315677
0.017510392 0.079915889 0.039999999 -0.19972187 0.52287865 -0.32315677
0.016418235 0.079999998 0.039644215 -0.19972187 0.52287865 -0.32315677
0.015369192 0.079999998 0.039358106 -0.19972187 0.52287865 -0.32315677
0.014322001 0.079999998 0.039072704 -0.19972187 0.52287865 -0.32315677
0.013276653 0.079999998 0.038788006 -0.19972187 0.52287865 -0.32315677
0.012233137 0.079999998 0.038504016 -0.19972187 0.52287865 -0.32315677
0.011191444 0.079999998 0.038220722 -0.19972187 0.52287865 -0.32315677
0.010151561 0.079999998 0.037938125 -0.19972187 0.52287865 -0.32315677
0.0091134803 0.079999998 0.037656222 -0.19972187 0.52287865 -0.32315677
0.0080771903 0.079999998 0.037375011 -0.19972187 0.52287865 -0.32315677
0.0070426813 0.079999998 0.037094485 -0.19972187 0.52287865 -0.32315677
0.0060099433 0.079999998 0.036814641 -0.19972187 0.52287865 -0.32315677
0.004978966 0.079999998 0.036535479 -0.19972187 0.52287865 -0.32315677
0.0039497395 0.079999998 0.036256991 -0.19972187 0.52287865 -0.32315677
0.0029222539 0.079999998 0.035979182 -0.19972187 0.52287865 -0.32315677
0.0018964994 0.079999998 0.035702039 -0.19972187 0.52287865 -0.32315677
0.00087246613 0.079999998 0.035425566 -0.19972187 0.52287865 -0.32315677
0 0.079667449 0.035418805 -0.19972187 0.52287865 -0.32315677
0 0.077389196 0.03698523 -0.19972187 0.52287865 -0.32315677
0.00079209596 0.073315315 0.039999999 -0.19972187 0.52287865 -0.32315677
0.0018991275 0.068493307 0.043614257 -0.19972187 0.52287865 -0.32315677
0.0013982111 0.067267649 0.04432255 -0.19972187 0.52287865 -0.32315677
0.00092894438 0.065961026 0.04509525 -0.19972187 0.52287865 -0.32315677
0.00052311935 0.064499393 0.045991842 -0.19972187 0.52287865 -0.32315677
0.00022009444 0.062789768 0.047086876 -0.19972187 0.52287865 -0.32315677
4.2115251e-05 0.060776774 0.048424426 -0.19972187 0.52287865 -0.32315677
9.7374264e-05 0.058204025 0.050209947 -0.19972187 0.52287865 -0.32315677
0.0016096841 0.052201577 0.05474668 -0.19972187 0.52287865 -0.32315677
0.034479823 0.073791958 0.047639575 -0.19972187 0.52287865 -0.32315677
0.032433622 0.075634003 0.045820758 -0.19972187 0.52287865 -0.32315677
0.030717513 0.076858357 0.044514336 -0.19972187 0.52287865 -0.32315677
0.029175652 0.077759281 0.043476693 -0.19972187 0.52287865 -0.32315677
0.027767899 0.078410588 0.042646438 -0.19972187 0.52287865 -0.32315677
0.02644692 0.078901589 0.041949611 -0.19972187 0.52287865 -0.32315677
