# .PCD v0.7 - Point Cloud Data file format
VERSION 0.7
FIELDS x y z vp_x vp_y vp_z
SIZE 4 4 4 4 4 4
TYPE F F F F F F
COUNT 1 1 1 1 1 1
WIDTH 711
HEIGHT 1
VIEWPOINT 0 0 0 1 0 0 0
POINTS 711
DATA ascii
0 0.0096162595 0.014809368 -0.19972187 0.52287865 0.32315677
0 0.0069003664 0.013388827 -0.19972187 0.52287865 0.32315677
0.0016014765 0 0.0094597964 -0.19972187 0.52287865 0.32315677
0 0.0013928999 0.010508229 -0.19972187 0.52287865 0.32315677
0.039486691 0.074741408 0.039999999 -0.19972187 0.52287865 0.32315677
0.038636852 0.074419312 0.039999999 -0.19972187 0.52287865 0.32315677
0.037787318 0.074097291 0.039999999 -0.19972187 0.52287865 0.32315677
0.03693809 0.073775351 0.039999999 -0.19972187 0.52287865 0.32315677
0.036089156 0.073453493 0.039999999 -0.19972187 0.52287865 0.32315677
0.03524052 0.073131703 0.039999999 -0.19972187 0.52287865 0.32315677
0.033300124 0.074909382 0.041320808 -0.19972187 0.52287865 0.32315677
0.031578049 0.076284416 0.042386554 -0.19972187 0.52287865 0.32315677
0.030078879 0.077242605 0.043188851 -0.19972187 0.52287865 0.32315677
0.028699281 0.077979676 0.043851145 -0.19972187 0.52287865 0.32315677
0.027393229 0.078582726 0.044428375 -0.19972187 0.52287865 0.32315677
0.026192613 0.078987278 0.044880304 -0.19972187 0.52287865 0.32315677
0.025019854 0.079343796 0.04530146 -0.19972187 0.52287865 0.32315677
0.023906631 0.079588808 0.045652177 -0.19972187 0.52287865 0.32315677
0.022822492 0.079781443 0.045969591 -0.19972187 0.52287865 0.32315677
0.021780524 0.079894796 0.046236958 -0.19972187 0.52287865 0.32315677
0.020754952 0.079979576 0.046486057 -0.19972187 0.52287865 0.32315677
0.019766539 0.079993464 0.046690524 -0.19972187 0.52287865 0.32315677
0.018803993 0.079958387 0.046864118 -0.19972187 0.52287865 0.32315677
0.017875325 0.079857357 0.046996329 -0.19972187 0.52287865 0.32315677
0.016947778 0.079756454 0.047128394 -0.19972187 0.52287865 0.32315677
0.016057711 0.079580963 0.047213819 -0.19972187 0.52287865 0.32315677
0.015177339 0.079387203 0.047287725 -0.19972187 0.52287865 0.32315677
0.014314706 0.079158224 0.047339614 -0.19972187 0.52287865 0.32315677
0.013478084 0.078876317 0.04735852 -0.19972187 0.52287865 0.32315677
0.012641766 0.078594521 0.047377441 -0.19972187 0.52287865 0.32315677
0.011844546 0.078231283 0.047345798 -0.19972187 0.52287865 0.32315677
0.011049492 0.077863447 0.047311321 -0.19972187 0.52287865 0.32315677
0.010273677 0.077454731 0.047251552 -0.19972187 0.52287865 0.32315677
0.0095189419 0.07700064 0.047163751 -0.19972187 0.52287865 0.32315677
0.0087645557 0.076544903 0.047075037 -0.19972187 0.52287865 0.32315677
0.0080503048 0.07600192 0.046932496 -0.19972187 0.52287865 0.32315677
0.0073354552 0.075458482 0.046789858 -0.19972187 0.52287865 0.32315677
0.0066459263 0.0748583 0.046612374 -0.19972187 0.52287865 0.32315677
0.0059725852 0.074220501 0.046411917 -0.19972187 0.52287865 0.32315677
0.0053107971 0.073554695 0.046194457 -0.19972187 0.52287865 0.32315677
0.0046816627 0.072814018 0.045931172 -0.19972187 0.52287865 0.32315677
0.0040535931 0.072067298 0.045664515 -0.19972187 0.52287865 0.32315677
0.0034730758 0.0712111 0.045330875 -0.19972187 0.52287865 0.32315677
0.0028912541 0.070352979 0.044996504 -0.19972187 0.52287865 0.32315677
0.002363363 0.069368951 0.044585247 -0.19972187 0.52287865 0.32315677
0.0018383443 0.068372332 0.044166822 -0.19972187 0.52287865 0.32315677
0.0013792553 0.067220069 0.043653496 -0.19972187 0.52287865 0.32315677
0.00094238512 0.066009432 0.043105088 -0.19972187 0.52287865 0.32315677
0.00056569203 0.064652726 0.042467959 -0.19972187 0.52287865 0.32315677
0.00027068841 0.063098371 0.041710716 -0.19972187 0.52287865 0.32315677
7.1119459e-05 0.061311729 0.040812422 -0.19972187 0.52287865 0.32315677
2.7755576e-17 0.059212748 0.039724436 -0.19972187 0.52287865 0.32315677
0 0.05693059 0.038526054 -0.19972187 0.52287865 0.32315677
0 0.054629307 0.037317645 -0.19972187 0.52287865 0.32315677
2.7755576e-17 0.052308645 0.036099084 -0.19972187 0.52287865 0.32315677
0 0.049968347 0.034870226 -0.19972187 0.52287865 0.32315677
2.7755576e-17 0.047608156 0.033630945 -0.19972187 0.52287865 0.32315677
2.7755576e-17 0.0452278 0.032381095 -0.19972187 0.52287865 0.32315677
2.7755576e-17 0.042827014 0.031120535 -0.19972187 0.52287865 0.32315677
0 0.040405516 0.029849121 -0.19972187 0.52287865 0.32315677
0 0.037963029 0.028566705 -0.19972187 0.52287865 0.32315677
2.7755576e-17 0.035499267 0.027273139 -0.19972187 0.52287865 0.32315677
2.7755576e-17 0.03301394 0.025968269 -0.19972187 0.52287865 0.32315677
0 0.030506745 0.024651939 -0.19972187 0.52287865 0.32315677
0 0.027977388 0.02332399 -0.19972187 0.52287865 0.32315677
0 0.025425557 0.021984264 -0.19972187 0.52287865 0.32315677
0 0.02285094 0.020632597 -0.19972187 0.52287865 0.32315677
0 0.020253219 0.019268816 -0.19972187 0.52287865 0.32315677
0 0.017632067 0.017892757 -0.19972187 0.52287865 0.32315677
0 0.014987155 0.016504245 -0.19972187 0.52287865 0.32315677
0 0.012318143 0.0151031 -0.19972187 0.52287865 0.32315677
0 0.0096246898 0.013689145 -0.19972187 0.52287865 0.32315677
0.0026733375 0 0.0081007769 -0.19972187 0.52287865 0.32315677
0 0.0041630473 0.010822063 -0.19972187 0.52287865 0.32315677
0 0.001394138 0.0093685584 -0.19972187 0.52287865 0.32315677
0.039514482 0.076718643 0.039999999 -0.19972187 0.52287865 0.32315677
0.038666818 0.076397061 0.039999999 -0.19972187 0.52287865 0.32315677
0.03781946 0.076075561 0.039999999 -0.19972187 0.52287865 0.32315677
0.036972407 0.075754151 0.039999999 -0.19972187 0.52287865 0.32315677
0.036125652 0.075432822 0.039999999 -0.19972187 0.52287865 0.32315677
0.035279196 0.075111568 0.039999999 -0.19972187 0.52287865 0.32315677
0.034433026 0.074790396 0.039999999 -0.19972187 0.52287865 0.32315677
0.033414576 0.074800968 0.040209435 -0.19972187 0.52287865 0.32315677
0.031671874 0.076213092 0.041302927 -0.19972187 0.52287865 0.32315677
0.030159736 0.077193953 0.042122871 -0.19972187 0.52287865 0.32315677
0.028771011 0.077946492 0.042797726 -0.19972187 0.52287865 0.32315677
0.027462678 0.078551799 0.043378863 -0.19972187 0.52287865 0.32315677
0.02625612 0.07896588 0.043838814 -0.19972187 0.52287865 0.32315677
0.025077933 0.079331018 0.044267289 -0.19972187 0.52287865 0.32315677
0.023963559 0.079576284 0.044619795 -0.19972187 0.52287865 0.32315677
0.022874983 0.079775736 0.044942994 -0.19972187 0.52287865 0.32315677
0.021831976 0.079889201 0.045211747 -0.19972187 0.52287865 0.32315677
0.020803289 0.079978265 0.04546478 -0.19972187 0.52287865 0.32315677
0.01981278 0.079994462 0.045671761 -0.19972187 0.52287865 0.32315677
0.018847451 0.079963118 0.045848653 -0.19972187 0.52287865 0.32315677
0.017917903 0.079861991 0.045981597 -0.19972187 0.52287865 0.32315677
0.016989481 0.079760991 0.046114396 -0.19972187 0.52287865 0.32315677
0.016096549 0.079589508 0.046202946 -0.19972187 0.52287865 0.32315677
0.015215365 0.07939557 0.046277314 -0.19972187 0.52287865 0.32315677
0.014350119 0.07917016 0.046331912 -0.19972187 0.52287865 0.32315677
0.013512739 0.078887999 0.046351023 -0.19972187 0.52287865 0.32315677
0.012675665 0.078605942 0.046370145 -0.19972187 0.52287865 0.32315677
0.01187607 0.078245863 0.046340641 -0.19972187 0.52287865 0.32315677
0.011080311 0.077877708 0.046306118 -0.19972187 0.52287865 0.32315677
0.010302254 0.077471927 0.046248231 -0.19972187 0.52287865 0.32315677
0.0095468592 0.077017434 0.046160139 -0.19972187 0.52287865 0.32315677
0.0087911366 0.076562747 0.046072025 -0.19972187 0.52287865 0.32315677
0.008075458 0.076021038 0.045930024 -0.19972187 0.52287865 0.32315677
0.0073599927 0.075477131 0.045786835 -0.19972187 0.52287865 0.32315677
0.0066684159 0.074879602 0.045610607 -0.19972187 0.52287865 0.32315677
0.0059945029 0.074241258 0.04540934 -0.19972187 0.52287865 0.32315677
0.005330686 0.073578104 0.045192983 -0.19972187 0.52287865 0.32315677
0.0047010249 0.072836816 0.044928603 -0.19972187 0.52287865 0.32315677
0.0040709069 0.072092831 0.044662915 -0.19972187 0.52287865 0.32315677
0.0034899113 0.071235932 0.044327866 -0.19972187 0.52287865 0.32315677
0.0029076089 0.070377097 0.04399208 -0.19972187 0.52287865 0.32315677
0.0023776579 0.069395915 0.043581311 -0.19972187 0.52287865 0.32315677
0.001850682 0.068401933 0.043163221 -0.19972187 0.52287865 0.32315677
0.0013909391 0.067249395 0.042648084 -0.19972187 0.52287865 0.32315677
0.00095159898 0.066042617 0.042100277 -0.19972187 0.52287865 0.32315677
0.00057461037 0.064684846 0.041460391 -0.19972187 0.52287865 0.32315677
0.00027674701 0.063135326 0.04070358 -0.19972187 0.52287865 0.32315677
0 0.061525259 0.039910629 -0.19972187 0.52287865 0.32315677
0 0.059260361 0.03871702 -0.19972187 0.52287865 0.32315677
0 0.056976557 0.037513465 -0.19972187 0.52287865 0.32315677
0 0.054673601 0.036299828 -0.19972187 0.52287865 0.32315677
0 0.052351236 0.035075981 -0.19972187 0.52287865 0.32315677
2.7755576e-17 0.050009206 0.033841789 -0.19972187 0.52287865 0.32315677
2.7755576e-17 0.047647249 0.032597113 -0.19972187 0.52287865 0.32315677
0 0.045265097 0.031341814 -0.19972187 0.52287865 0.32315677
0 0.042862482 0.030075744 -0.19972187 0.52287865 0.32315677
2.7755576e-17 0.040439125 0.028798761 -0.19972187 0.52287865 0.32315677
0 0.037994742 0.027510718 -0.19972187 0.52287865 0.32315677
2.7755576e-17 0.035529055 0.026211461 -0.19972187 0.52287865 0.32315677
0 0.03304176 0.024900839 -0.19972187 0.52287865 0.32315677
0 0.030532567 0.023578694 -0.19972187 0.52287865 0.32315677
0 0.028001174 0.022244869 -0.19972187 0.52287865 0.32315677
0.010217242 0 0.0054365033 -0.19972187 0.52287865 0.32315677
0 0.022870541 0.019541521 -0.19972187 0.52287865 0.32315677
0 0.02027067 0.018171666 -0.19972187 0.52287865 0.32315677
0 0.017647328 0.016789462 -0.19972187 0.52287865 0.32315677
0 0.015000185 0.015394735 -0.19972187 0.52287865 0.32315677
0 0.012328902 0.013987307 -0.19972187 0.52287865 0.32315677
0.0037485915 0 0.0067375186 -0.19972187 0.52287865 0.32315677
0.0026757256 0 0.0069533633 -0.19972187 0.52287865 0.32315677
0 0.0041667339 0.0096869841 -0.19972187 0.52287865 0.32315677
0 0.0013953784 0.0082269022 -0.19972187 0.52287865 0.32315677
0.039542168 0.078685626 0.039999999 -0.19972187 0.52287865 0.32315677
0.038696669 0.078364544 0.039999999 -0.19972187 0.52287865 0.32315677
0.037851475 0.078043558 0.039999999 -0.19972187 0.52287865 0.32315677
0.037006587 0.077722661 0.039999999 -0.19972187 0.52287865 0.32315677
0.036162 0.077401854 0.039999999 -0.19972187 0.52287865 0.32315677
0.035317708 0.077081129 0.039999999 -0.19972187 0.52287865 0.32315677
0.034473706 0.076760493 0.039999999 -0.19972187 0.52287865 0.32315677
0.033629987 0.076439932 0.039999999 -0.19972187 0.52287865 0.32315677
0.032786556 0.07611946 0.039999999 -0.19972187 0.52287865 0.32315677
0.031765897 0.076141611 0.040216953 -0.19972187 0.52287865 0.32315677
0.030240757 0.077145211 0.041054692 -0.19972187 0.52287865 0.32315677
0.028842885 0.07791324 0.041742206 -0.19972187 0.52287865 0.32315677
0.027533073 0.078519233 0.042326283 -0.19972187 0.52287865 0.32315677
0.02631975 0.078944445 0.042795308 -0.19972187 0.52287865 0.32315677
0.025136124 0.07931821 0.043231156 -0.19972187 0.52287865 0.32315677
0.024020597 0.079563729 0.043585461 -0.19972187 0.52287865 0.32315677
0.022927573 0.079770014 0.043914489 -0.19972187 0.52287865 0.32315677
0.021883523 0.07988359 0.044184636 -0.19972187 0.52287865 0.32315677
0.020851718 0.079976954 0.044441629 -0.19972187 0.52287865 0.32315677
0.019859105 0.079995453 0.044651143 -0.19972187 0.52287865 0.32315677
0.018890986 0.079967849 0.04483135 -0.19972187 0.52287865 0.32315677
0.01796056 0.079866633 0.044965036 -0.19972187 0.52287865 0.32315677
0.01703126 0.079765536 0.045098573 -0.19972187 0.52287865 0.32315677
0.016135456 0.079598077 0.045190275 -0.19972187 0.52287865 0.32315677
0.015253459 0.079403952 0.045265101 -0.19972187 0.52287865 0.32315677
0.014385593 0.079182111 0.045322437 -0.19972187 0.52287865 0.32315677
0.013547455 0.078899696 0.045341749 -0.19972187 0.52287865 0.32315677
0.012709624 0.078617379 0.045361072 -0.19972187 0.52287865 0.32315677
0.011907649 0.078260474 0.045333724 -0.19972187 0.52287865 0.32315677
0.011111182 0.077891991 0.045299158 -0.19972187 0.52287865 0.32315677
0.010330881 0.077489153 0.045243174 -0.19972187 0.52287865 0.32315677
0.009574824 0.077034265 0.045154788 -0.19972187 0.52287865 0.32315677
0.0088184411 0.076579176 0.045066379 -0.19972187 0.52287865 0.32315677
0.008100654 0.076040193 0.044925824 -0.19972187 0.52287865 0.32315677
0.0073845726 0.075495817 0.044782091 -0.19972187 0.52287865 0.32315677
0.0066909431 0.07490094 0.044607129 -0.19972187 0.52287865 0.32315677
0.0060164584 0.074262053 0.044405051 -0.19972187 0.52287865 0.32315677
0.0053506079 0.073601559 0.044189811 -0.19972187 0.52287865 0.32315677
0.0047204201 0.072859645 0.043924335 -0.19972187 0.52287865 0.32315677
0.004089138 0.072116449 0.043658413 -0.19972187 0.52287865 0.32315677
0.003506775 0.071260802 0.043323167 -0.19972187 0.52287865 0.32315677
0.0029239911 0.070401259 0.042985957 -0.19972187 0.52287865 0.32315677
0.0023919765 0.069422923 0.042575695 -0.19972187 0.52287865 0.32315677
0.001864571 0.068428129 0.042155817 -0.19972187 0.52287865 0.32315677
0.0014026422 0.067278773 0.041640997 -0.19972187 0.52287865 0.32315677
0.00096082804 0.066075854 0.041093811 -0.19972187 0.52287865 0.32315677
0.00058354338 0.064717017 0.040451165 -0.19972187 0.52287865 0.32315677
6.7475885e-05 0.063667297 0.039999999 -0.19972187 0.52287865 0.32315677
0 0.061574563 0.038906757 -0.19972187 0.52287865 0.32315677
2.7755576e-17 0.059308048 0.037708014 -0.19972187 0.52287865 0.32315677
0 0.057022598 0.036499269 -0.19972187 0.52287865 0.32315677
0 0.054717965 0.035280392 -0.19972187 0.52287865 0.32315677
0 0.052393895 0.034051247 -0.19972187 0.52287865 0.32315677
0 0.050050128 0.032811701 -0.19972187 0.52287865 0.32315677
2.7755576e-17 0.047686405 0.031561617 -0.19972187 0.52287865 0.32315677
2.7755576e-17 0.045302458 0.030300848 -0.19972187 0.52287865 0.32315677
0 0.04289801 0.029029252 -0.19972187 0.52287865 0.32315677
0 0.040472791 0.027746685 -0.19972187 0.52287865 0.32315677
0 0.038026512 0.026452996 -0.19972187 0.52287865 0.32315677
0 0.035558887 0.025148032 -0.19972187 0.52287865 0.32315677
0 0.033069625 0.023831641 -0.19972187 0.52287865 0.32315677
0 0.030558432 0.022503665 -0.19972187 0.52287865 0.32315677
0 0.028024999 0.021163942 -0.19972187 0.52287865 0.32315677
0.010226421 0 0.0042800726 -0.19972187 0.52287865 0.32315677
0.009143549 0 0.0044986382 -0.19972187 0.52287865 0.32315677
0 0.020288149 0.017072657 -0.19972187 0.52287865 0.32315677
0 0.017662615 0.01568429 -0.19972187 0.52287865 0.32315677
0 0.015013237 0.014283329 -0.19972187 0.52287865 0.32315677
0.0048272591 0 0.0053699855 -0.19972187 0.52287865 0.32315677
0 0.0096415933 0.011442912 -0.19972187 0.52287865 0.32315677
0 0.0069186292 0.010003085 -0.19972187 0.52287865 0.32315677
0 0.0041704271 0.0085499287 -0.19972187 0.52287865 0.32315677
0 0.0013966208 0.0070832483 -0.19972187 0.52287865 0.32315677
0.039917376 0.079999998 0.039588645 -0.19972187 0.52287865 0.32315677
0.038899824 0.079999998 0.039794058 -0.19972187 0.52287865 0.32315677
0.039999999 0.076056138 0.037477575 -0.19972187 0.52287865 0.32315677
0.037040625 0.079680994 0.039999999 -0.19972187 0.52287865 0.32315677
0.036198191 0.079360694 0.039999999 -0.19972187 0.52287865 0.32315677
0.035356052 0.079040483 0.039999999 -0.19972187 0.52287865 0.32315677
0.034514207 0.078720368 0.039999999 -0.19972187 0.52287865 0.32315677
0.033672649 0.078400336 0.039999999 -0.19972187 0.52287865 0.32315677
0.032831371 0.078080393 0.039999999 -0.19972187 0.52287865 0.32315677
0.031990375 0.077760532 0.039999999 -0.19972187 0.52287865 0.32315677
0.031149652 0.077440761 0.039999999 -0.19972187 0.52287865 0.32315677
0.030309198 0.077121064 0.039999999 -0.19972187 0.52287865 0.32315677
0.028914902 0.077879921 0.040684581 -0.19972187 0.52287865 0.32315677
0.027603608 0.078486599 0.041271601 -0.19972187 0.52287865 0.32315677
0.026383502 0.078922957 0.041749779 -0.19972187 0.52287865 0.32315677
0.025194425 0.079305381 0.042193055 -0.19972187 0.52287865 0.32315677
0.024077743 0.079551153 0.042549163 -0.19972187 0.52287865 0.32315677
0.022980262 0.079764277 0.04288407 -0.19972187 0.52287865 0.32315677
0.021935165 0.079877973 0.043155607 -0.19972187 0.52287865 0.32315677
0.020900235 0.079975642 0.043416593 -0.19972187 0.52287865 0.32315677
0.019905517 0.079996452 0.043628659 -0.19972187 0.52287865 0.32315677
0.018935293 0.079971194 0.043811321 -0.19972187 0.52287865 0.32315677
0.018003292 0.079871282 0.043946635 -0.19972187 0.52287865 0.32315677
0.017073115 0.079770088 0.044080909 -0.19972187 0.52287865 0.32315677
0.016174434 0.079606652 0.044175789 -0.19972187 0.52287865 0.32315677
0.01529162 0.079412349 0.044251081 -0.19972187 0.52287865 0.32315677
0.014421131 0.079194084 0.04431117 -0.19972187 0.52287865 0.32315677
0.013582233 0.078911416 0.04433069 -0.19972187 0.52287865 0.32315677
0.012743643 0.078628846 0.044350211 -0.19972187 0.52287865 0.32315677
0.011939283 0.078275114 0.044325046 -0.19972187 0.52287865 0.32315677
0.011142108 0.077906296 0.044290427 -0.19972187 0.52287865 0.32315677
0.010359556 0.077506401 0.044236366 -0.19972187 0.52287865 0.32315677
0.0096028382 0.077051118 0.044147685 -0.19972187 0.52287865 0.32315677
0.0088457931 0.076595634 0.044058979 -0.19972187 0.52287865 0.32315677
0.0081258938 0.076059379 0.043919891 -0.19972187 0.52287865 0.32315677
0.007409195 0.07551454 0.043775607 -0.19972187 0.52287865 0.32315677
0.0067135096 0.074922316 0.043601934 -0.19972187 0.52287865 0.32315677
0.0060384516 0.074282892 0.043399036 -0.19972187 0.52287865 0.32315677
0.0053705643 0.073625058 0.043184932 -0.19972187 0.52287865 0.32315677
0.0047398484 0.072882518 0.042918354 -0.19972187 0.52287865 0.32315677
0.0041080364 0.072138697 0.042651325 -0.19972187 0.52287865 0.32315677
0.0035236673 0.071285717 0.042316765 -0.19972187 0.52287865 0.32315677
0.002940401 0.070425466 0.041978132 -0.19972187 0.52287865 0.32315677
0.0024063194 0.069449976 0.041568391 -0.19972187 0.52287865 0.32315677
0.0018784835 0.06845437 0.041146718 -0.19972187 0.52287865 0.32315677
0.001414365 0.067308195 0.040632233 -0.19972187 0.52287865 0.32315677
0.00097007229 0.066109151 0.040085688 -0.19972187 0.52287865 0.32315677
0.00019730057 0.065653071 0.039999999 -0.19972187 0.52287865 0.32315677
2.7755576e-17 0.063873366 0.039095271 -0.19972187 0.52287865 0.32315677
2.7755576e-17 0.061623946 0.037901301 -0.19972187 0.52287865 0.32315677
2.7755576e-17 0.05935581 0.036697406 -0.19972187 0.52287865 0.32315677
0 0.057068709 0.035483457 -0.19972187 0.52287865 0.32315677
0 0.054762401 0.034259323 -0.19972187 0.52287865 0.32315677
0 0.052436624 0.03302487 -0.19972187 0.52287865 0.32315677
0 0.050091118 0.031779956 -0.19972187 0.52287865 0.32315677
0 0.047725625 0.030524442 -0.19972187 0.52287865 0.32315677
0 0.045339875 0.02925819 -0.19972187 0.52287865 0.32315677
0 0.042933594 0.027981052 -0.19972187 0.52287865 0.32315677
0 0.040506508 0.026692884 -0.19972187 0.52287865 0.32315677
2.7755576e-17 0.038058329 0.025393531 -0.19972187 0.52287865 0.32315677
2.7755576e-17 0.035588771 0.024082845 -0.19972187 0.52287865 0.32315677
0 0.033097539 0.022760667 -0.19972187 0.52287865 0.32315677
0 0.030584339 0.021426842 -0.19972187 0.52287865 0.32315677
0 0.028048864 0.020081205 -0.19972187 0.52287865 0.32315677
0 0.025490804 0.018723596 -0.19972187 0.52287865 0.32315677
0.0091517642 0 0.0033411754 -0.19972187 0.52287865 0.32315677
0.0080694435 0 0.0035604599 -0.19972187 0.52287865 0.32315677
0 0.017677927 0.01457723 -0.19972187 0.52287865 0.32315677
0 0.015026312 0.013170018 -0.19972187 0.52287865 0.32315677
0 0.012350474 0.011749962 -0.19972187 0.52287865 0.32315677
0 0.0096500674 0.010316881 -0.19972187 0.52287865 0.32315677
0 0.0069247382 0.0088705858 -0.19972187 0.52287865 0.32315677
0 0.0041741263 0.0074108858 -0.19972187 0.52287865 0.32315677
0 0.0013978655 0.0059375865 -0.19972187 0.52287865 0.32315677
0.039984163 0.079999998 0.038541742 -0.19972187 0.52287865 0.32315677
0.038965587 0.079999998 0.038748298 -0.19972187 0.52287865 0.32315677
0.037948847 0.079999998 0.038954489 -0.19972187 0.52287865 0.32315677
0.036933932 0.079999998 0.039160319 -0.19972187 0.52287865 0.32315677
0.03592084 0.079999998 0.039365787 -0.19972187 0.52287865 0.32315677
0.034909554 0.079999998 0.039570898 -0.19972187 0.52287865 0.32315677
0.039999999 0.068436317 0.032376494 -0.19972187 0.52287865 0.32315677
0.039999999 0.066467643 0.031327464 -0.19972187 0.52287865 0.32315677
0.032037131 0.079711854 0.039999999 -0.19972187 0.52287865 0.32315677
0.031198557 0.079392612 0.039999999 -0.19972187 0.52287865 0.32315677
0.030360254 0.079073451 0.039999999 -0.19972187 0.52287865 0.32315677
0.029522216 0.07875438 0.039999999 -0.19972187 0.52287865 0.32315677
0.028684441 0.078435391 0.039999999 -0.19972187 0.52287865 0.32315677
0.027674282 0.078453898 0.040214811 -0.19972187 0.52287865 0.32315677
0.02644738 0.078901432 0.040702213 -0.19972187 0.52287865 0.32315677
0.025252836 0.079292521 0.041152976 -0.19972187 0.52287865 0.32315677
0.024134997 0.079538547 0.041510895 -0.19972187 0.52287865 0.32315677
0.023033047 0.07975854 0.041851722 -0.19972187 0.52287865 0.32315677
0.021986905 0.079872347 0.042124659 -0.19972187 0.52287865 0.32315677
0.02094884 0.079974324 0.042389665 -0.19972187 0.52287865 0.32315677
0.019952012 0.079997458 0.042604294 -0.19972187 0.52287865 0.32315677
0.018980727 0.079972424 0.042788088 -0.19972187 0.52287865 0.32315677
0.018046103 0.079875939 0.042926382 -0.19972187 0.52287865 0.32315677
0.017115045 0.079774648 0.043061402 -0.19972187 0.52287865 0.32315677
0.01621348 0.07961525 0.043159481 -0.19972187 0.52287865 0.32315677
0.01532985 0.079420768 0.043235239 -0.19972187 0.52287865 0.32315677
0.014456732 0.079206079 0.043298107 -0.19972187 0.52287865 0.32315677
0.013617072 0.078923151 0.043317832 -0.19972187 0.52287865 0.32315677
0.012777722 0.078640327 0.043337557 -0.19972187 0.52287865 0.32315677
0.011970974 0.078289777 0.043314587 -0.19972187 0.52287865 0.32315677
0.011173088 0.077920631 0.043279923 -0.19972187 0.52287865 0.32315677
0.010388283 0.077523686 0.043227803 -0.19972187 0.52287865 0.32315677
0.0096309017 0.077068001 0.043138824 -0.19972187 0.52287865 0.32315677
0.0088731926 0.076612122 0.04304982 -0.19972187 0.52287865 0.32315677
0.0081511773 0.076078601 0.042912215 -0.19972187 0.52287865 0.32315677
0.0074338596 0.075533286 0.042767376 -0.19972187 0.52287865 0.32315677
0.0067361146 0.074943729 0.042595003 -0.19972187 0.52287865 0.32315677
0.0060604825 0.074303754 0.042391293 -0.19972187 0.52287865 0.32315677
0.0053905547 0.073648587 0.042178333 -0.19972187 0.52287865 0.32315677
0.0047593098 0.072905429 0.041910652 -0.19972187 0.52287865 0.32315677
0.0041269674 0.072160982 0.041642517 -0.19972187 0.52287865 0.32315677
0.0035405885 0.071310669 0.041308656 -0.19972187 0.52287865 0.32315677
0.0029568388 0.07044971 0.040968593 -0.19972187 0.52287865 0.32315677
0.0024206864 0.069477074 0.040559385 -0.19972187 0.52287865 0.32315677
0.0018924193 0.068480656 0.040135913 -0.19972187 0.52287865 0.32315677
0.0011577883 0.067945331 0.039999999 -0.19972187 0.52287865 0.32315677
0.00032645901 0.067628242 0.039999999 -0.19972187 0.52287865 0.32315677
2.7755576e-17 0.066156924 0.039282572 -0.19972187 0.52287865 0.32315677
0 0.063924417 0.038093336 -0.19972187 0.52287865 0.32315677
0 0.061673403 0.036894254 -0.19972187 0.52287865 0.32315677
0 0.059403647 0.035685193 -0.19972187 0.52287865 0.32315677
0 0.057114895 0.034466028 -0.19972187 0.52287865 0.32315677
0 0.054806907 0.033236619 -0.19972187 0.52287865 0.32315677
0 0.05247942 0.031996835 -0.19972187 0.52287865 0.32315677
0 0.050132174 0.030746538 -0.19972187 0.52287865 0.32315677
0 0.047764909 0.029485583 -0.19972187 0.52287865 0.32315677
0 0.045377355 0.028213833 -0.19972187 0.52287865 0.32315677
0 0.042969238 0.026931135 -0.19972187 0.52287865 0.32315677
0 0.040540282 0.025637347 -0.19972187 0.52287865 0.32315677
0 0.038090199 0.024332317 -0.19972187 0.52287865 0.32315677
0 0.035618704 0.023015888 -0.19972187 0.52287865 0.32315677
0 0.033125501 0.021687908 -0.19972187 0.52287865 0.32315677
0 0.030610291 0.020348214 -0.19972187 0.52287865 0.32315677
0 0.028072769 0.018996647 -0.19972187 0.52287865 0.32315677
0 0.025512625 0.017633038 -0.19972187 0.52287865 0.32315677
0 0.022929542 0.016257221 -0.19972187 0.52287865 0.32315677
0 0.020323198 0.014869025 -0.19972187 0.52287865 0.32315677
0 0.017693266 0.013468273 -0.19972187 0.52287865 0.32315677
0 0.01503941 0.012054789 -0.19972187 0.52287865 0.32315677
0.0048359176 0 0.0030610601 -0.19972187 0.52287865 0.32315677
0 0.0096585564 0.0091888942 -0.19972187 0.52287865 0.32315677
0 0.0069308574 0.0077361092 -0.19972187 0.52287865 0.32315677
0 0.004177832 0.0062698452 -0.19972187 0.52287865 0.32315677
0 0.0013991123 0.0047899061 -0.19972187 0.52287865 0.32315677
0.039999999 0.078203417 0.036542591 -0.19972187 0.52287865 0.32315677
0.03699778 0.079999998 0.038114868 -0.19972187 0.52287865 0.32315677
0.034971375 0.079999998 0.038527705 -0.19972187 0.52287865 0.32315677
0.033960879 0.079999998 0.038733583 -0.19972187 0.52287865 0.32315677
0.032952175 0.079999998 0.0389391 -0.19972187 0.52287865 0.32315677
0.031945255 0.079999998 0.039144259 -0.19972187 0.52287865 0.32315677
0.030940108 0.079999998 0.039349064 -0.19972187 0.52287865 0.32315677
0.039999999 0.060593758 0.027126471 -0.19972187 0.52287865 0.32315677
0.028935093 0.079999998 0.039757617 -0.19972187 0.52287865 0.32315677
0.027935209 0.079999998 0.039961368 -0.19972187 0.52287865 0.32315677
0.02706903 0.079742134 0.039999999 -0.19972187 0.52287865 0.32315677
0.026234159 0.079423934 0.039999999 -0.19972187 0.52287865 0.32315677
0.02531136 0.079279639 0.040110905 -0.19972187 0.52287865 0.32315677
0.024192361 0.079525925 0.040470641 -0.19972187 0.52287865 0.32315677
0.023085931 0.07975278 0.040817432 -0.19972187 0.52287865 0.32315677
0.022038741 0.079866707 0.041091774 -0.19972187 0.52287865 0.32315677
0.020997537 0.079973012 0.041360829 -0.19972187 0.52287865 0.32315677
0.019998593 0.079998456 0.041578043 -0.19972187 0.52287865 0.32315677
0.019026244 0.079973653 0.041762978 -0.19972187 0.52287865 0.32315677
0.018088991 0.079880603 0.041904271 -0.19972187 0.52287865 0.32315677
0.017157052 0.079779215 0.042040035 -0.19972187 0.52287865 0.32315677
0.016252598 0.079623856 0.042141341 -0.19972187 0.52287865 0.32315677
0.015368149 0.079429194 0.042217564 -0.19972187 0.52287865 0.32315677
0.014492396 0.079218097 0.042283237 -0.19972187 0.52287865 0.32315677
0.013651974 0.078934915 0.042303167 -0.19972187 0.52287865 0.32315677
0.012811862 0.078651831 0.042323094 -0.19972187 0.52287865 0.32315677
0.01200272 0.078304462 0.042302344 -0.19972187 0.52287865 0.32315677
0.011204123 0.077934988 0.042267632 -0.19972187 0.52287865 0.32315677
0.010417059 0.077541001 0.042217471 -0.19972187 0.52287865 0.32315677
0.0096590137 0.077084914 0.042128198 -0.19972187 0.52287865 0.32315677
0.0089006405 0.076628633 0.042038891 -0.19972187 0.52287865 0.32315677
0.0081765046 0.076097853 0.041902784 -0.19972187 0.52287865 0.32315677
0.0074585676 0.075552069 0.041757394 -0.19972187 0.52287865 0.32315677
0.0067587588 0.074965179 0.041586336 -0.19972187 0.52287865 0.32315677
0.0060825516 0.07432466 0.041381806 -0.19972187 0.52287865 0.32315677
0.005410579 0.073672161 0.041170008 -0.19972187 0.52287865 0.32315677
0.0047788047 0.072928384 0.040901221 -0.19972187 0.52287865 0.32315677
0.0041459305 0.072183311 0.040631972 -0.19972187 0.52287865 0.32315677
0.0035575384 0.071335673 0.040298827 -0.19972187 0.52287865 0.32315677
0.0029427656 0.070542157 0.039999999 -0.19972187 0.52287865 0.32315677
0.0021133686 0.070225708 0.039999999 -0.19972187 0.52287865 0.32315677
0.0012840987 0.069909304 0.039999999 -0.19972187 0.52287865 0.32315677
0.00045495204 0.06959293 0.039999999 -0.19972187 0.52287865 0.32315677
2.7755576e-17 0.068425409 0.039468657 -0.19972187 0.52287865 0.32315677
2.7755576e-17 0.066209629 0.038284119 -0.19972187 0.52287865 0.32315677
2.7755576e-17 0.06397555 0.037089814 -0.19972187 0.52287865 0.32315677
2.7755576e-17 0.061722942 0.035885606 -0.19972187 0.52287865 0.32315677
0 0.059451561 0.034671366 -0.19972187 0.52287865 0.32315677
2.7755576e-17 0.05716116 0.033446968 -0.19972187 0.52287865 0.32315677
0 0.054851484 0.032212269 -0.19972187 0.52287865 0.32315677
0 0.052522283 0.030967142 -0.19972187 0.52287865 0.32315677
0 0.050173298 0.029711444 -0.19972187 0.52287865 0.32315677
0 0.047804259 0.028445031 -0.19972187 0.52287865 0.32315677
0 0.045414899 0.027167764 -0.19972187 0.52287865 0.32315677
0 0.043004941 0.025879491 -0.19972187 0.52287865 0.32315677
2.7755576e-17 0.040574111 0.024580069 -0.19972187 0.52287865 0.32315677
0 0.038122125 0.02326934 -0.19972187 0.52287865 0.32315677
0 0.035648689 0.021947155 -0.19972187 0.52287865 0.32315677
0 0.033153508 0.020613352 -0.19972187 0.52287865 0.32315677
0 0.030636286 0.019267773 -0.19972187 0.52287865 0.32315677
0 0.028096715 0.017910255 -0.19972187 0.52287865 0.32315677
0 0.025534485 0.01654063 -0.19972187 0.52287865 0.32315677
0 0.022949276 0.01515873 -0.19972187 0.52287865 0.32315677
0.008083961 0 0.0012413869 -0.19972187 0.52287865 0.32315677
0 0.017708631 0.012357409 -0.19972187 0.52287865 0.32315677
0 0.01505253 0.010937634 -0.19972187 0.52287865 0.32315677
0 0.012372122 0.0095048724 -0.19972187 0.52287865 0.32315677
0 0.0096670603 0.0080589401 -0.19972187 0.52287865 0.32315677
0.0026853196 0 0.0023434411 -0.19972187 0.52287865 0.32315677
0 0.0041815448 0.0051267962 -0.19972187 0.52287865 0.32315677
0 0.0014003613 0.0036401954 -0.19972187 0.52287865 0.32315677
0.039097484 0.079999998 0.036650874 -0.19972187 0.52287865 0.32315677
0.038078696 0.079999998 0.036859352 -0.19972187 0.52287865 0.32315677
0.039999999 0.074504308 0.033517364 -0.19972187 0.52287865 0.32315677
0.03604662 0.079999998 0.037275188 -0.19972187 0.52287865 0.32315677
0.035033312 0.079999998 0.037482552 -0.19972187 0.52287865 0.32315677
0.034021806 0.079999998 0.037689555 -0.19972187 0.52287865 0.32315677
0.033012096 0.079999998 0.03789619 -0.19972187 0.52287865 0.32315677
0.032004174 0.079999998 0.038102467 -0.19972187 0.52287865 0.32315677
0.030998029 0.079999998 0.038308378 -0.19972187 0.52287865 0.32315677
0.02999365 0.079999998 0.038513936 -0.19972187 0.52287865 0.32315677
0.039999999 0.058682278 0.025027888 -0.19972187 0.52287865 0.32315677
0.039999999 0.056641974 0.023933159 -0.19972187 0.52287865 0.32315677
0.026991021 0.079999998 0.039128479 -0.19972187 0.52287865 0.32315677
0.025993617 0.079999998 0.039332625 -0.19972187 0.52287865 0.32315677
0.024997933 0.079999998 0.03953642 -0.19972187 0.52287865 0.32315677
0.02400396 0.079999998 0.03973987 -0.19972187 0.52287865 0.32315677
0.023011688 0.079999998 0.039942972 -0.19972187 0.52287865 0.32315677
0.022090675 0.07986106 0.040056948 -0.19972187 0.52287865 0.32315677
0.021046326 0.079971686 0.040330078 -0.19972187 0.52287865 0.32315677
0.020045606 0.079998761 0.04054945 -0.19972187 0.52287865 0.32315677
0.019071845 0.07997489 0.040735971 -0.19972187 0.52287865 0.32315677
0.018131958 0.079885274 0.040880289 -0.19972187 0.52287865 0.32315677
0.017199134 0.079783797 0.041016798 -0.19972187 0.52287865 0.32315677
0.016291786 0.079632483 0.041121364 -0.19972187 0.52287865 0.32315677
0.015406517 0.079437643 0.041198052 -0.19972187 0.52287865 0.32315677
0.014528124 0.079230137 0.041266549 -0.19972187 0.52287865 0.32315677
0.013686939 0.078946695 0.041286685 -0.19972187 0.52287865 0.32315677
0.012846063 0.078663357 0.04130682 -0.19972187 0.52287865 0.32315677
0.012034522 0.078319177 0.041288305 -0.19972187 0.52287865 0.32315677
0.011235213 0.077949375 0.041253548 -0.19972187 0.52287865 0.32315677
0.010445886 0.077558346 0.041205361 -0.19972187 0.52287865 0.32315677
0.009687176 0.077101864 0.041115791 -0.19972187 0.52287865 0.32315677
0.0089281369 0.076645181 0.041026186 -0.19972187 0.52287865 0.32315677
0.0082018767 0.076117143 0.040891591 -0.19972187 0.52287865 0.32315677
0.0074833189 0.075570889 0.040745646 -0.19972187 0.52287865 0.32315677
0.0067814421 0.074986666 0.040575922 -0.19972187 0.52287865 0.32315677
0.0061046588 0.074345604 0.040370565 -0.19972187 0.52287865 0.32315677
0.0054306383 0.073695779 0.040159948 -0.19972187 0.52287865 0.32315677
0.00471895 0.073126011 0.039999999 -0.19972187 0.52287865 0.32315677
0.0038914504 0.072810166 0.039999999 -0.19972187 0.52287865 0.32315677
0.0030640876 0.072494373 0.039999999 -0.19972187 0.52287865 0.32315677
0.0022368575 0.072178617 0.039999999 -0.19972187 0.52287865 0.32315677
0.0014097566 0.071862906 0.039999999 -0.19972187 0.52287865 0.32315677
0.00058278051 0.071547233 0.039999999 -0.19972187 0.52287865 0.32315677
0 0.070678979 0.039653536 -0.19972187 0.52287865 0.32315677
2.7755576e-17 0.068479739 0.038473666 -0.19972187 0.52287865 0.32315677
0 0.066262417 0.037284091 -0.19972187 0.52287865 0.32315677
0 0.064026766 0.036084697 -0.19972187 0.52287865 0.32315677
2.7755576e-17 0.061772559 0.034875344 -0.19972187 0.52287865 0.32315677
0 0.059499551 0.033655912 -0.19972187 0.52287865 0.32315677
2.7755576e-17 0.057207495 0.032426264 -0.19972187 0.52287865 0.32315677
0 0.054896135 0.031186264 -0.19972187 0.52287865 0.32315677
0 0.052565221 0.029935777 -0.19972187 0.52287865 0.32315677
0 0.050214484 0.028674662 -0.19972187 0.52287865 0.32315677
2.7755576e-17 0.047843669 0.027402775 -0.19972187 0.52287865 0.32315677
0 0.045452502 0.026119975 -0.19972187 0.52287865 0.32315677
0 0.043040704 0.024826111 -0.19972187 0.52287865 0.32315677
0 0.040608 0.023521036 -0.19972187 0.52287865 0.32315677
0 0.038154099 0.022204595 -0.19972187 0.52287865 0.32315677
0 0.035678722 0.020876633 -0.19972187 0.52287865 0.32315677
0 0.033181563 0.019536991 -0.19972187 0.52287865 0.32315677
0 0.030662324 0.018185509 -0.19972187 0.52287865 0.32315677
0.010967498 0.00095163635 0 -0.19972187 0.52287865 0.32315677
0 0.02555638 0.015446362 -0.19972187 0.52287865 0.32315677
0.0090837153 0.00023224438 0 -0.19972187 0.52287865 0.32315677
0 0.020358369 0.012657841 -0.19972187 0.52287865 0.32315677
0 0.017724024 0.011244628 -0.19972187 0.52287865 0.32315677
0 0.015065673 0.0098185409 -0.19972187 0.52287865 0.32315677
0 0.012382975 0.008379397 -0.19972187 0.52287865 0.32315677
0 0.0096755782 0.0069270078 -0.19972187 0.52287865 0.32315677
0 0.006943129 0.0054611829 -0.19972187 0.52287865 0.32315677
0 0.0041852635 0.0039817276 -0.19972187 0.52287865 0.32315677
0 0.0014016127 0.0024884441 -0.19972187 0.52287865 0.32315677
0.039163619 0.079999998 0.035599191 -0.19972187 0.52287865 0.32315677
0.038143806 0.079999998 0.035808813 -0.19972187 0.52287865 0.32315677
0.037125833 0.079999998 0.036018059 -0.19972187 0.52287865 0.32315677
0.039999999 0.072694212 0.031493697 -0.19972187 0.52287865 0.32315677
0.039999999 0.070749573 0.030446673 -0.19972187 0.52287865 0.32315677
0.039999999 0.068791583 0.029392457 -0.19972187 0.52287865 0.32315677
0.033072129 0.079999998 0.03685132 -0.19972187 0.52287865 0.32315677
0.032063205 0.079999998 0.037058711 -0.19972187 0.52287865 0.32315677
0.031056058 0.079999998 0.03726574 -0.19972187 0.52287865 0.32315677
0.030050682 0.079999998 0.037472408 -0.19972187 0.52287865 0.32315677
0.029047066 0.079999998 0.037678711 -0.19972187 0.52287865 0.32315677
0.028045204 0.079999998 0.037884656 -0.19972187 0.52287865 0.32315677
0.039999999 0.054698892 0.02180475 -0.19972187 0.52287865 0.32315677
0.026046697 0.079999998 0.038295481 -0.19972187 0.52287865 0.32315677
0.025050033 0.079999998 0.038500361 -0.19972187 0.52287865 0.32315677
0.024055084 0.079999998 0.038704891 -0.19972187 0.52287865 0.32315677
0.02306184 0.079999998 0.038909074 -0.19972187 0.52287865 0.32315677
0.022070291 0.079999998 0.039112907 -0.19972187 0.52287865 0.32315677
0.021080431 0.079999998 0.039316393 -0.19972187 0.52287865 0.32315677
0.020092247 0.079999998 0.039519537 -0.19972187 0.52287865 0.32315677
0.019105732 0.079999998 0.039722338 -0.19972187 0.52287865 0.32315677
0.018120879 0.079999998 0.0399248 -0.19972187 0.52287865 0.32315677
0.017234927 0.079801388 0.039999999 -0.19972187 0.52287865 0.32315677
0.016331047 0.079641126 0.040099531 -0.19972187 0.52287865 0.32315677
0.015444955 0.0794461 0.04017669 -0.19972187 0.52287865 0.32315677
0.014563916 0.0792422 0.040248036 -0.19972187 0.52287865 0.32315677
0.013721966 0.078958496 0.04026838 -0.19972187 0.52287865 0.32315677
0.012880325 0.078674905 0.040288717 -0.19972187 0.52287865 0.32315677
0.012066382 0.078333914 0.040272463 -0.19972187 0.52287865 0.32315677
0.011266359 0.077963784 0.040237658 -0.19972187 0.52287865 0.32315677
0.010474764 0.077575721 0.040191464 -0.19972187 0.52287865 0.32315677
0.0097153876 0.077118836 0.040101595 -0.19972187 0.52287865 0.32315677
0.0089556808 0.076661751 0.040011689 -0.19972187 0.52287865 0.32315677
0.0081381956 0.076327875 0.039999999 -0.19972187 0.52287865 0.32315677
0.0073122531 0.076012485 0.039999999 -0.19972187 0.52287865 0.32315677
0.0064864657 0.075697146 0.039999999 -0.19972187 0.52287865 0.32315677
0.0056608287 0.075381868 0.039999999 -0.19972187 0.52287865 0.32315677
0.0048353383 0.075066641 0.039999999 -0.19972187 0.52287865 0.32315677
0.0040099905 0.074751467 0.039999999 -0.19972187 0.52287865 0.32315677
0.0031847814 0.074436344 0.039999999 -0.19972187 0.52287865 0.32315677
0.0023597069 0.074121267 0.039999999 -0.19972187 0.52287865 0.32315677
0.0015347628 0.073806241 0.039999999 -0.19972187 0.52287865 0.32315677
0.00070994528 0.073491253 0.039999999 -0.19972187 0.52287865 0.32315677
0 0.072917797 0.039837219 -0.19972187 0.52287865 0.32315677
0 0.070734918 0.038661972 -0.19972187 0.52287865 0.32315677
0 0.068534158 0.037477098 -0.19972187 0.52287865 0.32315677
2.7755576e-17 0.066315286 0.036282476 -0.19972187 0.52287865 0.32315677
2.7755576e-17 0.064078063 0.035077974 -0.19972187 0.52287865 0.32315677
2.7755576e-17 0.061822254 0.03386347 -0.19972187 0.52287865 0.32315677
2.7755576e-17 0.059547618 0.032638825 -0.19972187 0.52287865 0.32315677
0 0.057253905 0.031403914 -0.19972187 0.52287865 0.32315677
0 0.054940857 0.030158594 -0.19972187 0.52287865 0.32315677
2.7755576e-17 0.052608225 0.028902732 -0.19972187 0.52287865 0.32315677
2.7755576e-17 0.050255742 0.027636183 -0.19972187 0.52287865 0.32315677
0 0.047883146 0.026358807 -0.19972187 0.52287865 0.32315677
0 0.045490164 0.025070457 -0.19972187 0.52287865 0.32315677
0 0.043076523 0.023770986 -0.19972187 0.52287865 0.32315677
0 0.040641941 0.022460241 -0.19972187 0.52287865 0.32315677
0 0.038186133 0.021138068 -0.19972187 0.52287865 0.32315677
0 0.035708804 0.019804312 -0.19972187 0.52287865 0.32315677
0 0.033209663 0.018458815 -0.19972187 0.52287865 0.32315677
0 0.030688407 0.017101411 -0.19972187 0.52287865 0.32315677
0.010220423 0.0028275724 0 -0.19972187 0.52287865 0.32315677
0 0.025578314 0.014350223 -0.19972187 0.52287865 0.32315677
0 0.022988847 0.0129561 -0.19972187 0.52287865 0.32315677
0 0.020375999 0.011549391 -0.19972187 0.52287865 0.32315677
0 0.017739443 0.010129918 -0.19972187 0.52287865 0.32315677
0 0.015078839 0.0086975005 -0.19972187 0.52287865 0.32315677
0 0.012393845 0.0072519532 -0.19972187 0.52287865 0.32315677
0 0.0096841119 0.0057930872 -0.19972187 0.52287865 0.32315677
0 0.0069492809 0.0043207114 -0.19972187 0.52287865 0.32315677
0 0.0041889893 0.002834629 -0.19972187 0.52287865 0.32315677
0.00053728872 0 0.00046888023 -0.19972187 0.52287865 0.32315677
0.039229877 0.079999998 0.034545511 -0.19972187 0.52287865 0.32315677
0.03820904 0.079999998 0.034756284 -0.19972187 0.52287865 0.32315677
0.037190042 0.079999998 0.034966677 -0.19972187 0.52287865 0.32315677
0.036172878 0.079999998 0.035176691 -0.19972187 0.52287865 0.32315677
0.035157535 0.079999998 0.035386328 -0.19972187 0.52287865 0.32315677
0.034144003 0.079999998 0.035595588 -0.19972187 0.52287865 0.32315677
0.033132277 0.079999998 0.035804477 -0.19972187 0.52287865 0.32315677
0.032122344 0.079999998 0.036012992 -0.19972187 0.52287865 0.32315677
0.031114196 0.079999998 0.036221139 -0.19972187 0.52287865 0.32315677
0.030107822 0.079999998 0.036428917 -0.19972187 0.52287865 0.32315677
0.029103212 0.079999998 0.03663633 -0.19972187 0.52287865 0.32315677
0.028100356 0.079999998 0.036843378 -0.19972187 0.52287865 0.32315677
0.027099248 0.079999998 0.037050065 -0.19972187 0.52287865 0.32315677
0.026099876 0.079999998 0.037256394 -0.19972187 0.52287865 0.32315677
0.02510223 0.079999998 0.037462365 -0.19972187 0.52287865 0.32315677
0.024106303 0.079999998 0.037667979 -0.19972187 0.52287865 0.32315677
0.023112085 0.079999998 0.037873238 -0.19972187 0.52287865 0.32315677
0.022119565 0.079999998 0.038078148 -0.19972187 0.52287865 0.32315677
0.021128736 0.079999998 0.038282704 -0.19972187 0.52287865 0.32315677
0.020139588 0.079999998 0.038486913 -0.19972187 0.52287865 0.32315677
0.019152114 0.079999998 0.038690776 -0.19972187 0.52287865 0.32315677
0.018166302 0.079999998 0.038894296 -0.19972187 0.52287865 0.32315677
0.017182143 0.079999998 0.039097469 -0.19972187 0.52287865 0.32315677
0.039999999 0.031182839 0.0080116745 -0.19972187 0.52287865 0.32315677
0.015218754 0.079999998 0.0395028 -0.19972187 0.52287865 0.32315677
0.014239506 0.079999998 0.03970496 -0.19972187 0.52287865 0.32315677
0.013261877 0.079999998 0.039906781 -0.19972187 0.52287865 0.32315677
0.012366955 0.079830587 0.039999999 -0.19972187 0.52287865 0.32315677
0.011542306 0.079515494 0.039999999 -0.19972187 0.52287865 0.32315677
0.010717833 0.079200476 0.039999999 -0.19972187 0.52287865 0.32315677
0.0098935338 0.078885525 0.039999999 -0.19972187 0.52287865 0.32315677
0.0090694008 0.078570634 0.039999999 -0.19972187 0.52287865 0.32315677
0.0082454327 0.078255817 0.039999999 -0.19972187 0.52287865 0.32315677
0.0074216253 0.07794106 0.039999999 -0.19972187 0.52287865 0.32315677
0.0065979734 0.077626362 0.039999999 -0.19972187 0.52287865 0.32315677
0.0057744742 0.077311732 0.039999999 -0.19972187 0.52287865 0.32315677
0.0049511227 0.076997153 0.039999999 -0.19972187 0.52287865 0.32315677
0.004127915 0.076682635 0.039999999 -0.19972187 0.52287865 0.32315677
0.003304848 0.076368168 0.039999999 -0.19972187 0.52287865 0.32315677
0.0024819169 0.076053761 0.039999999 -0.19972187 0.52287865 0.32315677
0.0016591179 0.075739406 0.039999999 -0.19972187 0.52287865 0.32315677
0.00083644706 0.075425096 0.039999999 -0.19972187 0.52287865 0.32315677
1.3900352e-05 0.075110845 0.039999999 -0.19972187 0.52287865 0.32315677
2.7755576e-17 0.072975308 0.038849048 -0.19972187 0.52287865 0.32315677
2.7755576e-17 0.070790939 0.037668835 -0.19972187 0.52287865 0.32315677
2.7755576e-17 0.068588659 0.036478948 -0.19972187 0.52287865 0.32315677
0 0.066368237 0.035279259 -0.19972187 0.52287865 0.32315677
0 0.064129442 0.034069642 -0.19972187 0.52287865 0.32315677
0 0.061872032 0.032849967 -0.19972187 0.52287865 0.32315677
0 0.059595764 0.0316201 -0.19972187 0.52287865 0.32315677
0 0.057300389 0.030379906 -0.19972187 0.52287865 0.32315677
0 0.054985654 0.029129252 -0.19972187 0.52287865 0.32315677
0 0.052651301 0.027867997 -0.19972187 0.52287865 0.32315677
2.7755576e-17 0.050297067 0.026596 -0.19972187 0.52287865 0.32315677
0 0.047922689 0.025313118 -0.19972187 0.52287865 0.32315677
2.7755576e-17 0.045527894 0.024019202 -0.19972187 0.52287865 0.32315677
0 0.043112405 0.022714105 -0.19972187 0.52287865 0.32315677
0 0.040675942 0.021397673 -0.19972187 0.52287865 0.32315677
0 0.038218215 0.020069752 -0.19972187 0.52287865 0.32315677
0 0.035738938 0.018730186 -0.19972187 0.52287865 0.32315677
0 0.033237811 0.017378813 -0.19972187 0.52287865 0.32315677
0 0.030714534 0.01601547 -0.19972187 0.52287865 0.32315677
0 0.028168797 0.01463999 -0.19972187 0.52287865 0.32315677
0.0085405493 0.0043355636 0 -0.19972187 0.52287865 0.32315677
0.0076037748 0.0039777244 0 -0.19972187 0.52287865 0.32315677
0 0.02039366 0.010439022 -0.19972187 0.52287865 0.32315677
0 0.017754888 0.00901327 -0.19972187 0.52287865 0.32315677
0 0.015092028 0.0075745014 -0.19972187 0.52287865 0.32315677
0 0.012404735 0.0061225304 -0.19972187 0.52287865 0.32315677
0 0.0096926596 0.0046571679 -0.19972187 0.52287865 0.32315677
0 0.0069554434 0.0031782195 -0.19972187 0.52287865 0.32315677
0 0.0041927211 0.0016854891 -0.19972187 0.52287865 0.32315677
0 0.0014041219 0.0001787754 -0.19972187 0.52287865 0.32315677
0.039296266 0.079999998 0.03348982 -0.19972187 0.52287865 0.32315677
0.038274396 0.079999998 0.033701751 -0.19972187 0.52287865 0.32315677
0.037254371 0.079999998 0.033913296 -0.19972187 0.52287865 0.32315677
0.036236186 0.079999998 0.034124456 -0.19972187 0.52287865 0.32315677
0.035219822 0.079999998 0.034335233 -0.19972187 0.52287865 0.32315677
0.034205277 0.079999998 0.03454563 -0.19972187 0.52287865 0.32315677
0.033192538 0.079999998 0.034755647 -0.19972187 0.52287865 0.32315677
0.032181598 0.079999998 0.034965292 -0.19972187 0.52287865 0.32315677
0.031172445 0.079999998 0.03517456 -0.19972187 0.52287865 0.32315677
0.030165069 0.079999998 0.035383452 -0.19972187 0.52287865 0.32315677
0.029159462 0.079999998 0.035591979 -0.19972187 0.52287865 0.32315677
0.028155614 0.079999998 0.035800133 -0.19972187 0.52287865 0.32315677
0.027153514 0.079999998 0.036007926 -0.19972187 0.52287865 0.32315677
0.039999999 0.052850157 0.018624946 -0.19972187 0.52287865 0.32315677
0.025154527 0.079999998 0.036422413 -0.19972187 0.52287865 0.32315677
0.024157619 0.079999998 0.036629114 -0.19972187 0.52287865 0.32315677
0.023162425 0.079999998 0.036835458 -0.19972187 0.52287865 0.32315677
0.022168932 0.079999998 0.037041444 -0.19972187 0.52287865 0.32315677
0.021177134 0.079999998 0.037247077 -0.19972187 0.52287865 0.32315677
0.020187018 0.079999998 0.037452355 -0.19972187 0.52287865 0.32315677
0.01919858 0.079999998 0.037657283 -0.19972187 0.52287865 0.32315677
0.018211808 0.079999998 0.037861861 -0.19972187 0.52287865 0.32315677
0.017226694 0.079999998 0.038066093 -0.19972187 0.52287865 0.32315677
0.016243229 0.079999998 0.038269978 -0.19972187 0.52287865 0.32315677
0.015261401 0.079999998 0.03847352 -0.19972187 0.52287865 0.32315677
0.014281207 0.079999998 0.03867672 -0.19972187 0.52287865 0.32315677
0.013302634 0.079999998 0.038879581 -0.19972187 0.52287865 0.32315677
0.039999999 0.022199908 0.0020075166 -0.19972187 0.52287865 0.32315677
0.011350318 0.079999998 0.039284285 -0.19972187 0.52287865 0.32315677
0.010376559 0.079999998 0.03948614 -0.19972187 0.52287865 0.32315677
0.0094043873 0.079999998 0.039687656 -0.19972187 0.52287865 0.32315677
0.03774558 0.017635306 0 -0.19972187 0.52287865 0.32315677
0.0075304285 0.079859652 0.039999999 -0.19972187 0.52287865 0.32315677
0.0067089009 0.079545587 0.039999999 -0.19972187 0.52287865 0.32315677
0.005887527 0.079231583 0.039999999 -0.19972187 0.52287865 0.32315677
0.0050663031 0.078917645 0.039999999 -0.19972187 0.52287865 0.32315677
0.0042452244 0.078603767 0.039999999 -0.19972187 0.52287865 0.32315677
0.0034242875 0.078289956 0.039999999 -0.19972187 0.52287865 0.32315677
0.0026034883 0.077976204 0.039999999 -0.19972187 0.52287865 0.32315677
0.0017828225 0.077662505 0.039999999 -0.19972187 0.52287865 0.32315677
0.00096228672 0.077348866 0.039999999 -0.19972187 0.52287865 0.32315677
0.00014187659 0.077035278 0.039999999 -0.19972187 0.52287865 0.32315677
0 0.075201087 0.039034899 -0.19972187 0.52287865 0.32315677
0 0.073032916 0.037859313 -0.19972187 0.52287865 0.32315677
0 0.070847049 0.036674127 -0.19972187 0.52287865 0.32315677
0 0.068643242 0.03547921 -0.19972187 0.52287865 0.32315677
0 0.066421278 0.03427444 -0.19972187 0.52287865 0.32315677
0 0.064180903 0.03305969 -0.19972187 0.52287865 0.32315677
0 0.061921891 0.031834826 -0.19972187 0.52287865 0.32315677
0 0.059643988 0.030599719 -0.19972187 0.52287865 0.32315677
2.7755576e-17 0.057346951 0.029354231 -0.19972187 0.52287865 0.32315677
0 0.055030521 0.028098226 -0.19972187 0.52287865 0.32315677
0 0.052694447 0.026831564 -0.19972187 0.52287865 0.32315677
