# .PCD v0.7 - Point Cloud Data file format
VERSION 0.7
FIELDS x y z vp_x vp_y vp_z
SIZE 4 4 4 4 4 4
TYPE F F F F F F
COUNT 1 1 1 1 1 1
WIDTH 716
HEIGHT 1
VIEWPOINT 0 0 0 1 0 0 0
POINTS 716
DATA ascii
0 0.017426886 0.03132594 -0.32315677 0.19972187 0.52287865
0 0.016327605 0.030559007 -0.32315677 0.19972187 0.52287865
0 0.015224965 0.029789774 -0.32315677 0.19972187 0.52287865
0.018988032 0.003213298 0 -0.32315677 0.19972187 0.52287865
0.018452734 0.0023479755 0 -0.32315677 0.19972187 0.52287865
0 0.011896691 0.027468141 -0.32315677 0.19972187 0.52287865
0 0.010780412 0.026689572 -0.32315677 0.19972187 0.52287865
0.01642582 0 0.00064801419 -0.32315677 0.19972187 0.52287865
0.014430741 0 0.0028978607 -0.32315677 0.19972187 0.52287865
0 0.0074107135 0.024339581 -0.32315677 0.19972187 0.52287865
0.010491918 0 0.0073398035 -0.32315677 0.19972187 0.52287865
0 0.0051466478 0.02276087 -0.32315677 0.19972187 0.52287865
0 0.0040092692 0.021967854 -0.32315677 0.19972187 0.52287865
0 0.0028682975 0.021172378 -0.32315677 0.19972187 0.52287865
0 0.00172371 0.020374427 -0.32315677 0.19972187 0.52287865
0 0.0005754843 0.019573983 -0.32315677 0.19972187 0.52287865
0.038268391 0.079999998 0.030356489 -0.32315677 0.19972187 0.52287865
0.035269473 0.079999998 0.033745009 -0.32315677 0.19972187 0.52287865
0.039999999 0.077410966 0.026580336 -0.32315677 0.19972187 0.52287865
0.029675132 0.079905741 0.039999999 -0.32315677 0.19972187 0.52287865
0.029170092 0.079093628 0.039999999 -0.32315677 0.19972187 0.52287865
0.028665297 0.07828185 0.039999999 -0.32315677 0.19972187 0.52287865
0.020966511 0.079973847 0.04988832 -0.32315677 0.19972187 0.52287865
0.018382434 0.079912528 0.052765235 -0.32315677 0.19972187 0.52287865
0.016390134 0.079654127 0.054835021 -0.32315677 0.19972187 0.52287865
0.014725606 0.079287775 0.056458618 -0.32315677 0.19972187 0.52287865
0.01333781 0.078829058 0.05770465 -0.32315677 0.19972187 0.52287865
0.012066112 0.078333788 0.058793854 -0.32315677 0.19972187 0.52287865
0.010912763 0.077800192 0.059722431 -0.32315677 0.19972187 0.52287865
0.0098888231 0.077223182 0.060474314 -0.32315677 0.19972187 0.52287865
0.0089086136 0.076633431 0.061167866 -0.32315677 0.19972187 0.52287865
0.0080498168 0.076001547 0.061694659 -0.32315677 0.19972187 0.52287865
0.0072117089 0.075364403 0.062194414 -0.32315677 0.19972187 0.52287865
0.0064710975 0.074692696 0.062559754 -0.32315677 0.19972187 0.52287865
0.0057543111 0.074013747 0.062893122 -0.32315677 0.19972187 0.52287865
0.0051037963 0.073310994 0.063134916 -0.32315677 0.19972187 0.52287865
0.0044944426 0.072593607 0.063319951 -0.32315677 0.19972187 0.52287865
0.0039164708 0.071865059 0.063461728 -0.32315677 0.19972187 0.52287865
0.0034052869 0.07111112 0.063510224 -0.32315677 0.19972187 0.52287865
0.0028943832 0.070357591 0.063558742 -0.32315677 0.19972187 0.52287865
0.0024699641 0.06957002 0.063485645 -0.32315677 0.19972187 0.52287865
0.0020512135 0.068780176 0.063404582 -0.32315677 0.19972187 0.52287865
0.0016786661 0.067971557 0.063258171 -0.32315677 0.19972187 0.52287865
0.0013493368 0.067144983 0.06305033 -0.32315677 0.19972187 0.52287865
0.0010271925 0.066314876 0.062831938 -0.32315677 0.19972187 0.52287865
0.00078709715 0.065450147 0.062496543 -0.32315677 0.19972187 0.52287865
0.00054672442 0.064584412 0.062160797 -0.32315677 0.19972187 0.52287865
0.00036795382 0.063691661 0.061736498 -0.32315677 0.19972187 0.52287865
0.00021925803 0.062784664 0.061268251 -0.32315677 0.19972187 0.52287865
0.00010100814 0.061862998 0.060755331 -0.32315677 0.19972187 0.52287865
4.938347e-05 0.060910832 0.060145736 -0.32315677 0.19972187 0.52287865
2.4766266e-06 0.059954319 0.059527803 -0.32315677 0.19972187 0.52287865
5.6855657e-05 0.058951352 0.058762822 -0.32315677 0.19972187 0.52287865
0.00011139985 0.057945337 0.057995554 -0.32315677 0.19972187 0.52287865
0.00027273031 0.056889173 0.057072435 -0.32315677 0.19972187 0.52287865
0.00044745888 0.055823386 0.056127459 -0.32315677 0.19972187 0.52287865
0.00074583071 0.054698482 0.055001281 -0.32315677 0.19972187 0.52287865
0.0010693786 0.053557683 0.053835537 -0.32315677 0.19972187 0.52287865
0.0015551095 0.052338552 0.052431546 -0.32315677 0.19972187 0.52287865
0.0021288013 0.051073477 0.050895937 -0.32315677 0.19972187 0.52287865
0.0028352309 0.049741015 0.049163047 -0.32315677 0.19972187 0.52287865
0.0038247171 0.04827027 0.047013223 -0.32315677 0.19972187 0.52287865
0.0051508974 0.046633556 0.044366416 -0.32315677 0.19972187 0.52287865
0.0071935565 0.044649392 0.040666007 -0.32315677 0.19972187 0.52287865
0.0071530738 0.04363396 0.039999999 -0.32315677 0.19972187 0.52287865
0.0066564595 0.042832866 0.039999999 -0.32315677 0.19972187 0.52287865
0.0061599752 0.042031921 0.039999999 -0.32315677 0.19972187 0.52287865
0.005663617 0.041231122 0.039999999 -0.32315677 0.19972187 0.52287865
0.0051673832 0.040430471 0.039999999 -0.32315677 0.19972187 0.52287865
0.004671271 0.039629959 0.039999999 -0.32315677 0.19972187 0.52287865
0.0041752784 0.03882958 0.039999999 -0.32315677 0.19972187 0.52287865
0.0036794024 0.038029335 0.039999999 -0.32315677 0.19972187 0.52287865
0.0031836408 0.037229218 0.039999999 -0.32315677 0.19972187 0.52287865
0.0026879909 0.036429223 0.039999999 -0.32315677 0.19972187 0.52287865
0.0021924505 0.035629351 0.039999999 -0.32315677 0.19972187 0.52287865
0.0016970171 0.034829594 0.039999999 -0.32315677 0.19972187 0.52287865
0.0012016882 0.034029946 0.039999999 -0.32315677 0.19972187 0.52287865
0.00070646132 0.033230409 0.039999999 -0.32315677 0.19972187 0.52287865
0.00021133397 0.032430977 0.039999999 -0.32315677 0.19972187 0.52287865
0 0.031483952 0.039575711 -0.32315677 0.19972187 0.52287865
0 0.030424494 0.038833715 -0.32315677 0.19972187 0.52287865
0.025390226 0.015976846 0 -0.32315677 0.19972187 0.52287865
0.024854489 0.0151116 0 -0.32315677 0.19972187 0.52287865
0 0.027227351 0.036594812 -0.32315677 0.19972187 0.52287865
0 0.026155317 0.035844166 -0.32315677 0.19972187 0.52287865
0 0.025080089 0.035091322 -0.32315677 0.19972187 0.52287865
0.022712458 0.011651488 0 -0.32315677 0.19972187 0.52287865
0 0.022919979 0.033578996 -0.32315677 0.19972187 0.52287865
0 0.021835057 0.032819487 -0.32315677 0.19972187 0.52287865
0 0.020746866 0.032057729 -0.32315677 0.19972187 0.52287865
0 0.019655382 0.031293709 -0.32315677 0.19972187 0.52287865
0 0.01856059 0.030527409 -0.32315677 0.19972187 0.52287865
0 0.017462466 0.029758818 -0.32315677 0.19972187 0.52287865
0 0.016360991 0.028987924 -0.32315677 0.19972187 0.52287865
0 0.015256145 0.02821471 -0.32315677 0.19972187 0.52287865
0.017897546 0.0038701738 0 -0.32315677 0.19972187 0.52287865
0.017362893 0.0030058208 0 -0.32315677 0.19972187 0.52287865
0.016828297 0.0021414997 0 -0.32315677 0.19972187 0.52287865
0.016293755 0.0012772062 0 -0.32315677 0.19972187 0.52287865
0 0.0096806083 0.024313347 -0.32315677 0.19972187 0.52287865
0 0.0085550919 0.023525914 -0.32315677 0.19972187 0.52287865
0 0.0074260556 0.02273606 -0.32315677 0.19972187 0.52287865
0 0.0062934775 0.021943768 -0.32315677 0.19972187 0.52287865
0 0.0051573361 0.021149026 -0.32315677 0.19972187 0.52287865
0 0.0040176087 0.020351816 -0.32315677 0.19972187 0.52287865
0 0.0028742731 0.019552123 -0.32315677 0.19972187 0.52287865
0.0028192231 0 0.014351907 -0.32315677 0.19972187 0.52287865
0.00093580125 0 0.016483033 -0.32315677 0.19972187 0.52287865
0.03884659 0.079999998 0.028088069 -0.32315677 0.19972187 0.52287865
0.035833284 0.079999998 0.031504352 -0.32315677 0.19972187 0.52287865
0.032862604 0.079999998 0.034872349 -0.32315677 0.19972187 0.52287865
0.039999999 0.076586813 0.024375036 -0.32315677 0.19972187 0.52287865
0.028113082 0.079635024 0.039999999 -0.32315677 0.19972187 0.52287865
0.027609093 0.078824066 0.039999999 -0.32315677 0.19972187 0.52287865
0.021650236 0.079908974 0.047520526 -0.32315677 0.19972187 0.52287865
0.018752364 0.079952769 0.05083701 -0.32315677 0.19972187 0.52287865
0.016681934 0.079718351 0.05301936 -0.32315677 0.19972187 0.52287865
0.015011814 0.07935077 0.054654047 -0.32315677 0.19972187 0.52287865
0.013571537 0.07890781 0.055975068 -0.32315677 0.19972187 0.52287865
0.012260731 0.078423835 0.057120427 -0.32315677 0.19972187 0.52287865
0.011104132 0.077888727 0.058054958 -0.32315677 0.19972187 0.52287865
0.01005004 0.077320181 0.058849741 -0.32315677 0.19972187 0.52287865
0.0090672476 0.076728873 0.059547678 -0.32315677 0.19972187 0.52287865
0.0081840986 0.076103628 0.060108766 -0.32315677 0.19972187 0.52287865
0.0073439069 0.075464904 0.06061168 -0.32315677 0.19972187 0.52287865
0.0065829037 0.074798606 0.061005421 -0.32315677 0.19972187 0.52287865
0.0058644232 0.074118048 0.061340936 -0.32315677 0.19972187 0.52287865
0.0051962687 0.073419861 0.061607007 -0.32315677 0.19972187 0.52287865
0.004585539 0.072700858 0.061793335 -0.32315677 0.19972187 0.52287865
0.003991887 0.071976289 0.061956413 -0.32315677 0.19972187 0.52287865
0.0034795965 0.071220718 0.062005438 -0.32315677 0.19972187 0.52287865
0.0029675874 0.070465557 0.062054466 -0.32315677 0.19972187 0.52287865
0.0025291042 0.06968157 0.061999854 -0.32315677 0.19972187 0.52287865
0.002109482 0.06889008 0.061918609 -0.32315677 0.19972187 0.52287865
0.0017237893 0.068084814 0.061789218 -0.32315677 0.19972187 0.52287865
0.0013937994 0.067256577 0.061580528 -0.32315677 0.19972187 0.52287865
0.0010636142 0.066427849 0.061371747 -0.32315677 0.19972187 0.52287865
0.00081851799 0.065563314 0.061041299 -0.32315677 0.19972187 0.52287865
0.00057767984 0.064695902 0.060704034 -0.32315677 0.19972187 0.52287865
0.00038676453 0.0638064 0.060294636 -0.32315677 0.19972187 0.52287865
0.00023779091 0.062897712 0.05982421 -0.32315677 0.19972187 0.52287865
0.00010732142 0.061979443 0.059326086 -0.32315677 0.19972187 0.52287865
5.5603756e-05 0.061025556 0.058713622 -0.32315677 0.19972187 0.52287865
3.7637074e-06 0.060069416 0.058099743 -0.32315677 0.19972187 0.52287865
5.052895e-05 0.059068043 0.057342235 -0.32315677 0.19972187 0.52287865
0.00010516796 0.058060277 0.056571338 -0.32315677 0.19972187 0.52287865
0.00025319998 0.0570083 0.055663444 -0.32315677 0.19972187 0.52287865
0.00042821988 0.05594074 0.054714013 -0.32315677 0.19972187 0.52287865
0.00071186828 0.054820802 0.053604562 -0.32315677 0.19972187 0.52287865
0.0010281431 0.053681701 0.052444659 -0.32315677 0.19972187 0.52287865
0.0015046326 0.052465245 0.051048655 -0.32315677 0.19972187 0.52287865
0.0020573344 0.05120828 0.049537752 -0.32315677 0.19972187 0.52287865
0.0027647361 0.049873982 0.047797017 -0.32315677 0.19972187 0.52287865
0.003726877 0.048414573 0.045679376 -0.32315677 0.19972187 0.52287865
0.005013749 0.046795018 0.043080799 -0.32315677 0.19972187 0.52287865
0.0066247447 0.045012511 0.039999999 -0.32315677 0.19972187 0.52287865
0.0061286776 0.044212114 0.039999999 -0.32315677 0.19972187 0.52287865
0.005632739 0.04341187 0.039999999 -0.32315677 0.19972187 0.52287865
0.0051369271 0.042611782 0.039999999 -0.32315677 0.19972187 0.52287865
0.0046412391 0.041811842 0.039999999 -0.32315677 0.19972187 0.52287865
0.0041456725 0.041012049 0.039999999 -0.32315677 0.19972187 0.52287865
0.0036502248 0.040212397 0.039999999 -0.32315677 0.19972187 0.52287865
0.0031548936 0.039412878 0.039999999 -0.32315677 0.19972187 0.52287865
0.0026596766 0.038613494 0.039999999 -0.32315677 0.19972187 0.52287865
0.0021645711 0.037814241 0.039999999 -0.32315677 0.19972187 0.52287865
0.0016695749 0.03701511 0.039999999 -0.32315677 0.19972187 0.52287865
0.0011746852 0.036216103 0.039999999 -0.32315677 0.19972187 0.52287865
0.00067989988 0.035417214 0.039999999 -0.32315677 0.19972187 0.52287865
0.00018521628 0.034618434 0.039999999 -0.32315677 0.19972187 0.52287865
0 0.033660792 0.039537281 -0.32315677 0.19972187 0.52287865
0.025898747 0.019212296 0 -0.32315677 0.19972187 0.52287865
0 0.031547118 0.038052261 -0.32315677 0.19972187 0.52287865
0.024828153 0.017483195 0 -0.32315677 0.19972187 0.52287865
0 0.029421005 0.036558643 -0.32315677 0.19972187 0.52287865
0.023757948 0.0157545 0 -0.32315677 0.19972187 0.52287865
0 0.027282303 0.035056327 -0.32315677 0.19972187 0.52287865
0.022688108 0.014026177 0 -0.32315677 0.19972187 0.52287865
0 0.025130857 0.033545204 -0.32315677 0.19972187 0.52287865
0 0.024050308 0.032786306 -0.32315677 0.19972187 0.52287865
0 0.022966513 0.03202517 -0.32315677 0.19972187 0.52287865
0.020549446 0.010570508 0 -0.32315677 0.19972187 0.52287865
0 0.020789117 0.030496111 -0.32315677 0.19972187 0.52287865
0 0.019695472 0.029728163 -0.32315677 0.19972187 0.52287865
0 0.018598503 0.02895792 -0.32315677 0.19972187 0.52287865
0 0.01749819 0.028185364 -0.32315677 0.19972187 0.52287865
0 0.016394513 0.027410483 -0.32315677 0.19972187 0.52287865
0.017343676 0.0053889402 0 -0.32315677 0.19972187 0.52287865
0.016809607 0.0045255166 0 -0.32315677 0.19972187 0.52287865
0 0.013063087 0.025071742 -0.32315677 0.19972187 0.52287865
0 0.011945744 0.024287414 -0.32315677 0.19972187 0.52287865
0 0.010824931 0.023500687 -0.32315677 0.19972187 0.52287865
0 0.0097006271 0.022711547 -0.32315677 0.19972187 0.52287865
0.014140069 0.00020888008 0 -0.32315677 0.19972187 0.52287865
0 0.0074414606 0.021125969 -0.32315677 0.19972187 0.52287865
0 0.0063065537 0.0203295 -0.32315677 0.19972187 0.52287865
0.0066481903 0 0.0083574317 -0.32315677 0.19972187 0.52287865
0 0.0028802734 0.017925184 -0.32315677 0.19972187 0.52287865
0.0028251694 0 0.012697164 -0.32315677 0.19972187 0.52287865
0.039428759 0.079999998 0.025804058 -0.32315677 0.19972187 0.52287865
0.036400944 0.079999998 0.029248409 -0.32315677 0.19972187 0.52287865
0.039999999 0.077789411 0.023592021 -0.32315677 0.19972187 0.52287865
0.030473316 0.079999998 0.035991587 -0.32315677 0.19972187 0.52287865
0.027571689 0.079999998 0.039292485 -0.32315677 0.19972187 0.52287865
0.026555369 0.079365015 0.039999999 -0.32315677 0.19972187 0.52287865
0.022379423 0.079829641 0.045078937 -0.32315677 0.19972187 0.52287865
0.019169416 0.079977527 0.048835237 -0.32315677 0.19972187 0.52287865
0.017026192 0.079764985 0.05112331 -0.32315677 0.19972187 0.52287865
0.015299568 0.079414099 0.052839741 -0.32315677 0.19972187 0.52287865
0.013806456 0.078986965 0.054236677 -0.32315677 0.19972187 0.52287865
0.012456298 0.078514308 0.05543885 -0.32315677 0.19972187 0.52287865
0.011296431 0.077977695 0.056379385 -0.32315677 0.19972187 0.52287865
0.010212012 0.077417634 0.057217553 -0.32315677 0.19972187 0.52287865
0.0092266239 0.076824762 0.057919916 -0.32315677 0.19972187 0.52287865
0.0083189895 0.076206177 0.058515679 -0.32315677 0.19972187 0.52287865
0.0074767033 0.07556586 0.059021778 -0.32315677 0.19972187 0.52287865
0.0066952035 0.074904978 0.05944423 -0.32315677 0.19972187 0.52287865
0.0059750206 0.074222803 0.059781913 -0.32315677 0.19972187 0.52287865
0.0052891388 0.073529191 0.060072519 -0.32315677 0.19972187 0.52287865
0.004677027 0.072808564 0.060260143 -0.32315677 0.19972187 0.52287865
0.0040676212 0.072087988 0.060444761 -0.32315677 0.19972187 0.52287865
0.0035542189 0.071330778 0.060494311 -0.32315677 0.19972187 0.52287865
0.0030410995 0.070573986 0.060543861 -0.32315677 0.19972187 0.52287865
0.0025884884 0.069793582 0.060507931 -0.32315677 0.19972187 0.52287865
0.0021679911 0.069000438 0.060426496 -0.32315677 0.19972187 0.52287865
0.0017690953 0.068198524 0.060314316 -0.32315677 0.19972187 0.52287865
0.0014384424 0.067368627 0.060104765 -0.32315677 0.19972187 0.52287865
0.0011075932 0.06653823 0.059895117 -0.32315677 0.19972187 0.52287865
0.00085006398 0.065676928 0.059580255 -0.32315677 0.19972187 0.52287865
0.00060875859 0.06480784 0.059241462 -0.32315677 0.19972187 0.52287865
0.00040564893 0.063921586 0.058847129 -0.32315677 0.19972187 0.52287865
0.00025639642 0.063011199 0.058374509 -0.32315677 0.19972187 0.52287865
0.00011365899 0.062096331 0.057891343 -0.32315677 0.19972187 0.52287865
6.1848004e-05 0.061140727 0.057275988 -0.32315677 0.19972187 0.52287865
9.9141807e-06 0.060182858 0.056659207 -0.32315677 0.19972187 0.52287865
4.4178294e-05 0.059185173 0.055916272 -0.32315677 0.19972187 0.52287865
9.8912453e-05 0.058175653 0.055141725 -0.32315677 0.19972187 0.52287865
0.00023359715 0.057127871 0.054249223 -0.32315677 0.19972187 0.52287865
0.00040890928 0.056058526 0.053295307 -0.32315677 0.19972187 0.52287865
0.0006777824 0.054943565 0.052202765 -0.32315677 0.19972187 0.52287865
0.00099456054 0.053802654 0.051037427 -0.32315677 0.19972187 0.52287865
0.0014539768 0.052592386 0.049660865 -0.32315677 0.19972187 0.52287865
0.001985623 0.051343542 0.048174918 -0.32315677 0.19972187 0.52287865
0.0026939993 0.050007407 0.0464263 -0.32315677 0.19972187 0.52287865
0.003628717 0.048559349 0.044341166 -0.32315677 0.19972187 0.52287865
0.0048761838 0.046956971 0.041791275 -0.32315677 0.19972187 0.52287865
0.0056020594 0.04558846 0.039999999 -0.32315677 0.19972187 0.52287865
0.0051066685 0.044788916 0.039999999 -0.32315677 0.19972187 0.52287865
0.0046114041 0.043989528 0.039999999 -0.32315677 0.19972187 0.52287865
0.0041162628 0.043190293 0.039999999 -0.32315677 0.19972187 0.52287865
0.0036212429 0.042391211 0.039999999 -0.32315677 0.19972187 0.52287865
0.0031263418 0.041592274 0.039999999 -0.32315677 0.19972187 0.52287865
0.0026315567 0.040793478 0.039999999 -0.32315677 0.19972187 0.52287865
0.0021368857 0.039994821 0.039999999 -0.32315677 0.19972187 0.52287865
0.0016423258 0.039196298 0.039999999 -0.32315677 0.19972187 0.52287865
0.0011478747 0.038397904 0.039999999 -0.32315677 0.19972187 0.52287865
0.00065353024 0.037599634 0.039999999 -0.32315677 0.19972187 0.52287865
0.00015928967 0.036801491 0.039999999 -0.32315677 0.19972187 0.52287865
0 0.035833646 0.03949913 -0.32315677 0.19972187 0.52287865
0 0.034782488 0.038758241 -0.32315677 0.19972187 0.52287865
0 0.033728261 0.038015224 -0.32315677 0.19972187 0.52287865
0.024802022 0.019849928 0 -0.32315677 0.19972187 0.52287865
0 0.031610537 0.036522754 -0.32315677 0.19972187 0.52287865
0 0.030547002 0.035773274 -0.32315677 0.19972187 0.52287865
0 0.029480325 0.035021611 -0.32315677 0.19972187 0.52287865
0.022663958 0.016395906 0 -0.32315677 0.19972187 0.52287865
0.022129672 0.015532646 0 -0.32315677 0.19972187 0.52287865
0.021595469 0.014669477 0 -0.32315677 0.19972187 0.52287865
0 0.02518183 0.031992886 -0.32315677 0.19972187 0.52287865
0.020527316 0.012943391 0 -0.32315677 0.19972187 0.52287865
0 0.023013236 0.030465089 -0.32315677 0.19972187 0.52287865
0 0.021924034 0.029697785 -0.32315677 0.19972187 0.52287865
0 0.020831537 0.02892819 -0.32315677 0.19972187 0.52287865
0 0.019735722 0.028156294 -0.32315677 0.19972187 0.52287865
0 0.018636569 0.027382078 -0.32315677 0.19972187 0.52287865
0 0.017534059 0.02660553 -0.32315677 0.19972187 0.52287865
0.016791105 0.0069042989 0 -0.32315677 0.19972187 0.52287865
0.016257621 0.0060417955 0 -0.32315677 0.19972187 0.52287865
0.015724195 0.0051793358 0 -0.32315677 0.19972187 0.52287865
0 0.01309003 0.023475733 -0.32315677 0.19972187 0.52287865
0.014657505 0.0034545294 0 -0.32315677 0.19972187 0.52287865
0.014124235 0.0025921743 0 -0.32315677 0.19972187 0.52287865
0.013591012 0.0017298459 0 -0.32315677 0.19972187 0.52287865
0.013057834 0.00086753955 0 -0.32315677 0.19972187 0.52287865
0.012524696 5.25123e-06 0 -0.32315677 0.19972187 0.52287865
0.010559593 0 0.002234129 -0.32315677 0.19972187 0.52287865
0 0.005178845 0.017905409 -0.32315677 0.19972187 0.52287865
0 0.0040343911 0.017099725 -0.32315677 0.19972187 0.52287865
0 0.0028862986 0.016291514 -0.32315677 0.19972187 0.52287865
0.0028311405 0 0.011035502 -0.32315677 0.19972187 0.52287865
0.036972493 0.079999998 0.026977008 -0.32315677 0.19972187 0.52287865
0.039999999 0.077979669 0.022089642 -0.32315677 0.19972187 0.52287865
0.031016644 0.079999998 0.033775218 -0.32315677 0.19972187 0.52287865
0.028101414 0.079999998 0.037102804 -0.32315677 0.19972187 0.52287865
0.025504107 0.079904698 0.039999999 -0.32315677 0.19972187 0.52287865
0.023114409 0.079749689 0.042617932 -0.32315677 0.19972187 0.52287865
0.019625051 0.079989851 0.04677112 -0.32315677 0.19972187 0.52287865
0.017392455 0.079804823 0.049188521 -0.32315677 0.19972187 0.52287865
0.01558888 0.07947778 0.051015604 -0.32315677 0.19972187 0.52287865
0.014042575 0.07906653 0.0524894 -0.32315677 0.19972187 0.52287865
0.012662841 0.078601621 0.053735059 -0.32315677 0.19972187 0.52287865
0.011489667 0.078067094 0.054695647 -0.32315677 0.19972187 0.52287865
0.010374744 0.077515543 0.055577699 -0.32315677 0.19972187 0.52287865
0.0093867471 0.076921105 0.056284517 -0.32315677 0.19972187 0.52287865
0.0084544942 0.076309189 0.056915343 -0.32315677 0.19972187 0.52287865
0.0076101036 0.07566727 0.05742465 -0.32315677 0.19972187 0.52287865
0.0068080002 0.07501182 0.057876125 -0.32315677 0.19972187 0.52287865
0.0060861073 0.074328028 0.058215991 -0.32315677 0.19972187 0.52287865
0.0053824103 0.073638998 0.058531404 -0.32315677 0.19972187 0.52287865
0.0047689104 0.072916739 0.058720335 -0.32315677 0.19972187 0.52287865
0.004156122 0.072195306 0.058909077 -0.32315677 0.19972187 0.52287865
0.0036291566 0.0714413 0.058976799 -0.32315677 0.19972187 0.52287865
0.0031149224 0.070682861 0.059026875 -0.32315677 0.19972187 0.52287865
0.0026481187 0.069906056 0.059009824 -0.32315677 0.19972187 0.52287865
0.0022267425 0.069111258 0.058928199 -0.32315677 0.19972187 0.52287865
0.0018145856 0.068312705 0.05883342 -0.32315677 0.19972187 0.52287865
0.0014832669 0.06748113 0.058623001 -0.32315677 0.19972187 0.52287865
0.0011517513 0.066649064 0.058412481 -0.32315677 0.19972187 0.52287865
0.00088173605 0.065790996 0.05811337 -0.32315677 0.19972187 0.52287865
0.00063996162 0.064920217 0.057773046 -0.32315677 0.19972187 0.52287865
0.00042460748 0.064037226 0.057393938 -0.32315677 0.19972187 0.52287865
0.00027507509 0.063125134 0.056919105 -0.32315677 0.19972187 0.52287865
0.00012528049 0.062211439 0.056443471 -0.32315677 0.19972187 0.52287865
6.8116387e-05 0.061256342 0.0558328 -0.32315677 0.19972187 0.52287865
1.6088456e-05 0.060296737 0.055213097 -0.32315677 0.19972187 0.52287865
3.7803526e-05 0.059302751 0.054484896 -0.32315677 0.19972187 0.52287865
9.2633149e-05 0.058291469 0.053706672 -0.32315677 0.19972187 0.52287865
0.00021392127 0.057247885 0.052829731 -0.32315677 0.19972187 0.52287865
0.00038952663 0.056176752 0.051871307 -0.32315677 0.19972187 0.52287865
0.00064357225 0.055066776 0.050795857 -0.32315677 0.19972187 0.52287865
0.00096085516 0.053924046 0.04962505 -0.32315677 0.19972187 0.52287865
0.001403141 0.052719977 0.048268139 -0.32315677 0.19972187 0.52287865
0.0019136656 0.051479265 0.046807412 -0.32315677 0.19972187 0.52287865
0.0026230188 0.05014129 0.045050859 -0.32315677 0.19972187 0.52287865
0.003530235 0.048704598 0.042998563 -0.32315677 0.19972187 0.52287865
0.0047381991 0.04711942 0.040497825 -0.32315677 0.19972187 0.52287865
0.0045817499 0.046163075 0.039999999 -0.32315677 0.19972187 0.52287865
0.0040870341 0.04536438 0.039999999 -0.32315677 0.19972187 0.52287865
0.0035924411 0.044565842 0.039999999 -0.32315677 0.19972187 0.52287865
0.0030979691 0.043767463 0.039999999 -0.32315677 0.19972187 0.52287865
0.0026036156 0.042969231 0.039999999 -0.32315677 0.19972187 0.52287865
0.0021093781 0.04217115 0.039999999 -0.32315677 0.19972187 0.52287865
0.0016152541 0.041373208 0.039999999 -0.32315677 0.19972187 0.52287865
0.001121241 0.040575407 0.039999999 -0.32315677 0.19972187 0.52287865
0.00062733662 0.039777745 0.039999999 -0.32315677 0.19972187 0.52287865
0.0001335384 0.038980208 0.039999999 -0.32315677 0.19972187 0.52287865
0.026379202 0.024801465 0 -0.32315677 0.19972187 0.52287865
0 0.036955506 0.038720902 -0.32315677 0.19972187 0.52287865
0 0.035905406 0.037978444 -0.32315677 0.19972187 0.52287865
0 0.03485224 0.037233856 -0.32315677 0.19972187 0.52287865
0 0.033796001 0.036487117 -0.32315677 0.19972187 0.52287865
0 0.032736663 0.035738219 -0.32315677 0.19972187 0.52287865
0 0.03167421 0.034987148 -0.32315677 0.19972187 0.52287865
0.022639992 0.018760743 0 -0.32315677 0.19972187 0.52287865
0 0.029539883 0.033478428 -0.32315677 0.19972187 0.52287865
0 0.02846797 0.032720756 -0.32315677 0.19972187 0.52287865
0 0.027392866 0.031960856 -0.32315677 0.19972187 0.52287865
0 0.026314551 0.031198716 -0.32315677 0.19972187 0.52287865
0.019971916 0.014449148 0 -0.32315677 0.19972187 0.52287865
0 0.024148213 0.029667659 -0.32315677 0.19972187 0.52287865
0.018905252 0.012725118 0 -0.32315677 0.19972187 0.52287865
0.018372031 0.011863217 0 -0.32315677 0.19972187 0.52287865
0 0.02087413 0.027353924 -0.32315677 0.19972187 0.52287865
0.017305797 0.010139622 0 -0.32315677 0.19972187 0.52287865
0 0.018674789 0.025799837 -0.32315677 0.19972187 0.52287865
0 0.017570075 0.025019271 -0.32315677 0.19972187 0.52287865
0 0.016461967 0.02423634 -0.32315677 0.19972187 0.52287865
0.015174086 0.0066931373 0 -0.32315677 0.19972187 0.52287865
0 0.014235493 0.022663314 -0.32315677 0.19972187 0.52287865
0 0.013117083 0.021873191 -0.32315677 0.19972187 0.52287865
0 0.011995198 0.021080643 -0.32315677 0.19972187 0.52287865
0 0.010869815 0.020285651 -0.32315677 0.19972187 0.52287865
0 0.0097409124 0.019488204 -0.32315677 0.19972187 0.52287865
0.011978107 0.0015246723 0 -0.32315677 0.19972187 0.52287865
0.011445595 0.00066335447 0 -0.32315677 0.19972187 0.52287865
0 0.0063328678 0.017080968 -0.32315677 0.19972187 0.52287865
0 0.0051896665 0.01627354 -0.32315677 0.19972187 0.52287865
0.0066765929 0 0.0049801073 -0.32315677 0.19972187 0.52287865
0 0.0028923487 0.014651062 -0.32315677 0.19972187 0.52287865
0.0028371369 0 0.0093668699 -0.32315677 0.19972187 0.52287865
0 0.00058032532 0.013018318 -0.32315677 0.19972187 0.52287865
0.039999999 0.079186141 0.021303356 -0.32315677 0.19972187 0.52287865
0.034534439 0.079999998 0.028141366 -0.32315677 0.19972187 0.52287865
0.031563655 0.079999998 0.031543817 -0.32315677 0.19972187 0.52287865
0.028634707 0.079999998 0.034898378 -0.32315677 0.19972187 0.52287865
0.025746699 0.079999998 0.038206071 -0.32315677 0.19972187 0.52287865
0.023953943 0.07963495 0.039999999 -0.32315677 0.19972187 0.52287865
0.020103144 0.079995438 0.044666588 -0.32315677 0.19972187 0.52287865
0.017760869 0.079844907 0.047242358 -0.32315677 0.19972187 0.52287865
0.015879763 0.079541795 0.049181558 -0.32315677 0.19972187 0.52287865
0.014279905 0.079146497 0.050733157 -0.32315677 0.19972187 0.52287865
0.012895941 0.078680165 0.051987037 -0.32315677 0.19972187 0.52287865
0.011683849 0.078156933 0.053003669 -0.32315677 0.19972187 0.52287865
0.010538245 0.077613913 0.053930111 -0.32315677 0.19972187 0.52287865
0.0095476257 0.077017896 0.054641414 -0.32315677 0.19972187 0.52287865
0.0085906172 0.07641267 0.055307701 -0.32315677 0.19972187 0.52287865
0.0077441121 0.075769149 0.055820238 -0.32315677 0.19972187 0.52287865
0.0069212974 0.075119138 0.056301061 -0.32315677 0.19972187 0.52287865
0.0061976868 0.074433722 0.056643125 -0.32315677 0.19972187 0.52287865
0.0054760859 0.073749281 0.056983609 -0.32315677 0.19972187 0.52287865
0.0048611918 0.073025376 0.057173859 -0.32315677 0.19972187 0.52287865
0.0042470121 0.072302312 0.057363909 -0.32315677 0.19972187 0.52287865
0.0037044119 0.071552292 0.057452854 -0.32315677 0.19972187 0.52287865
0.003189058 0.070792206 0.057503462 -0.32315677 0.19972187 0.52287865
0.0027079966 0.070018999 0.057505496 -0.32315677 0.19972187 0.52287865
0.0022857382 0.069222532 0.057423681 -0.32315677 0.19972187 0.52287865
0.0018634673 0.06842605 0.057341889 -0.32315677 0.19972187 0.52287865
0.0015282743 0.067594096 0.057135187 -0.32315677 0.19972187 0.52287865
0.0011960894 0.066760346 0.056923795 -0.32315677 0.19972187 0.52287865
0.00091353507 0.065905526 0.056640606 -0.32315677 0.19972187 0.52287865
0.00067128986 0.065033048 0.056298736 -0.32315677 0.19972187 0.52287865
0.00044364078 0.064153321 0.055935018 -0.32315677 0.19972187 0.52287865
0.00029382741 0.063239515 0.055457965 -0.32315677 0.19972187 0.52287865
0.00014375092 0.062324099 0.054980099 -0.32315677 0.19972187 0.52287865
7.4409072e-05 0.061372403 0.054384016 -0.32315677 0.19972187 0.52287865
2.2286698e-05 0.060411055 0.053761374 -0.32315677 0.19972187 0.52287865
3.1404474e-05 0.059420772 0.053048063 -0.32315677 0.19972187 0.52287865
8.6329892e-05 0.058407728 0.052266143 -0.32315677 0.19972187 0.52287865
0.00019417188 0.057368349 0.051404934 -0.32315677 0.19972187 0.52287865
0.00037007142 0.056295425 0.050441973 -0.32315677 0.19972187 0.52287865
0.00060923694 0.05519044 0.0493838 -0.32315677 0.19972187 0.52287865
0.00092702627 0.054045886 0.048207499 -0.32315677 0.19972187 0.52287865
0.0013521238 0.052848022 0.046870451 -0.32315677 0.19972187 0.52287865
0.0018435949 0.051614486 0.045432065 -0.32315677 0.19972187 0.52287865
0.0025517934 0.050275635 0.043670673 -0.32315677 0.19972187 0.52287865
0.0034314287 0.048850328 0.041651543 -0.32315677 0.19972187 0.52287865
0.0040579699 0.047534365 0.039999999 -0.32315677 0.19972187 0.52287865
0.0035638034 0.046736356 0.039999999 -0.32315677 0.19972187 0.52287865
0.0030697603 0.04593851 0.039999999 -0.32315677 0.19972187 0.52287865
0.0025758375 0.045140825 0.039999999 -0.32315677 0.19972187 0.52287865
0.0020820329 0.044343293 0.039999999 -0.32315677 0.19972187 0.52287865
0.001588344 0.043545917 0.039999999 -0.32315677 0.19972187 0.52287865
0.0010947683 0.042748686 0.039999999 -0.32315677 0.19972187 0.52287865
0.00060130336 0.0419516 0.039999999 -0.32315677 0.19972187 0.52287865
0.00010794678 0.041154657 0.039999999 -0.32315677 0.19972187 0.52287865
0 0.040167607 0.03942357 -0.32315677 0.19972187 0.52287865
0.025817972 0.02629401 0 -0.32315677 0.19972187 0.52287865
0 0.038078599 0.037941899 -0.32315677 0.19972187 0.52287865
0 0.037029549 0.037197877 -0.32315677 0.19972187 0.52287865
0.024216624 0.023706816 0 -0.32315677 0.19972187 0.52287865
0 0.034922272 0.035703398 -0.32315677 0.19972187 0.52287865
0 0.03386401 0.034952916 -0.32315677 0.19972187 0.52287865
0 0.032802638 0.034200255 -0.32315677 0.19972187 0.52287865
0 0.031738136 0.033445399 -0.32315677 0.19972187 0.52287865
0 0.03067049 0.032688338 -0.32315677 0.19972187 0.52287865
0 0.029599678 0.031929057 -0.32315677 0.19972187 0.52287865
0.020483578 0.01767426 0 -0.32315677 0.19972187 0.52287865
0.019950639 0.016812887 0 -0.32315677 0.19972187 0.52287865
0 0.026368057 0.029637761 -0.32315677 0.19972187 0.52287865
0 0.025284391 0.028869467 -0.32315677 0.19972187 0.52287865
0 0.024197461 0.028098883 -0.32315677 0.19972187 0.52287865
0 0.023107247 0.027325997 -0.32315677 0.19972187 0.52287865
0 0.022013733 0.026550796 -0.32315677 0.19972187 0.52287865
0 0.020916894 0.025773264 -0.32315677 0.19972187 0.52287865
0 0.019816712 0.024993388 -0.32315677 0.19972187 0.52287865
0 0.018713167 0.024211152 -0.32315677 0.19972187 0.52287865
0 0.017606236 0.023426542 -0.32315677 0.19972187 0.52287865
0 0.0164959 0.022639545 -0.32315677 0.19972187 0.52287865
0 0.015382137 0.021850143 -0.32315677 0.19972187 0.52287865
0.01356091 0.0064824354 0 -0.32315677 0.19972187 0.52287865
0 0.013144248 0.02026407 -0.32315677 0.19972187 0.52287865
0 0.012020078 0.019467371 -0.32315677 0.19972187 0.52287865
0.011964762 0.0039010535 0 -0.32315677 0.19972187 0.52287865
0.011432799 0.0030406574 0 -0.32315677 0.19972187 0.52287865
0 0.0086264079 0.017062427 -0.32315677 0.19972187 0.52287865
0 0.0074880575 0.016255781 -0.32315677 0.19972187 0.52287865
0.0098371319 0.00045960452 0 -0.32315677 0.19972187 0.52287865
0 0.0052005327 0.014634894 -0.32315677 0.19972187 0.52287865
0 0.0040513128 0.013820623 -0.32315677 0.19972187 0.52287865
0 0.0028984242 0.013003778 -0.32315677 0.19972187 0.52287865
0 0.0017418436 0.012184343 -0.32315677 0.19972187 0.52287865
0 0.0005815482 0.011362303 -0.32315677 0.19972187 0.52287865
0.03812743 0.079999998 0.022387153 -0.32315677 0.19972187 0.52287865
0.035099357 0.079999998 0.025866942 -0.32315677 0.19972187 0.52287865
0.03211439 0.079999998 0.02929722 -0.32315677 0.19972187 0.52287865
0.029171605 0.079999998 0.032679047 -0.32315677 0.19972187 0.52287865
0.026270093 0.079999998 0.036013462 -0.32315677 0.19972187 0.52287865
0.023408983 0.079999998 0.039301466 -0.32315677 0.19972187 0.52287865
0.020636896 0.079982765 0.042474907 -0.32315677 0.19972187 0.52287865
0.018131457 0.079885222 0.045284715 -0.32315677 0.19972187 0.52287865
0.016172234 0.079606168 0.047337502 -0.32315677 0.19972187 0.52287865
0.014518457 0.079226881 0.048967876 -0.32315677 0.19972187 0.52287865
0.013130236 0.078759111 0.050230045 -0.32315677 0.19972187 0.52287865
0.011878983 0.078247212 0.05130339 -0.32315677 0.19972187 0.52287865
0.01071439 0.077708416 0.052257992 -0.32315677 0.19972187 0.52287865
0.0097092632 0.077115148 0.052990556 -0.32315677 0.19972187 0.52287865
0.0087273642 0.076516628 0.053692695 -0.32315677 0.19972187 0.52287865
0.0078787338 0.07587149 0.054208487 -0.32315677 0.19972187 0.52287865
0.0070350999 0.075226933 0.054718975 -0.32315677 0.19972187 0.52287865
0.0063097631 0.074539877 0.055063255 -0.32315677 0.19972187 0.52287865
0.0055857501 0.073854081 0.055406928 -0.32315677 0.19972187 0.52287865
0.0049538738 0.073134489 0.055620659 -0.32315677 0.19972187 0.52287865
0.0043382971 0.072409779 0.055812031 -0.32315677 0.19972187 0.52287865
0.0037799873 0.07166376 0.05592243 -0.32315677 0.19972187 0.52287865
0.0032635089 0.070902012 0.055973571 -0.32315677 0.19972187 0.52287865
0.0027681245 0.070132412 0.055994891 -0.32315677 0.19972187 0.52287865
0.0023449797 0.069334276 0.05591289 -0.32315677 0.19972187 0.52287865
0.0019218228 0.068536118 0.055830903 -0.32315677 0.19972187 0.52287865
0.0015734659 0.067707516 0.055641286 -0.32315677 0.19972187 0.52287865
0.0012406092 0.06687209 0.055429012 -0.32315677 0.19972187 0.52287865
0.00094546203 0.066020511 0.055161919 -0.32315677 0.19972187 0.52287865
0.00070274412 0.065146334 0.054818492 -0.32315677 0.19972187 0.52287865
0.00046274927 0.064269878 0.05447033 -0.32315677 0.19972187 0.52287865
0.00031265392 0.063354351 0.053991042 -0.32315677 0.19972187 0.52287865
0.00016229448 0.06243721 0.05351093 -0.32315677 0.19972187 0.52287865
8.072624e-05 0.061488919 0.052929591 -0.32315677 0.19972187 0.52287865
2.8509081e-05 0.060525823 0.052303996 -0.32315677 0.19972187 0.52287865
2.4980967e-05 0.059539247 0.051605742 -0.32315677 0.19972187 0.52287865
8.0002508e-05 0.05852443 0.050820101 -0.32315677 0.19972187 0.52287865
0.00017434845 0.057489265 0.049974799 -0.32315677 0.19972187 0.52287865
0.00035054309 0.056414541 0.04900727 -0.32315677 0.19972187 0.52287865
0.00057477568 0.055314556 0.047966566 -0.32315677 0.19972187 0.52287865
0.00089307292 0.054168172 0.046784729 -0.32315677 0.19972187 0.52287865
0.0013009241 0.05297653 0.04546776 -0.32315677 0.19972187 0.52287865
0.0017931358 0.051741134 0.044022694 -0.32315677 0.19972187 0.52287865
0.0024803209 0.050410446 0.042285703 -0.32315677 0.19972187 0.52287865
0.0033322964 0.048996538 0.040300075 -0.32315677 0.19972187 0.52287865
0.0030416991 0.048105478 0.039999999 -0.32315677 0.19972187 0.52287865
0.0025482066 0.047308315 0.039999999 -0.32315677 0.19972187 0.52287865
0.0020548343 0.046511315 0.039999999 -0.32315677 0.19972187 0.52287865
0.0015615799 0.045714479 0.039999999 -0.32315677 0.19972187 0.52287865
0.0010684408 0.044917796 0.039999999 -0.32315677 0.19972187 0.52287865
0.0005754148 0.044121269 0.039999999 -0.32315677 0.19972187 0.52287865
8.2499217e-05 0.043324891 0.039999999 -0.32315677 0.19972187 0.52287865
0 0.042328816 0.039386116 -0.32315677 0.19972187 0.52287865
0 0.041289851 0.038646892 -0.32315677 0.19972187 0.52287865
0.025257975 0.027783386 0 -0.32315677 0.19972187 0.52287865
0.024724681 0.026921643 0 -0.32315677 0.19972187 0.52287865
0 0.03815493 0.036416519 -0.32315677 0.19972187 0.52287865
0 0.037103884 0.035668787 -0.32315677 0.19972187 0.52287865
0 0.036049776 0.034918893 -0.32315677 0.19972187 0.52287865
0.022592541 0.023476029 0 -0.32315677 0.19972187 0.52287865
0 0.033932291 0.033412576 -0.32315677 0.19972187 0.52287865
0 0.032868877 0.032656126 -0.32315677 0.19972187 0.52287865
0.020994453 0.020893129 0 -0.32315677 0.19972187 0.52287865
0.020461937 0.020032389 0 -0.32315677 0.19972187 0.52287865
0 0.029659715 0.030373449 -0.32315677 0.19972187 0.52287865
0 0.028583627 0.029608067 -0.32315677 0.19972187 0.52287865
0 0.027504321 0.028840421 -0.32315677 0.19972187 0.52287865
0 0.02642178 0.028070495 -0.32315677 0.19972187 0.52287865
0 0.025335982 0.027298274 -0.32315677 0.19972187 0.52287865
0 0.024246909 0.026523745 -0.32315677 0.19972187 0.52287865
0 0.02315454 0.025746893 -0.32315677 0.19972187 0.52287865
0 0.022058856 0.024967704 -0.32315677 0.19972187 0.52287865
0.015672831 0.012290025 0 -0.32315677 0.19972187 0.52287865
0.015141053 0.011430163 0 -0.32315677 0.19972187 0.52287865
0 0.018751699 0.022615973 -0.32315677 0.19972187 0.52287865
0.014077674 0.0097106257 0 -0.32315677 0.19972187 0.52287865
0 0.016529972 0.021036202 -0.32315677 0.19972187 0.52287865
0 0.015413959 0.020242687 -0.32315677 0.19972187 0.52287865
0 0.014294483 0.019446732 -0.32315677 0.19972187 0.52287865
0 0.013171524 0.018648323 -0.32315677 0.19972187 0.52287865
0 0.01204506 0.017847445 -0.32315677 0.19972187 0.52287865
0.010888757 0.0045532305 0 -0.32315677 0.19972187 0.52287865
0 0.0097815311 0.016238213 -0.32315677 0.19972187 0.52287865
0.0098261228 0.0028343915 0 -0.32315677 0.19972187 0.52287865
0.0092948573 0.0019750078 0 -0.32315677 0.19972187 0.52287865
0.0087636225 0.0011156428 0 -0.32315677 0.19972187 0.52287865
0 0.0052114441 0.012989424 -0.32315677 0.19972187 0.52287865
0 0.0040598265 0.012170816 -0.32315677 0.19972187 0.52287865
0.0047689741 0 0.0038007405 -0.32315677 0.19972187 0.52287865
0.0028492052 0 0.0060084863 -0.32315677 0.19972187 0.52287865
0 0.00058277621 0.0096993456 -0.32315677 0.19972187 0.52287865
0.038710907 0.079999998 0.020068349 -0.32315677 0.19972187 0.52287865
0.039999999 0.078554682 0.01754915 -0.32315677 0.19972187 0.52287865
0.032668892 0.079999998 0.027035262 -0.32315677 0.19972187 0.52287865
0.029712146 0.079999998 0.03044465 -0.32315677 0.19972187 0.52287865
0.026797013 0.079999998 0.033806071 -0.32315677 0.19972187 0.52287865
0.023922607 0.079999998 0.037120543 -0.32315677 0.19972187 0.52287865
0.021213049 0.079956532 0.040213894 -0.32315677 0.19972187 0.52287865
0.018504241 0.079925776 0.043315478 -0.32315677 0.19972187 0.52287865
0.016466307 0.079670891 0.045483354 -0.32315677 0.19972187 0.52287865
0.014780307 0.079299815 0.047162414 -0.32315677 0.19972187 0.52287865
0.01336574 0.078838468 0.048464 -0.32315677 0.19972187 0.52287865
0.012075079 0.078337938 0.049594734 -0.32315677 0.19972187 0.52287865
0.010907173 0.077797607 0.050555494 -0.32315677 0.19972187 0.52287865
0.0098716663 0.077212863 0.05133187 -0.32315677 0.19972187 0.52287865
0.0088791661 0.076615714 0.052049808 -0.32315677 0.19972187 0.52287865
0.008013973 0.075974301 0.052589338 -0.32315677 0.19972187 0.52287865
0.0071653905 0.075329192 0.053107094 -0.32315677 0.19972187 0.52287865
0.0064223399 0.074646518 0.05347633 -0.32315677 0.19972187 0.52287865
0.0056965989 0.073959082 0.053822227 -0.32315677 0.19972187 0.52287865
0.0050469604 0.07324408 0.05406069 -0.32315677 0.19972187 0.52287865
0.0044299797 0.072517715 0.054253392 -0.32315677 0.19972187 0.52287865
0.0038558852 0.071775697 0.054385476 -0.32315677 0.19972187 0.52287865
0.0033382771 0.071012288 0.054437153 -0.32315677 0.19972187 0.52287865
0.0028285035 0.070246294 0.054477971 -0.32315677 0.19972187 0.52287865
0.0024044691 0.069446482 0.054395776 -0.32315677 0.19972187 0.52287865
0.0019804223 0.068646647 0.054313596 -0.32315677 0.19972187 0.52287865
0.0016188431 0.067821413 0.05414125 -0.32315677 0.19972187 0.52287865
0.0012853119 0.066984288 0.053928088 -0.32315677 0.19972187 0.52287865
0.0009775178 0.066135965 0.053677265 -0.32315677 0.19972187 0.52287865
0.00073432544 0.065260082 0.053332273 -0.32315677 0.19972187 0.52287865
0.0004908478 0.064383164 0.052986894 -0.32315677 0.19972187 0.52287865
0.0003315552 0.063469641 0.052518297 -0.32315677 0.19972187 0.52287865
0.00018091172 0.062550768 0.052035928 -0.32315677 0.19972187 0.52287865
8.7068052e-05 0.061605889 0.051469497 -0.32315677 0.19972187 0.52287865
3.4755776e-05 0.060641035 0.050840925 -0.32315677 0.19972187 0.52287865
1.8532837e-05 0.059658177 0.050157893 -0.32315677 0.19972187 0.52287865
7.365083e-05 0.058641579 0.049368512 -0.32315677 0.19972187 0.52287865
0.00015445045 0.057610638 0.048539285 -0.32315677 0.19972187 0.52287865
0.0003309412 0.056534104 0.047567163 -0.32315677 0.19972187 0.52287865
0.00054018752 0.055439129 0.046544116 -0.32315677 0.19972187 0.52287865
0.00085899426 0.054290909 0.045356713 -0.32315677 0.19972187 0.52287865
0.0012495407 0.053105496 0.044060037 -0.32315677 0.19972187 0.52287865
0.001742495 0.051868234 0.04260825 -0.32315677 0.19972187 0.52287865
0.0024086002 0.050545722 0.04089592 -0.32315677 0.19972187 0.52287865
0.0025207072 0.049471766 0.039999999 -0.32315677 0.19972187 0.52287865
0.0020277668 0.048675276 0.039999999 -0.32315677 0.19972187 0.52287865
0.0015349463 0.047878958 0.039999999 -0.32315677 0.19972187 0.52287865
0.0010422433 0.047082804 0.039999999 -0.32315677 0.19972187 0.52287865
0.00054965541 0.046286814 0.039999999 -0.32315677 0.19972187 0.52287865
5.7180179e-05 0.04549098 0.039999999 -0.32315677 0.19972187 0.52287865
0.026297957 0.031853434 0 -0.32315677 0.19972187 0.52287865
0.025764924 0.030992003 0 -0.32315677 0.19972187 0.52287865
0 0.042413346 0.037869405 -0.32315677 0.19972187 0.52287865
0.024699194 0.029269619 0 -0.32315677 0.19972187 0.52287865
0.024166495 0.028408654 0 -0.32315677 0.19972187 0.52287865
0 0.039281555 0.035634357 -0.32315677 0.19972187 0.52287865
0 0.038231567 0.034885053 -0.32315677 0.19972187 0.52287865
0 0.03717852 0.034133583 -0.32315677 0.19972187 0.52287865
0 0.036122397 0.033379935 -0.32315677 0.19972187 0.52287865
0 0.035063177 0.032624096 -0.32315677 0.19972187 0.52287865
0 0.034000844 0.031866051 -0.32315677 0.19972187 0.52287865
0 0.032935381 0.031105788 -0.32315677 0.19972187 0.52287865
0 0.031866763 0.030343294 -0.32315677 0.19972187 0.52287865
0 0.030794973 0.029578555 -0.32315677 0.19972187 0.52287865
0.01884491 0.019806322 0 -0.32315677 0.19972187 0.52287865
0 0.028641805 0.028042287 -0.32315677 0.19972187 0.52287865
0.017781638 0.018087234 0 -0.32315677 0.19972187 0.52287865
0 0.02647572 0.02649687 -0.32315677 0.19972187 0.52287865
0.016718667 0.016368529 0 -0.32315677 0.19972187 0.52287865
0 0.024296559 0.024942197 -0.32315677 0.19972187 0.52287865
0.015655974 0.014650169 0 -0.32315677 0.19972187 0.52287865
0 0.022104161 0.023378151 -0.32315677 0.19972187 0.52287865
0 0.021002948 0.022592576 -0.32315677 0.19972187 0.52287865
0 0.019898366 0.021804616 -0.32315677 0.19972187 0.52287865
0 0.01879039 0.021014255 -0.32315677 0.19972187 0.52287865
0 0.017679004 0.020221476 -0.32315677 0.19972187 0.52287865
0 0.016564185 0.019426266 -0.32315677 0.19972187 0.52287865
0 0.01544591 0.01862861 -0.32315677 0.19972187 0.52287865
0.011407577 0.0077795386 0 -0.32315677 0.19972187 0.52287865
0.010876752 0.0069209565 0 -0.32315677 0.19972187 0.52287865
0 0.012070145 0.016220814 -0.32315677 0.19972187 0.52287865
0.0098152226 0.0052039106 0 -0.32315677 0.19972187 0.52287865
0.009284514 0.0043454384 0 -0.32315677 0.19972187 0.52287865
0 0.0086625097 0.013790444 -0.32315677 0.19972187 0.52287865
0 0.0075194449 0.012975233 -0.32315677 0.19972187 0.52287865
0.0076925773 0.0017701753 0 -0.32315677 0.19972187 0.52287865
0.007161987 0.0009117914 0 -0.32315677 0.19972187 0.52287865
0.0066314195 5.3419106e-05 0 -0.32315677 0.19972187 0.52287865
0.0047791819 0 0.0020989159 -0.32315677 0.19972187 0.52287865
0 0.0017492035 0.0088602789 -0.32315677 0.19972187 0.52287865
0 0.00058400939 0.0080293948 -0.32315677 0.19972187 0.52287865
0.039298449 0.079999998 0.017733391 -0.32315677 0.19972187 0.52287865
0.036240913 0.079999998 0.021270929 -0.32315677 0.19972187 0.52287865
0.033227205 0.079999998 0.024757773 -0.32315677 0.19972187 0.52287865
0.030256374 0.079999998 0.02819502 -0.32315677 0.19972187 0.52287865
0.039999999 0.075671203 0.013819933 -0.32315677 0.19972187 0.52287865
0.039999999 0.074640594 0.013081495 -0.32315677 0.19972187 0.52287865
0.021592058 0.079999998 0.038219705 -0.32315677 0.19972187 0.52287865
0.01887924 0.079966575 0.041334532 -0.32315677 0.19972187 0.52287865
0.016761994 0.079735972 0.043619018 -0.32315677 0.19972187 0.52287865
0.015070261 0.079363629 0.045309637 -0.32315677 0.19972187 0.52287865
0.01360246 0.078918226 0.046688825 -0.32315677 0.19972187 0.52287865
0.012272144 0.07842911 0.047877632 -0.32315677 0.19972187 0.52287865
0.011100907 0.077887237 0.048844598 -0.32315677 0.19972187 0.52287865
0.010034842 0.077311039 0.049665295 -0.32315677 0.19972187 0.52287865
0.0090396963 0.076712295 0.050387803 -0.32315677 0.19972187 0.52287865
0.0081498353 0.07607758 0.050962731 -0.32315677 0.19972187 0.52287865
0.0072991173 0.075430855 0.051483773 -0.32315677 0.19972187 0.52287865
0.0065354211 0.074753627 0.051882293 -0.32315677 0.19972187 0.52287865
0.0058079441 0.074064545 0.052230429 -0.32315677 0.19972187 0.52287865
0.005140454 0.073354147 0.052493896 -0.32315677 0.19972187 0.52287865
0.0045220633 0.072626129 0.052687939 -0.32315677 0.19972187 0.52287865
0.0039321077 0.071888119 0.052841943 -0.32315677 0.19972187 0.52287865
0.0034133655 0.071123034 0.05289416 -0.32315677 0.19972187 0.52287865
0.0028949105 0.070358373 0.052946363 -0.32315677 0.19972187 0.52287865
0.0024642081 0.069559164 0.052872296 -0.32315677 0.19972187 0.52287865
0.0020392679 0.068757646 0.052789919 -0.32315677 0.19972187 0.52287865
0.0016644072 0.067935772 0.052635033 -0.32315677 0.19972187 0.52287865
0.0013301988 0.067096949 0.052420978 -0.32315677 0.19972187 0.52287865
0.0010097033 0.066251889 0.052186601 -0.32315677 0.19972187 0.52287865
0.00076603465 0.065374285 0.051840033 -0.32315677 0.19972187 0.52287865
0.00052207959 0.064495653 0.051493071 -0.32315677 0.19972187 0.52287865
0.00035053174 0.063585393 0.051039685 -0.32315677 0.19972187 0.52287865
0.00019960316 0.062664777 0.050555043 -0.32315677 0.19972187 0.52287865
9.3434697e-05 0.061723314 0.050003685 -0.32315677 0.19972187 0.52287865
4.1026949e-05 0.060756702 0.049372118 -0.32315677 0.19972187 0.52287865
1.2059909e-05 0.059777565 0.048704475 -0.32315677 0.19972187 0.52287865
6.727469e-05 0.058759183 0.047911327 -0.32315677 0.19972187 0.52287865
0.00013447739 0.057732467 0.047098354 -0.32315677 0.19972187 0.52287865
0.0003112652 0.056654122 0.046121612 -0.32315677 0.19972187 0.52287865
0.00050547172 0.055564161 0.04511641 -0.32315677 0.19972187 0.52287865
0.00082478952 0.054414101 0.043923412 -0.32315677 0.19972187 0.52287865
0.0011979723 0.053234927 0.042647246 -0.32315677 0.19972187 0.52287865
0.0016916713 0.051995799 0.041188702 -0.32315677 0.19972187 0.52287865
0.0020008145 0.050835241 0.039999999 -0.32315677 0.19972187 0.52287865
0.0015084274 0.050039418 0.039999999 -0.32315677 0.19972187 0.52287865
0.00101616 0.049243771 0.039999999 -0.32315677 0.19972187 0.52287865
0.00052400969 0.048448291 0.039999999 -0.32315677 0.19972187 0.52287865
3.1974199e-05 0.047652982 0.039999999 -0.32315677 0.19972187 0.52287865
0.026271142 0.034195103 0 -0.32315677 0.19972187 0.52287865
0 0.045608953 0.038573623 -0.32315677 0.19972187 0.52287865
0 0.044575006 0.037833411 -0.32315677 0.19972187 0.52287865
0 0.043538101 0.037091095 -0.32315677 0.19972187 0.52287865
0 0.042498212 0.036346659 -0.32315677 0.19972187 0.52287865
0 0.041455328 0.035600089 -0.32315677 0.19972187 0.52287865
0.023077516 0.029032487 0 -0.32315677 0.19972187 0.52287865
0 0.039360493 0.034100499 -0.32315677 0.19972187 0.52287865
0.022013828 0.027312836 0 -0.32315677 0.19972187 0.52287865
0.021482134 0.026453219 0 -0.32315677 0.19972187 0.52287865
0 0.036195308 0.0318348 -0.32315677 0.19972187 0.52287865
0.020419028 0.024734387 0 -0.32315677 0.19972187 0.52287865
0.019887611 0.023875162 0 -0.32315677 0.19972187 0.52287865
0.019356282 0.023016058 0 -0.32315677 0.19972187 0.52287865
0.018825039 0.022157071 0 -0.32315677 0.19972187 0.52287865
