# .PCD v0.7 - Point Cloud Data file format
VERSION 0.7
FIELDS x y z vp_x vp_y vp_z
SIZE 4 4 4 4 4 4
TYPE F F F F F F
COUNT 1 1 1 1 1 1
WIDTH 696
HEIGHT 1
VIEWPOINT 0 0 0 1 0 0 0
POINTS 696
DATA ascii
0.017350592 0.040199727 0.06352035 0.32315677 -0.19972187 0.52287865
0.019066267 0.040029299 0.065369956 0.32315677 -0.19972187 0.52287865
0.020555139 0.040029299 0.066883676 0.32315677 -0.19972187 0.52287865
0.021920132 0.040120389 0.068215244 0.32315677 -0.19972187 0.52287865
0.023214696 0.040261228 0.069444589 0.32315677 -0.19972187 0.52287865
0.024061581 0.040755916 0.07 0.32315677 -0.19972187 0.52287865
0 0.061372831 0.032781143 0.32315677 -0.19972187 0.52287865
0.025020614 0.042334057 0.07 0.32315677 -0.19972187 0.52287865
0 0.06392806 0.031202007 0.32315677 -0.19972187 0.52287865
0.025979735 0.043913357 0.07 0.32315677 -0.19972187 0.52287865
0.026459334 0.04470345 0.07 0.32315677 -0.19972187 0.52287865
0.026938966 0.045493852 0.07 0.32315677 -0.19972187 0.52287865
0 0.06909243 0.028012484 0.32315677 -0.19972187 0.52287865
0.027898323 0.047075573 0.07 0.32315677 -0.19972187 0.52287865
0.028378056 0.047866907 0.07 0.32315677 -0.19972187 0.52287865
0.028857829 0.048658561 0.07 0.32315677 -0.19972187 0.52287865
0.029337645 0.049450539 0.07 0.32315677 -0.19972187 0.52287865
0 0.075651392 0.023965554 0.32315677 -0.19972187 0.52287865
0.030297412 0.051035482 0.07 0.32315677 -0.19972187 0.52287865
0.030777369 0.051828459 0.07 0.32315677 -0.19972187 0.52287865
0.03125738 0.052621778 0.07 0.32315677 -0.19972187 0.52287865
0.031737443 0.05341544 0.07 0.32315677 -0.19972187 0.52287865
0.032217566 0.054209452 0.07 0.32315677 -0.19972187 0.52287865
0.032697745 0.055003822 0.07 0.32315677 -0.19972187 0.52287865
0.03317799 0.055798549 0.07 0.32315677 -0.19972187 0.52287865
0.0336583 0.056593638 0.07 0.32315677 -0.19972187 0.52287865
0.034138676 0.057389095 0.07 0.32315677 -0.19972187 0.52287865
0.010213138 0.079999998 0.031693216 0.32315677 -0.19972187 0.52287865
0.035099644 0.058981132 0.07 0.32315677 -0.19972187 0.52287865
0.035580236 0.059777718 0.07 0.32315677 -0.19972187 0.52287865
0.036060911 0.060574688 0.07 0.32315677 -0.19972187 0.52287865
0.016092883 0.079999998 0.037689019 0.32315677 -0.19972187 0.52287865
0.037022498 0.062169801 0.07 0.32315677 -0.19972187 0.52287865
0.037503418 0.062967956 0.07 0.32315677 -0.19972187 0.52287865
0.037984427 0.063766509 0.07 0.32315677 -0.19972187 0.52287865
0.038465526 0.064565472 0.07 0.32315677 -0.19972187 0.52287865
0.038946718 0.065364845 0.07 0.32315677 -0.19972187 0.52287865
0.038810868 0.066742964 0.069014937 0.32315677 -0.19972187 0.52287865
0.03791631 0.068841398 0.066813298 0.32315677 -0.19972187 0.52287865
0.036130805 0.071795374 0.063177049 0.32315677 -0.19972187 0.52287865
0.0002009024 0.047574781 0.039999999 0.32315677 -0.19972187 0.52287865
0.00071161333 0.048412088 0.039999999 0.32315677 -0.19972187 0.52287865
0.0012223209 0.049249653 0.039999999 0.32315677 -0.19972187 0.52287865
0.013104605 0.041249529 0.057083651 0.32315677 -0.19972187 0.52287865
0.015553561 0.04053 0.060027324 0.32315677 -0.19972187 0.52287865
0.017509734 0.040182415 0.062237702 0.32315677 -0.19972187 0.52287865
0.0192053 0.040029299 0.064061731 0.32315677 -0.19972187 0.52287865
0.020696189 0.040029299 0.065582134 0.32315677 -0.19972187 0.52287865
0.022046031 0.040134087 0.066893794 0.32315677 -0.19972187 0.52287865
0.023330817 0.040284455 0.068110958 0.32315677 -0.19972187 0.52287865
0.024480494 0.040537495 0.069126755 0.32315677 -0.19972187 0.52287865
0.025534358 0.040863007 0.07 0.32315677 -0.19972187 0.52287865
0.026013445 0.041651182 0.07 0.32315677 -0.19972187 0.52287865
0.026492555 0.042439643 0.07 0.32315677 -0.19972187 0.52287865
0 0.065352336 0.028759224 0.32315677 -0.19972187 0.52287865
0 0.066644162 0.027958546 0.32315677 -0.19972187 0.52287865
0.027930057 0.044806801 0.07 0.32315677 -0.19972187 0.52287865
0.028409289 0.045596458 0.07 0.32315677 -0.19972187 0.52287865
0.028888559 0.046386421 0.07 0.32315677 -0.19972187 0.52287865
0.029367868 0.0471767 0.07 0.32315677 -0.19972187 0.52287865
0.02984722 0.047967296 0.07 0.32315677 -0.19972187 0.52287865
0.030326616 0.048758212 0.07 0.32315677 -0.19972187 0.52287865
0.030806057 0.049549457 0.07 0.32315677 -0.19972187 0.52287865
0.03128555 0.050341032 0.07 0.32315677 -0.19972187 0.52287865
0 0.078479044 0.020630941 0.32315677 -0.19972187 0.52287865
0.032244693 0.05192519 0.07 0.32315677 -0.19972187 0.52287865
0.032724351 0.052717779 0.07 0.32315677 -0.19972187 0.52287865
0.033204067 0.053510718 0.07 0.32315677 -0.19972187 0.52287865
0.0044022109 0.079999998 0.024189061 0.32315677 -0.19972187 0.52287865
0.034163687 0.055097654 0.07 0.32315677 -0.19972187 0.52287865
0.034643598 0.055891663 0.07 0.32315677 -0.19972187 0.52287865
0.035123579 0.056686036 0.07 0.32315677 -0.19972187 0.52287865
0.035603631 0.057480775 0.07 0.32315677 -0.19972187 0.52287865
0.036083758 0.05827589 0.07 0.32315677 -0.19972187 0.52287865
0.036563963 0.059071384 0.07 0.32315677 -0.19972187 0.52287865
0.037044249 0.059867259 0.07 0.32315677 -0.19972187 0.52287865
0.037524618 0.060663521 0.07 0.32315677 -0.19972187 0.52287865
0.038005069 0.061460175 0.07 0.32315677 -0.19972187 0.52287865
0.038485609 0.062257223 0.07 0.32315677 -0.19972187 0.52287865
0.038966242 0.063054673 0.07 0.32315677 -0.19972187 0.52287865
0.022232031 0.079845682 0.042520251 0.32315677 -0.19972187 0.52287865
0.039262421 0.065271847 0.068936095 0.32315677 -0.19972187 0.52287865
0.038680453 0.067070268 0.067231864 0.32315677 -0.19972187 0.52287865
0.037695002 0.069258817 0.064874291 0.32315677 -0.19972187 0.52287865
0.035474546 0.072630145 0.060523644 0.32315677 -0.19972187 0.52287865
0.00024209425 0.045189943 0.039999999 0.32315677 -0.19972187 0.52287865
0.00075231737 0.046025675 0.039999999 0.32315677 -0.19972187 0.52287865
0.0012625345 0.046861652 0.039999999 0.32315677 -0.19972187 0.52287865
0.0017727483 0.047697879 0.039999999 0.32315677 -0.19972187 0.52287865
0.0091504734 0.043221053 0.050334826 0.32315677 -0.19972187 0.52287865
0.013340917 0.0411699 0.055898432 0.32315677 -0.19972187 0.52287865
0.015742356 0.040488448 0.058778942 0.32315677 -0.19972187 0.52287865
0.01766935 0.040165052 0.060951237 0.32315677 -0.19972187 0.52287865
0.019344764 0.040029299 0.062749453 0.32315677 -0.19972187 0.52287865
0.020837678 0.040029299 0.064276561 0.32315677 -0.19972187 0.52287865
0.022172334 0.04014783 0.065568112 0.32315677 -0.19972187 0.52287865
0.023445031 0.040309593 0.066769488 0.32315677 -0.19972187 0.52287865
0.024596475 0.040563021 0.067789882 0.32315677 -0.19972187 0.52287865
0.025703033 0.040847756 0.068745017 0.32315677 -0.19972187 0.52287865
0.026728889 0.041193422 0.06957978 0.32315677 -0.19972187 0.52287865
0.027482357 0.041757513 0.07 0.32315677 -0.19972187 0.52287865
0.027961059 0.042545229 0.07 0.32315677 -0.19972187 0.52287865
0.028439792 0.043333236 0.07 0.32315677 -0.19972187 0.52287865
0 0.068087161 0.025489813 0.32315677 -0.19972187 0.52287865
0.029397365 0.044910152 0.07 0.32315677 -0.19972187 0.52287865
0.02987621 0.045699067 0.07 0.32315677 -0.19972187 0.52287865
0.030355096 0.046488296 0.07 0.32315677 -0.19972187 0.52287865
0.030834025 0.047277838 0.07 0.32315677 -0.19972187 0.52287865
0.031313002 0.048067696 0.07 0.32315677 -0.19972187 0.52287865
0.03179203 0.048857883 0.07 0.32315677 -0.19972187 0.52287865
0.03227111 0.049648393 0.07 0.32315677 -0.19972187 0.52287865
0.032750241 0.050439239 0.07 0.32315677 -0.19972187 0.52287865
0 0.079992808 0.01809424 0.32315677 -0.19972187 0.52287865
0.03370868 0.052021943 0.07 0.32315677 -0.19972187 0.52287865
0.034187991 0.052813809 0.07 0.32315677 -0.19972187 0.52287865
0.034667365 0.053606026 0.07 0.32315677 -0.19972187 0.52287865
0.03514681 0.054398596 0.07 0.32315677 -0.19972187 0.52287865
0.035626322 0.055191524 0.07 0.32315677 -0.19972187 0.52287865
0.0091469726 0.079999998 0.027467033 0.32315677 -0.19972187 0.52287865
0.036585566 0.056778468 0.07 0.32315677 -0.19972187 0.52287865
0.037065301 0.057572499 0.07 0.32315677 -0.19972187 0.52287865
0.037545118 0.058366898 0.07 0.32315677 -0.19972187 0.52287865
0.038025014 0.059161682 0.07 0.32315677 -0.19972187 0.52287865
0.038504999 0.059956849 0.07 0.32315677 -0.19972187 0.52287865
0.03898507 0.060752403 0.07 0.32315677 -0.19972187 0.52287865
0.03946523 0.061548352 0.07 0.32315677 -0.19972187 0.52287865
0.039836355 0.062445674 0.069825493 0.32315677 -0.19972187 0.52287865
0.039595723 0.063913219 0.068670332 0.32315677 -0.19972187 0.52287865
0.039186578 0.065545022 0.0672407 0.32315677 -0.19972187 0.52287865
0.038549356 0.067399286 0.065439448 0.32315677 -0.19972187 0.52287865
0.03747239 0.069678694 0.062923878 0.32315677 -0.19972187 0.52287865
0.034539316 0.073731139 0.05740606 0.32315677 -0.19972187 0.52287865
0.00028250489 0.042812198 0.039999999 0.32315677 -0.19972187 0.52287865
0.00079224148 0.043646384 0.039999999 0.32315677 -0.19972187 0.52287865
0.0013019694 0.044480804 0.039999999 0.32315677 -0.19972187 0.52287865
0.0018116912 0.045315467 0.039999999 0.32315677 -0.19972187 0.52287865
0.0023214098 0.046150375 0.039999999 0.32315677 -0.19972187 0.52287865
0.0028311275 0.046985529 0.039999999 0.32315677 -0.19972187 0.52287865
0.0097488649 0.042861026 0.049675237 0.32315677 -0.19972187 0.52287865
0.013577816 0.041090079 0.054710265 0.32315677 -0.19972187 0.52287865
0.015931677 0.040446777 0.057527076 0.32315677 -0.19972187 0.52287865
0.017829441 0.040147636 0.059660938 0.32315677 -0.19972187 0.52287865
0.019484665 0.040029299 0.061433077 0.32315677 -0.19972187 0.52287865
0.020979606 0.040029299 0.062966943 0.32315677 -0.19972187 0.52287865
0.022299042 0.040161613 0.064238168 0.32315677 -0.19972187 0.52287865
0.023559622 0.040334817 0.065423593 0.32315677 -0.19972187 0.52287865
0.024712836 0.040588632 0.066448621 0.32315677 -0.19972187 0.52287865
0.025809124 0.040883504 0.067389719 0.32315677 -0.19972187 0.52287865
0.026836626 0.041229725 0.068228282 0.32315677 -0.19972187 0.52287865
0.027815651 0.041611508 0.068995029 0.32315677 -0.19972187 0.52287865
0.028736377 0.042037483 0.069674477 0.32315677 -0.19972187 0.52287865
0.029426156 0.042650804 0.07 0.32315677 -0.19972187 0.52287865
0.029904494 0.04343807 0.07 0.32315677 -0.19972187 0.52287865
0.030382872 0.044225633 0.07 0.32315677 -0.19972187 0.52287865
0.03086129 0.045013502 0.07 0.32315677 -0.19972187 0.52287865
0 0.072169736 0.021362999 0.32315677 -0.19972187 0.52287865
0 0.07349091 0.020539282 0.32315677 -0.19972187 0.52287865
0.032296821 0.04737898 0.07 0.32315677 -0.19972187 0.52287865
0.032775432 0.048168108 0.07 0.32315677 -0.19972187 0.52287865
0 0.077483036 0.018051287 0.32315677 -0.19972187 0.52287865
0.03373282 0.049747344 0.07 0.32315677 -0.19972187 0.52287865
0.034211602 0.050537463 0.07 0.32315677 -0.19972187 0.52287865
0.034690443 0.051327918 0.07 0.32315677 -0.19972187 0.52287865
0.035169352 0.052118715 0.07 0.32315677 -0.19972187 0.52287865
0.035648324 0.052909862 0.07 0.32315677 -0.19972187 0.52287865
0.036127366 0.053701356 0.07 0.32315677 -0.19972187 0.52287865
0.036606483 0.054493207 0.07 0.32315677 -0.19972187 0.52287865
0.037085671 0.05528542 0.07 0.32315677 -0.19972187 0.52287865
0.037564937 0.056077994 0.07 0.32315677 -0.19972187 0.52287865
0.038044281 0.056870937 0.07 0.32315677 -0.19972187 0.52287865
0.038523711 0.057664253 0.07 0.32315677 -0.19972187 0.52287865
0.039003223 0.058457948 0.07 0.32315677 -0.19972187 0.52287865
0.039482821 0.05925202 0.07 0.32315677 -0.19972187 0.52287865
0.039962508 0.060046479 0.07 0.32315677 -0.19972187 0.52287865
0.039928749 0.061314635 0.069177359 0.32315677 -0.19972187 0.52287865
0.039798386 0.062677234 0.068196766 0.32315677 -0.19972187 0.52287865
0.039557073 0.064148925 0.067034334 0.32315677 -0.19972187 0.52287865
0.03911037 0.065819524 0.065537073 0.32315677 -0.19972187 0.52287865
0.03841757 0.067730032 0.063637614 0.32315677 -0.19972187 0.52287865
0.037248462 0.070101053 0.060961947 0.32315677 -0.19972187 0.52287865
0.00032215385 0.040441453 0.039999999 0.32315677 -0.19972187 0.52287865
0.00083140511 0.041274123 0.039999999 0.32315677 -0.19972187 0.52287865
0.001340645 0.04210702 0.039999999 0.32315677 -0.19972187 0.52287865
0.0018498763 0.042940147 0.039999999 0.32315677 -0.19972187 0.52287865
0.0023591013 0.043773506 0.039999999 0.32315677 -0.19972187 0.52287865
0.0028683231 0.044607099 0.039999999 0.32315677 -0.19972187 0.52287865
0.003377544 0.045440938 0.039999999 0.32315677 -0.19972187 0.52287865
0.0038867667 0.04627502 0.039999999 0.32315677 -0.19972187 0.52287865
0.010347373 0.042500928 0.049015518 0.32315677 -0.19972187 0.52287865
0.013815306 0.041010052 0.053519137 0.32315677 -0.19972187 0.52287865
0.016121529 0.040404994 0.056271706 0.32315677 -0.19972187 0.52287865
0.01799001 0.040130168 0.058366779 0.32315677 -0.19972187 0.52287865
0.019625003 0.040029299 0.060112592 0.32315677 -0.19972187 0.52287865
0.021117251 0.040033046 0.061646026 0.32315677 -0.19972187 0.52287865
0.02242616 0.040175442 0.062903948 0.32315677 -0.19972187 0.52287865
0.023674591 0.040360119 0.064073257 0.32315677 -0.19972187 0.52287865
0.024829583 0.040614329 0.065102935 0.32315677 -0.19972187 0.52287865
0.025915571 0.040919371 0.066029847 0.32315677 -0.19972187 0.52287865
0.026944725 0.041266151 0.066872232 0.32315677 -0.19972187 0.52287865
0.027914632 0.041657303 0.067625962 0.32315677 -0.19972187 0.52287865
0.028836897 0.04208399 0.068308502 0.32315677 -0.19972187 0.52287865
0.029718811 0.042540751 0.068930797 0.32315677 -0.19972187 0.52287865
0.030547081 0.043039098 0.06947194 0.32315677 -0.19972187 0.52287865
0.031358697 0.04354883 0.069988944 0.32315677 -0.19972187 0.52287865
0.031843815 0.044329718 0.07 0.32315677 -0.19972187 0.52287865
0.032321855 0.045116849 0.07 0.32315677 -0.19972187 0.52287865
5.5511151e-17 0.073651277 0.018840896 0.32315677 -0.19972187 0.52287865
0.033278089 0.046692047 0.07 0.32315677 -0.19972187 0.52287865
0 0.076314285 0.01717528 0.32315677 -0.19972187 0.52287865
0.034234539 0.048268523 0.07 0.32315677 -0.19972187 0.52287865
0.034712847 0.049057245 0.07 0.32315677 -0.19972187 0.52287865
0.035191219 0.049846303 0.07 0.32315677 -0.19972187 0.52287865
0.0019504534 0.079999998 0.016882116 0.32315677 -0.19972187 0.52287865
0.003493432 0.079999998 0.018473221 0.32315677 -0.19972187 0.52287865
0.0050272485 0.079999998 0.020055039 0.32315677 -0.19972187 0.52287865
0.037105378 0.05300593 0.07 0.32315677 -0.19972187 0.52287865
0.037584096 0.053796709 0.07 0.32315677 -0.19972187 0.52287865
0.0095745977 0.079999998 0.024745649 0.32315677 -0.19972187 0.52287865
0.038541764 0.055379342 0.07 0.32315677 -0.19972187 0.52287865
0.039020717 0.056171201 0.07 0.32315677 -0.19972187 0.52287865
0.014042584 0.079999998 0.029355807 0.32315677 -0.19972187 0.52287865
0.039883099 0.05784313 0.069846816 0.32315677 -0.19972187 0.52287865
0.039946683 0.059016254 0.06918072 0.32315677 -0.19972187 0.52287865
0.039988428 0.060213514 0.068477169 0.32315677 -0.19972187 0.52287865
0.039917681 0.061518844 0.067590252 0.32315677 -0.19972187 0.52287865
0.039760243 0.062909849 0.066560566 0.32315677 -0.19972187 0.52287865
0.039505012 0.064398043 0.065369464 0.32315677 -0.19972187 0.52287865
0.039033789 0.066095367 0.063825145 0.32315677 -0.19972187 0.52287865
0.038285092 0.068062522 0.061826281 0.32315677 -0.19972187 0.52287865
0.036934942 0.070609279 0.058845282 0.32315677 -0.19972187 0.52287865
0.00036106046 0.038077619 0.039999999 0.32315677 -0.19972187 0.52287865
0.00086982769 0.038908806 0.039999999 0.32315677 -0.19972187 0.52287865
0.0013785809 0.039740205 0.039999999 0.32315677 -0.19972187 0.52287865
0.0018873226 0.040571824 0.039999999 0.32315677 -0.19972187 0.52287865
0.0023960557 0.041403662 0.039999999 0.32315677 -0.19972187 0.52287865
0.0029047825 0.042235732 0.039999999 0.32315677 -0.19972187 0.52287865
0.0034135061 0.043068029 0.039999999 0.32315677 -0.19972187 0.52287865
0.0039222287 0.043900561 0.039999999 0.32315677 -0.19972187 0.52287865
0.0044309529 0.044733331 0.039999999 0.32315677 -0.19972187 0.52287865
0.0049396814 0.045566346 0.039999999 0.32315677 -0.19972187 0.52287865
0.010806025 0.042249192 0.048142921 0.32315677 -0.19972187 0.52287865
0.014053389 0.040929832 0.052325029 0.32315677 -0.19972187 0.52287865
0.016311914 0.040363088 0.055012811 0.32315677 -0.19972187 0.52287865
0.018151062 0.040112644 0.057068739 0.32315677 -0.19972187 0.52287865
0.019765779 0.040029299 0.058787964 0.32315677 -0.19972187 0.52287865
0.021242861 0.040046711 0.060301833 0.32315677 -0.19972187 0.52287865
0.022553686 0.040189315 0.061565418 0.32315677 -0.19972187 0.52287865
0.023789942 0.040385507 0.062718444 0.32315677 -0.19972187 0.52287865
0.024946716 0.040640108 0.063752793 0.32315677 -0.19972187 0.52287865
0.026022378 0.040955361 0.064665377 0.32315677 -0.19972187 0.52287865
0.02705319 0.0413027 0.065511607 0.32315677 -0.19972187 0.52287865
0.028013954 0.041703254 0.066252179 0.32315677 -0.19972187 0.52287865
0.028937761 0.042130657 0.066937834 0.32315677 -0.19972187 0.52287865
0.029811252 0.04259637 0.067547567 0.32315677 -0.19972187 0.52287865
0.030640956 0.043095581 0.068091169 0.32315677 -0.19972187 0.52287865
0.031444531 0.043614078 0.068595789 0.32315677 -0.19972187 0.52287865
0.032188866 0.044179928 0.069009595 0.32315677 -0.19972187 0.52287865
0.032932062 0.044744913 0.069422908 0.32315677 -0.19972187 0.52287865
0.033598389 0.045373138 0.069717199 0.32315677 -0.19972187 0.52287865
0 0.075144611 0.016299125 0.32315677 -0.19972187 0.52287865
0.034734599 0.046793919 0.07 0.32315677 -0.19972187 0.52287865
0.035212439 0.047581267 0.07 0.32315677 -0.19972187 0.52287865
0.035690341 0.048368935 0.07 0.32315677 -0.19972187 0.52287865
0.036168303 0.049156934 0.07 0.32315677 -0.19972187 0.52287865
0.036646336 0.049945269 0.07 0.32315677 -0.19972187 0.52287865
0.037124436 0.050733939 0.07 0.32315677 -0.19972187 0.52287865
0.037602607 0.051522948 0.07 0.32315677 -0.19972187 0.52287865
0.038080852 0.052312307 0.07 0.32315677 -0.19972187 0.52287865
0.038559176 0.053102013 0.07 0.32315677 -0.19972187 0.52287865
0.039031748 0.05389728 0.069990709 0.32315677 -0.19972187 0.52287865
0.039302841 0.054873738 0.069659561 0.32315677 -0.19972187 0.52287865
0.039559435 0.055865485 0.069303982 0.32315677 -0.19972187 0.52287865
0.039734542 0.056933399 0.068816498 0.32315677 -0.19972187 0.52287865
0.039892677 0.058019847 0.068299986 0.32315677 -0.19972187 0.52287865
0.039956417 0.059195865 0.067629829 0.32315677 -0.19972187 0.52287865
0.039977498 0.060415186 0.066888541 0.32315677 -0.19972187 0.52287865
0.039906565 0.061723951 0.065996155 0.32315677 -0.19972187 0.52287865
0.039721925 0.063143536 0.064916834 0.32315677 -0.19972187 0.52287865
0.039429527 0.064669937 0.063659243 0.32315677 -0.19972187 0.52287865
0.038956832 0.066372551 0.062104847 0.32315677 -0.19972187 0.52287865
0.038151909 0.068396769 0.060005359 0.32315677 -0.19972187 0.52287865
0.036532361 0.071203075 0.05657316 0.32315677 -0.19972187 0.52287865
0.00039924393 0.035720609 0.039999999 0.32315677 -0.19972187 0.52287865
0.00090752833 0.036550339 0.039999999 0.32315677 -0.19972187 0.52287865
0.001415796 0.037380274 0.039999999 0.32315677 -0.19972187 0.52287865
0.0019240497 0.038210414 0.039999999 0.32315677 -0.19972187 0.52287865
0.0024322919 0.039040763 0.039999999 0.32315677 -0.19972187 0.52287865
0.0029405253 0.039871331 0.039999999 0.32315677 -0.19972187 0.52287865
0.0034487525 0.040702116 0.039999999 0.32315677 -0.19972187 0.52287865
0.0039569763 0.041533127 0.039999999 0.32315677 -0.19972187 0.52287865
0.0044651986 0.042364366 0.039999999 0.32315677 -0.19972187 0.52287865
0.0049734232 0.043195836 0.039999999 0.32315677 -0.19972187 0.52287865
0.005481652 0.044027545 0.039999999 0.32315677 -0.19972187 0.52287865
0.0059898878 0.044859495 0.039999999 0.32315677 -0.19972187 0.52287865
0.011138467 0.042095389 0.047076132 0.32315677 -0.19972187 0.52287865
0.01429207 0.040849406 0.051127929 0.32315677 -0.19972187 0.52287865
0.016502835 0.040321071 0.05375037 0.32315677 -0.19972187 0.52287865
0.018312598 0.040095072 0.055766795 0.32315677 -0.19972187 0.52287865
0.019907 0.040029299 0.057459168 0.32315677 -0.19972187 0.52287865
0.021368878 0.04006042 0.05895327 0.32315677 -0.19972187 0.52287865
0.022681627 0.040203232 0.060222551 0.32315677 -0.19972187 0.52287865
0.023905676 0.040410981 0.061359119 0.32315677 -0.19972187 0.52287865
0.025064237 0.040665973 0.062398173 0.32315677 -0.19972187 0.52287865
0.026129548 0.04099147 0.063296281 0.32315677 -0.19972187 0.52287865
0.027162023 0.041339368 0.064146377 0.32315677 -0.19972187 0.52287865
0.02811362 0.041749366 0.064873651 0.32315677 -0.19972187 0.52287865
0.029038973 0.042177483 0.065562434 0.32315677 -0.19972187 0.52287865
0.029904017 0.042652186 0.066159487 0.32315677 -0.19972187 0.52287865
0.030735159 0.043152262 0.066705547 0.32315677 -0.19972187 0.52287865
0.031530667 0.043679561 0.067197658 0.32315677 -0.19972187 0.52287865
0.03227634 0.044246424 0.067613304 0.32315677 -0.19972187 0.52287865
0.033013221 0.044818863 0.068016469 0.32315677 -0.19972187 0.52287865
0.033679146 0.045449633 0.068309464 0.32315677 -0.19972187 0.52287865
0.034344416 0.046079781 0.068602301 0.32315677 -0.19972187 0.52287865
0.034953669 0.046756651 0.068807766 0.32315677 -0.19972187 0.52287865
0.035542749 0.047450144 0.06898199 0.32315677 -0.19972187 0.52287865
0.036104869 0.048166376 0.069114074 0.32315677 -0.19972187 0.52287865
0.036618669 0.048924223 0.069169976 0.32315677 -0.19972187 0.52287865
0.037132505 0.049682129 0.069226019 0.32315677 -0.19972187 0.52287865
0.037570585 0.050506517 0.06916178 0.32315677 -0.19972187 0.52287865
0.03800825 0.051332012 0.06909655 0.32315677 -0.19972187 0.52287865
0.038392052 0.052205924 0.06894511 0.32315677 -0.19972187 0.52287865
0.038749933 0.053104106 0.068751648 0.32315677 -0.19972187 0.52287865
0.039070547 0.054037038 0.068497807 0.32315677 -0.19972187 0.52287865
0.039342247 0.055015676 0.068164594 0.32315677 -0.19972187 0.52287865
0.039585181 0.056022491 0.067783952 0.32315677 -0.19972187 0.52287865
0.039760694 0.057092909 0.067293487 0.32315677 -0.19972187 0.52287865
0.039902296 0.058197312 0.0667466 0.32315677 -0.19972187 0.52287865
0.039966192 0.05937624 0.066072352 0.32315677 -0.19972187 0.52287865
0.03996652 0.060617745 0.065292925 0.32315677 -0.19972187 0.52287865
0.0398954 0.061929967 0.064395025 0.32315677 -0.19972187 0.52287865
0.039683431 0.063378304 0.063265525 0.32315677 -0.19972187 0.52287865
0.039353676 0.064943157 0.061940663 0.32315677 -0.19972187 0.52287865
0.038828388 0.066698991 0.060292948 0.32315677 -0.19972187 0.52287865
0.037929907 0.068815753 0.058031168 0.32315677 -0.19972187 0.52287865
0.036126878 0.071801163 0.054284651 0.32315677 -0.19972187 0.52287865
0.00043672332 0.033370335 0.039999999 0.32315677 -0.19972187 0.52287865
0.00094452605 0.034198638 0.039999999 0.32315677 -0.19972187 0.52287865
0.0014523094 0.035027131 0.039999999 0.32315677 -0.19972187 0.52287865
0.0019600762 0.035855822 0.039999999 0.32315677 -0.19972187 0.52287865
0.0024678288 0.036684714 0.039999999 0.32315677 -0.19972187 0.52287865
0.00297557 0.037513807 0.039999999 0.32315677 -0.19972187 0.52287865
0.0034833024 0.038343113 0.039999999 0.32315677 -0.19972187 0.52287865
0.0039910283 0.039172631 0.039999999 0.32315677 -0.19972187 0.52287865
0.0044987509 0.040002365 0.039999999 0.32315677 -0.19972187 0.52287865
0.0050064721 0.040832322 0.039999999 0.32315677 -0.19972187 0.52287865
0.0055141952 0.041662507 0.039999999 0.32315677 -0.19972187 0.52287865
0.0060219225 0.042492922 0.039999999 0.32315677 -0.19972187 0.52287865
0.0065296567 0.043323569 0.039999999 0.32315677 -0.19972187 0.52287865
0.0070374003 0.044154458 0.039999999 0.32315677 -0.19972187 0.52287865
0.011471548 0.041941289 0.04600729 0.32315677 -0.19972187 0.52287865
0.014531351 0.04076878 0.049927816 0.32315677 -0.19972187 0.52287865
0.016694294 0.04027893 0.052484367 0.32315677 -0.19972187 0.52287865
0.018474622 0.040077448 0.054460917 0.32315677 -0.19972187 0.52287865
0.020048665 0.040029299 0.056126185 0.32315677 -0.19972187 0.52287865
0.021495307 0.040074173 0.057600316 0.32315677 -0.19972187 0.52287865
0.022809982 0.040217198 0.058875322 0.32315677 -0.19972187 0.52287865
0.024021797 0.040436536 0.05999526 0.32315677 -0.19972187 0.52287865
0.025182148 0.040691927 0.061039045 0.32315677 -0.19972187 0.52287865
0.026237082 0.041027706 0.061922524 0.32315677 -0.19972187 0.52287865
0.027271224 0.041376166 0.062776506 0.32315677 -0.19972187 0.52287865
0.028213629 0.041795634 0.063490346 0.32315677 -0.19972187 0.52287865
0.029140536 0.042224471 0.064182281 0.32315677 -0.19972187 0.52287865
0.029997109 0.042708196 0.064766511 0.32315677 -0.19972187 0.52287865
0.030829696 0.043209139 0.065315053 0.32315677 -0.19972187 0.52287865
0.031617112 0.043745279 0.065794513 0.32315677 -0.19972187 0.52287865
0.032364123 0.044313159 0.066212021 0.32315677 -0.19972187 0.52287865
0.033093039 0.044894464 0.066602357 0.32315677 -0.19972187 0.52287865
0.033760197 0.045526404 0.066896603 0.32315677 -0.19972187 0.52287865
0.0344267 0.046157721 0.067190692 0.32315677 -0.19972187 0.52287865
0.035027746 0.04684386 0.067382194 0.32315677 -0.19972187 0.52287865
0.035617959 0.047538687 0.067557067 0.32315677 -0.19972187 0.52287865
0.036171496 0.048264649 0.067674257 0.32315677 -0.19972187 0.52287865
0.036686316 0.049024001 0.067730203 0.32315677 -0.19972187 0.52287865
0.037191626 0.049791746 0.0677711 0.32315677 -0.19972187 0.52287865
0.037629917 0.050618425 0.067705177 0.32315677 -0.19972187 0.52287865
0.038068485 0.051445622 0.067639351 0.32315677 -0.19972187 0.52287865
0.038441967 0.052331198 0.067469068 0.32315677 -0.19972187 0.52287865
0.038800616 0.053231306 0.067274317 0.32315677 -0.19972187 0.52287865
0.039109506 0.054177359 0.066998906 0.32315677 -0.19972187 0.52287865
0.03938181 0.055158187 0.066663615 0.32315677 -0.19972187 0.52287865
0.03961103 0.056180146 0.066257656 0.32315677 -0.19972187 0.52287865
0.039786957 0.057253074 0.065764189 0.32315677 -0.19972187 0.52287865
0.039911956 0.05837553 0.065186605 0.32315677 -0.19972187 0.52287865
0.039976012 0.059557382 0.064508237 0.32315677 -0.19972187 0.52287865
0.039955493 0.060821198 0.063690253 0.32315677 -0.19972187 0.52287865
0.039884184 0.062136892 0.06278681 0.32315677 -0.19972187 0.52287865
0.039644759 0.063614152 0.061606564 0.32315677 -0.19972187 0.52287865
0.039277449 0.065217718 0.060213652 0.32315677 -0.19972187 0.52287865
0.038696654 0.067029603 0.058467221 0.32315677 -0.19972187 0.52287865
0.037706312 0.069237486 0.056044776 0.32315677 -0.19972187 0.52287865
0.035455678 0.072652362 0.051549062 0.32315677 -0.19972187 0.52287865
0.00047351749 0.031026708 0.039999999 0.32315677 -0.19972187 0.52287865
0.00098083983 0.031853613 0.039999999 0.32315677 -0.19972187 0.52287865
0.0014881402 0.032680698 0.039999999 0.32315677 -0.19972187 0.52287865
0.0019954212 0.033507966 0.039999999 0.32315677 -0.19972187 0.52287865
0.0025026856 0.034335427 0.039999999 0.32315677 -0.19972187 0.52287865
0.0030099358 0.035163078 0.039999999 0.32315677 -0.19972187 0.52287865
0.0035171744 0.035990931 0.039999999 0.32315677 -0.19972187 0.52287865
0.0040244041 0.036818985 0.039999999 0.32315677 -0.19972187 0.52287865
0.0045316275 0.037647244 0.039999999 0.32315677 -0.19972187 0.52287865
0.0050388477 0.038475718 0.039999999 0.32315677 -0.19972187 0.52287865
0.0055460664 0.039304405 0.039999999 0.32315677 -0.19972187 0.52287865
0.0060532866 0.040133312 0.039999999 0.32315677 -0.19972187 0.52287865
0.006560511 0.040962443 0.039999999 0.32315677 -0.19972187 0.52287865
0.0070677423 0.0417918 0.039999999 0.32315677 -0.19972187 0.52287865
0.0075749829 0.042621393 0.039999999 0.32315677 -0.19972187 0.52287865
0.0080822352 0.043451224 0.039999999 0.32315677 -0.19972187 0.52287865
0.011805272 0.04178689 0.044936389 0.32315677 -0.19972187 0.52287865
0.014745788 0.040707786 0.048685543 0.32315677 -0.19972187 0.52287865
0.016866188 0.040252429 0.051183801 0.32315677 -0.19972187 0.52287865
0.018637136 0.040059768 0.053151086 0.32315677 -0.19972187 0.52287865
0.020190777 0.040029299 0.054788981 0.32315677 -0.19972187 0.52287865
0.021622149 0.040087976 0.056242935 0.32315677 -0.19972187 0.52287865
0.022938756 0.040231206 0.057523698 0.32315677 -0.19972187 0.52287865
0.024138305 0.040462181 0.058626842 0.32315677 -0.19972187 0.52287865
0.025300454 0.040717963 0.059675381 0.32315677 -0.19972187 0.52287865
0.026344983 0.041064065 0.060544077 0.32315677 -0.19972187 0.52287865
0.027380798 0.041413087 0.061401967 0.32315677 -0.19972187 0.52287865
0.028313987 0.041842066 0.062102232 0.32315677 -0.19972187 0.52287865
0.029242452 0.042271622 0.062797338 0.32315677 -0.19972187 0.52287865
0.030090529 0.042764407 0.063368618 0.32315677 -0.19972187 0.52287865
0.030924564 0.043266222 0.063919649 0.32315677 -0.19972187 0.52287865
0.031703871 0.043811232 0.064386331 0.32315677 -0.19972187 0.52287865
0.032452226 0.044380136 0.064805709 0.32315677 -0.19972187 0.52287865
0.033173144 0.044970341 0.065183081 0.32315677 -0.19972187 0.52287865
0.033841547 0.045603458 0.065478593 0.32315677 -0.19972187 0.52287865
0.034509283 0.046235945 0.065773934 0.32315677 -0.19972187 0.52287865
0.035102103 0.046931397 0.065951325 0.32315677 -0.19972187 0.52287865
0.035693448 0.047627553 0.066126861 0.32315677 -0.19972187 0.52287865
0.036238376 0.048363294 0.066229001 0.32315677 -0.19972187 0.52287865
0.036754217 0.049124155 0.066284999 0.32315677 -0.19972187 0.52287865
0.03725028 0.04990238 0.066309482 0.32315677 -0.19972187 0.52287865
0.037689477 0.050730765 0.066242963 0.32315677 -0.19972187 0.52287865
0.03812895 0.051559668 0.066176534 0.32315677 -0.19972187 0.52287865
0.03849208 0.052456968 0.065987222 0.32315677 -0.19972187 0.52287865
0.038851496 0.053359006 0.06579116 0.32315677 -0.19972187 0.52287865
0.039148618 0.054318246 0.065493979 0.32315677 -0.19972187 0.52287865
0.039421536 0.055301271 0.065156586 0.32315677 -0.19972187 0.52287865
0.039636988 0.056338452 0.064725041 0.32315677 -0.19972187 0.52287865
0.039813329 0.057413902 0.064228557 0.32315677 -0.19972187 0.52287865
0.039921656 0.058554512 0.063619941 0.32315677 -0.19972187 0.52287865
0.039985869 0.059739303 0.062937431 0.32315677 -0.19972187 0.52287865
0.039944418 0.061025552 0.06208048 0.32315677 -0.19972187 0.52287865
0.039849326 0.062366564 0.06113299 0.32315677 -0.19972187 0.52287865
0.039605908 0.063851103 0.059939895 0.32315677 -0.19972187 0.52287865
0.039200846 0.065493628 0.058478143 0.32315677 -0.19972187 0.52287865
0.03856422 0.067361981 0.05663177 0.32315677 -0.19972187 0.52287865
0.037481379 0.069661736 0.054046508 0.32315677 -0.19972187 0.52287865
0.0294325 0.078576423 0.039999999 0.32315677 -0.19972187 0.52287865
0.029942764 0.079420626 0.039999999 0.32315677 -0.19972187 0.52287865
2.7750218e-06 0.027864276 0.039999999 0.32315677 -0.19972187 0.52287865
0.00050964521 0.028689643 0.039999999 0.32315677 -0.19972187 0.52287865
0.0010164883 0.029515175 0.039999999 0.32315677 -0.19972187 0.52287865
0.0015233068 0.030340878 0.039999999 0.32315677 -0.19972187 0.52287865
0.0020301035 0.031166757 0.039999999 0.32315677 -0.19972187 0.52287865
0.0025368806 0.031992812 0.039999999 0.32315677 -0.19972187 0.52287865
0.0030436411 0.032819051 0.039999999 0.32315677 -0.19972187 0.52287865
0.0035503875 0.033645481 0.039999999 0.32315677 -0.19972187 0.52287865
0.0040571224 0.0344721 0.039999999 0.32315677 -0.19972187 0.52287865
0.004563848 0.035298914 0.039999999 0.32315677 -0.19972187 0.52287865
0.0050705676 0.036125928 0.039999999 0.32315677 -0.19972187 0.52287865
0.0055772834 0.036953148 0.039999999 0.32315677 -0.19972187 0.52287865
0.0060839979 0.037780579 0.039999999 0.32315677 -0.19972187 0.52287865
0.0065907142 0.038608219 0.039999999 0.32315677 -0.19972187 0.52287865
0.0070974343 0.03943608 0.039999999 0.32315677 -0.19972187 0.52287865
0.0076041613 0.040264159 0.039999999 0.32315677 -0.19972187 0.52287865
0.0081108976 0.041092467 0.039999999 0.32315677 -0.19972187 0.52287865
0.0086176451 0.041921005 0.039999999 0.32315677 -0.19972187 0.52287865
0.0091244075 0.042749777 0.039999999 0.32315677 -0.19972187 0.52287865
0.012139642 0.04163219 0.043863412 0.32315677 -0.19972187 0.52287865
0.014936094 0.040665902 0.047401804 0.32315677 -0.19972187 0.52287865
0.017026998 0.040234931 0.049861457 0.32315677 -0.19972187 0.52287865
0.018800143 0.040042032 0.051837277 0.32315677 -0.19972187 0.52287865
0.020333342 0.040029299 0.05344753 0.32315677 -0.19972187 0.52287865
0.021749405 0.040101819 0.054881107 0.32315677 -0.19972187 0.52287865
0.023067953 0.040245261 0.056167655 0.32315677 -0.19972187 0.52287865
0.024255205 0.040487912 0.057253826 0.32315677 -0.19972187 0.52287865
0.025412157 0.040749744 0.058296222 0.32315677 -0.19972187 0.52287865
0.026453253 0.041100547 0.059160911 0.32315677 -0.19972187 0.52287865
0.027482098 0.041457187 0.060009193 0.32315677 -0.19972187 0.52287865
0.028414695 0.041888658 0.060709283 0.32315677 -0.19972187 0.52287865
0.029344721 0.042318936 0.061407566 0.32315677 -0.19972187 0.52287865
0.03018428 0.042820811 0.06196576 0.32315677 -0.19972187 0.52287865
0.03101977 0.043323502 0.062519304 0.32315677 -0.19972187 0.52287865
0.031790938 0.043877423 0.062973082 0.32315677 -0.19972187 0.52287865
0.032540642 0.044447351 0.06339433 0.32315677 -0.19972187 0.52287865
0.033253543 0.045046497 0.063758604 0.32315677 -0.19972187 0.52287865
0.03392319 0.045680791 0.064055383 0.32315677 -0.19972187 0.52287865
0.034583982 0.04632144 0.064338982 0.32315677 -0.19972187 0.52287865
0.035176735 0.047019254 0.064515129 0.32315677 -0.19972187 0.52287865
0.035769217 0.047716752 0.064691328 0.32315677 -0.19972187 0.52287865
0.03630551 0.048462316 0.064778268 0.32315677 -0.19972187 0.52287865
0.036822379 0.04922469 0.064834312 0.32315677 -0.19972187 0.52287865
0.037309166 0.050013442 0.064842224 0.32315677 -0.19972187 0.52287865
0.037749268 0.050843541 0.064775102 0.32315677 -0.19972187 0.52287865
0.038182635 0.051680345 0.064696789 0.32315677 -0.19972187 0.52287865
0.03854239 0.052583233 0.064499527 0.32315677 -0.19972187 0.52287865
0.038902581 0.053487211 0.064302154 0.32315677 -0.19972187 0.52287865
0.03918789 0.054459702 0.063982964 0.32315677 -0.19972187 0.52287865
0.039461419 0.055444933 0.063643463 0.32315677 -0.19972187 0.52287865
0.039663054 0.056497414 0.063186072 0.32315677 -0.19972187 0.52287865
0.039839808 0.057575401 0.062686548 0.32315677 -0.19972187 0.52287865
0.039931398 0.058734257 0.06204658 0.32315677 -0.19972187 0.52287865
0.039995771 0.059921999 0.061359886 0.32315677 -0.19972187 0.52287865
0.03993329 0.061230816 0.060463544 0.32315677 -0.19972187 0.52287865
0.039810989 0.062600367 0.059466098 0.32315677 -0.19972187 0.52287865
0.039566875 0.064089157 0.058265459 0.32315677 -0.19972187 0.52287865
0.039123867 0.065770902 0.056734063 0.32315677 -0.19972187 0.52287865
0.038431078 0.067696124 0.054786518 0.32315677 -0.19972187 0.52287865
0.037255097 0.070088536 0.052036252 0.32315677 -0.19972187 0.52287865
0.030456275 0.077828377 0.039999999 0.32315677 -0.19972187 0.52287865
0.03096615 0.078671418 0.039999999 0.32315677 -0.19972187 0.52287865
0.031476155 0.079514891 0.039999999 0.32315677 -0.19972187 0.52287865
3.8730435e-05 0.025535019 0.039999999 0.32315677 -0.19972187 0.52287865
0.00054512516 0.026359053 0.039999999 0.32315677 -0.19972187 0.52287865
0.0010514901 0.027183244 0.039999999 0.32315677 -0.19972187 0.52287865
0.0015578279 0.028007593 0.039999999 0.32315677 -0.19972187 0.52287865
0.0020641412 0.028832108 0.039999999 0.32315677 -0.19972187 0.52287865
0.0025704326 0.02965679 0.039999999 0.32315677 -0.19972187 0.52287865
0.0030767047 0.030481644 0.039999999 0.32315677 -0.19972187 0.52287865
0.0035829598 0.031306677 0.039999999 0.32315677 -0.19972187 0.52287865
0.0040892009 0.032131888 0.039999999 0.32315677 -0.19972187 0.52287865
0.0045954306 0.032957286 0.039999999 0.32315677 -0.19972187 0.52287865
0.005101651 0.033782873 0.039999999 0.32315677 -0.19972187 0.52287865
0.0056078648 0.034608655 0.039999999 0.32315677 -0.19972187 0.52287865
0.0061140754 0.035434633 0.039999999 0.32315677 -0.19972187 0.52287865
0.0066202842 0.036260813 0.039999999 0.32315677 -0.19972187 0.52287865
0.0071264948 0.037087202 0.039999999 0.32315677 -0.19972187 0.52287865
0.0076327096 0.037913803 0.039999999 0.32315677 -0.19972187 0.52287865
0.0081389304 0.038740616 0.039999999 0.32315677 -0.19972187 0.52287865
0.0086451611 0.039567653 0.039999999 0.32315677 -0.19972187 0.52287865
0.0091514029 0.04039491 0.039999999 0.32315677 -0.19972187 0.52287865
0.0096576596 0.041222397 0.039999999 0.32315677 -0.19972187 0.52287865
0.010163933 0.042050116 0.039999999 0.32315677 -0.19972187 0.52287865
0.012474661 0.041477196 0.042788353 0.32315677 -0.19972187 0.52287865
0.015126947 0.040623896 0.046114381 0.32315677 -0.19972187 0.52287865
0.017188301 0.040217385 0.048535064 0.32315677 -0.19972187 0.52287865
0.018957237 0.040029299 0.050509509 0.32315677 -0.19972187 0.52287865
0.020476362 0.040029299 0.05210181 0.32315677 -0.19972187 0.52287865
0.021877082 0.040115707 0.053514797 0.32315677 -0.19972187 0.52287865
0.023197573 0.040259361 0.054807164 0.32315677 -0.19972187 0.52287865
0.024372498 0.040513724 0.055876188 0.32315677 -0.19972187 0.52287865
0.025519105 0.040785778 0.056904331 0.32315677 -0.19972187 0.52287865
0.026561897 0.041137155 0.05777299 0.32315677 -0.19972187 0.52287865
0.027581582 0.041503217 0.058608152 0.32315677 -0.19972187 0.52287865
0.028515756 0.041935414 0.059311457 0.32315677 -0.19972187 0.52287865
0.029439632 0.042372778 0.060000785 0.32315677 -0.19972187 0.52287865
0.030278366 0.042877421 0.060557917 0.32315677 -0.19972187 0.52287865
0.031115314 0.043380991 0.061113987 0.32315677 -0.19972187 0.52287865
0.031878322 0.043943852 0.061554715 0.32315677 -0.19972187 0.52287865
0.032629378 0.044514809 0.061977852 0.32315677 -0.19972187 0.52287865
0.03333424 0.045122933 0.062328897 0.32315677 -0.19972187 0.52287865
0.034005135 0.045758411 0.06262695 0.32315677 -0.19972187 0.52287865
0.03465775 0.046408281 0.062896751 0.32315677 -0.19972187 0.52287865
0.035251644 0.047107443 0.063073568 0.32315677 -0.19972187 0.52287865
0.035845269 0.047806285 0.06325043 0.32315677 -0.19972187 0.52287865
0.036372896 0.048561711 0.063322015 0.32315677 -0.19972187 0.52287865
0.036890797 0.049325608 0.063378111 0.32315677 -0.19972187 0.52287865
0.037368279 0.050124936 0.063369274 0.32315677 -0.19972187 0.52287865
0.037809294 0.050956752 0.063301548 0.32315677 -0.19972187 0.52287865
0.038232371 0.051805165 0.063204519 0.32315677 -0.19972187 0.52287865
0.038592901 0.05271 0.063005947 0.32315677 -0.19972187 0.52287865
0.038953681 0.053616092 0.062806949 0.32315677 -0.19972187 0.52287865
0.039227322 0.054601729 0.062465828 0.32315677 -0.19972187 0.52287865
0.039501466 0.055589177 0.062124204 0.32315677 -0.19972187 0.52287865
0.039689228 0.056657039 0.061640695 0.32315677 -0.19972187 0.52287865
0.039866399 0.05773757 0.061138108 0.32315677 -0.19972187 0.52287865
0.03994118 0.058914777 0.060466453 0.32315677 -0.19972187 0.52287865
0.039993685 0.060116526 0.059755873 0.32315677 -0.19972187 0.52287865
0.039922118 0.061436996 0.058839396 0.32315677 -0.19972187 0.52287865
0.039772473 0.062835261 0.057791431 0.32315677 -0.19972187 0.52287865
0.039523225 0.064332455 0.056575894 0.32315677 -0.19972187 0.52287865
0.039046507 0.066049546 0.05498134 0.32315677 -0.19972187 0.52287865
0.038297225 0.068032064 0.052931372 0.32315677 -0.19972187 0.52287865
0.036942478 0.070598163 0.049873453 0.32315677 -0.19972187 0.52287865
0.031477433 0.077082247 0.039999999 0.32315677 -0.19972187 0.52287865
0.031986922 0.077924117 0.039999999 0.32315677 -0.19972187 0.52287865
0.032496542 0.078766428 0.039999999 0.32315677 -0.19972187 0.52287865
0.033006299 0.079609163 0.039999999 0.32315677 -0.19972187 0.52287865
7.4055359e-05 0.023212127 0.039999999 0.32315677 -0.19972187 0.52287865
0.00057997572 0.024034858 0.039999999 0.32315677 -0.19972187 0.52287865
0.0010858638 0.024857732 0.039999999 0.32315677 -0.19972187 0.52287865
0.0015917221 0.025680756 0.039999999 0.32315677 -0.19972187 0.52287865
0.0020975533 0.026503934 0.039999999 0.32315677 -0.19972187 0.52287865
0.00260336 0.027327269 0.039999999 0.32315677 -0.19972187 0.52287865
0.0031091447 0.028150767 0.039999999 0.32315677 -0.19972187 0.52287865
0.0036149102 0.028974431 0.039999999 0.32315677 -0.19972187 0.52287865
0.0041206586 0.029798266 0.039999999 0.32315677 -0.19972187 0.52287865
0.0046263929 0.030622274 0.039999999 0.32315677 -0.19972187 0.52287865
0.0051321159 0.031446461 0.039999999 0.32315677 -0.19972187 0.52287865
0.0056378297 0.032270834 0.039999999 0.32315677 -0.19972187 0.52287865
0.0061435369 0.03309539 0.039999999 0.32315677 -0.19972187 0.52287865
0.0066492404 0.033920139 0.039999999 0.32315677 -0.19972187 0.52287865
0.0071549425 0.034745086 0.039999999 0.32315677 -0.19972187 0.52287865
0.007660646 0.035570234 0.039999999 0.32315677 -0.19972187 0.52287865
0.0081663532 0.036395583 0.039999999 0.32315677 -0.19972187 0.52287865
0.008672067 0.037221145 0.039999999 0.32315677 -0.19972187 0.52287865
0.00917779 0.038046919 0.039999999 0.32315677 -0.19972187 0.52287865
0.0096835252 0.038872909 0.039999999 0.32315677 -0.19972187 0.52287865
0.010189274 0.039699119 0.039999999 0.32315677 -0.19972187 0.52287865
0.01069504 0.040525559 0.039999999 0.32315677 -0.19972187 0.52287865
0.011200826 0.041352227 0.039999999 0.32315677 -0.19972187 0.52287865
0.012749409 0.041369215 0.041616742 0.32315677 -0.19972187 0.52287865
0.015318349 0.04058177 0.044823259 0.32315677 -0.19972187 0.52287865
0.0173501 0.040199783 0.047204603 0.32315677 -0.19972187 0.52287865
0.019098615 0.040029299 0.049152389 0.32315677 -0.19972187 0.52287865
0.020619838 0.040029299 0.05075179 0.32315677 -0.19972187 0.52287865
0.02200518 0.040129643 0.05214398 0.32315677 -0.19972187 0.52287865
0.023317583 0.040281545 0.053426478 0.32315677 -0.19972187 0.52287865
0.024490189 0.04053963 0.054493897 0.32315677 -0.19972187 0.52287865
0.025626423 0.04082194 0.05550763 0.32315677 -0.19972187 0.52287865
0.026670914 0.041173887 0.056380287 0.32315677 -0.19972187 0.52287865
0.027681416 0.041549403 0.057202186 0.32315677 -0.19972187 0.52287865
0.02861717 0.041982334 0.057908729 0.32315677 -0.19972187 0.52287865
0.029532583 0.042428706 0.058585372 0.32315677 -0.19972187 0.52287865
0.030372787 0.042934231 0.059145048 0.32315677 -0.19972187 0.52287865
0.031211197 0.04343868 0.059703659 0.32315677 -0.19972187 0.52287865
0.031966027 0.044010524 0.060131207 0.32315677 -0.19972187 0.52287865
0.032718439 0.044582512 0.060556244 0.32315677 -0.19972187 0.52287865
0.033415232 0.045199651 0.060893919 0.32315677 -0.19972187 0.52287865
0.034087382 0.045836315 0.061193258 0.32315677 -0.19972187 0.52287865
0.034731794 0.046495449 0.061449118 0.32315677 -0.19972187 0.52287865
0.035326835 0.047195964 0.061626609 0.32315677 -0.19972187 0.52287865
0.035921607 0.047896154 0.061804142 0.32315677 -0.19972187 0.52287865
0.03644054 0.048661485 0.061860215 0.32315677 -0.19972187 0.52287865
0.036959477 0.04942691 0.061916355 0.32315677 -0.19972187 0.52287865
0.037427619 0.050236866 0.061890606 0.32315677 -0.19972187 0.52287865
0.03786955 0.051070403 0.061822269 0.32315677 -0.19972187 0.52287865
0.038282305 0.051930483 0.061706331 0.32315677 -0.19972187 0.52287865
0.03864361 0.052837268 0.061506428 0.32315677 -0.19972187 0.52287865
0.038992655 0.053756479 0.061285771 0.32315677 -0.19972187 0.52287865
0.039266914 0.054744337 0.060942519 0.32315677 -0.19972187 0.52287865
0.039538369 0.055736993 0.060593367 0.32315677 -0.19972187 0.52287865
0.03971551 0.056817327 0.060088858 0.32315677 -0.19972187 0.52287865
0.03988653 0.057906397 0.059572443 0.32315677 -0.19972187 0.52287865
0.039951008 0.059096076 0.058879517 0.32315677 -0.19972187 0.52287865
0.03998265 0.060320117 0.05813013 0.32315677 -0.19972187 0.52287865
0.039910894 0.0616441 0.057207976 0.32315677 -0.19972187 0.52287865
0.039733779 0.063071258 0.056108925 0.32315677 -0.19972187 0.52287865
0.039446983 0.064607069 0.054824922 0.32315677 -0.19972187 0.52287865
0.038968761 0.066329584 0.0532199 0.32315677 -0.19972187 0.52287865
0.038162649 0.068369813 0.051066246 0.32315677 -0.19972187 0.52287865
0.036535595 0.071198314 0.047543395 0.32315677 -0.19972187 0.52287865
0.03249599 0.076338015 0.039999999 0.32315677 -0.19972187 0.52287865
0.033005089 0.077178732 0.039999999 0.32315677 -0.19972187 0.52287865
0.033514325 0.078019872 0.039999999 0.32315677 -0.19972187 0.52287865
0.034023702 0.078861445 0.039999999 0.32315677 -0.19972187 0.52287865
0.034533218 0.07970345 0.039999999 0.32315677 -0.19972187 0.52287865
0.00010876816 0.020895516 0.039999999 0.32315677 -0.19972187 0.52287865
0.00061421533 0.021716969 0.039999999 0.32315677 -0.19972187 0.52287865
0.0011196276 0.022538558 0.039999999 0.32315677 -0.19972187 0.52287865
0.0016250076 0.023360282 0.039999999 0.32315677 -0.19972187 0.52287865
0.002130358 0.024182152 0.039999999 0.32315677 -0.19972187 0.52287865
0.0026356811 0.025004169 0.039999999 0.32315677 -0.19972187 0.52287865
0.0031409799 0.025826337 0.039999999 0.32315677 -0.19972187 0.52287865
0.0036462566 0.026648661 0.039999999 0.32315677 -0.19972187 0.52287865
0.0041515138 0.027471144 0.039999999 0.32315677 -0.19972187 0.52287865
0.0046567544 0.028293792 0.039999999 0.32315677 -0.19972187 0.52287865
0.0051619806 0.029116608 0.039999999 0.32315677 -0.19972187 0.52287865
0.0056671952 0.029939597 0.039999999 0.32315677 -0.19972187 0.52287865
0.0061724009 0.030762764 0.039999999 0.32315677 -0.19972187 0.52287865
0.0066776001 0.031586111 0.039999999 0.32315677 -0.19972187 0.52287865
0.0071827951 0.032409642 0.039999999 0.32315677 -0.19972187 0.52287865
0.0076879892 0.033233363 0.039999999 0.32315677 -0.19972187 0.52287865
0.0081931837 0.034057278 0.039999999 0.32315677 -0.19972187 0.52287865
0.0086983833 0.034881394 0.039999999 0.32315677 -0.19972187 0.52287865
0.0092035886 0.035705712 0.039999999 0.32315677 -0.19972187 0.52287865
0.0097088031 0.036530234 0.039999999 0.32315677 -0.19972187 0.52287865
0.010214029 0.037354968 0.039999999 0.32315677 -0.19972187 0.52287865
0.01071927 0.038179915 0.039999999 0.32315677 -0.19972187 0.52287865
0.011224526 0.039005086 0.039999999 0.32315677 -0.19972187 0.52287865
0.011729802 0.039830476 0.039999999 0.32315677 -0.19972187 0.52287865
0.0122351 0.040656097 0.039999999 0.32315677 -0.19972187 0.52287865
0.01298972 0.041288238 0.040387802 0.32315677 -0.19972187 0.52287865
0.015510303 0.040539522 0.043528408 0.32315677 -0.19972187 0.52287865
0.017512396 0.040182125 0.04587004 0.32315677 -0.19972187 0.52287865
0.01924045 0.040029299 0.047790904 0.32315677 -0.19972187 0.52287865
0.020763773 0.040029299 0.049397442 0.32315677 -0.19972187 0.52287865
0.022133701 0.040143624 0.050768621 0.32315677 -0.19972187 0.52287865
0.023433836 0.040307131 0.052034613 0.32315677 -0.19972187 0.52287865
0.024608277 0.040565621 0.053106923 0.32315677 -0.19972187 0.52287865
0.025734112 0.040858228 0.054106098 0.32315677 -0.19972187 0.52287865
0.026780307 0.041210748 0.05498277 0.32315677 -0.19972187 0.52287865
0.027781602 0.041595753 0.055791266 0.32315677 -0.19972187 0.52287865
0.028718941 0.042029418 0.056501064 0.32315677 -0.19972187 0.52287865
0.029625868 0.042484831 0.057164885 0.32315677 -0.19972187 0.52287865
0.030467547 0.042991247 0.057727125 0.32315677 -0.19972187 0.52287865
0.031299096 0.043503519 0.058275029 0.32315677 -0.19972187 0.52287865
0.032054044 0.044077437 0.058702521 0.32315677 -0.19972187 0.52287865
0.03280782 0.044650462 0.059129469 0.32315677 -0.19972187 0.52287865
0.033496525 0.045276653 0.059453633 0.32315677 -0.19972187 0.52287865
0.034169931 0.045914508 0.059754264 0.32315677 -0.19972187 0.52287865
0.034806117 0.046582945 0.059996039 0.32315677 -0.19972187 0.52287865
0.035402309 0.047284815 0.060174208 0.32315677 -0.19972187 0.52287865
0.03598851 0.047994744 0.060336757 0.32315677 -0.19972187 0.52287865
