# .PCD v0.7 - Point Cloud Data file format
VERSION 0.7
FIELDS x y z vp_x vp_y vp_z
SIZE 4 4 4 4 4 4
TYPE F F F F F F
COUNT 1 1 1 1 1 1
WIDTH 708
HEIGHT 1
VIEWPOINT 0 0 0 1 0 0 0
POINTS 708
DATA ascii
0.038633108 0.06718909 0.057911675 0.32315677 -0.19972187 -0.52287865
0.037389934 0.069834217 0.061640579 0.32315677 -0.19972187 -0.52287865
0.010911885 0 0.03783178 0.32315677 -0.19972187 -0.52287865
0.012838959 0 0.035352454 0.32315677 -0.19972187 -0.52287865
0.014749127 0 0.03289501 0.32315677 -0.19972187 -0.52287865
0.016642619 0 0.030459145 0.32315677 -0.19972187 -0.52287865
0.018519664 0 0.028044568 0.32315677 -0.19972187 -0.52287865
0.020380482 0 0.025650989 0.32315677 -0.19972187 -0.52287865
0.022225296 0 0.023278126 0.32315677 -0.19972187 -0.52287865
0.024054321 0 0.020925699 0.32315677 -0.19972187 -0.52287865
0.025867764 0 0.018593436 0.32315677 -0.19972187 -0.52287865
0.027665837 0 0.016281065 0.32315677 -0.19972187 -0.52287865
0.029448742 0 0.013988325 0.32315677 -0.19972187 -0.52287865
0.031216681 0 0.011714956 0.32315677 -0.19972187 -0.52287865
0.032969851 0 0.0094607025 0.32315677 -0.19972187 -0.52287865
0.03470844 0 0.0072253151 0.32315677 -0.19972187 -0.52287865
0.036432646 2.7755576e-17 0.0050085471 0.32315677 -0.19972187 -0.52287865
0.038142655 0 0.0028101569 0.32315677 -0.19972187 -0.52287865
0.039838646 0 0.00062990718 0.32315677 -0.19972187 -0.52287865
0.039999999 0.0010784742 0.0012827712 0.32315677 -0.19972187 -0.52287865
0.039999999 0.0022751661 0.0022374722 0.32315677 -0.19972187 -0.52287865
0.039999999 0.0034763622 0.0031958886 0.32315677 -0.19972187 -0.52287865
0.039999999 0.0046820943 0.0041580466 0.32315677 -0.19972187 -0.52287865
0.039999999 0.005892395 0.0051239724 0.32315677 -0.19972187 -0.52287865
0.039999999 0.007107296 0.006093693 0.32315677 -0.19972187 -0.52287865
0.039999999 0.0083268303 0.0070672347 0.32315677 -0.19972187 -0.52287865
0.039999999 0.0095510315 0.0080446247 0.32315677 -0.19972187 -0.52287865
0.039999999 0.010779933 0.0090258913 0.32315677 -0.19972187 -0.52287865
0.039999999 0.012013568 0.01001106 0.32315677 -0.19972187 -0.52287865
0.039999999 0.01325197 0.011000161 0.32315677 -0.19972187 -0.52287865
0.039999999 0.014495173 0.011993221 0.32315677 -0.19972187 -0.52287865
0.039999999 0.015743213 0.012990269 0.32315677 -0.19972187 -0.52287865
0.039999999 0.016996125 0.013991333 0.32315677 -0.19972187 -0.52287865
0.039999999 0.018253943 0.014996442 0.32315677 -0.19972187 -0.52287865
0.039999999 0.019516703 0.016005626 0.32315677 -0.19972187 -0.52287865
0.039999999 0.020784441 0.017018912 0.32315677 -0.19972187 -0.52287865
0.039999999 0.022057194 0.018036334 0.32315677 -0.19972187 -0.52287865
0.039999999 0.023334997 0.019057918 0.32315677 -0.19972187 -0.52287865
0.039999999 0.024617888 0.020083698 0.32315677 -0.19972187 -0.52287865
0.039999999 0.025905905 0.021113699 0.32315677 -0.19972187 -0.52287865
0.039999999 0.027199084 0.022147957 0.32315677 -0.19972187 -0.52287865
0.039999999 0.028497463 0.023186501 0.32315677 -0.19972187 -0.52287865
0.039999999 0.029801082 0.024229363 0.32315677 -0.19972187 -0.52287865
0.039999999 0.031109979 0.025276575 0.32315677 -0.19972187 -0.52287865
0.039999999 0.032424193 0.026328169 0.32315677 -0.19972187 -0.52287865
0.039999999 0.033743761 0.027384175 0.32315677 -0.19972187 -0.52287865
0.039999999 0.035068728 0.028444629 0.32315677 -0.19972187 -0.52287865
0.039999999 0.03639913 0.029509561 0.32315677 -0.19972187 -0.52287865
0.039999999 0.037735011 0.030579008 0.32315677 -0.19972187 -0.52287865
0.039999999 0.039076407 0.031652998 0.32315677 -0.19972187 -0.52287865
0.039999999 0.040423363 0.032731574 0.32315677 -0.19972187 -0.52287865
0.039999999 0.041775923 0.033814762 0.32315677 -0.19972187 -0.52287865
0.039999999 0.043134123 0.034902599 0.32315677 -0.19972187 -0.52287865
0.039999999 0.044498011 0.035995118 0.32315677 -0.19972187 -0.52287865
0.039999999 0.045867629 0.037092358 0.32315677 -0.19972187 -0.52287865
0.039999999 0.047243018 0.038194355 0.32315677 -0.19972187 -0.52287865
0.039999999 0.048624225 0.039301142 0.32315677 -0.19972187 -0.52287865
0.038163114 0.05163135 0.044066921 0.32315677 -0.19972187 -0.52287865
0.03857588 0.052667286 0.044367887 0.32315677 -0.19972187 -0.52287865
0.038980432 0.053712457 0.044686925 0.32315677 -0.19972187 -0.52287865
0.039293852 0.054841366 0.045190081 0.32315677 -0.19972187 -0.52287865
0.039580986 0.055996921 0.045748435 0.32315677 -0.19972187 -0.52287865
0.039783563 0.057232376 0.046479408 0.32315677 -0.19972187 -0.52287865
0.039920431 0.058531862 0.0473461 0.32315677 -0.19972187 -0.52287865
0.039994251 0.059893951 0.048343956 0.32315677 -0.19972187 -0.52287865
0.03992445 0.061393932 0.049636662 0.32315677 -0.19972187 -0.52287865
0.039745051 0.063002504 0.051157098 0.32315677 -0.19972187 -0.52287865
0.039400991 0.064772733 0.053018402 0.32315677 -0.19972187 -0.52287865
0.038785093 0.066807657 0.055440631 0.32315677 -0.19972187 -0.52287865
0.037648965 0.069345653 0.058933396 0.32315677 -0.19972187 -0.52287865
0.0089476658 0 0.038461499 0.32315677 -0.19972187 -0.52287865
0.010887654 0 0.035973813 0.32315677 -0.19972187 -0.52287865
0.012810575 0 0.033508141 0.32315677 -0.19972187 -0.52287865
0.014716662 0 0.031064175 0.32315677 -0.19972187 -0.52287865
0.016606146 0 0.028641623 0.32315677 -0.19972187 -0.52287865
0.018479254 0 0.02624019 0.32315677 -0.19972187 -0.52287865
0.020336203 0 0.023859592 0.32315677 -0.19972187 -0.52287865
0.022177218 0 0.021499548 0.32315677 -0.19972187 -0.52287865
0.024002505 0 0.019159785 0.32315677 -0.19972187 -0.52287865
0.025812279 0 0.016840026 0.32315677 -0.19972187 -0.52287865
0.027606748 0 0.014540009 0.32315677 -0.19972187 -0.52287865
0.029386109 0 0.012259473 0.32315677 -0.19972187 -0.52287865
0.031150566 0 0.0099981595 0.32315677 -0.19972187 -0.52287865
0.032900315 0 0.0077558169 0.32315677 -0.19972187 -0.52287865
0.03463554 0 0.0055321972 0.32315677 -0.19972187 -0.52287865
0.036356442 0 0.0033270568 0.32315677 -0.19972187 -0.52287865
0.038063198 0 0.0011401559 0.32315677 -0.19972187 -0.52287865
0.039197318 0.00039371851 0 0.32315677 -0.19972187 -0.52287865
0.039711252 0.0012220317 0 0.32315677 -0.19972187 -0.52287865
0.039999999 0.0022110648 0.00041637768 0.32315677 -0.19972187 -0.52287865
0.039999999 0.003409283 0.001369096 0.32315677 -0.19972187 -0.52287865
0.039999999 0.0046120151 0.0023255209 0.32315677 -0.19972187 -0.52287865
0.039999999 0.0058192932 0.0032856783 0.32315677 -0.19972187 -0.52287865
0.039999999 0.0070311492 0.0042495946 0.32315677 -0.19972187 -0.52287865
0.039999999 0.0082476158 0.0052172965 0.32315677 -0.19972187 -0.52287865
0.039999999 0.0094687259 0.0061888103 0.32315677 -0.19972187 -0.52287865
0.039999999 0.010694513 0.0071641635 0.32315677 -0.19972187 -0.52287865
0.039999999 0.011925009 0.0081433831 0.32315677 -0.19972187 -0.52287865
0.039999999 0.013160249 0.0091264965 0.32315677 -0.19972187 -0.52287865
0.039999999 0.014400267 0.010113533 0.32315677 -0.19972187 -0.52287865
0.039999999 0.015645098 0.011104518 0.32315677 -0.19972187 -0.52287865
0.039999999 0.016894775 0.012099481 0.32315677 -0.19972187 -0.52287865
0.039999999 0.018149333 0.013098451 0.32315677 -0.19972187 -0.52287865
0.039999999 0.019408807 0.014101457 0.32315677 -0.19972187 -0.52287865
0.039999999 0.020673236 0.015108527 0.32315677 -0.19972187 -0.52287865
0.039999999 0.021942653 0.016119691 0.32315677 -0.19972187 -0.52287865
0.039999999 0.023217095 0.017134979 0.32315677 -0.19972187 -0.52287865
0.039999999 0.024496598 0.01815442 0.32315677 -0.19972187 -0.52287865
0.039999999 0.025781201 0.019178046 0.32315677 -0.19972187 -0.52287865
0.039999999 0.02707094 0.020205885 0.32315677 -0.19972187 -0.52287865
0.039999999 0.02836585 0.021237969 0.32315677 -0.19972187 -0.52287865
0.039999999 0.029665975 0.02227433 0.32315677 -0.19972187 -0.52287865
0.039999999 0.030971348 0.023314998 0.32315677 -0.19972187 -0.52287865
0.039999999 0.032282013 0.024360005 0.32315677 -0.19972187 -0.52287865
0.039999999 0.033598002 0.025409384 0.32315677 -0.19972187 -0.52287865
0.039999999 0.034919363 0.026463164 0.32315677 -0.19972187 -0.52287865
0.039999999 0.036246128 0.027521383 0.32315677 -0.19972187 -0.52287865
0.039999999 0.037578344 0.028584069 0.32315677 -0.19972187 -0.52287865
0.039999999 0.038916048 0.029651256 0.32315677 -0.19972187 -0.52287865
0.039999999 0.040259279 0.030722981 0.32315677 -0.19972187 -0.52287865
0.039999999 0.041608084 0.031799275 0.32315677 -0.19972187 -0.52287865
0.039999999 0.042962503 0.032880172 0.32315677 -0.19972187 -0.52287865
0.039999999 0.044322576 0.033965707 0.32315677 -0.19972187 -0.52287865
0.039999999 0.045688346 0.035055917 0.32315677 -0.19972187 -0.52287865
0.039999999 0.04705986 0.036150835 0.32315677 -0.19972187 -0.52287865
0.039999999 0.04843716 0.037250496 0.32315677 -0.19972187 -0.52287865
0.039999999 0.049820285 0.038354937 0.32315677 -0.19972187 -0.52287865
0.039999999 0.051209286 0.039464194 0.32315677 -0.19972187 -0.52287865
0.038930491 0.053557262 0.042706531 0.32315677 -0.19972187 -0.52287865
0.039248604 0.054678384 0.043195482 0.32315677 -0.19972187 -0.52287865
0.039551359 0.055816215 0.043717541 0.32315677 -0.19972187 -0.52287865
0.039753389 0.057048354 0.044443786 0.32315677 -0.19972187 -0.52287865
0.039909303 0.058326595 0.045265932 0.32315677 -0.19972187 -0.52287865
0.039982915 0.059684813 0.046257284 0.32315677 -0.19972187 -0.52287865
0.039937217 0.061158393 0.047493402 0.32315677 -0.19972187 -0.52287865
0.039789163 0.062733479 0.04894156 0.32315677 -0.19972187 -0.52287865
0.039488137 0.064458832 0.050705392 0.32315677 -0.19972187 -0.52287865
0.038936097 0.066428669 0.052985478 0.32315677 -0.19972187 -0.52287865
0.037906133 0.06886059 0.056245651 0.32315677 -0.19972187 -0.52287865
0.03544661 0.072663032 0.062427882 0.32315677 -0.19972187 -0.52287865
0.006465219 0.00032185204 0.039999999 0.32315677 -0.19972187 -0.52287865
0.008927756 0 0.03659828 0.32315677 -0.19972187 -0.52287865
0.010863534 0 0.034124326 0.32315677 -0.19972187 -0.52287865
0.01278232 0 0.031672206 0.32315677 -0.19972187 -0.52287865
0.014684346 0 0.029241625 0.32315677 -0.19972187 -0.52287865
0.016569838 2.7755576e-17 0.026832288 0.32315677 -0.19972187 -0.52287865
0.018439025 0 0.024443906 0.32315677 -0.19972187 -0.52287865
0.020292124 0 0.022076197 0.32315677 -0.19972187 -0.52287865
0.022129351 0 0.019728884 0.32315677 -0.19972187 -0.52287865
0.023950921 0 0.017401692 0.32315677 -0.19972187 -0.52287865
0.025757041 0 0.015094354 0.32315677 -0.19972187 -0.52287865
0.027547918 0 0.012806605 0.32315677 -0.19972187 -0.52287865
0.029323751 0 0.010538188 0.32315677 -0.19972187 -0.52287865
0.031084741 0 0.0082888464 0.32315677 -0.19972187 -0.52287865
0.032831077 0 0.006058333 0.32315677 -0.19972187 -0.52287865
0.034562957 2.7755576e-17 0.0038464004 0.32315677 -0.19972187 -0.52287865
0.036280565 0 0.0016528079 0.32315677 -0.19972187 -0.52287865
0.037698735 0.0001998464 0 0.32315677 -0.19972187 -0.52287865
0.038213067 0.0010290592 0 0.32315677 -0.19972187 -0.52287865
0.038727514 0.0018583148 0 0.32315677 -0.19972187 -0.52287865
0.039242074 0.0026876172 0 0.32315677 -0.19972187 -0.52287865
0.039756756 0.0035169702 0 0.32315677 -0.19972187 -0.52287865
0.039999999 0.0045422786 0.00050195138 0.32315677 -0.19972187 -0.52287865
0.039999999 0.0057465495 0.0014563851 0.32315677 -0.19972187 -0.52287865
0.039999999 0.0069553764 0.0024145423 0.32315677 -0.19972187 -0.52287865
0.039999999 0.0081687905 0.0033764495 0.32315677 -0.19972187 -0.52287865
0.039999999 0.0093868254 0.0043421327 0.32315677 -0.19972187 -0.52287865
0.039999999 0.010609514 0.005311619 0.32315677 -0.19972187 -0.52287865
0.039999999 0.011836889 0.0062849354 0.32315677 -0.19972187 -0.52287865
0.039999999 0.013068983 0.0072621093 0.32315677 -0.19972187 -0.52287865
0.039999999 0.014305833 0.0082431668 0.32315677 -0.19972187 -0.52287865
0.039999999 0.015547469 0.0092281383 0.32315677 -0.19972187 -0.52287865
0.039999999 0.016793927 0.010217048 0.32315677 -0.19972187 -0.52287865
0.039999999 0.018045245 0.011209928 0.32315677 -0.19972187 -0.52287865
0.039999999 0.019301452 0.012206805 0.32315677 -0.19972187 -0.52287865
0.039999999 0.020562587 0.013207707 0.32315677 -0.19972187 -0.52287865
0.039999999 0.021828687 0.014212664 0.32315677 -0.19972187 -0.52287865
0.039999999 0.023099786 0.015221706 0.32315677 -0.19972187 -0.52287865
0.039999999 0.024375919 0.01623486 0.32315677 -0.19972187 -0.52287865
0.039999999 0.025657127 0.017252158 0.32315677 -0.19972187 -0.52287865
0.039999999 0.026943443 0.018273631 0.32315677 -0.19972187 -0.52287865
0.039999999 0.028234906 0.019299308 0.32315677 -0.19972187 -0.52287865
0.039999999 0.029531553 0.020329218 0.32315677 -0.19972187 -0.52287865
0.039999999 0.030833425 0.021363396 0.32315677 -0.19972187 -0.52287865
0.039999999 0.032140557 0.022401871 0.32315677 -0.19972187 -0.52287865
0.039999999 0.033452988 0.023444673 0.32315677 -0.19972187 -0.52287865
0.039999999 0.034770761 0.024491837 0.32315677 -0.19972187 -0.52287865
0.039999999 0.036093913 0.025543394 0.32315677 -0.19972187 -0.52287865
0.039999999 0.037422482 0.026599376 0.32315677 -0.19972187 -0.52287865
0.039999999 0.038756512 0.027659817 0.32315677 -0.19972187 -0.52287865
0.039999999 0.040096045 0.028724747 0.32315677 -0.19972187 -0.52287865
0.039999999 0.041441116 0.029794203 0.32315677 -0.19972187 -0.52287865
0.039999999 0.042791773 0.030868219 0.32315677 -0.19972187 -0.52287865
0.039999999 0.04414805 0.031946827 0.32315677 -0.19972187 -0.52287865
0.039999999 0.045509998 0.033030063 0.32315677 -0.19972187 -0.52287865
0.039999999 0.046877656 0.034117959 0.32315677 -0.19972187 -0.52287865
0.039999999 0.048251066 0.035210554 0.32315677 -0.19972187 -0.52287865
0.039999999 0.049630277 0.036307879 0.32315677 -0.19972187 -0.52287865
0.039999999 0.051015325 0.037409972 0.32315677 -0.19972187 -0.52287865
0.039999999 0.052406263 0.038516872 0.32315677 -0.19972187 -0.52287865
0.039999999 0.053803127 0.039628614 0.32315677 -0.19972187 -0.52287865
0.039516043 0.055641681 0.041708548 0.32315677 -0.19972187 -0.52287865
0.03972337 0.056865264 0.042418495 0.32315677 -0.19972187 -0.52287865
0.039898235 0.0581224 0.043196619 0.32315677 -0.19972187 -0.52287865
0.039971642 0.05947677 0.044181518 0.32315677 -0.19972187 -0.52287865
0.039949913 0.060924124 0.045361735 0.32315677 -0.19972187 -0.52287865
0.039833028 0.062465962 0.046738513 0.32315677 -0.19972187 -0.52287865
0.039554298 0.064165846 0.048447374 0.32315677 -0.19972187 -0.52287865
0.03903164 0.066103101 0.050656058 0.32315677 -0.19972187 -0.52287865
0.038157504 0.068382725 0.053585134 0.32315677 -0.19972187 -0.52287865
0.036182605 0.071718968 0.058757652 0.32315677 -0.19972187 -0.52287865
0.0049930578 0 0.039730433 0.32315677 -0.19972187 -0.52287865
0.0069591948 0 0.037225869 0.32315677 -0.19972187 -0.52287865
0.0089079365 0 0.034743574 0.32315677 -0.19972187 -0.52287865
0.010839525 0 0.032283247 0.32315677 -0.19972187 -0.52287865
0.012754193 0 0.029844586 0.32315677 -0.19972187 -0.52287865
0.014652174 0 0.027427293 0.32315677 -0.19972187 -0.52287865
0.016533693 0 0.025031079 0.32315677 -0.19972187 -0.52287865
0.018398976 0 0.022655655 0.32315677 -0.19972187 -0.52287865
0.020248238 0 0.020300744 0.32315677 -0.19972187 -0.52287865
0.022081697 0 0.017966071 0.32315677 -0.19972187 -0.52287865
0.023899565 0 0.015651364 0.32315677 -0.19972187 -0.52287865
0.025702046 0 0.013356359 0.32315677 -0.19972187 -0.52287865
0.027489346 0 0.011080792 0.32315677 -0.19972187 -0.52287865
0.029261665 0 0.0088244108 0.32315677 -0.19972187 -0.52287865
0.012583244 0.012603869 0.039999999 0.32315677 -0.19972187 -0.52287865
0.032762144 0 0.0043681939 0.32315677 -0.19972187 -0.52287865
0.034490686 0 0.0021678689 0.32315677 -0.19972187 -0.52287865
0.036197189 5.4447205e-06 0 0.32315677 -0.19972187 -0.52287865
0.036711928 0.00083555962 0 0.32315677 -0.19972187 -0.52287865
0.037226778 0.0016657152 0 0.32315677 -0.19972187 -0.52287865
0.037741736 0.0024959156 0 0.32315677 -0.19972187 -0.52287865
0.038256813 0.0033261641 0 0.32315677 -0.19972187 -0.52287865
0.038772006 0.0041564652 0 0.32315677 -0.19972187 -0.52287865
0.039287318 0.0049868221 0 0.32315677 -0.19972187 -0.52287865
0.039802752 0.0058172392 0 0.32315677 -0.19972187 -0.52287865
0.039999999 0.0068799737 0.00058846048 0.32315677 -0.19972187 -0.52287865
0.039999999 0.0080903517 0.0015446178 0.32315677 -0.19972187 -0.52287865
0.039999999 0.0093053272 0.0025045159 0.32315677 -0.19972187 -0.52287865
0.039999999 0.010524933 0.0034681812 0.32315677 -0.19972187 -0.52287865
0.039999999 0.011749202 0.0044356403 0.32315677 -0.19972187 -0.52287865
0.039999999 0.012978168 0.0054069199 0.32315677 -0.19972187 -0.52287865
0.039999999 0.014211864 0.0063820477 0.32315677 -0.19972187 -0.52287865
0.039999999 0.015450324 0.0073610507 0.32315677 -0.19972187 -0.52287865
0.039999999 0.016693583 0.0083439564 0.32315677 -0.19972187 -0.52287865
0.039999999 0.017941672 0.0093307933 0.32315677 -0.19972187 -0.52287865
0.039999999 0.019194631 0.010321589 0.32315677 -0.19972187 -0.52287865
0.039999999 0.020452492 0.011316372 0.32315677 -0.19972187 -0.52287865
0.039999999 0.021715291 0.012315172 0.32315677 -0.19972187 -0.52287865
0.039999999 0.022983063 0.013318015 0.32315677 -0.19972187 -0.52287865
0.039999999 0.024255846 0.014324934 0.32315677 -0.19972187 -0.52287865
0.039999999 0.025533676 0.015335957 0.32315677 -0.19972187 -0.52287865
0.039999999 0.026816588 0.016351113 0.32315677 -0.19972187 -0.52287865
0.039999999 0.028104622 0.017370433 0.32315677 -0.19972187 -0.52287865
0.039999999 0.029397812 0.018393947 0.32315677 -0.19972187 -0.52287865
0.039999999 0.030696198 0.019421685 0.32315677 -0.19972187 -0.52287865
0.039999999 0.031999819 0.020453678 0.32315677 -0.19972187 -0.52287865
0.039999999 0.033308711 0.021489961 0.32315677 -0.19972187 -0.52287865
0.039999999 0.034622919 0.022530559 0.32315677 -0.19972187 -0.52287865
0.039999999 0.035942473 0.023575509 0.32315677 -0.19972187 -0.52287865
0.039999999 0.03726742 0.024624841 0.32315677 -0.19972187 -0.52287865
0.039999999 0.038597796 0.025678588 0.32315677 -0.19972187 -0.52287865
0.039999999 0.039933644 0.026736781 0.32315677 -0.19972187 -0.52287865
0.039999999 0.041275006 0.027799457 0.32315677 -0.19972187 -0.52287865
0.039999999 0.042621918 0.028866645 0.32315677 -0.19972187 -0.52287865
0.039999999 0.043974429 0.029938381 0.32315677 -0.19972187 -0.52287865
0.039999999 0.045332573 0.031014699 0.32315677 -0.19972187 -0.52287865
0.039999999 0.046696398 0.032095633 0.32315677 -0.19972187 -0.52287865
0.039999999 0.048065946 0.03318122 0.32315677 -0.19972187 -0.52287865
0.039999999 0.049441259 0.03427149 0.32315677 -0.19972187 -0.52287865
0.039999999 0.050822381 0.035366483 0.32315677 -0.19972187 -0.52287865
0.039999999 0.052209359 0.036466233 0.32315677 -0.19972187 -0.52287865
0.039999999 0.053602234 0.037570775 0.32315677 -0.19972187 -0.52287865
0.039999999 0.05500105 0.038680147 0.32315677 -0.19972187 -0.52287865
0.039999999 0.056405857 0.039794385 0.32315677 -0.19972187 -0.52287865
0.039887227 0.057919268 0.041138068 0.32315677 -0.19972187 -0.52287865
0.039960425 0.059269816 0.042116564 0.32315677 -0.19972187 -0.52287865
0.039962541 0.060691115 0.043241553 0.32315677 -0.19972187 -0.52287865
0.039876644 0.062199954 0.044547841 0.32315677 -0.19972187 -0.52287865
0.039598823 0.063894309 0.046245087 0.32315677 -0.19972187 -0.52287865
0.039119691 0.065785952 0.048354529 0.32315677 -0.19972187 -0.52287865
0.038310319 0.067999206 0.051138502 0.32315677 -0.19972187 -0.52287865
0.036646686 0.071034446 0.055659235 0.32315677 -0.19972187 -0.52287865
0.0037656748 0.00076343882 0.039999999 0.32315677 -0.19972187 -0.52287865
0.0069437139 0 0.035365898 0.32315677 -0.19972187 -0.52287865
0.0088882083 0 0.032897312 0.32315677 -0.19972187 -0.52287865
0.010815623 0 0.030450515 0.32315677 -0.19972187 -0.52287865
0.012726193 0 0.028025215 0.32315677 -0.19972187 -0.52287865
0.014620147 0 0.025621116 0.32315677 -0.19972187 -0.52287865
0.016497711 0 0.023237929 0.32315677 -0.19972187 -0.52287865
0.018359104 0 0.020875374 0.32315677 -0.19972187 -0.52287865
0.020204548 0 0.018533172 0.32315677 -0.19972187 -0.52287865
0.022034254 0 0.01621105 0.32315677 -0.19972187 -0.52287865
0.023848433 0 0.013908741 0.32315677 -0.19972187 -0.52287865
0.02564729 0 0.011625982 0.32315677 -0.19972187 -0.52287865
0.02743103 0 0.0093625151 0.32315677 -0.19972187 -0.52287865
0.029199848 0 0.0071180849 0.32315677 -0.19972187 -0.52287865
0.030953942 0 0.0048924428 0.32315677 -0.19972187 -0.52287865
0.032693505 0 0.0026853443 0.32315677 -0.19972187 -0.52287865
0.034418724 0 0.00049654767 0.32315677 -0.19972187 -0.52287865
0.035207815 0.00064153533 0 0.32315677 -0.19972187 -0.52287865
0.035723072 0.0014725936 0 0.32315677 -0.19972187 -0.52287865
0.036238436 0.0023036941 0 0.32315677 -0.19972187 -0.52287865
0.036753912 0.0031348411 0 0.32315677 -0.19972187 -0.52287865
0.037269503 0.0039660381 0 0.32315677 -0.19972187 -0.52287865
0.037785206 0.0047972887 0 0.32315677 -0.19972187 -0.52287865
0.038301028 0.0056285975 0 0.32315677 -0.19972187 -0.52287865
0.03881697 0.0064599677 0 0.32315677 -0.19972187 -0.52287865
0.039333034 0.0072914036 0 0.32315677 -0.19972187 -0.52287865
0.039849225 0.0081229089 0 0.32315677 -0.19972187 -0.52287865
0.039999999 0.0092242267 0.00067588437 0.32315677 -0.19972187 -0.52287865
0.039999999 0.010440767 0.0016337737 0.32315677 -0.19972187 -0.52287865
0.039999999 0.011661946 0.0025954209 0.32315677 -0.19972187 -0.52287865
0.039999999 0.012887799 0.003560853 0.32315677 -0.19972187 -0.52287865
0.039999999 0.014118358 0.0045300964 0.32315677 -0.19972187 -0.52287865
0.039999999 0.015353658 0.0055031786 0.32315677 -0.19972187 -0.52287865
0.039999999 0.016593732 0.0064801262 0.32315677 -0.19972187 -0.52287865
0.039999999 0.017838616 0.0074609676 0.32315677 -0.19972187 -0.52287865
0.039999999 0.019088341 0.0084457304 0.32315677 -0.19972187 -0.52287865
0.039999999 0.020342944 0.009434443 0.32315677 -0.19972187 -0.52287865
0.039999999 0.021602459 0.010427132 0.32315677 -0.19972187 -0.52287865
0.039999999 0.022866925 0.011423829 0.32315677 -0.19972187 -0.52287865
0.039999999 0.024136374 0.012424561 0.32315677 -0.19972187 -0.52287865
0.039999999 0.025410844 0.013429357 0.32315677 -0.19972187 -0.52287865
0.039999999 0.026690371 0.014438247 0.32315677 -0.19972187 -0.52287865
0.039999999 0.027974991 0.015451261 0.32315677 -0.19972187 -0.52287865
0.039999999 0.029264744 0.016468428 0.32315677 -0.19972187 -0.52287865
0.039999999 0.030559666 0.01748978 0.32315677 -0.19972187 -0.52287865
0.039999999 0.031859793 0.018515347 0.32315677 -0.19972187 -0.52287865
0.039999999 0.033165168 0.019545157 0.32315677 -0.19972187 -0.52287865
0.039999999 0.034475826 0.020579245 0.32315677 -0.19972187 -0.52287865
0.039999999 0.035791803 0.021617642 0.32315677 -0.19972187 -0.52287865
0.039999999 0.037113149 0.022660377 0.32315677 -0.19972187 -0.52287865
0.039999999 0.038439892 0.023707485 0.32315677 -0.19972187 -0.52287865
0.039999999 0.039772078 0.024758996 0.32315677 -0.19972187 -0.52287865
0.039999999 0.041109748 0.025814945 0.32315677 -0.19972187 -0.52287865
0.039999999 0.042452943 0.026875362 0.32315677 -0.19972187 -0.52287865
0.039999999 0.043801699 0.027940283 0.32315677 -0.19972187 -0.52287865
0.039999999 0.045156065 0.029009741 0.32315677 -0.19972187 -0.52287865
0.039999999 0.046516079 0.03008377 0.32315677 -0.19972187 -0.52287865
0.039999999 0.047881782 0.031162405 0.32315677 -0.19972187 -0.52287865
0.039999999 0.049253225 0.032245677 0.32315677 -0.19972187 -0.52287865
0.039999999 0.050630443 0.033333626 0.32315677 -0.19972187 -0.52287865
0.039999999 0.052013483 0.034426287 0.32315677 -0.19972187 -0.52287865
0.039999999 0.053402387 0.03552369 0.32315677 -0.19972187 -0.52287865
0.039999999 0.054797202 0.036625873 0.32315677 -0.19972187 -0.52287865
0.039999999 0.056197975 0.037732881 0.32315677 -0.19972187 -0.52287865
0.039999999 0.057604749 0.038844738 0.32315677 -0.19972187 -0.52287865
0.039999999 0.059017573 0.039961487 0.32315677 -0.19972187 -0.52287865
0.039975103 0.06045936 0.041132756 0.32315677 -0.19972187 -0.52287865
0.039893791 0.061959662 0.042421777 0.32315677 -0.19972187 -0.52287865
0.039643094 0.063624308 0.04405516 0.32315677 -0.19972187 -0.52287865
0.03920722 0.065470681 0.046066649 0.32315677 -0.19972187 -0.52287865
0.038462155 0.067618132 0.0487075 0.32315677 -0.19972187 -0.52287865
0.037106808 0.07035578 0.052587274 0.32315677 -0.19972187 -0.52287865
0.0029958049 0 0.038490441 0.32315677 -0.19972187 -0.52287865
0.0049707955 0 0.035991307 0.32315677 -0.19972187 -0.52287865
0.0069283033 0 0.033514407 0.32315677 -0.19972187 -0.52287865
0.0088685695 0 0.031059423 0.32315677 -0.19972187 -0.52287865
0.01079183 0 0.028626064 0.32315677 -0.19972187 -0.52287865
0.012698319 0 0.02621403 0.32315677 -0.19972187 -0.52287865
0.014588263 0 0.02382303 0.32315677 -0.19972187 -0.52287865
0.016461886 0 0.021452781 0.32315677 -0.19972187 -0.52287865
0.018319411 0 0.019103002 0.32315677 -0.19972187 -0.52287865
0.020161051 0 0.016773418 0.32315677 -0.19972187 -0.52287865
0.021987021 0 0.01446376 0.32315677 -0.19972187 -0.52287865
0.0082288822 0.010386848 0.039999999 0.32315677 -0.19972187 -0.52287865
0.025592776 0 0.0099031664 0.32315677 -0.19972187 -0.52287865
0.0093379971 0.012177739 0.039999999 0.32315677 -0.19972187 -0.52287865
0.0098927012 0.013073216 0.039999999 0.32315677 -0.19972187 -0.52287865
0.030888967 0 0.00320524 0.32315677 -0.19972187 -0.52287865
0.032625161 0 0.001009729 0.32315677 -0.19972187 -0.52287865
0.033700701 0.00044698839 0 0.32315677 -0.19972187 -0.52287865
0.034216374 0.0012789519 0 0.32315677 -0.19972187 -0.52287865
0.034732152 0.0021109555 0 0.32315677 -0.19972187 -0.52287865
0.035248037 0.0029430031 0 0.32315677 -0.19972187 -0.52287865
0.035764031 0.0037750986 0 0.32315677 -0.19972187 -0.52287865
0.036280133 0.0046072458 0 0.32315677 -0.19972187 -0.52287865
0.03679635 0.0054394486 0 0.32315677 -0.19972187 -0.52287865
0.037312683 0.0062717111 0 0.32315677 -0.19972187 -0.52287865
0.037829131 0.0071040369 0 0.32315677 -0.19972187 -0.52287865
0.038345702 0.0079364292 0 0.32315677 -0.19972187 -0.52287865
0.038862396 0.0087688938 0 0.32315677 -0.19972187 -0.52287865
0.039379213 0.0096014328 0 0.32315677 -0.19972187 -0.52287865
0.03989616 0.01043405 0 0.32315677 -0.19972187 -0.52287865
0.039999999 0.011575117 0.00076420227 0.32315677 -0.19972187 -0.52287865
0.039999999 0.012797873 0.0017238319 0.32315677 -0.19972187 -0.52287865
0.039999999 0.014025313 0.0026872368 0.32315677 -0.19972187 -0.52287865
0.039999999 0.015257468 0.0036544441 0.32315677 -0.19972187 -0.52287865
0.039999999 0.016494375 0.0046254806 0.32315677 -0.19972187 -0.52287865
0.039999999 0.017736066 0.0056003737 0.32315677 -0.19972187 -0.52287865
0.039999999 0.018982574 0.0065791509 0.32315677 -0.19972187 -0.52287865
0.039999999 0.020233938 0.0075618397 0.32315677 -0.19972187 -0.52287865
0.039999999 0.021490188 0.0085484684 0.32315677 -0.19972187 -0.52287865
0.039999999 0.022751363 0.0095390659 0.32315677 -0.19972187 -0.52287865
0.039999999 0.024017496 0.01053366 0.32315677 -0.19972187 -0.52287865
0.039999999 0.025288625 0.011532279 0.32315677 -0.19972187 -0.52287865
0.039999999 0.026564784 0.012534953 0.32315677 -0.19972187 -0.52287865
0.039999999 0.027846012 0.013541711 0.32315677 -0.19972187 -0.52287865
0.039999999 0.029132346 0.014552582 0.32315677 -0.19972187 -0.52287865
0.039999999 0.03042382 0.015567598 0.32315677 -0.19972187 -0.52287865
0.039999999 0.031720474 0.016586786 0.32315677 -0.19972187 -0.52287865
0.039999999 0.033022348 0.017610181 0.32315677 -0.19972187 -0.52287865
0.039999999 0.034329478 0.01863781 0.32315677 -0.19972187 -0.52287865
0.039999999 0.035641901 0.019669704 0.32315677 -0.19972187 -0.52287865
0.039999999 0.036959659 0.020705897 0.32315677 -0.19972187 -0.52287865
0.039999999 0.038282789 0.021746419 0.32315677 -0.19972187 -0.52287865
0.039999999 0.039611336 0.022791302 0.32315677 -0.19972187 -0.52287865
0.039999999 0.040945336 0.023840578 0.32315677 -0.19972187 -0.52287865
0.039999999 0.042284828 0.02489428 0.32315677 -0.19972187 -0.52287865
0.039999999 0.043629859 0.025952443 0.32315677 -0.19972187 -0.52287865
0.039999999 0.044980463 0.027015097 0.32315677 -0.19972187 -0.52287865
0.039999999 0.046336688 0.028082278 0.32315677 -0.19972187 -0.52287865
0.039999999 0.047698572 0.029154018 0.32315677 -0.19972187 -0.52287865
0.039999999 0.04906616 0.030230351 0.32315677 -0.19972187 -0.52287865
0.039999999 0.050439496 0.031311315 0.32315677 -0.19972187 -0.52287865
0.039999999 0.051818624 0.032396939 0.32315677 -0.19972187 -0.52287865
0.039999999 0.053203583 0.033487264 0.32315677 -0.19972187 -0.52287865
0.039999999 0.05459442 0.034582324 0.32315677 -0.19972187 -0.52287865
0.039999999 0.05599118 0.035682153 0.32315677 -0.19972187 -0.52287865
0.039999999 0.057393912 0.036786787 0.32315677 -0.19972187 -0.52287865
0.039999999 0.058802657 0.037896268 0.32315677 -0.19972187 -0.52287865
0.039999999 0.060217459 0.039010625 0.32315677 -0.19972187 -0.52287865
0.039906528 0.061724648 0.040315758 0.32315677 -0.19972187 -0.52287865
0.039687119 0.063355811 0.041877486 0.32315677 -0.19972187 -0.52287865
0.039294228 0.065157272 0.043792281 0.32315677 -0.19972187 -0.52287865
0.038613025 0.067239486 0.04629197 0.32315677 -0.19972187 -0.52287865
0.037377279 0.069858082 0.049913704 0.32315677 -0.19972187 -0.52287865
0.001000835 0 0.039127447 0.32315677 -0.19972187 -0.52287865
0.0029891126 0 0.036619816 0.32315677 -0.19972187 -0.52287865
0.0016090636 0.0021031103 0.039999999 0.32315677 -0.19972187 -0.52287865
0.0069129625 0 0.031671319 0.32315677 -0.19972187 -0.52287865
0.0088490192 0 0.02922985 0.32315677 -0.19972187 -0.52287865
0.010768144 0 0.026809826 0.32315677 -0.19972187 -0.52287865
0.012670569 0 0.024410963 0.32315677 -0.19972187 -0.52287865
0.014556522 0 0.022032971 0.32315677 -0.19972187 -0.52287865
0.016426224 0 0.019675568 0.32315677 -0.19972187 -0.52287865
0.018279893 0 0.017338475 0.32315677 -0.19972187 -0.52287865
0.020117747 0 0.015021423 0.32315677 -0.19972187 -0.52287865
0.021939995 0 0.012724143 0.32315677 -0.19972187 -0.52287865
0.023746843 0 0.010446372 0.32315677 -0.19972187 -0.52287865
0.025538497 0 0.0081878528 0.32315677 -0.19972187 -0.52287865
0.027315157 0 0.0059483326 0.32315677 -0.19972187 -0.52287865
0.029077018 0 0.0037275616 0.32315677 -0.19972187 -0.52287865
0.030824272 0 0.0015252953 0.32315677 -0.19972187 -0.52287865
0.032190561 0.00025192089 0 0.32315677 -0.19972187 -0.52287865
0.032706663 0.0010847922 0 0.32315677 -0.19972187 -0.52287865
0.033222862 0.0019177014 0 0.32315677 -0.19972187 -0.52287865
0.033739161 0.0027506526 0 0.32315677 -0.19972187 -0.52287865
0.034255564 0.0035836492 0 0.32315677 -0.19972187 -0.52287865
0.034772076 0.0044166953 0 0.32315677 -0.19972187 -0.52287865
0.035288695 0.005249795 0 0.32315677 -0.19972187 -0.52287865
0.035805423 0.006082952 0 0.32315677 -0.19972187 -0.52287865
0.036322266 0.00691617 0 0.32315677 -0.19972187 -0.52287865
0.036839228 0.0077494532 0 0.32315677 -0.19972187 -0.52287865
0.037356306 0.0085828053 0 0.32315677 -0.19972187 -0.52287865
0.037873503 0.00941623 0 0.32315677 -0.19972187 -0.52287865
0.038390823 0.010249732 0 0.32315677 -0.19972187 -0.52287865
0.038908269 0.011083314 0 0.32315677 -0.19972187 -0.52287865
0.039425846 0.01191698 0 0.32315677 -0.19972187 -0.52287865
0.03994355 0.012750736 0 0.32315677 -0.19972187 -0.52287865
0.039999999 0.013932722 0.0008533934 0.32315677 -0.19972187 -0.52287865
0.039999999 0.01516175 0.0018147716 0.32315677 -0.19972187 -0.52287865
0.039999999 0.016395506 0.0027799427 0.32315677 -0.19972187 -0.52287865
0.039999999 0.017634021 0.0037489338 0.32315677 -0.19972187 -0.52287865
0.039999999 0.018877331 0.0047217719 0.32315677 -0.19972187 -0.52287865
0.039999999 0.020125471 0.0056984848 0.32315677 -0.19972187 -0.52287865
0.039999999 0.021378472 0.0066791005 0.32315677 -0.19972187 -0.52287865
0.039999999 0.022636374 0.0076636458 0.32315677 -0.19972187 -0.52287865
0.039999999 0.023899211 0.0086521497 0.32315677 -0.19972187 -0.52287865
0.039999999 0.025167014 0.0096446415 0.32315677 -0.19972187 -0.52287865
0.039999999 0.026439825 0.010641148 0.32315677 -0.19972187 -0.52287865
0.039999999 0.027717678 0.0116417 0.32315677 -0.19972187 -0.52287865
0.039999999 0.029000608 0.012646326 0.32315677 -0.19972187 -0.52287865
0.039999999 0.030288655 0.013655056 0.32315677 -0.19972187 -0.52287865
0.039999999 0.031581856 0.014667919 0.32315677 -0.19972187 -0.52287865
0.039999999 0.032880247 0.015684946 0.32315677 -0.19972187 -0.52287865
0.039999999 0.034183867 0.016706167 0.32315677 -0.19972187 -0.52287865
0.039999999 0.035492755 0.017731614 0.32315677 -0.19972187 -0.52287865
0.039999999 0.036806948 0.018761316 0.32315677 -0.19972187 -0.52287865
0.039999999 0.038126487 0.019795306 0.32315677 -0.19972187 -0.52287865
0.039999999 0.039451409 0.020833613 0.32315677 -0.19972187 -0.52287865
0.039999999 0.040781759 0.021876272 0.32315677 -0.19972187 -0.52287865
0.039999999 0.042117573 0.022923313 0.32315677 -0.19972187 -0.52287865
0.039999999 0.043458894 0.023974771 0.32315677 -0.19972187 -0.52287865
0.039999999 0.044805761 0.025030676 0.32315677 -0.19972187 -0.52287865
0.039999999 0.046158217 0.026091063 0.32315677 -0.19972187 -0.52287865
0.039999999 0.047516305 0.027155966 0.32315677 -0.19972187 -0.52287865
0.039999999 0.048880063 0.028225418 0.32315677 -0.19972187 -0.52287865
0.039999999 0.050249539 0.029299451 0.32315677 -0.19972187 -0.52287865
0.039999999 0.051624771 0.030378103 0.32315677 -0.19972187 -0.52287865
0.039999999 0.053005807 0.031461406 0.32315677 -0.19972187 -0.52287865
0.039999999 0.054392692 0.032549396 0.32315677 -0.19972187 -0.52287865
0.039999999 0.055785466 0.033642109 0.32315677 -0.19972187 -0.52287865
0.039999999 0.057184175 0.034739584 0.32315677 -0.19972187 -0.52287865
0.039999999 0.058588866 0.035841852 0.32315677 -0.19972187 -0.52287865
0.039999999 0.059999581 0.036948953 0.32315677 -0.19972187 -0.52287865
0.039999999 0.061416373 0.038060918 0.32315677 -0.19972187 -0.52287865
0.039999999 0.062839285 0.039177794 0.32315677 -0.19972187 -0.52287865
0.039380729 0.064845711 0.041531295 0.32315677 -0.19972187 -0.52287865
0.038762942 0.066863246 0.04389175 0.32315677 -0.19972187 -0.52287865
0.037632711 0.069376305 0.047285475 0.32315677 -0.19972187 -0.52287865
0.00099859445 2.7755576e-17 0.037251428 0.32315677 -0.19972187 -0.52287865
0.0029824509 0 0.03475773 0.32315677 -0.19972187 -0.52287865
0.0049487357 0 0.032286216 0.32315677 -0.19972187 -0.52287865
0.0068976916 0 0.029836578 0.32315677 -0.19972187 -0.52287865
0.0088295564 0 0.02740852 0.32315677 -0.19972187 -0.52287865
0.010744564 0 0.025001742 0.32315677 -0.19972187 -0.52287865
0.012642944 0 0.022615956 0.32315677 -0.19972187 -0.52287865
0.014524922 0 0.020250879 0.32315677 -0.19972187 -0.52287865
0.016390719 0 0.01790623 0.32315677 -0.19972187 -0.52287865
0.018240551 0 0.015581736 0.32315677 -0.19972187 -0.52287865
0.020074632 0 0.013277126 0.32315677 -0.19972187 -0.52287865
0.021893173 0 0.010992138 0.32315677 -0.19972187 -0.52287865
0.02369638 0 0.0087265093 0.32315677 -0.19972187 -0.52287865
0.025484454 0 0.0064799851 0.32315677 -0.19972187 -0.52287865
0.027257595 0 0.004252315 0.32315677 -0.19972187 -0.52287865
0.029015997 0 0.0020432523 0.32315677 -0.19972187 -0.52287865
0.030677378 5.6335037e-05 0 0.32315677 -0.19972187 -0.52287865
0.031193912 0.00089011691 0 0.32315677 -0.19972187 -0.52287865
0.031710539 0.0017239344 0 0.32315677 -0.19972187 -0.52287865
0.032227263 0.0025577915 0 0.32315677 -0.19972187 -0.52287865
0.032744087 0.0033916919 0 0.32315677 -0.19972187 -0.52287865
0.033261012 0.0042256396 0 0.32315677 -0.19972187 -0.52287865
0.033778042 0.005059639 0 0.32315677 -0.19972187 -0.52287865
0.034295175 0.0058936928 0 0.32315677 -0.19972187 -0.52287865
0.034812421 0.0067278058 0 0.32315677 -0.19972187 -0.52287865
0.035329774 0.0075619817 0 0.32315677 -0.19972187 -0.52287865
0.035847243 0.0083962241 0 0.32315677 -0.19972187 -0.52287865
0.036364827 0.0092305373 0 0.32315677 -0.19972187 -0.52287865
0.036882531 0.010064926 0 0.32315677 -0.19972187 -0.52287865
0.037400357 0.010899392 0 0.32315677 -0.19972187 -0.52287865
0.037918307 0.011733941 0 0.32315677 -0.19972187 -0.52287865
0.038436379 0.012568575 0 0.32315677 -0.19972187 -0.52287865
0.038954582 0.0134033 0 0.32315677 -0.19972187 -0.52287865
0.039472915 0.01423812 0 0.32315677 -0.19972187 -0.52287865
0.039991383 0.015073037 0 0.32315677 -0.19972187 -0.52287865
0.039999999 0.016297121 0.00094343699 0.32315677 -0.19972187 -0.52287865
0.039999999 0.017532477 0.001906572 0.32315677 -0.19972187 -0.52287865
0.039999999 0.018772604 0.0028735178 0.32315677 -0.19972187 -0.52287865
0.039999999 0.020017536 0.0038443014 0.32315677 -0.19972187 -0.52287865
0.039999999 0.021267308 0.0048189503 0.32315677 -0.19972187 -0.52287865
0.039999999 0.022521954 0.0057974919 0.32315677 -0.19972187 -0.52287865
0.039999999 0.023781508 0.0067799543 0.32315677 -0.19972187 -0.52287865
0.039999999 0.025046008 0.0077663655 0.32315677 -0.19972187 -0.52287865
0.039999999 0.026315486 0.008756754 0.32315677 -0.19972187 -0.52287865
0.039999999 0.027589982 0.0097511485 0.32315677 -0.19972187 -0.52287865
0.039999999 0.02886953 0.010749578 0.32315677 -0.19972187 -0.52287865
0.039999999 0.030154167 0.011752073 0.32315677 -0.19972187 -0.52287865
0.039999999 0.031443931 0.01275866 0.32315677 -0.19972187 -0.52287865
0.039999999 0.032738861 0.013769371 0.32315677 -0.19972187 -0.52287865
0.039999999 0.034038991 0.014784237 0.32315677 -0.19972187 -0.52287865
0.039999999 0.035344359 0.015803287 0.32315677 -0.19972187 -0.52287865
0.039999999 0.036655009 0.01682655 0.32315677 -0.19972187 -0.52287865
0.039999999 0.037970975 0.017854059 0.32315677 -0.19972187 -0.52287865
0.039999999 0.039292295 0.018885845 0.32315677 -0.19972187 -0.52287865
0.039999999 0.040619016 0.01992194 0.32315677 -0.19972187 -0.52287865
0.039999999 0.041951172 0.020962374 0.32315677 -0.19972187 -0.52287865
0.039999999 0.043288805 0.022007182 0.32315677 -0.19972187 -0.52287865
0.039999999 0.044631954 0.023056393 0.32315677 -0.19972187 -0.52287865
0.039999999 0.045980662 0.024110043 0.32315677 -0.19972187 -0.52287865
0.039999999 0.047334969 0.025168164 0.32315677 -0.19972187 -0.52287865
0.039999999 0.048694924 0.026230788 0.32315677 -0.19972187 -0.52287865
0.039999999 0.050060559 0.027297949 0.32315677 -0.19972187 -0.52287865
0.039999999 0.051431924 0.028369684 0.32315677 -0.19972187 -0.52287865
0.039999999 0.05280906 0.029446024 0.32315677 -0.19972187 -0.52287865
0.039999999 0.054192007 0.030527005 0.32315677 -0.19972187 -0.52287865
0.039999999 0.055580817 0.031612664 0.32315677 -0.19972187 -0.52287865
0.039999999 0.056975529 0.032703031 0.32315677 -0.19972187 -0.52287865
0.039999999 0.058376189 0.033798147 0.32315677 -0.19972187 -0.52287865
0.039999999 0.05978284 0.034898046 0.32315677 -0.19972187 -0.52287865
0.039999999 0.061195534 0.036002766 0.32315677 -0.19972187 -0.52287865
0.039999999 0.062614314 0.037112344 0.32315677 -0.19972187 -0.52287865
0.039999999 0.064039223 0.038226817 0.32315677 -0.19972187 -0.52287865
0.039999999 0.065470316 0.039346218 0.32315677 -0.19972187 -0.52287865
0.03788634 0.068897925 0.044675782 0.32315677 -0.19972187 -0.52287865
0.03545082 0.072658077 0.050668851 0.32315677 -0.19972187 -0.52287865
0.00099636416 0 0.035383981 0.32315677 -0.19972187 -0.52287865
0 0.001856251 0.038069662 0.32315677 -0.19972187 -0.52287865
0.004937781 0 0.030446265 0.32315677 -0.19972187 -0.52287865
0.0068824897 0 0.028010113 0.32315677 -0.19972187 -0.52287865
0.0088101821 0 0.025595371 0.32315677 -0.19972187 -0.52287865
0.01072109 2.7755576e-17 0.023201743 0.32315677 -0.19972187 -0.52287865
0.012615442 0 0.020828944 0.32315677 -0.19972187 -0.52287865
0.014493462 2.7755576e-17 0.018476691 0.32315677 -0.19972187 -0.52287865
0.016355369 0 0.016144708 0.32315677 -0.19972187 -0.52287865
0.018201381 0 0.013832724 0.32315677 -0.19972187 -0.52287865
0.020031707 0 0.011540472 0.32315677 -0.19972187 -0.52287865
0.021846557 2.7755576e-17 0.0092676887 0.32315677 -0.19972187 -0.52287865
0.023646137 0 0.0070141177 0.32315677 -0.19972187 -0.52287865
0.025430646 0 0.0047795065 0.32315677 -0.19972187 -0.52287865
0.027200283 0 0.0025636056 0.32315677 -0.19972187 -0.52287865
0.028955242 0 0.00036617118 0.32315677 -0.19972187 -0.52287865
0.029678099 0.00069492805 0 0.32315677 -0.19972187 -0.52287865
0.030195164 0.0015296566 0 0.32315677 -0.19972187 -0.52287865
0.030712318 0.0023644224 0 0.32315677 -0.19972187 -0.52287865
0.031229569 0.0031992292 0 0.32315677 -0.19972187 -0.52287865
0.031746916 0.0040340815 0 0.32315677 -0.19972187 -0.52287865
0.032264363 0.0048689824 0 0.32315677 -0.19972187 -0.52287865
0.03278191 0.0057039363 0 0.32315677 -0.19972187 -0.52287865
0.033299562 0.0065389466 0 0.32315677 -0.19972187 -0.52287865
0.033817321 0.007374018 0 0.32315677 -0.19972187 -0.52287865
0.034335192 0.008209154 0 0.32315677 -0.19972187 -0.52287865
0.034853172 0.0090443585 0 0.32315677 -0.19972187 -0.52287865
0.035371266 0.0098796347 0 0.32315677 -0.19972187 -0.52287865
0.035889477 0.010714988 0 0.32315677 -0.19972187 -0.52287865
0.036407802 0.011550421 0 0.32315677 -0.19972187 -0.52287865
0.036926255 0.012385938 0 0.32315677 -0.19972187 -0.52287865
0.03744483 0.013221543 0 0.32315677 -0.19972187 -0.52287865
0.037963528 0.01405724 0 0.32315677 -0.19972187 -0.52287865
0.038482357 0.014893034 0 0.32315677 -0.19972187 -0.52287865
0.03900132 0.015728926 0 0.32315677 -0.19972187 -0.52287865
0.039520413 0.016564924 0 0.32315677 -0.19972187 -0.52287865
0.039999999 0.017431429 7.3212868e-05 0.32315677 -0.19972187 -0.52287865
0.039999999 0.018668391 0.001034312 0.32315677 -0.19972187 -0.52287865
0.039999999 0.019910133 0.0019992122 0.32315677 -0.19972187 -0.52287865
0.039999999 0.021156691 0.0029679411 0.32315677 -0.19972187 -0.52287865
0.039999999 0.022408098 0.0039405259 0.32315677 -0.19972187 -0.52287865
0.039999999 0.023664389 0.0049169939 0.32315677 -0.19972187 -0.52287865
0.039999999 0.024925599 0.005897373 0.32315677 -0.19972187 -0.52287865
0.039999999 0.026191764 0.0068816915 0.32315677 -0.19972187 -0.52287865
0.039999999 0.02746292 0.0078699775 0.32315677 -0.19972187 -0.52287865
0.039999999 0.028739102 0.0088622598 0.32315677 -0.19972187 -0.52287865
0.039999999 0.030020349 0.0098585673 0.32315677 -0.19972187 -0.52287865
0.039999999 0.031306695 0.01085893 0.32315677 -0.19972187 -0.52287865
0.039999999 0.032598179 0.011863376 0.32315677 -0.19972187 -0.52287865
0.039999999 0.033894837 0.012871935 0.32315677 -0.19972187 -0.52287865
0.039999999 0.03519671 0.013884638 0.32315677 -0.19972187 -0.52287865
0.039999999 0.036503833 0.014901515 0.32315677 -0.19972187 -0.52287865
0.039999999 0.037816245 0.015922597 0.32315677 -0.19972187 -0.52287865
0.039999999 0.039133985 0.016947912 0.32315677 -0.19972187 -0.52287865
0.039999999 0.040457092 0.017977495 0.32315677 -0.19972187 -0.52287865
0.039999999 0.041785609 0.019011376 0.32315677 -0.19972187 -0.52287865
0.039999999 0.043119576 0.020049587 0.32315677 -0.19972187 -0.52287865
0.039999999 0.04445903 0.02109216 0.32315677 -0.19972187 -0.52287865
0.039999999 0.045804013 0.022139126 0.32315677 -0.19972187 -0.52287865
0.039999999 0.047154564 0.023190519 0.32315677 -0.19972187 -0.52287865
0.039999999 0.04851073 0.024246372 0.32315677 -0.19972187 -0.52287865
0.039999999 0.049872547 0.025306718 0.32315677 -0.19972187 -0.52287865
0.039999999 0.051240064 0.026371593 0.32315677 -0.19972187 -0.52287865
0.039999999 0.052613322 0.027441027 0.32315677 -0.19972187 -0.52287865
0.039999999 0.053992361 0.028515056 0.32315677 -0.19972187 -0.52287865
0.039999999 0.055377226 0.029593715 0.32315677 -0.19972187 -0.52287865
0.039999999 0.056767963 0.030677039 0.32315677 -0.19972187 -0.52287865
0.039999999 0.058164615 0.031765062 0.32315677 -0.19972187 -0.52287865
0.039999999 0.059567232 0.032857824 0.32315677 -0.19972187 -0.52287865
0.039999999 0.06097585 0.033955354 0.32315677 -0.19972187 -0.52287865
0.039999999 0.062390521 0.035057694 0.32315677 -0.19972187 -0.52287865
0.039999999 0.063811295 0.03616488 0.32315677 -0.19972187 -0.52287865
0.039999999 0.065238208 0.03727695 0.32315677 -0.19972187 -0.52287865
0.039999999 0.066671319 0.038393937 0.32315677 -0.19972187 -0.52287865
0.039999999 0.068110667 0.039515879 0.32315677 -0.19972187 -0.52287865
0.00099414412 0 0.033525039 0.32315677 -0.19972187 -0.52287865
0.002969218 0 0.031058915 0.32315677 -0.19972187 -0.52287865
0.0049268752 0 0.028614622 0.32315677 -0.19972187 -0.52287865
0.0068673557 0 0.026191862 0.32315677 -0.19972187 -0.52287865
0.0087908935 0 0.023790341 0.32315677 -0.19972187 -0.52287865
0.010697721 0 0.02140977 0.32315677 -0.19972187 -0.52287865
0.012588062 0 0.019049864 0.32315677 -0.19972187 -0.52287865
0.014462141 0 0.016710347 0.32315677 -0.19972187 -0.52287865
0.016320176 0 0.014390941 0.32315677 -0.19972187 -0.52287865
0.018162381 0 0.01209138 0.32315677 -0.19972187 -0.52287865
0.019988969 0 0.0098113976 0.32315677 -0.19972187 -0.52287865
0.021800144 0 0.0075507369 0.32315677 -0.19972187 -0.52287865
0.023596112 0 0.0053091412 0.32315677 -0.19972187 -0.52287865
0.025377069 0 0.0030863606 0.32315677 -0.19972187 -0.52287865
0.027143216 0 0.00088214863 0.32315677 -0.19972187 -0.52287865
0.028159201 0.00049922778 0 0.32315677 -0.19972187 -0.52287865
0.028676709 0.00133487 0 0.32315677 -0.19972187 -0.52287865
0.029194305 0.0021705471 0 0.32315677 -0.19972187 -0.52287865
0.02971199 0.0030062632 0 0.32315677 -0.19972187 -0.52287865
0.030229766 0.003842022 0 0.32315677 -0.19972187 -0.52287865
0.030747639 0.0046778279 0 0.32315677 -0.19972187 -0.52287865
0.031265609 0.0055136839 0 0.32315677 -0.19972187 -0.52287865
0.031783678 0.0063495948 0 0.32315677 -0.19972187 -0.52287865
0.032301847 0.0071855639 0 0.32315677 -0.19972187 -0.52287865
0.032820124 0.0080215959 0 0.32315677 -0.19972187 -0.52287865
0.033338506 0.0088576935 0 0.32315677 -0.19972187 -0.52287865
0.033856995 0.0096938619 0 0.32315677 -0.19972187 -0.52287865
0.034375601 0.010530104 0 0.32315677 -0.19972187 -0.52287865
0.034894317 0.011366424 0 0.32315677 -0.19972187 -0.52287865
0.035413153 0.012202826 0 0.32315677 -0.19972187 -0.52287865
0.035932105 0.013039314 0 0.32315677 -0.19972187 -0.52287865
0.036451183 0.013875892 0 0.32315677 -0.19972187 -0.52287865
0.036970381 0.014712564 0 0.32315677 -0.19972187 -0.52287865
0.037489705 0.015549333 0 0.32315677 -0.19972187 -0.52287865
0.038009163 0.016386203 0 0.32315677 -0.19972187 -0.52287865
0.038528748 0.017223181 0 0.32315677 -0.19972187 -0.52287865
0.039048467 0.018060267 0 0.32315677 -0.19972187 -0.52287865
0.039568324 0.018897464 0 0.32315677 -0.19972187 -0.52287865
0.039999999 0.019803254 0.00016314226 0.32315677 -0.19972187 -0.52287865
0.039999999 0.021046614 0.0011259973 0.32315677 -0.19972187 -0.52287865
0.039999999 0.022294799 0.0020926713 0.32315677 -0.19972187 -0.52287865
0.039999999 0.023547843 0.0030631917 0.32315677 -0.19972187 -0.52287865
0.039999999 0.024805782 0.004037586 0.32315677 -0.19972187 -0.52287865
0.039999999 0.02606865 0.0050158817 0.32315677 -0.19972187 -0.52287865
0.039999999 0.027336486 0.0059981076 0.32315677 -0.19972187 -0.52287865
0.039999999 0.028609321 0.0069842911 0.32315677 -0.19972187 -0.52287865
0.039999999 0.029887194 0.0079744617 0.32315677 -0.19972187 -0.52287865
0.039999999 0.031170141 0.0089686466 0.32315677 -0.19972187 -0.52287865
0.039999999 0.032458197 0.0099668764 0.32315677 -0.19972187 -0.52287865
0.039999999 0.033751406 0.010969181 0.32315677 -0.19972187 -0.52287865
0.039999999 0.035049796 0.011975588 0.32315677 -0.19972187 -0.52287865
0.039999999 0.036353413 0.012986129 0.32315677 -0.19972187 -0.52287865
0.039999999 0.03766229 0.014000834 0.32315677 -0.19972187 -0.52287865
0.039999999 0.038976472 0.015019733 0.32315677 -0.19972187 -0.52287865
0.039999999 0.040295988 0.016042856 0.32315677 -0.19972187 -0.52287865
0.039999999 0.041620888 0.017070236 0.32315677 -0.19972187 -0.52287865
