# .PCD v0.7 - Point Cloud Data file format
VERSION 0.7
FIELDS x y z vp_x vp_y vp_z
SIZE 4 4 4 4 4 4
TYPE F F F F F F
COUNT 1 1 1 1 1 1
WIDTH 741
HEIGHT 1
VIEWPOINT 0 0 0 1 0 0 0
POINTS 741
DATA ascii
0.0028164426 0.051988028 0 -0.32315677 0.19972187 -0.52287865
0.0023003272 0.051147785 0 -0.32315677 0.19972187 -0.52287865
0.0017842717 0.050307747 0 -0.32315677 0.19972187 -0.52287865
0.0012682732 0.049467918 0 -0.32315677 0.19972187 -0.52287865
0.00075232959 0.048628286 0 -0.32315677 0.19972187 -0.52287865
0.0002364383 0.047788855 0 -0.32315677 0.19972187 -0.52287865
5.5511151e-17 0.046817414 0.00045247481 -0.32315677 0.19972187 -0.52287865
0 0.045731641 0.0012898294 -0.32315677 0.19972187 -0.52287865
0 0.044642597 0.0021297943 -0.32315677 0.19972187 -0.52287865
0 0.04355026 0.0029723858 -0.32315677 0.19972187 -0.52287865
0 0.042454608 0.00381762 -0.32315677 0.19972187 -0.52287865
5.5511151e-17 0.041355625 0.0046655135 -0.32315677 0.19972187 -0.52287865
5.5511151e-17 0.040253285 0.0055160825 -0.32315677 0.19972187 -0.52287865
5.5511151e-17 0.039147571 0.0063693444 -0.32315677 0.19972187 -0.52287865
5.5511151e-17 0.038038459 0.0072253151 -0.32315677 0.19972187 -0.52287865
5.5511151e-17 0.036925927 0.0080840122 -0.32315677 0.19972187 -0.52287865
5.5511151e-17 0.035809956 0.008945453 -0.32315677 0.19972187 -0.52287865
0 0.034690522 0.0098096533 -0.32315677 0.19972187 -0.52287865
5.5511151e-17 0.033567604 0.010676633 -0.32315677 0.19972187 -0.52287865
0 0.03244118 0.011546406 -0.32315677 0.19972187 -0.52287865
0 0.031311229 0.012418993 -0.32315677 0.19972187 -0.52287865
5.5511151e-17 0.030177727 0.013294411 -0.32315677 0.19972187 -0.52287865
0 0.029040651 0.014172677 -0.32315677 0.19972187 -0.52287865
0 0.027899979 0.01505381 -0.32315677 0.19972187 -0.52287865
5.5511151e-17 0.026755687 0.015937828 -0.32315677 0.19972187 -0.52287865
5.5511151e-17 0.025607754 0.016824748 -0.32315677 0.19972187 -0.52287865
5.5511151e-17 0.024456155 0.01771459 -0.32315677 0.19972187 -0.52287865
0 0.023300866 0.018607372 -0.32315677 0.19972187 -0.52287865
0 0.022141863 0.019503115 -0.32315677 0.19972187 -0.52287865
5.5511151e-17 0.020979125 0.020401834 -0.32315677 0.19972187 -0.52287865
5.5511151e-17 0.019812625 0.021303551 -0.32315677 0.19972187 -0.52287865
5.5511151e-17 0.01864234 0.022208285 -0.32315677 0.19972187 -0.52287865
5.5511151e-17 0.017468244 0.023116052 -0.32315677 0.19972187 -0.52287865
5.5511151e-17 0.016290313 0.024026876 -0.32315677 0.19972187 -0.52287865
0 0.015108523 0.024940776 -0.32315677 0.19972187 -0.52287865
0 0.013922849 0.025857769 -0.32315677 0.19972187 -0.52287865
5.5511151e-17 0.012733264 0.026777877 -0.32315677 0.19972187 -0.52287865
5.5511151e-17 0.011539743 0.027701121 -0.32315677 0.19972187 -0.52287865
5.5511151e-17 0.010342262 0.02862752 -0.32315677 0.19972187 -0.52287865
0 0.0091407932 0.029557094 -0.32315677 0.19972187 -0.52287865
5.5511151e-17 0.0079353098 0.030489866 -0.32315677 0.19972187 -0.52287865
0 0.0067257877 0.031425856 -0.32315677 0.19972187 -0.52287865
5.5511151e-17 0.0055121984 0.032365084 -0.32315677 0.19972187 -0.52287865
5.5511151e-17 0.0042945161 0.033307571 -0.32315677 0.19972187 -0.52287865
5.5511151e-17 0.0030727135 0.03425334 -0.32315677 0.19972187 -0.52287865
5.5511151e-17 0.001846763 0.035202414 -0.32315677 0.19972187 -0.52287865
5.5511151e-17 0.00061663723 0.03615481 -0.32315677 0.19972187 -0.52287865
0.037378814 0.079999998 0.020016307 -0.32315677 0.19972187 -0.52287865
0.034196012 0.079999998 0.016032444 -0.32315677 0.19972187 -0.52287865
0.031060854 0.079999998 0.012108305 -0.32315677 0.19972187 -0.52287865
0.027972268 0.079999998 0.0082425401 -0.32315677 0.19972187 -0.52287865
0.024929205 0.079999998 0.0044338377 -0.32315677 0.19972187 -0.52287865
0.021930654 0.079999998 0.00068092754 -0.32315677 0.19972187 -0.52287865
0.020961463 0.079305097 0 -0.32315677 0.19972187 -0.52287865
0.02044123 0.078454837 0 -0.32315677 0.19972187 -0.52287865
0.019921141 0.07760492 0 -0.32315677 0.19972187 -0.52287865
0.019401193 0.076755337 0 -0.32315677 0.19972187 -0.52287865
0.018881384 0.075906098 0 -0.32315677 0.19972187 -0.52287865
0.01836171 0.075057179 0 -0.32315677 0.19972187 -0.52287865
0.01784217 0.074208595 0 -0.32315677 0.19972187 -0.52287865
0.017322762 0.073360324 0 -0.32315677 0.19972187 -0.52287865
0.016803483 0.072512381 0 -0.32315677 0.19972187 -0.52287865
0.01628433 0.071664743 0 -0.32315677 0.19972187 -0.52287865
0.0157653 0.070817418 0 -0.32315677 0.19972187 -0.52287865
0.015246391 0.069970399 0 -0.32315677 0.19972187 -0.52287865
0.014727602 0.069123678 0 -0.32315677 0.19972187 -0.52287865
0.014208928 0.068277262 0 -0.32315677 0.19972187 -0.52287865
0.013690368 0.067431137 0 -0.32315677 0.19972187 -0.52287865
0.01317192 0.066585295 0 -0.32315677 0.19972187 -0.52287865
0.012653581 0.065739743 0 -0.32315677 0.19972187 -0.52287865
0.012135347 0.064894475 0 -0.32315677 0.19972187 -0.52287865
0.011617218 0.064049475 0 -0.32315677 0.19972187 -0.52287865
0.01109919 0.063204758 0 -0.32315677 0.19972187 -0.52287865
0.010581261 0.062360302 0 -0.32315677 0.19972187 -0.52287865
0.010063429 0.061516114 0 -0.32315677 0.19972187 -0.52287865
0.0095456913 0.060672186 0 -0.32315677 0.19972187 -0.52287865
0.0090280455 0.059828516 0 -0.32315677 0.19972187 -0.52287865
0.0085104881 0.058985095 0 -0.32315677 0.19972187 -0.52287865
0.0079930173 0.058141928 0 -0.32315677 0.19972187 -0.52287865
0.0074756308 0.057299003 0 -0.32315677 0.19972187 -0.52287865
0.0069583263 0.056456316 0 -0.32315677 0.19972187 -0.52287865
0.006441101 0.055613872 0 -0.32315677 0.19972187 -0.52287865
0.0059239529 0.054771654 0 -0.32315677 0.19972187 -0.52287865
0.0054068789 0.053929668 0 -0.32315677 0.19972187 -0.52287865
0.0048898775 0.053087905 0 -0.32315677 0.19972187 -0.52287865
0.0043729451 0.052246362 0 -0.32315677 0.19972187 -0.52287865
0.0038560801 0.051405039 0 -0.32315677 0.19972187 -0.52287865
0.0033392799 0.050563924 0 -0.32315677 0.19972187 -0.52287865
0.0028225421 0.049723018 0 -0.32315677 0.19972187 -0.52287865
0.0023058639 0.048882321 0 -0.32315677 0.19972187 -0.52287865
0.0017892434 0.048041821 0 -0.32315677 0.19972187 -0.52287865
0.0012726778 0.047201514 0 -0.32315677 0.19972187 -0.52287865
0.00075616472 0.046361405 0 -0.32315677 0.19972187 -0.52287865
0.0002397018 0.045521483 0 -0.32315677 0.19972187 -0.52287865
0 0.044548873 0.00044811534 -0.32315677 0.19972187 -0.52287865
0 0.043458689 0.0012863927 -0.32315677 0.19972187 -0.52287865
5.5511151e-17 0.042365208 0.00212729 -0.32315677 0.19972187 -0.52287865
0 0.041268405 0.0029708233 -0.32315677 0.19972187 -0.52287865
5.5511151e-17 0.040168263 0.0038170093 -0.32315677 0.19972187 -0.52287865
5.5511151e-17 0.039064754 0.0046658642 -0.32315677 0.19972187 -0.52287865
5.5511151e-17 0.037957866 0.005517405 -0.32315677 0.19972187 -0.52287865
0 0.036847569 0.0063716481 -0.32315677 0.19972187 -0.52287865
0 0.035733849 0.0072286106 -0.32315677 0.19972187 -0.52287865
5.5511151e-17 0.034616683 0.0080883093 -0.32315677 0.19972187 -0.52287865
5.5511151e-17 0.033496045 0.0089507625 -0.32315677 0.19972187 -0.52287865
0 0.032371912 0.0098159853 -0.32315677 0.19972187 -0.52287865
5.5511151e-17 0.031244269 0.010683998 -0.32315677 0.19972187 -0.52287865
5.5511151e-17 0.03011309 0.011554815 -0.32315677 0.19972187 -0.52287865
0 0.028978352 0.012428456 -0.32315677 0.19972187 -0.52287865
5.5511151e-17 0.027840031 0.013304939 -0.32315677 0.19972187 -0.52287865
5.5511151e-17 0.026698107 0.014184281 -0.32315677 0.19972187 -0.52287865
0 0.025552556 0.015066501 -0.32315677 0.19972187 -0.52287865
0 0.024403356 0.015951617 -0.32315677 0.19972187 -0.52287865
5.5511151e-17 0.023250481 0.016839646 -0.32315677 0.19972187 -0.52287865
0 0.022093907 0.017730609 -0.32315677 0.19972187 -0.52287865
5.5511151e-17 0.020933613 0.018624524 -0.32315677 0.19972187 -0.52287865
0 0.019769575 0.01952141 -0.32315677 0.19972187 -0.52287865
5.5511151e-17 0.018601766 0.020421283 -0.32315677 0.19972187 -0.52287865
5.5511151e-17 0.017430164 0.021324167 -0.32315677 0.19972187 -0.52287865
5.5511151e-17 0.016254744 0.022230079 -0.32315677 0.19972187 -0.52287865
5.5511151e-17 0.015075481 0.023139037 -0.32315677 0.19972187 -0.52287865
0 0.013892349 0.024051065 -0.32315677 0.19972187 -0.52287865
0 0.012705324 0.024966178 -0.32315677 0.19972187 -0.52287865
5.5511151e-17 0.011514381 0.025884399 -0.32315677 0.19972187 -0.52287865
5.5511151e-17 0.010319494 0.026805747 -0.32315677 0.19972187 -0.52287865
5.5511151e-17 0.0091206357 0.027730243 -0.32315677 0.19972187 -0.52287865
5.5511151e-17 0.0079177823 0.028657906 -0.32315677 0.19972187 -0.52287865
5.5511151e-17 0.0067109065 0.029588759 -0.32315677 0.19972187 -0.52287865
5.5511151e-17 0.0054999823 0.030522821 -0.32315677 0.19972187 -0.52287865
0 0.0042849826 0.031460114 -0.32315677 0.19972187 -0.52287865
5.5511151e-17 0.0030658806 0.032400656 -0.32315677 0.19972187 -0.52287865
5.5511151e-17 0.0018426493 0.033344474 -0.32315677 0.19972187 -0.52287865
5.5511151e-17 0.00061526132 0.034291588 -0.32315677 0.19972187 -0.52287865
0.039985847 0.079999998 0.021444993 -0.32315677 0.19972187 -0.52287865
0.036770791 0.079999998 0.017434562 -0.32315677 0.19972187 -0.52287865
0.033604067 0.079999998 0.013484502 -0.32315677 0.19972187 -0.52287865
0.03048458 0.079999998 0.0095934412 -0.32315677 0.19972187 -0.52287865
0.027411262 0.079999998 0.0057600508 -0.32315677 0.19972187 -0.52287865
0.024383083 0.079999998 0.0019830398 -0.32315677 0.19972187 -0.52287865
0.022548689 0.079600535 0 -0.32315677 0.19972187 -0.52287865
0.022027526 0.078749083 0 -0.32315677 0.19972187 -0.52287865
0.021506514 0.077897981 0 -0.32315677 0.19972187 -0.52287865
0.020985648 0.077047214 0 -0.32315677 0.19972187 -0.52287865
0.020464925 0.07619679 0 -0.32315677 0.19972187 -0.52287865
0.019944346 0.075346701 0 -0.32315677 0.19972187 -0.52287865
0.019423904 0.07449694 0 -0.32315677 0.19972187 -0.52287865
0.0189036 0.073647507 0 -0.32315677 0.19972187 -0.52287865
0.018383428 0.072798394 0 -0.32315677 0.19972187 -0.52287865
0.017863391 0.071949601 0 -0.32315677 0.19972187 -0.52287865
0.01734348 0.071101114 0 -0.32315677 0.19972187 -0.52287865
0.016823698 0.07025294 0 -0.32315677 0.19972187 -0.52287865
0.016304038 0.069405071 0 -0.32315677 0.19972187 -0.52287865
0.0157845 0.068557501 0 -0.32315677 0.19972187 -0.52287865
0.015265083 0.067710228 0 -0.32315677 0.19972187 -0.52287865
0.014745781 0.066863254 0 -0.32315677 0.19972187 -0.52287865
0.014226593 0.066016562 0 -0.32315677 0.19972187 -0.52287865
0.013707518 0.065170154 0 -0.32315677 0.19972187 -0.52287865
0.013188551 0.064324029 0 -0.32315677 0.19972187 -0.52287865
0.012669692 0.063478179 0 -0.32315677 0.19972187 -0.52287865
0.012150936 0.062632598 0 -0.32315677 0.19972187 -0.52287865
0.011632282 0.061787289 0 -0.32315677 0.19972187 -0.52287865
0.011113727 0.060942244 0 -0.32315677 0.19972187 -0.52287865
0.01059527 0.060097456 0 -0.32315677 0.19972187 -0.52287865
0.010076907 0.059252929 0 -0.32315677 0.19972187 -0.52287865
0.0095586358 0.058408648 0 -0.32315677 0.19972187 -0.52287865
0.0090404544 0.05756462 0 -0.32315677 0.19972187 -0.52287865
0.0085223597 0.056720831 0 -0.32315677 0.19972187 -0.52287865
0.0080043487 0.055877283 0 -0.32315677 0.19972187 -0.52287865
0.0074864211 0.055033971 0 -0.32315677 0.19972187 -0.52287865
0.0069685727 0.054190893 0 -0.32315677 0.19972187 -0.52287865
0.0064508012 0.053348038 0 -0.32315677 0.19972187 -0.52287865
0.005933105 0.052505411 0 -0.32315677 0.19972187 -0.52287865
0.0054154806 0.051663 0 -0.32315677 0.19972187 -0.52287865
0.0048979265 0.050820805 0 -0.32315677 0.19972187 -0.52287865
0.0043804394 0.049978822 0 -0.32315677 0.19972187 -0.52287865
0.0038630175 0.049137048 0 -0.32315677 0.19972187 -0.52287865
0.0033456583 0.048295479 0 -0.32315677 0.19972187 -0.52287865
0.0028283589 0.047454108 0 -0.32315677 0.19972187 -0.52287865
0.0023111172 0.04661293 0 -0.32315677 0.19972187 -0.52287865
0.0017939309 0.045771945 0 -0.32315677 0.19972187 -0.52287865
0.0012767973 0.044931147 0 -0.32315677 0.19972187 -0.52287865
0.00075971399 0.044090532 0 -0.32315677 0.19972187 -0.52287865
0.00024267867 0.043250099 0 -0.32315677 0.19972187 -0.52287865
0 0.042276192 0.00044422189 -0.32315677 0.19972187 -0.52287865
0 0.041181561 0.0012834248 -0.32315677 0.19972187 -0.52287865
0 0.040083606 0.0021252572 -0.32315677 0.19972187 -0.52287865
5.5511151e-17 0.038982298 0.0029697355 -0.32315677 0.19972187 -0.52287865
0 0.037877623 0.0038168763 -0.32315677 0.19972187 -0.52287865
0 0.036769554 0.0046666958 -0.32315677 0.19972187 -0.52287865
0 0.035658076 0.0055192113 -0.32315677 0.19972187 -0.52287865
0 0.03454316 0.0063744392 -0.32315677 0.19972187 -0.52287865
5.5511151e-17 0.033424795 0.0072323964 -0.32315677 0.19972187 -0.52287865
0 0.032302946 0.008093101 -0.32315677 0.19972187 -0.52287865
0 0.031177601 0.0089565683 -0.32315677 0.19972187 -0.52287865
0 0.030048735 0.0098228185 -0.32315677 0.19972187 -0.52287865
0 0.028916324 0.010691866 -0.32315677 0.19972187 -0.52287865
5.5511151e-17 0.027780347 0.011563731 -0.32315677 0.19972187 -0.52287865
0 0.02664078 0.01243843 -0.32315677 0.19972187 -0.52287865
5.5511151e-17 0.025497602 0.013315981 -0.32315677 0.19972187 -0.52287865
0 0.024350788 0.014196403 -0.32315677 0.19972187 -0.52287865
5.5511151e-17 0.023200318 0.015079713 -0.32315677 0.19972187 -0.52287865
0 0.022046164 0.015965931 -0.32315677 0.19972187 -0.52287865
0 0.020888304 0.016855074 -0.32315677 0.19972187 -0.52287865
5.5511151e-17 0.019726716 0.017747162 -0.32315677 0.19972187 -0.52287865
5.5511151e-17 0.018561374 0.018642211 -0.32315677 0.19972187 -0.52287865
5.5511151e-17 0.017392255 0.019540245 -0.32315677 0.19972187 -0.52287865
0 0.016219333 0.020441279 -0.32315677 0.19972187 -0.52287865
0 0.015042585 0.021345332 -0.32315677 0.19972187 -0.52287865
0 0.013861986 0.022252427 -0.32315677 0.19972187 -0.52287865
5.5511151e-17 0.012677509 0.023162581 -0.32315677 0.19972187 -0.52287865
5.5511151e-17 0.011489131 0.024075815 -0.32315677 0.19972187 -0.52287865
5.5511151e-17 0.010296827 0.024992147 -0.32315677 0.19972187 -0.52287865
5.5511151e-17 0.0091005694 0.025911599 -0.32315677 0.19972187 -0.52287865
5.5511151e-17 0.007900333 0.026834192 -0.32315677 0.19972187 -0.52287865
5.5511151e-17 0.0066960929 0.027759945 -0.32315677 0.19972187 -0.52287865
0 0.0054878211 0.028688878 -0.32315677 0.19972187 -0.52287865
5.5511151e-17 0.0042754919 0.029621013 -0.32315677 0.19972187 -0.52287865
0 0.0030590787 0.03055637 -0.32315677 0.19972187 -0.52287865
5.5511151e-17 0.0018385543 0.031494971 -0.32315677 0.19972187 -0.52287865
5.5511151e-17 0.00061389169 0.032436837 -0.32315677 0.19972187 -0.52287865
0.039365944 0.079999998 0.018848076 -0.32315677 0.19972187 -0.52287865
0.036167238 0.079999998 0.014871797 -0.32315677 0.19972187 -0.52287865
0.033016443 0.079999998 0.010955152 -0.32315677 0.19972187 -0.52287865
0.039999999 0.076579429 0.022238689 -0.32315677 0.19972187 -0.52287865
0.026854292 0.079999998 0.0032954128 -0.32315677 0.19972187 -0.52287865
0.024139922 0.079896815 0 -0.32315677 0.19972187 -0.52287865
0.023617821 0.079044171 0 -0.32315677 0.19972187 -0.52287865
0.023095874 0.078191876 0 -0.32315677 0.19972187 -0.52287865
0.02257408 0.077339925 0 -0.32315677 0.19972187 -0.52287865
0.022052435 0.076488316 0 -0.32315677 0.19972187 -0.52287865
0.021530937 0.07563705 0 -0.32315677 0.19972187 -0.52287865
0.021009583 0.074786112 0 -0.32315677 0.19972187 -0.52287865
0.020488372 0.073935501 0 -0.32315677 0.19972187 -0.52287865
0.019967301 0.073085219 0 -0.32315677 0.19972187 -0.52287865
0.019446366 0.072235256 0 -0.32315677 0.19972187 -0.52287865
0.018925564 0.071385615 0 -0.32315677 0.19972187 -0.52287865
0.018404897 0.070536278 0 -0.32315677 0.19972187 -0.52287865
0.017884359 0.069687255 0 -0.32315677 0.19972187 -0.52287865
0.017363947 0.068838537 0 -0.32315677 0.19972187 -0.52287865
0.01684366 0.067990117 0 -0.32315677 0.19972187 -0.52287865
0.016323494 0.067141987 0 -0.32315677 0.19972187 -0.52287865
0.015803449 0.066294156 0 -0.32315677 0.19972187 -0.52287865
0.01528352 0.065446608 0 -0.32315677 0.19972187 -0.52287865
0.014763706 0.06459935 0 -0.32315677 0.19972187 -0.52287865
0.014244005 0.063752368 0 -0.32315677 0.19972187 -0.52287865
0.013724412 0.062905662 0 -0.32315677 0.19972187 -0.52287865
0.013204927 0.062059224 0 -0.32315677 0.19972187 -0.52287865
0.012685547 0.061213054 0 -0.32315677 0.19972187 -0.52287865
0.012166268 0.060367148 0 -0.32315677 0.19972187 -0.52287865
0.011647089 0.059521504 0 -0.32315677 0.19972187 -0.52287865
0.011128007 0.058676112 0 -0.32315677 0.19972187 -0.52287865
0.01060902 0.057830971 0 -0.32315677 0.19972187 -0.52287865
0.010090126 0.056986079 0 -0.32315677 0.19972187 -0.52287865
0.0095713204 0.056141425 0 -0.32315677 0.19972187 -0.52287865
0.0090526035 0.055297013 0 -0.32315677 0.19972187 -0.52287865
0.0085339705 0.054452837 0 -0.32315677 0.19972187 -0.52287865
0.0080154203 0.053608891 0 -0.32315677 0.19972187 -0.52287865
0.0074969498 0.052765172 0 -0.32315677 0.19972187 -0.52287865
0.0069785565 0.051921673 0 -0.32315677 0.19972187 -0.52287865
0.0064602387 0.051078394 0 -0.32315677 0.19972187 -0.52287865
0.0059419931 0.050235331 0 -0.32315677 0.19972187 -0.52287865
0.0054238178 0.049392477 0 -0.32315677 0.19972187 -0.52287865
0.0049057105 0.048549831 0 -0.32315677 0.19972187 -0.52287865
0.0043876679 0.047707386 0 -0.32315677 0.19972187 -0.52287865
0.0038696884 0.046865139 0 -0.32315677 0.19972187 -0.52287865
0.0033517689 0.046023089 0 -0.32315677 0.19972187 -0.52287865
0.0028339075 0.04518123 0 -0.32315677 0.19972187 -0.52287865
0.0023161017 0.044339553 0 -0.32315677 0.19972187 -0.52287865
0.0017983486 0.043498062 0 -0.32315677 0.19972187 -0.52287865
0.0012806462 0.042656749 0 -0.32315677 0.19972187 -0.52287865
0.00076299184 0.041815609 0 -0.32315677 0.19972187 -0.52287865
0.00024538318 0.040974639 0 -0.32315677 0.19972187 -0.52287865
0 0.03999931 0.00044077134 -0.32315677 0.19972187 -0.52287865
0 0.038900197 0.0012809027 -0.32315677 0.19972187 -0.52287865
0 0.037797723 0.0021236732 -0.32315677 0.19972187 -0.52287865
0 0.036691874 0.0029690994 -0.32315677 0.19972187 -0.52287865
0 0.035582628 0.0038171979 -0.32315677 0.19972187 -0.52287865
0 0.034469962 0.0046679853 -0.32315677 0.19972187 -0.52287865
5.5511151e-17 0.03335385 0.0055214781 -0.32315677 0.19972187 -0.52287865
5.5511151e-17 0.032234281 0.0063776937 -0.32315677 0.19972187 -0.52287865
0 0.031111224 0.0072366493 -0.32315677 0.19972187 -0.52287865
5.5511151e-17 0.02998466 0.008098362 -0.32315677 0.19972187 -0.52287865
0 0.028854568 0.0089628482 -0.32315677 0.19972187 -0.52287865
5.5511151e-17 0.027720923 0.0098301275 -0.32315677 0.19972187 -0.52287865
5.5511151e-17 0.026583705 0.010700216 -0.32315677 0.19972187 -0.52287865
0 0.025442889 0.01157313 -0.32315677 0.19972187 -0.52287865
5.5511151e-17 0.024298454 0.012448891 -0.32315677 0.19972187 -0.52287865
0 0.023150375 0.013327515 -0.32315677 0.19972187 -0.52287865
0 0.021998629 0.01420902 -0.32315677 0.19972187 -0.52287865
5.5511151e-17 0.020843195 0.015093424 -0.32315677 0.19972187 -0.52287865
5.5511151e-17 0.019684047 0.015980748 -0.32315677 0.19972187 -0.52287865
5.5511151e-17 0.01852116 0.016871007 -0.32315677 0.19972187 -0.52287865
5.5511151e-17 0.017354513 0.017764224 -0.32315677 0.19972187 -0.52287865
0 0.016184079 0.018660413 -0.32315677 0.19972187 -0.52287865
0 0.015009835 0.019559598 -0.32315677 0.19972187 -0.52287865
5.5511151e-17 0.013831757 0.020461796 -0.32315677 0.19972187 -0.52287865
0 0.012649818 0.021367025 -0.32315677 0.19972187 -0.52287865
5.5511151e-17 0.011463995 0.022275306 -0.32315677 0.19972187 -0.52287865
5.5511151e-17 0.010274262 0.023186659 -0.32315677 0.19972187 -0.52287865
5.5511151e-17 0.0090805935 0.024101105 -0.32315677 0.19972187 -0.52287865
5.5511151e-17 0.0078829629 0.02501866 -0.32315677 0.19972187 -0.52287865
0 0.0066813454 0.025939349 -0.32315677 0.19972187 -0.52287865
5.5511151e-17 0.0054757143 0.026863189 -0.32315677 0.19972187 -0.52287865
0 0.0042660441 0.027790204 -0.32315677 0.19972187 -0.52287865
5.5511151e-17 0.0030523073 0.028720411 -0.32315677 0.19972187 -0.52287865
5.5511151e-17 0.0018344778 0.029653832 -0.32315677 0.19972187 -0.52287865
5.5511151e-17 0.00061252824 0.03059049 -0.32315677 0.19972187 -0.52287865
0.038750611 0.079999998 0.01627031 -0.32315677 0.19972187 -0.52287865
0.035568103 0.079999998 0.012327789 -0.32315677 0.19972187 -0.52287865
0.032433093 0.079999998 0.0084441807 -0.32315677 0.19972187 -0.52287865
0.029344507 0.079999998 0.0046181544 -0.32315677 0.19972187 -0.52287865
0.026301308 0.079999998 0.00084842194 -0.32315677 0.19972187 -0.52287865
0.025212144 0.0793401 0 -0.32315677 0.19972187 -0.52287865
0.024689252 0.078486614 0 -0.32315677 0.19972187 -0.52287865
0.024166519 0.07763347 0 -0.32315677 0.19972187 -0.52287865
0.023643939 0.076780677 0 -0.32315677 0.19972187 -0.52287865
0.023121513 0.075928219 0 -0.32315677 0.19972187 -0.52287865
0.022599237 0.075076103 0 -0.32315677 0.19972187 -0.52287865
0.02207711 0.074224316 0 -0.32315677 0.19972187 -0.52287865
0.021555126 0.073372863 0 -0.32315677 0.19972187 -0.52287865
0.021033285 0.072521731 0 -0.32315677 0.19972187 -0.52287865
0.020511584 0.071670912 0 -0.32315677 0.19972187 -0.52287865
0.01999002 0.070820421 0 -0.32315677 0.19972187 -0.52287865
0.019468591 0.069970235 0 -0.32315677 0.19972187 -0.52287865
0.018947296 0.069120355 0 -0.32315677 0.19972187 -0.52287865
0.01842613 0.06827078 0 -0.32315677 0.19972187 -0.52287865
0.01790509 0.067421503 0 -0.32315677 0.19972187 -0.52287865
0.017384177 0.066572525 0 -0.32315677 0.19972187 -0.52287865
0.016863385 0.065723836 0 -0.32315677 0.19972187 -0.52287865
0.016342713 0.064875439 0 -0.32315677 0.19972187 -0.52287865
0.015822159 0.064027317 0 -0.32315677 0.19972187 -0.52287865
0.01530172 0.063179478 0 -0.32315677 0.19972187 -0.52287865
0.014781393 0.062331911 0 -0.32315677 0.19972187 -0.52287865
0.014261177 0.061484616 0 -0.32315677 0.19972187 -0.52287865
0.013741067 0.06063759 0 -0.32315677 0.19972187 -0.52287865
0.013221063 0.059790824 0 -0.32315677 0.19972187 -0.52287865
0.01270116 0.058944315 0 -0.32315677 0.19972187 -0.52287865
0.012181358 0.058098059 0 -0.32315677 0.19972187 -0.52287865
0.011661653 0.057252057 0 -0.32315677 0.19972187 -0.52287865
0.011142044 0.056406297 0 -0.32315677 0.19972187 -0.52287865
0.010622527 0.055560783 0 -0.32315677 0.19972187 -0.52287865
0.010103101 0.054715503 0 -0.32315677 0.19972187 -0.52287865
0.009583761 0.053870458 0 -0.32315677 0.19972187 -0.52287865
0.0090645067 0.053025644 0 -0.32315677 0.19972187 -0.52287865
0.0085453354 0.052181058 0 -0.32315677 0.19972187 -0.52287865
0.0080262441 0.051336691 0 -0.32315677 0.19972187 -0.52287865
0.0075072311 0.05049254 0 -0.32315677 0.19972187 -0.52287865
0.006988293 0.049648605 0 -0.32315677 0.19972187 -0.52287865
0.0064694276 0.048804879 0 -0.32315677 0.19972187 -0.52287865
0.0059506325 0.047961358 0 -0.32315677 0.19972187 -0.52287865
0.0054319054 0.047118038 0 -0.32315677 0.19972187 -0.52287865
0.0049132435 0.046274915 0 -0.32315677 0.19972187 -0.52287865
0.0043946449 0.045431986 0 -0.32315677 0.19972187 -0.52287865
0.0038761068 0.044589248 0 -0.32315677 0.19972187 -0.52287865
0.003357627 0.043746695 0 -0.32315677 0.19972187 -0.52287865
0.0028392025 0.042904325 0 -0.32315677 0.19972187 -0.52287865
0.0023208314 0.04206213 0 -0.32315677 0.19972187 -0.52287865
0.0018025109 0.04122011 0 -0.32315677 0.19972187 -0.52287865
0.0012842388 0.040378258 0 -0.32315677 0.19972187 -0.52287865
0.00076601253 0.039536573 0 -0.32315677 0.19972187 -0.52287865
0.00024782971 0.038695049 0 -0.32315677 0.19972187 -0.52287865
0 0.037718169 0.00043774041 -0.32315677 0.19972187 -0.52287865
0 0.03661453 0.001278803 -0.32315677 0.19972187 -0.52287865
5.5511151e-17 0.035507504 0.0021225144 -0.32315677 0.19972187 -0.52287865
0 0.034397073 0.0029688915 -0.32315677 0.19972187 -0.52287865
0 0.033283219 0.0038179506 -0.32315677 0.19972187 -0.52287865
0 0.032165911 0.0046697087 -0.32315677 0.19972187 -0.52287865
5.5511151e-17 0.031045133 0.0055241822 -0.32315677 0.19972187 -0.52287865
0 0.029920863 0.0063813892 -0.32315677 0.19972187 -0.52287865
5.5511151e-17 0.02879308 0.0072413459 -0.32315677 0.19972187 -0.52287865
5.5511151e-17 0.027661758 0.0081040701 -0.32315677 0.19972187 -0.52287865
5.5511151e-17 0.026526878 0.0089695789 -0.32315677 0.19972187 -0.52287865
0 0.025388414 0.00983789 -0.32315677 0.19972187 -0.52287865
0 0.024246346 0.010709021 -0.32315677 0.19972187 -0.52287865
0 0.023100652 0.01158299 -0.32315677 0.19972187 -0.52287865
0 0.021951305 0.012459815 -0.32315677 0.19972187 -0.52287865
0 0.020798283 0.013339516 -0.32315677 0.19972187 -0.52287865
5.5511151e-17 0.019641565 0.014222108 -0.32315677 0.19972187 -0.52287865
0 0.018481124 0.01510761 -0.32315677 0.19972187 -0.52287865
5.5511151e-17 0.017316937 0.015996043 -0.32315677 0.19972187 -0.52287865
0 0.016148981 0.016887423 -0.32315677 0.19972187 -0.52287865
0 0.014977232 0.017781772 -0.32315677 0.19972187 -0.52287865
5.5511151e-17 0.013801663 0.018679105 -0.32315677 0.19972187 -0.52287865
0 0.012622251 0.019579444 -0.32315677 0.19972187 -0.52287865
5.5511151e-17 0.011438971 0.02048281 -0.32315677 0.19972187 -0.52287865
5.5511151e-17 0.010251798 0.021389218 -0.32315677 0.19972187 -0.52287865
5.5511151e-17 0.009060706 0.02229869 -0.32315677 0.19972187 -0.52287865
5.5511151e-17 0.0078656701 0.023211248 -0.32315677 0.19972187 -0.52287865
0 0.006666664 0.024126908 -0.32315677 0.19972187 -0.52287865
5.5511151e-17 0.0054636626 0.025045693 -0.32315677 0.19972187 -0.52287865
5.5511151e-17 0.0042566387 0.025967622 -0.32315677 0.19972187 -0.52287865
0 0.0030455666 0.026892716 -0.32315677 0.19972187 -0.52287865
0 0.0018304198 0.027820995 -0.32315677 0.19972187 -0.52287865
5.5511151e-17 0.00061117095 0.028752482 -0.32315677 0.19972187 -0.52287865
0.038139798 0.079999998 0.01371147 -0.32315677 0.19972187 -0.52287865
0.034973335 0.079999998 0.0098023228 -0.32315677 0.19972187 -0.52287865
0.039999999 0.077252872 0.018085854 -0.32315677 0.19972187 -0.52287865
0.028780611 0.079999998 0.0021573154 -0.32315677 0.19972187 -0.52287865
0.026810527 0.079636879 0 -0.32315677 0.19972187 -0.52287865
0.026286678 0.078782186 0 -0.32315677 0.19972187 -0.52287865
0.025762996 0.07792785 0 -0.32315677 0.19972187 -0.52287865
0.025239471 0.077073865 0 -0.32315677 0.19972187 -0.52287865
0.024716107 0.076220214 0 -0.32315677 0.19972187 -0.52287865
0.024192898 0.075366914 0 -0.32315677 0.19972187 -0.52287865
0.023669841 0.074513949 0 -0.32315677 0.19972187 -0.52287865
0.023146935 0.073661312 0 -0.32315677 0.19972187 -0.52287865
0.022624178 0.072809003 0 -0.32315677 0.19972187 -0.52287865
0.022101564 0.071957022 0 -0.32315677 0.19972187 -0.52287865
0.021579096 0.071105354 0 -0.32315677 0.19972187 -0.52287865
0.021056768 0.070254005 0 -0.32315677 0.19972187 -0.52287865
0.020534577 0.06940297 0 -0.32315677 0.19972187 -0.52287865
0.02001252 0.068552233 0 -0.32315677 0.19972187 -0.52287865
0.019490598 0.067701809 0 -0.32315677 0.19972187 -0.52287865
0.018968806 0.066851676 0 -0.32315677 0.19972187 -0.52287865
0.01844714 0.06600184 0 -0.32315677 0.19972187 -0.52287865
0.017925601 0.065152295 0 -0.32315677 0.19972187 -0.52287865
0.017404184 0.064303033 0 -0.32315677 0.19972187 -0.52287865
0.016882889 0.063454054 0 -0.32315677 0.19972187 -0.52287865
0.01636171 0.062605359 0 -0.32315677 0.19972187 -0.52287865
0.015840646 0.061756931 0 -0.32315677 0.19972187 -0.52287865
0.015319697 0.060908776 0 -0.32315677 0.19972187 -0.52287865
0.014798856 0.060060885 0 -0.32315677 0.19972187 -0.52287865
0.014278124 0.059213258 0 -0.32315677 0.19972187 -0.52287865
0.013757497 0.058365885 0 -0.32315677 0.19972187 -0.52287865
0.013236973 0.057518765 0 -0.32315677 0.19972187 -0.52287865
0.012716549 0.056671899 0 -0.32315677 0.19972187 -0.52287865
0.012196222 0.055825274 0 -0.32315677 0.19972187 -0.52287865
0.011675991 0.054978888 0 -0.32315677 0.19972187 -0.52287865
0.011155854 0.054132745 0 -0.32315677 0.19972187 -0.52287865
0.010635806 0.053286832 0 -0.32315677 0.19972187 -0.52287865
0.010115846 0.052441146 0 -0.32315677 0.19972187 -0.52287865
0.0095959725 0.051595688 0 -0.32315677 0.19972187 -0.52287865
0.0090761809 0.050750449 0 -0.32315677 0.19972187 -0.52287865
0.0085564703 0.049905427 0 -0.32315677 0.19972187 -0.52287865
0.008036837 0.049060617 0 -0.32315677 0.19972187 -0.52287865
0.0075172801 0.048216015 0 -0.32315677 0.19972187 -0.52287865
0.0069977962 0.047371622 0 -0.32315677 0.19972187 -0.52287865
0.0064783827 0.046527427 0 -0.32315677 0.19972187 -0.52287865
0.0059590372 0.045683425 0 -0.32315677 0.19972187 -0.52287865
0.0054397574 0.044839621 0 -0.32315677 0.19972187 -0.52287865
0.0049205408 0.043996003 0 -0.32315677 0.19972187 -0.52287865
0.0044013853 0.043152567 0 -0.32315677 0.19972187 -0.52287865
0.0038822878 0.042309314 0 -0.32315677 0.19972187 -0.52287865
0.0033632463 0.041466236 0 -0.32315677 0.19972187 -0.52287865
0.0028442582 0.040623333 0 -0.32315677 0.19972187 -0.52287865
0.0023253211 0.039780598 0 -0.32315677 0.19972187 -0.52287865
0.0018064323 0.038938023 0 -0.32315677 0.19972187 -0.52287865
0.0012875897 0.038095612 0 -0.32315677 0.19972187 -0.52287865
0.00076879055 0.037253357 0 -0.32315677 0.19972187 -0.52287865
0.00025003261 0.036411256 0 -0.32315677 0.19972187 -0.52287865
5.5511151e-17 0.035432704 0.00043510587 -0.32315677 0.19972187 -0.52287865
0 0.034324501 0.0012771025 -0.32315677 0.19972187 -0.52287865
0 0.033212885 0.0021217577 -0.32315677 0.19972187 -0.52287865
5.5511151e-17 0.032097835 0.0029690885 -0.32315677 0.19972187 -0.52287865
5.5511151e-17 0.030979328 0.0038191113 -0.32315677 0.19972187 -0.52287865
5.5511151e-17 0.029857343 0.0046718428 -0.32315677 0.19972187 -0.52287865
0 0.028731858 0.0055273003 -0.32315677 0.19972187 -0.52287865
0 0.02760285 0.006385501 -0.32315677 0.19972187 -0.52287865
0 0.026470296 0.0072464622 -0.32315677 0.19972187 -0.52287865
0 0.025334178 0.008110201 -0.32315677 0.19972187 -0.52287865
5.5511151e-17 0.024194468 0.0089767352 -0.32315677 0.19972187 -0.52287865
0 0.023051145 0.009846082 -0.32315677 0.19972187 -0.52287865
0 0.021904185 0.01071826 -0.32315677 0.19972187 -0.52287865
0 0.020753568 0.011593287 -0.32315677 0.19972187 -0.52287865
5.5511151e-17 0.019599268 0.01247118 -0.32315677 0.19972187 -0.52287865
0 0.018441264 0.01335196 -0.32315677 0.19972187 -0.52287865
5.5511151e-17 0.017279528 0.014235642 -0.32315677 0.19972187 -0.52287865
5.5511151e-17 0.016114037 0.015122247 -0.32315677 0.19972187 -0.52287865
5.5511151e-17 0.014944771 0.016011791 -0.32315677 0.19972187 -0.52287865
5.5511151e-17 0.013771702 0.016904298 -0.32315677 0.19972187 -0.52287865
5.5511151e-17 0.012594805 0.017799782 -0.32315677 0.19972187 -0.52287865
5.5511151e-17 0.011414058 0.018698264 -0.32315677 0.19972187 -0.52287865
5.5511151e-17 0.010229433 0.019599762 -0.32315677 0.19972187 -0.52287865
5.5511151e-17 0.009040907 0.020504298 -0.32315677 0.19972187 -0.52287865
0 0.0078484537 0.02141189 -0.32315677 0.19972187 -0.52287865
0 0.0066520483 0.022322558 -0.32315677 0.19972187 -0.52287865
0 0.0054516639 0.023236321 -0.32315677 0.19972187 -0.52287865
5.5511151e-17 0.0042472756 0.024153203 -0.32315677 0.19972187 -0.52287865
0 0.0030388562 0.025073219 -0.32315677 0.19972187 -0.52287865
0 0.0018263798 0.025996393 -0.32315677 0.19972187 -0.52287865
5.5511151e-17 0.00060981978 0.026922746 -0.32315677 0.19972187 -0.52287865
0.037533451 0.079999998 0.011171338 -0.32315677 0.19972187 -0.52287865
0.034382883 0.079999998 0.0072951843 -0.32315677 0.19972187 -0.52287865
0.039999999 0.077054203 0.016427657 -0.32315677 0.19972187 -0.52287865
0.028412998 0.079934493 0 -0.32315677 0.19972187 -0.52287865
0.027888184 0.0790786 0 -0.32315677 0.19972187 -0.52287865
0.027363539 0.078223065 0 -0.32315677 0.19972187 -0.52287865
0.026839061 0.077367879 0 -0.32315677 0.19972187 -0.52287865
0.026314747 0.076513045 0 -0.32315677 0.19972187 -0.52287865
0.025790593 0.075658545 0 -0.32315677 0.19972187 -0.52287865
0.025266599 0.074804395 0 -0.32315677 0.19972187 -0.52287865
0.02474276 0.073950574 0 -0.32315677 0.19972187 -0.52287865
0.024219075 0.073097087 0 -0.32315677 0.19972187 -0.52287865
0.02369554 0.072243929 0 -0.32315677 0.19972187 -0.52287865
0.023172155 0.071391091 0 -0.32315677 0.19972187 -0.52287865
0.022648916 0.070538573 0 -0.32315677 0.19972187 -0.52287865
0.02212582 0.069686368 0 -0.32315677 0.19972187 -0.52287865
0.021602863 0.068834476 0 -0.32315677 0.19972187 -0.52287865
0.021080047 0.06798289 0 -0.32315677 0.19972187 -0.52287865
0.020557364 0.067131601 0 -0.32315677 0.19972187 -0.52287865
0.020034816 0.066280618 0 -0.32315677 0.19972187 -0.52287865
0.0195124 0.065429926 0 -0.32315677 0.19972187 -0.52287865
0.018990111 0.064579517 0 -0.32315677 0.19972187 -0.52287865
0.018467946 0.063729398 0 -0.32315677 0.19972187 -0.52287865
0.017945906 0.062879562 0 -0.32315677 0.19972187 -0.52287865
0.017423987 0.062029999 0 -0.32315677 0.19972187 -0.52287865
0.016902186 0.061180711 0 -0.32315677 0.19972187 -0.52287865
0.0163805 0.060331695 0 -0.32315677 0.19972187 -0.52287865
0.015858926 0.05948294 0 -0.32315677 0.19972187 -0.52287865
0.015337464 0.058634445 0 -0.32315677 0.19972187 -0.52287865
0.01481611 0.057786208 0 -0.32315677 0.19972187 -0.52287865
0.014294862 0.056938224 0 -0.32315677 0.19972187 -0.52287865
0.013773717 0.056090489 0 -0.32315677 0.19972187 -0.52287865
0.013252672 0.055242997 0 -0.32315677 0.19972187 -0.52287865
0.012731725 0.054395746 0 -0.32315677 0.19972187 -0.52287865
0.012210875 0.053548731 0 -0.32315677 0.19972187 -0.52287865
0.011690117 0.052701946 0 -0.32315677 0.19972187 -0.52287865
0.01116945 0.051855389 0 -0.32315677 0.19972187 -0.52287865
0.010648872 0.051009059 0 -0.32315677 0.19972187 -0.52287865
0.010128378 0.050162945 0 -0.32315677 0.19972187 -0.52287865
0.0096079689 0.049317051 0 -0.32315677 0.19972187 -0.52287865
0.0090876389 0.048471365 0 -0.32315677 0.19972187 -0.52287865
0.0085673882 0.047625888 0 -0.32315677 0.19972187 -0.52287865
0.0080472138 0.046780616 0 -0.32315677 0.19972187 -0.52287865
0.007527112 0.045935541 0 -0.32315677 0.19972187 -0.52287865
0.0070070811 0.045090664 0 -0.32315677 0.19972187 -0.52287865
0.0064871185 0.044245977 0 -0.32315677 0.19972187 -0.52287865
0.0059672222 0.043401476 0 -0.32315677 0.19972187 -0.52287865
0.0054473891 0.042557161 0 -0.32315677 0.19972187 -0.52287865
0.004927617 0.041713025 0 -0.32315677 0.19972187 -0.52287865
0.0044079032 0.040869061 0 -0.32315677 0.19972187 -0.52287865
0.0038882459 0.040025271 0 -0.32315677 0.19972187 -0.52287865
0.0033686419 0.03918165 0 -0.32315677 0.19972187 -0.52287865
0.0028490892 0.038338192 0 -0.32315677 0.19972187 -0.52287865
0.0023295851 0.03749489 0 -0.32315677 0.19972187 -0.52287865
0.0018101272 0.036651745 0 -0.32315677 0.19972187 -0.52287865
0.0012907131 0.035808753 0 -0.32315677 0.19972187 -0.52287865
0.00077134022 0.034965906 0 -0.32315677 0.19972187 -0.52287865
0.00025200628 0.034123205 0 -0.32315677 0.19972187 -0.52287865
0 0.033142857 0.00043284442 -0.32315677 0.19972187 -0.52287865
5.5511151e-17 0.032030053 0.0012757778 -0.32315677 0.19972187 -0.52287865
5.5511151e-17 0.030913807 0.0021213798 -0.32315677 0.19972187 -0.52287865
0 0.029794097 0.0029696668 -0.32315677 0.19972187 -0.52287865
0 0.0286709 0.0038206561 -0.32315677 0.19972187 -0.52287865
5.5511151e-17 0.027544197 0.0046743643 -0.32315677 0.19972187 -0.52287865
5.5511151e-17 0.026413962 0.0055308091 -0.32315677 0.19972187 -0.52287865
5.5511151e-17 0.025280174 0.0063900067 -0.32315677 0.19972187 -0.52287865
5.5511151e-17 0.024142813 0.0072519751 -0.32315677 0.19972187 -0.52287865
5.5511151e-17 0.023001853 0.0081167324 -0.32315677 0.19972187 -0.52287865
0 0.021857273 0.0089842947 -0.32315677 0.19972187 -0.52287865
5.5511151e-17 0.020709049 0.0098546809 -0.32315677 0.19972187 -0.52287865
0 0.019557158 0.010727909 -0.32315677 0.19972187 -0.52287865
0 0.018401576 0.011603996 -0.32315677 0.19972187 -0.52287865
0 0.017242281 0.012482962 -0.32315677 0.19972187 -0.52287865
5.5511151e-17 0.016079249 0.013364824 -0.32315677 0.19972187 -0.52287865
5.5511151e-17 0.014912453 0.0142496 -0.32315677 0.19972187 -0.52287865
5.5511151e-17 0.013741872 0.01513731 -0.32315677 0.19972187 -0.52287865
5.5511151e-17 0.012567481 0.016027972 -0.32315677 0.19972187 -0.52287865
5.5511151e-17 0.011389255 0.016921606 -0.32315677 0.19972187 -0.52287865
5.5511151e-17 0.010207168 0.017818229 -0.32315677 0.19972187 -0.52287865
5.5511151e-17 0.0090211965 0.018717863 -0.32315677 0.19972187 -0.52287865
5.5511151e-17 0.0078313146 0.019620525 -0.32315677 0.19972187 -0.52287865
5.5511151e-17 0.0066374973 0.020526236 -0.32315677 0.19972187 -0.52287865
0 0.0054397192 0.021435015 -0.32315677 0.19972187 -0.52287865
0 0.004237954 0.022346884 -0.32315677 0.19972187 -0.52287865
5.5511151e-17 0.0030321756 0.02326186 -0.32315677 0.19972187 -0.52287865
0 0.0018223581 0.024179963 -0.32315677 0.19972187 -0.52287865
0 0.00060847471 0.025101218 -0.32315677 0.19972187 -0.52287865
0.036931518 0.079999998 0.0086496975 -0.32315677 0.19972187 -0.52287865
0.033796698 0.079999998 0.0048061619 -0.32315677 0.19972187 -0.52287865
0.039999999 0.076856323 0.014776023 -0.32315677 0.19972187 -0.52287865
0.029493799 0.079375856 0 -0.32315677 0.19972187 -0.52287865
0.028968183 0.078519113 0 -0.32315677 0.19972187 -0.52287865
0.028442739 0.077662729 0 -0.32315677 0.19972187 -0.52287865
0.027917463 0.076806694 0 -0.32315677 0.19972187 -0.52287865
0.027392356 0.075951003 0 -0.32315677 0.19972187 -0.52287865
0.026867412 0.075095661 0 -0.32315677 0.19972187 -0.52287865
0.02634263 0.074240655 0 -0.32315677 0.19972187 -0.52287865
0.025818007 0.073385984 0 -0.32315677 0.19972187 -0.52287865
0.02529354 0.072531641 0 -0.32315677 0.19972187 -0.52287865
0.024769228 0.071677633 0 -0.32315677 0.19972187 -0.52287865
0.024245067 0.070823938 0 -0.32315677 0.19972187 -0.52287865
0.023721054 0.069970563 0 -0.32315677 0.19972187 -0.52287865
0.023197189 0.069117501 0 -0.32315677 0.19972187 -0.52287865
0.022673467 0.068264753 0 -0.32315677 0.19972187 -0.52287865
0.022149885 0.067412309 0 -0.32315677 0.19972187 -0.52287865
0.021626443 0.066560164 0 -0.32315677 0.19972187 -0.52287865
0.021103138 0.065708317 0 -0.32315677 0.19972187 -0.52287865
0.020579966 0.064856768 0 -0.32315677 0.19972187 -0.52287865
0.020056924 0.064005502 0 -0.32315677 0.19972187 -0.52287865
0.019534012 0.063154519 0 -0.32315677 0.19972187 -0.52287865
0.019011226 0.062303819 0 -0.32315677 0.19972187 -0.52287865
0.018488564 0.061453398 0 -0.32315677 0.19972187 -0.52287865
0.017966021 0.060603246 0 -0.32315677 0.19972187 -0.52287865
0.017443597 0.059753362 0 -0.32315677 0.19972187 -0.52287865
0.016921291 0.058903743 0 -0.32315677 0.19972187 -0.52287865
0.016399097 0.058054384 0 -0.32315677 0.19972187 -0.52287865
0.015877014 0.057205278 0 -0.32315677 0.19972187 -0.52287865
0.015355039 0.056356426 0 -0.32315677 0.19972187 -0.52287865
0.014833171 0.055507824 0 -0.32315677 0.19972187 -0.52287865
0.014311406 0.05465946 0 -0.32315677 0.19972187 -0.52287865
0.013789742 0.053811338 0 -0.32315677 0.19972187 -0.52287865
0.013268176 0.052963451 0 -0.32315677 0.19972187 -0.52287865
0.012746707 0.052115794 0 -0.32315677 0.19972187 -0.52287865
0.012225331 0.051268365 0 -0.32315677 0.19972187 -0.52287865
0.011704045 0.05042116 0 -0.32315677 0.19972187 -0.52287865
0.011182849 0.049574174 0 -0.32315677 0.19972187 -0.52287865
0.010661738 0.048727401 0 -0.32315677 0.19972187 -0.52287865
0.010140711 0.04788084 0 -0.32315677 0.19972187 -0.52287865
0.009619765 0.047034483 0 -0.32315677 0.19972187 -0.52287865
0.0090988977 0.046188332 0 -0.32315677 0.19972187 -0.52287865
0.0085781058 0.045342378 0 -0.32315677 0.19972187 -0.52287865
0.0080573875 0.044496618 0 -0.32315677 0.19972187 -0.52287865
0.007536741 0.043651052 0 -0.32315677 0.19972187 -0.52287865
0.0070161624 0.042805668 0 -0.32315677 0.19972187 -0.52287865
0.0064956504 0.04196047 0 -0.32315677 0.19972187 -0.52287865
0.0059752022 0.041115448 0 -0.32315677 0.19972187 -0.52287865
0.005454815 0.0402706 0 -0.32315677 0.19972187 -0.52287865
0.0049344865 0.039425921 0 -0.32315677 0.19972187 -0.52287865
0.0044142138 0.038581412 0 -0.32315677 0.19972187 -0.52287865
0.0038939954 0.037737064 0 -0.32315677 0.19972187 -0.52287865
0.0033738283 0.036892872 0 -0.32315677 0.19972187 -0.52287865
0.00285371 0.036048837 0 -0.32315677 0.19972187 -0.52287865
0.0023336383 0.035204951 0 -0.32315677 0.19972187 -0.52287865
0.0018136102 0.03436121 0 -0.32315677 0.19972187 -0.52287865
0.0012936237 0.03351761 0 -0.32315677 0.19972187 -0.52287865
0.00077367615 0.032674152 0 -0.32315677 0.19972187 -0.52287865
0.0002537652 0.031830825 0 -0.32315677 0.19972187 -0.52287865
0 0.030848566 0.00043093259 -0.32315677 0.19972187 -0.52287865
5.5511151e-17 0.029731121 0.0012748055 -0.32315677 0.19972187 -0.52287865
5.5511151e-17 0.028610205 0.0021213568 -0.32315677 0.19972187 -0.52287865
5.5511151e-17 0.027485795 0.0029706033 -0.32315677 0.19972187 -0.52287865
0 0.026357869 0.0038225621 -0.32315677 0.19972187 -0.52287865
5.5511151e-17 0.025226405 0.0046772501 -0.32315677 0.19972187 -0.52287865
5.5511151e-17 0.024091382 0.0055346843 -0.32315677 0.19972187 -0.52287865
5.5511151e-17 0.022952776 0.0063948822 -0.32315677 0.19972187 -0.52287865
0 0.021810563 0.0072578611 -0.32315677 0.19972187 -0.52287865
5.5511151e-17 0.020664724 0.008123639 -0.32315677 0.19972187 -0.52287865
5.5511151e-17 0.019515231 0.0089922333 -0.32315677 0.19972187 -0.52287865
0 0.018362064 0.0098636625 -0.32315677 0.19972187 -0.52287865
0 0.017205199 0.010737943 -0.32315677 0.19972187 -0.52287865
0 0.016044611 0.011615095 -0.32315677 0.19972187 -0.52287865
5.5511151e-17 0.014880277 0.012495136 -0.32315677 0.19972187 -0.52287865
0 0.013712174 0.013378084 -0.32315677 0.19972187 -0.52287865
5.5511151e-17 0.012540276 0.014263958 -0.32315677 0.19972187 -0.52287865
5.5511151e-17 0.011364561 0.015152777 -0.32315677 0.19972187 -0.52287865
0 0.010185 0.016044559 -0.32315677 0.19972187 -0.52287865
0 0.0090015726 0.016939325 -0.32315677 0.19972187 -0.52287865
5.5511151e-17 0.0078142509 0.017837092 -0.32315677 0.19972187 -0.52287865
0 0.0066230111 0.018737881 -0.32315677 0.19972187 -0.52287865
5.5511151e-17 0.0054278276 0.01964171 -0.32315677 0.19972187 -0.52287865
5.5511151e-17 0.0042286739 0.020548601 -0.32315677 0.19972187 -0.52287865
5.5511151e-17 0.003025525 0.021458572 -0.32315677 0.19972187 -0.52287865
5.5511151e-17 0.0018183542 0.022371642 -0.32315677 0.19972187 -0.52287865
5.5511151e-17 0.00060713559 0.023287835 -0.32315677 0.19972187 -0.52287865
0.039500102 0.079999998 0.01001503 -0.32315677 0.19972187 -0.52287865
0.036333945 0.079999998 0.006146335 -0.32315677 0.19972187 -0.52287865
0.033214729 0.079999998 0.0023350485 -0.32315677 0.19972187 -0.52287865
0.031103557 0.079673953 0 -0.32315677 0.19972187 -0.52287865
0.030576959 0.078815997 0 -0.32315677 0.19972187 -0.52287865
0.030050537 0.077958405 0 -0.32315677 0.19972187 -0.52287865
0.029524291 0.077101171 0 -0.32315677 0.19972187 -0.52287865
0.028998217 0.07624428 0 -0.32315677 0.19972187 -0.52287865
0.028472312 0.075387739 0 -0.32315677 0.19972187 -0.52287865
0.027946576 0.074531548 0 -0.32315677 0.19972187 -0.52287865
0.027421003 0.073675685 0 -0.32315677 0.19972187 -0.52287865
0.026895594 0.072820164 0 -0.32315677 0.19972187 -0.52287865
0.026370345 0.071964964 0 -0.32315677 0.19972187 -0.52287865
0.02584525 0.0711101 0 -0.32315677 0.19972187 -0.52287865
0.025320312 0.070255548 0 -0.32315677 0.19972187 -0.52287865
0.024795525 0.069401316 0 -0.32315677 0.19972187 -0.52287865
0.024270888 0.068547398 0 -0.32315677 0.19972187 -0.52287865
0.023746397 0.067693792 0 -0.32315677 0.19972187 -0.52287865
0.023222052 0.066840485 0 -0.32315677 0.19972187 -0.52287865
0.022697845 0.065987483 0 -0.32315677 0.19972187 -0.52287865
0.022173781 0.065134779 0 -0.32315677 0.19972187 -0.52287865
0.021649852 0.064282365 0 -0.32315677 0.19972187 -0.52287865
0.021126056 0.063430235 0 -0.32315677 0.19972187 -0.52287865
0.020602394 0.062578395 0 -0.32315677 0.19972187 -0.52287865
0.020078858 0.061726831 0 -0.32315677 0.19972187 -0.52287865
0.019555451 0.060875542 0 -0.32315677 0.19972187 -0.52287865
0.019032167 0.060024526 0 -0.32315677 0.19972187 -0.52287865
0.018509004 0.059173774 0 -0.32315677 0.19972187 -0.52287865
0.01798596 0.05832329 0 -0.32315677 0.19972187 -0.52287865
0.017463032 0.05747306 0 -0.32315677 0.19972187 -0.52287865
0.016940219 0.05662309 0 -0.32315677 0.19972187 -0.52287865
0.016417516 0.055773366 0 -0.32315677 0.19972187 -0.52287865
0.015894923 0.054923892 0 -0.32315677 0.19972187 -0.52287865
0.015372436 0.05407466 0 -0.32315677 0.19972187 -0.52287865
0.014850053 0.053225666 0 -0.32315677 0.19972187 -0.52287865
0.014327771 0.052376904 0 -0.32315677 0.19972187 -0.52287865
0.013805588 0.051528376 0 -0.32315677 0.19972187 -0.52287865
0.0132835 0.050680071 0 -0.32315677 0.19972187 -0.52287865
0.012761507 0.04983199 0 -0.32315677 0.19972187 -0.52287865
0.012239605 0.048984125 0 -0.32315677 0.19972187 -0.52287865
0.011717792 0.048136476 0 -0.32315677 0.19972187 -0.52287865
0.011196065 0.047289036 0 -0.32315677 0.19972187 -0.52287865
0.010674422 0.046441801 0 -0.32315677 0.19972187 -0.52287865
0.01015286 0.045594767 0 -0.32315677 0.19972187 -0.52287865
0.0096313767 0.044747934 0 -0.32315677 0.19972187 -0.52287865
0.0091099693 0.043901291 0 -0.32315677 0.19972187 -0.52287865
0.0085886363 0.043054838 0 -0.32315677 0.19972187 -0.52287865
0.008067375 0.042208571 0 -0.32315677 0.19972187 -0.52287865
0.0075461818 0.041362483 0 -0.32315677 0.19972187 -0.52287865
0.0070250556 0.040516578 0 -0.32315677 0.19972187 -0.52287865
0.0065039927 0.03967084 0 -0.32315677 0.19972187 -0.52287865
0.0059829918 0.038825274 0 -0.32315677 0.19972187 -0.52287865
0.0054620495 0.037979875 0 -0.32315677 0.19972187 -0.52287865
0.0049411636 0.037134632 0 -0.32315677 0.19972187 -0.52287865
0.0044203317 0.03628955 0 -0.32315677 0.19972187 -0.52287865
0.0038995515 0.035444621 0 -0.32315677 0.19972187 -0.52287865
0.0033788201 0.034599841 0 -0.32315677 0.19972187 -0.52287865
0.0028581354 0.033755206 0 -0.32315677 0.19972187 -0.52287865
0.0023374949 0.032910708 0 -0.32315677 0.19972187 -0.52287865
0.0018168958 0.032066353 0 -0.32315677 0.19972187 -0.52287865
0.0012963359 0.031222126 0 -0.32315677 0.19972187 -0.52287865
0.00077581278 0.030378031 0 -0.32315677 0.19972187 -0.52287865
0.00025532386 0.029534059 0 -0.32315677 0.19972187 -0.52287865
0 0.02854977 0.00042934698 -0.32315677 0.19972187 -0.52287865
5.5511151e-17 0.027427645 0.0012741621 -0.32315677 0.19972187 -0.52287865
5.5511151e-17 0.026302019 0.0021216655 -0.32315677 0.19972187 -0.52287865
5.5511151e-17 0.025172869 0.0029718743 -0.32315677 0.19972187 -0.52287865
5.5511151e-17 0.024040174 0.0038248051 -0.32315677 0.19972187 -0.52287865
5.5511151e-17 0.02290391 0.0046804757 -0.32315677 0.19972187 -0.52287865
5.5511151e-17 0.021764057 0.0055389022 -0.32315677 0.19972187 -0.52287865
5.5511151e-17 0.02062059 0.0064001037 -0.32315677 0.19972187 -0.52287865
5.5511151e-17 0.019473486 0.0072640963 -0.32315677 0.19972187 -0.52287865
0 0.018322723 0.0081308987 -0.32315677 0.19972187 -0.52287865
0 0.017168278 0.0090005277 -0.32315677 0.19972187 -0.52287865
5.5511151e-17 0.016010124 0.0098730018 -0.32315677 0.19972187 -0.52287865
5.5511151e-17 0.014848243 0.01074834 -0.32315677 0.19972187 -0.52287865
5.5511151e-17 0.013682606 0.011626559 -0.32315677 0.19972187 -0.52287865
5.5511151e-17 0.012513191 0.012507678 -0.32315677 0.19972187 -0.52287865
0 0.011339975 0.013391716 -0.32315677 0.19972187 -0.52287865
5.5511151e-17 0.010162931 0.014278691 -0.32315677 0.19972187 -0.52287865
0 0.0089820353 0.015168623 -0.32315677 0.19972187 -0.52287865
0 0.0077972626 0.01606153 -0.32315677 0.19972187 -0.52287865
0 0.0066085891 0.01695743 -0.32315677 0.19972187 -0.52287865
5.5511151e-17 0.0054159882 0.017856345 -0.32315677 0.19972187 -0.52287865
0 0.0042194352 0.018758293 -0.32315677 0.19972187 -0.52287865
5.5511151e-17 0.0030189038 0.019663293 -0.32315677 0.19972187 -0.52287865
