# .PCD v0.7 - Point Cloud Data file format
VERSION 0.7
FIELDS x y z vp_x vp_y vp_z
SIZE 4 4 4 4 4 4
TYPE F F F F F F
COUNT 1 1 1 1 1 1
WIDTH 780
HEIGHT 1
VIEWPOINT 0 0 0 1 0 0 0
POINTS 780
DATA ascii
0.019686216 0 0.025234058 -0.19972187 -0.52287865 0.32315677
0.020765044 0 0.025033016 -0.19972187 -0.52287865 0.32315677
0.021845436 0 0.024831751 -0.19972187 -0.52287865 0.32315677
0.022927402 0 0.024630262 -0.19972187 -0.52287865 0.32315677
0.024010949 0 0.024428548 -0.19972187 -0.52287865 0.32315677
0.025096087 0 0.024226608 -0.19972187 -0.52287865 0.32315677
0.026182823 0 0.024024438 -0.19972187 -0.52287865 0.32315677
0.027271168 0 0.023822039 -0.19972187 -0.52287865 0.32315677
0.028361129 0 0.02361941 -0.19972187 -0.52287865 0.32315677
0.029452713 0 0.023416549 -0.19972187 -0.52287865 0.32315677
0.030545933 0 0.023213452 -0.19972187 -0.52287865 0.32315677
0.031640794 0 0.023010122 -0.19972187 -0.52287865 0.32315677
0.032737307 0 0.022806551 -0.19972187 -0.52287865 0.32315677
0.033835482 0 0.022602744 -0.19972187 -0.52287865 0.32315677
0.034935322 0 0.022398699 -0.19972187 -0.52287865 0.32315677
0.036036842 0 0.02219441 -0.19972187 -0.52287865 0.32315677
0.037140049 0 0.021989878 -0.19972187 -0.52287865 0.32315677
0.038244952 0 0.021785103 -0.19972187 -0.52287865 0.32315677
0.03935156 0 0.021580081 -0.19972187 -0.52287865 0.32315677
0 0.055679377 0.00037002974 -0.19972187 -0.52287865 0.32315677
0 0.052404836 0.0019828323 -0.19972187 -0.52287865 0.32315677
0 0.049163148 0.0035795267 -0.19972187 -0.52287865 0.32315677
0.0032410338 0.055184662 0 -0.19972187 -0.52287865 0.32315677
0 0.042776302 0.00672558 -0.19972187 -0.52287865 0.32315677
0 0.03963016 0.0082754213 -0.19972187 -0.52287865 0.32315677
0 0.036514901 0.009810118 -0.19972187 -0.52287865 0.32315677
0 0.033430062 0.0113299 -0.19972187 -0.52287865 0.32315677
0 0.030375179 0.012834991 -0.19972187 -0.52287865 0.32315677
0.0092644086 0.052873008 0 -0.19972187 -0.52287865 0.32315677
0 0.024353508 0.015801977 -0.19972187 -0.52287865 0.32315677
0 0.021385849 0.017264297 -0.19972187 -0.52287865 0.32315677
0 0.018446406 0.018712781 -0.19972187 -0.52287865 0.32315677
0.013279874 0.051334862 0 -0.19972187 -0.52287865 0.32315677
0 0.012650529 0.021569049 -0.19972187 -0.52287865 0.32315677
0 0.009793289 0.022977225 -0.19972187 -0.52287865 0.32315677
0 0.0069626579 0.024372354 -0.19972187 -0.52287865 0.32315677
0.017295646 0.049798936 0 -0.19972187 -0.52287865 0.32315677
0.018299675 0.049415283 0 -0.19972187 -0.52287865 0.32315677
0.00052596361 0 0.027705293 -0.19972187 -0.52287865 0.32315677
0.0015789522 0 0.027507097 -0.19972187 -0.52287865 0.32315677
0.0026333623 0 0.027308697 -0.19972187 -0.52287865 0.32315677
0.0036892018 0 0.027110094 -0.19972187 -0.52287865 0.32315677
0.0047464785 0 0.026911287 -0.19972187 -0.52287865 0.32315677
0.0058052004 0 0.026712274 -0.19972187 -0.52287865 0.32315677
0.0068653752 0 0.026513055 -0.19972187 -0.52287865 0.32315677
0.0079270108 0 0.026313625 -0.19972187 -0.52287865 0.32315677
0.0089901155 0 0.026113987 -0.19972187 -0.52287865 0.32315677
0.010054697 0 0.025914138 -0.19972187 -0.52287865 0.32315677
0.011120765 0 0.025714075 -0.19972187 -0.52287865 0.32315677
0.012188325 0 0.0255138 -0.19972187 -0.52287865 0.32315677
0.013257386 0 0.025313307 -0.19972187 -0.52287865 0.32315677
0.014327956 0 0.025112599 -0.19972187 -0.52287865 0.32315677
0.015400046 0 0.024911672 -0.19972187 -0.52287865 0.32315677
0.01647366 0 0.024710525 -0.19972187 -0.52287865 0.32315677
0.017548809 0 0.024509158 -0.19972187 -0.52287865 0.32315677
0.0186255 0 0.024307568 -0.19972187 -0.52287865 0.32315677
0.019703742 0 0.024105754 -0.19972187 -0.52287865 0.32315677
0.020783544 0 0.023903714 -0.19972187 -0.52287865 0.32315677
0.021864912 0 0.023701448 -0.19972187 -0.52287865 0.32315677
0.022947857 0 0.023498954 -0.19972187 -0.52287865 0.32315677
0.024032388 0 0.02329623 -0.19972187 -0.52287865 0.32315677
0.025118509 0 0.023093276 -0.19972187 -0.52287865 0.32315677
0.026206234 0 0.022890087 -0.19972187 -0.52287865 0.32315677
0.027295571 0 0.022686666 -0.19972187 -0.52287865 0.32315677
0.028386526 0 0.02248301 -0.19972187 -0.52287865 0.32315677
0.029479109 0 0.022279115 -0.19972187 -0.52287865 0.32315677
0.030573329 0 0.022074983 -0.19972187 -0.52287865 0.32315677
0.031669192 0 0.021870611 -0.19972187 -0.52287865 0.32315677
0.032766711 0 0.021665998 -0.19972187 -0.52287865 0.32315677
0.033865895 0 0.02146114 -0.19972187 -0.52287865 0.32315677
0.034966748 0 0.021256039 -0.19972187 -0.52287865 0.32315677
0.036069285 0 0.021050693 -0.19972187 -0.52287865 0.32315677
0.03717351 0 0.020845098 -0.19972187 -0.52287865 0.32315677
0.038279437 0 0.020639256 -0.19972187 -0.52287865 0.32315677
0.03938707 0 0.020433161 -0.19972187 -0.52287865 0.32315677
0.00046326936 0.053789511 0 -0.19972187 -0.52287865 0.32315677
0.0014644394 0.053404734 0 -0.19972187 -0.52287865 0.32315677
0.002465568 0.053020112 0 -0.19972187 -0.52287865 0.32315677
0 0.04281662 0.0055134743 -0.19972187 -0.52287865 0.32315677
0 0.039667331 0.0070707547 -0.19972187 -0.52287865 0.32315677
0 0.036548983 0.0086128013 -0.19972187 -0.52287865 0.32315677
0.0064697741 0.051483136 0 -0.19972187 -0.52287865 0.32315677
0 0.030403255 0.01165211 -0.19972187 -0.52287865 0.32315677
0 0.027374964 0.013149818 -0.19972187 -0.52287865 0.32315677
0 0.024375802 0.014633189 -0.19972187 -0.52287865 0.32315677
0 0.021405332 0.016102431 -0.19972187 -0.52287865 0.32315677
0.011474737 0.049565155 0 -0.19972187 -0.52287865 0.32315677
0.012475744 0.049181972 0 -0.19972187 -0.52287865 0.32315677
0 0.012661891 0.020427467 -0.19972187 -0.52287865 0.32315677
0.014477813 0.048415996 0 -0.19972187 -0.52287865 0.32315677
0 0.0069688531 0.02324391 -0.19972187 -0.52287865 0.32315677
0 0.0041619358 0.024632633 -0.19972187 -0.52287865 0.32315677
0 0.0013809151 0.026008608 -0.19972187 -0.52287865 0.32315677
0.00052642636 0 0.026592389 -0.19972187 -0.52287865 0.32315677
0.0015803423 0 0.026393266 -0.19972187 -0.52287865 0.32315677
0.0026356822 0 0.026193937 -0.19972187 -0.52287865 0.32315677
0.0036924542 0 0.025994403 -0.19972187 -0.52287865 0.32315677
0.0047506657 0 0.025794659 -0.19972187 -0.52287865 0.32315677
0.0058103255 0 0.025594706 -0.19972187 -0.52287865 0.32315677
0.0068714404 0 0.02539454 -0.19972187 -0.52287865 0.32315677
0.007934019 0 0.025194163 -0.19972187 -0.52287865 0.32315677
0.008998069 0 0.024993571 -0.19972187 -0.52287865 0.32315677
0.010063599 0 0.024792764 -0.19972187 -0.52287865 0.32315677
0.011130616 0 0.02459174 -0.19972187 -0.52287865 0.32315677
0.01219913 0 0.024390496 -0.19972187 -0.52287865 0.32315677
0.013269147 0 0.024189034 -0.19972187 -0.52287865 0.32315677
0.014340676 0 0.023987353 -0.19972187 -0.52287865 0.32315677
0.015413727 0 0.023785446 -0.19972187 -0.52287865 0.32315677
0.016488304 0 0.023583317 -0.19972187 -0.52287865 0.32315677
0.017564422 0 0.023380963 -0.19972187 -0.52287865 0.32315677
0.018642081 0 0.023178382 -0.19972187 -0.52287865 0.32315677
0.019721296 0 0.022975571 -0.19972187 -0.52287865 0.32315677
0.020802073 0 0.022772532 -0.19972187 -0.52287865 0.32315677
0.021884421 0 0.022569261 -0.19972187 -0.52287865 0.32315677
0.022968346 0 0.02236576 -0.19972187 -0.52287865 0.32315677
0.02405386 0 0.022162022 -0.19972187 -0.52287865 0.32315677
0.025140971 0 0.021958051 -0.19972187 -0.52287865 0.32315677
0.026229687 0 0.021753842 -0.19972187 -0.52287865 0.32315677
0.027320014 0 0.021549394 -0.19972187 -0.52287865 0.32315677
0.028411966 0 0.021344706 -0.19972187 -0.52287865 0.32315677
0.029505547 0 0.021139776 -0.19972187 -0.52287865 0.32315677
0.030600769 0 0.020934606 -0.19972187 -0.52287865 0.32315677
0.031697638 0 0.02072919 -0.19972187 -0.52287865 0.32315677
0.032796167 0 0.020523528 -0.19972187 -0.52287865 0.32315677
0.033896361 0 0.020317618 -0.19972187 -0.52287865 0.32315677
0.034998231 0 0.020111458 -0.19972187 -0.52287865 0.32315677
0.036101781 0 0.019905049 -0.19972187 -0.52287865 0.32315677
0.03720703 0 0.019698389 -0.19972187 -0.52287865 0.32315677
0.038313977 0 0.019491473 -0.19972187 -0.52287865 0.32315677
0.039422639 0 0.019284304 -0.19972187 -0.52287865 0.32315677
0.00069635035 0.051251654 0 -0.19972187 -0.52287865 0.32315677
0.0016946387 0.050868224 0 -0.19972187 -0.52287865 0.32315677
0 0.042857014 0.0042992192 -0.19972187 -0.52287865 0.32315677
0 0.039704569 0.0058639641 -0.19972187 -0.52287865 0.32315677
0.0046892986 0.049718808 0 -0.19972187 -0.52287865 0.32315677
0 0.033492215 0.0089477114 -0.19972187 -0.52287865 0.32315677
0.0066856197 0.048953235 0 -0.19972187 -0.52287865 0.32315677
0 0.027400166 0.011971995 -0.19972187 -0.52287865 0.32315677
0 0.024398133 0.013462392 -0.19972187 -0.52287865 0.32315677
0.0096800299 0.047805902 0 -0.19972187 -0.52287865 0.32315677
0 0.018479886 0.016400767 -0.19972187 -0.52287865 0.32315677
0.011676316 0.047041669 0 -0.19972187 -0.52287865 0.32315677
0 0.012673272 0.019283965 -0.19972187 -0.52287865 0.32315677
0.013672663 0.04627794 0 -0.19972187 -0.52287865 0.32315677
0 0.0069750585 0.022113582 -0.19972187 -0.52287865 0.32315677
0 0.0041656247 0.023508782 -0.19972187 -0.52287865 0.32315677
0 0.0013821333 0.024891159 -0.19972187 -0.52287865 0.32315677
0.00052688993 0 0.02547765 -0.19972187 -0.52287865 0.32315677
0.0015817347 0 0.0252776 -0.19972187 -0.52287865 0.32315677
0.0026380061 0 0.025077339 -0.19972187 -0.52287865 0.32315677
0.003695712 0 0.024876868 -0.19972187 -0.52287865 0.32315677
0.0047548604 0 0.024676185 -0.19972187 -0.52287865 0.32315677
0.0058154585 0 0.024475288 -0.19972187 -0.52287865 0.32315677
0.0068775155 0 0.024274176 -0.19972187 -0.52287865 0.32315677
0.0079410383 0 0.024072845 -0.19972187 -0.52287865 0.32315677
0.0090060355 0 0.023871297 -0.19972187 -0.52287865 0.32315677
0.010072514 0 0.02366953 -0.19972187 -0.52287865 0.32315677
0.011140484 0 0.023467541 -0.19972187 -0.52287865 0.32315677
0.012209953 0 0.02326533 -0.19972187 -0.52287865 0.32315677
0.013280927 0 0.023062894 -0.19972187 -0.52287865 0.32315677
0.014353418 0 0.022860235 -0.19972187 -0.52287865 0.32315677
0.01542743 0 0.022657348 -0.19972187 -0.52287865 0.32315677
0.016502975 0 0.022454232 -0.19972187 -0.52287865 0.32315677
0.017580058 0 0.022250887 -0.19972187 -0.52287865 0.32315677
0.018658692 0 0.022047311 -0.19972187 -0.52287865 0.32315677
0.019738881 0 0.021843502 -0.19972187 -0.52287865 0.32315677
0.020820634 0 0.021639461 -0.19972187 -0.52287865 0.32315677
0.021903962 0 0.021435183 -0.19972187 -0.52287865 0.32315677
0.022988871 0 0.021230668 -0.19972187 -0.52287865 0.32315677
0.02407537 0 0.021025915 -0.19972187 -0.52287865 0.32315677
0.02516347 0 0.020820923 -0.19972187 -0.52287865 0.32315677
0.026253177 0 0.020615689 -0.19972187 -0.52287865 0.32315677
0.027344501 0 0.020410212 -0.19972187 -0.52287865 0.32315677
0.028437449 0 0.02020449 -0.19972187 -0.52287865 0.32315677
0.02953203 0 0.019998522 -0.19972187 -0.52287865 0.32315677
0.030628256 0 0.019792309 -0.19972187 -0.52287865 0.32315677
0.031726133 0 0.019585844 -0.19972187 -0.52287865 0.32315677
0.032825671 0 0.019379131 -0.19972187 -0.52287865 0.32315677
0.033926878 0 0.019172166 -0.19972187 -0.52287865 0.32315677
0.035029761 0 0.018964946 -0.19972187 -0.52287865 0.32315677
0.036134332 0 0.018757472 -0.19972187 -0.52287865 0.32315677
0.037240602 0 0.01854974 -0.19972187 -0.52287865 0.32315677
0.038348578 0 0.01834175 -0.19972187 -0.52287865 0.32315677
0.039458267 0 0.018133502 -0.19972187 -0.52287865 0.32315677
0 0.046084631 0.0014949158 -0.19972187 -0.52287865 0.32315677
0.0019236279 0.048346773 0 -0.19972187 -0.52287865 0.32315677
0 0.03974187 0.0046550366 -0.19972187 -0.52287865 0.32315677
0 0.036617324 0.0062118545 -0.19972187 -0.52287865 0.32315677
0.0049097198 0.047201283 0 -0.19972187 -0.52287865 0.32315677
0 0.030459551 0.009280174 -0.19972187 -0.52287865 0.32315677
0 0.027425408 0.010792129 -0.19972187 -0.52287865 0.32315677
0.0078956457 0.04605699 0 -0.19972187 -0.52287865 0.32315677
0 0.021444397 0.01377273 -0.19972187 -0.52287865 0.32315677
0 0.018496668 0.015241803 -0.19972187 -0.52287865 0.32315677
0 0.015576895 0.016697001 -0.19972187 -0.52287865 0.32315677
0 0.012684672 0.018138528 -0.19972187 -0.52287865 0.32315677
0 0.009819597 0.019566584 -0.19972187 -0.52287865 0.32315677
0 0.0069812746 0.020981364 -0.19972187 -0.52287865 0.32315677
0 0.0041693198 0.022383058 -0.19972187 -0.52287865 0.32315677
0 0.0013833536 0.023771856 -0.19972187 -0.52287865 0.32315677
0.00052735419 0 0.024361067 -0.19972187 -0.52287865 0.32315677
0.0015831295 0 0.024160087 -0.19972187 -0.52287865 0.32315677
0.002640334 0 0.023958893 -0.19972187 -0.52287865 0.32315677
0.0036989753 0 0.023757484 -0.19972187 -0.52287865 0.32315677
0.0047590616 0 0.023555858 -0.19972187 -0.52287865 0.32315677
0.0058206008 0 0.023354013 -0.19972187 -0.52287865 0.32315677
0.0068836007 0 0.023151949 -0.19972187 -0.52287865 0.32315677
0.0079480689 0 0.022949664 -0.19972187 -0.52287865 0.32315677
0.0090140151 0 0.022747157 -0.19972187 -0.52287865 0.32315677
0.010081445 0 0.022544425 -0.19972187 -0.52287865 0.32315677
0.011150368 0 0.022341469 -0.19972187 -0.52287865 0.32315677
0.012220793 0 0.022138286 -0.19972187 -0.52287865 0.32315677
0.013292728 0 0.021934874 -0.19972187 -0.52287865 0.32315677
0.01436618 0 0.021731235 -0.19972187 -0.52287865 0.32315677
0.015441157 0 0.021527363 -0.19972187 -0.52287865 0.32315677
0.016517669 0 0.021323258 -0.19972187 -0.52287865 0.32315677
0.017595723 0 0.02111892 -0.19972187 -0.52287865 0.32315677
0.018675329 0 0.020914348 -0.19972187 -0.52287865 0.32315677
0.019756494 0 0.020709537 -0.19972187 -0.52287865 0.32315677
0.020839227 0 0.020504488 -0.19972187 -0.52287865 0.32315677
0.021923536 0 0.0202992 -0.19972187 -0.52287865 0.32315677
0.023009431 0 0.02009367 -0.19972187 -0.52287865 0.32315677
0.024096917 0 0.019887898 -0.19972187 -0.52287865 0.32315677
0.025186006 0 0.019681882 -0.19972187 -0.52287865 0.32315677
0.026276708 0 0.01947562 -0.19972187 -0.52287865 0.32315677
0.027369026 0 0.019269111 -0.19972187 -0.52287865 0.32315677
0.028462974 0 0.019062351 -0.19972187 -0.52287865 0.32315677
0.02955856 0 0.018855343 -0.19972187 -0.52287865 0.32315677
0.03065579 0 0.018648082 -0.19972187 -0.52287865 0.32315677
0.031754676 0 0.018440567 -0.19972187 -0.52287865 0.32315677
0.032855224 0 0.018232798 -0.19972187 -0.52287865 0.32315677
0.033957444 0 0.018024772 -0.19972187 -0.52287865 0.32315677
0.035061348 0 0.01781649 -0.19972187 -0.52287865 0.32315677
0.03616694 0 0.017607946 -0.19972187 -0.52287865 0.32315677
0.037274234 0 0.017399142 -0.19972187 -0.52287865 0.32315677
0.038383234 0 0.017190075 -0.19972187 -0.52287865 0.32315677
0.039493956 0 0.016980743 -0.19972187 -0.52287865 0.32315677
0 0.0461284 0.00026872093 -0.19972187 -0.52287865 0.32315677
0 0.042938016 0.0018642145 -0.19972187 -0.52287865 0.32315677
0.0021514134 0.045840215 0 -0.19972187 -0.52287865 0.32315677
0 0.036651585 0.0050082011 -0.19972187 -0.52287865 0.32315677
0 0.033554588 0.0065571694 -0.19972187 -0.52287865 0.32315677
0.0051289913 0.044698592 0 -0.19972187 -0.52287865 0.32315677
0.0061214804 0.044318303 0 -0.19972187 -0.52287865 0.32315677
0 0.024442911 0.011114729 -0.19972187 -0.52287865 0.32315677
0 0.021463981 0.012604872 -0.19972187 -0.52287865 0.32315677
0 0.018513478 0.01408085 -0.19972187 -0.52287865 0.32315677
0 0.015590985 0.015542875 -0.19972187 -0.52287865 0.32315677
0 0.012696092 0.016991148 -0.19972187 -0.52287865 0.32315677
0 0.0098283952 0.018425873 -0.19972187 -0.52287865 0.32315677
0.013068922 0.041659612 0 -0.19972187 -0.52287865 0.32315677
0 0.0041730208 0.021255454 -0.19972187 -0.52287865 0.32315677
0 0.001384576 0.022650693 -0.19972187 -0.52287865 0.32315677
0.00052781921 0 0.02324263 -0.19972187 -0.52287865 0.32315677
0.0015845265 0 0.023040717 -0.19972187 -0.52287865 0.32315677
0.0026426655 0 0.022838587 -0.19972187 -0.52287865 0.32315677
0.0037022438 0 0.022636237 -0.19972187 -0.52287865 0.32315677
0.0047632698 0 0.022433665 -0.19972187 -0.52287865 0.32315677
0.005825751 0 0.022230871 -0.19972187 -0.52287865 0.32315677
0.0068896958 0 0.022027852 -0.19972187 -0.52287865 0.32315677
0.0079551116 0 0.021824609 -0.19972187 -0.52287865 0.32315677
0.0090220077 0 0.02162114 -0.19972187 -0.52287865 0.32315677
0.010090391 0 0.021417443 -0.19972187 -0.52287865 0.32315677
0.011160269 0 0.021213515 -0.19972187 -0.52287865 0.32315677
0.012231653 0 0.021009358 -0.19972187 -0.52287865 0.32315677
0.013304547 0 0.020804968 -0.19972187 -0.52287865 0.32315677
0.014378963 0 0.020600343 -0.19972187 -0.52287865 0.32315677
0.015454907 0 0.020395484 -0.19972187 -0.52287865 0.32315677
0.016532388 0 0.020190388 -0.19972187 -0.52287865 0.32315677
0.017611414 0 0.019985054 -0.19972187 -0.52287865 0.32315677
0.018691994 0 0.019779479 -0.19972187 -0.52287865 0.32315677
0.019774137 0 0.019573664 -0.19972187 -0.52287865 0.32315677
0.02085785 0 0.019367605 -0.19972187 -0.52287865 0.32315677
0.021943143 0 0.019161304 -0.19972187 -0.52287865 0.32315677
0.023030024 0 0.018954756 -0.19972187 -0.52287865 0.32315677
0.0241185 0 0.018747961 -0.19972187 -0.52287865 0.32315677
0.025208581 0 0.018540917 -0.19972187 -0.52287865 0.32315677
0.026300278 0 0.018333623 -0.19972187 -0.52287865 0.32315677
0.027393594 0 0.018126078 -0.19972187 -0.52287865 0.32315677
0.028488543 0 0.017918279 -0.19972187 -0.52287865 0.32315677
0.029585132 0 0.017710226 -0.19972187 -0.52287865 0.32315677
0.03068337 0 0.017501915 -0.19972187 -0.52287865 0.32315677
0.031783264 0 0.017293347 -0.19972187 -0.52287865 0.32315677
0.032884829 0 0.01708452 -0.19972187 -0.52287865 0.32315677
0.033988066 0 0.016875431 -0.19972187 -0.52287865 0.32315677
0.035092987 0 0.016666079 -0.19972187 -0.52287865 0.32315677
0.036199603 0 0.016456464 -0.19972187 -0.52287865 0.32315677
0.037307922 0 0.016246583 -0.19972187 -0.52287865 0.32315677
0.038417954 0 0.016036434 -0.19972187 -0.52287865 0.32315677
0.039529707 0 0.015826017 -0.19972187 -0.52287865 0.32315677
0.00039846214 0.04410756 0 -0.19972187 -0.52287865 0.32315677
0 0.039816678 0.0022307264 -0.19972187 -0.52287865 0.32315677
0 0.03668591 0.0038024127 -0.19972187 -0.52287865 0.32315677
0.0033677274 0.042969007 0 -0.19972187 -0.52287865 0.32315677
0.0043574315 0.042589732 0 -0.19972187 -0.52287865 0.32315677
0 0.027476028 0.0084262267 -0.19972187 -0.52287865 0.32315677
0 0.024465358 0.0099378405 -0.19972187 -0.52287865 0.32315677
0 0.021483596 0.011434995 -0.19972187 -0.52287865 0.32315677
0 0.018530317 0.012917902 -0.19972187 -0.52287865 0.32315677
0.009305805 0.040695112 0 -0.19972187 -0.52287865 0.32315677
0 0.012707531 0.015841816 -0.19972187 -0.52287865 0.32315677
0.011285182 0.039938044 0 -0.19972187 -0.52287865 0.32315677
0 0.0069937375 0.018711209 -0.19972187 -0.52287865 0.32315677
0 0.004176728 0.020125957 -0.19972187 -0.52287865 0.32315677
0 0.0013858003 0.021527657 -0.19972187 -0.52287865 0.32315677
0.00052828505 0 0.022122331 -0.19972187 -0.52287865 0.32315677
0.0015859259 0 0.021919483 -0.19972187 -0.52287865 0.32315677
0.0026450008 0 0.021716412 -0.19972187 -0.52287865 0.32315677
0.0037055181 0 0.021513116 -0.19972187 -0.52287865 0.32315677
0.004767485 0 0.021309596 -0.19972187 -0.52287865 0.32315677
0.0058309101 0 0.02110585 -0.19972187 -0.52287865 0.32315677
0.0068958015 0 0.020901876 -0.19972187 -0.52287865 0.32315677
0.0079621663 0 0.02069767 -0.19972187 -0.52287865 0.32315677
0.0090300133 0 0.020493235 -0.19972187 -0.52287865 0.32315677
0.010099351 0 0.02028857 -0.19972187 -0.52287865 0.32315677
0.011170187 0 0.020083668 -0.19972187 -0.52287865 0.32315677
0.01224253 0 0.019878533 -0.19972187 -0.52287865 0.32315677
0.013316387 0 0.019673159 -0.19972187 -0.52287865 0.32315677
0.014391769 0 0.019467549 -0.19972187 -0.52287865 0.32315677
0.01546868 0 0.019261699 -0.19972187 -0.52287865 0.32315677
0.016547132 0 0.019055607 -0.19972187 -0.52287865 0.32315677
0.017627133 0 0.018849274 -0.19972187 -0.52287865 0.32315677
0.018708689 0 0.018642696 -0.19972187 -0.52287865 0.32315677
0.01979181 0 0.018435873 -0.19972187 -0.52287865 0.32315677
0.020876506 0 0.018228801 -0.19972187 -0.52287865 0.32315677
0.021962784 0 0.018021483 -0.19972187 -0.52287865 0.32315677
0.023050651 0 0.017813914 -0.19972187 -0.52287865 0.32315677
0.02414012 0 0.017606093 -0.19972187 -0.52287865 0.32315677
0.025231194 0 0.017398018 -0.19972187 -0.52287865 0.32315677
0.026323887 0 0.017189691 -0.19972187 -0.52287865 0.32315677
0.027418204 0 0.016981106 -0.19972187 -0.52287865 0.32315677
0.028514156 0 0.016772263 -0.19972187 -0.52287865 0.32315677
0.02961175 0 0.01656316 -0.19972187 -0.52287865 0.32315677
0.030710997 0 0.016353797 -0.19972187 -0.52287865 0.32315677
0.031811904 0 0.016144173 -0.19972187 -0.52287865 0.32315677
0.032914482 0 0.015934283 -0.19972187 -0.52287865 0.32315677
0.034018736 0 0.015724128 -0.19972187 -0.52287865 0.32315677
0.035124682 0 0.015513706 -0.19972187 -0.52287865 0.32315677
0.036232322 0 0.015303015 -0.19972187 -0.52287865 0.32315677
0.037341669 0 0.015092053 -0.19972187 -0.52287865 0.32315677
0.03845273 0 0.014880819 -0.19972187 -0.52287865 0.32315677
0.039565518 0 0.014669311 -0.19972187 -0.52287865 0.32315677
0 0.03985418 0.0010153204 -0.19972187 -0.52287865 0.32315677
0.0016164533 0.04124942 0 -0.19972187 -0.52287865 0.32315677
0.0026033975 0.040871162 0 -0.19972187 -0.52287865 0.32315677
0.0035903179 0.040493023 0 -0.19972187 -0.52287865 0.32315677
0.00457722 0.040114999 0 -0.19972187 -0.52287865 0.32315677
0 0.024487844 0.0087588998 -0.19972187 -0.52287865 0.32315677
0.0065509891 0.039359279 0 -0.19972187 -0.52287865 0.32315677
0 0.018547187 0.011752946 -0.19972187 -0.52287865 0.32315677
0.0085247457 0.038603988 0 -0.19972187 -0.52287865 0.32315677
0 0.01271899 0.014690517 -0.19972187 -0.52287865 0.32315677
0.010498531 0.037849113 0 -0.19972187 -0.52287865 0.32315677
0 0.0069999848 0.017573254 -0.19972187 -0.52287865 0.32315677
0 0.0041804416 0.018994557 -0.19972187 -0.52287865 0.32315677
0 0.0013870267 0.020402739 -0.19972187 -0.52287865 0.32315677
0.0005287517 0 0.02100016 -0.19972187 -0.52287865 0.32315677
0.0015873276 0 0.020796372 -0.19972187 -0.52287865 0.32315677
0.0026473403 0 0.020592356 -0.19972187 -0.52287865 0.32315677
0.0037087975 0 0.020388115 -0.19972187 -0.52287865 0.32315677
0.0047717076 0 0.020183643 -0.19972187 -0.52287865 0.32315677
0.005836078 0 0.01997894 -0.19972187 -0.52287865 0.32315677
0.006901917 0 0.019774007 -0.19972187 -0.52287865 0.32315677
0.0079692332 0 0.019568838 -0.19972187 -0.52287865 0.32315677
0.0090380339 0 0.019363435 -0.19972187 -0.52287865 0.32315677
0.010108327 0 0.019157795 -0.19972187 -0.52287865 0.32315677
0.011180121 0 0.018951917 -0.19972187 -0.52287865 0.32315677
0.012253426 0 0.0187458 -0.19972187 -0.52287865 0.32315677
0.013328248 0 0.018539444 -0.19972187 -0.52287865 0.32315677
0.014404595 0 0.018332843 -0.19972187 -0.52287865 0.32315677
0.015482477 0 0.018125998 -0.19972187 -0.52287865 0.32315677
0.016561901 0 0.017918909 -0.19972187 -0.52287865 0.32315677
0.017642876 0 0.017711572 -0.19972187 -0.52287865 0.32315677
0.018725412 0 0.017503988 -0.19972187 -0.52287865 0.32315677
0.019809514 0 0.017296152 -0.19972187 -0.52287865 0.32315677
0.020895192 0 0.017088067 -0.19972187 -0.52287865 0.32315677
0.021982457 0 0.016879726 -0.19972187 -0.52287865 0.32315677
0.023071315 0 0.016671134 -0.19972187 -0.52287865 0.32315677
0.024161775 0 0.016462283 -0.19972187 -0.52287865 0.32315677
0.025253845 0 0.016253175 -0.19972187 -0.52287865 0.32315677
0.026347537 0 0.01604381 -0.19972187 -0.52287865 0.32315677
0.027442856 0 0.015834183 -0.19972187 -0.52287865 0.32315677
0.028539812 0 0.015624292 -0.19972187 -0.52287865 0.32315677
0.029638413 0 0.015414139 -0.19972187 -0.52287865 0.32315677
0.030738672 0 0.01520372 -0.19972187 -0.52287865 0.32315677
0.031840593 0 0.014993034 -0.19972187 -0.52287865 0.32315677
0.032944188 0 0.014782079 -0.19972187 -0.52287865 0.32315677
0.034049463 0 0.014570855 -0.19972187 -0.52287865 0.32315677
0.035156429 0 0.014359358 -0.19972187 -0.52287865 0.32315677
0.036265098 0 0.014147587 -0.19972187 -0.52287865 0.32315677
0.037375472 0 0.013935542 -0.19972187 -0.52287865 0.32315677
0.038487568 0 0.01372322 -0.19972187 -0.52287865 0.32315677
0.039601389 0 0.013510618 -0.19972187 -0.52287865 0.32315677
0 0.036754739 0.0013843846 -0.19972187 -0.52287865 0.32315677
0 0.033648558 0.0029554944 -0.19972187 -0.52287865 0.32315677
0 0.030572738 0.0045112967 -0.19972187 -0.52287865 0.32315677
0.0038117408 0.038031448 0 -0.19972187 -0.52287865 0.32315677
0 0.024510371 0.0075778952 -0.19972187 -0.52287865 0.32315677
0.0057799653 0.037277952 0 -0.19972187 -0.52287865 0.32315677
0 0.018564085 0.010585971 -0.19972187 -0.52287865 0.32315677
0 0.015633401 0.012068603 -0.19972187 -0.52287865 0.32315677
0 0.012730468 0.013537244 -0.19972187 -0.52287865 0.32315677
0 0.0098548811 0.014992098 -0.19972187 -0.52287865 0.32315677
0.010700529 0.035395965 0 -0.19972187 -0.52287865 0.32315677
0.011684683 0.035019852 0 -0.19972187 -0.52287865 0.32315677
0 0.0013882553 0.01927593 -0.19972187 -0.52287865 0.32315677
0.00052921905 0 0.019876104 -0.19972187 -0.52287865 0.32315677
0.0015887317 0 0.019671373 -0.19972187 -0.52287865 0.32315677
0.0026496835 0 0.019466413 -0.19972187 -0.52287865 0.32315677
0.0037120827 0 0.01926122 -0.19972187 -0.52287865 0.32315677
0.0047759367 0 0.019055793 -0.19972187 -0.52287865 0.32315677
0.0058412543 0 0.018850133 -0.19972187 -0.52287865 0.32315677
0.0069080433 0 0.018644236 -0.19972187 -0.52287865 0.32315677
0.0079763113 0 0.018438101 -0.19972187 -0.52287865 0.32315677
0.0090460666 0 0.018231727 -0.19972187 -0.52287865 0.32315677
0.010117318 0 0.018025111 -0.19972187 -0.52287865 0.32315677
0.011190073 0 0.017818253 -0.19972187 -0.52287865 0.32315677
0.01226434 0 0.017611153 -0.19972187 -0.52287865 0.32315677
0.013340128 0 0.017403806 -0.19972187 -0.52287865 0.32315677
0.014417443 0 0.017196214 -0.19972187 -0.52287865 0.32315677
0.015496297 0 0.016988372 -0.19972187 -0.52287865 0.32315677
0.016576694 0 0.016780281 -0.19972187 -0.52287865 0.32315677
0.017658647 0 0.016571939 -0.19972187 -0.52287865 0.32315677
0.018742161 0 0.016363343 -0.19972187 -0.52287865 0.32315677
0.019827247 0 0.016154494 -0.19972187 -0.52287865 0.32315677
0.020913912 0 0.01594539 -0.19972187 -0.52287865 0.32315677
0.022002164 0 0.015736027 -0.19972187 -0.52287865 0.32315677
0.023092013 0 0.015526405 -0.19972187 -0.52287865 0.32315677
0.024183467 0 0.015316523 -0.19972187 -0.52287865 0.32315677
0.025276536 0 0.015106378 -0.19972187 -0.52287865 0.32315677
0.026371228 0 0.01489597 -0.19972187 -0.52287865 0.32315677
0.027467549 0 0.014685297 -0.19972187 -0.52287865 0.32315677
0.028565511 0 0.014474357 -0.19972187 -0.52287865 0.32315677
0.029665124 0 0.014263148 -0.19972187 -0.52287865 0.32315677
0.030766394 0 0.01405167 -0.19972187 -0.52287865 0.32315677
0.03186933 0 0.01383992 -0.19972187 -0.52287865 0.32315677
0.032973941 0 0.013627897 -0.19972187 -0.52287865 0.32315677
0.034080241 0 0.013415598 -0.19972187 -0.52287865 0.32315677
0.035188232 0 0.013203024 -0.19972187 -0.52287865 0.32315677
0.036297929 0 0.012990171 -0.19972187 -0.52287865 0.32315677
0.037409335 0 0.012777038 -0.19972187 -0.52287865 0.32315677
0.038522467 0 0.012563623 -0.19972187 -0.52287865 0.32315677
0.039637327 0 0.012349927 -0.19972187 -0.52287865 0.32315677
0.00010643369 0.037087496 0 -0.19972187 -0.52287865 0.32315677
0 0.033679992 0.0017506606 -0.19972187 -0.52287865 0.32315677
0.0020692616 0.036335606 0 -0.19972187 -0.52287865 0.32315677
0.00305064 0.035959817 0 -0.19972187 -0.52287865 0.32315677
0.0040320018 0.035584126 0 -0.19972187 -0.52287865 0.32315677
0 0.021542653 0.0079131396 -0.19972187 -0.52287865 0.32315677
0.0059946943 0.034833036 0 -0.19972187 -0.52287865 0.32315677
0 0.015647586 0.010906512 -0.19972187 -0.52287865 0.32315677
0 0.012741966 0.012381985 -0.19972187 -0.52287865 0.32315677
0 0.0098637408 0.013843591 -0.19972187 -0.52287865 0.32315677
0 0.0070125116 0.015291534 -0.19972187 -0.52287865 0.32315677
0 0.004187888 0.016726011 -0.19972187 -0.52287865 0.32315677
0 0.0013894858 0.018147217 -0.19972187 -0.52287865 0.32315677
0.00052968727 0 0.018750153 -0.19972187 -0.52287865 0.32315677
0.0015901382 0 0.018544478 -0.19972187 -0.52287865 0.32315677
0.0026520309 0 0.018338569 -0.19972187 -0.52287865 0.32315677
0.0037153733 0 0.018132422 -0.19972187 -0.52287865 0.32315677
0.0047801738 0 0.017926039 -0.19972187 -0.52287865 0.32315677
0.0058464394 0 0.017719418 -0.19972187 -0.52287865 0.32315677
0.0069141798 0 0.017512554 -0.19972187 -0.52287865 0.32315677
0.0079834014 0 0.017305449 -0.19972187 -0.52287865 0.32315677
0.0090541132 0 0.017098101 -0.19972187 -0.52287865 0.32315677
0.010126324 0 0.016890507 -0.19972187 -0.52287865 0.32315677
0.011200041 0 0.016682666 -0.19972187 -0.52287865 0.32315677
0.012275273 0 0.016474579 -0.19972187 -0.52287865 0.32315677
0.013352027 0 0.01626624 -0.19972187 -0.52287865 0.32315677
0.014430313 0 0.016057651 -0.19972187 -0.52287865 0.32315677
0.01551014 0 0.01584881 -0.19972187 -0.52287865 0.32315677
0.016591514 0 0.015639713 -0.19972187 -0.52287865 0.32315677
0.017674444 0 0.015430363 -0.19972187 -0.52287865 0.32315677
0.018758941 0 0.015220754 -0.19972187 -0.52287865 0.32315677
0.019845011 0 0.015010887 -0.19972187 -0.52287865 0.32315677
0.020932663 0 0.014800759 -0.19972187 -0.52287865 0.32315677
0.022021905 0 0.01459037 -0.19972187 -0.52287865 0.32315677
0.023112748 0 0.014379717 -0.19972187 -0.52287865 0.32315677
0.024205199 0 0.014168799 -0.19972187 -0.52287865 0.32315677
0.025299264 0 0.013957615 -0.19972187 -0.52287865 0.32315677
0.026394958 0 0.013746163 -0.19972187 -0.52287865 0.32315677
0.027492285 0 0.01353444 -0.19972187 -0.52287865 0.32315677
0.028591257 0 0.013322446 -0.19972187 -0.52287865 0.32315677
0.029691879 0 0.013110179 -0.19972187 -0.52287865 0.32315677
0.030794162 0 0.012897639 -0.19972187 -0.52287865 0.32315677
0.031898119 0 0.01268482 -0.19972187 -0.52287865 0.32315677
0.033003751 0 0.012471725 -0.19972187 -0.52287865 0.32315677
0.034111071 0 0.01225835 -0.19972187 -0.52287865 0.32315677
0.03522009 0 0.012044694 -0.19972187 -0.52287865 0.32315677
0.036330815 0 0.011830755 -0.19972187 -0.52287865 0.32315677
0.037443258 0 0.011616532 -0.19972187 -0.52287865 0.32315677
0.038557421 0 0.011402022 -0.19972187 -0.52287865 0.32315677
0.039673325 0 0.011187225 -0.19972187 -0.52287865 0.32315677
0 0.033711482 0.00054366956 -0.19972187 -0.52287865 0.32315677
0.0013152363 0.034274671 0 -0.19972187 -0.52287865 0.32315677
0 0.027577803 0.0036694254 -0.19972187 -0.52287865 0.32315677
0.003272498 0.0335254 0 -0.19972187 -0.52287865 0.32315677
0.0042511062 0.033150904 0 -0.19972187 -0.52287865 0.32315677
0 0.018597968 0.0082459217 -0.19972187 -0.52287865 0.32315677
0 0.015661798 0.0097424025 -0.19972187 -0.52287865 0.32315677
0.007186899 0.032027956 0 -0.19972187 -0.52287865 0.32315677
0 0.0098726144 0.012693111 -0.19972187 -0.52287865 0.32315677
0.0091441181 0.03127975 0 -0.19972187 -0.52287865 0.32315677
0 0.0041916203 0.015588844 -0.19972187 -0.52287865 0.32315677
0 0.0013907185 0.017016593 -0.19972187 -0.52287865 0.32315677
0.00053015619 0 0.017622299 -0.19972187 -0.52287865 0.32315677
0.0015915469 0 0.017415676 -0.19972187 -0.52287865 0.32315677
0.002654382 0 0.017208815 -0.19972187 -0.52287865 0.32315677
0.0037186695 0 0.017001713 -0.19972187 -0.52287865 0.32315677
0.0047844173 0 0.016794369 -0.19972187 -0.52287865 0.32315677
0.0058516338 0 0.016586782 -0.19972187 -0.52287865 0.32315677
0.0069203265 0 0.01637895 -0.19972187 -0.52287865 0.32315677
0.0079905037 0 0.016170872 -0.19972187 -0.52287865 0.32315677
0.0090621738 0 0.015962545 -0.19972187 -0.52287865 0.32315677
0.010135345 0 0.01575397 -0.19972187 -0.52287865 0.32315677
0.011210026 0 0.015545144 -0.19972187 -0.52287865 0.32315677
0.012286224 0 0.015336066 -0.19972187 -0.52287865 0.32315677
0.013363948 0 0.015126733 -0.19972187 -0.52287865 0.32315677
0.014443206 0 0.014917145 -0.19972187 -0.52287865 0.32315677
0.015524006 0 0.0147073 -0.19972187 -0.52287865 0.32315677
0.016606359 0 0.014497196 -0.19972187 -0.52287865 0.32315677
0.017690269 0 0.014286833 -0.19972187 -0.52287865 0.32315677
0.018775748 0 0.014076208 -0.19972187 -0.52287865 0.32315677
0.019862805 0 0.01386532 -0.19972187 -0.52287865 0.32315677
0.020951446 0 0.013654167 -0.19972187 -0.52287865 0.32315677
0.02204168 0 0.013442747 -0.19972187 -0.52287865 0.32315677
0.023133516 0 0.01323106 -0.19972187 -0.52287865 0.32315677
0.024226965 0 0.013019104 -0.19972187 -0.52287865 0.32315677
0.025322033 0 0.012806876 -0.19972187 -0.52287865 0.32315677
0.026418729 0 0.012594375 -0.19972187 -0.52287865 0.32315677
0.027517064 0 0.0123816 -0.19972187 -0.52287865 0.32315677
0.028617045 0 0.012168549 -0.19972187 -0.52287865 0.32315677
0.02971868 0 0.011955221 -0.19972187 -0.52287865 0.32315677
0.030821981 0 0.011741613 -0.19972187 -0.52287865 0.32315677
0.031926952 0 0.011527725 -0.19972187 -0.52287865 0.32315677
0.033033609 0 0.011313554 -0.19972187 -0.52287865 0.32315677
0.034141958 0 0.011099098 -0.19972187 -0.52287865 0.32315677
0.035252005 0 0.010884358 -0.19972187 -0.52287865 0.32315677
0.036363762 0 0.010669329 -0.19972187 -0.52287865 0.32315677
0.037477236 0 0.010454011 -0.19972187 -0.52287865 0.32315677
0.038592439 0 0.010238403 -0.19972187 -0.52287865 0.32315677
0.039709382 0 0.010022501 -0.19972187 -0.52287865 0.32315677
0 0.030658156 0.00091240241 -0.19972187 -0.52287865 0.32315677
0.0015414096 0.031851858 0 -0.19972187 -0.52287865 0.32315677
0 0.024578186 0.0040223887 -0.19972187 -0.52287865 0.32315677
0.0034931882 0.03110496 0 -0.19972187 -0.52287865 0.32315677
0 0.018614955 0.0070728255 -0.19972187 -0.52287865 0.32315677
0.0054449253 0.030358404 0 -0.19972187 -0.52287865 0.32315677
0 0.012765022 0.010065466 -0.19972187 -0.52287865 0.32315677
0.0073966617 0.029612174 0 -0.19972187 -0.52287865 0.32315677
0 0.0070250807 0.013001999 -0.19972187 -0.52287865 0.32315677
0 0.0041953591 0.014449734 -0.19972187 -0.52287865 0.32315677
0 0.0013919532 0.015884046 -0.19972187 -0.52287865 0.32315677
0.00053062598 0 0.016492531 -0.19972187 -0.52287865 0.32315677
0.0015929581 0 0.016284958 -0.19972187 -0.52287865 0.32315677
0.0026567373 0 0.01607714 -0.19972187 -0.52287865 0.32315677
0.0037219713 0 0.015869079 -0.19972187 -0.52287865 0.32315677
0.0047886684 0 0.015660772 -0.19972187 -0.52287865 0.32315677
0.0058568367 0 0.015452218 -0.19972187 -0.52287865 0.32315677
0.0069264839 0 0.015243414 -0.19972187 -0.52287865 0.32315677
0.0079976181 0 0.01503436 -0.19972187 -0.52287865 0.32315677
0.0090702483 0 0.014825053 -0.19972187 -0.52287865 0.32315677
0.010144382 0 0.014615493 -0.19972187 -0.52287865 0.32315677
0.011220028 0 0.014405677 -0.19972187 -0.52287865 0.32315677
0.012297194 0 0.014195605 -0.19972187 -0.52287865 0.32315677
0.013375889 0 0.013985274 -0.19972187 -0.52287865 0.32315677
0.01445612 0 0.013774685 -0.19972187 -0.52287865 0.32315677
0.015537897 0 0.013563833 -0.19972187 -0.52287865 0.32315677
0.016621228 0 0.013352719 -0.19972187 -0.52287865 0.32315677
0.017706122 0 0.01314134 -0.19972187 -0.52287865 0.32315677
0.018792585 0 0.012929695 -0.19972187 -0.52287865 0.32315677
0.019880628 0 0.012717783 -0.19972187 -0.52287865 0.32315677
0.020970261 0 0.0125056 -0.19972187 -0.52287865 0.32315677
0.02206149 0 0.012293148 -0.19972187 -0.52287865 0.32315677
0.023154322 0 0.012080424 -0.19972187 -0.52287865 0.32315677
0.02424877 0 0.011867424 -0.19972187 -0.52287865 0.32315677
0.025344841 0 0.01165415 -0.19972187 -0.52287865 0.32315677
0.026442543 0 0.011440597 -0.19972187 -0.52287865 0.32315677
0.027541885 0 0.011226767 -0.19972187 -0.52287865 0.32315677
0.028642878 0 0.011012656 -0.19972187 -0.52287865 0.32315677
0.029745528 0 0.010798262 -0.19972187 -0.52287865 0.32315677
0.030849846 0 0.010583584 -0.19972187 -0.52287865 0.32315677
0.031955842 0 0.010368622 -0.19972187 -0.52287865 0.32315677
0.03306352 0 0.010153372 -0.19972187 -0.52287865 0.32315677
0.034172893 0 0.0099378331 -0.19972187 -0.52287865 0.32315677
0.035283972 0 0.0097220037 -0.19972187 -0.52287865 0.32315677
0.036396764 0 0.0095058819 -0.19972187 -0.52287865 0.32315677
0.037511274 0 0.0092894658 -0.19972187 -0.52287865 0.32315677
0.03862752 0 0.0090727545 -0.19972187 -0.52287865 0.32315677
0.039745506 0 0.0088557461 -0.19972187 -0.52287865 0.32315677
0.00079319929 0.029815312 0 -0.19972187 -0.52287865 0.32315677
0 0.024600871 0.0028330181 -0.19972187 -0.52287865 0.32315677
0 0.02160202 0.0043727173 -0.19972187 -0.52287865 0.32315677
0 0.018631971 0.0058976663 -0.19972187 -0.52287865 0.32315677
0 0.015690297 0.0074080843 -0.19972187 -0.52287865 0.32315677
0 0.01277658 0.0089041861 -0.19972187 -0.52287865 0.32315677
0 0.0098904083 0.01038618 -0.19972187 -0.52287865 0.32315677
0 0.0070313816 0.011854274 -0.19972187 -0.52287865 0.32315677
0.0085785016 0.026838273 0 -0.19972187 -0.52287865 0.32315677
0 0.0013931901 0.014749563 -0.19972187 -0.52287865 0.32315677
0.00053109654 0 0.015360838 -0.19972187 -0.52287865 0.32315677
0.0015943717 0 0.015152311 -0.19972187 -0.52287865 0.32315677
0.0026590966 0 0.014943536 -0.19972187 -0.52287865 0.32315677
0.0037252789 0 0.014734513 -0.19972187 -0.52287865 0.32315677
0.0047929268 0 0.014525239 -0.19972187 -0.52287865 0.32315677
0.0058620484 0 0.014315714 -0.19972187 -0.52287865 0.32315677
0.0069326516 0 0.014105935 -0.19972187 -0.52287865 0.32315677
0.0080047445 0 0.013895901 -0.19972187 -0.52287865 0.32315677
0.0090783369 0 0.013685611 -0.19972187 -0.52287865 0.32315677
0.010153434 0 0.013475063 -0.19972187 -0.52287865 0.32315677
0.011230047 0 0.013264256 -0.19972187 -0.52287865 0.32315677
0.012308183 0 0.013053186 -0.19972187 -0.52287865 0.32315677
0.01338785 0 0.012841855 -0.19972187 -0.52287865 0.32315677
0.014469056 0 0.01263026 -0.19972187 -0.52287865 0.32315677
0.015551812 0 0.012418399 -0.19972187 -0.52287865 0.32315677
0.016636124 0 0.012206269 -0.19972187 -0.52287865 0.32315677
0.017722001 0 0.011993872 -0.19972187 -0.52287865 0.32315677
0.018809451 0 0.011781204 -0.19972187 -0.52287865 0.32315677
0.019898484 0 0.011568264 -0.19972187 -0.52287865 0.32315677
0.020989109 0 0.011355051 -0.19972187 -0.52287865 0.32315677
0.022081332 0 0.011141561 -0.19972187 -0.52287865 0.32315677
0.023175163 0 0.010927795 -0.19972187 -0.52287865 0.32315677
0.024270613 0 0.01071375 -0.19972187 -0.52287865 0.32315677
0.025367687 0 0.010499426 -0.19972187 -0.52287865 0.32315677
0.026466398 0 0.01028482 -0.19972187 -0.52287865 0.32315677
0.02756675 0 0.010069929 -0.19972187 -0.52287865 0.32315677
0.028668756 0 0.0098547544 -0.19972187 -0.52287865 0.32315677
0.029772423 0 0.009639292 -0.19972187 -0.52287865 0.32315677
0.03087776 0 0.0094235409 -0.19972187 -0.52287865 0.32315677
0.031984776 0 0.0092075011 -0.19972187 -0.52287865 0.32315677
0.033093482 0 0.0089911679 -0.19972187 -0.52287865 0.32315677
0.034203887 0 0.0087745422 -0.19972187 -0.52287865 0.32315677
0.035315998 0 0.0085576205 -0.19972187 -0.52287865 0.32315677
0.036429822 0 0.0083404025 -0.19972187 -0.52287865 0.32315677
0.037545376 0 0.0081228856 -0.19972187 -0.52287865 0.32315677
0.038662661 0 0.0079050679 -0.19972187 -0.52287865 0.32315677
0.03978169 0 0.0076869484 -0.19972187 -0.52287865 0.32315677
0 0.027654609 7.9597346e-05 -0.19972187 -0.52287865 0.32315677
0 0.024623597 0.0016415275 -0.19972187 -0.52287865 0.32315677
0 0.021621879 0.0031883982 -0.19972187 -0.52287865 0.32315677
0 0.018649017 0.0047204336 -0.19972187 -0.52287865 0.32315677
0.0039310874 0.026305415 0 -0.19972187 -0.52287865 0.32315677
0.0049015358 0.025934389 0 -0.19972187 -0.52287865 0.32315677
0.0058719851 0.025563432 0 -0.19972187 -0.52287865 0.32315677
0.00684244 0.025192544 0 -0.19972187 -0.52287865 0.32315677
0 0.0042028562 0.01216564 -0.19972187 -0.52287865 0.32315677
0 0.001394429 0.013613138 -0.19972187 -0.52287865 0.32315677
0.0005315679 0 0.01422721 -0.19972187 -0.52287865 0.32315677
0.0015957878 0 0.014017726 -0.19972187 -0.52287865 0.32315677
0.0026614598 0 0.013807991 -0.19972187 -0.52287865 0.32315677
0.0037285918 0 0.013598002 -0.19972187 -0.52287865 0.32315677
0.0047971923 0 0.013387759 -0.19972187 -0.52287865 0.32315677
0.0058672689 0 0.01317726 -0.19972187 -0.52287865 0.32315677
0.00693883 0 0.012966502 -0.19972187 -0.52287865 0.32315677
0.0080118841 0 0.012755486 -0.19972187 -0.52287865 0.32315677
0.0090864385 0 0.01254421 -0.19972187 -0.52287865 0.32315677
0.010162503 0 0.01233267 -0.19972187 -0.52287865 0.32315677
0.011240084 0 0.012120867 -0.19972187 -0.52287865 0.32315677
0.01231919 0 0.011908798 -0.19972187 -0.52287865 0.32315677
0.013399832 0 0.011696463 -0.19972187 -0.52287865 0.32315677
0.014482016 0 0.011483859 -0.19972187 -0.52287865 0.32315677
0.01556575 0 0.011270985 -0.19972187 -0.52287865 0.32315677
0.016651046 0 0.011057839 -0.19972187 -0.52287865 0.32315677
0.017737906 0 0.01084442 -0.19972187 -0.52287865 0.32315677
0.018826347 0 0.010630725 -0.19972187 -0.52287865 0.32315677
0.019916371 0 0.010416755 -0.19972187 -0.52287865 0.32315677
0.021007989 0 0.010202506 -0.19972187 -0.52287865 0.32315677
0.022101209 0 0.0099879764 -0.19972187 -0.52287865 0.32315677
0.023196042 0 0.0097731659 -0.19972187 -0.52287865 0.32315677
0.024292493 0 0.0095580723 -0.19972187 -0.52287865 0.32315677
0.025390575 0 0.0093426937 -0.19972187 -0.52287865 0.32315677
0.026490293 0 0.0091270292 -0.19972187 -0.52287865 0.32315677
0.027591657 0 0.0089110769 -0.19972187 -0.52287865 0.32315677
0.028694678 0 0.0086948341 -0.19972187 -0.52287865 0.32315677
0.029799365 0 0.0084782997 -0.19972187 -0.52287865 0.32315677
0.030905724 0 0.0082614729 -0.19972187 -0.52287865 0.32315677
0.032013763 0 0.0080443509 -0.19972187 -0.52287865 0.32315677
0.033123497 0 0.0078269318 -0.19972187 -0.52287865 0.32315677
0.034234934 0 0.0076092151 -0.19972187 -0.52287865 0.32315677
0.035348076 0 0.0073911985 -0.19972187 -0.52287865 0.32315677
0.03646294 0 0.0071728802 -0.19972187 -0.52287865 0.32315677
0.037579533 0 0.0069542578 -0.19972187 -0.52287865 0.32315677
0.038697865 0 0.0067353309 -0.19972187 -0.52287865 0.32315677
0.03981794 0 0.0065160966 -0.19972187 -0.52287865 0.32315677
0 0.024646364 0.00044790556 -0.19972187 -0.52287865 0.32315677
0 0.021641774 0.0020019712 -0.19972187 -0.52287865 0.32315677
0 0.018666094 0.0035411164 -0.19972187 -0.52287865 0.32315677
0 0.015718896 0.0050655622 -0.19972187 -0.52287865 0.32315677
0 0.012799757 0.0065755262 -0.19972187 -0.52287865 0.32315677
0 0.0099082645 0.0080712214 -0.19972187 -0.52287865 0.32315677
0 0.0070440164 0.009552856 -0.19972187 -0.52287865 0.32315677
0 0.0042066146 0.011020635 -0.19972187 -0.52287865 0.32315677
0 0.0013956701 0.012474759 -0.19972187 -0.52287865 0.32315677
0.00053204008 0 0.013091637 -0.19972187 -0.52287865 0.32315677
0.0015972062 0 0.012881193 -0.19972187 -0.52287865 0.32315677
0.002663827 0 0.012670494 -0.19972187 -0.52287865 0.32315677
0.0037319108 0 0.012459537 -0.19972187 -0.52287865 0.32315677
0.0048014652 0 0.012248321 -0.19972187 -0.52287865 0.32315677
0.0058724987 0 0.012036845 -0.19972187 -0.52287865 0.32315677
0.0069450191 0 0.011825107 -0.19972187 -0.52287865 0.32315677
0.0080190348 0 0.011613105 -0.19972187 -0.52287865 0.32315677
0.0090945549 0 0.011400838 -0.19972187 -0.52287865 0.32315677
0.010171586 0 0.011188305 -0.19972187 -0.52287865 0.32315677
0.011250137 0 0.010975503 -0.19972187 -0.52287865 0.32315677
0.012330217 0 0.010762432 -0.19972187 -0.52287865 0.32315677
0.013411835 0 0.010549089 -0.19972187 -0.52287865 0.32315677
0.014494997 0 0.010335473 -0.19972187 -0.52287865 0.32315677
0.015579714 0 0.010121582 -0.19972187 -0.52287865 0.32315677
0.016665991 0 0.0099074161 -0.19972187 -0.52287865 0.32315677
0.017753841 0 0.0096929716 -0.19972187 -0.52287865 0.32315677
0.018843271 0 0.0094782477 -0.19972187 -0.52287865 0.32315677
0.019934287 0 0.0092632426 -0.19972187 -0.52287865 0.32315677
0.021026902 0 0.0090479543 -0.19972187 -0.52287865 0.32315677
0.022121122 0 0.008832382 -0.19972187 -0.52287865 0.32315677
0.023216955 0 0.0086165238 -0.19972187 -0.52287865 0.32315677
0.024314411 0 0.0084003787 -0.19972187 -0.52287865 0.32315677
0.0254135 0 0.0081839431 -0.19972187 -0.52287865 0.32315677
0.02651423 0 0.0079672169 -0.19972187 -0.52287865 0.32315677
0.027616609 0 0.0077501978 -0.19972187 -0.52287865 0.32315677
0.028720647 0 0.0075328844 -0.19972187 -0.52287865 0.32315677
0.029826352 0 0.0073152748 -0.19972187 -0.52287865 0.32315677
0.030933734 0 0.0070973677 -0.19972187 -0.52287865 0.32315677
0.032042801 0 0.0068791606 -0.19972187 -0.52287865 0.32315677
0.033153567 0 0.0066606528 -0.19972187 -0.52287865 0.32315677
0.034266032 0 0.0064418418 -0.19972187 -0.52287865 0.32315677
0.035380214 0 0.0062227258 -0.19972187 -0.52287865 0.32315677
0.036496118 0 0.0060033035 -0.19972187 -0.52287865 0.32315677
0.03761375 0 0.0057835733 -0.19972187 -0.52287865 0.32315677
0.038733128 0 0.0055635325 -0.19972187 -0.52287865 0.32315677
0.039854255 0 0.0053431801 -0.19972187 -0.52287865 0.32315677
0.00050399301 0.023035837 0 -0.19972187 -0.52287865 0.32315677
0 0.018683201 0.0023597027 -0.19972187 -0.52287865 0.32315677
0 0.015733233 0.0038911968 -0.19972187 -0.52287865 0.32315677
0 0.012811375 0.0054081259 -0.19972187 -0.52287865 0.32315677
0 0.0099172164 0.0069107041 -0.19972187 -0.52287865 0.32315677
0 0.0070503503 0.008399142 -0.19972187 -0.52287865 0.32315677
0.0062945709 0.020822477 0 -0.19972187 -0.52287865 0.32315677
0 0.0013969134 0.011334416 -0.19972187 -0.52287865 0.32315677
0.00053251308 0 0.011954107 -0.19972187 -0.52287865 0.32315677
0.0015986272 0 0.011742701 -0.19972187 -0.52287865 0.32315677
0.0026661986 0 0.011531034 -0.19972187 -0.52287865 0.32315677
0.0037352352 0 0.011319106 -0.19972187 -0.52287865 0.32315677
0.0048057456 0 0.011106915 -0.19972187 -0.52287865 0.32315677
0.0058777374 0 0.010894459 -0.19972187 -0.52287865 0.32315677
0.0069512189 0 0.010681736 -0.19972187 -0.52287865 0.32315677
0.0080261985 0 0.010468746 -0.19972187 -0.52287865 0.32315677
0.0091026844 0 0.010255486 -0.19972187 -0.52287865 0.32315677
0.010180686 0 0.010041955 -0.19972187 -0.52287865 0.32315677
0.011260209 0 0.0098281521 -0.19972187 -0.52287865 0.32315677
0.012341264 0 0.0096140746 -0.19972187 -0.52287865 0.32315677
0.013423858 0 0.0093997205 -0.19972187 -0.52287865 0.32315677
0.014508001 0 0.0091850897 -0.19972187 -0.52287865 0.32315677
0.0155937 0 0.0089701805 -0.19972187 -0.52287865 0.32315677
0.016680965 0 0.0087549891 -0.19972187 -0.52287865 0.32315677
0.017769804 0 0.0085395165 -0.19972187 -0.52287865 0.32315677
0.018860225 0 0.0083237598 -0.19972187 -0.52287865 0.32315677
0.019952236 0 0.0081077171 -0.19972187 -0.52287865 0.32315677
0.021045849 0 0.0078913877 -0.19972187 -0.52287865 0.32315677
0.022141067 0 0.0076747686 -0.19972187 -0.52287865 0.32315677
0.023237906 0 0.0074578593 -0.19972187 -0.52287865 0.32315677
0.02433637 0 0.0072406577 -0.19972187 -0.52287865 0.32315677
0.025436467 0 0.0070231622 -0.19972187 -0.52287865 0.32315677
0.02653821 0 0.006805371 -0.19972187 -0.52287865 0.32315677
0.027641604 0 0.0065872823 -0.19972187 -0.52287865 0.32315677
0.028746661 0 0.0063688946 -0.19972187 -0.52287865 0.32315677
0.029853389 0 0.0061502061 -0.19972187 -0.52287865 0.32315677
0.030961797 0 0.0059312154 -0.19972187 -0.52287865 0.32315677
0.032071892 0 0.0057119201 -0.19972187 -0.52287865 0.32315677
0.033183686 0 0.0054923189 -0.19972187 -0.52287865 0.32315677
0.034297187 0 0.0052724103 -0.19972187 -0.52287865 0.32315677
0.035412408 0 0.0050521917 -0.19972187 -0.52287865 0.32315677
0.036529351 0 0.0048316619 -0.19972187 -0.52287865 0.32315677
0.03764803 0 0.0046108193 -0.19972187 -0.52287865 0.32315677
0.038768455 0 0.0043896618 -0.19972187 -0.52287865 0.32315677
0.039890632 0 0.0041681877 -0.19972187 -0.52287865 0.32315677
0 0.018700339 0.0011761818 -0.19972187 -0.52287865 0.32315677
0 0.015747594 0.0027147466 -0.19972187 -0.52287865 0.32315677
0 0.012823015 0.0042386632 -0.19972187 -0.52287865 0.32315677
0 0.0099261831 0.0057481467 -0.19972187 -0.52287865 0.32315677
0 0.0070566954 0.0072434093 -0.19972187 -0.52287865 0.32315677
