# .PCD v0.7 - Point Cloud Data file format
VERSION 0.7
FIELDS x y z vp_x vp_y vp_z
SIZE 4 4 4 4 4 4
TYPE F F F F F F
COUNT 1 1 1 1 1 1
WIDTH 696
HEIGHT 1
VIEWPOINT 0 0 0 1 0 0 0
POINTS 696
DATA ascii
0.0070637255 0.04474809 0.069877625 0.19972187 -0.52287865 0.32315677
0.0080903694 0.044842556 0.07 0.19972187 -0.52287865 0.32315677
0.009023902 0.045211796 0.07 0.19972187 -0.52287865 0.32315677
0.0099574141 0.045581561 0.07 0.19972187 -0.52287865 0.32315677
0.010890913 0.045951847 0.07 0.19972187 -0.52287865 0.32315677
0.011824404 0.046322659 0.07 0.19972187 -0.52287865 0.32315677
0.012757895 0.046694003 0.07 0.19972187 -0.52287865 0.32315677
0.013691391 0.047065876 0.07 0.19972187 -0.52287865 0.32315677
0.014624899 0.04743829 0.07 0.19972187 -0.52287865 0.32315677
0.015558425 0.047811236 0.07 0.19972187 -0.52287865 0.32315677
0.016491976 0.048184726 0.07 0.19972187 -0.52287865 0.32315677
0.017425558 0.048558757 0.07 0.19972187 -0.52287865 0.32315677
0.018359177 0.048933335 0.07 0.19972187 -0.52287865 0.32315677
0.019292839 0.04930846 0.07 0.19972187 -0.52287865 0.32315677
0.020226553 0.049684141 0.07 0.19972187 -0.52287865 0.32315677
0.021160321 0.050060369 0.07 0.19972187 -0.52287865 0.32315677
0.022094153 0.05043716 0.07 0.19972187 -0.52287865 0.32315677
0.023028055 0.050814506 0.07 0.19972187 -0.52287865 0.32315677
0.023962032 0.051192418 0.07 0.19972187 -0.52287865 0.32315677
0.024896091 0.051570892 0.07 0.19972187 -0.52287865 0.32315677
0.025830237 0.051949937 0.07 0.19972187 -0.52287865 0.32315677
0.02676448 0.052329548 0.07 0.19972187 -0.52287865 0.32315677
0.027698822 0.052709736 0.07 0.19972187 -0.52287865 0.32315677
0.028633274 0.053090502 0.07 0.19972187 -0.52287865 0.32315677
0.029567838 0.053471845 0.07 0.19972187 -0.52287865 0.32315677
0.030502524 0.053853769 0.07 0.19972187 -0.52287865 0.32315677
0.031437337 0.054236278 0.07 0.19972187 -0.52287865 0.32315677
0.032372281 0.054619376 0.07 0.19972187 -0.52287865 0.32315677
0.033307366 0.055003062 0.07 0.19972187 -0.52287865 0.32315677
0.034242596 0.055387344 0.07 0.19972187 -0.52287865 0.32315677
0.03517798 0.055772223 0.07 0.19972187 -0.52287865 0.32315677
0.036113523 0.056157701 0.07 0.19972187 -0.52287865 0.32315677
0.037049234 0.056543779 0.07 0.19972187 -0.52287865 0.32315677
0.037985113 0.056930464 0.07 0.19972187 -0.52287865 0.32315677
0.038921174 0.057317756 0.07 0.19972187 -0.52287865 0.32315677
0.039857417 0.057705659 0.07 0.19972187 -0.52287865 0.32315677
0.039932668 0.061242286 0.068628222 0.19972187 -0.52287865 0.32315677
0.0036794343 0.048484545 0.066775389 0.19972187 -0.52287865 0.32315677
0.005527528 0.046201065 0.067965694 0.19972187 -0.52287865 0.32315677
0.00709103 0.044727333 0.068791807 0.19972187 -0.52287865 0.32315677
0.0085160164 0.043644041 0.06944222 0.19972187 -0.52287865 0.32315677
0.0098567335 0.042796124 0.069986671 0.19972187 -0.52287865 0.32315677
0.010797066 0.043134637 0.07 0.19972187 -0.52287865 0.32315677
0.011727391 0.043503445 0.07 0.19972187 -0.52287865 0.32315677
0.012657711 0.04387277 0.07 0.19972187 -0.52287865 0.32315677
0.013588033 0.044242613 0.07 0.19972187 -0.52287865 0.32315677
0.014518362 0.044612978 0.07 0.19972187 -0.52287865 0.32315677
0.015448703 0.044983871 0.07 0.19972187 -0.52287865 0.32315677
0.016379066 0.04535529 0.07 0.19972187 -0.52287865 0.32315677
0.017309455 0.045727242 0.07 0.19972187 -0.52287865 0.32315677
0.018239878 0.046099726 0.07 0.19972187 -0.52287865 0.32315677
0.019170338 0.046472747 0.07 0.19972187 -0.52287865 0.32315677
0.020100845 0.046846304 0.07 0.19972187 -0.52287865 0.32315677
0.021031402 0.047220405 0.07 0.19972187 -0.52287865 0.32315677
0.021962019 0.04759505 0.07 0.19972187 -0.52287865 0.32315677
0.022892699 0.047970239 0.07 0.19972187 -0.52287865 0.32315677
0.023823449 0.048345983 0.07 0.19972187 -0.52287865 0.32315677
0.024754276 0.048722275 0.07 0.19972187 -0.52287865 0.32315677
0.025685189 0.049099125 0.07 0.19972187 -0.52287865 0.32315677
0.02661619 0.04947653 0.07 0.19972187 -0.52287865 0.32315677
0.027547287 0.049854498 0.07 0.19972187 -0.52287865 0.32315677
0.028478486 0.050233029 0.07 0.19972187 -0.52287865 0.32315677
0.029409794 0.050612126 0.07 0.19972187 -0.52287865 0.32315677
0.030341217 0.050991792 0.07 0.19972187 -0.52287865 0.32315677
0.031272762 0.051372029 0.07 0.19972187 -0.52287865 0.32315677
0.032204434 0.051752843 0.07 0.19972187 -0.52287865 0.32315677
0.033136241 0.052134231 0.07 0.19972187 -0.52287865 0.32315677
0.03406819 0.052516203 0.07 0.19972187 -0.52287865 0.32315677
0.035000283 0.052898757 0.07 0.19972187 -0.52287865 0.32315677
0.03593253 0.053281896 0.07 0.19972187 -0.52287865 0.32315677
0.03686494 0.053665627 0.07 0.19972187 -0.52287865 0.32315677
0.037797514 0.054049946 0.07 0.19972187 -0.52287865 0.32315677
0.03873026 0.054434862 0.07 0.19972187 -0.52287865 0.32315677
0.039475795 0.055496715 0.069703616 0.19972187 -0.52287865 0.32315677
0.039878786 0.057813119 0.068858497 0.19972187 -0.52287865 0.32315677
0.039919794 0.061479893 0.067423813 0.19972187 -0.52287865 0.32315677
0.0037171852 0.048428867 0.065695152 0.19972187 -0.52287865 0.32315677
0.0055562765 0.046173833 0.066877834 0.19972187 -0.52287865 0.32315677
0.0071183676 0.044706553 0.067704663 0.19972187 -0.52287865 0.32315677
0.0085444273 0.043622445 0.068358302 0.19972187 -0.52287865 0.32315677
0.0098842522 0.042779569 0.068902887 0.19972187 -0.52287865 0.32315677
0.011171916 0.042079914 0.06938266 0.19972187 -0.52287865 0.32315677
0.012414327 0.041505106 0.069805987 0.19972187 -0.52287865 0.32315677
0.013484938 0.041440751 0.07 0.19972187 -0.52287865 0.32315677
0.014412113 0.041809108 0.07 0.19972187 -0.52287865 0.32315677
0.015339297 0.042177979 0.07 0.19972187 -0.52287865 0.32315677
0.016266497 0.042547364 0.07 0.19972187 -0.52287865 0.32315677
0.017193718 0.042917266 0.07 0.19972187 -0.52287865 0.32315677
0.018120969 0.043287691 0.07 0.19972187 -0.52287865 0.32315677
0.019048253 0.04365864 0.07 0.19972187 -0.52287865 0.32315677
0.019975578 0.044030119 0.07 0.19972187 -0.52287865 0.32315677
0.02090295 0.044402122 0.07 0.19972187 -0.52287865 0.32315677
0.021830376 0.044774659 0.07 0.19972187 -0.52287865 0.32315677
0.02275786 0.045147728 0.07 0.19972187 -0.52287865 0.32315677
0.023685411 0.045521338 0.07 0.19972187 -0.52287865 0.32315677
0.024613034 0.045895487 0.07 0.19972187 -0.52287865 0.32315677
0.025540736 0.046270177 0.07 0.19972187 -0.52287865 0.32315677
0.026468521 0.046645414 0.07 0.19972187 -0.52287865 0.32315677
0.027396398 0.047021195 0.07 0.19972187 -0.52287865 0.32315677
0.028324373 0.047397532 0.07 0.19972187 -0.52287865 0.32315677
0.029252451 0.047774419 0.07 0.19972187 -0.52287865 0.32315677
0.030180639 0.048151866 0.07 0.19972187 -0.52287865 0.32315677
0.031108942 0.048529871 0.07 0.19972187 -0.52287865 0.32315677
0.03203737 0.048908435 0.07 0.19972187 -0.52287865 0.32315677
0.032965925 0.049287565 0.07 0.19972187 -0.52287865 0.32315677
0.033894613 0.049667265 0.07 0.19972187 -0.52287865 0.32315677
0.034823447 0.050047532 0.07 0.19972187 -0.52287865 0.32315677
0.035752427 0.050428376 0.07 0.19972187 -0.52287865 0.32315677
0.036681559 0.050809793 0.07 0.19972187 -0.52287865 0.32315677
0.037610855 0.051191788 0.07 0.19972187 -0.52287865 0.32315677
0.038375072 0.052163303 0.069740459 0.19972187 -0.52287865 0.32315677
0.038980573 0.053712964 0.069226913 0.19972187 -0.52287865 0.32315677
0.039500821 0.055586848 0.068571612 0.19972187 -0.52287865 0.32315677
0.039889429 0.057959873 0.06769792 0.19972187 -0.52287865 0.32315677
0.039906889 0.061717991 0.066216893 0.19972187 -0.52287865 0.32315677
0.0037549781 0.048373129 0.064613715 0.19972187 -0.52287865 0.32315677
0.0055850605 0.046146572 0.065788656 0.19972187 -0.52287865 0.32315677
0.0071457392 0.044685744 0.066616178 0.19972187 -0.52287865 0.32315677
0.0085728718 0.04360082 0.067273051 0.19972187 -0.52287865 0.32315677
0.0099118045 0.042762991 0.067817755 0.19972187 -0.52287865 0.32315677
0.011198916 0.04206742 0.068297796 0.19972187 -0.52287865 0.32315677
0.012442297 0.041492168 0.068723194 0.19972187 -0.52287865 0.32315677
0.013631117 0.041072115 0.069078334 0.19972187 -0.52287865 0.32315677
0.014803028 0.040695187 0.069413833 0.19972187 -0.52287865 0.32315677
0.015930319 0.040447079 0.069691151 0.19972187 -0.52287865 0.32315677
0.017044457 0.040233035 0.069953024 0.19972187 -0.52287865 0.32315677
0.01800245 0.04049696 0.07 0.19972187 -0.52287865 0.32315677
0.018926585 0.040865872 0.07 0.19972187 -0.52287865 0.32315677
0.019850753 0.041235302 0.07 0.19972187 -0.52287865 0.32315677
0.020774966 0.041605245 0.07 0.19972187 -0.52287865 0.32315677
0.021699226 0.041975707 0.07 0.19972187 -0.52287865 0.32315677
0.022623541 0.042346694 0.07 0.19972187 -0.52287865 0.32315677
0.023547918 0.042718206 0.07 0.19972187 -0.52287865 0.32315677
0.02447236 0.043090243 0.07 0.19972187 -0.52287865 0.32315677
0.025396878 0.043462813 0.07 0.19972187 -0.52287865 0.32315677
0.026321474 0.043835912 0.07 0.19972187 -0.52287865 0.32315677
0.027246157 0.044209551 0.07 0.19972187 -0.52287865 0.32315677
0.028170932 0.044583727 0.07 0.19972187 -0.52287865 0.32315677
0.029095804 0.044958442 0.07 0.19972187 -0.52287865 0.32315677
0.030020783 0.045333706 0.07 0.19972187 -0.52287865 0.32315677
0.030945873 0.045709513 0.07 0.19972187 -0.52287865 0.32315677
0.03187108 0.046085868 0.07 0.19972187 -0.52287865 0.32315677
0.032796409 0.046462778 0.07 0.19972187 -0.52287865 0.32315677
0.033721868 0.046840239 0.07 0.19972187 -0.52287865 0.32315677
0.034647465 0.047218259 0.07 0.19972187 -0.52287865 0.32315677
0.035573203 0.047596842 0.07 0.19972187 -0.52287865 0.32315677
0.036343861 0.048518885 0.069759242 0.19972187 -0.52287865 0.32315677
0.037073147 0.049594574 0.06945096 0.19972187 -0.52287865 0.32315677
0.037753895 0.050852261 0.06906274 0.19972187 -0.52287865 0.32315677
0.038403299 0.052234154 0.068620317 0.19972187 -0.52287865 0.32315677
0.03900506 0.05380116 0.068096869 0.19972187 -0.52287865 0.32315677
0.039525885 0.055677127 0.067437813 0.19972187 -0.52287865 0.32315677
0.03989784 0.058115065 0.066531673 0.19972187 -0.52287865 0.32315677
0.039893955 0.061956584 0.065007448 0.19972187 -0.52287865 0.32315677
0.0037928128 0.048317324 0.063531078 0.19972187 -0.52287865 0.32315677
0.0056138788 0.046119273 0.06469816 0.19972187 -0.52287865 0.32315677
0.0071731443 0.044664912 0.065526351 0.19972187 -0.52287865 0.32315677
0.0086013526 0.043579169 0.066186465 0.19972187 -0.52287865 0.32315677
0.0099393912 0.042746395 0.066731267 0.19972187 -0.52287865 0.32315677
0.011225951 0.042054914 0.067211561 0.19972187 -0.52287865 0.32315677
0.012470302 0.041479211 0.067639038 0.19972187 -0.52287865 0.32315677
0.013658741 0.04106281 0.067994095 0.19972187 -0.52287865 0.32315677
0.014830405 0.040689163 0.068329588 0.19972187 -0.52287865 0.32315677
0.0159586 0.040440854 0.068608232 0.19972187 -0.52287865 0.32315677
0.017072545 0.040229976 0.068869829 0.19972187 -0.52287865 0.32315677
0.018154481 0.040112276 0.069089264 0.19972187 -0.52287865 0.32315677
0.019223675 0.040029299 0.069292977 0.19972187 -0.52287865 0.32315677
0.020264946 0.040029299 0.06945926 0.19972187 -0.52287865 0.32315677
0.021297649 0.040052671 0.069615021 0.19972187 -0.52287865 0.32315677
0.022302214 0.040161956 0.069732144 0.19972187 -0.52287865 0.32315677
0.023303764 0.040278502 0.069846079 0.19972187 -0.52287865 0.32315677
0.024274372 0.040492129 0.069916457 0.19972187 -0.52287865 0.32315677
0.025244653 0.040705685 0.069987006 0.19972187 -0.52287865 0.32315677
0.026175044 0.041047756 0.07 0.19972187 -0.52287865 0.32315677
0.027096558 0.041419279 0.07 0.19972187 -0.52287865 0.32315677
0.02801816 0.041791331 0.07 0.19972187 -0.52287865 0.32315677
0.028939854 0.042163912 0.07 0.19972187 -0.52287865 0.32315677
0.029838834 0.042612966 0.069965996 0.19972187 -0.52287865 0.32315677
0.03071503 0.043140151 0.069897324 0.19972187 -0.52287865 0.32315677
0.031577796 0.043715388 0.069807492 0.19972187 -0.52287865 0.32315677
0.032421958 0.044357128 0.069688305 0.19972187 -0.52287865 0.32315677
0.033253442 0.0450464 0.069548286 0.19972187 -0.52287865 0.32315677
0.034063604 0.045813791 0.069373839 0.19972187 -0.52287865 0.32315677
0.034857471 0.046643406 0.069172122 0.19972187 -0.52287865 0.32315677
0.035630237 0.047553141 0.068935208 0.19972187 -0.52287865 0.32315677
0.036375772 0.048565954 0.06865295 0.19972187 -0.52287865 0.32315677
0.037105769 0.04964269 0.068342865 0.19972187 -0.52287865 0.32315677
0.037784711 0.050910387 0.067948505 0.19972187 -0.52287865 0.32315677
0.038431574 0.05230511 0.067498468 0.19972187 -0.52287865 0.32315677
0.039029583 0.053889494 0.066965029 0.19972187 -0.52287865 0.32315677
0.03954621 0.05578481 0.066294543 0.19972187 -0.52287865 0.32315677
0.039906267 0.058270536 0.065363303 0.19972187 -0.52287865 0.32315677
0.03987186 0.06222913 0.06378065 0.19972187 -0.52287865 0.32315677
0.0038306902 0.04826146 0.062447224 0.19972187 -0.52287865 0.32315677
0.0056427321 0.04609194 0.063606329 0.19972187 -0.52287865 0.32315677
0.0072005833 0.04464405 0.064435169 0.19972187 -0.52287865 0.32315677
0.0086298678 0.043557491 0.065098539 0.19972187 -0.52287865 0.32315677
0.0099670123 0.042729776 0.065643415 0.19972187 -0.52287865 0.32315677
0.01125302 0.04204239 0.066123955 0.19972187 -0.52287865 0.32315677
0.012498342 0.041466236 0.066553503 0.19972187 -0.52287865 0.32315677
0.013686402 0.041053489 0.066908471 0.19972187 -0.52287865 0.32315677
0.014857817 0.040683128 0.067243949 0.19972187 -0.52287865 0.32315677
0.015986916 0.040434621 0.067523912 0.19972187 -0.52287865 0.32315677
0.017100671 0.040226918 0.067785226 0.19972187 -0.52287865 0.32315677
0.018183485 0.04010912 0.068005681 0.19972187 -0.52287865 0.32315677
0.019252513 0.040029299 0.068208873 0.19972187 -0.52287865 0.32315677
0.020294635 0.040029299 0.068375893 0.19972187 -0.52287865 0.32315677
0.021327173 0.040055882 0.068530895 0.19972187 -0.52287865 0.32315677
0.022332573 0.04016526 0.068648502 0.19972187 -0.52287865 0.32315677
0.023333939 0.040285144 0.068761438 0.19972187 -0.52287865 0.32315677
0.02430536 0.04049895 0.068832055 0.19972187 -0.52287865 0.32315677
0.025276458 0.040712684 0.068902835 0.19972187 -0.52287865 0.32315677
0.026218023 0.041021284 0.068930991 0.19972187 -0.52287865 0.32315677
0.027157197 0.041337743 0.068955801 0.19972187 -0.52287865 0.32315677
0.028073173 0.04173065 0.068946391 0.19972187 -0.52287865 0.32315677
0.028981254 0.042150777 0.068924986 0.19972187 -0.52287865 0.32315677
0.029871272 0.042632483 0.068876147 0.19972187 -0.52287865 0.32315677
0.030748239 0.043160129 0.068806969 0.19972187 -0.52287865 0.32315677
0.031610478 0.043740232 0.068714567 0.19972187 -0.52287865 0.32315677
0.032455396 0.044382546 0.068594612 0.19972187 -0.52287865 0.32315677
0.033286177 0.04507741 0.068451487 0.19972187 -0.52287865 0.32315677
0.034097083 0.045845505 0.068275966 0.19972187 -0.52287865 0.32315677
0.03489 0.046681698 0.068070427 0.19972187 -0.52287865 0.32315677
0.035663493 0.04759229 0.067832105 0.19972187 -0.52287865 0.32315677
0.036407731 0.048613094 0.067545049 0.19972187 -0.52287865 0.32315677
0.037138332 0.04969123 0.067232996 0.19972187 -0.52287865 0.32315677
0.037815575 0.050968602 0.066832617 0.19972187 -0.52287865 0.32315677
0.03845989 0.052376173 0.066374898 0.19972187 -0.52287865 0.32315677
0.039054148 0.053977974 0.065831393 0.19972187 -0.52287865 0.32315677
0.039564889 0.055898737 0.065146677 0.19972187 -0.52287865 0.32315677
0.039914709 0.058426294 0.064192817 0.19972187 -0.52287865 0.32315677
0.039793056 0.062709741 0.062458772 0.19972187 -0.52287865 0.32315677
0.0038686101 0.048205532 0.061362151 0.19972187 -0.52287865 0.32315677
0.0056716208 0.046064578 0.062513165 0.19972187 -0.52287865 0.32315677
0.0072280564 0.044623166 0.063342631 0.19972187 -0.52287865 0.32315677
0.0086584184 0.043535788 0.064009257 0.19972187 -0.52287865 0.32315677
0.0099946689 0.042713135 0.0645542 0.19972187 -0.52287865 0.32315677
0.011280124 0.04202985 0.065034963 0.19972187 -0.52287865 0.32315677
0.012526419 0.04145325 0.065466598 0.19972187 -0.52287865 0.32315677
0.013714097 0.041044157 0.065821454 0.19972187 -0.52287865 0.32315677
0.014885264 0.040677089 0.066156909 0.19972187 -0.52287865 0.32315677
0.016015269 0.040428381 0.066438198 0.19972187 -0.52287865 0.32315677
0.017128833 0.040223856 0.066699222 0.19972187 -0.52287865 0.32315677
0.018212523 0.040105961 0.06692069 0.19972187 -0.52287865 0.32315677
0.019281385 0.040029299 0.067123346 0.19972187 -0.52287865 0.32315677
0.020324364 0.040029299 0.067291111 0.19972187 -0.52287865 0.32315677
0.021356737 0.040059101 0.067445338 0.19972187 -0.52287865 0.32315677
0.02236297 0.040168568 0.067563429 0.19972187 -0.52287865 0.32315677
0.023364151 0.040291794 0.067675352 0.19972187 -0.52287865 0.32315677
0.02433639 0.040505778 0.067746207 0.19972187 -0.52287865 0.32315677
0.025308304 0.040719692 0.067817226 0.19972187 -0.52287865 0.32315677
0.026249627 0.041031934 0.067843869 0.19972187 -0.52287865 0.32315677
0.027189601 0.041348662 0.067868672 0.19972187 -0.52287865 0.32315677
0.02810527 0.041745503 0.067857459 0.19972187 -0.52287865 0.32315677
0.029014137 0.042165991 0.0678358 0.19972187 -0.52287865 0.32315677
0.029903755 0.04265203 0.067784801 0.19972187 -0.52287865 0.32315677
0.030781494 0.043180138 0.067715123 0.19972187 -0.52287865 0.32315677
0.031643204 0.043765113 0.067620128 0.19972187 -0.52287865 0.32315677
0.032488883 0.044408005 0.067499399 0.19972187 -0.52287865 0.32315677
0.033318959 0.04510846 0.067353137 0.19972187 -0.52287865 0.32315677
0.034130607 0.045877259 0.067176551 0.19972187 -0.52287865 0.32315677
0.034922574 0.046720047 0.06696716 0.19972187 -0.52287865 0.32315677
0.035696797 0.047631495 0.066727422 0.19972187 -0.52287865 0.32315677
0.036439735 0.048660301 0.066435538 0.19972187 -0.52287865 0.32315677
0.037168562 0.049748246 0.066117734 0.19972187 -0.52287865 0.32315677
0.037846483 0.051026899 0.06571506 0.19972187 -0.52287865 0.32315677
0.038488247 0.052447349 0.065249592 0.19972187 -0.52287865 0.32315677
0.039078753 0.054066591 0.064695947 0.19972187 -0.52287865 0.32315677
0.039583601 0.056012858 0.063996881 0.19972187 -0.52287865 0.32315677
0.039923165 0.058582336 0.063020185 0.19972187 -0.52287865 0.32315677
0.03971402 0.063191757 0.061133016 0.19972187 -0.52287865 0.32315677
0.0039065732 0.048149541 0.060275853 0.19972187 -0.52287865 0.32315677
0.0057005454 0.046037178 0.061418656 0.19972187 -0.52287865 0.32315677
0.0072555644 0.044602253 0.062248725 0.19972187 -0.52287865 0.32315677
0.0086870044 0.043514054 0.062918618 0.19972187 -0.52287865 0.32315677
0.01002236 0.042696476 0.063463598 0.19972187 -0.52287865 0.32315677
0.011307262 0.042017296 0.063944578 0.19972187 -0.52287865 0.32315677
0.01255453 0.041440241 0.064378306 0.19972187 -0.52287865 0.32315677
0.013741829 0.04103481 0.064733043 0.19972187 -0.52287865 0.32315677
0.014912748 0.040671039 0.065068454 0.19972187 -0.52287865 0.32315677
0.016043659 0.04042213 0.065351076 0.19972187 -0.52287865 0.32315677
0.017157031 0.040220786 0.065611787 0.19972187 -0.52287865 0.32315677
0.018241603 0.040102795 0.065834284 0.19972187 -0.52287865 0.32315677
0.019310297 0.040029299 0.066036388 0.19972187 -0.52287865 0.32315677
0.020354131 0.040029299 0.066204898 0.19972187 -0.52287865 0.32315677
0.02138634 0.040062319 0.066358343 0.19972187 -0.52287865 0.32315677
0.022393409 0.04017188 0.066476919 0.19972187 -0.52287865 0.32315677
0.023394406 0.040298451 0.066587813 0.19972187 -0.52287865 0.32315677
0.024367461 0.040512618 0.066658914 0.19972187 -0.52287865 0.32315677
0.025340192 0.04072671 0.066730171 0.19972187 -0.52287865 0.32315677
0.026281273 0.041042596 0.066755287 0.19972187 -0.52287865 0.32315677
0.027222048 0.041359596 0.066780083 0.19972187 -0.52287865 0.32315677
0.02813741 0.04176037 0.066767044 0.19972187 -0.52287865 0.32315677
0.029047064 0.042181224 0.066745132 0.19972187 -0.52287865 0.32315677
0.029936284 0.042671598 0.066691957 0.19972187 -0.52287865 0.32315677
0.030814795 0.043200176 0.06662178 0.19972187 -0.52287865 0.32315677
0.031675976 0.043790024 0.06652417 0.19972187 -0.52287865 0.32315677
0.032522414 0.044433493 0.066402659 0.19972187 -0.52287865 0.32315677
0.033351786 0.045139551 0.066253237 0.19972187 -0.52287865 0.32315677
0.034164179 0.045909058 0.066075578 0.19972187 -0.52287865 0.32315677
0.034955196 0.046758451 0.065862305 0.19972187 -0.52287865 0.32315677
0.03573015 0.047670759 0.065621153 0.19972187 -0.52287865 0.32315677
0.036471788 0.048707578 0.065324396 0.19972187 -0.52287865 0.32315677
0.037198834 0.049805347 0.065000802 0.19972187 -0.52287865 0.32315677
0.03787744 0.051085286 0.064595819 0.19972187 -0.52287865 0.32315677
0.038516652 0.052518632 0.064122558 0.19972187 -0.52287865 0.32315677
0.039103393 0.054155353 0.063558675 0.19972187 -0.52287865 0.32315677
0.039602343 0.056127168 0.062845141 0.19972187 -0.52287865 0.32315677
0.039931636 0.05873866 0.061845407 0.19972187 -0.52287865 0.32315677
0.039634749 0.063675202 0.059803352 0.19972187 -0.52287865 0.32315677
0.003944579 0.048093487 0.059188314 0.19972187 -0.52287865 0.32315677
0.0057295058 0.046009749 0.060322791 0.19972187 -0.52287865 0.32315677
0.0072831069 0.044581316 0.061153442 0.19972187 -0.52287865 0.32315677
0.0087156268 0.043492295 0.061826617 0.19972187 -0.52287865 0.32315677
0.010050085 0.042679794 0.062371615 0.19972187 -0.52287865 0.32315677
0.011334435 0.042004723 0.062852792 0.19972187 -0.52287865 0.32315677
0.012582678 0.041427221 0.063288622 0.19972187 -0.52287865 0.32315677
0.013769596 0.041025456 0.063643217 0.19972187 -0.52287865 0.32315677
0.014940267 0.040664982 0.063978583 0.19972187 -0.52287865 0.32315677
0.016072085 0.040415876 0.064262532 0.19972187 -0.52287865 0.32315677
0.017185267 0.040217713 0.064522929 0.19972187 -0.52287865 0.32315677
0.018270718 0.040099628 0.064746454 0.19972187 -0.52287865 0.32315677
0.019339249 0.040029299 0.064947993 0.19972187 -0.52287865 0.32315677
0.020383937 0.040029299 0.065117247 0.19972187 -0.52287865 0.32315677
0.021415982 0.040065546 0.065269895 0.19972187 -0.52287865 0.32315677
0.022423888 0.040175196 0.065388963 0.19972187 -0.52287865 0.32315677
0.0234247 0.040305119 0.065498821 0.19972187 -0.52287865 0.32315677
0.024398575 0.040519465 0.065570153 0.19972187 -0.52287865 0.32315677
0.025371419 0.040736016 0.065640613 0.19972187 -0.52287865 0.32315677
0.02631296 0.041053273 0.065665223 0.19972187 -0.52287865 0.32315677
0.027254539 0.041370545 0.065690018 0.19972187 -0.52287865 0.32315677
0.028169595 0.04177526 0.065675132 0.19972187 -0.52287865 0.32315677
0.029080037 0.042196479 0.065652974 0.19972187 -0.52287865 0.32315677
0.029968856 0.042691197 0.065597609 0.19972187 -0.52287865 0.32315677
0.030848144 0.043220241 0.065526918 0.19972187 -0.52287865 0.32315677
0.031708792 0.043814972 0.065426677 0.19972187 -0.52287865 0.32315677
0.032555994 0.044459023 0.065304391 0.19972187 -0.52287865 0.32315677
0.033384658 0.045170691 0.065151781 0.19972187 -0.52287865 0.32315677
0.0341978 0.045940906 0.064973041 0.19972187 -0.52287865 0.32315677
0.034987863 0.04679691 0.064755857 0.19972187 -0.52287865 0.32315677
0.035763547 0.04771008 0.064513281 0.19972187 -0.52287865 0.32315677
0.036503889 0.048754923 0.064211622 0.19972187 -0.52287865 0.32315677
0.037229154 0.049862534 0.063882194 0.19972187 -0.52287865 0.32315677
0.037908442 0.051143762 0.063474894 0.19972187 -0.52287865 0.32315677
0.038545098 0.052590027 0.062993772 0.19972187 -0.52287865 0.32315677
0.039128076 0.054244254 0.062419575 0.19972187 -0.52287865 0.32315677
0.039621118 0.056241672 0.061691444 0.19972187 -0.52287865 0.32315677
0.039940126 0.058895275 0.060668472 0.19972187 -0.52287865 0.32315677
0.039555248 0.064160064 0.058469765 0.19972187 -0.52287865 0.32315677
0.0039826287 0.048037369 0.058099538 0.19972187 -0.52287865 0.32315677
0.0057585016 0.045982283 0.05922557 0.19972187 -0.52287865 0.32315677
0.0073106838 0.04456035 0.060056776 0.19972187 -0.52287865 0.32315677
0.0087442854 0.043470509 0.060733233 0.19972187 -0.52287865 0.32315677
0.010077847 0.04266309 0.061278243 0.19972187 -0.52287865 0.32315677
0.011361643 0.041992135 0.061759599 0.19972187 -0.52287865 0.32315677
0.012610221 0.041416112 0.062196638 0.19972187 -0.52287865 0.32315677
0.0137974 0.041016087 0.062551983 0.19972187 -0.52287865 0.32315677
0.014967822 0.040658917 0.062887281 0.19972187 -0.52287865 0.32315677
0.01610055 0.04040961 0.063172571 0.19972187 -0.52287865 0.32315677
0.01721354 0.040214639 0.063432641 0.19972187 -0.52287865 0.32315677
0.018299872 0.040096458 0.063657187 0.19972187 -0.52287865 0.32315677
0.019368237 0.040029299 0.063858151 0.19972187 -0.52287865 0.32315677
0.020413784 0.040029299 0.064028159 0.19972187 -0.52287865 0.32315677
0.021445664 0.040068775 0.064180002 0.19972187 -0.52287865 0.32315677
0.022454407 0.040178515 0.064299554 0.19972187 -0.52287865 0.32315677
0.023455035 0.040311795 0.064408354 0.19972187 -0.52287865 0.32315677
0.024429729 0.040526323 0.064479932 0.19972187 -0.52287865 0.32315677
0.025402347 0.040746439 0.064549074 0.19972187 -0.52287865 0.32315677
0.026344692 0.041063964 0.064573683 0.19972187 -0.52287865 0.32315677
0.027287075 0.041381508 0.064598471 0.19972187 -0.52287865 0.32315677
0.028201822 0.041790172 0.064581729 0.19972187 -0.52287865 0.32315677
0.029113054 0.042211756 0.064559318 0.19972187 -0.52287865 0.32315677
0.030001473 0.042710822 0.064501733 0.19972187 -0.52287865 0.32315677
0.030881535 0.043240331 0.064430542 0.19972187 -0.52287865 0.32315677
0.031741656 0.043839958 0.064327642 0.19972187 -0.52287865 0.32315677
0.032589618 0.044484586 0.064204574 0.19972187 -0.52287865 0.32315677
0.033417579 0.045201872 0.06404876 0.19972187 -0.52287865 0.32315677
0.034231469 0.045972794 0.063868932 0.19972187 -0.52287865 0.32315677
0.035020579 0.046835423 0.063647807 0.19972187 -0.52287865 0.32315677
0.035796996 0.047749456 0.063403808 0.19972187 -0.52287865 0.32315677
0.036536034 0.048802339 0.063097209 0.19972187 -0.52287865 0.32315677
0.037259519 0.049919806 0.062761888 0.19972187 -0.52287865 0.32315677
0.037939493 0.051202323 0.062352274 0.19972187 -0.52287865 0.32315677
0.038573589 0.052661534 0.061863225 0.19972187 -0.52287865 0.32315677
0.039152797 0.054333303 0.061278634 0.19972187 -0.52287865 0.32315677
0.039639927 0.056356374 0.060535785 0.19972187 -0.52287865 0.32315677
0.039948627 0.059052177 0.059489362 0.19972187 -0.52287865 0.32315677
0.0040207217 0.047981188 0.057009507 0.19972187 -0.52287865 0.32315677
0.0057875342 0.045954783 0.058126979 0.19972187 -0.52287865 0.32315677
0.0073382957 0.044539358 0.05895872 0.19972187 -0.52287865 0.32315677
0.0087729795 0.043448694 0.05963847 0.19972187 -0.52287865 0.32315677
0.010105644 0.042646367 0.060183462 0.19972187 -0.52287865 0.32315677
0.011388886 0.041979533 0.060664989 0.19972187 -0.52287865 0.32315677
0.012637118 0.041407049 0.061102279 0.19972187 -0.52287865 0.32315677
0.013825239 0.041006707 0.061459318 0.19972187 -0.52287865 0.32315677
0.014995414 0.040652845 0.061794542 0.19972187 -0.52287865 0.32315677
0.01612905 0.040403336 0.062081173 0.19972187 -0.52287865 0.32315677
0.017241852 0.040211558 0.0623409 0.19972187 -0.52287865 0.32315677
0.018329065 0.04009328 0.062566482 0.19972187 -0.52287865 0.32315677
0.019397264 0.040029299 0.062766865 0.19972187 -0.52287865 0.32315677
0.02044367 0.040029299 0.062937617 0.19972187 -0.52287865 0.32315677
0.021475386 0.040072009 0.063088633 0.19972187 -0.52287865 0.32315677
0.022484967 0.040181838 0.063208684 0.19972187 -0.52287865 0.32315677
0.023485411 0.040318482 0.06331642 0.19972187 -0.52287865 0.32315677
0.024460927 0.040533189 0.063388236 0.19972187 -0.52287865 0.32315677
0.025433317 0.040756874 0.063456051 0.19972187 -0.52287865 0.32315677
0.026376467 0.041074671 0.063480653 0.19972187 -0.52287865 0.32315677
0.027319655 0.041392483 0.063505441 0.19972187 -0.52287865 0.32315677
0.028234094 0.041805103 0.063486822 0.19972187 -0.52287865 0.32315677
0.029146118 0.042227052 0.063464157 0.19972187 -0.52287865 0.32315677
0.030034136 0.042730473 0.063404337 0.19972187 -0.52287865 0.32315677
0.030914975 0.043260451 0.063332632 0.19972187 -0.52287865 0.32315677
0.031774566 0.043864977 0.063227057 0.19972187 -0.52287865 0.32315677
0.032623291 0.044510182 0.063103206 0.19972187 -0.52287865 0.32315677
0.033450544 0.045233097 0.062944151 0.19972187 -0.52287865 0.32315677
0.034265183 0.046004731 0.062763244 0.19972187 -0.52287865 0.32315677
0.035053343 0.046873994 0.062538147 0.19972187 -0.52287865 0.32315677
0.035830494 0.047788888 0.062292717 0.19972187 -0.52287865 0.32315677
0.036568228 0.048849825 0.061981138 0.19972187 -0.52287865 0.32315677
0.037289932 0.049977165 0.06163989 0.19972187 -0.52287865 0.32315677
0.037970588 0.051260978 0.061227947 0.19972187 -0.52287865 0.32315677
0.038602125 0.052733153 0.060730916 0.19972187 -0.52287865 0.32315677
0.039177559 0.054422494 0.060135841 0.19972187 -0.52287865 0.32315677
0.039658766 0.05647127 0.059378151 0.19972187 -0.52287865 0.32315677
0.039957147 0.059209369 0.058308069 0.19972187 -0.52287865 0.32315677
0.0040588588 0.04792494 0.055918224 0.19972187 -0.52287865 0.32315677
0.0058166026 0.045927249 0.057027012 0.19972187 -0.52287865 0.32315677
0.0073659434 0.04451834 0.057859261 0.19972187 -0.52287865 0.32315677
0.0088000046 0.043431915 0.058539949 0.19972187 -0.52287865 0.32315677
0.010133478 0.042629618 0.059087276 0.19972187 -0.52287865 0.32315677
0.011416165 0.041966911 0.059568956 0.19972187 -0.52287865 0.32315677
0.01266405 0.041397974 0.060006484 0.19972187 -0.52287865 0.32315677
0.013853115 0.040997315 0.060365222 0.19972187 -0.52287865 0.32315677
0.015023042 0.040646765 0.060700364 0.19972187 -0.52287865 0.32315677
0.01615759 0.040397055 0.060988337 0.19972187 -0.52287865 0.32315677
0.0172702 0.040208474 0.061247714 0.19972187 -0.52287865 0.32315677
0.018358298 0.040090103 0.061474327 0.19972187 -0.52287865 0.32315677
0.019426329 0.040029299 0.061674111 0.19972187 -0.52287865 0.32315677
0.020473598 0.040029299 0.061845619 0.19972187 -0.52287865 0.32315677
0.021505147 0.040075246 0.061995801 0.19972187 -0.52287865 0.32315677
0.022515569 0.040185168 0.06211634 0.19972187 -0.52287865 0.32315677
0.023515828 0.040325176 0.062222995 0.19972187 -0.52287865 0.32315677
0.024492167 0.040540066 0.062295061 0.19972187 -0.52287865 0.32315677
0.02546433 0.040767323 0.06236152 0.19972187 -0.52287865 0.32315677
0.026408285 0.041085392 0.062386122 0.19972187 -0.52287865 0.32315677
0.027352279 0.041403476 0.062410906 0.19972187 -0.52287865 0.32315677
0.028266413 0.041820053 0.062390395 0.19972187 -0.52287865 0.32315677
0.029179227 0.042242371 0.06236748 0.19972187 -0.52287865 0.32315677
0.030066844 0.042750154 0.062305406 0.19972187 -0.52287865 0.32315677
0.030948462 0.043280598 0.062233191 0.19972187 -0.52287865 0.32315677
0.031807523 0.043890029 0.062124919 0.19972187 -0.52287865 0.32315677
0.032657012 0.044535819 0.062000278 0.19972187 -0.52287865 0.32315677
0.033483561 0.045264371 0.061837967 0.19972187 -0.52287865 0.32315677
0.034298949 0.046036713 0.061655965 0.19972187 -0.52287865 0.32315677
0.035086155 0.046912622 0.061426867 0.19972187 -0.52287865 0.32315677
0.035864037 0.04782838 0.061180003 0.19972187 -0.52287865 0.32315677
0.036600471 0.048897382 0.060863405 0.19972187 -0.52287865 0.32315677
0.037320387 0.050034609 0.060516182 0.19972187 -0.52287865 0.32315677
0.038001731 0.051319718 0.060101908 0.19972187 -0.52287865 0.32315677
0.038630705 0.052804884 0.059596829 0.19972187 -0.52287865 0.32315677
0.039202362 0.05451183 0.058991186 0.19972187 -0.52287865 0.32315677
0.039677639 0.056586362 0.058218528 0.19972187 -0.52287865 0.32315677
0.039965685 0.059366856 0.057124581 0.19972187 -0.52287865 0.32315677
0.0040938081 0.047878053 0.054821242 0.19972187 -0.52287865 0.32315677
0.0058457078 0.045899678 0.05592566 0.19972187 -0.52287865 0.32315677
0.007393626 0.044497296 0.056758396 0.19972187 -0.52287865 0.32315677
0.0088268435 0.043415766 0.0574397 0.19972187 -0.52287865 0.32315677
0.010161347 0.042612851 0.057989672 0.19972187 -0.52287865 0.32315677
0.011443479 0.041954275 0.058471493 0.19972187 -0.52287865 0.32315677
0.012691017 0.041388888 0.058909245 0.19972187 -0.52287865 0.32315677
0.013881028 0.040987909 0.059269689 0.19972187 -0.52287865 0.32315677
0.015050706 0.040640675 0.05960473 0.19972187 -0.52287865 0.32315677
0.016186167 0.040390767 0.059894055 0.19972187 -0.52287865 0.32315677
0.017298587 0.040205386 0.060153063 0.19972187 -0.52287865 0.32315677
0.018387567 0.040086918 0.060380712 0.19972187 -0.52287865 0.32315677
0.019455435 0.040029299 0.060579889 0.19972187 -0.52287865 0.32315677
0.020503564 0.040029299 0.06075215 0.19972187 -0.52287865 0.32315677
0.02153495 0.040078487 0.060901485 0.19972187 -0.52287865 0.32315677
0.022546213 0.040188503 0.061022516 0.19972187 -0.52287865 0.32315677
0.023546288 0.040331881 0.06112808 0.19972187 -0.52287865 0.32315677
0.024523448 0.04054695 0.061200388 0.19972187 -0.52287865 0.32315677
0.025495386 0.040777788 0.061265487 0.19972187 -0.52287865 0.32315677
0.026440147 0.041096129 0.061290085 0.19972187 -0.52287865 0.32315677
0.027384948 0.041414484 0.061314866 0.19972187 -0.52287865 0.32315677
0.028298775 0.041835025 0.061292443 0.19972187 -0.52287865 0.32315677
0.029212382 0.042257711 0.061269276 0.19972187 -0.52287865 0.32315677
0.030099599 0.04276986 0.061204929 0.19972187 -0.52287865 0.32315677
0.030981997 0.043300774 0.061132204 0.19972187 -0.52287865 0.32315677
0.031840526 0.043915119 0.061021209 0.19972187 -0.52287865 0.32315677
0.032690782 0.04456149 0.060895786 0.19972187 -0.52287865 0.32315677
0.033516623 0.045295686 0.060730182 0.19972187 -0.52287865 0.32315677
0.034332763 0.046068743 0.060547091 0.19972187 -0.52287865 0.32315677
0.035119016 0.046951305 0.060313959 0.19972187 -0.52287865 0.32315677
0.035897635 0.047867931 0.060065657 0.19972187 -0.52287865 0.32315677
0.036632761 0.04894501 0.059744004 0.19972187 -0.52287865 0.32315677
0.037350893 0.050092146 0.059390757 0.19972187 -0.52287865 0.32315677
0.038032923 0.051378548 0.058974143 0.19972187 -0.52287865 0.32315677
0.038659334 0.052876726 0.058460955 0.19972187 -0.52287865 0.32315677
0.039227206 0.054601312 0.057844665 0.19972187 -0.52287865 0.32315677
0.039696541 0.056701653 0.057056911 0.19972187 -0.52287865 0.32315677
0.039974235 0.059524637 0.055938885 0.19972187 -0.52287865 0.32315677
0.0011164029 0.053439658 0.050897669 0.19972187 -0.52287865 0.32315677
0.0041254987 0.047840744 0.053718396 0.19972187 -0.52287865 0.32315677
0.0058748499 0.045872077 0.054822914 0.19972187 -0.52287865 0.32315677
0.0074213441 0.044476226 0.055656116 0.19972187 -0.52287865 0.32315677
0.0088537177 0.043399598 0.05633802 0.19972187 -0.52287865 0.32315677
0.010189252 0.042596061 0.056890644 0.19972187 -0.52287865 0.32315677
0.011470829 0.04194162 0.057372589 0.19972187 -0.52287865 0.32315677
0.012718021 0.041379791 0.057810552 0.19972187 -0.52287865 0.32315677
0.013908978 0.040978491 0.058172707 0.19972187 -0.52287865 0.32315677
0.015078408 0.04063458 0.05850764 0.19972187 -0.52287865 0.32315677
0.016214781 0.040384468 0.058798313 0.19972187 -0.52287865 0.32315677
0.017327011 0.040202294 0.059056949 0.19972187 -0.52287865 0.32315677
0.018416878 0.040083729 0.059285633 0.19972187 -0.52287865 0.32315677
0.01948458 0.040029299 0.059484188 0.19972187 -0.52287865 0.32315677
0.020533569 0.040029299 0.059657209 0.19972187 -0.52287865 0.32315677
0.021564793 0.040081736 0.05980568 0.19972187 -0.52287865 0.32315677
0.022576896 0.04019184 0.059927206 0.19972187 -0.52287865 0.32315677
0.023576789 0.040338594 0.060031664 0.19972187 -0.52287865 0.32315677
0.024554774 0.040553845 0.060104217 0.19972187 -0.52287865 0.32315677
0.025526483 0.040788267 0.060167938 0.19972187 -0.52287865 0.32315677
0.026472054 0.04110688 0.060192537 0.19972187 -0.52287865 0.32315677
0.027417162 0.041427147 0.060216546 0.19972187 -0.52287865 0.32315677
0.028331183 0.041850019 0.060192961 0.19972187 -0.52287865 0.32315677
0.029245583 0.042273071 0.06016954 0.19972187 -0.52287865 0.32315677
0.0301324 0.042789597 0.060102899 0.19972187 -0.52287865 0.32315677
0.031015577 0.04332098 0.060029659 0.19972187 -0.52287865 0.32315677
0.031873576 0.043940242 0.059915926 0.19972187 -0.52287865 0.32315677
0.0327246 0.044587199 0.05978971 0.19972187 -0.52287865 0.32315677
0.03354973 0.045327049 0.059620798 0.19972187 -0.52287865 0.32315677
0.034366626 0.046100818 0.059436612 0.19972187 -0.52287865 0.32315677
0.035151921 0.046990044 0.059199411 0.19972187 -0.52287865 0.32315677
0.035930716 0.047909502 0.058948763 0.19972187 -0.52287865 0.32315677
0.036665101 0.048992708 0.058622923 0.19972187 -0.52287865 0.32315677
0.037381444 0.050149769 0.058263607 0.19972187 -0.52287865 0.32315677
0.038064163 0.051437471 0.057844643 0.19972187 -0.52287865 0.32315677
0.038688004 0.052948684 0.057323284 0.19972187 -0.52287865 0.32315677
0.039252091 0.054690942 0.056696258 0.19972187 -0.52287865 0.32315677
0.03971548 0.056817144 0.055893287 0.19972187 -0.52287865 0.32315677
0.039982803 0.059682712 0.054750971 0.19972187 -0.52287865 0.32315677
0.001251102 0.053101577 0.049924303 0.19972187 -0.52287865 0.32315677
0.0041572284 0.047803391 0.05261419 0.19972187 -0.52287865 0.32315677
0.0059040291 0.045844436 0.053718772 0.19972187 -0.52287865 0.32315677
0.0074490984 0.044455126 0.054552414 0.19972187 -0.52287865 0.32315677
0.0088806264 0.043383408 0.055234898 0.19972187 -0.52287865 0.32315677
0.010217194 0.042579252 0.055790178 0.19972187 -0.52287865 0.32315677
0.011498216 0.041928951 0.056272235 0.19972187 -0.52287865 0.32315677
0.01274506 0.041370679 0.0567104 0.19972187 -0.52287865 0.32315677
0.013936964 0.040969059 0.057074267 0.19972187 -0.52287865 0.32315677
0.015106146 0.040628474 0.057409078 0.19972187 -0.52287865 0.32315677
0.016243434 0.040378161 0.057701107 0.19972187 -0.52287865 0.32315677
0.017355472 0.040199198 0.057959355 0.19972187 -0.52287865 0.32315677
0.018446228 0.040080536 0.058189083 0.19972187 -0.52287865 0.32315677
0.019513763 0.040029299 0.058387 0.19972187 -0.52287865 0.32315677
0.020563617 0.040029299 0.058560781 0.19972187 -0.52287865 0.32315677
0.021594675 0.040084984 0.058708381 0.19972187 -0.52287865 0.32315677
0.022607625 0.040195182 0.058830403 0.19972187 -0.52287865 0.32315677
0.023607332 0.040345315 0.058933739 0.19972187 -0.52287865 0.32315677
0.024586143 0.040560748 0.059006535 0.19972187 -0.52287865 0.32315677
0.025557624 0.040798757 0.05906887 0.19972187 -0.52287865 0.32315677
0.026504004 0.041117646 0.059093464 0.19972187 -0.52287865 0.32315677
0.027448822 0.041441794 0.059115775 0.19972187 -0.52287865 0.32315677
0.028363636 0.041865036 0.059091941 0.19972187 -0.52287865 0.32315677
0.029278832 0.042288452 0.059068263 0.19972187 -0.52287865 0.32315677
0.030165248 0.04280936 0.058999311 0.19972187 -0.52287865 0.32315677
0.031049205 0.043341216 0.058925558 0.19972187 -0.52287865 0.32315677
0.031906676 0.043965407 0.058809057 0.19972187 -0.52287865 0.32315677
0.032758467 0.044612944 0.058682051 0.19972187 -0.52287865 0.32315677
0.033582889 0.045358457 0.058509801 0.19972187 -0.52287865 0.32315677
0.034400538 0.046132937 0.058324512 0.19972187 -0.52287865 0.32315677
0.035184879 0.047028843 0.058083221 0.19972187 -0.52287865 0.32315677
0.035962388 0.047956217 0.057827845 0.19972187 -0.52287865 0.32315677
0.036697488 0.049040478 0.057500154 0.19972187 -0.52287865 0.32315677
0.03741204 0.050207477 0.057134721 0.19972187 -0.52287865 0.32315677
0.038095452 0.051496483 0.056713402 0.19972187 -0.52287865 0.32315677
0.038716719 0.053020753 0.056183811 0.19972187 -0.52287865 0.32315677
0.039277013 0.054780718 0.055545963 0.19972187 -0.52287865 0.32315677
0.039734449 0.056932837 0.054727644 0.19972187 -0.52287865 0.32315677
0.039991386 0.059841082 0.053560823 0.19972187 -0.52287865 0.32315677
0.0013858279 0.052763432 0.048950739 0.19972187 -0.52287865 0.32315677
0.0041889972 0.047765989 0.051508609 0.19972187 -0.52287865 0.32315677
0.0059332452 0.045816764 0.052613221 0.19972187 -0.52287865 0.32315677
0.0074768881 0.044434 0.053447276 0.19972187 -0.52287865 0.32315677
0.0089075714 0.043367196 0.054130327 0.19972187 -0.52287865 0.32315677
0.010245171 0.042562418 0.054688275 0.19972187 -0.52287865 0.32315677
0.011525638 0.041916262 0.055170424 0.19972187 -0.52287865 0.32315677
0.012772135 0.041361555 0.055608779 0.19972187 -0.52287865 0.32315677
0.013964988 0.040959619 0.055974364 0.19972187 -0.52287865 0.32315677
0.015133922 0.040622361 0.056309041 0.19972187 -0.52287865 0.32315677
0.016272126 0.040371846 0.05660243 0.19972187 -0.52287865 0.32315677
0.017383974 0.040196098 0.056860276 0.19972187 -0.52287865 0.32315677
0.018475616 0.04007734 0.05709105 0.19972187 -0.52287865 0.32315677
0.019542987 0.040029299 0.057288319 0.19972187 -0.52287865 0.32315677
0.020593707 0.040029299 0.05746286 0.19972187 -0.52287865 0.32315677
0.021624601 0.04008824 0.057609573 0.19972187 -0.52287865 0.32315677
0.022638394 0.040198531 0.057732094 0.19972187 -0.52287865 0.32315677
0.023637917 0.040352046 0.057834297 0.19972187 -0.52287865 0.32315677
0.024617555 0.040567663 0.057907339 0.19972187 -0.52287865 0.32315677
0.025588809 0.040809266 0.057968266 0.19972187 -0.52287865 0.32315677
0.026535999 0.041128427 0.057992857 0.19972187 -0.52287865 0.32315677
0.027480524 0.041456461 0.058013458 0.19972187 -0.52287865 0.32315677
0.028396133 0.041880071 0.057989366 0.19972187 -0.52287865 0.32315677
0.029312126 0.042303856 0.057965439 0.19972187 -0.52287865 0.32315677
0.03019814 0.042829152 0.057894152 0.19972187 -0.52287865 0.32315677
0.031082882 0.043361478 0.057819884 0.19972187 -0.52287865 0.32315677
0.031939819 0.043990601 0.057700597 0.19972187 -0.52287865 0.32315677
0.032792382 0.044638723 0.057572793 0.19972187 -0.52287865 0.32315677
0.033616096 0.045389909 0.057397179 0.19972187 -0.52287865 0.32315677
0.034434497 0.046165105 0.057210792 0.19972187 -0.52287865 0.32315677
0.035217885 0.047067698 0.056965373 0.19972187 -0.52287865 0.32315677
0.035994105 0.048003003 0.056705233 0.19972187 -0.52287865 0.32315677
0.036729924 0.049088322 0.056375686 0.19972187 -0.52287865 0.32315677
0.037442684 0.050265279 0.056004088 0.19972187 -0.52287865 0.32315677
0.038126785 0.051555589 0.055580411 0.19972187 -0.52287865 0.32315677
0.038745482 0.053092938 0.05504252 0.19972187 -0.52287865 0.32315677
0.03930198 0.054870646 0.054393765 0.19972187 -0.52287865 0.32315677
0.039753452 0.057048731 0.05355997 0.19972187 -0.52287865 0.32315677
0.039999984 0.059999753 0.052368436 0.19972187 -0.52287865 0.32315677
0.0015205813 0.052425213 0.047976978 0.19972187 -0.52287865 0.32315677
0.0042208061 0.047728542 0.05040165 0.19972187 -0.52287865 0.32315677
0.005962499 0.045789052 0.051506251 0.19972187 -0.52287865 0.32315677
0.0075047147 0.044412848 0.052340705 0.19972187 -0.52287865 0.32315677
0.0089345518 0.043350965 0.053024303 0.19972187 -0.52287865 0.32315677
0.010273186 0.042545561 0.053584922 0.19972187 -0.52287865 0.32315677
0.011553097 0.041903559 0.05406715 0.19972187 -0.52287865 0.32315677
0.012799247 0.041352421 0.05450568 0.19972187 -0.52287865 0.32315677
0.01399305 0.04095016 0.05487299 0.19972187 -0.52287865 0.32315677
0.015161736 0.04061624 0.055207521 0.19972187 -0.52287865 0.32315677
0.016300855 0.040365525 0.055502269 0.19972187 -0.52287865 0.32315677
0.017412513 0.040192991 0.055759706 0.19972187 -0.52287865 0.32315677
0.018505046 0.040074136 0.055991527 0.19972187 -0.52287865 0.32315677
0.019572251 0.040029299 0.056188136 0.19972187 -0.52287865 0.32315677
0.020623835 0.040029299 0.056363441 0.19972187 -0.52287865 0.32315677
0.021654565 0.0400915 0.056509256 0.19972187 -0.52287865 0.32315677
0.022669204 0.040201884 0.056632277 0.19972187 -0.52287865 0.32315677
0.023668544 0.040358789 0.056733329 0.19972187 -0.52287865 0.32315677
0.024649009 0.040574584 0.056806616 0.19972187 -0.52287865 0.32315677
0.025620038 0.04081979 0.056866121 0.19972187 -0.52287865 0.32315677
0.02656804 0.041139223 0.056890711 0.19972187 -0.52287865 0.32315677
0.027512273 0.04147115 0.056909584 0.19972187 -0.52287865 0.32315677
0.028428677 0.041895125 0.056885239 0.19972187 -0.52287865 0.32315677
0.029345468 0.042319283 0.05686105 0.19972187 -0.52287865 0.32315677
0.030231081 0.042848971 0.056787416 0.19972187 -0.52287865 0.32315677
0.031116607 0.043381765 0.056712631 0.19972187 -0.52287865 0.32315677
0.031973016 0.044015836 0.056590535 0.19972187 -0.52287865 0.32315677
0.032826345 0.044664543 0.056461934 0.19972187 -0.52287865 0.32315677
0.033649351 0.04542141 0.05628293 0.19972187 -0.52287865 0.32315677
0.034468509 0.046197321 0.05609544 0.19972187 -0.52287865 0.32315677
0.035250936 0.047106612 0.055845864 0.19972187 -0.52287865 0.32315677
0.036025874 0.04804986 0.055580921 0.19972187 -0.52287865 0.32315677
0.036762409 0.04913624 0.055249512 0.19972187 -0.52287865 0.32315677
0.037473377 0.05032317 0.054871704 0.19972187 -0.52287865 0.32315677
0.038157485 0.051617224 0.054444514 0.19972187 -0.52287865 0.32315677
0.038774289 0.053165242 0.053899404 0.19972187 -0.52287865 0.32315677
0.039326988 0.05496072 0.053239655 0.19972187 -0.52287865 0.32315677
0.039772488 0.057164825 0.052390259 0.19972187 -0.52287865 0.32315677
0.039987154 0.06023702 0.051137265 0.19972187 -0.52287865 0.32315677
0.001655363 0.052086927 0.047003012 0.19972187 -0.52287865 0.32315677
0.0042526545 0.047691047 0.049293302 0.19972187 -0.52287865 0.32315677
0.00599179 0.045761306 0.050397862 0.19972187 -0.52287865 0.32315677
0.0075325775 0.044391666 0.051232681 0.19972187 -0.52287865 0.32315677
0.0089615677 0.043334711 0.051916808 0.19972187 -0.52287865 0.32315677
0.010301239 0.042528685 0.052480109 0.19972187 -0.52287865 0.32315677
0.011580593 0.041890837 0.052962404 0.19972187 -0.52287865 0.32315677
0.012826395 0.041343272 0.053401094 0.19972187 -0.52287865 0.32315677
0.014021149 0.040940695 0.053770132 0.19972187 -0.52287865 0.32315677
0.015189587 0.040610109 0.054104507 0.19972187 -0.52287865 0.32315677
0.016329624 0.040359192 0.054400623 0.19972187 -0.52287865 0.32315677
0.017441092 0.040189885 0.054657631 0.19972187 -0.52287865 0.32315677
0.018534515 0.040070932 0.054890502 0.19972187 -0.52287865 0.32315677
0.019601554 0.040029299 0.055086445 0.19972187 -0.52287865 0.32315677
0.020654006 0.040029299 0.055262513 0.19972187 -0.52287865 0.32315677
0.021684572 0.040094763 0.055407416 0.19972187 -0.52287865 0.32315677
0.022700058 0.04020524 0.055530936 0.19972187 -0.52287865 0.32315677
0.023699215 0.040365539 0.055630825 0.19972187 -0.52287865 0.32315677
0.024680508 0.040581517 0.055704363 0.19972187 -0.52287865 0.32315677
0.02565131 0.040830325 0.055762429 0.19972187 -0.52287865 0.32315677
0.026600124 0.041150033 0.055787016 0.19972187 -0.52287865 0.32315677
0.027544064 0.041485857 0.055804141 0.19972187 -0.52287865 0.32315677
0.028461268 0.041910205 0.055779543 0.19972187 -0.52287865 0.32315677
0.029378479 0.042335983 0.055754505 0.19972187 -0.52287865 0.32315677
0.03026407 0.042868819 0.055679094 0.19972187 -0.52287865 0.32315677
0.03115038 0.043402087 0.055603791 0.19972187 -0.52287865 0.32315677
0.032006256 0.044041108 0.055478863 0.19972187 -0.52287865 0.32315677
0.032860357 0.0446904 0.055349462 0.19972187 -0.52287865 0.32315677
0.033682656 0.045452956 0.055167042 0.19972187 -0.52287865 0.32315677
0.03450257 0.046229586 0.054978441 0.19972187 -0.52287865 0.32315677
0.035284042 0.047145583 0.054724678 0.19972187 -0.52287865 0.32315677
0.036057692 0.048096787 0.054454897 0.19972187 -0.52287865 0.32315677
0.036794946 0.049184229 0.054121621 0.19972187 -0.52287865 0.32315677
0.037504118 0.05038115 0.053737555 0.19972187 -0.52287865 0.32315677
0.03818569 0.051688004 0.053302582 0.19972187 -0.52287865 0.32315677
0.038803145 0.053237658 0.052754454 0.19972187 -0.52287865 0.32315677
0.039352037 0.055050947 0.052083623 0.19972187 -0.52287865 0.32315677
0.039791558 0.057281122 0.051218498 0.19972187 -0.52287865 0.32315677
0.039974257 0.060474925 0.04990337 0.19972187 -0.52287865 0.32315677
