# .PCD v0.7 - Point Cloud Data file format
VERSION 0.7
FIELDS x y z vp_x vp_y vp_z
SIZE 4 4 4 4 4 4
TYPE F F F F F F
COUNT 1 1 1 1 1 1
WIDTH 993
HEIGHT 1
VIEWPOINT 0 0 0 1 0 0 0
POINTS 993
DATA ascii
0.036176827 0.048272513 0.06228831 0 -0.64631355 0
0.037356999 0.050103664 0.062457651 0 -0.64631355 0
0.038584713 0.052689448 0.062694855 0 -0.64631355 0
0.00054501789 0.055421732 0.06174564 0 -0.64631355 0
0.0016274494 0.052156989 0.061458524 0 -0.64631355 0
0.0027040036 0.049988534 0.06126802 0 -0.64631355 0
0.0037766667 0.04834114 0.061123505 0 -0.64631355 0
0.0048463158 0.046992134 0.061005395 0 -0.64631355 0
0.0059134406 0.045835521 0.060904358 0 -0.64631355 0
0.0069784932 0.044826683 0.060816467 0 -0.64631355 0
0.0080426121 0.04400393 0.060745094 0 -0.64631355 0
0.0091051012 0.043248352 0.060679778 0 -0.64631355 0
0.010167008 0.042609446 0.060624871 0 -0.64631355 0
0.011228337 0.042053811 0.060577437 0 -0.64631355 0
0.012289152 0.041563019 0.060535856 0 -0.64631355 0
0.013350336 0.041166726 0.06050273 0 -0.64631355 0
0.014411167 0.040809274 0.06047317 0 -0.64631355 0
0.015473118 0.040547706 0.060452193 0 -0.64631355 0
0.016535001 0.040313989 0.060433809 0 -0.64631355 0
0.017598607 0.040172748 0.060423713 0 -0.64631355 0
0.018662553 0.040057 0.060416002 0 -0.64631355 0
0.019728759 0.040029299 0.060416188 0 -0.64631355 0
0.020795815 0.040029299 0.06041896 0 -0.64631355 0
0.021865683 0.040114466 0.060429376 0 -0.64631355 0
0.02293697 0.040231012 0.060442697 0 -0.64631355 0
0.024011765 0.040434331 0.060463808 0 -0.64631355 0
0.025088537 0.040671322 0.06048803 0 -0.64631355 0
0.026169853 0.041005053 0.060520921 0 -0.64631355 0
0.027253577 0.04137022 0.060556732 0 -0.64631355 0
0.028343529 0.04185573 0.060603291 0 -0.64631355 0
0.029436391 0.04237083 0.060652606 0 -0.64631355 0
0.030537529 0.043033354 0.060715057 0 -0.64631355 0
0.031644084 0.04376578 0.060783822 0 -0.64631355 0
0.032758512 0.044612978 0.060862854 0 -0.64631355 0
0.03388476 0.045644388 0.060958274 0 -0.64631355 0
0.035022564 0.046837758 0.061068121 0 -0.64631355 0
0.036176827 0.048272513 0.061199404 0 -0.64631355 0
0.037356999 0.050103664 0.061365783 0 -0.64631355 0
0.038584713 0.052689448 0.061598841 0 -0.64631355 0
0.00054501789 0.055421732 0.060647316 0 -0.64631355 0
0.0016274494 0.052156989 0.060365308 0 -0.64631355 0
0.0027040036 0.049988534 0.06017819 0 -0.64631355 0
0.0037766667 0.04834114 0.060036246 0 -0.64631355 0
0.0048463158 0.046992134 0.059920236 0 -0.64631355 0
0.0059134406 0.045835521 0.059820995 0 -0.64631355 0
0.0069784932 0.044826683 0.059734669 0 -0.64631355 0
0.0080426121 0.04400393 0.059664566 0 -0.64631355 0
0.0091051012 0.043248352 0.059600413 0 -0.64631355 0
0.010167008 0.042609446 0.059546482 0 -0.64631355 0
0.011228337 0.042053811 0.059499893 0 -0.64631355 0
0.012289152 0.041563019 0.059459049 0 -0.64631355 0
0.013350336 0.041166726 0.059426513 0 -0.64631355 0
0.014411167 0.040809274 0.059397478 0 -0.64631355 0
0.015473118 0.040547706 0.059376873 0 -0.64631355 0
0.016535001 0.040313989 0.05935882 0 -0.64631355 0
0.017598607 0.040172748 0.0593489 0 -0.64631355 0
0.018662553 0.040057 0.059341326 0 -0.64631355 0
0.019728759 0.040029299 0.059341513 0 -0.64631355 0
0.020795815 0.040029299 0.059344232 0 -0.64631355 0
0.021865683 0.040114466 0.059354462 0 -0.64631355 0
0.02293697 0.040231012 0.059367549 0 -0.64631355 0
0.024011765 0.040434331 0.059388284 0 -0.64631355 0
0.025088537 0.040671322 0.059412077 0 -0.64631355 0
0.026169853 0.041005053 0.059444383 0 -0.64631355 0
0.027253577 0.04137022 0.059479553 0 -0.64631355 0
0.028343529 0.04185573 0.059525285 0 -0.64631355 0
0.029436391 0.04237083 0.059573721 0 -0.64631355 0
0.030537529 0.043033354 0.059635062 0 -0.64631355 0
0.031644084 0.04376578 0.059702605 0 -0.64631355 0
0.032758512 0.044612978 0.059780233 0 -0.64631355 0
0.03388476 0.045644388 0.059873953 0 -0.64631355 0
0.035022564 0.046837758 0.059981849 0 -0.64631355 0
0.036176827 0.048272513 0.060110796 0 -0.64631355 0
0.037356999 0.050103664 0.060274217 0 -0.64631355 0
0.038584713 0.052689448 0.060503129 0 -0.64631355 0
0.00054501789 0.055421732 0.059549283 0 -0.64631355 0
0.0016274494 0.052156989 0.059272382 0 -0.64631355 0
0.0027040036 0.049988534 0.059088651 0 -0.64631355 0
0.0037766667 0.04834114 0.058949281 0 -0.64631355 0
0.0048463158 0.046992134 0.058835369 0 -0.64631355 0
0.0059134406 0.045835521 0.058737926 0 -0.64631355 0
0.0069784932 0.044826683 0.058653161 0 -0.64631355 0
0.0080426121 0.04400393 0.058584329 0 -0.64631355 0
0.0091051012 0.043248352 0.058521334 0 -0.64631355 0
0.010167008 0.042609446 0.058468383 0 -0.64631355 0
0.011228337 0.042053811 0.058422636 0 -0.64631355 0
0.012289152 0.041563019 0.05838253 0 -0.64631355 0
0.013350336 0.041166726 0.058350585 0 -0.64631355 0
0.014411167 0.040809274 0.058322076 0 -0.64631355 0
0.015473118 0.040547706 0.058301844 0 -0.64631355 0
0.016535001 0.040313989 0.058284115 0 -0.64631355 0
0.017598607 0.040172748 0.058274377 0 -0.64631355 0
0.018662553 0.040057 0.058266941 0 -0.64631355 0
0.019728759 0.040029299 0.05826712 0 -0.64631355 0
0.020795815 0.040029299 0.058269795 0 -0.64631355 0
0.021865683 0.040114466 0.058279838 0 -0.64631355 0
0.02293697 0.040231012 0.058292687 0 -0.64631355 0
0.024011765 0.040434331 0.058313046 0 -0.64631355 0
0.025088537 0.040671322 0.058336411 0 -0.64631355 0
0.026169853 0.041005053 0.058368132 0 -0.64631355 0
0.027253577 0.04137022 0.058402665 0 -0.64631355 0
0.028343529 0.04185573 0.058447566 0 -0.64631355 0
0.029436391 0.04237083 0.058495127 0 -0.64631355 0
0.030537529 0.043033354 0.058555361 0 -0.64631355 0
0.031644084 0.04376578 0.058621679 0 -0.64631355 0
0.032758512 0.044612978 0.058697898 0 -0.64631355 0
0.03388476 0.045644388 0.058789924 0 -0.64631355 0
0.035022564 0.046837758 0.058895867 0 -0.64631355 0
0.036176827 0.048272513 0.059022479 0 -0.64631355 0
0.037356999 0.050103664 0.059182938 0 -0.64631355 0
0.038584713 0.052689448 0.059407707 0 -0.64631355 0
0.00054501789 0.055421732 0.058451544 0 -0.64631355 0
0.0016274494 0.052156989 0.058179744 0 -0.64631355 0
0.0027040036 0.049988534 0.057999402 0 -0.64631355 0
0.0037766667 0.04834114 0.057862598 0 -0.64631355 0
0.0048463158 0.046992134 0.057750788 0 -0.64631355 0
0.0059134406 0.045835521 0.057655141 0 -0.64631355 0
0.0069784932 0.044826683 0.057571936 0 -0.64631355 0
0.0080426121 0.04400393 0.057504375 0 -0.64631355 0
0.0091051012 0.043248352 0.057442542 0 -0.64631355 0
0.010167008 0.042609446 0.057390567 0 -0.64631355 0
0.011228337 0.042053811 0.057345662 0 -0.64631355 0
0.012289152 0.041563019 0.057306297 0 -0.64631355 0
0.013350336 0.041166726 0.057274941 0 -0.64631355 0
0.014411167 0.040809274 0.057246957 0 -0.64631355 0
0.015473118 0.040547706 0.057227097 0 -0.64631355 0
0.016535001 0.040313989 0.057209697 0 -0.64631355 0
0.017598607 0.040172748 0.057200138 0 -0.64631355 0
0.018662553 0.040057 0.05719284 0 -0.64631355 0
0.019728759 0.040029299 0.057193015 0 -0.64631355 0
0.020795815 0.040029299 0.057195637 0 -0.64631355 0
0.021865683 0.040114466 0.057205498 0 -0.64631355 0
0.02293697 0.040231012 0.057218108 0 -0.64631355 0
0.024011765 0.040434331 0.057238095 0 -0.64631355 0
0.025088537 0.040671322 0.057261027 0 -0.64631355 0
0.026169853 0.041005053 0.057292163 0 -0.64631355 0
0.027253577 0.04137022 0.05732606 0 -0.64631355 0
0.028343529 0.04185573 0.057370134 0 -0.64631355 0
0.029436391 0.04237083 0.057416819 0 -0.64631355 0
0.030537529 0.043033354 0.057475939 0 -0.64631355 0
0.031644084 0.04376578 0.057541035 0 -0.64631355 0
0.032758512 0.044612978 0.057615854 0 -0.64631355 0
0.03388476 0.045644388 0.057706181 0 -0.64631355 0
0.035022564 0.046837758 0.057810169 0 -0.64631355 0
0.036176827 0.048272513 0.057934448 0 -0.64631355 0
0.037356999 0.050103664 0.05809195 0 -0.64631355 0
0.038584713 0.052689448 0.058312576 0 -0.64631355 0
0.00054501789 0.055421732 0.057354085 0 -0.64631355 0
0.0016274494 0.052156989 0.057087388 0 -0.64631355 0
0.0027040036 0.049988534 0.056910433 0 -0.64631355 0
0.0037766667 0.04834114 0.056776199 0 -0.64631355 0
0.0048463158 0.046992134 0.056666486 0 -0.64631355 0
0.0059134406 0.045835521 0.056572635 0 -0.64631355 0
0.0069784932 0.044826683 0.056490995 0 -0.64631355 0
0.0080426121 0.04400393 0.0564247 0 -0.64631355 0
0.0091051012 0.043248352 0.05636403 0 -0.64631355 0
0.010167008 0.042609446 0.056313027 0 -0.64631355 0
0.011228337 0.042053811 0.056268968 0 -0.64631355 0
0.012289152 0.041563019 0.056230344 0 -0.64631355 0
0.013350336 0.041166726 0.056199577 0 -0.64631355 0
0.014411167 0.040809274 0.056172118 0 -0.64631355 0
0.015473118 0.040547706 0.056152631 0 -0.64631355 0
0.016535001 0.040313989 0.056135554 0 -0.64631355 0
0.017598607 0.040172748 0.056126174 0 -0.64631355 0
0.018662553 0.040057 0.056119014 0 -0.64631355 0
0.019728759 0.040029299 0.056119189 0 -0.64631355 0
0.020795815 0.040029299 0.056121759 0 -0.64631355 0
0.021865683 0.040114466 0.056131434 0 -0.64631355 0
0.02293697 0.040231012 0.056143809 0 -0.64631355 0
0.024011765 0.040434331 0.056163419 0 -0.64631355 0
0.025088537 0.040671322 0.05618592 0 -0.64631355 0
0.026169853 0.041005053 0.056216471 0 -0.64631355 0
0.027253577 0.04137022 0.056249734 0 -0.64631355 0
0.028343529 0.04185573 0.056292981 0 -0.64631355 0
0.029436391 0.04237083 0.056338787 0 -0.64631355 0
0.030537529 0.043033354 0.056396801 0 -0.64631355 0
0.031644084 0.04376578 0.056460675 0 -0.64631355 0
0.032758512 0.044612978 0.056534085 0 -0.64631355 0
0.03388476 0.045644388 0.056622718 0 -0.64631355 0
0.035022564 0.046837758 0.056724753 0 -0.64631355 0
0.036176827 0.048272513 0.056846697 0 -0.64631355 0
0.037356999 0.050103664 0.057001244 0 -0.64631355 0
0.038584713 0.052689448 0.057217725 0 -0.64631355 0
0.00054501789 0.055421732 0.056256905 0 -0.64631355 0
0.0016274494 0.052156989 0.055995312 0 -0.64631355 0
0.0027040036 0.049988534 0.055821739 0 -0.64631355 0
0.0037766667 0.04834114 0.055690072 0 -0.64631355 0
0.0048463158 0.046992134 0.05558246 0 -0.64631355 0
0.0059134406 0.045835521 0.055490404 0 -0.64631355 0
0.0069784932 0.044826683 0.055410326 0 -0.64631355 0
0.0080426121 0.04400393 0.055345301 0 -0.64631355 0
0.0091051012 0.043248352 0.055285789 0 -0.64631355 0
0.010167008 0.042609446 0.055235766 0 -0.64631355 0
0.011228337 0.042053811 0.055192549 0 -0.64631355 0
0.012289152 0.041563019 0.055154659 0 -0.64631355 0
0.013350336 0.041166726 0.05512448 0 -0.64631355 0
0.014411167 0.040809274 0.055097546 0 -0.64631355 0
0.015473118 0.040547706 0.055078436 0 -0.64631355 0
0.016535001 0.040313989 0.055061687 0 -0.64631355 0
0.017598607 0.040172748 0.055052485 0 -0.64631355 0
0.018662553 0.040057 0.055045463 0 -0.64631355 0
0.019728759 0.040029299 0.055045631 0 -0.64631355 0
0.020795815 0.040029299 0.055048157 0 -0.64631355 0
0.021865683 0.040114466 0.055057645 0 -0.64631355 0
0.02293697 0.040231012 0.055069786 0 -0.64631355 0
0.024011765 0.040434331 0.055089019 0 -0.64631355 0
0.025088537 0.040671322 0.055111088 0 -0.64631355 0
0.026169853 0.041005053 0.055141054 0 -0.64631355 0
0.027253577 0.04137022 0.05517368 0 -0.64631355 0
0.028343529 0.04185573 0.0552161 0 -0.64631355 0
0.029436391 0.04237083 0.055261031 0 -0.64631355 0
0.030537529 0.043033354 0.055317935 0 -0.64631355 0
0.031644084 0.04376578 0.055380587 0 -0.64631355 0
0.032758512 0.044612978 0.055452593 0 -0.64631355 0
0.03388476 0.045644388 0.05553953 0 -0.64631355 0
0.035022564 0.046837758 0.055639613 0 -0.64631355 0
0.036176827 0.048272513 0.055759225 0 -0.64631355 0
0.037356999 0.050103664 0.055910815 0 -0.64631355 0
0.038584713 0.052689448 0.056123156 0 -0.64631355 0
0.00054501789 0.055421732 0.055160001 0 -0.64631355 0
0.0016274494 0.052156989 0.054903507 0 -0.64631355 0
0.0027040036 0.049988534 0.054733321 0 -0.64631355 0
0.0037766667 0.04834114 0.054604221 0 -0.64631355 0
0.0048463158 0.046992134 0.054498706 0 -0.64631355 0
0.0059134406 0.045835521 0.054408446 0 -0.64631355 0
0.0069784932 0.044826683 0.054329928 0 -0.64631355 0
0.0080426121 0.04400393 0.05426617 0 -0.64631355 0
0.0091051012 0.043248352 0.05420782 0 -0.64631355 0
0.010167008 0.042609446 0.05415877 0 -0.64631355 0
0.011228337 0.042053811 0.054116394 0 -0.64631355 0
0.012289152 0.041563019 0.054079246 0 -0.64631355 0
0.013350336 0.041166726 0.054049656 0 -0.64631355 0
0.014411167 0.040809274 0.054023247 0 -0.64631355 0
0.015473118 0.040547706 0.054004505 0 -0.64631355 0
0.016535001 0.040313989 0.053988084 0 -0.64631355 0
0.017598607 0.040172748 0.053979065 0 -0.64631355 0
0.018662553 0.040057 0.053972177 0 -0.64631355 0
0.019728759 0.040029299 0.053972345 0 -0.64631355 0
0.020795815 0.040029299 0.053974818 0 -0.64631355 0
0.021865683 0.040114466 0.053984124 0 -0.64631355 0
0.02293697 0.040231012 0.053996027 0 -0.64631355 0
0.024011765 0.040434331 0.054014884 0 -0.64631355 0
0.025088537 0.040671322 0.054036524 0 -0.64631355 0
0.026169853 0.041005053 0.054065906 0 -0.64631355 0
0.027253577 0.04137022 0.054097898 0 -0.64631355 0
0.028343529 0.04185573 0.054139487 0 -0.64631355 0
0.029436391 0.04237083 0.054183543 0 -0.64631355 0
0.030537529 0.043033354 0.054239336 0 -0.64631355 0
0.031644084 0.04376578 0.054300766 0 -0.64631355 0
0.032758512 0.044612978 0.054371368 0 -0.64631355 0
0.03388476 0.045644388 0.05445661 0 -0.64631355 0
0.035022564 0.046837758 0.054554746 0 -0.64631355 0
0.036176827 0.048272513 0.054672025 0 -0.64631355 0
0.037356999 0.050103664 0.054820657 0 -0.64631355 0
0.038584713 0.052689448 0.05502886 0 -0.64631355 0
0.00054501789 0.055421732 0.054063361 0 -0.64631355 0
0.0016274494 0.052156989 0.053811967 0 -0.64631355 0
0.0027040036 0.049988534 0.053645164 0 -0.64631355 0
0.0037766667 0.04834114 0.053518631 0 -0.64631355 0
0.0048463158 0.046992134 0.053415217 0 -0.64631355 0
0.0059134406 0.045835521 0.053326748 0 -0.64631355 0
0.0069784932 0.044826683 0.053249791 0 -0.64631355 0
0.0080426121 0.04400393 0.0531873 0 -0.64631355 0
0.0091051012 0.043248352 0.053130113 0 -0.64631355 0
0.010167008 0.042609446 0.053082038 0 -0.64631355 0
0.011228337 0.042053811 0.053040504 0 -0.64631355 0
0.012289152 0.041563019 0.053004093 0 -0.64631355 0
0.013350336 0.041166726 0.052975092 0 -0.64631355 0
0.014411167 0.040809274 0.052949209 0 -0.64631355 0
0.015473118 0.040547706 0.052930843 0 -0.64631355 0
0.016535001 0.040313989 0.052914746 0 -0.64631355 0
0.017598607 0.040172748 0.052905906 0 -0.64631355 0
0.018662553 0.040057 0.052899156 0 -0.64631355 0
0.019728759 0.040029299 0.052899316 0 -0.64631355 0
0.020795815 0.040029299 0.052901745 0 -0.64631355 0
0.021865683 0.040114466 0.052910861 0 -0.64631355 0
0.02293697 0.040231012 0.052922528 0 -0.64631355 0
0.024011765 0.040434331 0.052941013 0 -0.64631355 0
0.025088537 0.040671322 0.052962221 0 -0.64631355 0
0.026169853 0.041005053 0.052991021 0 -0.64631355 0
0.027253577 0.04137022 0.053022373 0 -0.64631355 0
0.028343529 0.04185573 0.053063139 0 -0.64631355 0
0.029436391 0.04237083 0.053106319 0 -0.64631355 0
0.030537529 0.043033354 0.053161003 0 -0.64631355 0
0.031644084 0.04376578 0.053221211 0 -0.64631355 0
0.032758512 0.044612978 0.053290412 0 -0.64631355 0
0.03388476 0.045644388 0.053373959 0 -0.64631355 0
0.035022564 0.046837758 0.053470138 0 -0.64631355 0
0.036176827 0.048272513 0.053585086 0 -0.64631355 0
0.037356999 0.050103664 0.053730767 0 -0.64631355 0
0.038584713 0.052689448 0.053934827 0 -0.64631355 0
0.00054501789 0.055421732 0.052966986 0 -0.64631355 0
0.0016274494 0.052156989 0.052720692 0 -0.64631355 0
0.0027040036 0.049988534 0.052557271 0 -0.64631355 0
0.0037766667 0.04834114 0.052433304 0 -0.64631355 0
0.0048463158 0.046992134 0.052331984 0 -0.64631355 0
0.0059134406 0.045835521 0.052245311 0 -0.64631355 0
0.0069784932 0.044826683 0.052169915 0 -0.64631355 0
0.0080426121 0.04400393 0.05210869 0 -0.64631355 0
0.0091051012 0.043248352 0.052052662 0 -0.64631355 0
0.010167008 0.042609446 0.052005563 0 -0.64631355 0
0.011228337 0.042053811 0.051964872 0 -0.64631355 0
0.012289152 0.041563019 0.051929202 0 -0.64631355 0
0.013350336 0.041166726 0.051900785 0 -0.64631355 0
0.014411167 0.040809274 0.051875427 0 -0.64631355 0
0.015473118 0.040547706 0.051857434 0 -0.64631355 0
0.016535001 0.040313989 0.051841665 0 -0.64631355 0
0.017598607 0.040172748 0.051833 0 -0.64631355 0
0.018662553 0.040057 0.051826388 0 -0.64631355 0
0.019728759 0.040029299 0.051826548 0 -0.64631355 0
0.020795815 0.040029299 0.051828925 0 -0.64631355 0
0.021865683 0.040114466 0.051837858 0 -0.64631355 0
0.02293697 0.040231012 0.051849287 0 -0.64631355 0
0.024011765 0.040434331 0.051867396 0 -0.64631355 0
0.025088537 0.040671322 0.051888179 0 -0.64631355 0
0.026169853 0.041005053 0.051916391 0 -0.64631355 0
0.027253577 0.04137022 0.051947109 0 -0.64631355 0
0.028343529 0.04185573 0.051987048 0 -0.64631355 0
0.029436391 0.04237083 0.052029353 0 -0.64631355 0
0.030537529 0.043033354 0.052082926 0 -0.64631355 0
0.031644084 0.04376578 0.052141916 0 -0.64631355 0
0.032758512 0.044612978 0.052209709 0 -0.64631355 0
0.03388476 0.045644388 0.052291561 0 -0.64631355 0
0.035022564 0.046837758 0.052385792 0 -0.64631355 0
0.036176827 0.048272513 0.052498411 0 -0.64631355 0
0.037356999 0.050103664 0.052641135 0 -0.64631355 0
0.038584713 0.052689448 0.05284106 0 -0.64631355 0
0.00054501789 0.055421732 0.051870868 0 -0.64631355 0
0.0016274494 0.052156989 0.05162967 0 -0.64631355 0
0.0027040036 0.049988534 0.051469631 0 -0.64631355 0
0.0037766667 0.04834114 0.051348228 0 -0.64631355 0
0.0048463158 0.046992134 0.051249005 0 -0.64631355 0
0.0059134406 0.045835521 0.051164128 0 -0.64631355 0
0.0069784932 0.044826683 0.051090293 0 -0.64631355 0
0.0080426121 0.04400393 0.051030334 0 -0.64631355 0
0.0091051012 0.043248352 0.050975464 0 -0.64631355 0
0.010167008 0.042609446 0.050929341 0 -0.64631355 0
0.011228337 0.042053811 0.050889492 0 -0.64631355 0
0.012289152 0.041563019 0.05085456 0 -0.64631355 0
0.013350336 0.041166726 0.050826732 0 -0.64631355 0
0.014411167 0.040809274 0.050801899 0 -0.64631355 0
0.015473118 0.040547706 0.050784275 0 -0.64631355 0
0.016535001 0.040313989 0.050768834 0 -0.64631355 0
0.017598607 0.040172748 0.050760351 0 -0.64631355 0
0.018662553 0.040057 0.050753873 0 -0.64631355 0
0.019728759 0.040029299 0.050754029 0 -0.64631355 0
0.020795815 0.040029299 0.050756358 0 -0.64631355 0
0.021865683 0.040114466 0.050765108 0 -0.64631355 0
0.02293697 0.040231012 0.050776299 0 -0.64631355 0
0.024011765 0.040434331 0.050794035 0 -0.64631355 0
0.025088537 0.040671322 0.050814383 0 -0.64631355 0
0.026169853 0.041005053 0.050842013 0 -0.64631355 0
0.027253577 0.04137022 0.050872099 0 -0.64631355 0
0.028343529 0.04185573 0.050911207 0 -0.64631355 0
0.029436391 0.04237083 0.050952636 0 -0.64631355 0
0.030537529 0.043033354 0.051005103 0 -0.64631355 0
0.031644084 0.04376578 0.051062871 0 -0.64631355 0
0.032758512 0.044612978 0.051129263 0 -0.64631355 0
0.03388476 0.045644388 0.05120942 0 -0.64631355 0
0.035022564 0.046837758 0.051301703 0 -0.64631355 0
0.036176827 0.048272513 0.05141199 0 -0.64631355 0
0.037356999 0.050103664 0.051551759 0 -0.64631355 0
0.038584713 0.052689448 0.051747546 0 -0.64631355 0
0.00054501789 0.055421732 0.050775003 0 -0.64631355 0
0.0016274494 0.052156989 0.050538898 0 -0.64631355 0
0.0027040036 0.049988534 0.050382242 0 -0.64631355 0
0.0037766667 0.04834114 0.050263405 0 -0.64631355 0
0.0048463158 0.046992134 0.050166279 0 -0.64631355 0
0.0059134406 0.045835521 0.05008319 0 -0.64631355 0
0.0069784932 0.044826683 0.050010916 0 -0.64631355 0
0.0080426121 0.04400393 0.049952228 0 -0.64631355 0
0.0091051012 0.043248352 0.049898516 0 -0.64631355 0
0.010167008 0.042609446 0.049853366 0 -0.64631355 0
0.011228337 0.042053811 0.049814358 0 -0.64631355 0
0.012289152 0.041563019 0.049780164 0 -0.64631355 0
0.013350336 0.041166726 0.049752925 0 -0.64631355 0
0.014411167 0.040809274 0.049728617 0 -0.64631355 0
0.015473118 0.040547706 0.049711365 0 -0.64631355 0
0.016535001 0.040313989 0.049696248 0 -0.64631355 0
0.017598607 0.040172748 0.049687944 0 -0.64631355 0
0.018662553 0.040057 0.049681608 0 -0.64631355 0
0.019728759 0.040029299 0.04968176 0 -0.64631355 0
0.020795815 0.040029299 0.049684037 0 -0.64631355 0
0.021865683 0.040114466 0.049692601 0 -0.64631355 0
0.02293697 0.040231012 0.049703557 0 -0.64631355 0
0.024011765 0.040434331 0.049720917 0 -0.64631355 0
0.025088537 0.040671322 0.049740836 0 -0.64631355 0
0.026169853 0.041005053 0.049767885 0 -0.64631355 0
0.027253577 0.04137022 0.04979733 0 -0.64631355 0
0.028343529 0.04185573 0.049835615 0 -0.64631355 0
0.029436391 0.04237083 0.049876168 0 -0.64631355 0
0.030537529 0.043033354 0.049927525 0 -0.64631355 0
0.031644084 0.04376578 0.049984075 0 -0.64631355 0
0.032758512 0.044612978 0.050049063 0 -0.64631355 0
0.03388476 0.045644388 0.050127529 0 -0.64631355 0
0.035022564 0.046837758 0.050217859 0 -0.64631355 0
0.036176827 0.048272513 0.050325818 0 -0.64631355 0
0.037356999 0.050103664 0.050462637 0 -0.64631355 0
0.038584713 0.052689448 0.050654285 0 -0.64631355 0
0.00054501789 0.055421732 0.04967938 0 -0.64631355 0
0.0016274494 0.052156989 0.049448375 0 -0.64631355 0
0.0027040036 0.049988534 0.049295094 0 -0.64631355 0
0.0037766667 0.04834114 0.049178824 0 -0.64631355 0
0.0048463158 0.046992134 0.049083792 0 -0.64631355 0
0.0059134406 0.045835521 0.049002498 0 -0.64631355 0
0.0069784932 0.044826683 0.048931785 0 -0.64631355 0
0.0080426121 0.04400393 0.04887436 0 -0.64631355 0
0.0091051012 0.043248352 0.048821807 0 -0.64631355 0
0.010167008 0.042609446 0.048777632 0 -0.64631355 0
0.011228337 0.042053811 0.048739467 0 -0.64631355 0
0.012289152 0.041563019 0.04870601 0 -0.64631355 0
0.013350336 0.041166726 0.048679359 0 -0.64631355 0
0.014411167 0.040809274 0.048655573 0 -0.64631355 0
0.015473118 0.040547706 0.048638698 0 -0.64631355 0
0.016535001 0.040313989 0.048623905 0 -0.64631355 0
0.017598607 0.040172748 0.04861578 0 -0.64631355 0
0.018662553 0.040057 0.048609577 0 -0.64631355 0
0.019728759 0.040029299 0.04860973 0 -0.64631355 0
0.020795815 0.040029299 0.048611958 0 -0.64631355 0
0.021865683 0.040114466 0.048620336 0 -0.64631355 0
0.02293697 0.040231012 0.048631057 0 -0.64631355 0
0.024011765 0.040434331 0.048648041 0 -0.64631355 0
0.025088537 0.040671322 0.048667531 0 -0.64631355 0
0.026169853 0.041005053 0.048693996 0 -0.64631355 0
0.027253577 0.04137022 0.048722807 0 -0.64631355 0
0.028343529 0.04185573 0.048760265 0 -0.64631355 0
0.029436391 0.04237083 0.048799943 0 -0.64631355 0
0.030537529 0.043033354 0.048850194 0 -0.64631355 0
0.031644084 0.04376578 0.048905522 0 -0.64631355 0
0.032758512 0.044612978 0.048969109 0 -0.64631355 0
0.03388476 0.045644388 0.049045879 0 -0.64631355 0
0.035022564 0.046837758 0.049134262 0 -0.64631355 0
0.036176827 0.048272513 0.049239889 0 -0.64631355 0
0.037356999 0.050103664 0.049373757 0 -0.64631355 0
0.038584713 0.052689448 0.04956127 0 -0.64631355 0
0.00054501789 0.055421732 0.048584003 0 -0.64631355 0
0.0016274494 0.052156989 0.048358086 0 -0.64631355 0
0.0027040036 0.049988534 0.048208188 0 -0.64631355 0
0.0037766667 0.04834114 0.048094481 0 -0.64631355 0
0.0048463158 0.046992134 0.048001546 0 -0.64631355 0
0.0059134406 0.045835521 0.047922045 0 -0.64631355 0
0.0069784932 0.044826683 0.047852889 0 -0.64631355 0
0.0080426121 0.04400393 0.04779673 0 -0.64631355 0
0.0091051012 0.043248352 0.047745336 0 -0.64631355 0
0.010167008 0.042609446 0.047702134 0 -0.64631355 0
0.011228337 0.042053811 0.04766481 0 -0.64631355 0
0.012289152 0.041563019 0.047632091 0 -0.64631355 0
0.013350336 0.041166726 0.047606029 0 -0.64631355 0
0.014411167 0.040809274 0.047582768 0 -0.64631355 0
0.015473118 0.040547706 0.047566261 0 -0.64631355 0
0.016535001 0.040313989 0.0475518 0 -0.64631355 0
0.017598607 0.040172748 0.047543854 0 -0.64631355 0
0.018662553 0.040057 0.047537789 0 -0.64631355 0
0.019728759 0.040029299 0.047537934 0 -0.64631355 0
0.020795815 0.040029299 0.047540113 0 -0.64631355 0
0.021865683 0.040114466 0.047548309 0 -0.64631355 0
0.02293697 0.040231012 0.047558792 0 -0.64631355 0
0.024011765 0.040434331 0.047575403 0 -0.64631355 0
0.025088537 0.040671322 0.047594462 0 -0.64631355 0
0.026169853 0.041005053 0.047620341 0 -0.64631355 0
0.027253577 0.04137022 0.047648519 0 -0.64631355 0
0.028343529 0.04185573 0.047685154 0 -0.64631355 0
0.029436391 0.04237083 0.047723956 0 -0.64631355 0
0.030537529 0.043033354 0.047773097 0 -0.64631355 0
0.031644084 0.04376578 0.047827203 0 -0.64631355 0
0.032758512 0.044612978 0.047889389 0 -0.64631355 0
0.03388476 0.045644388 0.047964469 0 -0.64631355 0
0.035022564 0.046837758 0.048050903 0 -0.64631355 0
0.036176827 0.048272513 0.048154201 0 -0.64631355 0
0.037356999 0.050103664 0.048285116 0 -0.64631355 0
0.038584713 0.052689448 0.048468493 0 -0.64631355 0
0.00054501789 0.055421732 0.047488857 0 -0.64631355 0
0.0016274494 0.052156989 0.047268037 0 -0.64631355 0
0.0027040036 0.049988534 0.047121517 0 -0.64631355 0
0.0037766667 0.04834114 0.04701037 0 -0.64631355 0
0.0048463158 0.046992134 0.046919528 0 -0.64631355 0
0.0059134406 0.045835521 0.046841823 0 -0.64631355 0
0.0069784932 0.044826683 0.046774223 0 -0.64631355 0
0.0080426121 0.04400393 0.046719331 0 -0.64631355 0
0.0091051012 0.043248352 0.046669096 0 -0.64631355 0
0.010167008 0.042609446 0.04662687 0 -0.64631355 0
0.011228337 0.042053811 0.046590388 0 -0.64631355 0
0.012289152 0.041563019 0.046558406 0 -0.64631355 0
0.013350336 0.041166726 0.046532929 0 -0.64631355 0
0.014411167 0.040809274 0.046510193 0 -0.64631355 0
0.015473118 0.040547706 0.046494059 0 -0.64631355 0
0.016535001 0.040313989 0.046479922 0 -0.64631355 0
0.017598607 0.040172748 0.046472155 0 -0.64631355 0
0.018662553 0.040057 0.046466228 0 -0.64631355 0
0.019728759 0.040029299 0.046466369 0 -0.64631355 0
0.020795815 0.040029299 0.0464685 0 -0.64631355 0
0.021865683 0.040114466 0.046476509 0 -0.64631355 0
0.02293697 0.040231012 0.046486758 0 -0.64631355 0
0.024011765 0.040434331 0.046502993 0 -0.64631355 0
0.025088537 0.040671322 0.046521623 0 -0.64631355 0
0.026169853 0.041005053 0.046546921 0 -0.64631355 0
0.027253577 0.04137022 0.046574462 0 -0.64631355 0
0.028343529 0.04185573 0.04661027 0 -0.64631355 0
0.029436391 0.04237083 0.046648197 0 -0.64631355 0
0.030537529 0.043033354 0.046696231 0 -0.64631355 0
0.031644084 0.04376578 0.046749119 0 -0.64631355 0
0.032758512 0.044612978 0.046809901 0 -0.64631355 0
0.03388476 0.045644388 0.046883289 0 -0.64631355 0
0.035022564 0.046837758 0.046967775 0 -0.64631355 0
0.036176827 0.048272513 0.047068745 0 -0.64631355 0
0.037356999 0.050103664 0.047196709 0 -0.64631355 0
0.038584713 0.052689448 0.047375955 0 -0.64631355 0
0.00054501789 0.055421732 0.046393946 0 -0.64631355 0
0.0016274494 0.052156989 0.046178214 0 -0.64631355 0
0.0027040036 0.049988534 0.04603507 0 -0.64631355 0
0.0037766667 0.04834114 0.045926489 0 -0.64631355 0
0.0048463158 0.046992134 0.045837741 0 -0.64631355 0
0.0059134406 0.045835521 0.045761827 0 -0.64631355 0
0.0069784932 0.044826683 0.045695789 0 -0.64631355 0
0.0080426121 0.04400393 0.04564216 0 -0.64631355 0
0.0091051012 0.043248352 0.045593083 0 -0.64631355 0
0.010167008 0.042609446 0.045551829 0 -0.64631355 0
0.011228337 0.042053811 0.045516189 0 -0.64631355 0
0.012289152 0.041563019 0.045484945 0 -0.64631355 0
0.013350336 0.041166726 0.045460057 0 -0.64631355 0
0.014411167 0.040809274 0.045437846 0 -0.64631355 0
0.015473118 0.040547706 0.045422081 0 -0.64631355 0
0.016535001 0.040313989 0.045408271 0 -0.64631355 0
0.017598607 0.040172748 0.045400683 0 -0.64631355 0
0.018662553 0.040057 0.04539489 0 -0.64631355 0
0.019728759 0.040029299 0.045395032 0 -0.64631355 0
0.020795815 0.040029299 0.045397114 0 -0.64631355 0
0.021865683 0.040114466 0.045404937 0 -0.64631355 0
0.02293697 0.040231012 0.045414947 0 -0.64631355 0
0.024011765 0.040434331 0.045430809 0 -0.64631355 0
0.025088537 0.040671322 0.045449011 0 -0.64631355 0
0.026169853 0.041005053 0.045473725 0 -0.64631355 0
0.027253577 0.04137022 0.045500629 0 -0.64631355 0
0.028343529 0.04185573 0.045535613 0 -0.64631355 0
0.029436391 0.04237083 0.045572668 0 -0.64631355 0
0.030537529 0.043033354 0.045619592 0 -0.64631355 0
0.031644084 0.04376578 0.045671262 0 -0.64631355 0
0.032758512 0.044612978 0.045730643 0 -0.64631355 0
0.03388476 0.045644388 0.045802336 0 -0.64631355 0
0.035022564 0.046837758 0.045884874 0 -0.64631355 0
0.036176827 0.048272513 0.045983516 0 -0.64631355 0
0.037356999 0.050103664 0.046108529 0 -0.64631355 0
0.038584713 0.052689448 0.046283644 0 -0.64631355 0
0.00054501789 0.055421732 0.045299254 0 -0.64631355 0
0.0016274494 0.052156989 0.045088615 0 -0.64631355 0
0.0027040036 0.049988534 0.04494885 0 -0.64631355 0
0.0037766667 0.04834114 0.044842828 0 -0.64631355 0
0.0048463158 0.046992134 0.044756178 0 -0.64631355 0
0.0059134406 0.045835521 0.044682052 0 -0.64631355 0
0.0069784932 0.044826683 0.044617571 0 -0.64631355 0
0.0080426121 0.04400393 0.044565212 0 -0.64631355 0
0.0091051012 0.043248352 0.04451729 0 -0.64631355 0
0.010167008 0.042609446 0.044477012 0 -0.64631355 0
0.011228337 0.042053811 0.04444221 0 -0.64631355 0
0.012289152 0.041563019 0.044411704 0 -0.64631355 0
0.013350336 0.041166726 0.044387404 0 -0.64631355 0
0.014411167 0.040809274 0.044365715 0 -0.64631355 0
0.015473118 0.040547706 0.044350326 0 -0.64631355 0
0.016535001 0.040313989 0.044336841 0 -0.64631355 0
0.017598607 0.040172748 0.044329431 0 -0.64631355 0
0.018662553 0.040057 0.044323776 0 -0.64631355 0
0.019728759 0.040029299 0.04432391 0 -0.64631355 0
0.020795815 0.040029299 0.044325944 0 -0.64631355 0
0.021865683 0.040114466 0.044333585 0 -0.64631355 0
0.02293697 0.040231012 0.04434336 0 -0.64631355 0
0.024011765 0.040434331 0.044358846 0 -0.64631355 0
0.025088537 0.040671322 0.044376619 0 -0.64631355 0
0.026169853 0.041005053 0.044400748 0 -0.64631355 0
0.027253577 0.04137022 0.044427019 0 -0.64631355 0
0.028343529 0.04185573 0.044461176 0 -0.64631355 0
0.029436391 0.04237083 0.044497356 0 -0.64631355 0
0.030537529 0.043033354 0.044543173 0 -0.64631355 0
0.031644084 0.04376578 0.044593625 0 -0.64631355 0
0.032758512 0.044612978 0.044651605 0 -0.64631355 0
0.03388476 0.045644388 0.044721607 0 -0.64631355 0
0.035022564 0.046837758 0.0448022 0 -0.64631355 0
0.036176827 0.048272513 0.044898514 0 -0.64631355 0
0.037356999 0.050103664 0.045020577 0 -0.64631355 0
0.038584713 0.052689448 0.045191556 0 -0.64631355 0
0.00054501789 0.055421732 0.044204786 0 -0.64631355 0
0.0016274494 0.052156989 0.043999236 0 -0.64631355 0
0.0027040036 0.049988534 0.043862846 0 -0.64631355 0
0.0037766667 0.04834114 0.043759387 0 -0.64631355 0
0.0048463158 0.046992134 0.04367483 0 -0.64631355 0
0.0059134406 0.045835521 0.043602496 0 -0.64631355 0
0.0069784932 0.044826683 0.043539573 0 -0.64631355 0
0.0080426121 0.04400393 0.043488476 0 -0.64631355 0
0.0091051012 0.043248352 0.043441717 0 -0.64631355 0
0.010167008 0.042609446 0.043402407 0 -0.64631355 0
0.011228337 0.042053811 0.043368448 0 -0.64631355 0
0.012289152 0.041563019 0.043338679 0 -0.64631355 0
0.013350336 0.041166726 0.043314964 0 -0.64631355 0
0.014411167 0.040809274 0.0432938 0 -0.64631355 0
0.015473118 0.040547706 0.043278784 0 -0.64631355 0
0.016535001 0.040313989 0.043265622 0 -0.64631355 0
0.017598607 0.040172748 0.043258391 0 -0.64631355 0
0.018662553 0.040057 0.043252874 0 -0.64631355 0
0.019728759 0.040029299 0.043253008 0 -0.64631355 0
0.020795815 0.040029299 0.04325499 0 -0.64631355 0
0.021865683 0.040114466 0.043262448 0 -0.64631355 0
0.02293697 0.040231012 0.043271985 0 -0.64631355 0
0.024011765 0.040434331 0.043287098 0 -0.64631355 0
0.025088537 0.040671322 0.04330444 0 -0.64631355 0
0.026169853 0.041005053 0.043327987 0 -0.64631355 0
0.027253577 0.04137022 0.043353625 0 -0.64631355 0
0.028343529 0.04185573 0.043386955 0 -0.64631355 0
0.029436391 0.04237083 0.043422263 0 -0.64631355 0
0.030537529 0.043033354 0.043466974 0 -0.64631355 0
0.031644084 0.04376578 0.043516204 0 -0.64631355 0
0.032758512 0.044612978 0.043572783 0 -0.64631355 0
0.03388476 0.045644388 0.043641094 0 -0.64631355 0
0.035022564 0.046837758 0.043719739 0 -0.64631355 0
0.036176827 0.048272513 0.043813724 0 -0.64631355 0
0.037356999 0.050103664 0.04393284 0 -0.64631355 0
0.038584713 0.052689448 0.044099689 0 -0.64631355 0
0.00050197338 0 0.039705742 0 -0.64631355 0
0.0015059226 0 0.039705839 0 -0.64631355 0
0.0025098792 0 0.039706029 0 -0.64631355 0
0.0035138477 0 0.039706316 0 -0.64631355 0
0.0045178332 0 0.0397067 0 -0.64631355 0
0.0055218409 0 0.03970718 0 -0.64631355 0
0.0065258746 0 0.039707754 0 -0.64631355 0
0.0075299405 0 0.039708424 0 -0.64631355 0
0.0085340422 0 0.039709192 0 -0.64631355 0
0.0095381849 0 0.039710052 0 -0.64631355 0
0.010542374 0 0.039711013 0 -0.64631355 0
0.011546615 0 0.039712068 0 -0.64631355 0
0.01255091 0 0.039713215 0 -0.64631355 0
0.013555266 0 0.039714463 0 -0.64631355 0
0.014559688 0 0.039715804 0 -0.64631355 0
0.01556418 0 0.039717242 0 -0.64631355 0
0.016568746 0 0.039718777 0 -0.64631355 0
0.017573394 0 0.039720405 0 -0.64631355 0
0.018578127 0 0.03972213 0 -0.64631355 0
0.019582948 0 0.039723951 0 -0.64631355 0
0.020587865 0 0.03972587 0 -0.64631355 0
0.021592882 0 0.039727882 0 -0.64631355 0
0.022598 0 0.039729994 0 -0.64631355 0
0.023603231 0 0.039732199 0 -0.64631355 0
0.024608573 0 0.039734501 0 -0.64631355 0
0.025614036 0 0.0397369 0 -0.64631355 0
0.026619622 0 0.039739393 0 -0.64631355 0
0.027625337 0 0.039741985 0 -0.64631355 0
0.028631186 0 0.039744671 0 -0.64631355 0
0.029637173 0 0.039747454 0 -0.64631355 0
0.030643303 0 0.039750334 0 -0.64631355 0
0.031649582 0 0.03975331 0 -0.64631355 0
0.03265601 0 0.03975638 0 -0.64631355 0
0.033662602 0 0.03975955 0 -0.64631355 0
0.034669355 0 0.039762814 0 -0.64631355 0
0.035676274 0 0.039766178 0 -0.64631355 0
0.036683366 0 0.039769635 0 -0.64631355 0
0.037690636 0 0.039773189 0 -0.64631355 0
0.038698088 0 0.039776839 0 -0.64631355 0
0.039705731 0 0.039780587 0 -0.64631355 0
0.00050197338 0 0.038698103 0 -0.64631355 0
0.0015059226 0 0.038698196 0 -0.64631355 0
0.0025098792 0 0.038698383 0 -0.64631355 0
0.0035138477 0 0.038698662 0 -0.64631355 0
0.0045178332 0 0.038699035 0 -0.64631355 0
0.0055218409 0 0.038699504 0 -0.64631355 0
0.0065258746 0 0.038700063 0 -0.64631355 0
0.0075299405 0 0.038700715 0 -0.64631355 0
0.0085340422 0 0.038701463 0 -0.64631355 0
0.0095381849 0 0.038702305 0 -0.64631355 0
0.010542374 0 0.038703237 0 -0.64631355 0
0.011546615 0 0.038704265 0 -0.64631355 0
0.01255091 0 0.038705386 0 -0.64631355 0
0.013555266 0 0.038706601 0 -0.64631355 0
0.014559688 0 0.038707908 0 -0.64631355 0
0.01556418 0 0.038709309 0 -0.64631355 0
0.016568746 0 0.038710803 0 -0.64631355 0
0.017573394 0 0.038712393 0 -0.64631355 0
0.018578127 0 0.038714074 0 -0.64631355 0
0.019582948 0 0.038715851 0 -0.64631355 0
0.020587865 0 0.038717717 0 -0.64631355 0
0.021592882 0 0.03871968 0 -0.64631355 0
0.022598 0 0.038721737 0 -0.64631355 0
0.023603231 0 0.038723886 0 -0.64631355 0
0.024608573 0 0.038726132 0 -0.64631355 0
0.025614036 0 0.038728468 0 -0.64631355 0
0.026619622 0 0.038730897 0 -0.64631355 0
0.027625337 0 0.038733423 0 -0.64631355 0
0.028631186 0 0.038736042 0 -0.64631355 0
0.029637173 0 0.038738754 0 -0.64631355 0
0.030643303 0 0.038741563 0 -0.64631355 0
0.031649582 0 0.038744461 0 -0.64631355 0
0.03265601 0 0.038747456 0 -0.64631355 0
0.033662602 0 0.038750544 0 -0.64631355 0
0.034669355 0 0.038753726 0 -0.64631355 0
0.035676274 0 0.038757 0 -0.64631355 0
0.036683366 0 0.038760372 0 -0.64631355 0
0.037690636 0 0.038763836 0 -0.64631355 0
0.038698088 0 0.038767394 0 -0.64631355 0
0.039705731 0 0.038771048 0 -0.64631355 0
0.00050197338 0 0.037690647 0 -0.64631355 0
0.0015059226 0 0.03769074 0 -0.64631355 0
0.0025098792 0 0.037690923 0 -0.64631355 0
0.0035138477 0 0.037691195 0 -0.64631355 0
0.0045178332 0 0.03769156 0 -0.64631355 0
0.0055218409 0 0.037692014 0 -0.64631355 0
0.0065258746 0 0.037692558 0 -0.64631355 0
0.0075299405 0 0.037693195 0 -0.64631355 0
0.0085340422 0 0.037693921 0 -0.64631355 0
0.0095381849 0 0.037694741 0 -0.64631355 0
0.010542374 0 0.03769565 0 -0.64631355 0
0.011546615 0 0.037696652 0 -0.64631355 0
0.01255091 0 0.037697744 0 -0.64631355 0
0.013555266 0 0.037698925 0 -0.64631355 0
0.014559688 0 0.037700199 0 -0.64631355 0
0.01556418 0 0.037701566 0 -0.64631355 0
0.016568746 0 0.037703019 0 -0.64631355 0
0.017573394 0 0.037704568 0 -0.64631355 0
0.018578127 0 0.037706204 0 -0.64631355 0
0.019582948 0 0.037707932 0 -0.64631355 0
0.020587865 0 0.037709754 0 -0.64631355 0
0.021592882 0 0.037711665 0 -0.64631355 0
0.022598 0 0.037713669 0 -0.64631355 0
0.023603231 0 0.037715763 0 -0.64631355 0
0.024608573 0 0.037717946 0 -0.64631355 0
0.025614036 0 0.037720226 0 -0.64631355 0
0.026619622 0 0.037722591 0 -0.64631355 0
0.027625337 0 0.03772505 0 -0.64631355 0
0.028631186 0 0.037727602 0 -0.64631355 0
0.029637173 0 0.037730243 0 -0.64631355 0
0.030643303 0 0.037732977 0 -0.64631355 0
0.031649582 0 0.037735801 0 -0.64631355 0
0.03265601 0 0.037738718 0 -0.64631355 0
0.033662602 0 0.037741724 0 -0.64631355 0
0.034669355 0 0.037744824 0 -0.64631355 0
0.035676274 0 0.037748016 0 -0.64631355 0
0.036683366 0 0.037751298 0 -0.64631355 0
0.037690636 0 0.037754674 0 -0.64631355 0
0.038698088 0 0.037758138 0 -0.64631355 0
0.039705731 0 0.037761696 0 -0.64631355 0
0.00050197338 0 0.036683377 0 -0.64631355 0
0.0015059226 0 0.036683466 0 -0.64631355 0
0.0025098792 0 0.036683641 0 -0.64631355 0
0.0035138477 0 0.03668391 0 -0.64631355 0
0.0045178332 0 0.036684263 0 -0.64631355 0
0.0055218409 0 0.036684707 0 -0.64631355 0
0.0065258746 0 0.036685236 0 -0.64631355 0
0.0075299405 0 0.036685858 0 -0.64631355 0
0.0085340422 0 0.036686566 0 -0.64631355 0
0.0095381849 0 0.036687359 0 -0.64631355 0
0.010542374 0 0.036688246 0 -0.64631355 0
0.011546615 0 0.036689222 0 -0.64631355 0
0.01255091 0 0.036690284 0 -0.64631355 0
0.013555266 0 0.036691435 0 -0.64631355 0
0.014559688 0 0.036692675 0 -0.64631355 0
0.01556418 0 0.036694001 0 -0.64631355 0
0.016568746 0 0.036695417 0 -0.64631355 0
0.017573394 0 0.036696926 0 -0.64631355 0
0.018578127 0 0.03669852 0 -0.64631355 0
0.019582948 0 0.0367002 0 -0.64631355 0
0.020587865 0 0.036701974 0 -0.64631355 0
0.021592882 0 0.036703832 0 -0.64631355 0
0.022598 0 0.036705784 0 -0.64631355 0
0.023603231 0 0.036707822 0 -0.64631355 0
0.024608573 0 0.036709946 0 -0.64631355 0
0.025614036 0 0.036712162 0 -0.64631355 0
0.026619622 0 0.036714468 0 -0.64631355 0
0.027625337 0 0.03671686 0 -0.64631355 0
0.028631186 0 0.036719345 0 -0.64631355 0
0.029637173 0 0.036721915 0 -0.64631355 0
0.030643303 0 0.036724575 0 -0.64631355 0
0.031649582 0 0.036727324 0 -0.64631355 0
0.03265601 0 0.036730163 0 -0.64631355 0
0.033662602 0 0.036733091 0 -0.64631355 0
0.034669355 0 0.036736105 0 -0.64631355 0
0.035676274 0 0.036739212 0 -0.64631355 0
0.036683366 0 0.036742404 0 -0.64631355 0
0.037690636 0 0.03674569 0 -0.64631355 0
0.038698088 0 0.036749065 0 -0.64631355 0
0.039705731 0 0.036752526 0 -0.64631355 0
0.00050197338 0 0.035676286 0 -0.64631355 0
0.0015059226 0 0.035676371 0 -0.64631355 0
0.0025098792 0 0.035676543 0 -0.64631355 0
0.0035138477 0 0.0356768 0 -0.64631355 0
0.0045178332 0 0.035677146 0 -0.64631355 0
0.0055218409 0 0.035677575 0 -0.64631355 0
0.0065258746 0 0.035678092 0 -0.64631355 0
0.0075299405 0 0.035678696 0 -0.64631355 0
0.0085340422 0 0.035679385 0 -0.64631355 0
0.0095381849 0 0.03568016 0 -0.64631355 0
0.010542374 0 0.03568102 0 -0.64631355 0
0.011546615 0 0.035681967 0 -0.64631355 0
0.01255091 0 0.035682999 0 -0.64631355 0
0.013555266 0 0.03568412 0 -0.64631355 0
0.014559688 0 0.035685327 0 -0.64631355 0
0.01556418 0 0.035686616 0 -0.64631355 0
0.016568746 0 0.035687994 0 -0.64631355 0
0.017573394 0 0.035689458 0 -0.64631355 0
0.018578127 0 0.035691008 0 -0.64631355 0
0.019582948 0 0.035692647 0 -0.64631355 0
0.020587865 0 0.035694368 0 -0.64631355 0
0.021592882 0 0.035696179 0 -0.64631355 0
0.022598 0 0.035698075 0 -0.64631355 0
0.023603231 0 0.035700057 0 -0.64631355 0
0.024608573 0 0.035702124 0 -0.64631355 0
0.025614036 0 0.035704281 0 -0.64631355 0
0.026619622 0 0.03570652 0 -0.64631355 0
0.027625337 0 0.035708848 0 -0.64631355 0
0.028631186 0 0.035711262 0 -0.64631355 0
0.029637173 0 0.035713762 0 -0.64631355 0
0.030643303 0 0.035716351 0 -0.64631355 0
0.031649582 0 0.035719026 0 -0.64631355 0
0.03265601 0 0.035721783 0 -0.64631355 0
0.033662602 0 0.035724632 0 -0.64631355 0
0.034669355 0 0.035727564 0 -0.64631355 0
0.035676274 0 0.035730585 0 -0.64631355 0
0.036683366 0 0.035733692 0 -0.64631355 0
0.037690636 0 0.035736885 0 -0.64631355 0
0.038698088 0 0.035740167 0 -0.64631355 0
0.039705731 0 0.035743535 0 -0.64631355 0
0.00050197338 0 0.034669366 0 -0.64631355 0
0.0015059226 0 0.034669448 0 -0.64631355 0
0.0025098792 0 0.034669615 0 -0.64631355 0
0.0035138477 0 0.034669865 0 -0.64631355 0
0.0045178332 0 0.0346702 0 -0.64631355 0
0.0055218409 0 0.034670617 0 -0.64631355 0
0.0065258746 0 0.03467112 0 -0.64631355 0
0.0075299405 0 0.034671705 0 -0.64631355 0
0.0085340422 0 0.034672376 0 -0.64631355 0
0.0095381849 0 0.034673128 0 -0.64631355 0
0.010542374 0 0.034673966 0 -0.64631355 0
0.011546615 0 0.034674887 0 -0.64631355 0
0.01255091 0 0.034675889 0 -0.64631355 0
0.013555266 0 0.034676977 0 -0.64631355 0
0.014559688 0 0.03467815 0 -0.64631355 0
0.01556418 0 0.034679405 0 -0.64631355 0
0.016568746 0 0.034680743 0 -0.64631355 0
0.017573394 0 0.034682166 0 -0.64631355 0
0.018578127 0 0.034683675 0 -0.64631355 0
0.019582948 0 0.034685265 0 -0.64631355 0
0.020587865 0 0.034686938 0 -0.64631355 0
0.021592882 0 0.034688696 0 -0.64631355 0
0.022598 0 0.03469054 0 -0.64631355 0
0.023603231 0 0.034692466 0 -0.64631355 0
0.024608573 0 0.034694474 0 -0.64631355 0
0.025614036 0 0.034696568 0 -0.64631355 0
0.026619622 0 0.034698747 0 -0.64631355 0
0.027625337 0 0.034701008 0 -0.64631355 0
0.028631186 0 0.034703355 0 -0.64631355 0
0.029637173 0 0.034705784 0 -0.64631355 0
0.030643303 0 0.034708299 0 -0.64631355 0
0.031649582 0 0.034710899 0 -0.64631355 0
0.03265601 0 0.034713581 0 -0.64631355 0
0.033662602 0 0.034716345 0 -0.64631355 0
0.034669355 0 0.034719199 0 -0.64631355 0
0.035676274 0 0.034722131 0 -0.64631355 0
0.036683366 0 0.034725152 0 -0.64631355 0
0.037690636 0 0.034728255 0 -0.64631355 0
0.038698088 0 0.034731444 0 -0.64631355 0
0.039705731 0 0.034734715 0 -0.64631355 0
0.00050197338 0 0.03366261 0 -0.64631355 0
0.0015059226 0 0.033662692 0 -0.64631355 0
0.0025098792 0 0.033662856 0 -0.64631355 0
0.0035138477 0 0.033663098 0 -0.64631355 0
0.0045178332 0 0.033663426 0 -0.64631355 0
0.0055218409 0 0.033663832 0 -0.64631355 0
0.0065258746 0 0.033664316 0 -0.64631355 0
0.0075299405 0 0.033664886 0 -0.64631355 0
0.0085340422 0 0.033665534 0 -0.64631355 0
0.0095381849 0 0.033666268 0 -0.64631355 0
0.010542374 0 0.03366708 0 -0.64631355 0
0.011546615 0 0.033667974 0 -0.64631355 0
0.01255091 0 0.033668946 0 -0.64631355 0
0.013555266 0 0.033670004 0 -0.64631355 0
0.014559688 0 0.033671141 0 -0.64631355 0
0.01556418 0 0.033672363 0 -0.64631355 0
0.016568746 0 0.033673663 0 -0.64631355 0
0.017573394 0 0.033675041 0 -0.64631355 0
0.018578127 0 0.033676505 0 -0.64631355 0
0.019582948 0 0.033678051 0 -0.64631355 0
0.020587865 0 0.033679675 0 -0.64631355 0
0.021592882 0 0.033681381 0 -0.64631355 0
0.022598 0 0.033683173 0 -0.64631355 0
0.023603231 0 0.033685043 0 -0.64631355 0
0.024608573 0 0.033686992 0 -0.64631355 0
0.025614036 0 0.033689026 0 -0.64631355 0
0.026619622 0 0.033691142 0 -0.64631355 0
0.027625337 0 0.033693336 0 -0.64631355 0
0.028631186 0 0.033695616 0 -0.64631355 0
0.029637173 0 0.033697974 0 -0.64631355 0
0.030643303 0 0.033700418 0 -0.64631355 0
0.031649582 0 0.03370294 0 -0.64631355 0
0.03265601 0 0.033705544 0 -0.64631355 0
0.033662602 0 0.03370823 0 -0.64631355 0
0.034669355 0 0.033710998 0 -0.64631355 0
0.035676274 0 0.033713847 0 -0.64631355 0
0.036683366 0 0.033716779 0 -0.64631355 0
0.037690636 0 0.033719793 0 -0.64631355 0
0.038698088 0 0.033722889 0 -0.64631355 0
0.039705731 0 0.033726066 0 -0.64631355 0
0.00050197338 0 0.032656021 0 -0.64631355 0
0.0015059226 0 0.0326561 0 -0.64631355 0
0.0025098792 0 0.03265626 0 -0.64631355 0
0.0035138477 0 0.032656495 0 -0.64631355 0
0.0045178332 0 0.032656811 0 -0.64631355 0
0.0055218409 0 0.032657202 0 -0.64631355 0
0.0065258746 0 0.032657675 0 -0.64631355 0
0.0075299405 0 0.032658227 0 -0.64631355 0
0.0085340422 0 0.03265886 0 -0.64631355 0
0.0095381849 0 0.032659568 0 -0.64631355 0
0.010542374 0 0.032660358 0 -0.64631355 0
0.011546615 0 0.032661222 0 -0.64631355 0
0.01255091 0 0.032662168 0 -0.64631355 0
0.013555266 0 0.032663193 0 -0.64631355 0
0.014559688 0 0.032664295 0 -0.64631355 0
0.01556418 0 0.03266548 0 -0.64631355 0
0.016568746 0 0.032666739 0 -0.64631355 0
0.017573394 0 0.03266808 0 -0.64631355 0
0.018578127 0 0.0326695 0 -0.64631355 0
0.019582948 0 0.032670997 0 -0.64631355 0
0.020587865 0 0.032672577 0 -0.64631355 0
0.021592882 0 0.032674231 0 -0.64631355 0
0.022598 0 0.032675967 0 -0.64631355 0
0.023603231 0 0.032677781 0 -0.64631355 0
0.024608573 0 0.032679673 0 -0.64631355 0
0.025614036 0 0.032681648 0 -0.64631355 0
0.026619622 0 0.032683697 0 -0.64631355 0
0.027625337 0 0.032685827 0 -0.64631355 0
0.028631186 0 0.03268804 0 -0.64631355 0
0.029637173 0 0.032690328 0 -0.64631355 0
0.030643303 0 0.032692697 0 -0.64631355 0
0.031649582 0 0.032695144 0 -0.64631355 0
0.03265601 0 0.03269767 0 -0.64631355 0
0.033662602 0 0.032700274 0 -0.64631355 0
0.034669355 0 0.03270296 0 -0.64631355 0
0.035676274 0 0.032705724 0 -0.64631355 0
0.036683366 0 0.03270857 0 -0.64631355 0
0.037690636 0 0.032711495 0 -0.64631355 0
0.038698088 0 0.032714497 0 -0.64631355 0
0.039705731 0 0.032717578 0 -0.64631355 0
0.00050197338 0 0.03164959 0 -0.64631355 0
0.0015059226 0 0.031649668 0 -0.64631355 0
0.0025098792 0 0.031649821 0 -0.64631355 0
0.0035138477 0 0.031650048 0 -0.64631355 0
0.0045178332 0 0.031650353 0 -0.64631355 0
0.0055218409 0 0.031650737 0 -0.64631355 0
0.0065258746 0 0.031651195 0 -0.64631355 0
0.0075299405 0 0.031651728 0 -0.64631355 0
0.0085340422 0 0.031652339 0 -0.64631355 0
0.0095381849 0 0.031653028 0 -0.64631355 0
0.010542374 0 0.031653792 0 -0.64631355 0
0.011546615 0 0.03165463 0 -0.64631355 0
0.01255091 0 0.031655546 0 -0.64631355 0
0.013555266 0 0.031656541 0 -0.64631355 0
0.014559688 0 0.03165761 0 -0.64631355 0
0.01556418 0 0.031658757 0 -0.64631355 0
0.016568746 0 0.031659979 0 -0.64631355 0
0.017573394 0 0.031661279 0 -0.64631355 0
0.018578127 0 0.031662654 0 -0.64631355 0
0.019582948 0 0.031664107 0 -0.64631355 0
0.020587865 0 0.031665634 0 -0.64631355 0
0.021592882 0 0.03166724 0 -0.64631355 0
0.022598 0 0.03166892 0 -0.64631355 0
0.023603231 0 0.031670678 0 -0.64631355 0
0.024608573 0 0.031672515 0 -0.64631355 0
0.025614036 0 0.031674426 0 -0.64631355 0
0.026619622 0 0.031676415 0 -0.64631355 0
0.027625337 0 0.031678479 0 -0.64631355 0
0.028631186 0 0.031680621 0 -0.64631355 0
0.029637173 0 0.031682838 0 -0.64631355 0
0.030643303 0 0.031685133 0 -0.64631355 0
0.031649582 0 0.031687506 0 -0.64631355 0
0.03265601 0 0.031689953 0 -0.64631355 0
0.033662602 0 0.031692479 0 -0.64631355 0
0.034669355 0 0.031695083 0 -0.64631355 0
0.035676274 0 0.031697761 0 -0.64631355 0
0.036683366 0 0.031700518 0 -0.64631355 0
0.037690636 0 0.031703353 0 -0.64631355 0
0.038698088 0 0.031706262 0 -0.64631355 0
0.039705731 0 0.03170925 0 -0.64631355 0
0.00050197338 0 0.030643312 0 -0.64631355 0
0.0015059226 0 0.030643385 0 -0.64631355 0
0.0025098792 0 0.030643534 0 -0.64631355 0
0.0035138477 0 0.030643756 0 -0.64631355 0
0.0045178332 0 0.03064405 0 -0.64631355 0
0.0055218409 0 0.030644421 0 -0.64631355 0
0.0065258746 0 0.030644864 0 -0.64631355 0
0.0075299405 0 0.030645382 0 -0.64631355 0
0.0085340422 0 0.030645974 0 -0.64631355 0
0.0095381849 0 0.030646639 0 -0.64631355 0
0.010542374 0 0.030647378 0 -0.64631355 0
0.011546615 0 0.030648192 0 -0.64631355 0
0.01255091 0 0.030649079 0 -0.64631355 0
0.013555266 0 0.03065004 0 -0.64631355 0
0.014559688 0 0.030651076 0 -0.64631355 0
0.01556418 0 0.030652186 0 -0.64631355 0
0.016568746 0 0.030653371 0 -0.64631355 0
0.017573394 0 0.030654628 0 -0.64631355 0
