# .PCD v0.7 - Point Cloud Data file format
VERSION 0.7
FIELDS x y z vp_x vp_y vp_z
SIZE 4 4 4 4 4 4
TYPE F F F F F F
COUNT 1 1 1 1 1 1
WIDTH 866
HEIGHT 1
VIEWPOINT 0 0 0 1 0 0 0
POINTS 866
DATA ascii
0 0.055647265 0.026497137 -0.33897066 0.54846609 0
0 0.054004055 0.026557144 -0.33897066 0.54846609 0
0 0.052353378 0.026617488 -0.33897066 0.54846609 0
0 0.050695181 0.026678173 -0.33897066 0.54846609 0
0 0.049029402 0.026739199 -0.33897066 0.54846609 0
0 0.047355983 0.026800567 -0.33897066 0.54846609 0
0 0.045674857 0.026862286 -0.33897066 0.54846609 0
0 0.043985967 0.026924353 -0.33897066 0.54846609 0
0 0.042289253 0.026986774 -0.33897066 0.54846609 0
0 0.040584646 0.027049549 -0.33897066 0.54846609 0
0 0.038872089 0.027112683 -0.33897066 0.54846609 0
0 0.037151512 0.027176179 -0.33897066 0.54846609 0
0 0.035422854 0.027240038 -0.33897066 0.54846609 0
0 0.033686049 0.027304266 -0.33897066 0.54846609 0
0 0.03194103 0.02736886 -0.33897066 0.54846609 0
0 0.03018773 0.027433829 -0.33897066 0.54846609 0
0 0.028426083 0.027499175 -0.33897066 0.54846609 0
0 0.026656019 0.027564898 -0.33897066 0.54846609 0
0 0.02487747 0.027631002 -0.33897066 0.54846609 0
0 0.023090364 0.027697492 -0.33897066 0.54846609 0
0 0.021294635 0.027764369 -0.33897066 0.54846609 0
0 0.019490207 0.027831638 -0.33897066 0.54846609 0
0 0.017677009 0.027899301 -0.33897066 0.54846609 0
0 0.01585497 0.027967362 -0.33897066 0.54846609 0
0 0.014024015 0.028035821 -0.33897066 0.54846609 0
0 0.012184069 0.028104687 -0.33897066 0.54846609 0
0 0.010335058 0.028173959 -0.33897066 0.54846609 0
0 0.0084769046 0.028243642 -0.33897066 0.54846609 0
0 0.006609533 0.028313739 -0.33897066 0.54846609 0
0 0.004732864 0.028384253 -0.33897066 0.54846609 0
0 0.0028468198 0.028455188 -0.33897066 0.54846609 0
0 0.0009513204 0.028526548 -0.33897066 0.54846609 0
0.039992888 0.079999998 0.025755016 -0.33897066 0.54846609 0
0.039999999 0.078500107 0.02580508 -0.33897066 0.54846609 0
0.037591152 0.079999998 0.025690576 -0.33897066 0.54846609 0
0.036394779 0.079999998 0.025658568 -0.33897066 0.54846609 0
0.035201378 0.079999998 0.025626704 -0.33897066 0.54846609 0
0.034010939 0.079999998 0.02559498 -0.33897066 0.54846609 0
0.031638864 0.079999998 0.025531951 -0.33897066 0.54846609 0
0.030457195 0.079999998 0.025500644 -0.33897066 0.54846609 0
0.029278418 0.079999998 0.025469476 -0.33897066 0.54846609 0
0.039999999 0.064816192 0.02626295 -0.33897066 0.54846609 0
0.026929474 0.079999998 0.025407551 -0.33897066 0.54846609 0
0.025759274 0.079999998 0.025376793 -0.33897066 0.54846609 0
0.024591902 0.079999998 0.025346171 -0.33897066 0.54846609 0
0.023427341 0.079999998 0.025315683 -0.33897066 0.54846609 0
0.022265574 0.079999998 0.02528533 -0.33897066 0.54846609 0
0.021106588 0.079999998 0.02525511 -0.33897066 0.54846609 0
0.019950366 0.079999998 0.025225023 -0.33897066 0.54846609 0
0.039999999 0.052236341 0.026688255 -0.33897066 0.54846609 0
0.017646153 0.079999998 0.025165247 -0.33897066 0.54846609 0
0.016498132 0.079999998 0.025135554 -0.33897066 0.54846609 0
0.015352814 0.079999998 0.025105992 -0.33897066 0.54846609 0
0.014210183 0.079999998 0.025076561 -0.33897066 0.54846609 0
0.039999999 0.044164144 0.026963279 -0.33897066 0.54846609 0
0.011932926 0.079999998 0.025018087 -0.33897066 0.54846609 0
0.010798271 0.079999998 0.024989041 -0.33897066 0.54846609 0
0.0096662445 0.079999998 0.024960123 -0.33897066 0.54846609 0
0.0085368315 0.079999998 0.024931332 -0.33897066 0.54846609 0
0.0074100192 0.079999998 0.024902668 -0.33897066 0.54846609 0
0.0062857918 0.079999998 0.024874128 -0.33897066 0.54846609 0
0.039999999 0.032578405 0.027360782 -0.33897066 0.54846609 0
0.039999999 0.02920505 0.027477117 -0.33897066 0.54846609 0
0.001814452 0.079999998 0.02476122 -0.33897066 0.54846609 0
0.000702939 0.079999998 0.024733303 -0.33897066 0.54846609 0
0 0.07943812 0.024735138 -0.33897066 0.54846609 0
0 0.077900179 0.024788447 -0.33897066 0.54846609 0
0 0.076355591 0.024842046 -0.33897066 0.54846609 0
0 0.074804306 0.024895936 -0.33897066 0.54846609 0
0 0.073246263 0.024950122 -0.33897066 0.54846609 0
0 0.071681432 0.025004607 -0.33897066 0.54846609 0
0 0.07010974 0.025059389 -0.33897066 0.54846609 0
0.039999999 0.011896753 0.028078087 -0.33897066 0.54846609 0
0 0.06694559 0.025169859 -0.33897066 0.54846609 0
0 0.065353021 0.02522555 -0.33897066 0.54846609 0
0 0.063753389 0.025281552 -0.33897066 0.54846609 0
0 0.06214663 0.025337864 -0.33897066 0.54846609 0
0 0.060532697 0.025394486 -0.33897066 0.54846609 0
0 0.058911528 0.025451425 -0.33897066 0.54846609 0
0 0.05728307 0.025508683 -0.33897066 0.54846609 0
0 0.055647265 0.025566259 -0.33897066 0.54846609 0
0 0.054004055 0.02562416 -0.33897066 0.54846609 0
0 0.052353378 0.025682384 -0.33897066 0.54846609 0
0.034522265 0 0.028362505 -0.33897066 0.54846609 0
0 0.049029402 0.025799816 -0.33897066 0.54846609 0
0 0.047355983 0.025859032 -0.33897066 0.54846609 0
0 0.045674857 0.025918581 -0.33897066 0.54846609 0
0 0.043985967 0.025978468 -0.33897066 0.54846609 0
0 0.042289253 0.026038695 -0.33897066 0.54846609 0
0 0.040584646 0.026099266 -0.33897066 0.54846609 0
0 0.038872089 0.026160182 -0.33897066 0.54846609 0
0 0.037151512 0.026221447 -0.33897066 0.54846609 0
0 0.035422854 0.026283063 -0.33897066 0.54846609 0
0 0.033686049 0.026345033 -0.33897066 0.54846609 0
0 0.03194103 0.026407359 -0.33897066 0.54846609 0
0 0.03018773 0.026470046 -0.33897066 0.54846609 0
0 0.028426083 0.026533095 -0.33897066 0.54846609 0
0 0.026656019 0.026596509 -0.33897066 0.54846609 0
0 0.02487747 0.026660291 -0.33897066 0.54846609 0
0 0.023090364 0.026724445 -0.33897066 0.54846609 0
0 0.021294635 0.026788972 -0.33897066 0.54846609 0
0 0.019490207 0.026853878 -0.33897066 0.54846609 0
0 0.017677009 0.026919164 -0.33897066 0.54846609 0
0 0.01585497 0.026984833 -0.33897066 0.54846609 0
0 0.014024015 0.02705089 -0.33897066 0.54846609 0
0 0.012184069 0.027117334 -0.33897066 0.54846609 0
0 0.010335058 0.027184173 -0.33897066 0.54846609 0
0 0.0084769046 0.027251409 -0.33897066 0.54846609 0
0 0.006609533 0.027319044 -0.33897066 0.54846609 0
0 0.004732864 0.027387081 -0.33897066 0.54846609 0
0 0.0028468198 0.027455524 -0.33897066 0.54846609 0
0 0.0009513204 0.027524376 -0.33897066 0.54846609 0
0.039992888 0.079999998 0.02481739 -0.33897066 0.54846609 0
0.038790517 0.079999998 0.024786275 -0.33897066 0.54846609 0
0.037591152 0.079999998 0.024755297 -0.33897066 0.54846609 0
0.036394779 0.079999998 0.024724456 -0.33897066 0.54846609 0
0.035201378 0.079999998 0.02469375 -0.33897066 0.54846609 0
0.034010939 0.079999998 0.02466318 -0.33897066 0.54846609 0
0.03282344 0.079999998 0.024632746 -0.33897066 0.54846609 0
0.031638864 0.079999998 0.024602447 -0.33897066 0.54846609 0
0.030457195 0.079999998 0.024572279 -0.33897066 0.54846609 0
0.029278418 0.079999998 0.024542246 -0.33897066 0.54846609 0
0.028102517 0.079999998 0.024512345 -0.33897066 0.54846609 0
0.039999999 0.063265659 0.025357133 -0.33897066 0.54846609 0
0.025759274 0.079999998 0.024452938 -0.33897066 0.54846609 0
0.039999999 0.060146 0.025458517 -0.33897066 0.54846609 0
0.023427341 0.079999998 0.024394052 -0.33897066 0.54846609 0
0.022265574 0.079999998 0.024364805 -0.33897066 0.54846609 0
0.021106588 0.079999998 0.024335684 -0.33897066 0.54846609 0
0.019950366 0.079999998 0.024306694 -0.33897066 0.54846609 0
0.039999999 0.052236341 0.025716655 -0.33897066 0.54846609 0
0.017646153 0.079999998 0.024249092 -0.33897066 0.54846609 0
0.016498132 0.079999998 0.024220482 -0.33897066 0.54846609 0
0.039999999 0.04741291 0.025874821 -0.33897066 0.54846609 0
0.014210183 0.079999998 0.024163635 -0.33897066 0.54846609 0
0.013070226 0.079999998 0.024135401 -0.33897066 0.54846609 0
0.011932926 0.079999998 0.02410729 -0.33897066 0.54846609 0
0.010798271 0.079999998 0.024079302 -0.33897066 0.54846609 0
0.0096662445 0.079999998 0.024051437 -0.33897066 0.54846609 0
0.039999999 0.037585296 0.026198788 -0.33897066 0.54846609 0
0.0074100192 0.079999998 0.023996074 -0.33897066 0.54846609 0
0.0062857918 0.079999998 0.023968574 -0.33897066 0.54846609 0
0.0051641357 0.079999998 0.023941195 -0.33897066 0.54846609 0
0.0040450362 0.079999998 0.023913935 -0.33897066 0.54846609 0
0.0029284798 0.079999998 0.023886796 -0.33897066 0.54846609 0
0.039999999 0.027507583 0.026533304 -0.33897066 0.54846609 0
0.000702939 0.079999998 0.023832874 -0.33897066 0.54846609 0
0 0.07943812 0.023834642 -0.33897066 0.54846609 0
0 0.077900179 0.02388601 -0.33897066 0.54846609 0
0 0.076355591 0.023937657 -0.33897066 0.54846609 0
0 0.074804306 0.023989588 -0.33897066 0.54846609 0
0.039999999 0.01716828 0.026878837 -0.33897066 0.54846609 0
0 0.071681432 0.0240943 -0.33897066 0.54846609 0
0 0.07010974 0.024147088 -0.33897066 0.54846609 0
0 0.068531141 0.024200166 -0.33897066 0.54846609 0
0 0.06694559 0.024253536 -0.33897066 0.54846609 0
0 0.065353021 0.024307201 -0.33897066 0.54846609 0
0 0.063753389 0.024361163 -0.33897066 0.54846609 0
0 0.06214663 0.024415424 -0.33897066 0.54846609 0
0 0.060532697 0.024469987 -0.33897066 0.54846609 0
0 0.058911528 0.024524854 -0.33897066 0.54846609 0
0 0.05728307 0.024580026 -0.33897066 0.54846609 0
0 0.055647265 0.024635507 -0.33897066 0.54846609 0
0 0.054004055 0.024691299 -0.33897066 0.54846609 0
0 0.052353378 0.024747403 -0.33897066 0.54846609 0
0 0.050695181 0.024803823 -0.33897066 0.54846609 0
0 0.049029402 0.024860561 -0.33897066 0.54846609 0
0 0.047355983 0.024917619 -0.33897066 0.54846609 0
0 0.045674857 0.024975002 -0.33897066 0.54846609 0
0 0.043985967 0.025032708 -0.33897066 0.54846609 0
0 0.042289253 0.025090743 -0.33897066 0.54846609 0
0 0.040584646 0.025149109 -0.33897066 0.54846609 0
0 0.038872089 0.025207808 -0.33897066 0.54846609 0
0 0.037151512 0.025266841 -0.33897066 0.54846609 0
0 0.035422854 0.025326215 -0.33897066 0.54846609 0
0 0.033686049 0.025385927 -0.33897066 0.54846609 0
0 0.03194103 0.025445987 -0.33897066 0.54846609 0
0 0.03018773 0.02550639 -0.33897066 0.54846609 0
0 0.028426083 0.025567144 -0.33897066 0.54846609 0
0 0.026656019 0.025628248 -0.33897066 0.54846609 0
0 0.02487747 0.02568971 -0.33897066 0.54846609 0
0 0.023090364 0.025751527 -0.33897066 0.54846609 0
0 0.021294635 0.025813706 -0.33897066 0.54846609 0
0 0.019490207 0.025876248 -0.33897066 0.54846609 0
0 0.017677009 0.025939157 -0.33897066 0.54846609 0
0 0.01585497 0.026002437 -0.33897066 0.54846609 0
0 0.014024015 0.026066087 -0.33897066 0.54846609 0
0 0.012184069 0.026130114 -0.33897066 0.54846609 0
0 0.010335058 0.02619452 -0.33897066 0.54846609 0
0 0.0084769046 0.026259307 -0.33897066 0.54846609 0
0 0.006609533 0.026324479 -0.33897066 0.54846609 0
0 0.004732864 0.026390038 -0.33897066 0.54846609 0
0 0.0028468198 0.026455991 -0.33897066 0.54846609 0
0 0.0009513204 0.026522337 -0.33897066 0.54846609 0
0.039992888 0.079999998 0.023879886 -0.33897066 0.54846609 0
0.038790517 0.079999998 0.023849946 -0.33897066 0.54846609 0
0.039999999 0.077003241 0.023972513 -0.33897066 0.54846609 0
0.036394779 0.079999998 0.023790462 -0.33897066 0.54846609 0
0.035201378 0.079999998 0.023760917 -0.33897066 0.54846609 0
0.034010939 0.079999998 0.023731502 -0.33897066 0.54846609 0
0.03282344 0.079999998 0.023702217 -0.33897066 0.54846609 0
0.031638864 0.079999998 0.023673061 -0.33897066 0.54846609 0
0.030457195 0.079999998 0.023644034 -0.33897066 0.54846609 0
0.029278418 0.079999998 0.023615135 -0.33897066 0.54846609 0
0.039999999 0.064816192 0.024350839 -0.33897066 0.54846609 0
0.026929474 0.079999998 0.023557719 -0.33897066 0.54846609 0
0.039999999 0.061708938 0.024447888 -0.33897066 0.54846609 0
0.024591902 0.079999998 0.023500808 -0.33897066 0.54846609 0
0.023427341 0.079999998 0.02347254 -0.33897066 0.54846609 0
0.022265574 0.079999998 0.023444397 -0.33897066 0.54846609 0
0.021106588 0.079999998 0.023416378 -0.33897066 0.54846609 0
0.019950366 0.079999998 0.023388481 -0.33897066 0.54846609 0
0.018796893 0.079999998 0.023360707 -0.33897066 0.54846609 0
0.017646153 0.079999998 0.023333056 -0.33897066 0.54846609 0
0.016498132 0.079999998 0.023305526 -0.33897066 0.54846609 0
0.015352814 0.079999998 0.023278117 -0.33897066 0.54846609 0
0.014210183 0.079999998 0.023250828 -0.33897066 0.54846609 0
0.039999999 0.044164144 0.025000179 -0.33897066 0.54846609 0
0.011932926 0.079999998 0.02319661 -0.33897066 0.54846609 0
0.010798271 0.079999998 0.02316968 -0.33897066 0.54846609 0
0.0096662445 0.079999998 0.023142867 -0.33897066 0.54846609 0
0.0085368315 0.079999998 0.023116171 -0.33897066 0.54846609 0
0.0074100192 0.079999998 0.023089595 -0.33897066 0.54846609 0
0.0062857918 0.079999998 0.023063134 -0.33897066 0.54846609 0
0.0051641357 0.079999998 0.023036789 -0.33897066 0.54846609 0
0.0040450362 0.079999998 0.023010559 -0.33897066 0.54846609 0
0.0029284798 0.079999998 0.022984445 -0.33897066 0.54846609 0
0.001814452 0.079999998 0.022958446 -0.33897066 0.54846609 0
0.000702939 0.079999998 0.022932559 -0.33897066 0.54846609 0
5.5511151e-17 0.07943812 0.022934262 -0.33897066 0.54846609 0
0 0.077900179 0.022983689 -0.33897066 0.54846609 0
0 0.076355591 0.023033386 -0.33897066 0.54846609 0
0 0.074804306 0.023083353 -0.33897066 0.54846609 0
0 0.073246263 0.023133595 -0.33897066 0.54846609 0
0 0.071681432 0.023184111 -0.33897066 0.54846609 0
0 0.07010974 0.023234904 -0.33897066 0.54846609 0
0 0.068531141 0.023285978 -0.33897066 0.54846609 0
0 0.06694559 0.023337333 -0.33897066 0.54846609 0
0 0.065353021 0.023388969 -0.33897066 0.54846609 0
0 0.063753389 0.023440894 -0.33897066 0.54846609 0
0 0.06214663 0.023493104 -0.33897066 0.54846609 0
0 0.060532697 0.023545606 -0.33897066 0.54846609 0
0 0.058911528 0.023598399 -0.33897066 0.54846609 0
0 0.05728307 0.023651488 -0.33897066 0.54846609 0
0.038275305 0 0.026381539 -0.33897066 0.54846609 0
0 0.054004055 0.023758557 -0.33897066 0.54846609 0
0 0.052353378 0.023812542 -0.33897066 0.54846609 0
0 0.050695181 0.02386683 -0.33897066 0.54846609 0
0 0.049029402 0.023921426 -0.33897066 0.54846609 0
0 0.047355983 0.02397633 -0.33897066 0.54846609 0
0 0.045674857 0.024031542 -0.33897066 0.54846609 0
0 0.043985967 0.02408707 -0.33897066 0.54846609 0
0 0.042289253 0.024142912 -0.33897066 0.54846609 0
0 0.040584646 0.024199072 -0.33897066 0.54846609 0
0 0.038872089 0.024255553 -0.33897066 0.54846609 0
0 0.037151512 0.024312358 -0.33897066 0.54846609 0
0 0.035422854 0.024369488 -0.33897066 0.54846609 0
0 0.033686049 0.024426946 -0.33897066 0.54846609 0
0 0.03194103 0.024484735 -0.33897066 0.54846609 0
0 0.03018773 0.024542857 -0.33897066 0.54846609 0
0 0.028426083 0.024601316 -0.33897066 0.54846609 0
0 0.026656019 0.024660112 -0.33897066 0.54846609 0
0 0.02487747 0.024719251 -0.33897066 0.54846609 0
0 0.023090364 0.024778735 -0.33897066 0.54846609 0
0 0.021294635 0.024838565 -0.33897066 0.54846609 0
0 0.019490207 0.024898745 -0.33897066 0.54846609 0
0 0.017677009 0.024959277 -0.33897066 0.54846609 0
0 0.01585497 0.025020165 -0.33897066 0.54846609 0
0 0.014024015 0.025081413 -0.33897066 0.54846609 0
0 0.012184069 0.02514302 -0.33897066 0.54846609 0
0 0.010335058 0.025204992 -0.33897066 0.54846609 0
0 0.0084769046 0.025267333 -0.33897066 0.54846609 0
0 0.006609533 0.025330042 -0.33897066 0.54846609 0
0 0.004732864 0.025393127 -0.33897066 0.54846609 0
0 0.0028468198 0.025456587 -0.33897066 0.54846609 0
0 0.0009513204 0.025520425 -0.33897066 0.54846609 0
0.039992888 0.079999998 0.022942496 -0.33897066 0.54846609 0
0.038790517 0.079999998 0.022913732 -0.33897066 0.54846609 0
0.037591152 0.079999998 0.022885093 -0.33897066 0.54846609 0
0.036394779 0.079999998 0.022856582 -0.33897066 0.54846609 0
0.035201378 0.079999998 0.022828197 -0.33897066 0.54846609 0
0.034010939 0.079999998 0.022799937 -0.33897066 0.54846609 0
0.03282344 0.079999998 0.022771802 -0.33897066 0.54846609 0
0.031638864 0.079999998 0.022743791 -0.33897066 0.54846609 0
0.039999999 0.067898907 0.023302685 -0.33897066 0.54846609 0
0.039999999 0.066360593 0.023348704 -0.33897066 0.54846609 0
0.028102517 0.079999998 0.022660498 -0.33897066 0.54846609 0
0.026929474 0.079999998 0.022632977 -0.33897066 0.54846609 0
0.025759274 0.079999998 0.022605577 -0.33897066 0.54846609 0
0.024591902 0.079999998 0.022578299 -0.33897066 0.54846609 0
0.023427341 0.079999998 0.022551142 -0.33897066 0.54846609 0
0.022265574 0.079999998 0.022524102 -0.33897066 0.54846609 0
0.021106588 0.079999998 0.022497183 -0.33897066 0.54846609 0
0.019950366 0.079999998 0.022470381 -0.33897066 0.54846609 0
0.039999999 0.052236341 0.023773825 -0.33897066 0.54846609 0
0.017646153 0.079999998 0.022417132 -0.33897066 0.54846609 0
0.016498132 0.079999998 0.022390682 -0.33897066 0.54846609 0
0.015352814 0.079999998 0.022364348 -0.33897066 0.54846609 0
0.014210183 0.079999998 0.022338131 -0.33897066 0.54846609 0
0.013070226 0.079999998 0.02231203 -0.33897066 0.54846609 0
0.011932926 0.079999998 0.022286043 -0.33897066 0.54846609 0
0.010798271 0.079999998 0.022260169 -0.33897066 0.54846609 0
0.0096662445 0.079999998 0.022234408 -0.33897066 0.54846609 0
0.0085368315 0.079999998 0.022208761 -0.33897066 0.54846609 0
0.0074100192 0.079999998 0.022183228 -0.33897066 0.54846609 0
0.0062857918 0.079999998 0.022157805 -0.33897066 0.54846609 0
0.0051641357 0.079999998 0.022132495 -0.33897066 0.54846609 0
0.0040450362 0.079999998 0.022107296 -0.33897066 0.54846609 0
0.0029284798 0.079999998 0.022082206 -0.33897066 0.54846609 0
0.001814452 0.079999998 0.022057226 -0.33897066 0.54846609 0
0.000702939 0.079999998 0.022032358 -0.33897066 0.54846609 0
0 0.07943812 0.022033993 -0.33897066 0.54846609 0
0 0.077900179 0.022081479 -0.33897066 0.54846609 0
0 0.076355591 0.022129226 -0.33897066 0.54846609 0
0 0.074804306 0.022177232 -0.33897066 0.54846609 0
0 0.073246263 0.022225501 -0.33897066 0.54846609 0
0 0.071681432 0.022274034 -0.33897066 0.54846609 0
0 0.07010974 0.022322834 -0.33897066 0.54846609 0
0 0.068531141 0.022371901 -0.33897066 0.54846609 0
0 0.06694559 0.022421241 -0.33897066 0.54846609 0
0 0.065353021 0.02247085 -0.33897066 0.54846609 0
0 0.063753389 0.022520736 -0.33897066 0.54846609 0
0 0.06214663 0.022570899 -0.33897066 0.54846609 0
0 0.060532697 0.022621339 -0.33897066 0.54846609 0
0 0.058911528 0.022672061 -0.33897066 0.54846609 0
0 0.05728307 0.022723064 -0.33897066 0.54846609 0
0 0.055647265 0.022774354 -0.33897066 0.54846609 0
0 0.054004055 0.02282593 -0.33897066 0.54846609 0
0 0.052353378 0.022877796 -0.33897066 0.54846609 0
0 0.050695181 0.022929953 -0.33897066 0.54846609 0
0 0.049029402 0.022982405 -0.33897066 0.54846609 0
0 0.047355983 0.023035154 -0.33897066 0.54846609 0
0 0.045674857 0.0230882 -0.33897066 0.54846609 0
0 0.043985967 0.023141548 -0.33897066 0.54846609 0
0 0.042289253 0.023195198 -0.33897066 0.54846609 0
0 0.040584646 0.023249155 -0.33897066 0.54846609 0
0 0.038872089 0.023303417 -0.33897066 0.54846609 0
0 0.037151512 0.023357993 -0.33897066 0.54846609 0
0 0.035422854 0.02341288 -0.33897066 0.54846609 0
0 0.033686049 0.023468083 -0.33897066 0.54846609 0
0 0.03194103 0.023523603 -0.33897066 0.54846609 0
0 0.03018773 0.023579443 -0.33897066 0.54846609 0
0 0.028426083 0.023635607 -0.33897066 0.54846609 0
0 0.026656019 0.023692096 -0.33897066 0.54846609 0
0 0.02487747 0.023748914 -0.33897066 0.54846609 0
0 0.023090364 0.023806062 -0.33897066 0.54846609 0
0 0.021294635 0.023863543 -0.33897066 0.54846609 0
0 0.019490207 0.023921361 -0.33897066 0.54846609 0
0 0.017677009 0.023979517 -0.33897066 0.54846609 0
0 0.01585497 0.024038015 -0.33897066 0.54846609 0
0 0.014024015 0.024096858 -0.33897066 0.54846609 0
0 0.012184069 0.024156047 -0.33897066 0.54846609 0
0 0.010335058 0.024215586 -0.33897066 0.54846609 0
0 0.0084769046 0.02427548 -0.33897066 0.54846609 0
0 0.006609533 0.024335727 -0.33897066 0.54846609 0
0 0.004732864 0.024396336 -0.33897066 0.54846609 0
0 0.0028468198 0.024457304 -0.33897066 0.54846609 0
0 0.0009513204 0.024518639 -0.33897066 0.54846609 0
0.039992888 0.079999998 0.022005217 -0.33897066 0.54846609 0
0.038790517 0.079999998 0.021977628 -0.33897066 0.54846609 0
0.037591152 0.079999998 0.021950159 -0.33897066 0.54846609 0
0.036394779 0.079999998 0.021922814 -0.33897066 0.54846609 0
0.035201378 0.079999998 0.021895587 -0.33897066 0.54846609 0
0.034010939 0.079999998 0.021868482 -0.33897066 0.54846609 0
0.03282344 0.079999998 0.021841496 -0.33897066 0.54846609 0
0.031638864 0.079999998 0.021814629 -0.33897066 0.54846609 0
0.039999999 0.067898907 0.022350691 -0.33897066 0.54846609 0
0.029278418 0.079999998 0.021761252 -0.33897066 0.54846609 0
0.039999999 0.064816192 0.0224392 -0.33897066 0.54846609 0
0.026929474 0.079999998 0.021708343 -0.33897066 0.54846609 0
0.025759274 0.079999998 0.021682063 -0.33897066 0.54846609 0
0.024591902 0.079999998 0.021655899 -0.33897066 0.54846609 0
0.039999999 0.058576789 0.022618996 -0.33897066 0.54846609 0
0.022265574 0.079999998 0.021603916 -0.33897066 0.54846609 0
0.021106588 0.079999998 0.021578096 -0.33897066 0.54846609 0
0.019950366 0.079999998 0.021552389 -0.33897066 0.54846609 0
0.018796893 0.079999998 0.021526797 -0.33897066 0.54846609 0
0.017646153 0.079999998 0.021501316 -0.33897066 0.54846609 0
0.016498132 0.079999998 0.021475947 -0.33897066 0.54846609 0
0.015352814 0.079999998 0.021450689 -0.33897066 0.54846609 0
0.014210183 0.079999998 0.021425543 -0.33897066 0.54846609 0
0.013070226 0.079999998 0.021400508 -0.33897066 0.54846609 0
0.011932926 0.079999998 0.021375582 -0.33897066 0.54846609 0
0.010798271 0.079999998 0.021350766 -0.33897066 0.54846609 0
0.0096662445 0.079999998 0.021326058 -0.33897066 0.54846609 0
0.0085368315 0.079999998 0.02130146 -0.33897066 0.54846609 0
0.0074100192 0.079999998 0.021276968 -0.33897066 0.54846609 0
0.0062857918 0.079999998 0.021252584 -0.33897066 0.54846609 0
0.0051641357 0.079999998 0.021228308 -0.33897066 0.54846609 0
0.0040450362 0.079999998 0.021204136 -0.33897066 0.54846609 0
0.039999999 0.02920505 0.023476591 -0.33897066 0.54846609 0
0.001814452 0.079999998 0.021156115 -0.33897066 0.54846609 0
0.000702939 0.079999998 0.021132261 -0.33897066 0.54846609 0
0 0.07943812 0.021133829 -0.33897066 0.54846609 0
0 0.077900179 0.021179376 -0.33897066 0.54846609 0
0 0.076355591 0.021225171 -0.33897066 0.54846609 0
0 0.074804306 0.021271218 -0.33897066 0.54846609 0
0 0.073246263 0.021317514 -0.33897066 0.54846609 0
0 0.071681432 0.021364065 -0.33897066 0.54846609 0
0 0.07010974 0.021410869 -0.33897066 0.54846609 0
0.039999999 0.011896753 0.023990063 -0.33897066 0.54846609 0
0 0.06694559 0.021505257 -0.33897066 0.54846609 0
0.039999999 0.0083435979 0.024096169 -0.33897066 0.54846609 0
0 0.063753389 0.021600688 -0.33897066 0.54846609 0
0 0.06214663 0.0216488 -0.33897066 0.54846609 0
0 0.060532697 0.02169718 -0.33897066 0.54846609 0
0 0.058911528 0.021745829 -0.33897066 0.54846609 0
0 0.05728307 0.021794749 -0.33897066 0.54846609 0
0 0.055647265 0.021843944 -0.33897066 0.54846609 0
0 0.054004055 0.021893414 -0.33897066 0.54846609 0
0 0.052353378 0.021943161 -0.33897066 0.54846609 0
0 0.050695181 0.021993188 -0.33897066 0.54846609 0
0 0.049029402 0.022043496 -0.33897066 0.54846609 0
0 0.047355983 0.02209409 -0.33897066 0.54846609 0
0 0.045674857 0.02214497 -0.33897066 0.54846609 0
0 0.043985967 0.022196136 -0.33897066 0.54846609 0
0 0.042289253 0.022247596 -0.33897066 0.54846609 0
0 0.040584646 0.022299347 -0.33897066 0.54846609 0
0 0.038872089 0.022351395 -0.33897066 0.54846609 0
0 0.037151512 0.022403739 -0.33897066 0.54846609 0
0 0.035422854 0.022456385 -0.33897066 0.54846609 0
0 0.033686049 0.022509333 -0.33897066 0.54846609 0
0 0.03194103 0.022562584 -0.33897066 0.54846609 0
0 0.03018773 0.022616144 -0.33897066 0.54846609 0
0 0.028426083 0.022670012 -0.33897066 0.54846609 0
0 0.026656019 0.022724194 -0.33897066 0.54846609 0
0 0.02487747 0.02277869 -0.33897066 0.54846609 0
0 0.023090364 0.022833504 -0.33897066 0.54846609 0
0 0.021294635 0.022888636 -0.33897066 0.54846609 0
0 0.019490207 0.022944093 -0.33897066 0.54846609 0
0 0.017677009 0.022999873 -0.33897066 0.54846609 0
0 0.01585497 0.02305598 -0.33897066 0.54846609 0
0 0.014024015 0.02311242 -0.33897066 0.54846609 0
0 0.012184069 0.023169192 -0.33897066 0.54846609 0
0 0.010335058 0.023226298 -0.33897066 0.54846609 0
0 0.0084769046 0.023283744 -0.33897066 0.54846609 0
0 0.006609533 0.023341531 -0.33897066 0.54846609 0
0 0.004732864 0.023399662 -0.33897066 0.54846609 0
0 0.0028468198 0.02345814 -0.33897066 0.54846609 0
0 0.0009513204 0.02351697 -0.33897066 0.54846609 0
0.039992888 0.079999998 0.021068046 -0.33897066 0.54846609 0
0.039999999 0.078500107 0.021109 -0.33897066 0.54846609 0
0.037591152 0.079999998 0.021015333 -0.33897066 0.54846609 0
0.036394779 0.079999998 0.020989152 -0.33897066 0.54846609 0
0.039999999 0.073992096 0.021231929 -0.33897066 0.54846609 0
0.039999999 0.072477721 0.021273326 -0.33897066 0.54846609 0
0.03282344 0.079999998 0.020911297 -0.33897066 0.54846609 0
0.039999999 0.069431171 0.021356763 -0.33897066 0.54846609 0
0.039999999 0.067898907 0.021398805 -0.33897066 0.54846609 0
0.029278418 0.079999998 0.02083447 -0.33897066 0.54846609 0
0.028102517 0.079999998 0.020809086 -0.33897066 0.54846609 0
0.026929474 0.079999998 0.020783814 -0.33897066 0.54846609 0
0.025759274 0.079999998 0.020758653 -0.33897066 0.54846609 0
0.024591902 0.079999998 0.020733604 -0.33897066 0.54846609 0
0.023427341 0.079999998 0.020708665 -0.33897066 0.54846609 0
0.022265574 0.079999998 0.020683834 -0.33897066 0.54846609 0
0.021106588 0.079999998 0.020659115 -0.33897066 0.54846609 0
0.039999999 0.053831086 0.021787165 -0.33897066 0.54846609 0
0.039999999 0.052236341 0.021831453 -0.33897066 0.54846609 0
0.017646153 0.079999998 0.020585604 -0.33897066 0.54846609 0
0.016498132 0.079999998 0.020561315 -0.33897066 0.54846609 0
0.015352814 0.079999998 0.020537134 -0.33897066 0.54846609 0
0.014210183 0.079999998 0.02051306 -0.33897066 0.54846609 0
0.013070226 0.079999998 0.020489089 -0.33897066 0.54846609 0
0.011932926 0.079999998 0.020465225 -0.33897066 0.54846609 0
0.010798271 0.079999998 0.020441465 -0.33897066 0.54846609 0
0.0096662445 0.079999998 0.020417809 -0.33897066 0.54846609 0
0.0085368315 0.079999998 0.020394258 -0.33897066 0.54846609 0
0.0074100192 0.079999998 0.020370811 -0.33897066 0.54846609 0
0.0062857918 0.079999998 0.020347465 -0.33897066 0.54846609 0
0.0051641357 0.079999998 0.020324223 -0.33897066 0.54846609 0
0.0040450362 0.079999998 0.020301081 -0.33897066 0.54846609 0
0.0029284798 0.079999998 0.020278042 -0.33897066 0.54846609 0
0.001814452 0.079999998 0.020255104 -0.33897066 0.54846609 0
0.000702939 0.079999998 0.020232268 -0.33897066 0.54846609 0
0 0.07943812 0.020233769 -0.33897066 0.54846609 0
0 0.077900179 0.020277375 -0.33897066 0.54846609 0
0 0.076355591 0.02032122 -0.33897066 0.54846609 0
0 0.074804306 0.020365305 -0.33897066 0.54846609 0
0 0.073246263 0.020409631 -0.33897066 0.54846609 0
0 0.071681432 0.020454198 -0.33897066 0.54846609 0
0 0.07010974 0.02049901 -0.33897066 0.54846609 0
0 0.068531141 0.020544069 -0.33897066 0.54846609 0
0 0.06694559 0.020589378 -0.33897066 0.54846609 0
0 0.065353021 0.020634934 -0.33897066 0.54846609 0
0 0.063753389 0.020680744 -0.33897066 0.54846609 0
0 0.06214663 0.020726807 -0.33897066 0.54846609 0
0 0.060532697 0.020773128 -0.33897066 0.54846609 0
0 0.058911528 0.020819705 -0.33897066 0.54846609 0
0 0.05728307 0.020866541 -0.33897066 0.54846609 0
0 0.055647265 0.02091364 -0.33897066 0.54846609 0
0 0.054004055 0.020961003 -0.33897066 0.54846609 0
0 0.052353378 0.021008631 -0.33897066 0.54846609 0
0 0.050695181 0.021056527 -0.33897066 0.54846609 0
0 0.049029402 0.021104695 -0.33897066 0.54846609 0
0 0.047355983 0.021153133 -0.33897066 0.54846609 0
0 0.045674857 0.021201845 -0.33897066 0.54846609 0
0 0.043985967 0.021250835 -0.33897066 0.54846609 0
0 0.042289253 0.021300102 -0.33897066 0.54846609 0
0 0.040584646 0.021349648 -0.33897066 0.54846609 0
0 0.038872089 0.021399479 -0.33897066 0.54846609 0
0 0.037151512 0.021449596 -0.33897066 0.54846609 0
0 0.035422854 0.021499997 -0.33897066 0.54846609 0
0 0.033686049 0.021550691 -0.33897066 0.54846609 0
0 0.03194103 0.021601675 -0.33897066 0.54846609 0
0 0.03018773 0.021652954 -0.33897066 0.54846609 0
0 0.028426083 0.021704528 -0.33897066 0.54846609 0
0 0.026656019 0.021756401 -0.33897066 0.54846609 0
0 0.02487747 0.021808578 -0.33897066 0.54846609 0
0 0.023090364 0.021861056 -0.33897066 0.54846609 0
0 0.021294635 0.021913841 -0.33897066 0.54846609 0
0 0.019490207 0.021966934 -0.33897066 0.54846609 0
0 0.017677009 0.02202034 -0.33897066 0.54846609 0
0 0.01585497 0.022074059 -0.33897066 0.54846609 0
0 0.014024015 0.022128092 -0.33897066 0.54846609 0
0 0.012184069 0.022182446 -0.33897066 0.54846609 0
0 0.010335058 0.022237122 -0.33897066 0.54846609 0
0 0.0084769046 0.02229212 -0.33897066 0.54846609 0
0 0.006609533 0.022347447 -0.33897066 0.54846609 0
0 0.004732864 0.022403102 -0.33897066 0.54846609 0
0 0.0028468198 0.02245909 -0.33897066 0.54846609 0
0 0.0009513204 0.022515412 -0.33897066 0.54846609 0
0.039992888 0.079999998 0.020130975 -0.33897066 0.54846609 0
0.038790517 0.079999998 0.020105734 -0.33897066 0.54846609 0
0.037591152 0.079999998 0.020080607 -0.33897066 0.54846609 0
0.036394779 0.079999998 0.02005559 -0.33897066 0.54846609 0
0.035201378 0.079999998 0.020030683 -0.33897066 0.54846609 0
0.034010939 0.079999998 0.020005886 -0.33897066 0.54846609 0
0.03282344 0.079999998 0.019981198 -0.33897066 0.54846609 0
0.031638864 0.079999998 0.01995662 -0.33897066 0.54846609 0
0.030457195 0.079999998 0.019932151 -0.33897066 0.54846609 0
0.029278418 0.079999998 0.019907787 -0.33897066 0.54846609 0
0.028102517 0.079999998 0.019883534 -0.33897066 0.54846609 0
0.039999999 0.063265659 0.020568794 -0.33897066 0.54846609 0
0.025759274 0.079999998 0.019835344 -0.33897066 0.54846609 0
0.024591902 0.079999998 0.019811409 -0.33897066 0.54846609 0
0.023427341 0.079999998 0.01978758 -0.33897066 0.54846609 0
0.022265574 0.079999998 0.019763853 -0.33897066 0.54846609 0
0.021106588 0.079999998 0.019740233 -0.33897066 0.54846609 0
0.039999999 0.053831086 0.020818109 -0.33897066 0.54846609 0
0.039999999 0.052236341 0.020860426 -0.33897066 0.54846609 0
0.039999999 0.050635096 0.020902967 -0.33897066 0.54846609 0
0.016498132 0.079999998 0.019646784 -0.33897066 0.54846609 0
0.015352814 0.079999998 0.019623678 -0.33897066 0.54846609 0
0.039999999 0.045791876 0.021031944 -0.33897066 0.54846609 0
0.013070226 0.079999998 0.01957777 -0.33897066 0.54846609 0
0.011932926 0.079999998 0.019554967 -0.33897066 0.54846609 0
0.010798271 0.079999998 0.019532263 -0.33897066 0.54846609 0
0.0096662445 0.079999998 0.01950966 -0.33897066 0.54846609 0
0.039999999 0.037585296 0.021251515 -0.33897066 0.54846609 0
0.0074100192 0.079999998 0.019464752 -0.33897066 0.54846609 0
0.0062857918 0.079999998 0.019442445 -0.33897066 0.54846609 0
0.0051641357 0.079999998 0.019420236 -0.33897066 0.54846609 0
0.039999999 0.030895306 0.021431439 -0.33897066 0.54846609 0
0.0029284798 0.079999998 0.01937611 -0.33897066 0.54846609 0
0.001814452 0.079999998 0.019354193 -0.33897066 0.54846609 0
0.000702939 0.079999998 0.01933237 -0.33897066 0.54846609 0
0 0.07943812 0.019333806 -0.33897066 0.54846609 0
0 0.077900179 0.019375473 -0.33897066 0.54846609 0
0 0.076355591 0.019417368 -0.33897066 0.54846609 0
0 0.074804306 0.019459492 -0.33897066 0.54846609 0
0 0.073246263 0.019501844 -0.33897066 0.54846609 0
0 0.071681432 0.01954443 -0.33897066 0.54846609 0
0 0.07010974 0.01958725 -0.33897066 0.54846609 0
0 0.068531141 0.019630305 -0.33897066 0.54846609 0
0 0.06694559 0.019673597 -0.33897066 0.54846609 0
0 0.065353021 0.019717129 -0.33897066 0.54846609 0
0 0.063753389 0.019760901 -0.33897066 0.54846609 0
0 0.06214663 0.019804915 -0.33897066 0.54846609 0
0 0.060532697 0.019849174 -0.33897066 0.54846609 0
0 0.058911528 0.01989368 -0.33897066 0.54846609 0
0 0.05728307 0.019938434 -0.33897066 0.54846609 0
0 0.055647265 0.019983437 -0.33897066 0.54846609 0
0 0.054004055 0.020028694 -0.33897066 0.54846609 0
0 0.052353378 0.020074204 -0.33897066 0.54846609 0
0 0.050695181 0.020119971 -0.33897066 0.54846609 0
0 0.049029402 0.020165995 -0.33897066 0.54846609 0
0 0.047355983 0.020212278 -0.33897066 0.54846609 0
0 0.045674857 0.020258823 -0.33897066 0.54846609 0
0 0.043985967 0.020305634 -0.33897066 0.54846609 0
0 0.042289253 0.02035271 -0.33897066 0.54846609 0
0 0.040584646 0.020400053 -0.33897066 0.54846609 0
0 0.038872089 0.020447668 -0.33897066 0.54846609 0
0 0.037151512 0.020495554 -0.33897066 0.54846609 0
0 0.035422854 0.020543715 -0.33897066 0.54846609 0
0 0.033686049 0.020592153 -0.33897066 0.54846609 0
0 0.03194103 0.020640869 -0.33897066 0.54846609 0
0 0.03018773 0.020689867 -0.33897066 0.54846609 0
0 0.028426083 0.020739147 -0.33897066 0.54846609 0
0 0.026656019 0.020788714 -0.33897066 0.54846609 0
0 0.02487747 0.02083857 -0.33897066 0.54846609 0
0 0.023090364 0.020888714 -0.33897066 0.54846609 0
0 0.021294635 0.020939151 -0.33897066 0.54846609 0
0 0.019490207 0.020989884 -0.33897066 0.54846609 0
0 0.017677009 0.021040913 -0.33897066 0.54846609 0
0 0.01585497 0.021092242 -0.33897066 0.54846609 0
0 0.014024015 0.021143874 -0.33897066 0.54846609 0
0 0.012184069 0.02119581 -0.33897066 0.54846609 0
0 0.010335058 0.021248054 -0.33897066 0.54846609 0
0 0.0084769046 0.021300606 -0.33897066 0.54846609 0
0 0.006609533 0.021353472 -0.33897066 0.54846609 0
0 0.004732864 0.021406651 -0.33897066 0.54846609 0
0 0.0028468198 0.021460149 -0.33897066 0.54846609 0
0 0.0009513204 0.021513967 -0.33897066 0.54846609 0
0.039992888 0.079999998 0.019194001 -0.33897066 0.54846609 0
0.038790517 0.079999998 0.019169938 -0.33897066 0.54846609 0
0.037591152 0.079999998 0.019145979 -0.33897066 0.54846609 0
0.036394779 0.079999998 0.019122126 -0.33897066 0.54846609 0
0.035201378 0.079999998 0.019098377 -0.33897066 0.54846609 0
0.034010939 0.079999998 0.019074734 -0.33897066 0.54846609 0
0.03282344 0.079999998 0.019051196 -0.33897066 0.54846609 0
0.031638864 0.079999998 0.019027762 -0.33897066 0.54846609 0
0.030457195 0.079999998 0.019004431 -0.33897066 0.54846609 0
0.029278418 0.079999998 0.018981203 -0.33897066 0.54846609 0
0.028102517 0.079999998 0.018958077 -0.33897066 0.54846609 0
0.026929474 0.079999998 0.018935053 -0.33897066 0.54846609 0
0.024591902 0.079999998 0.01888931 -0.33897066 0.54846609 0
0.023427341 0.079999998 0.018866589 -0.33897066 0.54846609 0
0.022265574 0.079999998 0.018843967 -0.33897066 0.54846609 0
0.039999999 0.055419378 0.019809015 -0.33897066 0.54846609 0
0.019950366 0.079999998 0.018799024 -0.33897066 0.54846609 0
0.018796893 0.079999998 0.0187767 -0.33897066 0.54846609 0
0.017646153 0.079999998 0.018754475 -0.33897066 0.54846609 0
0.016498132 0.079999998 0.018732347 -0.33897066 0.54846609 0
0.015352814 0.079999998 0.018710317 -0.33897066 0.54846609 0
0.014210183 0.079999998 0.018688383 -0.33897066 0.54846609 0
0.013070226 0.079999998 0.018666545 -0.33897066 0.54846609 0
0.011932926 0.079999998 0.018644804 -0.33897066 0.54846609 0
0.010798271 0.079999998 0.018623156 -0.33897066 0.54846609 0
0.0096662445 0.079999998 0.018601606 -0.33897066 0.54846609 0
0.0085368315 0.079999998 0.01858015 -0.33897066 0.54846609 0
0.0074100192 0.079999998 0.018558787 -0.33897066 0.54846609 0
0.0062857918 0.079999998 0.018537519 -0.33897066 0.54846609 0
0.0051641357 0.079999998 0.018516343 -0.33897066 0.54846609 0
0.0040450362 0.079999998 0.018495262 -0.33897066 0.54846609 0
0.0029284798 0.079999998 0.018474272 -0.33897066 0.54846609 0
0.001814452 0.079999998 0.018453375 -0.33897066 0.54846609 0
0.000702939 0.079999998 0.018432567 -0.33897066 0.54846609 0
0 0.07943812 0.018433936 -0.33897066 0.54846609 0
0 0.077900179 0.018473664 -0.33897066 0.54846609 0
0 0.076355591 0.018513609 -0.33897066 0.54846609 0
0 0.074804306 0.018553771 -0.33897066 0.54846609 0
0 0.073246263 0.018594153 -0.33897066 0.54846609 0
0 0.071681432 0.018634757 -0.33897066 0.54846609 0
0 0.07010974 0.018675584 -0.33897066 0.54846609 0
0 0.068531141 0.018716635 -0.33897066 0.54846609 0
0 0.06694559 0.018757911 -0.33897066 0.54846609 0
0 0.065353021 0.018799417 -0.33897066 0.54846609 0
0 0.063753389 0.018841151 -0.33897066 0.54846609 0
0 0.06214663 0.018883118 -0.33897066 0.54846609 0
0 0.060532697 0.018925317 -0.33897066 0.54846609 0
0 0.058911528 0.018967751 -0.33897066 0.54846609 0
0 0.05728307 0.019010423 -0.33897066 0.54846609 0
0 0.055647265 0.019053333 -0.33897066 0.54846609 0
0.03702163 0 0.021182157 -0.33897066 0.54846609 0
0 0.052353378 0.019139873 -0.33897066 0.54846609 0
0 0.050695181 0.019183509 -0.33897066 0.54846609 0
0 0.049029402 0.019227391 -0.33897066 0.54846609 0
0 0.047355983 0.019271521 -0.33897066 0.54846609 0
0 0.045674857 0.0193159 -0.33897066 0.54846609 0
0 0.043985967 0.019360531 -0.33897066 0.54846609 0
0 0.042289253 0.019405415 -0.33897066 0.54846609 0
0 0.040584646 0.019450556 -0.33897066 0.54846609 0
0 0.038872089 0.019495955 -0.33897066 0.54846609 0
0 0.037151512 0.019541612 -0.33897066 0.54846609 0
0 0.035422854 0.019587532 -0.33897066 0.54846609 0
0 0.033686049 0.019633714 -0.33897066 0.54846609 0
0 0.03194103 0.019680163 -0.33897066 0.54846609 0
0 0.03018773 0.01972688 -0.33897066 0.54846609 0
0 0.028426083 0.019773869 -0.33897066 0.54846609 0
0 0.026656019 0.019821128 -0.33897066 0.54846609 0
0 0.02487747 0.019868663 -0.33897066 0.54846609 0
0 0.023090364 0.019916473 -0.33897066 0.54846609 0
0 0.021294635 0.019964563 -0.33897066 0.54846609 0
0 0.019490207 0.020012934 -0.33897066 0.54846609 0
0 0.017677009 0.020061588 -0.33897066 0.54846609 0
0 0.01585497 0.020110527 -0.33897066 0.54846609 0
0 0.014024015 0.020159757 -0.33897066 0.54846609 0
0 0.012184069 0.020209275 -0.33897066 0.54846609 0
0 0.010335058 0.020259086 -0.33897066 0.54846609 0
0 0.0084769046 0.020309193 -0.33897066 0.54846609 0
0 0.006609533 0.020359598 -0.33897066 0.54846609 0
0 0.004732864 0.020410303 -0.33897066 0.54846609 0
0 0.0028468198 0.020461312 -0.33897066 0.54846609 0
0 0.0009513204 0.020512624 -0.33897066 0.54846609 0
0.039992888 0.079999998 0.018257122 -0.33897066 0.54846609 0
0.038790517 0.079999998 0.018234231 -0.33897066 0.54846609 0
0.037591152 0.079999998 0.018211441 -0.33897066 0.54846609 0
0.036394779 0.079999998 0.018188752 -0.33897066 0.54846609 0
0.035201378 0.079999998 0.018166164 -0.33897066 0.54846609 0
0.039999999 0.072477721 0.018435014 -0.33897066 0.54846609 0
0.03282344 0.079999998 0.018121287 -0.33897066 0.54846609 0
0.031638864 0.079999998 0.018098997 -0.33897066 0.54846609 0
0.030457195 0.079999998 0.018076804 -0.33897066 0.54846609 0
0.029278418 0.079999998 0.018054709 -0.33897066 0.54846609 0
0.028102517 0.079999998 0.018032713 -0.33897066 0.54846609 0
0.026929474 0.079999998 0.018010812 -0.33897066 0.54846609 0
0.025759274 0.079999998 0.01798901 -0.33897066 0.54846609 0
0.024591902 0.079999998 0.017967302 -0.33897066 0.54846609 0
0.039999999 0.058576789 0.018766357 -0.33897066 0.54846609 0
0.022265574 0.079999998 0.017924173 -0.33897066 0.54846609 0
0.021106588 0.079999998 0.017902751 -0.33897066 0.54846609 0
0.019950366 0.079999998 0.017881423 -0.33897066 0.54846609 0
0.039999999 0.052236341 0.018918674 -0.33897066 0.54846609 0
0.017646153 0.079999998 0.017839048 -0.33897066 0.54846609 0
0.016498132 0.079999998 0.017818 -0.33897066 0.54846609 0
0.015352814 0.079999998 0.017797045 -0.33897066 0.54846609 0
0.014210183 0.079999998 0.017776182 -0.33897066 0.54846609 0
0.013070226 0.079999998 0.01775541 -0.33897066 0.54846609 0
0.039999999 0.042529672 0.019153245 -0.33897066 0.54846609 0
0.010798271 0.079999998 0.017714141 -0.33897066 0.54846609 0
0.0096662445 0.079999998 0.017693641 -0.33897066 0.54846609 0
0.0085368315 0.079999998 0.017673232 -0.33897066 0.54846609 0
0.039999999 0.035923347 0.019313825 -0.33897066 0.54846609 0
0.0062857918 0.079999998 0.017632682 -0.33897066 0.54846609 0
0.0051641357 0.079999998 0.017612541 -0.33897066 0.54846609 0
0.0040450362 0.079999998 0.017592488 -0.33897066 0.54846609 0
0.0029284798 0.079999998 0.017572522 -0.33897066 0.54846609 0
0.001814452 0.079999998 0.017552644 -0.33897066 0.54846609 0
0.000702939 0.079999998 0.017532853 -0.33897066 0.54846609 0
0 0.07943812 0.017534155 -0.33897066 0.54846609 0
0 0.077900179 0.017571945 -0.33897066 0.54846609 0
0 0.076355591 0.017609939 -0.33897066 0.54846609 0
0.039999999 0.018910171 0.019730698 -0.33897066 0.54846609 0
0 0.073246263 0.017686553 -0.33897066 0.54846609 0
0 0.071681432 0.017725173 -0.33897066 0.54846609 0
0 0.07010974 0.017764008 -0.33897066 0.54846609 0
0 0.068531141 0.017803054 -0.33897066 0.54846609 0
0 0.06694559 0.017842317 -0.33897066 0.54846609 0
0 0.065353021 0.017881798 -0.33897066 0.54846609 0
0 0.063753389 0.017921494 -0.33897066 0.54846609 0
0 0.06214663 0.017961413 -0.33897066 0.54846609 0
0 0.060532697 0.018001551 -0.33897066 0.54846609 0
0 0.058911528 0.018041914 -0.33897066 0.54846609 0
0 0.05728307 0.018082503 -0.33897066 0.54846609 0
0 0.055647265 0.018123318 -0.33897066 0.54846609 0
0 0.054004055 0.018164361 -0.33897066 0.54846609 0
0 0.052353378 0.018205635 -0.33897066 0.54846609 0
0 0.050695181 0.018247141 -0.33897066 0.54846609 0
0 0.049029402 0.018288881 -0.33897066 0.54846609 0
0 0.047355983 0.018330857 -0.33897066 0.54846609 0
0 0.045674857 0.01837307 -0.33897066 0.54846609 0
0 0.043985967 0.018415522 -0.33897066 0.54846609 0
0 0.042289253 0.018458216 -0.33897066 0.54846609 0
0 0.040584646 0.018501153 -0.33897066 0.54846609 0
0 0.038872089 0.018544335 -0.33897066 0.54846609 0
0 0.037151512 0.018587764 -0.33897066 0.54846609 0
0 0.035422854 0.018631442 -0.33897066 0.54846609 0
0 0.033686049 0.018675372 -0.33897066 0.54846609 0
0 0.03194103 0.018719554 -0.33897066 0.54846609 0
0 0.03018773 0.018763989 -0.33897066 0.54846609 0
0 0.028426083 0.018808683 -0.33897066 0.54846609 0
0 0.026656019 0.018853636 -0.33897066 0.54846609 0
0 0.02487747 0.01889885 -0.33897066 0.54846609 0
0 0.023090364 0.018944327 -0.33897066 0.54846609 0
0 0.021294635 0.01899007 -0.33897066 0.54846609 0
0 0.019490207 0.019036081 -0.33897066 0.54846609 0
0 0.017677009 0.01908236 -0.33897066 0.54846609 0
0 0.01585497 0.019128911 -0.33897066 0.54846609 0
0 0.014024015 0.019175736 -0.33897066 0.54846609 0
0 0.012184069 0.019222839 -0.33897066 0.54846609 0
0 0.010335058 0.019270219 -0.33897066 0.54846609 0
0 0.0084769046 0.01931788 -0.33897066 0.54846609 0
0 0.006609533 0.019365825 -0.33897066 0.54846609 0
0 0.004732864 0.019414054 -0.33897066 0.54846609 0
0 0.0028468198 0.019462572 -0.33897066 0.54846609 0
0 0.0009513204 0.019511379 -0.33897066 0.54846609 0
0.039992888 0.079999998 0.017320329 -0.33897066 0.54846609 0
0.038790517 0.079999998 0.017298613 -0.33897066 0.54846609 0
0.037591152 0.079999998 0.017276993 -0.33897066 0.54846609 0
0.036394779 0.079999998 0.017255468 -0.33897066 0.54846609 0
0.035201378 0.079999998 0.01723404 -0.33897066 0.54846609 0
0.034010939 0.079999998 0.017212706 -0.33897066 0.54846609 0
0.03282344 0.079999998 0.017191464 -0.33897066 0.54846609 0
0.039999999 0.069431171 0.017557688 -0.33897066 0.54846609 0
0.030457195 0.079999998 0.017149264 -0.33897066 0.54846609 0
0.039999999 0.066360593 0.017626995 -0.33897066 0.54846609 0
0.028102517 0.079999998 0.017107435 -0.33897066 0.54846609 0
0.026929474 0.079999998 0.017086659 -0.33897066 0.54846609 0
0.039999999 0.061708938 0.017732307 -0.33897066 0.54846609 0
0.024591902 0.079999998 0.017045381 -0.33897066 0.54846609 0
0.023427341 0.079999998 0.017024877 -0.33897066 0.54846609 0
0.022265574 0.079999998 0.017004464 -0.33897066 0.54846609 0
0.021106588 0.079999998 0.016984142 -0.33897066 0.54846609 0
0.039999999 0.053831086 0.017911527 -0.33897066 0.54846609 0
0.039999999 0.052236341 0.017947936 -0.33897066 0.54846609 0
0.017646153 0.079999998 0.016923707 -0.33897066 0.54846609 0
0.016498132 0.079999998 0.016903739 -0.33897066 0.54846609 0
0.015352814 0.079999998 0.016883859 -0.33897066 0.54846609 0
0.014210183 0.079999998 0.016864067 -0.33897066 0.54846609 0
0.013070226 0.079999998 0.016844362 -0.33897066 0.54846609 0
0.011932926 0.079999998 0.016824743 -0.33897066 0.54846609 0
0.010798271 0.079999998 0.016805209 -0.33897066 0.54846609 0
0.0096662445 0.079999998 0.016785761 -0.33897066 0.54846609 0
0.0085368315 0.079999998 0.016766399 -0.33897066 0.54846609 0
0.0074100192 0.079999998 0.016747123 -0.33897066 0.54846609 0
0.0062857918 0.079999998 0.01672793 -0.33897066 0.54846609 0
0.0051641357 0.079999998 0.016708823 -0.33897066 0.54846609 0
0.0040450362 0.079999998 0.016689798 -0.33897066 0.54846609 0
0.0029284798 0.079999998 0.016670857 -0.33897066 0.54846609 0
0.001814452 0.079999998 0.016651999 -0.33897066 0.54846609 0
0.000702939 0.079999998 0.016633224 -0.33897066 0.54846609 0
0 0.07943812 0.016634459 -0.33897066 0.54846609 0
0 0.077900179 0.016670309 -0.33897066 0.54846609 0
0 0.076355591 0.016706355 -0.33897066 0.54846609 0
0 0.074804306 0.016742596 -0.33897066 0.54846609 0
0 0.073246263 0.016779037 -0.33897066 0.54846609 0
0.039999999 0.015418786 0.0188 -0.33897066 0.54846609 0
0 0.07010974 0.016852519 -0.33897066 0.54846609 0
0 0.068531141 0.016889561 -0.33897066 0.54846609 0
0 0.06694559 0.01692681 -0.33897066 0.54846609 0
0 0.065353021 0.016964262 -0.33897066 0.54846609 0
0 0.063753389 0.017001923 -0.33897066 0.54846609 0
0 0.06214663 0.017039793 -0.33897066 0.54846609 0
0 0.060532697 0.017077873 -0.33897066 0.54846609 0
0 0.058911528 0.017116165 -0.33897066 0.54846609 0
0.039531659 0 0.019155294 -0.33897066 0.54846609 0
0 0.055647265 0.01719339 -0.33897066 0.54846609 0
0 0.054004055 0.017232329 -0.33897066 0.54846609 0
0 0.052353378 0.017271485 -0.33897066 0.54846609 0
0 0.050695181 0.017310861 -0.33897066 0.54846609 0
0 0.049029402 0.017350459 -0.33897066 0.54846609 0
0 0.047355983 0.017390281 -0.33897066 0.54846609 0
0 0.045674857 0.017430328 -0.33897066 0.54846609 0
0 0.043985967 0.017470602 -0.33897066 0.54846609 0
0 0.042289253 0.017511105 -0.33897066 0.54846609 0
0 0.040584646 0.017551839 -0.33897066 0.54846609 0
0 0.038872089 0.017592806 -0.33897066 0.54846609 0
0 0.037151512 0.017634006 -0.33897066 0.54846609 0
0 0.035422854 0.017675443 -0.33897066 0.54846609 0
0 0.033686049 0.017717117 -0.33897066 0.54846609 0
0 0.03194103 0.017759033 -0.33897066 0.54846609 0
0 0.03018773 0.01780119 -0.33897066 0.54846609 0
0 0.028426083 0.017843591 -0.33897066 0.54846609 0
0 0.026656019 0.017886236 -0.33897066 0.54846609 0
0 0.02487747 0.017929131 -0.33897066 0.54846609 0
0 0.023090364 0.017972274 -0.33897066 0.54846609 0
0 0.021294635 0.01801567 -0.33897066 0.54846609 0
0 0.019490207 0.018059319 -0.33897066 0.54846609 0
0 0.017677009 0.018103223 -0.33897066 0.54846609 0
0 0.01585497 0.018147387 -0.33897066 0.54846609 0
0 0.014024015 0.018191809 -0.33897066 0.54846609 0
0 0.012184069 0.018236494 -0.33897066 0.54846609 0
0 0.010335058 0.018281443 -0.33897066 0.54846609 0
0 0.0084769046 0.018326659 -0.33897066 0.54846609 0
0 0.006609533 0.018372143 -0.33897066 0.54846609 0
0 0.004732864 0.018417899 -0.33897066 0.54846609 0
0 0.0028468198 0.018463926 -0.33897066 0.54846609 0
0 0.0009513204 0.01851023 -0.33897066 0.54846609 0
0.039992888 0.079999998 0.016383622 -0.33897066 0.54846609 0
0.038790517 0.079999998 0.016363079 -0.33897066 0.54846609 0
0.037591152 0.079999998 0.016342629 -0.33897066 0.54846609 0
0.036394779 0.079999998 0.016322268 -0.33897066 0.54846609 0
0.039999999 0.073992096 0.016511064 -0.33897066 0.54846609 0
0.034010939 0.079999998 0.016281817 -0.33897066 0.54846609 0
0.03282344 0.079999998 0.016261725 -0.33897066 0.54846609 0
0.031638864 0.079999998 0.016241722 -0.33897066 0.54846609 0
0.030457195 0.079999998 0.016221806 -0.33897066 0.54846609 0
0.039999999 0.066360593 0.016673701 -0.33897066 0.54846609 0
0.028102517 0.079999998 0.01618224 -0.33897066 0.54846609 0
0.026929474 0.079999998 0.016162587 -0.33897066 0.54846609 0
0.025759274 0.079999998 0.016143022 -0.33897066 0.54846609 0
0.024591902 0.079999998 0.016123541 -0.33897066 0.54846609 0
0.039999999 0.058576789 0.016840599 -0.33897066 0.54846609 0
0.022265574 0.079999998 0.016084839 -0.33897066 0.54846609 0
0.039999999 0.055419378 0.016908584 -0.33897066 0.54846609 0
