# .PCD v0.7 - Point Cloud Data file format
VERSION 0.7
FIELDS x y z vp_x vp_y vp_z
SIZE 4 4 4 4 4 4
TYPE F F F F F F
COUNT 1 1 1 1 1 1
WIDTH 747
HEIGHT 1
VIEWPOINT 0 0 0 1 0 0 0
POINTS 747
DATA ascii
0.017292295 0.079999998 0.0039015566 -0.52287865 0.32315677 -0.19972187
0.014932778 0.079999998 0.0032032449 -0.52287865 0.32315677 -0.19972187
0.01259023 0.079999998 0.0025099861 -0.52287865 0.32315677 -0.19972187
0.039999999 0.066438161 0.013062622 -0.52287865 0.32315677 -0.19972187
0.007955269 0.079999998 0.0011383976 -0.52287865 0.32315677 -0.19972187
0.0056624776 0.079999998 0.00045995519 -0.52287865 0.32315677 -0.19972187
0.0039494918 0.079739593 0 -0.52287865 0.32315677 -0.19972187
0.0034510158 0.078920804 2.7755576e-17 -0.52287865 0.32315677 -0.19972187
0.0029526253 0.078102328 0 -0.52287865 0.32315677 -0.19972187
0.0024543181 0.07728415 0 -0.52287865 0.32315677 -0.19972187
0.0019560922 0.076466277 2.7755576e-17 -0.52287865 0.32315677 -0.19972187
0.0014579451 0.075648703 0 -0.52287865 0.32315677 -0.19972187
0.00095987454 0.074831426 0 -0.52287865 0.32315677 -0.19972187
0.039999999 0.055191852 0.015088891 -0.52287865 0.32315677 -0.19972187
0 0.073180497 1.376914e-05 -0.52287865 0.32315677 -0.19972187
0.039999999 0.052921165 0.015498398 -0.52287865 0.32315677 -0.19972187
0 0.07106778 0.00039484806 -0.52287865 0.32315677 -0.19972187
0.039999999 0.05064315 0.015909357 -0.52287865 0.32315677 -0.19972187
0 0.068948217 0.0007772831 -0.52287865 0.32315677 -0.19972187
0 0.067885846 0.00096901355 -0.52287865 0.32315677 -0.19972187
0 0.066821739 0.0011610884 -0.52287865 0.32315677 -0.19972187
0 0.065755881 0.0013535091 -0.52287865 0.32315677 -0.19972187
0 0.064688265 0.001546278 -0.52287865 0.32315677 -0.19972187
0.039999999 0.043764342 0.017151101 -0.52287865 0.32315677 -0.19972187
0 0.062547728 0.0019328664 -0.52287865 0.32315677 -0.19972187
0 0.061474778 0.0021266898 -0.52287865 0.32315677 -0.19972187
0 0.060400039 0.0023208682 -0.52287865 0.32315677 -0.19972187
0 0.05932349 0.0025154038 -0.52287865 0.32315677 -0.19972187
0.039999999 0.037979495 0.018196275 -0.52287865 0.32315677 -0.19972187
0 0.057164937 0.0029055532 -0.52287865 0.32315677 -0.19972187
0.039999999 0.035651874 0.018617051 -0.52287865 0.32315677 -0.19972187
0 0.054999042 0.0032971529 -0.52287865 0.32315677 -0.19972187
0 0.053913318 0.0034935013 -0.52287865 0.32315677 -0.19972187
0 0.052825727 0.0036902181 -0.52287865 0.32315677 -0.19972187
0 0.051736258 0.003887305 -0.52287865 0.32315677 -0.19972187
0 0.050644908 0.004084764 -0.52287865 0.32315677 -0.19972187
0 0.049551658 0.004282597 -0.52287865 0.32315677 -0.19972187
0 0.048456501 0.0044808062 -0.52287865 0.32315677 -0.19972187
0 0.047359429 0.004679393 -0.52287865 0.32315677 -0.19972187
0 0.046260431 0.0048783598 -0.52287865 0.32315677 -0.19972187
0 0.045159493 0.0050777085 -0.52287865 0.32315677 -0.19972187
0.039999999 0.022705561 0.020959804 -0.52287865 0.32315677 -0.19972187
0 0.042951763 0.0054775593 -0.52287865 0.32315677 -0.19972187
0 0.041844949 0.0056780656 -0.52287865 0.32315677 -0.19972187
0 0.040736157 0.0058789616 -0.52287865 0.32315677 -0.19972187
0 0.039625373 0.0060802493 -0.52287865 0.32315677 -0.19972187
0.039999999 0.016737426 0.022041138 -0.52287865 0.32315677 -0.19972187
0 0.037397791 0.0064840093 -0.52287865 0.32315677 -0.19972187
0.039999999 0.014335088 0.02247664 -0.52287865 0.32315677 -0.19972187
0 0.035162114 0.006889361 -0.52287865 0.32315677 -0.19972187
0 0.034041211 0.0070926393 -0.52287865 0.32315677 -0.19972187
0 0.032918256 0.0072963219 -0.52287865 0.32315677 -0.19972187
0 0.031793229 0.0075004105 -0.52287865 0.32315677 -0.19972187
0 0.030666126 0.007704908 -0.52287865 0.32315677 -0.19972187
0 0.029536933 0.0079098167 -0.52287865 0.32315677 -0.19972187
0 0.028405638 0.008115137 -0.52287865 0.32315677 -0.19972187
0.039999999 0.0046371864 0.024236057 -0.52287865 0.32315677 -0.19972187
0 0.0261367 0.0085270256 -0.52287865 0.32315677 -0.19972187
0 0.024999032 0.0087335985 -0.52287865 0.32315677 -0.19972187
0 0.023859218 0.0089405924 -0.52287865 0.32315677 -0.19972187
0.039536614 0 0.024941364 -0.52287865 0.32315677 -0.19972187
0 0.021573098 0.0093558533 -0.52287865 0.32315677 -0.19972187
0.035281349 0 0.023685744 -0.52287865 0.32315677 -0.19972187
0 0.019278251 0.0097728269 -0.52287865 0.32315677 -0.19972187
0 0.018127523 0.009981961 -0.52287865 0.32315677 -0.19972187
0.028988115 0 0.021829018 -0.52287865 0.32315677 -0.19972187
0 0.015819402 0.010401538 -0.52287865 0.32315677 -0.19972187
0 0.014661985 0.010611984 -0.52287865 0.32315677 -0.19972187
0 0.013502312 0.010822872 -0.52287865 0.32315677 -0.19972187
0 0.012340372 0.011034205 -0.52287865 0.32315677 -0.19972187
0 0.011176153 0.011245983 -0.52287865 0.32315677 -0.19972187
0 0.010009643 0.011458211 -0.52287865 0.32315677 -0.19972187
0 0.0088408282 0.011670889 -0.52287865 0.32315677 -0.19972187
0 0.0076696971 0.011884022 -0.52287865 0.32315677 -0.19972187
0 0.0064962371 0.01209761 -0.52287865 0.32315677 -0.19972187
0 0.0053204349 0.012311657 -0.52287865 0.32315677 -0.19972187
0 0.0041422779 0.012526164 -0.52287865 0.32315677 -0.19972187
0 0.0029617536 0.012741135 -0.52287865 0.32315677 -0.19972187
0.0028941692 0 0.014133761 -0.52287865 0.32315677 -0.19972187
0 0.00059355068 0.013172476 -0.52287865 0.32315677 -0.19972187
0.039211679 0.079999998 0.0093263593 -0.52287865 0.32315677 -0.19972187
0.036692325 0.079999998 0.0085844398 -0.52287865 0.32315677 -0.19972187
0.034191795 0.079999998 0.0078480933 -0.52287865 0.32315677 -0.19972187
0.031709868 0.079999998 0.0071172537 -0.52287865 0.32315677 -0.19972187
0.029246325 0.079999998 0.0063918573 -0.52287865 0.32315677 -0.19972187
0.026800951 0.079999998 0.0056718392 -0.52287865 0.32315677 -0.19972187
0.024373533 0.079999998 0.0049571376 -0.52287865 0.32315677 -0.19972187
0.021963863 0.079999998 0.0042476901 -0.52287865 0.32315677 -0.19972187
0.019571736 0.079999998 0.0035434358 -0.52287865 0.32315677 -0.19972187
0.01719695 0.079999998 0.0028443153 -0.52287865 0.32315677 -0.19972187
0.014839305 0.079999998 0.0021502692 -0.52287865 0.32315677 -0.19972187
0.012498603 0.079999998 0.0014612398 -0.52287865 0.32315677 -0.19972187
0.010174653 0.079999998 0.0007771696 -0.52287865 0.32315677 -0.19972187
0.0078672646 0.079999998 9.8002296e-05 -0.52287865 0.32315677 -0.19972187
0.0071055712 0.079296313 0 -0.52287865 0.32315677 -0.19972187
0.0066042817 0.078473687 0 -0.52287865 0.32315677 -0.19972187
0.039999999 0.061919503 0.012798089 -0.52287865 0.32315677 -0.19972187
0.0056019858 0.076829374 0 -0.52287865 0.32315677 -0.19972187
0.0051009753 0.076007679 0 -0.52287865 0.32315677 -0.19972187
0.039999999 0.058544584 0.013403658 -0.52287865 0.32315677 -0.19972187
0.0040992168 0.074365184 2.7755576e-17 -0.52287865 0.32315677 -0.19972187
0.0035984644 0.073544383 0 -0.52287865 0.32315677 -0.19972187
0.0030977938 0.072723873 0 -0.52287865 0.32315677 -0.19972187
0.0025972023 0.071903646 0 -0.52287865 0.32315677 -0.19972187
0.0020966881 0.071083695 0 -0.52287865 0.32315677 -0.19972187
0.0015962486 0.070264034 0 -0.52287865 0.32315677 -0.19972187
0.0010958816 0.069444641 0 -0.52287865 0.32315677 -0.19972187
0.00059558492 0.068625525 2.7755576e-17 -0.52287865 0.32315677 -0.19972187
9.5356292e-05 0.067806669 0 -0.52287865 0.32315677 -0.19972187
0 0.066789605 0.00015474216 -0.52287865 0.32315677 -0.19972187
0.039999999 0.046030752 0.015651371 -0.52287865 0.32315677 -0.19972187
0 0.064657107 0.00053808664 -0.52287865 0.32315677 -0.19972187
0 0.063588217 0.00073027634 -0.52287865 0.32315677 -0.19972187
0 0.062517546 0.00092281337 -0.52287865 0.32315677 -0.19972187
0 0.061445095 0.0011156995 -0.52287865 0.32315677 -0.19972187
0.039999999 0.040267833 0.016687712 -0.52287865 0.32315677 -0.19972187
0 0.059294797 0.0015025267 -0.52287865 0.32315677 -0.19972187
0 0.058216929 0.0016964712 -0.52287865 0.32315677 -0.19972187
0 0.05713724 0.0018907723 -0.52287865 0.32315677 -0.19972187
0 0.056055717 0.0020854317 -0.52287865 0.32315677 -0.19972187
0.039999999 0.034456354 0.017733546 -0.52287865 0.32315677 -0.19972187
0.039999999 0.033288114 0.017943874 -0.52287865 0.32315677 -0.19972187
0.039999999 0.032117866 0.018154593 -0.52287865 0.32315677 -0.19972187
0 0.051711086 0.0028676898 -0.52287865 0.32315677 -0.19972187
0 0.050620243 0.0030641691 -0.52287865 0.32315677 -0.19972187
0 0.049527504 0.0032610178 -0.52287865 0.32315677 -0.19972187
0 0.048432861 0.0034582384 -0.52287865 0.32315677 -0.19972187
0 0.047336303 0.0036558323 -0.52287865 0.32315677 -0.19972187
0.039999999 0.025053637 0.019427257 -0.52287865 0.32315677 -0.19972187
0 0.045137402 0.0040521487 -0.52287865 0.32315677 -0.19972187
0.039999999 0.022682341 0.019854706 -0.52287865 0.32315677 -0.19972187
0 0.042930715 0.0044499822 -0.52287865 0.32315677 -0.19972187
0 0.041824427 0.0046494734 -0.52287865 0.32315677 -0.19972187
0 0.04071616 0.0048493496 -0.52287865 0.32315677 -0.19972187
0 0.039605904 0.0050496133 -0.52287865 0.32315677 -0.19972187
0 0.038493648 0.0052502663 -0.52287865 0.32315677 -0.19972187
0 0.03737938 0.0054513109 -0.52287865 0.32315677 -0.19972187
0 0.036263093 0.005652749 -0.52287865 0.32315677 -0.19972187
0 0.035144772 0.0058545824 -0.52287865 0.32315677 -0.19972187
0 0.03402441 0.0060568131 -0.52287865 0.32315677 -0.19972187
0 0.032901991 0.0062594442 -0.52287865 0.32315677 -0.19972187
0 0.031777509 0.0064624762 -0.52287865 0.32315677 -0.19972187
0.039999999 0.0082743745 0.022454493 -0.52287865 0.32315677 -0.19972187
0 0.0295223 0.0068697548 -0.52287865 0.32315677 -0.19972187
0.039999999 0.0058421358 0.022893805 -0.52287865 0.32315677 -0.19972187
0 0.027258694 0.0072786659 -0.52287865 0.32315677 -0.19972187
0 0.026123716 0.0074837389 -0.52287865 0.32315677 -0.19972187
0.039999999 0.0021767064 0.023556091 -0.52287865 0.32315677 -0.19972187
0 0.023847342 0.0078951307 -0.52287865 0.32315677 -0.19972187
0 0.022705926 0.008101454 -0.52287865 0.32315677 -0.19972187
0 0.021562342 0.0083081983 -0.52287865 0.32315677 -0.19972187
0 0.020416576 0.0085153654 -0.52287865 0.32315677 -0.19972187
0.033154137 0 0.021939809 -0.52287865 0.32315677 -0.19972187
0 0.018118458 0.0089309793 -0.52287865 0.32315677 -0.19972187
0 0.01696608 0.0091394298 -0.52287865 0.32315677 -0.19972187
0.026899656 0 0.020103995 -0.52287865 0.32315677 -0.19972187
0.024838055 0 0.019498937 -0.52287865 0.32315677 -0.19972187
0 0.013495533 0.0097673852 -0.52287865 0.32315677 -0.19972187
0 0.012334171 0.0099775791 -0.52287865 0.32315677 -0.19972187
0 0.011170531 0.010188214 -0.52287865 0.32315677 -0.19972187
0 0.010004602 0.010399293 -0.52287865 0.32315677 -0.19972187
0 0.0088363718 0.010610818 -0.52287865 0.32315677 -0.19972187
0 0.0076658274 0.010822792 -0.52287865 0.32315677 -0.19972187
0.010721237 0 0.015356633 -0.52287865 0.32315677 -0.19972187
0 0.0053177453 0.011248093 -0.52287865 0.32315677 -0.19972187
0 0.0041401819 0.011461427 -0.52287865 0.32315677 -0.19972187
0 0.0029602533 0.011675217 -0.52287865 0.32315677 -0.19972187
0.0028926935 0 0.013060155 -0.52287865 0.32315677 -0.19972187
0 0.0005932494 0.012104183 -0.52287865 0.32315677 -0.19972187
0.039999999 0.079609923 0.0085641406 -0.52287865 0.32315677 -0.19972187
0.039999999 0.078514107 0.0087594856 -0.52287865 0.32315677 -0.19972187
0.039999999 0.077416673 0.0089551443 -0.52287865 0.32315677 -0.19972187
0.039999999 0.076317616 0.0091511197 -0.52287865 0.32315677 -0.19972187
0.029141383 0.079999998 0.0053142109 -0.52287865 0.32315677 -0.19972187
0.026698006 0.079999998 0.0045986366 -0.52287865 0.32315677 -0.19972187
0.024272559 0.079999998 0.00388834 -0.52287865 0.32315677 -0.19972187
0.021864835 0.079999998 0.0031832594 -0.52287865 0.32315677 -0.19972187
0.019474627 0.079999998 0.0024833344 -0.52287865 0.32315677 -0.19972187
0.017101735 0.079999998 0.0017885056 -0.52287865 0.32315677 -0.19972187
0.039999999 0.068578102 0.010531936 -0.52287865 0.32315677 -0.19972187
0.0124071 0.079999998 0.00041390388 -0.52287865 0.32315677 -0.19972187
0.010795701 0.079675734 0 -0.52287865 0.32315677 -0.19972187
0.010291445 0.078848928 0 -0.52287865 0.32315677 -0.19972187
0.0097872959 0.078022435 0 -0.52287865 0.32315677 -0.19972187
0.0092832511 0.077196255 0 -0.52287865 0.32315677 -0.19972187
0.0087793097 0.076370396 0 -0.52287865 0.32315677 -0.19972187
0.0082754688 0.075544842 2.7755576e-17 -0.52287865 0.32315677 -0.19972187
0.0077717262 0.074719593 0 -0.52287865 0.32315677 -0.19972187
0.0072680791 0.073894642 0 -0.52287865 0.32315677 -0.19972187
0.0067645255 0.07306999 0 -0.52287865 0.32315677 -0.19972187
0.0062610633 0.072245635 0 -0.52287865 0.32315677 -0.19972187
0.0057576899 0.071421564 0 -0.52287865 0.32315677 -0.19972187
0.0052544032 0.070597783 0 -0.52287865 0.32315677 -0.19972187
0.0047512008 0.069774278 0 -0.52287865 0.32315677 -0.19972187
0.039999999 0.051709771 0.013545966 -0.52287865 0.32315677 -0.19972187
0.0037450399 0.068128109 0 -0.52287865 0.32315677 -0.19972187
0.0032420766 0.067305431 2.7755576e-17 -0.52287865 0.32315677 -0.19972187
0.0027391887 0.066483021 0 -0.52287865 0.32315677 -0.19972187
0.0022363737 0.065660872 0 -0.52287865 0.32315677 -0.19972187
0.0017336293 0.064838983 0 -0.52287865 0.32315677 -0.19972187
0.0012309533 0.064017348 0 -0.52287865 0.32315677 -0.19972187
0.00072834321 0.063195966 0 -0.52287865 0.32315677 -0.19972187
0.039999999 0.042546302 0.015185837 -0.52287865 0.32315677 -0.19972187
0.039999999 0.041392338 0.015392471 -0.52287865 0.32315677 -0.19972187
0 0.060341686 0.00029803888 -0.52287865 0.32315677 -0.19972187
0 0.059266131 0.00049068505 -0.52287865 0.32315677 -0.19972187
0 0.058188763 0.00068368169 -0.52287865 0.32315677 -0.19972187
0 0.057109572 0.00087703054 -0.52287865 0.32315677 -0.19972187
0.039999999 0.035593349 0.016431285 -0.52287865 0.32315677 -0.19972187
0 0.054945685 0.0012647923 -0.52287865 0.32315677 -0.19972187
0.039999999 0.033259951 0.016849479 -0.52287865 0.32315677 -0.19972187
0 0.052774388 0.0016539852 -0.52287865 0.32315677 -0.19972187
0 0.051685937 0.001849123 -0.52287865 0.32315677 -0.19972187
0.039999999 0.029744785 0.017479679 -0.52287865 0.32315677 -0.19972187
0.039999999 0.028569004 0.017690528 -0.52287865 0.32315677 -0.19972187
0 0.048409246 0.0024367245 -0.52287865 0.32315677 -0.19972187
0.039999999 0.026211284 0.018113418 -0.52287865 0.32315677 -0.19972187
0 0.046215236 0.0028303012 -0.52287865 0.32315677 -0.19972187
0 0.045115337 0.0030276482 -0.52287865 0.32315677 -0.19972187
0 0.044013489 0.0032253701 -0.52287865 0.32315677 -0.19972187
0 0.042909689 0.0034234689 -0.52287865 0.32315677 -0.19972187
0 0.041803926 0.0036219466 -0.52287865 0.32315677 -0.19972187
0 0.040696181 0.0038208051 -0.52287865 0.32315677 -0.19972187
0 0.039586455 0.0040200464 -0.52287865 0.32315677 -0.19972187
0 0.038474727 0.0042196726 -0.52287865 0.32315677 -0.19972187
0 0.037360992 0.0044196858 -0.52287865 0.32315677 -0.19972187
0.039999999 0.014296623 0.020252164 -0.52287865 0.32315677 -0.19972187
0 0.03512745 0.0048208805 -0.52287865 0.32315677 -0.19972187
0 0.034007624 0.0050220666 -0.52287865 0.32315677 -0.19972187
0 0.032885745 0.0052236477 -0.52287865 0.32315677 -0.19972187
0 0.031761803 0.0054256255 -0.52287865 0.32315677 -0.19972187
0 0.030635785 0.0056280028 -0.52287865 0.32315677 -0.19972187
0.039999999 0.0070436494 0.021555474 -0.52287865 0.32315677 -0.19972187
0 0.028377483 0.0060339631 -0.52287865 0.32315677 -0.19972187
0 0.027245173 0.0062375506 -0.52287865 0.32315677 -0.19972187
0 0.026110744 0.0064415457 -0.52287865 0.32315677 -0.19972187
0 0.024974182 0.0066459505 -0.52287865 0.32315677 -0.19972187
0 0.023835478 0.0068507674 -0.52287865 0.32315677 -0.19972187
0 0.022694619 0.0070559983 -0.52287865 0.32315677 -0.19972187
0 0.021551594 0.0072616455 -0.52287865 0.32315677 -0.19972187
0.035243776 0 0.021432985 -0.52287865 0.32315677 -0.19972187
0 0.019258998 0.0076741972 -0.52287865 0.32315677 -0.19972187
0 0.018109402 0.0078811059 -0.52287865 0.32315677 -0.19972187
0.028957501 0 0.019597167 -0.52287865 0.32315677 -0.19972187
0 0.015803557 0.0082962019 -0.52287865 0.32315677 -0.19972187
0 0.014647285 0.0085043935 -0.52287865 0.32315677 -0.19972187
0 0.013488761 0.0087130163 -0.52287865 0.32315677 -0.19972187
0 0.012327976 0.0089220731 -0.52287865 0.32315677 -0.19972187
0 0.011164915 0.0091315676 -0.52287865 0.32315677 -0.19972187
0 0.0099995676 0.0093414998 -0.52287865 0.32315677 -0.19972187
0 0.008831921 0.0095518734 -0.52287865 0.32315677 -0.19972187
0 0.007661962 0.0097626895 -0.52287865 0.32315677 -0.19972187
0 0.0064896788 0.0099739525 -0.52287865 0.32315677 -0.19972187
0 0.0053150584 0.010185664 -0.52287865 0.32315677 -0.19972187
0.0067824167 0 0.01312335 -0.52287865 0.32315677 -0.19972187
0 0.0029587545 0.010610439 -0.52287865 0.32315677 -0.19972187
0 0.0017770458 0.010823508 -0.52287865 0.32315677 -0.19972187
0 0.00059294846 0.011037035 -0.52287865 0.32315677 -0.19972187
0.03898542 0.079999998 0.007136249 -0.52287865 0.32315677 -0.19972187
0.036470279 0.079999998 0.0064035244 -0.52287865 0.32315677 -0.19972187
0.039999999 0.077368625 0.0078990497 -0.52287865 0.32315677 -0.19972187
0.031496082 0.079999998 0.0049544862 -0.52287865 0.32315677 -0.19972187
0.039999999 0.075169854 0.0082895663 -0.52287865 0.32315677 -0.19972187
0.026595203 0.079999998 0.0035269021 -0.52287865 0.32315677 -0.19972187
0.024171725 0.079999998 0.0028209991 -0.52287865 0.32315677 -0.19972187
0.021765942 0.079999998 0.0021202741 -0.52287865 0.32315677 -0.19972187
0.019377651 0.079999998 0.0014246672 -0.52287865 0.32315677 -0.19972187
0.017006647 0.079999998 0.00073411956 -0.52287865 0.32315677 -0.19972187
0.014652736 0.079999998 4.8573002e-05 -0.52287865 0.32315677 -0.19972187
0.014014745 0.079228073 0 -0.52287865 0.32315677 -0.19972187
0.013507571 0.078397356 0 -0.52287865 0.32315677 -0.19972187
0.013000515 0.077566959 0 -0.52287865 0.32315677 -0.19972187
0.039999999 0.064076297 0.010261337 -0.52287865 0.32315677 -0.19972187
0.011986746 0.075907126 0 -0.52287865 0.32315677 -0.19972187
0.011480028 0.075077683 0 -0.52287865 0.32315677 -0.19972187
0.010973418 0.074248545 0 -0.52287865 0.32315677 -0.19972187
0.010466915 0.073419712 0 -0.52287865 0.32315677 -0.19972187
0.0099605136 0.072591178 0 -0.52287865 0.32315677 -0.19972187
0.009454214 0.071762942 0 -0.52287865 0.32315677 -0.19972187
0.0089480132 0.070935003 0 -0.52287865 0.32315677 -0.19972187
0.0084419083 0.070107348 0 -0.52287865 0.32315677 -0.19972187
0.0079358984 0.069279984 0 -0.52287865 0.32315677 -0.19972187
0.0074299793 0.068452895 2.7755576e-17 -0.52287865 0.32315677 -0.19972187
0.00692415 0.067626081 0 -0.52287865 0.32315677 -0.19972187
0.0064184079 0.066799544 0 -0.52287865 0.32315677 -0.19972187
0.0059127505 0.065973282 0 -0.52287865 0.32315677 -0.19972187
0.0054071755 0.065147281 0 -0.52287865 0.32315677 -0.19972187
0.0049016806 0.06432154 0 -0.52287865 0.32315677 -0.19972187
0.039999999 0.045962717 0.01348603 -0.52287865 0.32315677 -0.19972187
0.0038909221 0.062670834 0 -0.52287865 0.32315677 -0.19972187
0.003385654 0.061845858 0 -0.52287865 0.32315677 -0.19972187
0.0028804566 0.061021131 0 -0.52287865 0.32315677 -0.19972187
0.0023753277 0.060196646 0 -0.52287865 0.32315677 -0.19972187
0.0018702652 0.059372395 0 -0.52287865 0.32315677 -0.19972187
0.0013652669 0.058548387 0 -0.52287865 0.32315677 -0.19972187
0.00086033001 0.057724606 0 -0.52287865 0.32315677 -0.19972187
0.00035545262 0.056901053 0 -0.52287865 0.32315677 -0.19972187
0 0.05600141 5.7069679e-05 -0.52287865 0.32315677 -0.19972187
0.039999999 0.034398969 0.015547949 -0.52287865 0.32315677 -0.19972187
0 0.053834833 0.00044362305 -0.52287865 0.32315677 -0.19972187
0 0.052748758 0.00063743186 -0.52287865 0.32315677 -0.19972187
0 0.051660813 0.00083159789 -0.52287865 0.32315677 -0.19972187
0 0.050570987 0.0010261229 -0.52287865 0.32315677 -0.19972187
0 0.049479272 0.0012210091 -0.52287865 0.32315677 -0.19972187
0 0.048385654 0.0014162579 -0.52287865 0.32315677 -0.19972187
0 0.047290124 0.0016118716 -0.52287865 0.32315677 -0.19972187
0 0.046192672 0.0018078519 -0.52287865 0.32315677 -0.19972187
0 0.045093291 0.0020042008 -0.52287865 0.32315677 -0.19972187
0.039999999 0.022635974 0.017647931 -0.52287865 0.32315677 -0.19972187
0 0.042888686 0.0023980122 -0.52287865 0.32315677 -0.19972187
0 0.041783445 0.0025954787 -0.52287865 0.32315677 -0.19972187
0 0.040676225 0.0027933214 -0.52287865 0.32315677 -0.19972187
0 0.039567024 0.0029915425 -0.52287865 0.32315677 -0.19972187
0 0.038455825 0.0031901437 -0.52287865 0.32315677 -0.19972187
0 0.037342623 0.0033891276 -0.52287865 0.32315677 -0.19972187
0 0.036227398 0.0035884955 -0.52287865 0.32315677 -0.19972187
0.039999999 0.013074701 0.01935669 -0.52287865 0.32315677 -0.19972187
0 0.033990856 0.0039883927 -0.52287865 0.32315677 -0.19972187
0 0.032869518 0.004188926 -0.52287865 0.32315677 -0.19972187
0.039999999 0.0094533209 0.020004315 -0.52287865 0.32315677 -0.19972187
0.039999999 0.0082417475 0.020221036 -0.52287865 0.32315677 -0.19972187
0 0.02949308 0.0047928886 -0.52287865 0.32315677 -0.19972187
0.039999999 0.0058118575 0.020655761 -0.52287865 0.32315677 -0.19972187
0 0.027231665 0.0051975204 -0.52287865 0.32315677 -0.19972187
0 0.026097786 0.0054004397 -0.52287865 0.32315677 -0.19972187
0 0.024961777 0.0056037637 -0.52287865 0.32315677 -0.19972187
0.039999999 0.00092476682 0.021530407 -0.52287865 0.32315677 -0.19972187
0 0.022683326 0.006011636 -0.52287865 0.32315677 -0.19972187
0 0.02154086 0.0062161884 -0.52287865 0.32315677 -0.19972187
0.035225019 0 0.020308491 -0.52287865 0.32315677 -0.19972187
0.033118948 0 0.019696571 -0.52287865 0.32315677 -0.19972187
0 0.018100355 0.0068323351 -0.52287865 0.32315677 -0.19972187
0 0.016949113 0.0070385551 -0.52287865 0.32315677 -0.19972187
0.026871344 0 0.017881477 -0.52287865 0.32315677 -0.19972187
0 0.014639946 0.0074522644 -0.52287865 0.32315677 -0.19972187
0 0.013481997 0.007659758 -0.52287865 0.32315677 -0.19972187
0 0.012321787 0.0078676809 -0.52287865 0.32315677 -0.19972187
0 0.011159305 0.0080760354 -0.52287865 0.32315677 -0.19972187
0.016687615 0 0.014923335 -0.52287865 0.32315677 -0.19972187
0.014684275 0 0.014341485 -0.52287865 0.32315677 -0.19972187
0 0.0076581007 0.0087037105 -0.52287865 0.32315677 -0.19972187
0 0.0064864052 0.0089138141 -0.52287865 0.32315677 -0.19972187
0 0.0053123743 0.00912436 -0.52287865 0.32315677 -0.19972187
0 0.0041359961 0.0093353521 -0.52287865 0.32315677 -0.19972187
0 0.0029572574 0.0095467912 -0.52287865 0.32315677 -0.19972187
0.002889747 0 0.010916398 -0.52287865 0.32315677 -0.19972187
0 0.00059264782 0.0099710226 -0.52287865 0.32315677 -0.19972187
0.038872525 0.079999998 0.0060434737 -0.52287865 0.32315677 -0.19972187
0.036359489 0.079999998 0.0053153289 -0.52287865 0.32315677 -0.19972187
0.033865187 0.079999998 0.0045926357 -0.52287865 0.32315677 -0.19972187
0.031389408 0.079999998 0.0038753296 -0.52287865 0.32315677 -0.19972187
0.039999999 0.075122826 0.0072327647 -0.52287865 0.32315677 -0.19972187
0.02649254 0.079999998 0.0024566266 -0.52287865 0.32315677 -0.19972187
0.024071027 0.079999998 0.0017551063 -0.52287865 0.32315677 -0.19972187
0.021667182 0.079999998 0.0010587261 -0.52287865 0.32315677 -0.19972187
0.019280802 0.079999998 0.00036742655 -0.52287865 0.32315677 -0.19972187
0.017774828 0.079611182 0 -0.52287865 0.32315677 -0.19972187
0.017264558 0.078776196 0 -0.52287865 0.32315677 -0.19972187
0.016754419 0.077941537 0 -0.52287865 0.32315677 -0.19972187
0.039999999 0.066265427 0.0088004237 -0.52287865 0.32315677 -0.19972187
0.015734522 0.076273195 0 -0.52287865 0.32315677 -0.19972187
0.015224759 0.075439513 0 -0.52287865 0.32315677 -0.19972187
0.039999999 0.062915951 0.0093936063 -0.52287865 0.32315677 -0.19972187
0.014205594 0.073773079 0 -0.52287865 0.32315677 -0.19972187
0.013696185 0.072940327 2.7755576e-17 -0.52287865 0.32315677 -0.19972187
0.013186891 0.072107881 0 -0.52287865 0.32315677 -0.19972187
0.012677707 0.071275733 2.7755576e-17 -0.52287865 0.32315677 -0.19972187
0.012168632 0.070443884 0 -0.52287865 0.32315677 -0.19972187
0.011659663 0.069612324 0 -0.52287865 0.32315677 -0.19972187
0.011150798 0.068781056 0 -0.52287865 0.32315677 -0.19972187
0.010642035 0.06795007 0 -0.52287865 0.32315677 -0.19972187
0.010133372 0.067119367 0 -0.52287865 0.32315677 -0.19972187
0.0096248044 0.066288933 0 -0.52287865 0.32315677 -0.19972187
0.009116332 0.065458782 0 -0.52287865 0.32315677 -0.19972187
0.0086079519 0.064628892 0 -0.52287865 0.32315677 -0.19972187
0.0080996621 0.063799269 0 -0.52287865 0.32315677 -0.19972187
0.039999999 0.047074057 0.012201808 -0.52287865 0.32315677 -0.19972187
0.0070833419 0.062140808 0 -0.52287865 0.32315677 -0.19972187
0.0065753073 0.06131196 0 -0.52287865 0.32315677 -0.19972187
0.0060673528 0.060483359 0 -0.52287865 0.32315677 -0.19972187
0.005559477 0.059655003 0 -0.52287865 0.32315677 -0.19972187
0.0050516766 0.05882689 0 -0.52287865 0.32315677 -0.19972187
0.0045439498 0.057999015 2.7755576e-17 -0.52287865 0.32315677 -0.19972187
0.0040362943 0.057171375 0 -0.52287865 0.32315677 -0.19972187
0.0035287077 0.056343965 0 -0.52287865 0.32315677 -0.19972187
0.0030211874 0.055516779 0 -0.52287865 0.32315677 -0.19972187
0.0025137314 0.054689821 0 -0.52287865 0.32315677 -0.19972187
0.039999999 0.034370322 0.014456816 -0.52287865 0.32315677 -0.19972187
0.0014990022 0.053036548 0 -0.52287865 0.32315677 -0.19972187
0.039999999 0.032035094 0.014871629 -0.52287865 0.32315677 -0.19972187
0.00048450191 0.051384121 0 -0.52287865 0.32315677 -0.19972187
0.039999999 0.029691817 0.015287962 -0.52287865 0.32315677 -0.19972187
0 0.049455192 0.00020256637 -0.52287865 0.32315677 -0.19972187
0 0.048362087 0.00039683236 -0.52287865 0.32315677 -0.19972187
0.039999999 0.026161622 0.015915345 -0.52287865 0.32315677 -0.19972187
0 0.046170134 0.00078644737 -0.52287865 0.32315677 -0.19972187
0 0.04507127 0.00098180026 -0.52287865 0.32315677 -0.19972187
0 0.043970462 0.0011775191 -0.52287865 0.32315677 -0.19972187
0 0.042867705 0.001373606 -0.52287865 0.32315677 -0.19972187
0 0.041762985 0.0015700629 -0.52287865 0.32315677 -0.19972187
0.039999999 0.019045122 0.0171807 -0.52287865 0.32315677 -0.19972187
0 0.039547615 0.0019640946 -0.52287865 0.32315677 -0.19972187
0 0.038436946 0.002161673 -0.52287865 0.32315677 -0.19972187
0 0.037324268 0.0023596294 -0.52287865 0.32315677 -0.19972187
0 0.03620958 0.0025579655 -0.52287865 0.32315677 -0.19972187
0 0.035092864 0.0027566832 -0.52287865 0.32315677 -0.19972187
0 0.033974107 0.002955785 -0.52287865 0.32315677 -0.19972187
0 0.032853305 0.0031552725 -0.52287865 0.32315677 -0.19972187
0.039999999 0.009436449 0.018890455 -0.52287865 0.32315677 -0.19972187
0 0.03060551 0.0035554129 -0.52287865 0.32315677 -0.19972187
0 0.029478494 0.0037560703 -0.52287865 0.32315677 -0.19972187
0 0.028349385 0.0039571212 -0.52287865 0.32315677 -0.19972187
0.039999999 0.0045789913 0.019755339 -0.52287865 0.32315677 -0.19972187
0.039999999 0.0033589629 0.019972624 -0.52287865 0.32315677 -0.19972187
0 0.024949385 0.0045626601 -0.52287865 0.32315677 -0.19972187
0 0.023811789 0.004765308 -0.52287865 0.32315677 -0.19972187
0 0.022672044 0.004968361 -0.52287865 0.32315677 -0.19972187
0 0.021530135 0.0051718201 -0.52287865 0.32315677 -0.19972187
0 0.020386053 0.0053756884 -0.52287865 0.32315677 -0.19972187
0.03310138 0 0.018576816 -0.52287865 0.32315677 -0.19972187
0 0.018091317 0.0057846596 -0.52287865 0.32315677 -0.19972187
0 0.016940642 0.0059897671 -0.52287865 0.32315677 -0.19972187
0 0.015787745 0.0061952923 -0.52287865 0.32315677 -0.19972187
0.024798973 0 0.016177198 -0.52287865 0.32315677 -0.19972187
0 0.013475239 0.0066076042 -0.52287865 0.32315677 -0.19972187
0 0.012315605 0.0068143951 -0.52287865 0.32315677 -0.19972187
0 0.011153701 0.007021613 -0.52287865 0.32315677 -0.19972187
0 0.009989514 0.0072292592 -0.52287865 0.32315677 -0.19972187
0 0.0088230325 0.0074373363 -0.52287865 0.32315677 -0.19972187
0 0.0076542436 0.0076458468 -0.52287865 0.32315677 -0.19972187
0.010704689 0 0.012104428 -0.52287865 0.32315677 -0.19972187
0.0087347822 0 0.01153528 -0.52287865 0.32315677 -0.19972187
0.0067754751 0 0.010969217 -0.52287865 0.32315677 -0.19972187
0.0048266705 0 0.01040621 -0.52287865 0.32315677 -0.19972187
0 0.0017752467 0.0086949794 -0.52287865 0.32315677 -0.19972187
0.00096019846 0 0.0092892572 -0.52287865 0.32315677 -0.19972187
0.038759787 0.079999998 0.0049522072 -0.52287865 0.32315677 -0.19972187
0.036248848 0.079999998 0.0042286306 -0.52287865 0.32315677 -0.19972187
0.033756617 0.079999998 0.0035104651 -0.52287865 0.32315677 -0.19972187
0.031282883 0.079999998 0.0027976467 -0.52287865 0.32315677 -0.19972187
0.028827418 0.079999998 0.002090113 -0.52287865 0.32315677 -0.19972187
0.026390016 0.079999998 0.0013878023 -0.52287865 0.32315677 -0.19972187
0.023970464 0.079999998 0.00069065369 -0.52287865 0.32315677 -0.19972187
0.021572351 0.079998299 0 -0.52287865 0.32315677 -0.19972187
0.021058913 0.079158992 0 -0.52287865 0.32315677 -0.19972187
0.02054562 0.078320026 0 -0.52287865 0.32315677 -0.19972187
0.039999999 0.068445787 0.0073454995 -0.52287865 0.32315677 -0.19972187
0.01951945 0.076643087 0 -0.52287865 0.32315677 -0.19972187
0.019006571 0.075805113 0 -0.52287865 0.32315677 -0.19972187
0.018493826 0.074967466 0 -0.52287865 0.32315677 -0.19972187
0.017981211 0.074130133 0 -0.52287865 0.32315677 -0.19972187
0.017468723 0.073293112 0 -0.52287865 0.32315677 -0.19972187
0.016956363 0.072456412 0 -0.52287865 0.32315677 -0.19972187
0.016444126 0.071620017 0 -0.52287865 0.32315677 -0.19972187
0.039999999 0.059510749 0.0089213233 -0.52287865 0.32315677 -0.19972187
0.015420014 0.069948129 0 -0.52287865 0.32315677 -0.19972187
0.014908134 0.069112629 2.7755576e-17 -0.52287865 0.32315677 -0.19972187
0.014396368 0.068277426 0 -0.52287865 0.32315677 -0.19972187
0.013884714 0.067442507 0 -0.52287865 0.32315677 -0.19972187
0.013373168 0.066607878 0 -0.52287865 0.32315677 -0.19972187
0.012861731 0.065773517 0 -0.52287865 0.32315677 -0.19972187
0.012350397 0.064939439 0 -0.52287865 0.32315677 -0.19972187
0.011839166 0.064105637 0 -0.52287865 0.32315677 -0.19972187
0.011328035 0.063272096 0 -0.52287865 0.32315677 -0.19972187
0.010817001 0.062438823 0 -0.52287865 0.32315677 -0.19972187
0.010306061 0.061605807 0 -0.52287865 0.32315677 -0.19972187
0.009795215 0.060773052 0 -0.52287865 0.32315677 -0.19972187
0.0092844591 0.059940547 0 -0.52287865 0.32315677 -0.19972187
0.0087737907 0.059108291 0 -0.52287865 0.32315677 -0.19972187
0.008263208 0.058276277 0 -0.52287865 0.32315677 -0.19972187
0.0077527086 0.057444505 0 -0.52287865 0.32315677 -0.19972187
0.0072422903 0.056612972 0 -0.52287865 0.32315677 -0.19972187
0.039999999 0.038986217 0.012545741 -0.52287865 0.32315677 -0.19972187
0.0062216856 0.054950595 0 -0.52287865 0.32315677 -0.19972187
0.0057114954 0.054119747 2.7755576e-17 -0.52287865 0.32315677 -0.19972187
0.005201376 0.053289123 0 -0.52287865 0.32315677 -0.19972187
0.0046913261 0.052458711 0 -0.52287865 0.32315677 -0.19972187
0.0041813427 0.051628515 0 -0.52287865 0.32315677 -0.19972187
0.0036714233 0.050798532 0 -0.52287865 0.32315677 -0.19972187
0.0031615661 0.049968749 0 -0.52287865 0.32315677 -0.19972187
0.0026517685 0.049139172 0 -0.52287865 0.32315677 -0.19972187
0.039999999 0.028491238 0.014401462 -0.52287865 0.32315677 -0.19972187
0.0016323423 0.047480606 0 -0.52287865 0.32315677 -0.19972187
0.0011227092 0.046651609 0 -0.52287865 0.32315677 -0.19972187
0.00061312638 0.045822799 0 -0.52287865 0.32315677 -0.19972187
0.00010359132 0.044994172 0 -0.52287865 0.32315677 -0.19972187
0 0.043948982 0.0001551598 -0.52287865 0.32315677 -0.19972187
0 0.042846743 0.0003502437 -0.52287865 0.32315677 -0.19972187
0 0.041742545 0.0005456931 -0.52287865 0.32315677 -0.19972187
0 0.040636376 0.00074150995 -0.52287865 0.32315677 -0.19972187
0 0.039528225 0.0009376962 -0.52287865 0.32315677 -0.19972187
0.039999999 0.016635692 0.016499665 -0.52287865 0.32315677 -0.19972187
0 0.037305936 0.0013311846 -0.52287865 0.32315677 -0.19972187
0 0.03619178 0.0015284907 -0.52287865 0.32315677 -0.19972187
0 0.035075594 0.001726174 -0.52287865 0.32315677 -0.19972187
0 0.033957377 0.0019242365 -0.52287865 0.32315677 -0.19972187
0 0.032837112 0.0021226804 -0.52287865 0.32315677 -0.19972187
0 0.031714786 0.0023215073 -0.52287865 0.32315677 -0.19972187
0.039999999 0.0082091875 0.017992195 -0.52287865 0.32315677 -0.19972187
0 0.029463921 0.0027203192 -0.52287865 0.32315677 -0.19972187
0 0.028335359 0.0029203082 -0.52287865 0.32315677 -0.19972187
0 0.027204692 0.0031206885 -0.52287865 0.32315677 -0.19972187
0 0.026071912 0.0033214623 -0.52287865 0.32315677 -0.19972187
0 0.024937006 0.0035226317 -0.52287865 0.32315677 -0.19972187
0 0.023799963 0.0037241988 -0.52287865 0.32315677 -0.19972187
0 0.022660773 0.0039261654 -0.52287865 0.32315677 -0.19972187
0 0.021519423 0.0041285343 -0.52287865 0.32315677 -0.19972187
0 0.020375898 0.0043313066 -0.52287865 0.32315677 -0.19972187
0 0.019230193 0.0045344857 -0.52287865 0.32315677 -0.19972187
0 0.018082291 0.0047380729 -0.52287865 0.32315677 -0.19972187
0 0.01693218 0.0049420702 -0.52287865 0.32315677 -0.19972187
0 0.015779853 0.0051464806 -0.52287865 0.32315677 -0.19972187
0.024785973 0 0.015072373 -0.52287865 0.32315677 -0.19972187
0 0.013468488 0.0055565475 -0.52287865 0.32315677 -0.19972187
0 0.012309429 0.0057622087 -0.52287865 0.32315677 -0.19972187
0 0.011148103 0.0059682918 -0.52287865 0.32315677 -0.19972187
0 0.0099844951 0.0061747981 -0.52287865 0.32315677 -0.19972187
0.01466909 0 0.012163861 -0.52287865 0.32315677 -0.19972187
0.012678747 0 0.011591714 -0.52287865 0.32315677 -0.19972187
0.010699184 0 0.011022686 -0.52287865 0.32315677 -0.19972187
0 0.005307015 0.0070051067 -0.52287865 0.32315677 -0.19972187
0 0.0041318191 0.0072137658 -0.52287865 0.32315677 -0.19972187
0.0048242086 0 0.0093340315 -0.52287865 0.32315677 -0.19972187
0.0028868066 0 0.0087771993 -0.52287865 0.32315677 -0.19972187
0 0.00059204752 0.0078423778 -0.52287865 0.32315677 -0.19972187
0.038647205 0.079999998 0.0038624413 -0.52287865 0.32315677 -0.19972187
0.036138359 0.079999998 0.0031434207 -0.52287865 0.32315677 -0.19972187
0.033648197 0.079999998 0.0024297712 -0.52287865 0.32315677 -0.19972187
0.0311765 0.079999998 0.0017214295 -0.52287865 0.32315677 -0.19972187
0.028723048 0.079999998 0.0010183332 -0.52287865 0.32315677 -0.19972187
0.02628763 0.079999998 0.00032042124 -0.52287865 0.32315677 -0.19972187
0.024891313 0.079545803 0 -0.52287865 0.32315677 -0.19972187
0.024374789 0.078702472 0 -0.52287865 0.32315677 -0.19972187
0.023858419 0.077859491 0 -0.52287865 0.32315677 -0.19972187
0.0233422 0.077016845 0 -0.52287865 0.32315677 -0.19972187
0.022826131 0.076174542 0 -0.52287865 0.32315677 -0.19972187
0.022310207 0.07533256 2.7755576e-17 -0.52287865 0.32315677 -0.19972187
0.021794427 0.074490912 0 -0.52287865 0.32315677 -0.19972187
0.021278789 0.073649585 0 -0.52287865 0.32315677 -0.19972187
0.020763291 0.072808579 0 -0.52287865 0.32315677 -0.19972187
0.020247929 0.071967885 0 -0.52287865 0.32315677 -0.19972187
0.019732701 0.071127504 2.7755576e-17 -0.52287865 0.32315677 -0.19972187
0.019217605 0.070287429 0 -0.52287865 0.32315677 -0.19972187
0.039999999 0.059470702 0.0078539439 -0.52287865 0.32315677 -0.19972187
0.018187799 0.068608187 0 -0.52287865 0.32315677 -0.19972187
0.017673083 0.067769013 0 -0.52287865 0.32315677 -0.19972187
0.01715849 0.06693013 0 -0.52287865 0.32315677 -0.19972187
0.016644016 0.06609153 0 -0.52287865 0.32315677 -0.19972187
0.016129659 0.06525322 0 -0.52287865 0.32315677 -0.19972187
0.015615418 0.064415179 0 -0.52287865 0.32315677 -0.19972187
0.015101288 0.063577421 0 -0.52287865 0.32315677 -0.19972187
0.014587269 0.062739931 0 -0.52287865 0.32315677 -0.19972187
0.014073357 0.061902709 0 -0.52287865 0.32315677 -0.19972187
0.01355955 0.061065752 0 -0.52287865 0.32315677 -0.19972187
0.013045846 0.060229052 0 -0.52287865 0.32315677 -0.19972187
0.012532242 0.059392609 0 -0.52287865 0.32315677 -0.19972187
0.012018736 0.058556415 0 -0.52287865 0.32315677 -0.19972187
0.011505325 0.057720467 0 -0.52287865 0.32315677 -0.19972187
0.010992007 0.056884766 0 -0.52287865 0.32315677 -0.19972187
0.010478781 0.056049306 0 -0.52287865 0.32315677 -0.19972187
0.0099656414 0.055214077 0 -0.52287865 0.32315677 -0.19972187
0.0094525889 0.054379083 0 -0.52287865 0.32315677 -0.19972187
0.0089396192 0.053544313 0 -0.52287865 0.32315677 -0.19972187
0.0084267305 0.052709769 0 -0.52287865 0.32315677 -0.19972187
0.007913921 0.051875446 2.7755576e-17 -0.52287865 0.32315677 -0.19972187
0.039999999 0.034313112 0.01227785 -0.52287865 0.32315677 -0.19972187
0.0068885279 0.050207444 2.7755576e-17 -0.52287865 0.32315677 -0.19972187
0.0063759401 0.049373753 0 -0.52287865 0.32315677 -0.19972187
0.0058634211 0.048540268 0 -0.52287865 0.32315677 -0.19972187
0.0053509688 0.047706988 0 -0.52287865 0.32315677 -0.19972187
0.0048385812 0.046873897 0 -0.52287865 0.32315677 -0.19972187
0.039999999 0.027289743 0.013514342 -0.52287865 0.32315677 -0.19972187
0.039999999 0.026112063 0.013721737 -0.52287865 0.32315677 -0.19972187
0.0033017802 0.044375777 0 -0.52287865 0.32315677 -0.19972187
0.0027896261 0.043543436 0 -0.52287865 0.32315677 -0.19972187
0.0022775244 0.042711269 0 -0.52287865 0.32315677 -0.19972187
0.0017654728 0.041879281 0 -0.52287865 0.32315677 -0.19972187
0.001253469 0.041047458 0 -0.52287865 0.32315677 -0.19972187
0.00074151048 0.040215801 0 -0.52287865 0.32315677 -0.19972187
0.000229595 0.039384305 0 -0.52287865 0.32315677 -0.19972187
0.039999999 0.016615408 0.015394773 -0.52287865 0.32315677 -0.19972187
0 0.037287623 0.00030378692 -0.52287865 0.32315677 -0.19972187
0 0.036173996 0.00050006498 -0.52287865 0.32315677 -0.19972187
0 0.035058346 0.00069671572 -0.52287865 0.32315677 -0.19972187
0 0.033940662 0.00089374115 -0.52287865 0.32315677 -0.19972187
0 0.032820933 0.0010911432 -0.52287865 0.32315677 -0.19972187
0.039999999 0.0094027584 0.016666166 -0.52287865 0.32315677 -0.19972187
0 0.030575294 0.0014870852 -0.52287865 0.32315677 -0.19972187
0.039999999 0.0069808699 0.017093221 -0.52287865 0.32315677 -0.19972187
0.039999999 0.0057665575 0.017307367 -0.52287865 0.32315677 -0.19972187
0 0.027191225 0.0020838734 -0.52287865 0.32315677 -0.19972187
0 0.026058994 0.0022835776 -0.52287865 0.32315677 -0.19972187
0.039999999 0.0021100054 0.017952314 -0.52287865 0.32315677 -0.19972187
0 0.02378815 0.0026841606 -0.52287865 0.32315677 -0.19972187
0 0.022649514 0.0028850436 -0.52287865 0.32315677 -0.19972187
0 0.02150872 0.0030863236 -0.52287865 0.32315677 -0.19972187
0 0.020365756 0.0032880029 -0.52287865 0.32315677 -0.19972187
0.033066306 0 0.016340999 -0.52287865 0.32315677 -0.19972187
0 0.018073272 0.0036925673 -0.52287865 0.32315677 -0.19972187
0 0.016923727 0.0038954571 -0.52287865 0.32315677 -0.19972187
0 0.015771966 0.0040987544 -0.52287865 0.32315677 -0.19972187
0 0.014617977 0.0043024616 -0.52287865 0.32315677 -0.19972187
0 0.013461745 0.0045065815 -0.52287865 0.32315677 -0.19972187
0 0.01230326 0.0047111153 -0.52287865 0.32315677 -0.19972187
0 0.01114251 0.0049160654 -0.52287865 0.32315677 -0.19972187
0 0.0099794809 0.0051214346 -0.52287865 0.32315677 -0.19972187
0 0.0088141626 0.0053272243 -0.52287865 0.32315677 -0.19972187
0 0.0076465406 0.0055334377 -0.52287865 0.32315677 -0.19972187
0 0.0064766039 0.0057400763 -0.52287865 0.32315677 -0.19972187
0 0.0053043393 0.0059471428 -0.52287865 0.32315677 -0.19972187
0 0.0041297344 0.0061546392 -0.52287865 0.32315677 -0.19972187
0 0.0029527757 0.0063625677 -0.52287865 0.32315677 -0.19972187
0 0.0017734512 0.0065709311 -0.52287865 0.32315677 -0.19972187
0 0.00059174781 0.0067797317 -0.52287865 0.32315677 -0.19972187
0.039999999 0.079365388 0.0033026584 -0.52287865 0.32315677 -0.19972187
0.03602802 0.079999998 0.0020596911 -0.52287865 0.32315677 -0.19972187
0.033539925 0.079999998 0.0013505464 -0.52287865 0.32315677 -0.19972187
0.031070262 0.079999998 0.00064666971 -0.52287865 0.32315677 -0.19972187
0.028762447 0.079936676 0 -0.52287865 0.32315677 -0.19972187
0.039999999 0.073882103 0.0042607803 -0.52287865 0.32315677 -0.19972187
0.027722953 0.078241557 0 -0.52287865 0.32315677 -0.19972187
0.027203456 0.077394523 0 -0.52287865 0.32315677 -0.19972187
0.02668412 0.076547831 0 -0.52287865 0.32315677 -0.19972187
0.026164943 0.075701483 0 -0.52287865 0.32315677 -0.19972187
0.025645927 0.074855462 0 -0.52287865 0.32315677 -0.19972187
0.025127063 0.074009776 0 -0.52287865 0.32315677 -0.19972187
0.024608351 0.073164418 0 -0.52287865 0.32315677 -0.19972187
0.024089791 0.072319388 0 -0.52287865 0.32315677 -0.19972187
0.023571376 0.071474671 0 -0.52287865 0.32315677 -0.19972187
0.023053108 0.070630275 0 -0.52287865 0.32315677 -0.19972187
0.022534981 0.069786184 0 -0.52287865 0.32315677 -0.19972187
0.022016995 0.068942398 0 -0.52287865 0.32315677 -0.19972187
0.021499146 0.068098918 0 -0.52287865 0.32315677 -0.19972187
0.020981431 0.067255735 0 -0.52287865 0.32315677 -0.19972187
0.02046385 0.066412851 0 -0.52287865 0.32315677 -0.19972187
0.0199464 0.065570258 0 -0.52287865 0.32315677 -0.19972187
0.019429076 0.064727947 0 -0.52287865 0.32315677 -0.19972187
0.018911878 0.06388592 0 -0.52287865 0.32315677 -0.19972187
0.018394802 0.063044168 0 -0.52287865 0.32315677 -0.19972187
0.017877845 0.062202692 0 -0.52287865 0.32315677 -0.19972187
0.017361008 0.061361488 0 -0.52287865 0.32315677 -0.19972187
0.016844286 0.060520548 0 -0.52287865 0.32315677 -0.19972187
0.016327677 0.059679873 0 -0.52287865 0.32315677 -0.19972187
0.015811177 0.058839455 0 -0.52287865 0.32315677 -0.19972187
0.015294787 0.057999294 0 -0.52287865 0.32315677 -0.19972187
0.014778501 0.057159379 0 -0.52287865 0.32315677 -0.19972187
0.014262319 0.056319714 0 -0.52287865 0.32315677 -0.19972187
0.013746237 0.05548029 0 -0.52287865 0.32315677 -0.19972187
0.013230254 0.054641102 0 -0.52287865 0.32315677 -0.19972187
0.012714366 0.053802151 0 -0.52287865 0.32315677 -0.19972187
0.012198573 0.052963428 0 -0.52287865 0.32315677 -0.19972187
0.01168287 0.052124932 0 -0.52287865 0.32315677 -0.19972187
0.011167255 0.05128666 0 -0.52287865 0.32315677 -0.19972187
0.010651727 0.050448608 2.7755576e-17 -0.52287865 0.32315677 -0.19972187
0.010136282 0.049610768 0 -0.52287865 0.32315677 -0.19972187
0.0096209189 0.048773136 2.7755576e-17 -0.52287865 0.32315677 -0.19972187
0.0091056339 0.047935713 0 -0.52287865 0.32315677 -0.19972187
0.0085904263 0.047098491 0 -0.52287865 0.32315677 -0.19972187
0.0080752922 0.046261471 0 -0.52287865 0.32315677 -0.19972187
0.0075602299 0.045424644 2.7755576e-17 -0.52287865 0.32315677 -0.19972187
0.0070452369 0.044588007 0 -0.52287865 0.32315677 -0.19972187
0.0065303105 0.043751556 0 -0.52287865 0.32315677 -0.19972187
0.0060154484 0.042915288 0 -0.52287865 0.32315677 -0.19972187
0.0055006486 0.042079203 0 -0.52287865 0.32315677 -0.19972187
0.004985908 0.041243289 0 -0.52287865 0.32315677 -0.19972187
0.0044712252 0.040407546 0 -0.52287865 0.32315677 -0.19972187
0.0039565964 0.039571971 0 -0.52287865 0.32315677 -0.19972187
0.0034420206 0.038736559 0 -0.52287865 0.32315677 -0.19972187
0.0029274945 0.037901308 0 -0.52287865 0.32315677 -0.19972187
0.0024130158 0.03706621 0 -0.52287865 0.32315677 -0.19972187
0.0018985826 0.036231264 0 -0.52287865 0.32315677 -0.19972187
0.001384192 0.035396468 0 -0.52287865 0.32315677 -0.19972187
0.0008698419 0.034561813 0 -0.52287865 0.32315677 -0.19972187
0.00035552969 0.033727299 0 -0.52287865 0.32315677 -0.19972187
0 0.032804769 6.0654344e-05 -0.52287865 0.32315677 -0.19972187
0 0.031683523 0.00025739073 -0.52287865 0.32315677 -0.19972187
0.039999999 0.0081766946 0.015767913 -0.52287865 0.32315677 -0.19972187
0 0.029434822 0.00065199361 -0.52287865 0.32315677 -0.19972187
0 0.028307347 0.0008498641 -0.52287865 0.32315677 -0.19972187
0.039999999 0.0045355032 0.016406938 -0.52287865 0.32315677 -0.19972187
0 0.02604609 0.0012467533 -0.52287865 0.32315677 -0.19972187
0 0.024912287 0.0014457761 -0.52287865 0.32315677 -0.19972187
0 0.023776349 0.001645187 -0.52287865 0.32315677 -0.19972187
0 0.022638267 0.0018449882 -0.52287865 0.32315677 -0.19972187
0 0.021498028 0.0020451818 -0.52287865 0.32315677 -0.19972187
0 0.020355623 0.0022457698 -0.52287865 0.32315677 -0.19972187
0.033048801 0 0.015224922 -0.52287865 0.32315677 -0.19972187
0 0.018064262 0.0026481373 -0.52287865 0.32315677 -0.19972187
0 0.016915284 0.0028499214 -0.52287865 0.32315677 -0.19972187
0 0.015764089 0.003052108 -0.52287865 0.32315677 -0.19972187
0 0.014610669 0.0032546998 -0.52287865 0.32315677 -0.19972187
0 0.013455009 0.003457699 -0.52287865 0.32315677 -0.19972187
0 0.012297098 0.0036611073 -0.52287865 0.32315677 -0.19972187
0 0.011136923 0.0038649272 -0.52287865 0.32315677 -0.19972187
0 0.0099744722 0.0040691611 -0.52287865 0.32315677 -0.19972187
0 0.0088097341 0.0042738109 -0.52287865 0.32315677 -0.19972187
0 0.0076426957 0.0044788783 -0.52287865 0.32315677 -0.19972187
0 0.0064733438 0.0046843668 -0.52287865 0.32315677 -0.19972187
0 0.0053016664 0.004890278 -0.52287865 0.32315677 -0.19972187
0 0.004127651 0.0050966139 -0.52287865 0.32315677 -0.19972187
0 0.0029512849 0.0053033773 -0.52287865 0.32315677 -0.19972187
0 0.0017725549 0.0055105696 -0.52287865 0.32315677 -0.19972187
0 0.00059144845 0.0057181944 -0.52287865 0.32315677 -0.19972187
0.038422499 0.079999998 0.0016873764 -0.52287865 0.32315677 -0.19972187
0.035917833 0.079999998 0.00097743364 -0.52287865 0.32315677 -0.19972187
0.033431798 0.079999998 0.00027278197 -0.52287865 0.32315677 -0.19972187
0.032149803 0.079479463 0 -0.52287865 0.32315677 -0.19972187
0.031626772 0.078627631 0 -0.52287865 0.32315677 -0.19972187
0.031103916 0.077776156 0 -0.52287865 0.32315677 -0.19972187
0.030581238 0.076925039 0 -0.52287865 0.32315677 -0.19972187
0.030058732 0.076074265 2.7755576e-17 -0.52287865 0.32315677 -0.19972187
0.029536398 0.075223833 0 -0.52287865 0.32315677 -0.19972187
0.029014233 0.074373744 0 -0.52287865 0.32315677 -0.19972187
0.028492235 0.073523983 0 -0.52287865 0.32315677 -0.19972187
0.027970398 0.072674558 0 -0.52287865 0.32315677 -0.19972187
0.027448723 0.071825467 0 -0.52287865 0.32315677 -0.19972187
0.026927207 0.070976689 0 -0.52287865 0.32315677 -0.19972187
0.026405845 0.070128232 0 -0.52287865 0.32315677 -0.19972187
0.025884638 0.069280088 0 -0.52287865 0.32315677 -0.19972187
0.025363581 0.068432264 0 -0.52287865 0.32315677 -0.19972187
0.024842672 0.067584738 0 -0.52287865 0.32315677 -0.19972187
0.02432191 0.06673751 0 -0.52287865 0.32315677 -0.19972187
0.023801289 0.065890588 2.7755576e-17 -0.52287865 0.32315677 -0.19972187
0.023280812 0.065043956 2.7755576e-17 -0.52287865 0.32315677 -0.19972187
0.022760471 0.064197615 2.7755576e-17 -0.52287865 0.32315677 -0.19972187
0.022240268 0.063351564 0 -0.52287865 0.32315677 -0.19972187
0.021720195 0.062505789 0 -0.52287865 0.32315677 -0.19972187
0.021200256 0.061660293 0 -0.52287865 0.32315677 -0.19972187
0.020680444 0.06081507 0 -0.52287865 0.32315677 -0.19972187
0.039999999 0.050354935 0.0072965804 -0.52287865 0.32315677 -0.19972187
0.019641194 0.059125431 0 -0.52287865 0.32315677 -0.19972187
0.019121753 0.058281004 0 -0.52287865 0.32315677 -0.19972187
0.018602429 0.057436839 2.7755576e-17 -0.52287865 0.32315677 -0.19972187
0.018083222 0.056592923 0 -0.52287865 0.32315677 -0.19972187
0.039999999 0.044648133 0.0082912287 -0.52287865 0.32315677 -0.19972187
0.017045144 0.054905836 0 -0.52287865 0.32315677 -0.19972187
0.016526269 0.054062653 0 -0.52287865 0.32315677 -0.19972187
0.0160075 0.05321971 0 -0.52287865 0.32315677 -0.19972187
0.015488836 0.052377 0 -0.52287865 0.32315677 -0.19972187
0.014970272 0.051534519 0 -0.52287865 0.32315677 -0.19972187
0.014451806 0.050692264 0 -0.52287865 0.32315677 -0.19972187
0.013933437 0.049850229 0 -0.52287865 0.32315677 -0.19972187
0.013415162 0.04900841 0 -0.52287865 0.32315677 -0.19972187
0.012896977 0.048166804 0 -0.52287865 0.32315677 -0.19972187
0.012378882 0.047325406 0 -0.52287865 0.32315677 -0.19972187
0.011860873 0.046484217 0 -0.52287865 0.32315677 -0.19972187
0.011342947 0.045643225 0 -0.52287865 0.32315677 -0.19972187
