# .PCD v0.7 - Point Cloud Data file format
VERSION 0.7
FIELDS x y z vp_x vp_y vp_z
SIZE 4 4 4 4 4 4
TYPE F F F F F F
COUNT 1 1 1 1 1 1
WIDTH 741
HEIGHT 1
VIEWPOINT 0 0 0 1 0 0 0
POINTS 741
DATA ascii
0.028356073 0.079999998 0.026811471 -0.52287865 0.32315677 0.19972187
0.025955772 0.079999998 0.027398834 -0.52287865 0.32315677 0.19972187
0.023572799 0.079999998 0.027982004 -0.52287865 0.32315677 0.19972187
0.021206956 0.079999998 0.028561033 -0.52287865 0.32315677 0.19972187
0.018858051 0.079999998 0.029135965 -0.52287865 0.32315677 0.19972187
0.016525889 0.079999998 0.029706849 -0.52287865 0.32315677 0.19972187
0.014210279 0.079999998 0.03027373 -0.52287865 0.32315677 0.19972187
0.011911037 0.079999998 0.030836653 -0.52287865 0.32315677 0.19972187
0.0096279792 0.079999998 0.031395663 -0.52287865 0.32315677 0.19972187
0.007360924 0.079999998 0.031950802 -0.52287865 0.32315677 0.19972187
0.0051096934 0.079999998 0.032502115 -0.52287865 0.32315677 0.19972187
0.039999999 0.062829547 0.021280129 -0.52287865 0.32315677 0.19972187
0.00065400475 0.079999998 0.033593431 -0.52287865 0.32315677 0.19972187
0 0.079276681 0.03364094 -0.52287865 0.32315677 0.19972187
0 0.078248024 0.033480719 -0.52287865 0.32315677 0.19972187
0 0.077217773 0.0333203 -0.52287865 0.32315677 0.19972187
1.110223e-16 0.076185919 0.033159677 -0.52287865 0.32315677 0.19972187
1.110223e-16 0.075152464 0.032998856 -0.52287865 0.32315677 0.19972187
0 0.074117385 0.03283783 -0.52287865 0.32315677 0.19972187
0 0.073080681 0.032676596 -0.52287865 0.32315677 0.19972187
1.110223e-16 0.072042346 0.032515161 -0.52287865 0.32315677 0.19972187
0 0.071002364 0.032353517 -0.52287865 0.32315677 0.19972187
0 0.069960728 0.032191664 -0.52287865 0.32315677 0.19972187
0 0.068917431 0.032029599 -0.52287865 0.32315677 0.19972187
0 0.067872465 0.031867325 -0.52287865 0.32315677 0.19972187
1.110223e-16 0.066825822 0.031704839 -0.52287865 0.32315677 0.19972187
0 0.065777481 0.031542141 -0.52287865 0.32315677 0.19972187
0 0.064727448 0.031379223 -0.52287865 0.32315677 0.19972187
0 0.063675709 0.031216092 -0.52287865 0.32315677 0.19972187
0 0.062622257 0.031052744 -0.52287865 0.32315677 0.19972187
0 0.061567072 0.030889176 -0.52287865 0.32315677 0.19972187
0 0.060510155 0.030725388 -0.52287865 0.32315677 0.19972187
0 0.059451498 0.03056138 -0.52287865 0.32315677 0.19972187
0 0.058391083 0.030397147 -0.52287865 0.32315677 0.19972187
0 0.05732891 0.03023269 -0.52287865 0.32315677 0.19972187
0 0.056264959 0.030068008 -0.52287865 0.32315677 0.19972187
1.110223e-16 0.055199232 0.029903099 -0.52287865 0.32315677 0.19972187
0 0.054131709 0.029737962 -0.52287865 0.32315677 0.19972187
1.110223e-16 0.053062387 0.029572597 -0.52287865 0.32315677 0.19972187
0 0.051991258 0.029406998 -0.52287865 0.32315677 0.19972187
0 0.050918303 0.029241169 -0.52287865 0.32315677 0.19972187
0 0.049843524 0.029075105 -0.52287865 0.32315677 0.19972187
1.110223e-16 0.0487669 0.028908806 -0.52287865 0.32315677 0.19972187
0 0.047688428 0.028742271 -0.52287865 0.32315677 0.19972187
1.110223e-16 0.046608098 0.028575499 -0.52287865 0.32315677 0.19972187
1.110223e-16 0.045525901 0.028408485 -0.52287865 0.32315677 0.19972187
0 0.044441819 0.028241232 -0.52287865 0.32315677 0.19972187
1.110223e-16 0.043355852 0.028073737 -0.52287865 0.32315677 0.19972187
0 0.042267982 0.027905997 -0.52287865 0.32315677 0.19972187
0 0.041178204 0.027738014 -0.52287865 0.32315677 0.19972187
0 0.040086504 0.027569784 -0.52287865 0.32315677 0.19972187
0 0.038992878 0.027401306 -0.52287865 0.32315677 0.19972187
1.110223e-16 0.037897307 0.027232578 -0.52287865 0.32315677 0.19972187
0 0.036799788 0.027063599 -0.52287865 0.32315677 0.19972187
0 0.035700306 0.026894368 -0.52287865 0.32315677 0.19972187
0 0.034598853 0.026724882 -0.52287865 0.32315677 0.19972187
0 0.033495415 0.026555143 -0.52287865 0.32315677 0.19972187
0 0.032389987 0.026385145 -0.52287865 0.32315677 0.19972187
0 0.031282552 0.02621489 -0.52287865 0.32315677 0.19972187
0 0.030173104 0.026044376 -0.52287865 0.32315677 0.19972187
0 0.029061632 0.0258736 -0.52287865 0.32315677 0.19972187
1.110223e-16 0.027948122 0.02570256 -0.52287865 0.32315677 0.19972187
0 0.026832566 0.025531257 -0.52287865 0.32315677 0.19972187
1.110223e-16 0.025714952 0.025359686 -0.52287865 0.32315677 0.19972187
0 0.024595268 0.02518785 -0.52287865 0.32315677 0.19972187
0 0.023473505 0.025015743 -0.52287865 0.32315677 0.19972187
0 0.02234965 0.024843367 -0.52287865 0.32315677 0.19972187
1.110223e-16 0.021223692 0.024670718 -0.52287865 0.32315677 0.19972187
1.110223e-16 0.02009562 0.024497796 -0.52287865 0.32315677 0.19972187
1.110223e-16 0.018965425 0.024324598 -0.52287865 0.32315677 0.19972187
0 0.017833091 0.024151122 -0.52287865 0.32315677 0.19972187
1.110223e-16 0.016698612 0.023977367 -0.52287865 0.32315677 0.19972187
1.110223e-16 0.015561971 0.023803333 -0.52287865 0.32315677 0.19972187
1.110223e-16 0.014423159 0.023629017 -0.52287865 0.32315677 0.19972187
0 0.013282165 0.023454418 -0.52287865 0.32315677 0.19972187
0 0.012138977 0.023279533 -0.52287865 0.32315677 0.19972187
0 0.010993581 0.023104362 -0.52287865 0.32315677 0.19972187
0 0.0098459683 0.022928901 -0.52287865 0.32315677 0.19972187
0 0.0086961258 0.022753151 -0.52287865 0.32315677 0.19972187
0 0.0075440402 0.022577111 -0.52287865 0.32315677 0.19972187
0 0.0063897013 0.022400774 -0.52287865 0.32315677 0.19972187
0 0.005233096 0.022224143 -0.52287865 0.32315677 0.19972187
0 0.0040742126 0.022047216 -0.52287865 0.32315677 0.19972187
0 0.0029130382 0.021869989 -0.52287865 0.32315677 0.19972187
1.110223e-16 0.0017495611 0.021692462 -0.52287865 0.32315677 0.19972187
1.110223e-16 0.00058376841 0.021514634 -0.52287865 0.32315677 0.19972187
0.038245391 0.079999998 0.02336254 -0.52287865 0.32315677 0.19972187
0.03577169 0.079999998 0.023971457 -0.52287865 0.32315677 0.19972187
0.033316176 0.079999998 0.024575947 -0.52287865 0.32315677 0.19972187
0.030878626 0.079999998 0.025176061 -0.52287865 0.32315677 0.19972187
0.028458837 0.079999998 0.025771849 -0.52287865 0.32315677 0.19972187
0.026056606 0.079999998 0.026363363 -0.52287865 0.32315677 0.19972187
0.039999999 0.072735652 0.021789087 -0.52287865 0.32315677 0.19972187
0.021304008 0.079999998 0.027533762 -0.52287865 0.32315677 0.19972187
0.018953245 0.079999998 0.028112743 -0.52287865 0.32315677 0.19972187
0.039999999 0.069462076 0.021275364 -0.52287865 0.32315677 0.19972187
0.014301835 0.079999998 0.029258503 -0.52287865 0.32315677 0.19972187
0.012000809 0.079999998 0.029825373 -0.52287865 0.32315677 0.19972187
0.039999999 0.066173792 0.020759774 -0.52287865 0.32315677 0.19972187
0.0074471966 0.079999998 0.030947318 -0.52287865 0.32315677 0.19972187
0.039999999 0.063973323 0.020414993 -0.52287865 0.32315677 0.19972187
0.039999999 0.06287057 0.020242283 -0.52287865 0.32315677 0.19972187
0.00073519477 0.079999998 0.032601405 -0.52287865 0.32315677 0.19972187
1.110223e-16 0.079313882 0.032675218 -0.52287865 0.32315677 0.19972187
0 0.07828477 0.032514177 -0.52287865 0.32315677 0.19972187
0 0.077254064 0.032352936 -0.52287865 0.32315677 0.19972187
0 0.076221757 0.032191485 -0.52287865 0.32315677 0.19972187
0 0.07518784 0.03202983 -0.52287865 0.32315677 0.19972187
1.110223e-16 0.074152306 0.03186797 -0.52287865 0.32315677 0.19972187
1.110223e-16 0.07311514 0.031705901 -0.52287865 0.32315677 0.19972187
0 0.072076336 0.03154362 -0.52287865 0.32315677 0.19972187
0 0.071035892 0.03138113 -0.52287865 0.32315677 0.19972187
0 0.069993794 0.031218426 -0.52287865 0.32315677 0.19972187
1.110223e-16 0.068950027 0.03105551 -0.52287865 0.32315677 0.19972187
0 0.067904592 0.03089238 -0.52287865 0.32315677 0.19972187
1.110223e-16 0.06685748 0.030729031 -0.52287865 0.32315677 0.19972187
0 0.065808669 0.030565465 -0.52287865 0.32315677 0.19972187
0 0.064758167 0.030401682 -0.52287865 0.32315677 0.19972187
1.110223e-16 0.063705951 0.030237678 -0.52287865 0.32315677 0.19972187
0 0.062652014 0.030073453 -0.52287865 0.32315677 0.19972187
1.110223e-16 0.061596356 0.029909004 -0.52287865 0.32315677 0.19972187
1.110223e-16 0.060538962 0.029744331 -0.52287865 0.32315677 0.19972187
1.110223e-16 0.059479821 0.029579433 -0.52287865 0.32315677 0.19972187
0 0.058418926 0.029414309 -0.52287865 0.32315677 0.19972187
1.110223e-16 0.057356268 0.029248957 -0.52287865 0.32315677 0.19972187
1.110223e-16 0.056291834 0.029083375 -0.52287865 0.32315677 0.19972187
0 0.055225618 0.02891756 -0.52287865 0.32315677 0.19972187
0 0.054157607 0.028751517 -0.52287865 0.32315677 0.19972187
0 0.053087797 0.028585237 -0.52287865 0.32315677 0.19972187
1.110223e-16 0.052016173 0.028418723 -0.52287865 0.32315677 0.19972187
0 0.05094273 0.028251974 -0.52287865 0.32315677 0.19972187
0 0.049867451 0.028084986 -0.52287865 0.32315677 0.19972187
0 0.048790332 0.027917758 -0.52287865 0.32315677 0.19972187
1.110223e-16 0.047711365 0.027750291 -0.52287865 0.32315677 0.19972187
0 0.046630532 0.02758258 -0.52287865 0.32315677 0.19972187
0 0.045547832 0.027414627 -0.52287865 0.32315677 0.19972187
0 0.044463247 0.027246431 -0.52287865 0.32315677 0.19972187
0 0.043376774 0.027077986 -0.52287865 0.32315677 0.19972187
0 0.042288397 0.026909294 -0.52287865 0.32315677 0.19972187
1.110223e-16 0.041198112 0.026740352 -0.52287865 0.32315677 0.19972187
0 0.040105902 0.02657116 -0.52287865 0.32315677 0.19972187
0 0.039011762 0.026401717 -0.52287865 0.32315677 0.19972187
0 0.037915677 0.026232019 -0.52287865 0.32315677 0.19972187
0 0.03681764 0.026062066 -0.52287865 0.32315677 0.19972187
1.110223e-16 0.03571764 0.025891857 -0.52287865 0.32315677 0.19972187
1.110223e-16 0.034615666 0.02572139 -0.52287865 0.32315677 0.19972187
0 0.033511709 0.025550662 -0.52287865 0.32315677 0.19972187
1.110223e-16 0.032405756 0.025379675 -0.52287865 0.32315677 0.19972187
0 0.031297799 0.025208423 -0.52287865 0.32315677 0.19972187
1.110223e-16 0.030187823 0.025036909 -0.52287865 0.32315677 0.19972187
1.110223e-16 0.02907582 0.024865128 -0.52287865 0.32315677 0.19972187
0 0.027961779 0.024693079 -0.52287865 0.32315677 0.19972187
0 0.02684569 0.024520764 -0.52287865 0.32315677 0.19972187
1.110223e-16 0.02572754 0.024348177 -0.52287865 0.32315677 0.19972187
1.110223e-16 0.024607321 0.024175318 -0.52287865 0.32315677 0.19972187
0 0.023485018 0.024002185 -0.52287865 0.32315677 0.19972187
1.110223e-16 0.022360621 0.023828777 -0.52287865 0.32315677 0.19972187
1.110223e-16 0.021234121 0.023655092 -0.52287865 0.32315677 0.19972187
0 0.020105505 0.023481131 -0.52287865 0.32315677 0.19972187
0 0.018974762 0.023306888 -0.52287865 0.32315677 0.19972187
0 0.017841879 0.023132363 -0.52287865 0.32315677 0.19972187
1.110223e-16 0.016706847 0.022957556 -0.52287865 0.32315677 0.19972187
0 0.015569654 0.022782464 -0.52287865 0.32315677 0.19972187
0 0.014430287 0.022607084 -0.52287865 0.32315677 0.19972187
0 0.013288735 0.022431418 -0.52287865 0.32315677 0.19972187
0 0.012144987 0.022255462 -0.52287865 0.32315677 0.19972187
0 0.01099903 0.022079214 -0.52287865 0.32315677 0.19972187
0 0.0098508531 0.021902673 -0.52287865 0.32315677 0.19972187
0 0.0087004434 0.021725837 -0.52287865 0.32315677 0.19972187
0 0.0075477902 0.021548703 -0.52287865 0.32315677 0.19972187
1.110223e-16 0.0063928803 0.021371273 -0.52287865 0.32315677 0.19972187
1.110223e-16 0.0052357023 0.021193542 -0.52287865 0.32315677 0.19972187
0 0.0040762434 0.02101551 -0.52287865 0.32315677 0.19972187
0 0.0029144918 0.020837173 -0.52287865 0.32315677 0.19972187
0 0.001750435 0.020658532 -0.52287865 0.32315677 0.19972187
0 0.00058406033 0.020479584 -0.52287865 0.32315677 0.19972187
0.038356274 0.079999998 0.022304652 -0.52287865 0.32315677 0.19972187
0.035880536 0.079999998 0.022917876 -0.52287865 0.32315677 0.19972187
0.033423007 0.079999998 0.023526637 -0.52287865 0.32315677 0.19972187
0.030983474 0.079999998 0.024130983 -0.52287865 0.32315677 0.19972187
0.028561728 0.079999998 0.024730971 -0.52287865 0.32315677 0.19972187
0.026157562 0.079999998 0.025326647 -0.52287865 0.32315677 0.19972187
0.023770778 0.079999998 0.025918063 -0.52287865 0.32315677 0.19972187
0.021401173 0.079999998 0.026505265 -0.52287865 0.32315677 0.19972187
0.019048553 0.079999998 0.027088303 -0.52287865 0.32315677 0.19972187
0.016712725 0.079999998 0.027667224 -0.52287865 0.32315677 0.19972187
0.014393499 0.079999998 0.028242076 -0.52287865 0.32315677 0.19972187
0.012090687 0.079999998 0.028812904 -0.52287865 0.32315677 0.19972187
0.0098041045 0.079999998 0.029379752 -0.52287865 0.32315677 0.19972187
0.0075335703 0.079999998 0.029942665 -0.52287865 0.32315677 0.19972187
0.0052789049 0.079999998 0.030501688 -0.52287865 0.32315677 0.19972187
0.039999999 0.06291163 0.019203564 -0.52287865 0.32315677 0.19972187
0.039999999 0.061806705 0.019029763 -0.52287865 0.32315677 0.19972187
0 0.079351112 0.03170868 -0.52287865 0.32315677 0.19972187
0 0.078321546 0.03154682 -0.52287865 0.32315677 0.19972187
0 0.077290386 0.031384751 -0.52287865 0.32315677 0.19972187
0 0.076257624 0.031222474 -0.52287865 0.32315677 0.19972187
0 0.075223245 0.031059986 -0.52287865 0.32315677 0.19972187
0 0.074187249 0.03089729 -0.52287865 0.32315677 0.19972187
0 0.073149621 0.030734379 -0.52287865 0.32315677 0.19972187
0 0.072110362 0.030571256 -0.52287865 0.32315677 0.19972187
1.110223e-16 0.071069449 0.030407917 -0.52287865 0.32315677 0.19972187
0 0.070026882 0.030244362 -0.52287865 0.32315677 0.19972187
0 0.068982653 0.03008059 -0.52287865 0.32315677 0.19972187
0 0.067936748 0.029916599 -0.52287865 0.32315677 0.19972187
0 0.066889159 0.02975239 -0.52287865 0.32315677 0.19972187
0 0.065839879 0.029587958 -0.52287865 0.32315677 0.19972187
1.110223e-16 0.0647889 0.029423304 -0.52287865 0.32315677 0.19972187
0 0.063736215 0.029258424 -0.52287865 0.32315677 0.19972187
0 0.062681809 0.029093321 -0.52287865 0.32315677 0.19972187
0 0.061625667 0.028927991 -0.52287865 0.32315677 0.19972187
0 0.060567793 0.028762432 -0.52287865 0.32315677 0.19972187
0 0.059508171 0.028596645 -0.52287865 0.32315677 0.19972187
1.110223e-16 0.058446795 0.028430626 -0.52287865 0.32315677 0.19972187
0 0.057383653 0.028264375 -0.52287865 0.32315677 0.19972187
0 0.056318734 0.028097892 -0.52287865 0.32315677 0.19972187
1.110223e-16 0.055252027 0.027931172 -0.52287865 0.32315677 0.19972187
0 0.054183532 0.027764218 -0.52287865 0.32315677 0.19972187
0 0.05311323 0.027597025 -0.52287865 0.32315677 0.19972187
0 0.052041113 0.027429594 -0.52287865 0.32315677 0.19972187
0 0.050967172 0.027261922 -0.52287865 0.32315677 0.19972187
1.110223e-16 0.049891401 0.027094008 -0.52287865 0.32315677 0.19972187
0 0.048813786 0.026925851 -0.52287865 0.32315677 0.19972187
0 0.047734316 0.026757449 -0.52287865 0.32315677 0.19972187
1.110223e-16 0.046652984 0.026588801 -0.52287865 0.32315677 0.19972187
0 0.045569781 0.026419906 -0.52287865 0.32315677 0.19972187
0 0.044484694 0.026250761 -0.52287865 0.32315677 0.19972187
0 0.043397713 0.026081366 -0.52287865 0.32315677 0.19972187
0 0.04230883 0.02591172 -0.52287865 0.32315677 0.19972187
1.110223e-16 0.041218035 0.025741819 -0.52287865 0.32315677 0.19972187
0 0.040125314 0.025571665 -0.52287865 0.32315677 0.19972187
0 0.03903066 0.025401253 -0.52287865 0.32315677 0.19972187
0 0.037934061 0.025230585 -0.52287865 0.32315677 0.19972187
0 0.03683551 0.025059655 -0.52287865 0.32315677 0.19972187
1.110223e-16 0.035734989 0.024888467 -0.52287865 0.32315677 0.19972187
1.110223e-16 0.034632497 0.024717014 -0.52287865 0.32315677 0.19972187
0 0.033528019 0.024545299 -0.52287865 0.32315677 0.19972187
1.110223e-16 0.03242154 0.024373317 -0.52287865 0.32315677 0.19972187
0 0.031313054 0.024201069 -0.52287865 0.32315677 0.19972187
1.110223e-16 0.030202553 0.024028553 -0.52287865 0.32315677 0.19972187
0 0.029090021 0.023855766 -0.52287865 0.32315677 0.19972187
0 0.027975449 0.023682708 -0.52287865 0.32315677 0.19972187
0 0.026858825 0.023509376 -0.52287865 0.32315677 0.19972187
0 0.025740141 0.02333577 -0.52287865 0.32315677 0.19972187
0 0.024619384 0.023161888 -0.52287865 0.32315677 0.19972187
1.110223e-16 0.02349654 0.022987727 -0.52287865 0.32315677 0.19972187
1.110223e-16 0.022371603 0.022813287 -0.52287865 0.32315677 0.19972187
0 0.021244559 0.022638565 -0.52287865 0.32315677 0.19972187
1.110223e-16 0.020115398 0.02246356 -0.52287865 0.32315677 0.19972187
1.110223e-16 0.018984107 0.022288272 -0.52287865 0.32315677 0.19972187
1.110223e-16 0.017850675 0.022112697 -0.52287865 0.32315677 0.19972187
0 0.016715091 0.021936834 -0.52287865 0.32315677 0.19972187
0 0.015577344 0.021760682 -0.52287865 0.32315677 0.19972187
0 0.014437421 0.021584239 -0.52287865 0.32315677 0.19972187
0 0.013295311 0.021407502 -0.52287865 0.32315677 0.19972187
0 0.012151003 0.021230472 -0.52287865 0.32315677 0.19972187
0 0.011004483 0.021053145 -0.52287865 0.32315677 0.19972187
0 0.0098557416 0.020875521 -0.52287865 0.32315677 0.19972187
0 0.0087047657 0.020697597 -0.52287865 0.32315677 0.19972187
1.110223e-16 0.0075515434 0.020519372 -0.52287865 0.32315677 0.19972187
0 0.0063960627 0.020340843 -0.52287865 0.32315677 0.19972187
0 0.0052383109 0.020162011 -0.52287865 0.32315677 0.19972187
1.110223e-16 0.0040782765 0.019982871 -0.52287865 0.32315677 0.19972187
0 0.002915947 0.019803423 -0.52287865 0.32315677 0.19972187
0 0.0017513097 0.019623665 -0.52287865 0.32315677 0.19972187
0 0.00058435253 0.019443594 -0.52287865 0.32315677 0.19972187
0.038467295 0.079999998 0.021245457 -0.52287865 0.32315677 0.19972187
0.035989515 0.079999998 0.021863 -0.52287865 0.32315677 0.19972187
0.033529971 0.079999998 0.022476042 -0.52287865 0.32315677 0.19972187
0.031088449 0.079999998 0.023084633 -0.52287865 0.32315677 0.19972187
0.028664742 0.079999998 0.023688829 -0.52287865 0.32315677 0.19972187
0.02625864 0.079999998 0.024288677 -0.52287865 0.32315677 0.19972187
0.023869945 0.079999998 0.024884228 -0.52287865 0.32315677 0.19972187
0.021498455 0.079999998 0.025475532 -0.52287865 0.32315677 0.19972187
0.019143974 0.079999998 0.026062638 -0.52287865 0.32315677 0.19972187
0.039999999 0.069550008 0.019207407 -0.52287865 0.32315677 0.19972187
0.014485272 0.079999998 0.027224444 -0.52287865 0.32315677 0.19972187
0.01218067 0.079999998 0.027799236 -0.52287865 0.32315677 0.19972187
0.0098923221 0.079999998 0.028370017 -0.52287865 0.32315677 0.19972187
0.039999999 0.065158479 0.018512655 -0.52287865 0.32315677 0.19972187
0.005363659 0.079999998 0.029499723 -0.52287865 0.32315677 0.19972187
0.0031229875 0.079999998 0.030058736 -0.52287865 0.32315677 0.19972187
0.00089785672 0.079999998 0.030613912 -0.52287865 0.32315677 0.19972187
0 0.07938838 0.030741323 -0.52287865 0.32315677 0.19972187
1.110223e-16 0.07835836 0.030578637 -0.52287865 0.32315677 0.19972187
1.110223e-16 0.077326745 0.030415742 -0.52287865 0.32315677 0.19972187
1.110223e-16 0.076293521 0.030252635 -0.52287865 0.32315677 0.19972187
0 0.075258687 0.030089315 -0.52287865 0.32315677 0.19972187
1.110223e-16 0.074222229 0.029925779 -0.52287865 0.32315677 0.19972187
0 0.07318414 0.029762028 -0.52287865 0.32315677 0.19972187
1.110223e-16 0.072144412 0.029598059 -0.52287865 0.32315677 0.19972187
1.110223e-16 0.071103036 0.029433871 -0.52287865 0.32315677 0.19972187
0 0.07006 0.029269464 -0.52287865 0.32315677 0.19972187
0 0.069015302 0.029104834 -0.52287865 0.32315677 0.19972187
1.110223e-16 0.067968935 0.028939985 -0.52287865 0.32315677 0.19972187
0 0.066920877 0.02877491 -0.52287865 0.32315677 0.19972187
0 0.065871119 0.028609609 -0.52287865 0.32315677 0.19972187
0 0.064819671 0.028444083 -0.52287865 0.32315677 0.19972187
0 0.063766502 0.028278328 -0.52287865 0.32315677 0.19972187
1.110223e-16 0.062711619 0.028112344 -0.52287865 0.32315677 0.19972187
0 0.061655004 0.027946131 -0.52287865 0.32315677 0.19972187
0 0.060596649 0.027779685 -0.52287865 0.32315677 0.19972187
1.110223e-16 0.059536546 0.027613007 -0.52287865 0.32315677 0.19972187
1.110223e-16 0.058474686 0.027446091 -0.52287865 0.32315677 0.19972187
0 0.05741106 0.027278941 -0.52287865 0.32315677 0.19972187
0 0.056345653 0.027111555 -0.52287865 0.32315677 0.19972187
0 0.055278461 0.026943928 -0.52287865 0.32315677 0.19972187
0 0.054209474 0.026776062 -0.52287865 0.32315677 0.19972187
0 0.053138681 0.026607955 -0.52287865 0.32315677 0.19972187
0 0.052066073 0.026439603 -0.52287865 0.32315677 0.19972187
0 0.050991639 0.026271008 -0.52287865 0.32315677 0.19972187
0 0.04991537 0.026102167 -0.52287865 0.32315677 0.19972187
0 0.048837256 0.025933078 -0.52287865 0.32315677 0.19972187
0 0.04775729 0.025763741 -0.52287865 0.32315677 0.19972187
1.110223e-16 0.046675459 0.025594153 -0.52287865 0.32315677 0.19972187
1.110223e-16 0.045591749 0.025424313 -0.52287865 0.32315677 0.19972187
0 0.044506159 0.025254222 -0.52287865 0.32315677 0.19972187
0 0.043418672 0.025083873 -0.52287865 0.32315677 0.19972187
0 0.042329282 0.024913272 -0.52287865 0.32315677 0.19972187
0 0.041237976 0.02474241 -0.52287865 0.32315677 0.19972187
0 0.040144742 0.02457129 -0.52287865 0.32315677 0.19972187
0 0.039049577 0.02439991 -0.52287865 0.32315677 0.19972187
0 0.037952464 0.024228267 -0.52287865 0.32315677 0.19972187
0 0.036853392 0.024056362 -0.52287865 0.32315677 0.19972187
1.110223e-16 0.035752356 0.02388419 -0.52287865 0.32315677 0.19972187
0 0.034649342 0.023711752 -0.52287865 0.32315677 0.19972187
0 0.033544339 0.023539046 -0.52287865 0.32315677 0.19972187
0 0.032437339 0.023366071 -0.52287865 0.32315677 0.19972187
0 0.031328328 0.023192823 -0.52287865 0.32315677 0.19972187
0 0.030217296 0.023019303 -0.52287865 0.32315677 0.19972187
0 0.029104235 0.022845509 -0.52287865 0.32315677 0.19972187
0 0.02798913 0.022671439 -0.52287865 0.32315677 0.19972187
0 0.026871974 0.02249709 -0.52287865 0.32315677 0.19972187
0 0.025752753 0.022322463 -0.52287865 0.32315677 0.19972187
0 0.024631457 0.022147555 -0.52287865 0.32315677 0.19972187
0 0.023508076 0.021972364 -0.52287865 0.32315677 0.19972187
0 0.022382595 0.021796888 -0.52287865 0.32315677 0.19972187
0 0.021255007 0.021621129 -0.52287865 0.32315677 0.19972187
1.110223e-16 0.0201253 0.021445081 -0.52287865 0.32315677 0.19972187
1.110223e-16 0.018993462 0.021268742 -0.52287865 0.32315677 0.19972187
0 0.017859479 0.021092115 -0.52287865 0.32315677 0.19972187
0 0.016723342 0.020915195 -0.52287865 0.32315677 0.19972187
1.110223e-16 0.015585041 0.020737981 -0.52287865 0.32315677 0.19972187
0 0.014444562 0.020560471 -0.52287865 0.32315677 0.19972187
0 0.013301893 0.020382665 -0.52287865 0.32315677 0.19972187
0 0.012157024 0.020204559 -0.52287865 0.32315677 0.19972187
0 0.011009942 0.020026151 -0.52287865 0.32315677 0.19972187
0 0.0098606357 0.019847441 -0.52287865 0.32315677 0.19972187
0 0.0087090917 0.019668428 -0.52287865 0.32315677 0.19972187
0 0.0075553004 0.019489108 -0.52287865 0.32315677 0.19972187
0 0.0063992478 0.01930948 -0.52287865 0.32315677 0.19972187
0 0.0052409219 0.019129543 -0.52287865 0.32315677 0.19972187
0 0.0040803114 0.018949294 -0.52287865 0.32315677 0.19972187
0 0.0029174034 0.018768732 -0.52287865 0.32315677 0.19972187
0 0.0017521853 0.018587856 -0.52287865 0.32315677 0.19972187
0 0.00058464491 0.018406661 -0.52287865 0.32315677 0.19972187
0.038578454 0.079999998 0.020184949 -0.52287865 0.32315677 0.19972187
0.036098629 0.079999998 0.020806821 -0.52287865 0.32315677 0.19972187
0.033637069 0.079999998 0.021424154 -0.52287865 0.32315677 0.19972187
0.031193554 0.079999998 0.022037001 -0.52287865 0.32315677 0.19972187
0.039999999 0.075049065 0.019039946 -0.52287865 0.32315677 0.19972187
0.039999999 0.07396128 0.018866809 -0.52287865 0.32315677 0.19972187
0.023969233 0.079999998 0.023849143 -0.52287865 0.32315677 0.19972187
0.021595854 0.079999998 0.024444558 -0.52287865 0.32315677 0.19972187
0.019239511 0.079999998 0.025035741 -0.52287865 0.32315677 0.19972187
0.016900007 0.079999998 0.025622739 -0.52287865 0.32315677 0.19972187
0.014577153 0.079999998 0.026205597 -0.52287865 0.32315677 0.19972187
0.012270761 0.079999998 0.026784366 -0.52287865 0.32315677 0.19972187
0.039999999 0.066301428 0.017648796 -0.52287865 0.32315677 0.19972187
0.0077066217 0.079999998 0.027929813 -0.52287865 0.32315677 0.19972187
0.0054485123 0.079999998 0.028496582 -0.52287865 0.32315677 0.19972187
0.0032061399 0.079999998 0.02905944 -0.52287865 0.32315677 0.19972187
0.00097932969 0.079999998 0.029618431 -0.52287865 0.32315677 0.19972187
1.110223e-16 0.079425678 0.029773137 -0.52287865 0.32315677 0.19972187
0 0.078395203 0.029609628 -0.52287865 0.32315677 0.19972187
0 0.077363126 0.029445905 -0.52287865 0.32315677 0.19972187
0 0.076329447 0.029281965 -0.52287865 0.32315677 0.19972187
1.110223e-16 0.075294152 0.02911781 -0.52287865 0.32315677 0.19972187
0 0.074257232 0.028953435 -0.52287865 0.32315677 0.19972187
0 0.073218681 0.02878884 -0.52287865 0.32315677 0.19972187
0 0.07217849 0.028624024 -0.52287865 0.32315677 0.19972187
1.110223e-16 0.071136653 0.028458986 -0.52287865 0.32315677 0.19972187
1.110223e-16 0.070093155 0.028293725 -0.52287865 0.32315677 0.19972187
1.110223e-16 0.069047987 0.028128238 -0.52287865 0.32315677 0.19972187
0 0.068001144 0.027962524 -0.52287865 0.32315677 0.19972187
0 0.066952616 0.027796585 -0.52287865 0.32315677 0.19972187
1.110223e-16 0.06590239 0.027630415 -0.52287865 0.32315677 0.19972187
1.110223e-16 0.064850464 0.027464015 -0.52287865 0.32315677 0.19972187
0 0.063796818 0.027297383 -0.52287865 0.32315677 0.19972187
0 0.062741458 0.027130518 -0.52287865 0.32315677 0.19972187
1.110223e-16 0.061684366 0.026963418 -0.52287865 0.32315677 0.19972187
0 0.060625531 0.026796084 -0.52287865 0.32315677 0.19972187
1.110223e-16 0.059564948 0.026628511 -0.52287865 0.32315677 0.19972187
1.110223e-16 0.058502603 0.026460702 -0.52287865 0.32315677 0.19972187
1.110223e-16 0.057438489 0.02629265 -0.52287865 0.32315677 0.19972187
0 0.056372598 0.026124358 -0.52287865 0.32315677 0.19972187
0 0.055304918 0.025955822 -0.52287865 0.32315677 0.19972187
0 0.05423544 0.025787044 -0.52287865 0.32315677 0.19972187
0 0.053164158 0.025618019 -0.52287865 0.32315677 0.19972187
0 0.052091055 0.025448747 -0.52287865 0.32315677 0.19972187
0 0.051016126 0.025279226 -0.52287865 0.32315677 0.19972187
0 0.04993936 0.025109455 -0.52287865 0.32315677 0.19972187
0 0.048860751 0.024939435 -0.52287865 0.32315677 0.19972187
0 0.047780283 0.024769159 -0.52287865 0.32315677 0.19972187
0 0.046697948 0.02459863 -0.52287865 0.32315677 0.19972187
0 0.04561374 0.024427846 -0.52287865 0.32315677 0.19972187
1.110223e-16 0.044527642 0.024256803 -0.52287865 0.32315677 0.19972187
0 0.043439649 0.024085501 -0.52287865 0.32315677 0.19972187
1.110223e-16 0.042349748 0.02391394 -0.52287865 0.32315677 0.19972187
0 0.041257933 0.023742117 -0.52287865 0.32315677 0.19972187
0 0.040164191 0.023570031 -0.52287865 0.32315677 0.19972187
1.110223e-16 0.039068509 0.02339768 -0.52287865 0.32315677 0.19972187
0 0.037970878 0.023225063 -0.52287865 0.32315677 0.19972187
1.110223e-16 0.036871292 0.023052178 -0.52287865 0.32315677 0.19972187
0 0.035769738 0.022879023 -0.52287865 0.32315677 0.19972187
1.110223e-16 0.034666203 0.022705598 -0.52287865 0.32315677 0.19972187
0 0.033560675 0.022531899 -0.52287865 0.32315677 0.19972187
0 0.03245315 0.022357926 -0.52287865 0.32315677 0.19972187
0 0.031343613 0.022183679 -0.52287865 0.32315677 0.19972187
0 0.030232053 0.022009153 -0.52287865 0.32315677 0.19972187
1.110223e-16 0.02911846 0.021834349 -0.52287865 0.32315677 0.19972187
0 0.028002825 0.021659264 -0.52287865 0.32315677 0.19972187
0 0.026885133 0.021483898 -0.52287865 0.32315677 0.19972187
0 0.025765376 0.021308247 -0.52287865 0.32315677 0.19972187
1.110223e-16 0.02464354 0.021132311 -0.52287865 0.32315677 0.19972187
0 0.023519618 0.020956088 -0.52287865 0.32315677 0.19972187
1.110223e-16 0.022393597 0.020779578 -0.52287865 0.32315677 0.19972187
1.110223e-16 0.021265464 0.020602776 -0.52287865 0.32315677 0.19972187
0 0.020135211 0.020425683 -0.52287865 0.32315677 0.19972187
0 0.019002823 0.020248296 -0.52287865 0.32315677 0.19972187
0 0.01786829 0.020070612 -0.52287865 0.32315677 0.19972187
0 0.016731601 0.019892635 -0.52287865 0.32315677 0.19972187
0 0.015592745 0.019714355 -0.52287865 0.32315677 0.19972187
0 0.014451709 0.019535778 -0.52287865 0.32315677 0.19972187
0 0.013308481 0.019356897 -0.52287865 0.32315677 0.19972187
0 0.01216305 0.019177714 -0.52287865 0.32315677 0.19972187
0 0.011015406 0.018998224 -0.52287865 0.32315677 0.19972187
0 0.0098655336 0.018818427 -0.52287865 0.32315677 0.19972187
0 0.0087134223 0.018638322 -0.52287865 0.32315677 0.19972187
0 0.0075590606 0.018457904 -0.52287865 0.32315677 0.19972187
0 0.0064024357 0.018277176 -0.52287865 0.32315677 0.19972187
0 0.0052435356 0.018096132 -0.52287865 0.32315677 0.19972187
0 0.0040823482 0.017914772 -0.52287865 0.32315677 0.19972187
0 0.0029188609 0.017733095 -0.52287865 0.32315677 0.19972187
0 0.0017530615 0.017551098 -0.52287865 0.32315677 0.19972187
0 0.00058493763 0.017368779 -0.52287865 0.32315677 0.19972187
0.038689751 0.079999998 0.019123122 -0.52287865 0.32315677 0.19972187
0.039999999 0.078350738 0.018528631 -0.52287865 0.32315677 0.19972187
0.033744294 0.079999998 0.020370968 -0.52287865 0.32315677 0.19972187
0.031298786 0.079999998 0.020988079 -0.52287865 0.32315677 0.19972187
0.028871147 0.079999998 0.02160072 -0.52287865 0.32315677 0.19972187
0.026461165 0.079999998 0.022208942 -0.52287865 0.32315677 0.19972187
0.024068641 0.079999998 0.022812799 -0.52287865 0.32315677 0.19972187
0.021693373 0.079999998 0.023412336 -0.52287865 0.32315677 0.19972187
0.019335162 0.079999998 0.024007604 -0.52287865 0.32315677 0.19972187
0.016993817 0.079999998 0.024598654 -0.52287865 0.32315677 0.19972187
0.014669145 0.079999998 0.025185531 -0.52287865 0.32315677 0.19972187
0.012360959 0.079999998 0.025768284 -0.52287865 0.32315677 0.19972187
0.010069071 0.079999998 0.026346959 -0.52287865 0.32315677 0.19972187
0.0077933008 0.079999998 0.026921602 -0.52287865 0.32315677 0.19972187
0.0055334661 0.079999998 0.027492257 -0.52287865 0.32315677 0.19972187
0.0032893901 0.079999998 0.02805897 -0.52287865 0.32315677 0.19972187
0.0010608981 0.079999998 0.028621783 -0.52287865 0.32315677 0.19972187
0 0.079463013 0.028804118 -0.52287865 0.32315677 0.19972187
1.110223e-16 0.078432076 0.028639784 -0.52287865 0.32315677 0.19972187
0 0.077399544 0.028475231 -0.52287865 0.32315677 0.19972187
0 0.076365404 0.028310459 -0.52287865 0.32315677 0.19972187
1.110223e-16 0.075329646 0.028145464 -0.52287865 0.32315677 0.19972187
0 0.074292272 0.027980249 -0.52287865 0.32315677 0.19972187
0 0.073253259 0.027814811 -0.52287865 0.32315677 0.19972187
0 0.072212599 0.027649147 -0.52287865 0.32315677 0.19972187
1.110223e-16 0.071170293 0.027483257 -0.52287865 0.32315677 0.19972187
1.110223e-16 0.070126332 0.02731714 -0.52287865 0.32315677 0.19972187
0 0.069080696 0.027150793 -0.52287865 0.32315677 0.19972187
0 0.068033382 0.026984217 -0.52287865 0.32315677 0.19972187
0 0.066984378 0.026817409 -0.52287865 0.32315677 0.19972187
0 0.065933682 0.026650369 -0.52287865 0.32315677 0.19972187
0 0.06488128 0.026483094 -0.52287865 0.32315677 0.19972187
0 0.063827164 0.026315583 -0.52287865 0.32315677 0.19972187
0 0.062771328 0.026147835 -0.52287865 0.32315677 0.19972187
0 0.061713751 0.025979849 -0.52287865 0.32315677 0.19972187
1.110223e-16 0.060654439 0.025811624 -0.52287865 0.32315677 0.19972187
0 0.059593372 0.025643157 -0.52287865 0.32315677 0.19972187
0 0.058530543 0.025474448 -0.52287865 0.32315677 0.19972187
0 0.057465944 0.025305495 -0.52287865 0.32315677 0.19972187
0 0.056399565 0.025136296 -0.52287865 0.32315677 0.19972187
0 0.055331398 0.024966849 -0.52287865 0.32315677 0.19972187
0 0.054261431 0.024797156 -0.52287865 0.32315677 0.19972187
1.110223e-16 0.053189654 0.024627212 -0.52287865 0.32315677 0.19972187
0 0.052116059 0.024457019 -0.52287865 0.32315677 0.19972187
0 0.051040635 0.02428657 -0.52287865 0.32315677 0.19972187
0 0.049963374 0.02411587 -0.52287865 0.32315677 0.19972187
0 0.048884265 0.023944912 -0.52287865 0.32315677 0.19972187
1.110223e-16 0.047803298 0.023773698 -0.52287865 0.32315677 0.19972187
1.110223e-16 0.04672046 0.023602227 -0.52287865 0.32315677 0.19972187
1.110223e-16 0.045635749 0.023430495 -0.52287865 0.32315677 0.19972187
0 0.044549145 0.023258502 -0.52287865 0.32315677 0.19972187
1.110223e-16 0.043460645 0.023086244 -0.52287865 0.32315677 0.19972187
0 0.042370237 0.022913724 -0.52287865 0.32315677 0.19972187
0 0.041277912 0.022740936 -0.52287865 0.32315677 0.19972187
1.110223e-16 0.040183652 0.022567881 -0.52287865 0.32315677 0.19972187
0 0.039087459 0.022394558 -0.52287865 0.32315677 0.19972187
0 0.037989315 0.022220964 -0.52287865 0.32315677 0.19972187
0 0.03688921 0.022047097 -0.52287865 0.32315677 0.19972187
0 0.035787132 0.021872958 -0.52287865 0.32315677 0.19972187
0 0.034683075 0.021698542 -0.52287865 0.32315677 0.19972187
0 0.033577029 0.02152385 -0.52287865 0.32315677 0.19972187
0 0.032468975 0.021348879 -0.52287865 0.32315677 0.19972187
0 0.031358913 0.021173628 -0.52287865 0.32315677 0.19972187
0 0.030246822 0.020998096 -0.52287865 0.32315677 0.19972187
0 0.0291327 0.020822281 -0.52287865 0.32315677 0.19972187
1.110223e-16 0.02801653 0.020646179 -0.52287865 0.32315677 0.19972187
0 0.026898304 0.020469792 -0.52287865 0.32315677 0.19972187
0 0.025778009 0.020293118 -0.52287865 0.32315677 0.19972187
0 0.024655636 0.020116152 -0.52287865 0.32315677 0.19972187
1.110223e-16 0.023531172 0.019938895 -0.52287865 0.32315677 0.19972187
0 0.022404609 0.019761346 -0.52287865 0.32315677 0.19972187
0 0.021275932 0.019583503 -0.52287865 0.32315677 0.19972187
1.110223e-16 0.020145129 0.019405361 -0.52287865 0.32315677 0.19972187
1.110223e-16 0.019012194 0.019226924 -0.52287865 0.32315677 0.19972187
1.110223e-16 0.017877109 0.019048184 -0.52287865 0.32315677 0.19972187
0 0.016739868 0.018869143 -0.52287865 0.32315677 0.19972187
0 0.015600456 0.0186898 -0.52287865 0.32315677 0.19972187
1.110223e-16 0.014458862 0.018510152 -0.52287865 0.32315677 0.19972187
1.110223e-16 0.013315075 0.018330196 -0.52287865 0.32315677 0.19972187
0 0.012169084 0.018149933 -0.52287865 0.32315677 0.19972187
0 0.011020874 0.017969359 -0.52287865 0.32315677 0.19972187
0 0.009870436 0.017788474 -0.52287865 0.32315677 0.19972187
0 0.0087177567 0.017607274 -0.52287865 0.32315677 0.19972187
0 0.0075628241 0.017425757 -0.52287865 0.32315677 0.19972187
0 0.0064056264 0.017243925 -0.52287865 0.32315677 0.19972187
0 0.0052461512 0.017061774 -0.52287865 0.32315677 0.19972187
0 0.0040843869 0.0168793 -0.52287865 0.32315677 0.19972187
0 0.00292032 0.016696505 -0.52287865 0.32315677 0.19972187
1.110223e-16 0.0017539387 0.016513385 -0.52287865 0.32315677 0.19972187
1.110223e-16 0.00058523059 0.016329939 -0.52287865 0.32315677 0.19972187
0.038801186 0.079999998 0.018059965 -0.52287865 0.32315677 0.19972187
0.036317263 0.079999998 0.018690526 -0.52287865 0.32315677 0.19972187
0.033851657 0.079999998 0.019316474 -0.52287865 0.32315677 0.19972187
0.031404153 0.079999998 0.01993786 -0.52287865 0.32315677 0.19972187
0.028974541 0.079999998 0.02055474 -0.52287865 0.32315677 0.19972187
0.026562614 0.079999998 0.021167165 -0.52287865 0.32315677 0.19972187
0.024168171 0.079999998 0.021775186 -0.52287865 0.32315677 0.19972187
0.021791009 0.079999998 0.022378856 -0.52287865 0.32315677 0.19972187
0.01943093 0.079999998 0.02297822 -0.52287865 0.32315677 0.19972187
0.017087741 0.079999998 0.023573332 -0.52287865 0.32315677 0.19972187
0.014761249 0.079999998 0.024164237 -0.52287865 0.32315677 0.19972187
0.012451265 0.079999998 0.024750985 -0.52287865 0.32315677 0.19972187
0.010157605 0.079999998 0.025333621 -0.52287865 0.32315677 0.19972187
0.0078800833 0.079999998 0.025912192 -0.52287865 0.32315677 0.19972187
0.0056185201 0.079999998 0.026486741 -0.52287865 0.32315677 0.19972187
0.0033727384 0.079999998 0.027057318 -0.52287865 0.32315677 0.19972187
0.0011425625 0.079999998 0.027623964 -0.52287865 0.32315677 0.19972187
0 0.07950037 0.027834261 -0.52287865 0.32315677 0.19972187
0 0.078468986 0.027669098 -0.52287865 0.32315677 0.19972187
1.110223e-16 0.077435993 0.027503716 -0.52287865 0.32315677 0.19972187
0 0.076401398 0.027338108 -0.52287865 0.32315677 0.19972187
0 0.075365178 0.027172277 -0.52287865 0.32315677 0.19972187
0 0.074327335 0.02700622 -0.52287865 0.32315677 0.19972187
0 0.07328786 0.026839934 -0.52287865 0.32315677 0.19972187
0 0.072246745 0.026673421 -0.52287865 0.32315677 0.19972187
1.110223e-16 0.071203969 0.026506677 -0.52287865 0.32315677 0.19972187
0 0.070159532 0.026339702 -0.52287865 0.32315677 0.19972187
0 0.069113433 0.026172496 -0.52287865 0.32315677 0.19972187
1.110223e-16 0.068065651 0.026005054 -0.52287865 0.32315677 0.19972187
0 0.067016177 0.025837377 -0.52287865 0.32315677 0.19972187
1.110223e-16 0.065965004 0.025669465 -0.52287865 0.32315677 0.19972187
1.110223e-16 0.064912125 0.025501313 -0.52287865 0.32315677 0.19972187
1.110223e-16 0.063857533 0.025332922 -0.52287865 0.32315677 0.19972187
0 0.06280122 0.025164289 -0.52287865 0.32315677 0.19972187
1.110223e-16 0.061743166 0.024995416 -0.52287865 0.32315677 0.19972187
0 0.06068337 0.024826298 -0.52287865 0.32315677 0.19972187
0 0.059621818 0.024656935 -0.52287865 0.32315677 0.19972187
1.110223e-16 0.058558509 0.024487326 -0.52287865 0.32315677 0.19972187
0 0.057493422 0.024317468 -0.52287865 0.32315677 0.19972187
0 0.056426559 0.024147362 -0.52287865 0.32315677 0.19972187
0 0.0553579 0.023977004 -0.52287865 0.32315677 0.19972187
0 0.054287441 0.023806393 -0.52287865 0.32315677 0.19972187
0 0.053215176 0.023635529 -0.52287865 0.32315677 0.19972187
0 0.052141085 0.023464411 -0.52287865 0.32315677 0.19972187
1.110223e-16 0.051065166 0.023293035 -0.52287865 0.32315677 0.19972187
0 0.049987409 0.023121402 -0.52287865 0.32315677 0.19972187
0 0.048907798 0.022949509 -0.52287865 0.32315677 0.19972187
0 0.047826331 0.022777354 -0.52287865 0.32315677 0.19972187
0 0.046742994 0.022604937 -0.52287865 0.32315677 0.19972187
1.110223e-16 0.045657776 0.022432256 -0.52287865 0.32315677 0.19972187
1.110223e-16 0.044570666 0.02225931 -0.52287865 0.32315677 0.19972187
0 0.043481659 0.022086095 -0.52287865 0.32315677 0.19972187
0 0.042390741 0.021912612 -0.52287865 0.32315677 0.19972187
1.110223e-16 0.041297905 0.021738861 -0.52287865 0.32315677 0.19972187
0 0.040203135 0.021564836 -0.52287865 0.32315677 0.19972187
1.110223e-16 0.039106425 0.021390539 -0.52287865 0.32315677 0.19972187
0 0.038007766 0.021215964 -0.52287865 0.32315677 0.19972187
0 0.03690714 0.021041116 -0.52287865 0.32315677 0.19972187
0 0.035804544 0.020865988 -0.52287865 0.32315677 0.19972187
1.110223e-16 0.034699965 0.020690583 -0.52287865 0.32315677 0.19972187
1.110223e-16 0.033593394 0.020514894 -0.52287865 0.32315677 0.19972187
0 0.032484818 0.020338923 -0.52287865 0.32315677 0.19972187
0 0.031374224 0.020162668 -0.52287865 0.32315677 0.19972187
0 0.030261606 0.019986127 -0.52287865 0.32315677 0.19972187
0 0.029146951 0.019809298 -0.52287865 0.32315677 0.19972187
1.110223e-16 0.028030248 0.019632179 -0.52287865 0.32315677 0.19972187
0 0.026911486 0.01945477 -0.52287865 0.32315677 0.19972187
1.110223e-16 0.025790654 0.019277068 -0.52287865 0.32315677 0.19972187
0 0.024667742 0.019099072 -0.52287865 0.32315677 0.19972187
1.110223e-16 0.023542738 0.018920779 -0.52287865 0.32315677 0.19972187
1.110223e-16 0.022415631 0.018742191 -0.52287865 0.32315677 0.19972187
0 0.021286407 0.018563302 -0.52287865 0.32315677 0.19972187
1.110223e-16 0.020155059 0.018384112 -0.52287865 0.32315677 0.19972187
0 0.019021573 0.018204618 -0.52287865 0.32315677 0.19972187
0 0.017885936 0.018024821 -0.52287865 0.32315677 0.19972187
0 0.016748141 0.017844718 -0.52287865 0.32315677 0.19972187
0 0.015608174 0.017664308 -0.52287865 0.32315677 0.19972187
0 0.014466022 0.017483586 -0.52287865 0.32315677 0.19972187
0 0.013321675 0.017302554 -0.52287865 0.32315677 0.19972187
0 0.012175121 0.017121209 -0.52287865 0.32315677 0.19972187
0 0.011026347 0.016939549 -0.52287865 0.32315677 0.19972187
0 0.0098753422 0.01675757 -0.52287865 0.32315677 0.19972187
1.110223e-16 0.0087220939 0.016575275 -0.52287865 0.32315677 0.19972187
0 0.0075665908 0.016392659 -0.52287865 0.32315677 0.19972187
0 0.0064088199 0.016209722 -0.52287865 0.32315677 0.19972187
1.110223e-16 0.0052487697 0.01602646 -0.52287865 0.32315677 0.19972187
0 0.0040864269 0.015842872 -0.52287865 0.32315677 0.19972187
0 0.0029217803 0.015658956 -0.52287865 0.32315677 0.19972187
0 0.0017548167 0.015474711 -0.52287865 0.32315677 0.19972187
1.110223e-16 0.00058552384 0.015290135 -0.52287865 0.32315677 0.19972187
0.038912766 0.079999998 0.016995475 -0.52287865 0.32315677 0.19972187
0.036426786 0.079999998 0.017630396 -0.52287865 0.32315677 0.19972187
0.03395915 0.079999998 0.018260665 -0.52287865 0.32315677 0.19972187
0.031509645 0.079999998 0.018886339 -0.52287865 0.32315677 0.19972187
0.029078061 0.079999998 0.019507468 -0.52287865 0.32315677 0.19972187
0.039999999 0.074099287 0.015765788 -0.52287865 0.32315677 0.19972187
0.024267823 0.079999998 0.020736303 -0.52287865 0.32315677 0.19972187
0.021888765 0.079999998 0.021344112 -0.52287865 0.32315677 0.19972187
0.019526815 0.079999998 0.021947583 -0.52287865 0.32315677 0.19972187
0.017181778 0.079999998 0.022546766 -0.52287865 0.32315677 0.19972187
0.014853464 0.079999998 0.023141708 -0.52287865 0.32315677 0.19972187
0.012541681 0.079999998 0.023732459 -0.52287865 0.32315677 0.19972187
0.039999999 0.066429392 0.014529816 -0.52287865 0.32315677 0.19972187
0.0079669692 0.079999998 0.024901574 -0.52287865 0.32315677 0.19972187
0.0057036756 0.079999998 0.02548003 -0.52287865 0.32315677 0.19972187
0.0034561858 0.079999998 0.026054477 -0.52287865 0.32315677 0.19972187
0.039999999 0.062010083 0.013818416 -0.52287865 0.32315677 0.19972187
0 0.079537764 0.026863558 -0.52287865 0.32315677 0.19972187
0 0.078505918 0.026697569 -0.52287865 0.32315677 0.19972187
0 0.077472471 0.026531354 -0.52287865 0.32315677 0.19972187
0 0.076437414 0.026364909 -0.52287865 0.32315677 0.19972187
0 0.07540074 0.026198238 -0.52287865 0.32315677 0.19972187
1.110223e-16 0.074362434 0.026031338 -0.52287865 0.32315677 0.19972187
0 0.073322497 0.025864204 -0.52287865 0.32315677 0.19972187
0 0.072280914 0.02569684 -0.52287865 0.32315677 0.19972187
0 0.071237676 0.025529241 -0.52287865 0.32315677 0.19972187
0 0.070192769 0.025361409 -0.52287865 0.32315677 0.19972187
0 0.069146194 0.025193339 -0.52287865 0.32315677 0.19972187
0 0.068097942 0.025025031 -0.52287865 0.32315677 0.19972187
0 0.067047998 0.024856484 -0.52287865 0.32315677 0.19972187
1.110223e-16 0.065996356 0.024687696 -0.52287865 0.32315677 0.19972187
0 0.064943001 0.024518667 -0.52287865 0.32315677 0.19972187
0 0.063887931 0.024349393 -0.52287865 0.32315677 0.19972187
1.110223e-16 0.062831134 0.024179876 -0.52287865 0.32315677 0.19972187
0 0.061772604 0.024010113 -0.52287865 0.32315677 0.19972187
0 0.060712326 0.0238401 -0.52287865 0.32315677 0.19972187
1.110223e-16 0.059650294 0.023669839 -0.52287865 0.32315677 0.19972187
1.110223e-16 0.058586497 0.023499329 -0.52287865 0.32315677 0.19972187
0 0.057520926 0.023328565 -0.52287865 0.32315677 0.19972187
0 0.056453574 0.023157548 -0.52287865 0.32315677 0.19972187
0 0.055384427 0.022986278 -0.52287865 0.32315677 0.19972187
0 0.054313477 0.022814749 -0.52287865 0.32315677 0.19972187
0 0.053240716 0.022642964 -0.52287865 0.32315677 0.19972187
1.110223e-16 0.052166134 0.022470919 -0.52287865 0.32315677 0.19972187
0 0.051089719 0.022298614 -0.52287865 0.32315677 0.19972187
0 0.050011463 0.022126047 -0.52287865 0.32315677 0.19972187
0 0.048931357 0.021953216 -0.52287865 0.32315677 0.19972187
1.110223e-16 0.047849387 0.021780118 -0.52287865 0.32315677 0.19972187
0 0.046765544 0.021606755 -0.52287865 0.32315677 0.19972187
1.110223e-16 0.045679823 0.021433122 -0.52287865 0.32315677 0.19972187
1.110223e-16 0.044592209 0.021259222 -0.52287865 0.32315677 0.19972187
0 0.043502692 0.021085048 -0.52287865 0.32315677 0.19972187
0 0.042411268 0.020910602 -0.52287865 0.32315677 0.19972187
0 0.041317917 0.020735882 -0.52287865 0.32315677 0.19972187
1.110223e-16 0.040222634 0.020560887 -0.52287865 0.32315677 0.19972187
1.110223e-16 0.039125409 0.020385612 -0.52287865 0.32315677 0.19972187
0 0.038026232 0.020210059 -0.52287865 0.32315677 0.19972187
0 0.036925089 0.020034226 -0.52287865 0.32315677 0.19972187
1.110223e-16 0.035821974 0.019858111 -0.52287865 0.32315677 0.19972187
0 0.034716871 0.019681711 -0.52287865 0.32315677 0.19972187
1.110223e-16 0.033609774 0.019505024 -0.52287865 0.32315677 0.19972187
0 0.032500673 0.019328052 -0.52287865 0.32315677 0.19972187
0 0.031389549 0.01915079 -0.52287865 0.32315677 0.19972187
0 0.030276403 0.018973239 -0.52287865 0.32315677 0.19972187
0 0.029161215 0.018795393 -0.52287865 0.32315677 0.19972187
1.110223e-16 0.02804398 0.018617256 -0.52287865 0.32315677 0.19972187
0 0.026924681 0.018438824 -0.52287865 0.32315677 0.19972187
1.110223e-16 0.025803313 0.018260093 -0.52287865 0.32315677 0.19972187
0 0.02467986 0.018081063 -0.52287865 0.32315677 0.19972187
0 0.023554314 0.017901734 -0.52287865 0.32315677 0.19972187
1.110223e-16 0.022426661 0.017722102 -0.52287865 0.32315677 0.19972187
1.110223e-16 0.021296892 0.017542167 -0.52287865 0.32315677 0.19972187
0 0.020164996 0.017361926 -0.52287865 0.32315677 0.19972187
1.110223e-16 0.01903096 0.017181378 -0.52287865 0.32315677 0.19972187
1.110223e-16 0.017894773 0.017000521 -0.52287865 0.32315677 0.19972187
0 0.016756423 0.016819352 -0.52287865 0.32315677 0.19972187
0 0.015615899 0.016637871 -0.52287865 0.32315677 0.19972187
1.110223e-16 0.01447319 0.016456075 -0.52287865 0.32315677 0.19972187
0 0.013328281 0.016273964 -0.52287865 0.32315677 0.19972187
0 0.012181165 0.016091535 -0.52287865 0.32315677 0.19972187
1.110223e-16 0.011031826 0.015908787 -0.52287865 0.32315677 0.19972187
0 0.009880254 0.015725717 -0.52287865 0.32315677 0.19972187
0 0.0087264366 0.015542323 -0.52287865 0.32315677 0.19972187
0 0.0075703613 0.015358604 -0.52287865 0.32315677 0.19972187
0 0.0064120167 0.015174558 -0.52287865 0.32315677 0.19972187
1.110223e-16 0.0052513904 0.014990184 -0.52287865 0.32315677 0.19972187
0 0.0040884693 0.014805479 -0.52287865 0.32315677 0.19972187
0 0.002923242 0.014620441 -0.52287865 0.32315677 0.19972187
0 0.0017556954 0.01443507 -0.52287865 0.32315677 0.19972187
0 0.00058581732 0.014249361 -0.52287865 0.32315677 0.19972187
0.03902448 0.079999998 0.015929639 -0.52287865 0.32315677 0.19972187
0.036536444 0.079999998 0.016568933 -0.52287865 0.32315677 0.19972187
0.039999999 0.077409618 0.015259142 -0.52287865 0.32315677 0.19972187
0.031615272 0.079999998 0.017833505 -0.52287865 0.32315677 0.19972187
0.029181711 0.079999998 0.018458892 -0.52287865 0.32315677 0.19972187
0.026765889 0.079999998 0.019079752 -0.52287865 0.32315677 0.19972187
0.024367597 0.079999998 0.019696137 -0.52287865 0.32315677 0.19972187
0.021986641 0.079999998 0.020308098 -0.52287865 0.32315677 0.19972187
0.019622816 0.079999998 0.020915685 -0.52287865 0.32315677 0.19972187
0.017275929 0.079999998 0.021518949 -0.52287865 0.32315677 0.19972187
0.014945789 0.079999998 0.022117939 -0.52287865 0.32315677 0.19972187
0.012632205 0.079999998 0.022712702 -0.52287865 0.32315677 0.19972187
0.010334989 0.079999998 0.023303287 -0.52287865 0.32315677 0.19972187
0.039999999 0.065369338 0.013309981 -0.52287865 0.32315677 0.19972187
0.039999999 0.064264871 0.013131373 -0.52287865 0.32315677 0.19972187
0.0035397327 0.079999998 0.025050443 -0.52287865 0.32315677 0.19972187
0.0013061814 0.079999998 0.025624778 -0.52287865 0.32315677 0.19972187
1.110223e-16 0.079575196 0.025892006 -0.52287865 0.32315677 0.19972187
0 0.078542888 0.025725186 -0.52287865 0.32315677 0.19972187
0 0.077508986 0.025558136 -0.52287865 0.32315677 0.19972187
1.110223e-16 0.076473467 0.025390856 -0.52287865 0.32315677 0.19972187
0 0.075436331 0.025223343 -0.52287865 0.32315677 0.19972187
0 0.074397564 0.025055597 -0.52287865 0.32315677 0.19972187
0 0.073357165 0.024887616 -0.52287865 0.32315677 0.19972187
0 0.072315112 0.024719398 -0.52287865 0.32315677 0.19972187
