# .PCD v0.7 - Point Cloud Data file format
VERSION 0.7
FIELDS x y z vp_x vp_y vp_z
SIZE 4 4 4 4 4 4
TYPE F F F F F F
COUNT 1 1 1 1 1 1
WIDTH 758
HEIGHT 1
VIEWPOINT 0 0 0 1 0 0 0
POINTS 758
DATA ascii
0.0090121105 0.026891381 0 -0.52287865 -0.32315677 -0.19972187
0.0095564574 0.026008852 0 -0.52287865 -0.32315677 -0.19972187
0.010100805 0.025126427 0 -0.52287865 -0.32315677 -0.19972187
0.010645156 0.024244098 0 -0.52287865 -0.32315677 -0.19972187
0.011189514 0.023361864 0 -0.52287865 -0.32315677 -0.19972187
0.01173388 0.022479719 0 -0.52287865 -0.32315677 -0.19972187
0.012278259 0.021597655 0 -0.52287865 -0.32315677 -0.19972187
0.012822651 0.020715674 0 -0.52287865 -0.32315677 -0.19972187
0.013367062 0.019833768 0 -0.52287865 -0.32315677 -0.19972187
0.013911491 0.018951932 0 -0.52287865 -0.32315677 -0.19972187
0.014455944 0.018070163 0 -0.52287865 -0.32315677 -0.19972187
0.015000422 0.017188456 0 -0.52287865 -0.32315677 -0.19972187
0.015544929 0.016306806 0 -0.52287865 -0.32315677 -0.19972187
0.016089465 0.01542521 0 -0.52287865 -0.32315677 -0.19972187
0.016634038 0.014543662 0 -0.52287865 -0.32315677 -0.19972187
0.017178645 0.013662158 0 -0.52287865 -0.32315677 -0.19972187
0.017723292 0.012780694 0 -0.52287865 -0.32315677 -0.19972187
0.018267982 0.011899265 0 -0.52287865 -0.32315677 -0.19972187
0.018812716 0.011017866 0 -0.52287865 -0.32315677 -0.19972187
0.019357497 0.010136495 0 -0.52287865 -0.32315677 -0.19972187
0.01990233 0.0092551447 0 -0.52287865 -0.32315677 -0.19972187
0.020447215 0.0083738128 0 -0.52287865 -0.32315677 -0.19972187
0.020992154 0.0074924929 0 -0.52287865 -0.32315677 -0.19972187
0.039999999 0.017794646 0.0067731943 -0.52287865 -0.32315677 -0.19972187
0.022082215 0.0057298741 0 -0.52287865 -0.32315677 -0.19972187
0.022627341 0.0048485668 0 -0.52287865 -0.32315677 -0.19972187
0.023172531 0.0039672544 0 -0.52287865 -0.32315677 -0.19972187
0.023717793 0.0030859325 0 -0.52287865 -0.32315677 -0.19972187
0.024263127 0.0022045968 0 -0.52287865 -0.32315677 -0.19972187
0.024808535 0.0013232428 0 -0.52287865 -0.32315677 -0.19972187
0.025354022 0.00044186605 0 -0.52287865 -0.32315677 -0.19972187
0.02664702 0 0.0002720193 -0.52287865 -0.32315677 -0.19972187
0.028699936 0 0.00081975741 -0.52287865 -0.32315677 -0.19972187
0.030764278 0 0.0013705266 -0.52287865 -0.32315677 -0.19972187
0.032840151 0 0.001924355 -0.52287865 -0.32315677 -0.19972187
0.034927662 0 0.002481271 -0.52287865 -0.32315677 -0.19972187
0.037026916 0 0.0030413033 -0.52287865 -0.32315677 -0.19972187
0.039138027 0 0.0036044808 -0.52287865 -0.32315677 -0.19972187
0 0.078675739 0.0049813925 -0.52287865 -0.32315677 -0.19972187
0 0.077325456 0.0047611515 -0.52287865 -0.32315677 -0.19972187
0 0.075978488 0.0045414316 -0.52287865 -0.32315677 -0.19972187
0 0.07463482 0.004322229 -0.52287865 -0.32315677 -0.19972187
0 0.073294431 0.0041035418 -0.52287865 -0.32315677 -0.19972187
0 0.071957305 0.0038853663 -0.52287865 -0.32315677 -0.19972187
0 0.07062342 0.0036676999 -0.52287865 -0.32315677 -0.19972187
0 0.069292761 0.0034505397 -0.52287865 -0.32315677 -0.19972187
0 0.067965314 0.0032338828 -0.52287865 -0.32315677 -0.19972187
0 0.066641055 0.0030177264 -0.52287865 -0.32315677 -0.19972187
0 0.065319963 0.0028020674 -0.52287865 -0.32315677 -0.19972187
0 0.06400203 0.0025869033 -0.52287865 -0.32315677 -0.19972187
0 0.062687233 0.0023722311 -0.52287865 -0.32315677 -0.19972187
0 0.061375551 0.0021580483 -0.52287865 -0.32315677 -0.19972187
0 0.060066972 0.0019443517 -0.52287865 -0.32315677 -0.19972187
0 0.058761477 0.001731139 -0.52287865 -0.32315677 -0.19972187
0 0.057459049 0.0015184071 -0.52287865 -0.32315677 -0.19972187
0 0.056159671 0.0013061536 -0.52287865 -0.32315677 -0.19972187
0 0.05486333 0.0010943757 -0.52287865 -0.32315677 -0.19972187
0 0.053570002 0.00088307064 -0.52287865 -0.32315677 -0.19972187
0 0.052279674 0.00067223579 -0.52287865 -0.32315677 -0.19972187
0 0.050992329 0.00046186851 -0.52287865 -0.32315677 -0.19972187
0 0.049707949 0.00025196624 -0.52287865 -0.32315677 -0.19972187
0 0.04842652 4.2526299e-05 -0.52287865 -0.32315677 -0.19972187
0.00043614535 0.047456905 0 -0.52287865 -0.32315677 -0.19972187
0.0009835487 0.046566602 0 -0.52287865 -0.32315677 -0.19972187
0.0015309012 0.045676503 0 -0.52287865 -0.32315677 -0.19972187
0.0020782058 0.044786602 0 -0.52287865 -0.32315677 -0.19972187
0.0026254649 0.043896899 2.7755576e-17 -0.52287865 -0.32315677 -0.19972187
0.0031726819 0.043007381 0 -0.52287865 -0.32315677 -0.19972187
0.0037198593 0.04211805 0 -0.52287865 -0.32315677 -0.19972187
0.0042669997 0.041228902 0 -0.52287865 -0.32315677 -0.19972187
0.004814106 0.040339928 0 -0.52287865 -0.32315677 -0.19972187
0.0053611812 0.039451126 0 -0.52287865 -0.32315677 -0.19972187
0.039999999 0.061883133 0.012876403 -0.52287865 -0.32315677 -0.19972187
0.0064552496 0.037674017 0 -0.52287865 -0.32315677 -0.19972187
0.007002248 0.036785699 0 -0.52287865 -0.32315677 -0.19972187
0.039999999 0.05786394 0.012218682 -0.52287865 -0.32315677 -0.19972187
0.0080961874 0.035009526 0 -0.52287865 -0.32315677 -0.19972187
0.0086431336 0.034121655 0 -0.52287865 -0.32315677 -0.19972187
0.0091900686 0.033233926 0 -0.52287865 -0.32315677 -0.19972187
0.0097369952 0.032346334 0 -0.52287865 -0.32315677 -0.19972187
0.010283914 0.03145887 0 -0.52287865 -0.32315677 -0.19972187
0.010830832 0.030571532 0 -0.52287865 -0.32315677 -0.19972187
0.011377747 0.029684315 0 -0.52287865 -0.32315677 -0.19972187
0.011924665 0.028797215 0 -0.52287865 -0.32315677 -0.19972187
0.012471589 0.027910229 0 -0.52287865 -0.32315677 -0.19972187
0.013018521 0.027023349 0 -0.52287865 -0.32315677 -0.19972187
0.013565462 0.026136573 0 -0.52287865 -0.32315677 -0.19972187
0.014112418 0.025249895 0 -0.52287865 -0.32315677 -0.19972187
0.014659389 0.024363313 0 -0.52287865 -0.32315677 -0.19972187
0.01520638 0.023476819 2.7755576e-17 -0.52287865 -0.32315677 -0.19972187
0.015753392 0.022590412 0 -0.52287865 -0.32315677 -0.19972187
0.016300429 0.021704083 0 -0.52287865 -0.32315677 -0.19972187
0.016847493 0.020817833 0 -0.52287865 -0.32315677 -0.19972187
0.017394587 0.019931654 0 -0.52287865 -0.32315677 -0.19972187
0.017941713 0.019045541 0 -0.52287865 -0.32315677 -0.19972187
0.018488877 0.01815949 0 -0.52287865 -0.32315677 -0.19972187
0.019036077 0.017273499 0 -0.52287865 -0.32315677 -0.19972187
0.01958332 0.016387561 0 -0.52287865 -0.32315677 -0.19972187
0.039999999 0.02789361 0.0073080752 -0.52287865 -0.32315677 -0.19972187
0.020677941 0.014615827 0 -0.52287865 -0.32315677 -0.19972187
0.021225324 0.013730022 0 -0.52287865 -0.32315677 -0.19972187
0.021772759 0.012844253 0 -0.52287865 -0.32315677 -0.19972187
0.022320248 0.011958515 0 -0.52287865 -0.32315677 -0.19972187
0.039999999 0.021565018 0.0062697167 -0.52287865 -0.32315677 -0.19972187
0.023415407 0.010187114 0 -0.52287865 -0.32315677 -0.19972187
0.023963081 0.0093014417 0 -0.52287865 -0.32315677 -0.19972187
0.024510819 0.0084157828 0 -0.52287865 -0.32315677 -0.19972187
0.025058627 0.0075301318 0 -0.52287865 -0.32315677 -0.19972187
0.025606507 0.0066444851 0 -0.52287865 -0.32315677 -0.19972187
0.026154464 0.0057588378 0 -0.52287865 -0.32315677 -0.19972187
0.026702495 0.004873185 0 -0.52287865 -0.32315677 -0.19972187
0.027250608 0.0039875228 0 -0.52287865 -0.32315677 -0.19972187
0.027798805 0.0031018467 2.7755576e-17 -0.52287865 -0.32315677 -0.19972187
0.028347088 0.0022161517 0 -0.52287865 -0.32315677 -0.19972187
0.039999999 0.00786079 0.0040194346 -0.52287865 -0.32315677 -0.19972187
0.02944392 0.00044468784 0 -0.52287865 -0.32315677 -0.19972187
0.030748146 0 0.0002729813 -0.52287865 -0.32315677 -0.19972187
0.032822881 0 0.00082345342 -0.52287865 -0.32315677 -0.19972187
0.034909241 0 0.0013769901 -0.52287865 -0.32315677 -0.19972187
0.037007336 0 0.0019336196 -0.52287865 -0.32315677 -0.19972187
0.039117273 0 0.002493371 -0.52287865 -0.32315677 -0.19972187
0 0.07998617 0.0040707039 -0.52287865 -0.32315677 -0.19972187
0 0.078633331 0.0038514552 -0.52287865 -0.32315677 -0.19972187
0 0.077283829 0.0036327234 -0.52287865 -0.32315677 -0.19972187
0 0.075937636 0.0034145059 -0.52287865 -0.32315677 -0.19972187
0.0071056769 0.079999998 0.0059543694 -0.52287865 -0.32315677 -0.19972187
0 0.073255122 0.002979601 -0.52287865 -0.32315677 -0.19972187
0.010695443 0.079999998 0.0069047194 -0.52287865 -0.32315677 -0.19972187
0 0.070585638 0.0025467179 -0.52287865 -0.32315677 -0.19972187
0 0.069255732 0.0023310273 -0.52287865 -0.32315677 -0.19972187
0 0.067929037 0.0021158333 -0.52287865 -0.32315677 -0.19972187
0 0.066605531 0.0019011335 -0.52287865 -0.32315677 -0.19972187
0.019807495 0.079999998 0.0093166186 -0.52287865 -0.32315677 -0.19972187
0 0.063967988 0.0014732043 -0.52287865 -0.32315677 -0.19972187
0 0.062653929 0.0012599697 -0.52287865 -0.32315677 -0.19972187
0 0.061342988 0.0010472178 -0.52287865 -0.32315677 -0.19972187
0 0.060035139 0.00083494605 -0.52287865 -0.32315677 -0.19972187
0 0.058730375 0.00062315178 -0.52287865 -0.32315677 -0.19972187
0 0.057428673 0.00041183221 -0.52287865 -0.32315677 -0.19972187
0.032906771 0.079999998 0.012782902 -0.52287865 -0.32315677 -0.19972187
2.4593528e-05 0.054852169 0 -0.52287865 -0.32315677 -0.19972187
0.00057477865 0.053955868 0 -0.52287865 -0.32315677 -0.19972187
0.0011249025 0.053059801 0 -0.52287865 -0.32315677 -0.19972187
0.0016749679 0.052163973 0 -0.52287865 -0.32315677 -0.19972187
0.039999999 0.078203849 0.014367637 -0.52287865 -0.32315677 -0.19972187
0.039999999 0.076825149 0.014143649 -0.52287865 -0.32315677 -0.19972187
0.0033248418 0.049477838 0 -0.52287865 -0.32315677 -0.19972187
0.0038747017 0.048582897 0 -0.52287865 -0.32315677 -0.19972187
0.0044245175 0.047688168 0 -0.52287865 -0.32315677 -0.19972187
0.0049742917 0.046793643 0 -0.52287865 -0.32315677 -0.19972187
0.0055240276 0.045899317 0 -0.52287865 -0.32315677 -0.19972187
0.0060737277 0.045005191 0 -0.52287865 -0.32315677 -0.19972187
0.0066233948 0.044111256 0 -0.52287865 -0.32315677 -0.19972187
0.0071730316 0.04321751 0 -0.52287865 -0.32315677 -0.19972187
0.0077226413 0.042323943 0 -0.52287865 -0.32315677 -0.19972187
0.0082722269 0.041430555 0 -0.52287865 -0.32315677 -0.19972187
0.0088217901 0.040537342 0 -0.52287865 -0.32315677 -0.19972187
0.0093713347 0.039644297 0 -0.52287865 -0.32315677 -0.19972187
0.0099208634 0.03875142 0 -0.52287865 -0.32315677 -0.19972187
0.039999999 0.057846826 0.011057884 -0.52287865 -0.32315677 -0.19972187
0.011019885 0.03696613 0 -0.52287865 -0.32315677 -0.19972187
0.011569383 0.036073714 0 -0.52287865 -0.32315677 -0.19972187
0.012118876 0.035181448 0 -0.52287865 -0.32315677 -0.19972187
0.012668367 0.034289319 0 -0.52287865 -0.32315677 -0.19972187
0.01321786 0.033397324 0 -0.52287865 -0.32315677 -0.19972187
0.013767356 0.032505468 0 -0.52287865 -0.32315677 -0.19972187
0.014316859 0.031613734 0 -0.52287865 -0.32315677 -0.19972187
0.014866371 0.030722123 0 -0.52287865 -0.32315677 -0.19972187
0.015415895 0.029830631 0 -0.52287865 -0.32315677 -0.19972187
0.015965434 0.028939253 0 -0.52287865 -0.32315677 -0.19972187
0.016514992 0.028047984 0 -0.52287865 -0.32315677 -0.19972187
0.01706457 0.027156821 0 -0.52287865 -0.32315677 -0.19972187
0.017614171 0.026265755 0 -0.52287865 -0.32315677 -0.19972187
0.0181638 0.025374785 0 -0.52287865 -0.32315677 -0.19972187
0.018713456 0.024483906 0 -0.52287865 -0.32315677 -0.19972187
0.019263145 0.023593113 0 -0.52287865 -0.32315677 -0.19972187
0.019812869 0.022702402 2.7755576e-17 -0.52287865 -0.32315677 -0.19972187
0.02036263 0.021811767 0 -0.52287865 -0.32315677 -0.19972187
0.020912433 0.020921204 0 -0.52287865 -0.32315677 -0.19972187
0.021462277 0.020030711 0 -0.52287865 -0.32315677 -0.19972187
0.039999999 0.030440124 0.0065931804 -0.52287865 -0.32315677 -0.19972187
0.022562109 0.018249907 2.7755576e-17 -0.52287865 -0.32315677 -0.19972187
0.0231121 0.017359588 0 -0.52287865 -0.32315677 -0.19972187
0.023662146 0.01646932 2.7755576e-17 -0.52287865 -0.32315677 -0.19972187
0.02421225 0.015579095 0 -0.52287865 -0.32315677 -0.19972187
0.024762414 0.014688912 0 -0.52287865 -0.32315677 -0.19972187
0.025312642 0.013798764 0 -0.52287865 -0.32315677 -0.19972187
0.025862934 0.012908647 0 -0.52287865 -0.32315677 -0.19972187
0.026413295 0.012018557 2.7755576e-17 -0.52287865 -0.32315677 -0.19972187
0.039999999 0.019054094 0.0047352272 -0.52287865 -0.32315677 -0.19972187
0.027514234 0.010238439 0 -0.52287865 -0.32315677 -0.19972187
0.028064819 0.0093484009 0 -0.52287865 -0.32315677 -0.19972187
0.039999999 0.015303917 0.0041228672 -0.52287865 -0.32315677 -0.19972187
0.029166229 0.0075683463 0 -0.52287865 -0.32315677 -0.19972187
0.029717062 0.00667832 0 -0.52287865 -0.32315677 -0.19972187
0.030267984 0.0057882885 0 -0.52287865 -0.32315677 -0.19972187
0.030818995 0.0048982473 0 -0.52287865 -0.32315677 -0.19972187
0.031370103 0.0040081912 0 -0.52287865 -0.32315677 -0.19972187
0.031921305 0.0031181164 0 -0.52287865 -0.32315677 -0.19972187
0.03247261 0.0022280179 0 -0.52287865 -0.32315677 -0.19972187
0.033024013 0.0013378913 0 -0.52287865 -0.32315677 -0.19972187
0.033575527 0.00044773184 0 -0.52287865 -0.32315677 -0.19972187
0.034890842 0 0.00027383331 -0.52287865 -0.32315677 -0.19972187
0.036987774 0 0.00082706701 -0.52287865 -0.32315677 -0.19972187
0.039096538 0 0.001383399 -0.52287865 -0.32315677 -0.19972187
0 0.079943031 0.0029404247 -0.52287865 -0.32315677 -0.19972187
0.0018338576 0.079999998 0.0034327093 -0.52287865 -0.32315677 -0.19972187
0 0.077242248 0.0025054631 -0.52287865 -0.32315677 -0.19972187
0 0.075896829 0.002288745 -0.52287865 -0.32315677 -0.19972187
0 0.074554704 0.0020725313 -0.52287865 -0.32315677 -0.19972187
0 0.07321585 0.0018568194 -0.52287865 -0.32315677 -0.19972187
0 0.071880251 0.0016416062 -0.52287865 -0.32315677 -0.19972187
0 0.070547886 0.001426889 -0.52287865 -0.32315677 -0.19972187
0 0.069218747 0.0012126649 -0.52287865 -0.32315677 -0.19972187
0 0.067892797 0.00099893112 -0.52287865 -0.32315677 -0.19972187
0 0.066570036 0.00078568485 -0.52287865 -0.32315677 -0.19972187
0 0.065250441 0.0005729234 -0.52287865 -0.32315677 -0.19972187
0 0.063933991 0.0003606439 -0.52287865 -0.32315677 -0.19972187
0 0.06262067 0.00014884367 -0.52287865 -0.32315677 -0.19972187
0.00016362594 0.061430767 0 -0.52287865 -0.32315677 -0.19972187
0.00071656739 0.060528435 0 -0.52287865 -0.32315677 -0.19972187
0.0012694396 0.059626367 0 -0.52287865 -0.32315677 -0.19972187
0.0018222455 0.058724567 0 -0.52287865 -0.32315677 -0.19972187
0.002374988 0.057823028 0 -0.52287865 -0.32315677 -0.19972187
0.00292767 0.056921743 2.7755576e-17 -0.52287865 -0.32315677 -0.19972187
0.0034802943 0.056020711 0 -0.52287865 -0.32315677 -0.19972187
0.0040328638 0.055119924 0 -0.52287865 -0.32315677 -0.19972187
0.0045853816 0.054219376 0 -0.52287865 -0.32315677 -0.19972187
0.0051378501 0.053319067 0 -0.52287865 -0.32315677 -0.19972187
0.0056902724 0.052418988 0 -0.52287865 -0.32315677 -0.19972187
0.0062426515 0.051519137 0 -0.52287865 -0.32315677 -0.19972187
0.00679499 0.050619509 0 -0.52287865 -0.32315677 -0.19972187
0.0073472909 0.049720101 0 -0.52287865 -0.32315677 -0.19972187
0.0078995572 0.048820902 0 -0.52287865 -0.32315677 -0.19972187
0.0084517924 0.047921911 0 -0.52287865 -0.32315677 -0.19972187
0.0090039978 0.047023125 0 -0.52287865 -0.32315677 -0.19972187
0.0095561771 0.046124537 0 -0.52287865 -0.32315677 -0.19972187
0.010108333 0.045226146 0 -0.52287865 -0.32315677 -0.19972187
0.010660469 0.044327941 0 -0.52287865 -0.32315677 -0.19972187
0.011212587 0.043429922 0 -0.52287865 -0.32315677 -0.19972187
0.011764691 0.042532083 0 -0.52287865 -0.32315677 -0.19972187
0.012316783 0.041634418 0 -0.52287865 -0.32315677 -0.19972187
0.039999999 0.059165101 0.010114244 -0.52287865 -0.32315677 -0.19972187
0.013420942 0.039839599 2.7755576e-17 -0.52287865 -0.32315677 -0.19972187
0.013973015 0.038942434 0 -0.52287865 -0.32315677 -0.19972187
0.014525088 0.038045425 0 -0.52287865 -0.32315677 -0.19972187
0.015077164 0.037148569 0 -0.52287865 -0.32315677 -0.19972187
0.015629245 0.036251862 0 -0.52287865 -0.32315677 -0.19972187
0.016181335 0.035355292 0 -0.52287865 -0.32315677 -0.19972187
0.016733434 0.034458864 2.7755576e-17 -0.52287865 -0.32315677 -0.19972187
0.017285548 0.033562571 0 -0.52287865 -0.32315677 -0.19972187
0.017837679 0.032666404 0 -0.52287865 -0.32315677 -0.19972187
0.01838983 0.03177036 0 -0.52287865 -0.32315677 -0.19972187
0.018942002 0.030874437 0 -0.52287865 -0.32315677 -0.19972187
0.0194942 0.029978629 0 -0.52287865 -0.32315677 -0.19972187
0.020046426 0.029082932 0 -0.52287865 -0.32315677 -0.19972187
0.020598684 0.028187338 0 -0.52287865 -0.32315677 -0.19972187
0.021150975 0.027291847 0 -0.52287865 -0.32315677 -0.19972187
0.021703303 0.026396452 0 -0.52287865 -0.32315677 -0.19972187
0.022255668 0.025501147 0 -0.52287865 -0.32315677 -0.19972187
0.022808079 0.02460593 0 -0.52287865 -0.32315677 -0.19972187
0.023360534 0.023710797 0 -0.52287865 -0.32315677 -0.19972187
0.023913037 0.02281574 0 -0.52287865 -0.32315677 -0.19972187
0.024465591 0.021920756 0 -0.52287865 -0.32315677 -0.19972187
0.025018198 0.02102584 0 -0.52287865 -0.32315677 -0.19972187
0.025570862 0.020130988 0 -0.52287865 -0.32315677 -0.19972187
0.026123587 0.019236196 0 -0.52287865 -0.32315677 -0.19972187
0.039999999 0.026620874 0.0048421351 -0.52287865 -0.32315677 -0.19972187
0.027229225 0.017446769 0 -0.52287865 -0.32315677 -0.19972187
0.027782144 0.016552126 0 -0.52287865 -0.32315677 -0.19972187
0.028335135 0.015657524 0 -0.52287865 -0.32315677 -0.19972187
0.028888199 0.014762959 0 -0.52287865 -0.32315677 -0.19972187
0.02944134 0.013868423 0 -0.52287865 -0.32315677 -0.19972187
0.02999456 0.012973916 0 -0.52287865 -0.32315677 -0.19972187
0.030547865 0.01207943 0 -0.52287865 -0.32315677 -0.19972187
0.031101253 0.011184962 0 -0.52287865 -0.32315677 -0.19972187
0.03165473 0.010290506 0 -0.52287865 -0.32315677 -0.19972187
0.032208297 0.0093960594 0 -0.52287865 -0.32315677 -0.19972187
0.032761957 0.0085016163 0 -0.52287865 -0.32315677 -0.19972187
0.033315714 0.0076071718 0 -0.52287865 -0.32315677 -0.19972187
0.033869572 0.0067127217 0 -0.52287865 -0.32315677 -0.19972187
0.034423534 0.0058182618 0 -0.52287865 -0.32315677 -0.19972187
0.0349776 0.0049237865 0 -0.52287865 -0.32315677 -0.19972187
0.035531774 0.0040292921 0 -0.52287865 -0.32315677 -0.19972187
0.036086056 0.0031347738 0 -0.52287865 -0.32315677 -0.19972187
0.036640454 0.0022402266 0 -0.52287865 -0.32315677 -0.19972187
0.037194971 0.001345646 0 -0.52287865 -0.32315677 -0.19972187
0.037749607 0.00045102742 0 -0.52287865 -0.32315677 -0.19972187
0.039075822 0 0.00027455768 -0.52287865 -0.32315677 -0.19972187
0 0.079899937 0.0018113123 -0.52287865 -0.32315677 -0.19972187
0 0.078548662 0.0015950862 -0.52287865 -0.32315677 -0.19972187
0 0.077200711 0.0013793637 -0.52287865 -0.32315677 -0.19972187
0 0.075856067 0.0011641419 -0.52287865 -0.32315677 -0.19972187
0 0.074514709 0.00094941811 -0.52287865 -0.32315677 -0.19972187
0.0090020113 0.079999998 0.0041863089 -0.52287865 -0.32315677 -0.19972187
0 0.071841784 0.00052145286 -0.52287865 -0.32315677 -0.19972187
0 0.070510179 0.00030820581 -0.52287865 -0.32315677 -0.19972187
0 0.069181792 9.544535e-05 -0.52287865 -0.32315677 -0.19972187
0.00030604718 0.068085462 2.7755576e-17 -0.52287865 -0.32315677 -0.19972187
0.00086177391 0.067176849 0 -0.52287865 -0.32315677 -0.19972187
0.0014174234 0.066268533 0 -0.52287865 -0.32315677 -0.19972187
0.0019729983 0.065360516 0 -0.52287865 -0.32315677 -0.19972187
0.0025285019 0.06445279 0 -0.52287865 -0.32315677 -0.19972187
0.0030839369 0.063545354 0 -0.52287865 -0.32315677 -0.19972187
0.0036393062 0.062638201 0 -0.52287865 -0.32315677 -0.19972187
0.0041946131 0.06173132 0 -0.52287865 -0.32315677 -0.19972187
0.0047498597 0.060824715 0 -0.52287865 -0.32315677 -0.19972187
0.0053050495 0.059918381 0 -0.52287865 -0.32315677 -0.19972187
0.0058601857 0.059012305 0 -0.52287865 -0.32315677 -0.19972187
0.0064152707 0.058106493 0 -0.52287865 -0.32315677 -0.19972187
0.0069703073 0.057200931 0 -0.52287865 -0.32315677 -0.19972187
0.0075252987 0.056295618 0 -0.52287865 -0.32315677 -0.19972187
0.0080802478 0.055390548 0 -0.52287865 -0.32315677 -0.19972187
0.0086351577 0.05448572 0 -0.52287865 -0.32315677 -0.19972187
0.039999999 0.075396508 0.011565095 -0.52287865 -0.32315677 -0.19972187
0.0097448705 0.05267676 0 -0.52287865 -0.32315677 -0.19972187
0.010299679 0.051772621 0 -0.52287865 -0.32315677 -0.19972187
0.01085446 0.050868701 0 -0.52287865 -0.32315677 -0.19972187
0.011409217 0.049964994 0 -0.52287865 -0.32315677 -0.19972187
0.01196395 0.0490615 0 -0.52287865 -0.32315677 -0.19972187
0.012518665 0.048158213 0 -0.52287865 -0.32315677 -0.19972187
0.013073363 0.047255125 0 -0.52287865 -0.32315677 -0.19972187
0.013628049 0.046352234 0 -0.52287865 -0.32315677 -0.19972187
0.014182723 0.045449533 0 -0.52287865 -0.32315677 -0.19972187
0.014737391 0.044547021 0 -0.52287865 -0.32315677 -0.19972187
0.015292053 0.043644693 0 -0.52287865 -0.32315677 -0.19972187
0.015846714 0.042742539 0 -0.52287865 -0.32315677 -0.19972187
0.016401375 0.041840557 0 -0.52287865 -0.32315677 -0.19972187
0.016956041 0.040938742 0 -0.52287865 -0.32315677 -0.19972187
0.017510714 0.040037096 0 -0.52287865 -0.32315677 -0.19972187
0.018065397 0.039135601 0 -0.52287865 -0.32315677 -0.19972187
0.018620091 0.038234264 0 -0.52287865 -0.32315677 -0.19972187
0.019174801 0.037333075 0 -0.52287865 -0.32315677 -0.19972187
0.01972953 0.036432032 0 -0.52287865 -0.32315677 -0.19972187
0.02028428 0.035531126 0 -0.52287865 -0.32315677 -0.19972187
0.020839054 0.034630358 0 -0.52287865 -0.32315677 -0.19972187
0.021393856 0.033729717 0 -0.52287865 -0.32315677 -0.19972187
0.021948688 0.032829203 0 -0.52287865 -0.32315677 -0.19972187
0.022503551 0.031928807 0 -0.52287865 -0.32315677 -0.19972187
0.023058452 0.03102853 0 -0.52287865 -0.32315677 -0.19972187
0.023613391 0.030128364 0 -0.52287865 -0.32315677 -0.19972187
0.02416837 0.029228304 0 -0.52287865 -0.32315677 -0.19972187
0.024723396 0.028328346 0 -0.52287865 -0.32315677 -0.19972187
0.025278468 0.027428484 0 -0.52287865 -0.32315677 -0.19972187
0.025833588 0.026528716 0 -0.52287865 -0.32315677 -0.19972187
0.026388764 0.025629034 0 -0.52287865 -0.32315677 -0.19972187
0.026943995 0.024729438 0 -0.52287865 -0.32315677 -0.19972187
0.027499285 0.023829918 0 -0.52287865 -0.32315677 -0.19972187
0.028054636 0.022930473 0 -0.52287865 -0.32315677 -0.19972187
0.028610053 0.022031097 0 -0.52287865 -0.32315677 -0.19972187
0.029165536 0.021131786 0 -0.52287865 -0.32315677 -0.19972187
0.029721089 0.020232532 0 -0.52287865 -0.32315677 -0.19972187
0.030276716 0.019333335 0 -0.52287865 -0.32315677 -0.19972187
0.030832419 0.018434187 0 -0.52287865 -0.32315677 -0.19972187
0.031388201 0.017535087 0 -0.52287865 -0.32315677 -0.19972187
0.031944066 0.016636027 0 -0.52287865 -0.32315677 -0.19972187
0.032500017 0.015737003 0 -0.52287865 -0.32315677 -0.19972187
0.033056054 0.01483801 0 -0.52287865 -0.32315677 -0.19972187
0.033612181 0.013939044 0 -0.52287865 -0.32315677 -0.19972187
0.034168404 0.013040101 0 -0.52287865 -0.32315677 -0.19972187
0.03472472 0.012141175 0 -0.52287865 -0.32315677 -0.19972187
0.035281137 0.011242262 0 -0.52287865 -0.32315677 -0.19972187
0.035837658 0.010343357 0 -0.52287865 -0.32315677 -0.19972187
0.036394279 0.0094444556 0 -0.52287865 -0.32315677 -0.19972187
0.039999999 0.010352096 0.0010877402 -0.52287865 -0.32315677 -0.19972187
0.037507858 0.007646645 0 -0.52287865 -0.32315677 -0.19972187
0.038064815 0.0067477259 0 -0.52287865 -0.32315677 -0.19972187
0.038621888 0.0058487919 0 -0.52287865 -0.32315677 -0.19972187
0.039179083 0.0049498379 0 -0.52287865 -0.32315677 -0.19972187
0.039736398 0.0040508593 0 -0.52287865 -0.32315677 -0.19972187
0.00018568356 0.079999998 0.00075452705 -0.52287865 -0.32315677 -0.19972187
0 0.078506388 0.00046864015 -0.52287865 -0.32315677 -0.19972187
0 0.077159211 0.00025441771 -0.52287865 -0.32315677 -0.19972187
0 0.075815342 4.0689418e-05 -0.52287865 -0.32315677 -0.19972187
0.00045212597 0.074818581 2.7755576e-17 -0.52287865 -0.32315677 -0.19972187
0.0010106679 0.073903427 0 -0.52287865 -0.32315677 -0.19972187
0.0015691241 0.072988607 0 -0.52287865 -0.32315677 -0.19972187
0.0021274977 0.072074115 0 -0.52287865 -0.32315677 -0.19972187
0.0026857913 0.071159951 0 -0.52287865 -0.32315677 -0.19972187
0.0032440082 0.070246108 0 -0.52287865 -0.32315677 -0.19972187
0.018116744 0.079999998 0.0054282164 -0.52287865 -0.32315677 -0.19972187
0.0043602237 0.06841936 0 -0.52287865 -0.32315677 -0.19972187
0.0049182279 0.067506447 0 -0.52287865 -0.32315677 -0.19972187
0.0054761674 0.066593833 0 -0.52287865 -0.32315677 -0.19972187
0.0060340445 0.065681517 0 -0.52287865 -0.32315677 -0.19972187
0.027379593 0.079999998 0.0078413514 -0.52287865 -0.32315677 -0.19972187
0.0071496251 0.063857749 0 -0.52287865 -0.32315677 -0.19972187
0.0077073341 0.062946282 0 -0.52287865 -0.32315677 -0.19972187
0.0082649933 0.062035099 0 -0.52287865 -0.32315677 -0.19972187
0.008822605 0.061124187 0 -0.52287865 -0.32315677 -0.19972187
0.009380172 0.06021354 0 -0.52287865 -0.32315677 -0.19972187
0.009937698 0.059303153 0 -0.52287865 -0.32315677 -0.19972187
0.010495186 0.058393024 0 -0.52287865 -0.32315677 -0.19972187
0.011052637 0.057483148 0 -0.52287865 -0.32315677 -0.19972187
0.011610056 0.056573514 0 -0.52287865 -0.32315677 -0.19972187
0.012167446 0.055664126 0 -0.52287865 -0.32315677 -0.19972187
0.012724809 0.054754972 0 -0.52287865 -0.32315677 -0.19972187
0.013282149 0.053846054 2.7755576e-17 -0.52287865 -0.32315677 -0.19972187
0.013839467 0.052937362 0 -0.52287865 -0.32315677 -0.19972187
0.014396768 0.052028891 0 -0.52287865 -0.32315677 -0.19972187
0.014954053 0.051120639 0 -0.52287865 -0.32315677 -0.19972187
0.015511326 0.050212599 0 -0.52287865 -0.32315677 -0.19972187
0.016068591 0.049304768 0 -0.52287865 -0.32315677 -0.19972187
0.01662585 0.048397142 0 -0.52287865 -0.32315677 -0.19972187
0.017183105 0.04748971 0 -0.52287865 -0.32315677 -0.19972187
0.017740358 0.046582475 0 -0.52287865 -0.32315677 -0.19972187
0.018297616 0.04567543 0 -0.52287865 -0.32315677 -0.19972187
0.018854879 0.044768568 0 -0.52287865 -0.32315677 -0.19972187
0.019412149 0.043861885 0 -0.52287865 -0.32315677 -0.19972187
0.019969432 0.042955372 0 -0.52287865 -0.32315677 -0.19972187
0.020526728 0.042049035 0 -0.52287865 -0.32315677 -0.19972187
0.021084042 0.041142862 0 -0.52287865 -0.32315677 -0.19972187
0.021641375 0.040236846 0 -0.52287865 -0.32315677 -0.19972187
0.022198733 0.039330989 0 -0.52287865 -0.32315677 -0.19972187
0.039999999 0.049852483 0.0063118795 -0.52287865 -0.32315677 -0.19972187
0.023313528 0.037519716 0 -0.52287865 -0.32315677 -0.19972187
0.023870971 0.036614295 0 -0.52287865 -0.32315677 -0.19972187
0.02442845 0.035709009 0 -0.52287865 -0.32315677 -0.19972187
0.024985965 0.034803856 0 -0.52287865 -0.32315677 -0.19972187
0.025543522 0.03389883 0 -0.52287865 -0.32315677 -0.19972187
0.026101122 0.032993924 0 -0.52287865 -0.32315677 -0.19972187
0.026658768 0.032089137 0 -0.52287865 -0.32315677 -0.19972187
0.027216464 0.031184461 0 -0.52287865 -0.32315677 -0.19972187
0.027774211 0.030279892 0 -0.52287865 -0.32315677 -0.19972187
0.028332015 0.029375426 0 -0.52287865 -0.32315677 -0.19972187
0.028889876 0.02847106 0 -0.52287865 -0.32315677 -0.19972187
0.029447798 0.027566787 0 -0.52287865 -0.32315677 -0.19972187
0.030005785 0.026662603 0 -0.52287865 -0.32315677 -0.19972187
0.030563837 0.025758501 0 -0.52287865 -0.32315677 -0.19972187
0.03112196 0.024854479 0 -0.52287865 -0.32315677 -0.19972187
0.031680156 0.023950532 0 -0.52287865 -0.32315677 -0.19972187
0.032238424 0.023046656 0 -0.52287865 -0.32315677 -0.19972187
0.032796774 0.022142842 0 -0.52287865 -0.32315677 -0.19972187
0.033355206 0.021239091 0 -0.52287865 -0.32315677 -0.19972187
0.03391372 0.020335393 0 -0.52287865 -0.32315677 -0.19972187
0.034472324 0.019431747 0 -0.52287865 -0.32315677 -0.19972187
0.035031017 0.018528147 0 -0.52287865 -0.32315677 -0.19972187
0.035589803 0.017624589 0 -0.52287865 -0.32315677 -0.19972187
0.036148686 0.016721066 0 -0.52287865 -0.32315677 -0.19972187
0.036707666 0.015817575 0 -0.52287865 -0.32315677 -0.19972187
0.03726675 0.01491411 0 -0.52287865 -0.32315677 -0.19972187
0.037825938 0.014010669 0 -0.52287865 -0.32315677 -0.19972187
0.038385235 0.013107245 0 -0.52287865 -0.32315677 -0.19972187
0.038944643 0.012203834 0 -0.52287865 -0.32315677 -0.19972187
0.039504163 0.011300431 0 -0.52287865 -0.32315677 -0.19972187
0.0017248199 0.079788983 0 -0.52287865 -0.32315677 -0.19972187
0.0022860221 0.078867756 0 -0.52287865 -0.32315677 -0.19972187
0.0028471362 0.077946886 0 -0.52287865 -0.32315677 -0.19972187
0.003408165 0.077026375 0 -0.52287865 -0.32315677 -0.19972187
0.0039691115 0.076106213 0 -0.52287865 -0.32315677 -0.19972187
0.0045299786 0.075186387 0 -0.52287865 -0.32315677 -0.19972187
0.0050907694 0.074266903 0 -0.52287865 -0.32315677 -0.19972187
0.005651487 0.073347755 0 -0.52287865 -0.32315677 -0.19972187
0.0062121344 0.072428934 0 -0.52287865 -0.32315677 -0.19972187
0.0067727147 0.071510442 0 -0.52287865 -0.32315677 -0.19972187
0.0073332307 0.070592262 0 -0.52287865 -0.32315677 -0.19972187
0.0078936853 0.069674402 0 -0.52287865 -0.32315677 -0.19972187
0.0084540816 0.068756841 0 -0.52287865 -0.32315677 -0.19972187
0.0090144221 0.067839593 0 -0.52287865 -0.32315677 -0.19972187
0.0095747113 0.066922642 0 -0.52287865 -0.32315677 -0.19972187
0.01013495 0.066005982 0 -0.52287865 -0.32315677 -0.19972187
0.010695144 0.065089613 0 -0.52287865 -0.32315677 -0.19972187
0.011255292 0.064173527 0 -0.52287865 -0.32315677 -0.19972187
0.011815402 0.063257724 0 -0.52287865 -0.32315677 -0.19972187
0.012375473 0.062342193 0 -0.52287865 -0.32315677 -0.19972187
0.012935511 0.06142693 0 -0.52287865 -0.32315677 -0.19972187
0.013495516 0.060511932 0 -0.52287865 -0.32315677 -0.19972187
0.014055493 0.05959719 0 -0.52287865 -0.32315677 -0.19972187
0.014615445 0.058682706 0 -0.52287865 -0.32315677 -0.19972187
0.015175374 0.057768472 0 -0.52287865 -0.32315677 -0.19972187
0.015735283 0.056854483 0 -0.52287865 -0.32315677 -0.19972187
0.016295176 0.055940732 0 -0.52287865 -0.32315677 -0.19972187
0.016855055 0.055027217 0 -0.52287865 -0.32315677 -0.19972187
0.017414924 0.054113932 0 -0.52287865 -0.32315677 -0.19972187
0.017974785 0.053200871 0 -0.52287865 -0.32315677 -0.19972187
0.01853464 0.052288029 0 -0.52287865 -0.32315677 -0.19972187
0.019094493 0.051375404 0 -0.52287865 -0.32315677 -0.19972187
0.019654348 0.050462991 0 -0.52287865 -0.32315677 -0.19972187
0.020214207 0.049550779 0 -0.52287865 -0.32315677 -0.19972187
0.020774074 0.048638772 0 -0.52287865 -0.32315677 -0.19972187
0.02133395 0.047726959 0 -0.52287865 -0.32315677 -0.19972187
0.02189384 0.046815336 0 -0.52287865 -0.32315677 -0.19972187
0.022453744 0.045903903 0 -0.52287865 -0.32315677 -0.19972187
0.023013668 0.044992648 0 -0.52287865 -0.32315677 -0.19972187
0.023573615 0.044081569 0 -0.52287865 -0.32315677 -0.19972187
0.024133584 0.043170664 0 -0.52287865 -0.32315677 -0.19972187
0.024693582 0.042259924 0 -0.52287865 -0.32315677 -0.19972187
0.025253611 0.041349344 0 -0.52287865 -0.32315677 -0.19972187
0.025813675 0.040438924 0 -0.52287865 -0.32315677 -0.19972187
0.026373774 0.039528657 0 -0.52287865 -0.32315677 -0.19972187
0.026933912 0.038618535 0 -0.52287865 -0.32315677 -0.19972187
0.027494093 0.037708554 0 -0.52287865 -0.32315677 -0.19972187
0.028054319 0.036798712 0 -0.52287865 -0.32315677 -0.19972187
0.028614594 0.035889003 0 -0.52287865 -0.32315677 -0.19972187
0.02917492 0.034979425 0 -0.52287865 -0.32315677 -0.19972187
0.029735301 0.034069967 0 -0.52287865 -0.32315677 -0.19972187
0.030295739 0.033160627 0 -0.52287865 -0.32315677 -0.19972187
0.030856237 0.032251403 0 -0.52287865 -0.32315677 -0.19972187
0.0314168 0.031342287 0 -0.52287865 -0.32315677 -0.19972187
0.031977426 0.030433275 0 -0.52287865 -0.32315677 -0.19972187
0.032538123 0.029524362 0 -0.52287865 -0.32315677 -0.19972187
0.033098891 0.028615542 0 -0.52287865 -0.32315677 -0.19972187
0.033659738 0.027706813 0 -0.52287865 -0.32315677 -0.19972187
0.034220658 0.026798168 0 -0.52287865 -0.32315677 -0.19972187
0.034781661 0.025889602 0 -0.52287865 -0.32315677 -0.19972187
0.035342745 0.024981113 0 -0.52287865 -0.32315677 -0.19972187
0.035903919 0.024072694 0 -0.52287865 -0.32315677 -0.19972187
0.036465183 0.023164339 0 -0.52287865 -0.32315677 -0.19972187
0.037026539 0.022256045 0 -0.52287865 -0.32315677 -0.19972187
0.037587993 0.021347808 0 -0.52287865 -0.32315677 -0.19972187
0.038149543 0.020439621 0 -0.52287865 -0.32315677 -0.19972187
0.038711194 0.019531481 0 -0.52287865 -0.32315677 -0.19972187
0.039272953 0.018623382 0 -0.52287865 -0.32315677 -0.19972187
0.039834816 0.01771532 0 -0.52287865 -0.32315677 -0.19972187
0.0063947481 0.079256982 0 -0.52287865 -0.32315677 -0.19972187
0.0069581191 0.078331754 0 -0.52287865 -0.32315677 -0.19972187
0.0075214179 0.077406876 0 -0.52287865 -0.32315677 -0.19972187
0.0080846464 0.076482341 0 -0.52287865 -0.32315677 -0.19972187
0.0086478088 0.075558156 0 -0.52287865 -0.32315677 -0.19972187
0.0092109079 0.074634306 0 -0.52287865 -0.32315677 -0.19972187
0.0097739454 0.073710784 0 -0.52287865 -0.32315677 -0.19972187
0.010336926 0.072787598 0 -0.52287865 -0.32315677 -0.19972187
0.010899852 0.071864732 0 -0.52287865 -0.32315677 -0.19972187
0.011462727 0.070942178 0 -0.52287865 -0.32315677 -0.19972187
0.012025553 0.070019938 0 -0.52287865 -0.32315677 -0.19972187
0.012588333 0.069098011 0 -0.52287865 -0.32315677 -0.19972187
0.013151071 0.068176381 0 -0.52287865 -0.32315677 -0.19972187
0.01371377 0.06725505 0 -0.52287865 -0.32315677 -0.19972187
0.014276432 0.066334009 0 -0.52287865 -0.32315677 -0.19972187
0.014839061 0.065413259 0 -0.52287865 -0.32315677 -0.19972187
0.01540166 0.064492792 0 -0.52287865 -0.32315677 -0.19972187
0.015964231 0.0635726 0 -0.52287865 -0.32315677 -0.19972187
0.016526777 0.062652677 0 -0.52287865 -0.32315677 -0.19972187
0.017089302 0.06173303 0 -0.52287865 -0.32315677 -0.19972187
0.017651809 0.060813639 0 -0.52287865 -0.32315677 -0.19972187
0.0182143 0.059894506 0 -0.52287865 -0.32315677 -0.19972187
0.01877678 0.058975626 0 -0.52287865 -0.32315677 -0.19972187
0.019339249 0.058056992 0 -0.52287865 -0.32315677 -0.19972187
0.019901711 0.057138603 0 -0.52287865 -0.32315677 -0.19972187
0.020464173 0.05622045 0 -0.52287865 -0.32315677 -0.19972187
0.021026632 0.055302527 0 -0.52287865 -0.32315677 -0.19972187
0.021589093 0.054384835 0 -0.52287865 -0.32315677 -0.19972187
0.022151561 0.053467367 0 -0.52287865 -0.32315677 -0.19972187
0.022714037 0.052550111 0 -0.52287865 -0.32315677 -0.19972187
0.023276525 0.051633071 0 -0.52287865 -0.32315677 -0.19972187
0.023839027 0.05071624 0 -0.52287865 -0.32315677 -0.19972187
0.024401547 0.04979961 0 -0.52287865 -0.32315677 -0.19972187
0.024964087 0.048883181 0 -0.52287865 -0.32315677 -0.19972187
0.025526652 0.047966942 0 -0.52287865 -0.32315677 -0.19972187
0.026089242 0.047050893 0 -0.52287865 -0.32315677 -0.19972187
0.026651861 0.046135027 0 -0.52287865 -0.32315677 -0.19972187
0.027214514 0.045219336 0 -0.52287865 -0.32315677 -0.19972187
0.027777202 0.044303823 0 -0.52287865 -0.32315677 -0.19972187
0.02833993 0.043388475 0 -0.52287865 -0.32315677 -0.19972187
0.028902696 0.04247329 0 -0.52287865 -0.32315677 -0.19972187
0.02946551 0.041558266 0 -0.52287865 -0.32315677 -0.19972187
0.030028369 0.040643398 0 -0.52287865 -0.32315677 -0.19972187
0.030591279 0.039728675 0 -0.52287865 -0.32315677 -0.19972187
0.031154243 0.038814098 0 -0.52287865 -0.32315677 -0.19972187
0.031717263 0.037899658 0 -0.52287865 -0.32315677 -0.19972187
0.032280345 0.036985353 0 -0.52287865 -0.32315677 -0.19972187
0.039999999 0.040697265 0.0025719907 -0.52287865 -0.32315677 -0.19972187
0.033406693 0.035157129 0 -0.52287865 -0.32315677 -0.19972187
0.033969969 0.034243196 0 -0.52287865 -0.32315677 -0.19972187
0.034533318 0.033329379 0 -0.52287865 -0.32315677 -0.19972187
0.035096738 0.032415673 2.7755576e-17 -0.52287865 -0.32315677 -0.19972187
0.035660237 0.031502072 0 -0.52287865 -0.32315677 -0.19972187
0.036223818 0.030588571 0 -0.52287865 -0.32315677 -0.19972187
0.03678748 0.029675163 0 -0.52287865 -0.32315677 -0.19972187
0.037351232 0.028761849 0 -0.52287865 -0.32315677 -0.19972187
0.03791507 0.027848618 0 -0.52287865 -0.32315677 -0.19972187
0.039999999 0.027884042 0.00054114661 -0.52287865 -0.32315677 -0.19972187
0.039043028 0.026022393 0 -0.52287865 -0.32315677 -0.19972187
0.039607152 0.02510939 0 -0.52287865 -0.32315677 -0.19972187
0.010543933 0.079650424 0 -0.52287865 -0.32315677 -0.19972187
0.01110962 0.078720786 2.7755576e-17 -0.52287865 -0.32315677 -0.19972187
0.011675248 0.077791505 0 -0.52287865 -0.32315677 -0.19972187
0.012240819 0.076862574 0 -0.52287865 -0.32315677 -0.19972187
0.012806336 0.075933978 0 -0.52287865 -0.32315677 -0.19972187
0.013371803 0.075005718 0 -0.52287865 -0.32315677 -0.19972187
0.013937222 0.074077792 0 -0.52287865 -0.32315677 -0.19972187
0.014502596 0.073150195 0 -0.52287865 -0.32315677 -0.19972187
0.015067928 0.072222911 0 -0.52287865 -0.32315677 -0.19972187
0.015633224 0.071295947 0 -0.52287865 -0.32315677 -0.19972187
0.016198482 0.070369296 0 -0.52287865 -0.32315677 -0.19972187
0.016763709 0.06944295 0 -0.52287865 -0.32315677 -0.19972187
0.017328907 0.068516903 0 -0.52287865 -0.32315677 -0.19972187
0.017894076 0.067591153 0 -0.52287865 -0.32315677 -0.19972187
0.018459225 0.066665694 0 -0.52287865 -0.32315677 -0.19972187
0.019024352 0.065740518 0 -0.52287865 -0.32315677 -0.19972187
0.019589463 0.064815626 0 -0.52287865 -0.32315677 -0.19972187
0.020154558 0.063891001 0 -0.52287865 -0.32315677 -0.19972187
0.020719644 0.062966652 0 -0.52287865 -0.32315677 -0.19972187
0.021284722 0.062042572 0 -0.52287865 -0.32315677 -0.19972187
0.021849794 0.061118748 0 -0.52287865 -0.32315677 -0.19972187
0.022414863 0.060195182 0 -0.52287865 -0.32315677 -0.19972187
0.022979936 0.059271865 0 -0.52287865 -0.32315677 -0.19972187
0.02354501 0.05834879 0 -0.52287865 -0.32315677 -0.19972187
0.024110092 0.057425957 0 -0.52287865 -0.32315677 -0.19972187
0.024675185 0.056503359 0 -0.52287865 -0.32315677 -0.19972187
0.025240291 0.055580992 0 -0.52287865 -0.32315677 -0.19972187
0.039999999 0.064433031 0.0051668524 -0.52287865 -0.32315677 -0.19972187
0.039999999 0.06308943 0.0049560354 -0.52287865 -0.32315677 -0.19972187
0.026935717 0.052815221 0 -0.52287865 -0.32315677 -0.19972187
0.027500907 0.051893726 0 -0.52287865 -0.32315677 -0.19972187
0.028066123 0.050972432 0 -0.52287865 -0.32315677 -0.19972187
0.039999999 0.057744518 0.0041169943 -0.52287865 -0.32315677 -0.19972187
0.029196654 0.049130443 0 -0.52287865 -0.32315677 -0.19972187
0.029761974 0.048209738 0 -0.52287865 -0.32315677 -0.19972187
0.030327335 0.047289215 0 -0.52287865 -0.32315677 -0.19972187
0.030892739 0.046368875 2.7755576e-17 -0.52287865 -0.32315677 -0.19972187
0.031458188 0.045448709 0 -0.52287865 -0.32315677 -0.19972187
0.032023691 0.044528712 0 -0.52287865 -0.32315677 -0.19972187
0.032589242 0.043608882 0 -0.52287865 -0.32315677 -0.19972187
0.033154849 0.042689212 0 -0.52287865 -0.32315677 -0.19972187
0.033720516 0.041769698 0 -0.52287865 -0.32315677 -0.19972187
0.034286246 0.040850334 0 -0.52287865 -0.32315677 -0.19972187
0.034852039 0.039931115 0 -0.52287865 -0.32315677 -0.19972187
0.035417899 0.039012037 0 -0.52287865 -0.32315677 -0.19972187
0.035983831 0.038093094 0 -0.52287865 -0.32315677 -0.19972187
0.036549833 0.037174281 0 -0.52287865 -0.32315677 -0.19972187
0.037115917 0.036255594 0 -0.52287865 -0.32315677 -0.19972187
0.037682075 0.035337031 0 -0.52287865 -0.32315677 -0.19972187
0.038248319 0.034418579 0 -0.52287865 -0.32315677 -0.19972187
0.038814653 0.033500243 0 -0.52287865 -0.32315677 -0.19972187
0.039381068 0.032582007 0 -0.52287865 -0.32315677 -0.19972187
0.039947581 0.031663876 0 -0.52287865 -0.32315677 -0.19972187
0.015302371 0.079114109 0 -0.52287865 -0.32315677 -0.19972187
0.015870389 0.07818038 0 -0.52287865 -0.32315677 -0.19972187
0.016438363 0.077247001 0 -0.52287865 -0.32315677 -0.19972187
0.017006297 0.076313958 0 -0.52287865 -0.32315677 -0.19972187
0.017574193 0.075381249 0 -0.52287865 -0.32315677 -0.19972187
0.018142054 0.074448876 0 -0.52287865 -0.32315677 -0.19972187
0.02756153 0.079999998 0.0032642256 -0.52287865 -0.32315677 -0.19972187
0.019277686 0.072585091 0 -0.52287865 -0.32315677 -0.19972187
0.019845463 0.071653672 0 -0.52287865 -0.32315677 -0.19972187
0.033209916 0.079999998 0.00470425 -0.52287865 -0.32315677 -0.19972187
0.020980954 0.069791757 0 -0.52287865 -0.32315677 -0.19972187
0.021548675 0.068861254 0 -0.52287865 -0.32315677 -0.19972187
0.022116382 0.067931041 2.7755576e-17 -0.52287865 -0.32315677 -0.19972187
0.022684081 0.067001119 0 -0.52287865 -0.32315677 -0.19972187
0.02325177 0.066071481 0 -0.52287865 -0.32315677 -0.19972187
0.023819458 0.065142117 0 -0.52287865 -0.32315677 -0.19972187
0.024387144 0.06421303 0 -0.52287865 -0.32315677 -0.19972187
0.024954833 0.063284211 0 -0.52287865 -0.32315677 -0.19972187
0.025522528 0.062355652 0 -0.52287865 -0.32315677 -0.19972187
0.026090231 0.061427355 0 -0.52287865 -0.32315677 -0.19972187
0.026657946 0.060499307 0 -0.52287865 -0.32315677 -0.19972187
0.027225677 0.059571508 0 -0.52287865 -0.32315677 -0.19972187
0.027793424 0.058643956 0 -0.52287865 -0.32315677 -0.19972187
0.028361194 0.057716638 0 -0.52287865 -0.32315677 -0.19972187
0.028928986 0.056789551 0 -0.52287865 -0.32315677 -0.19972187
0.029496806 0.055862695 0 -0.52287865 -0.32315677 -0.19972187
0.030064655 0.054936059 0 -0.52287865 -0.32315677 -0.19972187
0.030632539 0.054009642 0 -0.52287865 -0.32315677 -0.19972187
0.031200457 0.053083438 0 -0.52287865 -0.32315677 -0.19972187
0.031768415 0.052157439 0 -0.52287865 -0.32315677 -0.19972187
0.032336418 0.051231645 0 -0.52287865 -0.32315677 -0.19972187
0.032904465 0.050306048 0 -0.52287865 -0.32315677 -0.19972187
0.039999999 0.053751472 0.0023432551 -0.52287865 -0.32315677 -0.19972187
0.034040704 0.048455425 0 -0.52287865 -0.32315677 -0.19972187
0.034608904 0.047530387 0 -0.52287865 -0.32315677 -0.19972187
0.035177164 0.046605527 0 -0.52287865 -0.32315677 -0.19972187
0.035745483 0.04568084 0 -0.52287865 -0.32315677 -0.19972187
0.036313865 0.044756319 0 -0.52287865 -0.32315677 -0.19972187
0.036882315 0.043831959 0 -0.52287865 -0.32315677 -0.19972187
0.037450835 0.04290776 0 -0.52287865 -0.32315677 -0.19972187
0.03801943 0.041983709 0 -0.52287865 -0.32315677 -0.19972187
0.038588099 0.041059807 0 -0.52287865 -0.32315677 -0.19972187
0.039156847 0.040136047 0 -0.52287865 -0.32315677 -0.19972187
0.039725676 0.039212424 0 -0.52287865 -0.32315677 -0.19972187
0.019537121 0.079511814 0 -0.52287865 -0.32315677 -0.19972187
0.020107592 0.078573599 0 -0.52287865 -0.32315677 -0.19972187
0.020678032 0.077635728 0 -0.52287865 -0.32315677 -0.19972187
0.021248445 0.076698199 0 -0.52287865 -0.32315677 -0.19972187
0.021818833 0.075760998 0 -0.52287865 -0.32315677 -0.19972187
0.022389201 0.074824132 0 -0.52287865 -0.32315677 -0.19972187
0.022959551 0.073887587 0 -0.52287865 -0.32315677 -0.19972187
0.023529887 0.072951362 0 -0.52287865 -0.32315677 -0.19972187
0.024100211 0.072015449 2.7755576e-17 -0.52287865 -0.32315677 -0.19972187
0.024670526 0.071079843 0 -0.52287865 -0.32315677 -0.19972187
0.025240837 0.070144534 0 -0.52287865 -0.32315677 -0.19972187
0.025811145 0.069209523 0 -0.52287865 -0.32315677 -0.19972187
0.026381455 0.068274811 0 -0.52287865 -0.32315677 -0.19972187
0.026951768 0.067340381 0 -0.52287865 -0.32315677 -0.19972187
0.027522087 0.066406235 0 -0.52287865 -0.32315677 -0.19972187
0.028092418 0.065472364 0 -0.52287865 -0.32315677 -0.19972187
0.028662762 0.064538762 0 -0.52287865 -0.32315677 -0.19972187
0.029233122 0.063605428 0 -0.52287865 -0.32315677 -0.19972187
0.029803501 0.062672354 0 -0.52287865 -0.32315677 -0.19972187
0.030373903 0.061739542 0 -0.52287865 -0.32315677 -0.19972187
0.030944332 0.060806975 0 -0.52287865 -0.32315677 -0.19972187
0.03151479 0.059874654 2.7755576e-17 -0.52287865 -0.32315677 -0.19972187
0.032085277 0.058942571 0 -0.52287865 -0.32315677 -0.19972187
0.032655802 0.058010727 0 -0.52287865 -0.32315677 -0.19972187
0.033226363 0.05707911 0 -0.52287865 -0.32315677 -0.19972187
0.033796966 0.056147721 0 -0.52287865 -0.32315677 -0.19972187
0.034367613 0.055216551 0 -0.52287865 -0.32315677 -0.19972187
0.034938309 0.054285593 0 -0.52287865 -0.32315677 -0.19972187
0.035509054 0.053354848 0 -0.52287865 -0.32315677 -0.19972187
0.036079854 0.052424304 0 -0.52287865 -0.32315677 -0.19972187
0.03665071 0.051493961 0 -0.52287865 -0.32315677 -0.19972187
0.037221625 0.050563812 0 -0.52287865 -0.32315677 -0.19972187
0.037792601 0.049633853 0 -0.52287865 -0.32315677 -0.19972187
0.038363647 0.04870408 0 -0.52287865 -0.32315677 -0.19972187
0.03893476 0.047774483 0 -0.52287865 -0.32315677 -0.19972187
0.039505947 0.04684506 0 -0.52287865 -0.32315677 -0.19972187
0.023814637 0.079914004 0 -0.52287865 -0.32315677 -0.19972187
0.024387624 0.078971267 0 -0.52287865 -0.32315677 -0.19972187
0.024960594 0.078028865 0 -0.52287865 -0.32315677 -0.19972187
0.025533551 0.077086806 0 -0.52287865 -0.32315677 -0.19972187
0.026106499 0.076145075 0 -0.52287865 -0.32315677 -0.19972187
0.026679438 0.075203672 0 -0.52287865 -0.32315677 -0.19972187
0.027252374 0.074262589 0 -0.52287865 -0.32315677 -0.19972187
0.027825309 0.073321827 0 -0.52287865 -0.32315677 -0.19972187
0.028398246 0.072381377 0 -0.52287865 -0.32315677 -0.19972187
0.028971188 0.071441226 0 -0.52287865 -0.32315677 -0.19972187
0.029544139 0.07050138 0 -0.52287865 -0.32315677 -0.19972187
0.030117102 0.069561824 0 -0.52287865 -0.32315677 -0.19972187
0.030690081 0.068622567 0 -0.52287865 -0.32315677 -0.19972187
0.031263076 0.067683585 2.7755576e-17 -0.52287865 -0.32315677 -0.19972187
0.031836096 0.066744886 0 -0.52287865 -0.32315677 -0.19972187
0.032409135 0.065806463 0 -0.52287865 -0.32315677 -0.19972187
0.032982204 0.064868309 0 -0.52287865 -0.32315677 -0.19972187
0.033555306 0.063930415 0 -0.52287865 -0.32315677 -0.19972187
0.034128439 0.062992781 0 -0.52287865 -0.32315677 -0.19972187
0.034701608 0.062055405 0 -0.52287865 -0.32315677 -0.19972187
0.035274819 0.061118275 0 -0.52287865 -0.32315677 -0.19972187
0.035848074 0.060181387 0 -0.52287865 -0.32315677 -0.19972187
0.036421373 0.059244733 0 -0.52287865 -0.32315677 -0.19972187
0.036994722 0.058308318 0 -0.52287865 -0.32315677 -0.19972187
0.037568126 0.057372127 0 -0.52287865 -0.32315677 -0.19972187
0.038141582 0.056436159 0 -0.52287865 -0.32315677 -0.19972187
0.038715098 0.055500407 0 -0.52287865 -0.32315677 -0.19972187
0.039288677 0.054564867 2.7755576e-17 -0.52287865 -0.32315677 -0.19972187
0.03986232 0.053629532 2.7755576e-17 -0.52287865 -0.32315677 -0.19972187
0.028711276 0.079373494 0 -0.52287865 -0.32315677 -0.19972187
0.029286843 0.078426525 0 -0.52287865 -0.32315677 -0.19972187
0.029862409 0.077479884 0 -0.52287865 -0.32315677 -0.19972187
0.03043798 0.076533578 0 -0.52287865 -0.32315677 -0.19972187
0.031013558 0.0755876 0 -0.52287865 -0.32315677 -0.19972187
0.031589147 0.074641943 0 -0.52287865 -0.32315677 -0.19972187
0.032164749 0.073696598 0 -0.52287865 -0.32315677 -0.19972187
0.032740366 0.072751559 0 -0.52287865 -0.32315677 -0.19972187
0.033316005 0.071806826 0 -0.52287865 -0.32315677 -0.19972187
0.033891663 0.07086239 0 -0.52287865 -0.32315677 -0.19972187
0.034467351 0.069918253 0 -0.52287865 -0.32315677 -0.19972187
0.035043068 0.068974398 0 -0.52287865 -0.32315677 -0.19972187
0.035618816 0.068030827 0 -0.52287865 -0.32315677 -0.19972187
0.0361946 0.067087531 0 -0.52287865 -0.32315677 -0.19972187
0.036770422 0.066144511 0 -0.52287865 -0.32315677 -0.19972187
0.037346289 0.065201759 0 -0.52287865 -0.32315677 -0.19972187
0.0379222 0.064259261 0 -0.52287865 -0.32315677 -0.19972187
0.038498156 0.063317031 0 -0.52287865 -0.32315677 -0.19972187
0.039074168 0.062375043 0 -0.52287865 -0.32315677 -0.19972187
0.039650232 0.0614333 0 -0.52287865 -0.32315677 -0.19972187
0.033079352 0.079780392 0 -0.52287865 -0.32315677 -0.19972187
0.033657581 0.078828804 0 -0.52287865 -0.32315677 -0.19972187
