# .PCD v0.7 - Point Cloud Data file format
VERSION 0.7
FIELDS x y z vp_x vp_y vp_z
SIZE 4 4 4 4 4 4
TYPE F F F F F F
COUNT 1 1 1 1 1 1
WIDTH 706
HEIGHT 1
VIEWPOINT 0 0 0 1 0 0 0
POINTS 706
DATA ascii
0.039999999 0.011023011 0.027154503 0.52287865 0.32315677 0.19972187
0.039999999 0.0121319 0.0273291 0.52287865 0.32315677 0.19972187
0.039999999 0.013238481 0.027503366 0.52287865 0.32315677 0.19972187
0.039999999 0.014342767 0.027677305 0.52287865 0.32315677 0.19972187
0.039999999 0.01544477 0.027850918 0.52287865 0.32315677 0.19972187
0.039999999 0.016544504 0.02802421 0.52287865 0.32315677 0.19972187
0.039999999 0.017641978 0.028197177 0.52287865 0.32315677 0.19972187
0.010278528 0 0.017823001 0.52287865 0.32315677 0.19972187
0.039999999 0.019830203 0.028542154 0.52287865 0.32315677 0.19972187
0.039999999 0.020920977 0.028714165 0.52287865 0.32315677 0.19972187
0.039999999 0.02200954 0.028885864 0.52287865 0.32315677 0.19972187
0.039999999 0.023095906 0.029057249 0.52287865 0.32315677 0.19972187
0.00094663043 0 0.015439459 0.52287865 0.32315677 0.19972187
0 0.00058552384 0.015290135 0.52287865 0.32315677 0.19972187
0.039999999 0.026341934 0.029569542 0.52287865 0.32315677 0.19972187
0.039999999 0.027419625 0.029739693 0.52287865 0.32315677 0.19972187
0.039999999 0.028495176 0.02990954 0.52287865 0.32315677 0.19972187
0.039999999 0.0295686 0.030079084 0.52287865 0.32315677 0.19972187
0.039999999 0.030639907 0.030248325 0.52287865 0.32315677 0.19972187
0.039999999 0.031709109 0.030417269 0.52287865 0.32315677 0.19972187
1.110223e-16 0.0087220939 0.016575275 0.52287865 0.32315677 0.19972187
0.039999999 0.033841241 0.030754264 0.52287865 0.32315677 0.19972187
0.039999999 0.034904197 0.030922322 0.52287865 0.32315677 0.19972187
0.039999999 0.035965089 0.031090084 0.52287865 0.32315677 0.19972187
0.039999999 0.037023932 0.031257555 0.52287865 0.32315677 0.19972187
0.039999999 0.038080737 0.031424738 0.52287865 0.32315677 0.19972187
1.110223e-16 0.015608174 0.017664308 0.52287865 0.32315677 0.19972187
0.039999999 0.040188275 0.031758245 0.52287865 0.32315677 0.19972187
0.039999999 0.041239031 0.031924572 0.52287865 0.32315677 0.19972187
0.039999999 0.042287789 0.032090615 0.52287865 0.32315677 0.19972187
0.039999999 0.043334562 0.032256376 0.52287865 0.32315677 0.19972187
0.039999999 0.044379365 0.032421857 0.52287865 0.32315677 0.19972187
0.039999999 0.045422204 0.032587063 0.52287865 0.32315677 0.19972187
0.039999999 0.046463087 0.032751989 0.52287865 0.32315677 0.19972187
0 0.024667742 0.019099072 0.52287865 0.32315677 0.19972187
0.039999999 0.048539039 0.033081021 0.52287865 0.32315677 0.19972187
0 0.026911486 0.01945477 0.52287865 0.32315677 0.19972187
0.039999999 0.050607305 0.033408966 0.52287865 0.32315677 0.19972187
0.039999999 0.051638581 0.033572536 0.52287865 0.32315677 0.19972187
0.039999999 0.052667964 0.033735838 0.52287865 0.32315677 0.19972187
0.039999999 0.053695466 0.033898871 0.52287865 0.32315677 0.19972187
1.110223e-16 0.032484818 0.020338923 0.52287865 0.32315677 0.19972187
0.039999999 0.055744871 0.034224153 0.52287865 0.32315677 0.19972187
0.039999999 0.056766793 0.0343864 0.52287865 0.32315677 0.19972187
0.039999999 0.057786871 0.034548391 0.52287865 0.32315677 0.19972187
0 0.03690714 0.021041116 0.52287865 0.32315677 0.19972187
0.039999999 0.059821546 0.034871593 0.52287865 0.32315677 0.19972187
0.039999999 0.060836159 0.035032813 0.52287865 0.32315677 0.19972187
0.039999999 0.061848972 0.035193775 0.52287865 0.32315677 0.19972187
0 0.041297905 0.021738861 0.52287865 0.32315677 0.19972187
0.039999999 0.06386923 0.035514947 0.52287865 0.32315677 0.19972187
0.039999999 0.064876691 0.035675161 0.52287865 0.32315677 0.19972187
0.039999999 0.065882392 0.035835121 0.52287865 0.32315677 0.19972187
0.039999999 0.066886336 0.035994839 0.52287865 0.32315677 0.19972187
0.039999999 0.067888536 0.036154311 0.52287865 0.32315677 0.19972187
0 0.047826331 0.022777354 0.52287865 0.32315677 0.19972187
0.039999999 0.069887735 0.036472522 0.52287865 0.32315677 0.19972187
0.039999999 0.070884749 0.036631264 0.52287865 0.32315677 0.19972187
0.039999999 0.071880065 0.036789767 0.52287865 0.32315677 0.19972187
0 0.052141085 0.023464411 0.52287865 0.32315677 0.19972187
0.039999999 0.073865592 0.037106063 0.52287865 0.32315677 0.19972187
0.039999999 0.074855834 0.037263855 0.52287865 0.32315677 0.19972187
0.039999999 0.0758444 0.037421413 0.52287865 0.32315677 0.19972187
1.110223e-16 0.056426559 0.024147362 0.52287865 0.32315677 0.19972187
0.039999999 0.077816561 0.037735831 0.52287865 0.32315677 0.19972187
0.039999999 0.078800164 0.037892696 0.52287865 0.32315677 0.19972187
0.039999999 0.079782136 0.038049329 0.52287865 0.32315677 0.19972187
0.038481053 0.079999998 0.037697669 0.52287865 0.32315677 0.19972187
0.036517259 0.079999998 0.037198115 0.52287865 0.32315677 0.19972187
0.034540746 0.079999998 0.036695357 0.52287865 0.32315677 0.19972187
0.032551385 0.079999998 0.036189362 0.52287865 0.32315677 0.19972187
0.030549036 0.079999998 0.0356801 0.52287865 0.32315677 0.19972187
0.028533567 0.079999998 0.03516753 0.52287865 0.32315677 0.19972187
0.026504833 0.079999998 0.034651622 0.52287865 0.32315677 0.19972187
0.024462698 0.079999998 0.034132335 0.52287865 0.32315677 0.19972187
0.022407018 0.079999998 0.03360964 0.52287865 0.32315677 0.19972187
0.020337645 0.079999998 0.033083495 0.52287865 0.32315677 0.19972187
0.018254433 0.079999998 0.032553867 0.52287865 0.32315677 0.19972187
0.016157234 0.079999998 0.032020714 0.52287865 0.32315677 0.19972187
0.014045897 0.079999998 0.031483997 0.52287865 0.32315677 0.19972187
0.011920266 0.079999998 0.030943684 0.52287865 0.32315677 0.19972187
0.0097801853 0.079999998 0.030399732 0.52287865 0.32315677 0.19972187
0.0076254988 0.079999998 0.0298521 0.52287865 0.32315677 0.19972187
0.0054560448 0.079999998 0.029300747 0.52287865 0.32315677 0.19972187
1.110223e-16 0.078468986 0.027669098 0.52287865 0.32315677 0.19972187
0.0010721803 0.079999998 0.028186722 0.52287865 0.32315677 0.19972187
0.039999999 0.00092488393 0.024582669 0.52287865 0.32315677 0.19972187
0.036908586 0 0.023641359 0.52287865 0.32315677 0.19972187
0.039999999 0.0031841013 0.024939908 0.52287865 0.32315677 0.19972187
0.039999999 0.004310085 0.025118003 0.52287865 0.32315677 0.19972187
0.039999999 0.0054336688 0.025295749 0.52287865 0.32315677 0.19972187
0.039999999 0.0065548671 0.025473151 0.52287865 0.32315677 0.19972187
0.039999999 0.0076736915 0.025650209 0.52287865 0.32315677 0.19972187
0.039999999 0.0087901549 0.025826925 0.52287865 0.32315677 0.19972187
0.039999999 0.009904271 0.026003301 0.52287865 0.32315677 0.19972187
0.039999999 0.011016052 0.026179338 0.52287865 0.32315677 0.19972187
0.039999999 0.012125511 0.026355041 0.52287865 0.32315677 0.19972187
0.039999999 0.01323266 0.026530409 0.52287865 0.32315677 0.19972187
0.017581455 0 0.018672833 0.52287865 0.32315677 0.19972187
0.039999999 0.015440078 0.026880149 0.52287865 0.32315677 0.19972187
0.039999999 0.016540371 0.027054526 0.52287865 0.32315677 0.19972187
0.012122104 0 0.01727007 0.52287865 0.32315677 0.19972187
0.039999999 0.018734191 0.027402302 0.52287865 0.32315677 0.19972187
0.039999999 0.019827738 0.027575703 0.52287865 0.32315677 0.19972187
0.039999999 0.020919064 0.027748784 0.52287865 0.32315677 0.19972187
0.039999999 0.022008177 0.027921546 0.52287865 0.32315677 0.19972187
0.039999999 0.02309509 0.02809399 0.52287865 0.32315677 0.19972187
0.039999999 0.024179814 0.028266119 0.52287865 0.32315677 0.19972187
0.039999999 0.025262361 0.028437931 0.52287865 0.32315677 0.19972187
0.039999999 0.026342744 0.028609434 0.52287865 0.32315677 0.19972187
0.039999999 0.027420973 0.028780624 0.52287865 0.32315677 0.19972187
0.039999999 0.028497063 0.028951507 0.52287865 0.32315677 0.19972187
0.039999999 0.029571021 0.029122083 0.52287865 0.32315677 0.19972187
0.039999999 0.03064286 0.029292352 0.52287865 0.32315677 0.19972187
0 0.0075703613 0.015358604 0.52287865 0.32315677 0.19972187
0.039999999 0.032780226 0.029631982 0.52287865 0.32315677 0.19972187
0.039999999 0.033845779 0.029801346 0.52287865 0.32315677 0.19972187
0.039999999 0.034909256 0.029970411 0.52287865 0.32315677 0.19972187
0.039999999 0.035970669 0.03013918 0.52287865 0.32315677 0.19972187
0.039999999 0.037030034 0.030307654 0.52287865 0.32315677 0.19972187
0.039999999 0.038087357 0.030475834 0.52287865 0.32315677 0.19972187
0.039999999 0.03914265 0.030643722 0.52287865 0.32315677 0.19972187
0 0.016756423 0.016819352 0.52287865 0.32315677 0.19972187
0 0.017894773 0.017000521 0.52287865 0.32315677 0.19972187
0.039999999 0.042296458 0.031145651 0.52287865 0.32315677 0.19972187
0.039999999 0.043343741 0.031312387 0.52287865 0.32315677 0.19972187
0.039999999 0.044389047 0.031478841 0.52287865 0.32315677 0.19972187
0.039999999 0.045432389 0.031645011 0.52287865 0.32315677 0.19972187
0.039999999 0.046473779 0.031810898 0.52287865 0.32315677 0.19972187
0.039999999 0.04751322 0.03197651 0.52287865 0.32315677 0.19972187
0.039999999 0.048550729 0.032141846 0.52287865 0.32315677 0.19972187
0.039999999 0.049586315 0.032306902 0.52287865 0.32315677 0.19972187
0.039999999 0.050619986 0.032471687 0.52287865 0.32315677 0.19972187
0.039999999 0.051651753 0.032636195 0.52287865 0.32315677 0.19972187
0.039999999 0.052681629 0.032800436 0.52287865 0.32315677 0.19972187
1.110223e-16 0.031389549 0.01915079 0.52287865 0.32315677 0.19972187
0.039999999 0.054735743 0.033128105 0.52287865 0.32315677 0.19972187
0 0.033609774 0.019505024 0.52287865 0.32315677 0.19972187
0.039999999 0.056782406 0.033454709 0.52287865 0.32315677 0.19972187
0.039999999 0.057802964 0.033617612 0.52287865 0.32315677 0.19972187
0.039999999 0.058821693 0.033780258 0.52287865 0.32315677 0.19972187
0.039999999 0.0598386 0.03394264 0.52287865 0.32315677 0.19972187
0 0.039125409 0.020385612 0.52287865 0.32315677 0.19972187
0.039999999 0.06186698 0.034266628 0.52287865 0.32315677 0.19972187
0.039999999 0.062878475 0.034428239 0.52287865 0.32315677 0.19972187
0.039999999 0.063888177 0.034589592 0.52287865 0.32315677 0.19972187
0.039999999 0.064896114 0.034750693 0.52287865 0.32315677 0.19972187
0.039999999 0.065902285 0.034911539 0.52287865 0.32315677 0.19972187
0.039999999 0.066906691 0.03507214 0.52287865 0.32315677 0.19972187
0.039999999 0.06790936 0.035232488 0.52287865 0.32315677 0.19972187
0.039999999 0.068910286 0.03539259 0.52287865 0.32315677 0.19972187
0.039999999 0.069909483 0.035552446 0.52287865 0.32315677 0.19972187
0.039999999 0.070906967 0.035712052 0.52287865 0.32315677 0.19972187
0.039999999 0.071902737 0.03587142 0.52287865 0.32315677 0.19972187
0.039999999 0.072896808 0.036030546 0.52287865 0.32315677 0.19972187
0.039999999 0.073889181 0.036189429 0.52287865 0.32315677 0.19972187
0 0.054313477 0.022814749 0.52287865 0.32315677 0.19972187
0 0.055384427 0.022986278 0.52287865 0.32315677 0.19972187
0.039999999 0.076856256 0.036664646 0.52287865 0.32315677 0.19972187
0.039999999 0.07784196 0.03682258 0.52287865 0.32315677 0.19972187
0.039999999 0.07882601 0.036980279 0.52287865 0.32315677 0.19972187
0 0.059650294 0.023669839 0.52287865 0.32315677 0.19972187
0.038427606 0.079999998 0.036766075 0.52287865 0.32315677 0.19972187
0.036462478 0.079999998 0.036263216 0.52287865 0.32315677 0.19972187
0.034484621 0.079999998 0.035757132 0.52287865 0.32315677 0.19972187
0.032493897 0.079999998 0.035247784 0.52287865 0.32315677 0.19972187
0.030490169 0.079999998 0.034735139 0.52287865 0.32315677 0.19972187
0.028473303 0.079999998 0.034219164 0.52287865 0.32315677 0.19972187
0.026443157 0.079999998 0.033699822 0.52287865 0.32315677 0.19972187
0.02439959 0.079999998 0.033177078 0.52287865 0.32315677 0.19972187
0.022342458 0.079999998 0.032650895 0.52287865 0.32315677 0.19972187
0.02027162 0.079999998 0.032121234 0.52287865 0.32315677 0.19972187
0.018186921 0.079999998 0.031588063 0.52287865 0.32315677 0.19972187
0.016088219 0.079999998 0.03105134 0.52287865 0.32315677 0.19972187
0.013975357 0.079999998 0.030511025 0.52287865 0.32315677 0.19972187
0.011848183 0.079999998 0.029967083 0.52287865 0.32315677 0.19972187
0 0.07540074 0.026198238 0.52287865 0.32315677 0.19972187
0.0075502717 0.079999998 0.028868152 0.52287865 0.32315677 0.19972187
0.0053792153 0.079999998 0.028313084 0.52287865 0.32315677 0.19972187
0.003193208 0.079999998 0.027754225 0.52287865 0.32315677 0.19972187
0.00099208439 0.079999998 0.027191533 0.52287865 0.32315677 0.19972187
0.039999999 0.00091267395 0.023596384 0.52287865 0.32315677 0.19972187
0.039999999 0.0020440882 0.02377633 0.52287865 0.32315677 0.19972187
0.039999999 0.0031730745 0.023955923 0.52287865 0.32315677 0.19972187
0.039999999 0.0042996453 0.024135159 0.52287865 0.32315677 0.19972187
0.039999999 0.005423815 0.024314044 0.52287865 0.32315677 0.19972187
0.039999999 0.0065455954 0.024492577 0.52287865 0.32315677 0.19972187
0.039999999 0.0076649999 0.024670763 0.52287865 0.32315677 0.19972187
0.026510809 0 0.019963525 0.52287865 0.32315677 0.19972187
0.024744555 0 0.019506982 0.52287865 0.32315677 0.19972187
0.022969428 0 0.019048177 0.52287865 0.32315677 0.19972187
0.039999999 0.012119116 0.025380056 0.52287865 0.32315677 0.19972187
0.039999999 0.013226833 0.025556527 0.52287865 0.32315677 0.19972187
0.039999999 0.014332251 0.025732663 0.52287865 0.32315677 0.19972187
0.015778689 0 0.017189937 0.52287865 0.32315677 0.19972187
0.013958056 0 0.016719524 0.52287865 0.32315677 0.19972187
0.039999999 0.017634828 0.026259061 0.52287865 0.32315677 0.19972187
0.039999999 0.018731169 0.026433866 0.52287865 0.32315677 0.19972187
0.039999999 0.019825272 0.026608342 0.52287865 0.32315677 0.19972187
0.039999999 0.020917149 0.026782494 0.52287865 0.32315677 0.19972187
0.039999999 0.022006812 0.026956322 0.52287865 0.32315677 0.19972187
0.039999999 0.023094272 0.027129825 0.52287865 0.32315677 0.19972187
0.039999999 0.024179542 0.02730301 0.52287865 0.32315677 0.19972187
0.039999999 0.025262633 0.027475877 0.52287865 0.32315677 0.19972187
0.039999999 0.026343556 0.027648425 0.52287865 0.32315677 0.19972187
0.039999999 0.027422326 0.027820658 0.52287865 0.32315677 0.19972187
0.039999999 0.028498949 0.027992578 0.52287865 0.32315677 0.19972187
0.039999999 0.029573442 0.028164187 0.52287865 0.32315677 0.19972187
0.039999999 0.030645814 0.028335487 0.52287865 0.32315677 0.19972187
0.039999999 0.031716075 0.028506478 0.52287865 0.32315677 0.19972187
0.039999999 0.032784242 0.028677162 0.52287865 0.32315677 0.19972187
0.039999999 0.033850316 0.028847542 0.52287865 0.32315677 0.19972187
0.039999999 0.034914318 0.029017618 0.52287865 0.32315677 0.19972187
0.039999999 0.035976257 0.029187394 0.52287865 0.32315677 0.19972187
0.039999999 0.03703614 0.029356871 0.52287865 0.32315677 0.19972187
0 0.014480363 0.015427614 0.52287865 0.32315677 0.19972187
0.039999999 0.039149791 0.02969493 0.52287865 0.32315677 0.19972187
0.039999999 0.040203579 0.029863518 0.52287865 0.32315677 0.19972187
0.039999999 0.041255355 0.030031811 0.52287865 0.32315677 0.19972187
0.039999999 0.042305138 0.030199815 0.52287865 0.32315677 0.19972187
0.039999999 0.043352928 0.030367527 0.52287865 0.32315677 0.19972187
0.039999999 0.04439874 0.030534953 0.52287865 0.32315677 0.19972187
0.039999999 0.045442589 0.030702092 0.52287865 0.32315677 0.19972187
0.039999999 0.046484478 0.030868946 0.52287865 0.32315677 0.19972187
0 0.024691988 0.01706212 0.52287865 0.32315677 0.19972187
0.039999999 0.048562426 0.031201806 0.52287865 0.32315677 0.19972187
0.039999999 0.049598511 0.031367816 0.52287865 0.32315677 0.19972187
0.039999999 0.050632678 0.031533547 0.52287865 0.32315677 0.19972187
0.039999999 0.051664941 0.031698998 0.52287865 0.32315677 0.19972187
0.039999999 0.052695308 0.031864177 0.52287865 0.32315677 0.19972187
0.039999999 0.05372379 0.032029081 0.52287865 0.32315677 0.19972187
0.039999999 0.054750398 0.032193713 0.52287865 0.32315677 0.19972187
0.039999999 0.055775139 0.032358076 0.52287865 0.32315677 0.19972187
0.039999999 0.05679803 0.032522168 0.52287865 0.32315677 0.19972187
0.039999999 0.057819076 0.032685991 0.52287865 0.32315677 0.19972187
0.039999999 0.058838286 0.03284955 0.52287865 0.32315677 0.19972187
0.039999999 0.05985567 0.033012845 0.52287865 0.32315677 0.19972187
1.110223e-16 0.039144412 0.019379778 0.52287865 0.32315677 0.19972187
0.039999999 0.061885003 0.03333864 0.52287865 0.32315677 0.19972187
0.039999999 0.062896967 0.033501148 0.52287865 0.32315677 0.19972187
0.039999999 0.063907154 0.0336634 0.52287865 0.32315677 0.19972187
0.039999999 0.064915553 0.03382539 0.52287865 0.32315677 0.19972187
0 0.044613771 0.020258231 0.52287865 0.32315677 0.19972187
0.039999999 0.066927075 0.034148607 0.52287865 0.32315677 0.19972187
0.039999999 0.067930207 0.034309838 0.52287865 0.32315677 0.19972187
0.039999999 0.068931594 0.034470811 0.52287865 0.32315677 0.19972187
0 0.04895493 0.020956026 0.52287865 0.32315677 0.19972187
0.039999999 0.070929199 0.034792017 0.52287865 0.32315677 0.19972187
0.039999999 0.071925431 0.034952249 0.52287865 0.32315677 0.19972187
0.039999999 0.072919957 0.035112232 0.52287865 0.32315677 0.19972187
0.039999999 0.073912792 0.035271972 0.52287865 0.32315677 0.19972187
0.039999999 0.074903943 0.035431471 0.52287865 0.32315677 0.19972187
0.039999999 0.075893417 0.035590723 0.52287865 0.32315677 0.19972187
0 0.056480613 0.022166854 0.52287865 0.32315677 0.19972187
0.039999999 0.077867381 0.035908513 0.52287865 0.32315677 0.19972187
0.039999999 0.078851886 0.036067054 0.52287865 0.32315677 0.19972187
0.039999999 0.079834752 0.036225352 0.52287865 0.32315677 0.19972187
0 0.060741309 0.022853026 0.52287865 0.32315677 0.19972187
0.036407642 0.079999998 0.035327278 0.52287865 0.32315677 0.19972187
1.110223e-16 0.062861085 0.023194589 0.52287865 0.32315677 0.19972187
0 0.06391836 0.023364993 0.52287865 0.32315677 0.19972187
0.030431237 0.079999998 0.033789117 0.52287865 0.32315677 0.19972187
0.028412972 0.079999998 0.033269729 0.52287865 0.32315677 0.19972187
0 0.06707985 0.023874722 0.52287865 0.32315677 0.19972187
0.024336409 0.079999998 0.032220732 0.52287865 0.32315677 0.19972187
0.022277828 0.079999998 0.031691056 0.52287865 0.32315677 0.19972187
0.020205518 0.079999998 0.031157874 0.52287865 0.32315677 0.19972187
0 0.071271405 0.024550945 0.52287865 0.32315677 0.19972187
0.016019123 0.079999998 0.030080846 0.52287865 0.32315677 0.19972187
0 0.073357165 0.024887616 0.52287865 0.32315677 0.19972187
0.011776017 0.079999998 0.028989347 0.52287865 0.32315677 0.19972187
0.00963281 0.079999998 0.028438069 0.52287865 0.32315677 0.19972187
0.007474957 0.079999998 0.027883055 0.52287865 0.32315677 0.19972187
0.0053022956 0.079999998 0.027324259 0.52287865 0.32315677 0.19972187
0.0031146631 0.079999998 0.026761644 0.52287865 0.32315677 0.19972187
0.00091189361 0.079999998 0.026195165 0.52287865 0.32315677 0.19972187
0.038650732 0 0.022114253 0.52287865 0.32315677 0.19972187
0.039999999 0.0020324597 0.022790246 0.52287865 0.32315677 0.19972187
0.039999999 0.0031620366 0.022970987 0.52287865 0.32315677 0.19972187
0.039999999 0.0042891959 0.02315137 0.52287865 0.32315677 0.19972187
0.039999999 0.0054139514 0.023331393 0.52287865 0.32315677 0.19972187
0.039999999 0.0065363147 0.023511061 0.52287865 0.32315677 0.19972187
0.039999999 0.0076563004 0.023690376 0.52287865 0.32315677 0.19972187
0.039999999 0.0087739201 0.023869339 0.52287865 0.32315677 0.19972187
0.039999999 0.0098891882 0.024047954 0.52287865 0.32315677 0.19972187
0.022980595 0 0.01804075 0.52287865 0.32315677 0.19972187
0.039999999 0.012112715 0.02440414 0.52287865 0.32315677 0.19972187
0.019401735 0 0.017110724 0.52287865 0.32315677 0.19972187
0.039999999 0.014326985 0.024758952 0.52287865 0.32315677 0.19972187
0.039999999 0.015430679 0.024935847 0.52287865 0.32315677 0.19972187
0.039999999 0.016532095 0.025112404 0.52287865 0.32315677 0.19972187
0.012134071 0 0.015222441 0.52287865 0.32315677 0.19972187
0.039999999 0.018728144 0.025464511 0.52287865 0.32315677 0.19972187
0.039999999 0.019822804 0.025640065 0.52287865 0.32315677 0.19972187
0.039999999 0.020915233 0.025815288 0.52287865 0.32315677 0.19972187
0.039999999 0.022005446 0.025990183 0.52287865 0.32315677 0.19972187
0.039999999 0.023093455 0.02616475 0.52287865 0.32315677 0.19972187
0.039999999 0.02417927 0.026338993 0.52287865 0.32315677 0.19972187
0.039999999 0.025262905 0.026512913 0.52287865 0.32315677 0.19972187
1.110223e-16 0.0017574555 0.012352858 0.52287865 0.32315677 0.19972187
0.039999999 0.027423678 0.026859788 0.52287865 0.32315677 0.19972187
0.039999999 0.02850084 0.02703275 0.52287865 0.32315677 0.19972187
0.039999999 0.029575868 0.027205395 0.52287865 0.32315677 0.19972187
0 0.0064184191 0.013101329 0.52287865 0.32315677 0.19972187
0.039999999 0.031719565 0.027549742 0.52287865 0.32315677 0.19972187
0.039999999 0.032788258 0.027721448 0.52287865 0.32315677 0.19972187
0.039999999 0.033854861 0.027892845 0.52287865 0.32315677 0.19972187
0.039999999 0.034919389 0.028063936 0.52287865 0.32315677 0.19972187
0.039999999 0.035981849 0.02823472 0.52287865 0.32315677 0.19972187
0.039999999 0.037042253 0.028405201 0.52287865 0.32315677 0.19972187
0.039999999 0.038100611 0.028575378 0.52287865 0.32315677 0.19972187
0.039999999 0.039156936 0.028745256 0.52287865 0.32315677 0.19972187
0.039999999 0.040211242 0.028914835 0.52287865 0.32315677 0.19972187
0.039999999 0.041263532 0.029084116 0.52287865 0.32315677 0.19972187
0 0.019049762 0.015132057 0.52287865 0.32315677 0.19972187
1.110223e-16 0.020184899 0.015314722 0.52287865 0.32315677 0.19972187
0.039999999 0.044408441 0.029590193 0.52287865 0.32315677 0.19972187
0.039999999 0.045452792 0.029758302 0.52287865 0.32315677 0.19972187
1.110223e-16 0.023577496 0.015860828 0.52287865 0.32315677 0.19972187
0.039999999 0.047535632 0.030093655 0.52287865 0.32315677 0.19972187
0.039999999 0.048574138 0.0302609 0.52287865 0.32315677 0.19972187
0.039999999 0.049610719 0.030427864 0.52287865 0.32315677 0.19972187
0.039999999 0.050645381 0.030594543 0.52287865 0.32315677 0.19972187
0.039999999 0.051678136 0.030760942 0.52287865 0.32315677 0.19972187
0.039999999 0.052708995 0.03092706 0.52287865 0.32315677 0.19972187
0.039999999 0.053737968 0.031092903 0.52287865 0.32315677 0.19972187
0.039999999 0.054765068 0.031258468 0.52287865 0.32315677 0.19972187
0.039999999 0.055790298 0.031423755 0.52287865 0.32315677 0.19972187
0.039999999 0.056813672 0.031588774 0.52287865 0.32315677 0.19972187
0 0.035856877 0.017839599 0.52287865 0.32315677 0.19972187
0.039999999 0.058854889 0.031917993 0.52287865 0.32315677 0.19972187
0.039999999 0.059872754 0.0320822 0.52287865 0.32315677 0.19972187
0.039999999 0.060888801 0.032246139 0.52287865 0.32315677 0.19972187
0.039999999 0.061903041 0.03240981 0.52287865 0.32315677 0.19972187
0.039999999 0.062915482 0.032573219 0.52287865 0.32315677 0.19972187
0.039999999 0.063926138 0.032736365 0.52287865 0.32315677 0.19972187
0.039999999 0.064935014 0.032899249 0.52287865 0.32315677 0.19972187
0.039999999 0.065942124 0.033061873 0.52287865 0.32315677 0.19972187
0 0.045723978 0.01943215 0.52287865 0.32315677 0.19972187
0.039999999 0.067951068 0.03338635 0.52287865 0.32315677 0.19972187
0.039999999 0.068952926 0.033548202 0.52287865 0.32315677 0.19972187
0.039999999 0.069953054 0.033709802 0.52287865 0.32315677 0.19972187
0 0.050059639 0.02013265 0.52287865 0.32315677 0.19972187
0 0.051138889 0.02030709 0.52287865 0.32315677 0.19972187
0.039999999 0.072943129 0.034193095 0.52287865 0.32315677 0.19972187
0 0.053291872 0.020655163 0.52287865 0.32315677 0.19972187
0.039999999 0.07492803 0.034514043 0.52287865 0.32315677 0.19972187
0.039999999 0.075917959 0.034674149 0.52287865 0.32315677 0.19972187
0.039999999 0.076906227 0.034834009 0.52287865 0.32315677 0.19972187
0.039999999 0.077892825 0.034993626 0.52287865 0.32315677 0.19972187
0.039999999 0.078877777 0.035153005 0.52287865 0.32315677 0.19972187
0.039999999 0.07986109 0.035312142 0.52287865 0.32315677 0.19972187
0.038320534 0.079999998 0.034899771 0.52287865 0.32315677 0.19972187
0.036352742 0.079999998 0.034390289 0.52287865 0.32315677 0.19972187
0.034372184 0.079999998 0.033877525 0.52287865 0.32315677 0.19972187
0 0.06394881 0.022379715 0.52287865 0.32315677 0.19972187
0.030372238 0.079999998 0.032842021 0.52287865 0.32315677 0.19972187
0.028352572 0.079999998 0.032319214 0.52287865 0.32315677 0.19972187
0.026319593 0.079999998 0.031792983 0.52287865 0.32315677 0.19972187
0.024273157 0.079999998 0.031263296 0.52287865 0.32315677 0.19972187
0.022213122 0.079999998 0.030730113 0.52287865 0.32315677 0.19972187
0.02013934 0.079999998 0.030193402 0.52287865 0.32315677 0.19972187
0.018051665 0.079999998 0.029653119 0.52287865 0.32315677 0.19972187
0.015949948 0.079999998 0.029109228 0.52287865 0.32315677 0.19972187
0.013834032 0.079999998 0.028561691 0.52287865 0.32315677 0.19972187
0.011703767 0.079999998 0.028010467 0.52287865 0.32315677 0.19972187
0.0095589934 0.079999998 0.027455516 0.52287865 0.32315677 0.19972187
0.0073995534 0.079999998 0.026896797 0.52287865 0.32315677 0.19972187
1.110223e-16 0.077545531 0.024584062 0.52287865 0.32315677 0.19972187
0.0030360254 0.079999998 0.025767887 0.52287865 0.32315677 0.19972187
0.00083160744 0.079999998 0.025197612 0.52287865 0.32315677 0.19972187
0.039999999 0.00088821858 0.021620946 0.52287865 0.32315677 0.19972187
0.039999999 0.00202082 0.021803206 0.52287865 0.32315677 0.19972187
0.039999999 0.0031509884 0.021985099 0.52287865 0.32315677 0.19972187
0.039999999 0.0042787367 0.022166627 0.52287865 0.32315677 0.19972187
0.039999999 0.0054040779 0.022347793 0.52287865 0.32315677 0.19972187
0.039999999 0.0065270257 0.022528598 0.52287865 0.32315677 0.19972187
0.039999999 0.0076475921 0.022709046 0.52287865 0.32315677 0.19972187
0.039999999 0.0087657915 0.022889135 0.52287865 0.32315677 0.19972187
0.039999999 0.0098816352 0.023068871 0.52287865 0.32315677 0.19972187
0.039999999 0.010995137 0.023248255 0.52287865 0.32315677 0.19972187
0.039999999 0.012106309 0.023427287 0.52287865 0.32315677 0.19972187
0.039999999 0.013215164 0.023605971 0.52287865 0.32315677 0.19972187
0.039999999 0.014321714 0.02378431 0.52287865 0.32315677 0.19972187
0.039999999 0.015425973 0.023962302 0.52287865 0.32315677 0.19972187
0.013971805 0 0.014675709 0.52287865 0.32315677 0.19972187
0.039999999 0.017627662 0.024317261 0.52287865 0.32315677 0.19972187
0.039999999 0.01872512 0.024494231 0.52287865 0.32315677 0.19972187
0.039999999 0.019820333 0.024670864 0.52287865 0.32315677 0.19972187
0.039999999 0.020913314 0.024847161 0.52287865 0.32315677 0.19972187
0.004717899 0 0.012258554 0.52287865 0.32315677 0.19972187
0.039999999 0.023092635 0.025198758 0.52287865 0.32315677 0.19972187
0.039999999 0.024178997 0.02537406 0.52287865 0.32315677 0.19972187
1.110223e-16 0.00058669952 0.011121159 0.52287865 0.32315677 0.19972187
1.110223e-16 0.0017583368 0.011310276 0.52287865 0.32315677 0.19972187
0 0.0029276353 0.011499041 0.52287865 0.32315677 0.19972187
0.039999999 0.028502731 0.026072012 0.52287865 0.32315677 0.19972187
0.039999999 0.029578295 0.026245695 0.52287865 0.32315677 0.19972187
0.039999999 0.030651733 0.026419057 0.52287865 0.32315677 0.19972187
0.039999999 0.031723056 0.026592104 0.52287865 0.32315677 0.19972187
0 0.0087394873 0.01243767 0.52287865 0.32315677 0.19972187
0.039999999 0.033859409 0.02693725 0.52287865 0.32315677 0.19972187
0.039999999 0.034924462 0.027109357 0.52287865 0.32315677 0.19972187
0.039999999 0.035987444 0.027281152 0.52287865 0.32315677 0.19972187
0.039999999 0.03704837 0.027452638 0.52287865 0.32315677 0.19972187
0.039999999 0.038107246 0.027623817 0.52287865 0.32315677 0.19972187
0.039999999 0.039164092 0.027794693 0.52287865 0.32315677 0.19972187
0.039999999 0.040218908 0.027965264 0.52287865 0.32315677 0.19972187
0.039999999 0.041271713 0.028135536 0.52287865 0.32315677 0.19972187
0.039999999 0.042322516 0.028305506 0.52287865 0.32315677 0.19972187
0.039999999 0.043371323 0.028475178 0.52287865 0.32315677 0.19972187
0 0.021328408 0.014473099 0.52287865 0.32315677 0.19972187
0.039999999 0.045463011 0.028813634 0.52287865 0.32315677 0.19972187
0.039999999 0.046505906 0.028982421 0.52287865 0.32315677 0.19972187
0.039999999 0.047546852 0.029150918 0.52287865 0.32315677 0.19972187
0.039999999 0.048585858 0.029319124 0.52287865 0.32315677 0.19972187
0.039999999 0.049622938 0.02948704 0.52287865 0.32315677 0.19972187
0.039999999 0.050658096 0.029654671 0.52287865 0.32315677 0.19972187
0.039999999 0.051691346 0.029822016 0.52287865 0.32315677 0.19972187
0.039999999 0.0527227 0.029989079 0.52287865 0.32315677 0.19972187
0.039999999 0.053752162 0.030155858 0.52287865 0.32315677 0.19972187
0 0.032548323 0.016289886 0.52287865 0.32315677 0.19972187
0 0.033659007 0.016469875 0.52287865 0.32315677 0.19972187
0.039999999 0.056829326 0.03065452 0.52287865 0.32315677 0.19972187
0.039999999 0.057851337 0.030820187 0.52287865 0.32315677 0.19972187
0.039999999 0.058871511 0.030985581 0.52287865 0.32315677 0.19972187
0 0.038081732 0.017186845 0.52287865 0.32315677 0.19972187
0.039999999 0.06090638 0.03131555 0.52287865 0.32315677 0.19972187
0.039999999 0.061921097 0.031480126 0.52287865 0.32315677 0.19972187
0.039999999 0.062934019 0.031644437 0.52287865 0.32315677 0.19972187
0.039999999 0.063945144 0.031808484 0.52287865 0.32315677 0.19972187
0.039999999 0.064954497 0.031972263 0.52287865 0.32315677 0.19972187
1.110223e-16 0.044656951 0.018253522 0.52287865 0.32315677 0.19972187
0.039999999 0.06696789 0.032299031 0.52287865 0.32315677 0.19972187
0 0.046833321 0.018606793 0.52287865 0.32315677 0.19972187
0.039999999 0.068974271 0.032624755 0.52287865 0.32315677 0.19972187
0.039999999 0.069974862 0.03278723 0.52287865 0.32315677 0.19972187
0.039999999 0.070973732 0.032949448 0.52287865 0.32315677 0.19972187
0.039999999 0.07197088 0.033111412 0.52287865 0.32315677 0.19972187
0.039999999 0.07296633 0.033273119 0.52287865 0.32315677 0.19972187
0 0.053317484 0.019659912 0.52287865 0.32315677 0.19972187
0 0.054391723 0.019834474 0.52287865 0.32315677 0.19972187
0.039999999 0.075942524 0.033756744 0.52287865 0.32315677 0.19972187
0 0.056534767 0.020182787 0.52287865 0.32315677 0.19972187
0.039999999 0.077918291 0.034077916 0.52287865 0.32315677 0.19972187
0.039999999 0.078903697 0.034238134 0.52287865 0.32315677 0.19972187
0.039999999 0.079887457 0.034398109 0.52287865 0.32315677 0.19972187
0.038266908 0.079999998 0.033965051 0.52287865 0.32315677 0.19972187
0.03629778 0.079999998 0.033452246 0.52287865 0.32315677 0.19972187
0.034315873 0.079999998 0.032936133 0.52287865 0.32315677 0.19972187
0 0.063979283 0.021393551 0.52287865 0.32315677 0.19972187
0.030313171 0.079999998 0.031893853 0.52287865 0.32315677 0.19972187
0.028292105 0.079999998 0.031367611 0.52287865 0.32315677 0.19972187
0.026257705 0.079999998 0.030837927 0.52287865 0.32315677 0.19972187
0.024209831 0.079999998 0.030304756 0.52287865 0.32315677 0.19972187
0 0.069244668 0.022250654 0.52287865 0.32315677 0.19972187
0.020073086 0.079999998 0.029227814 0.52287865 0.32315677 0.19972187
0.017983921 0.079999998 0.028683964 0.52287865 0.32315677 0.19972187
0.015880691 0.079999998 0.028136479 0.52287865 0.32315677 0.19972187
0.013763246 0.079999998 0.027585318 0.52287865 0.32315677 0.19972187
0.011631431 0.079999998 0.02703044 0.52287865 0.32315677 0.19972187
0.0094850892 0.079999998 0.026471807 0.52287865 0.32315677 0.19972187
0.0073240604 0.079999998 0.025909374 0.52287865 0.32315677 0.19972187
0.0051481836 0.079999998 0.025343101 0.52287865 0.32315677 0.19972187
0.002957294 0.079999998 0.024772948 0.52287865 0.32315677 0.19972187
0.00075122545 0.079999998 0.024198867 0.52287865 0.32315677 0.19972187
0.039999999 0.00087597297 0.020631783 0.52287865 0.32315677 0.19972187
0.036979005 0 0.019695921 0.52287865 0.32315677 0.19972187
0.039999999 0.0031399291 0.020998247 0.52287865 0.32315677 0.19972187
0.039999999 0.0042682667 0.021180926 0.52287865 0.32315677 0.19972187
0.031802867 0 0.018335499 0.52287865 0.32315677 0.19972187
0.039999999 0.0065177269 0.021545179 0.52287865 0.32315677 0.19972187
0.039999999 0.0076388759 0.021726761 0.52287865 0.32315677 0.19972187
0.039999999 0.0087576546 0.02190798 0.52287865 0.32315677 0.19972187
0.039999999 0.0098740747 0.022088841 0.52287865 0.32315677 0.19972187
0.039999999 0.010988151 0.022269342 0.52287865 0.32315677 0.19972187
0.039999999 0.012099896 0.02244949 0.52287865 0.32315677 0.19972187
0.019420709 0 0.015081964 0.52287865 0.32315677 0.19972187
0.039999999 0.014316438 0.022808727 0.52287865 0.32315677 0.19972187
0.039999999 0.015421261 0.022987818 0.52287865 0.32315677 0.19972187
0.039999999 0.016523803 0.023166563 0.52287865 0.32315677 0.19972187
0.039999999 0.017624075 0.023344964 0.52287865 0.32315677 0.19972187
0.010303983 0 0.012687162 0.52287865 0.32315677 0.19972187
0.039999999 0.019817859 0.023700733 0.52287865 0.32315677 0.19972187
0.039999999 0.020911396 0.023878107 0.52287865 0.32315677 0.19972187
0.039999999 0.02200271 0.024055142 0.52287865 0.32315677 0.19972187
0.039999999 0.023091815 0.024231842 0.52287865 0.32315677 0.19972187
0.039999999 0.024178725 0.024408208 0.52287865 0.32315677 0.19972187
0.039999999 0.025263449 0.024584241 0.52287865 0.32315677 0.19972187
0.039999999 0.026345998 0.024759943 0.52287865 0.32315677 0.19972187
0.039999999 0.027426386 0.024935316 0.52287865 0.32315677 0.19972187
0.039999999 0.028504625 0.025110362 0.52287865 0.32315677 0.19972187
0.039999999 0.029580723 0.025285084 0.52287865 0.32315677 0.19972187
0.039999999 0.030654695 0.025459481 0.52287865 0.32315677 0.19972187
0.039999999 0.03172655 0.025633559 0.52287865 0.32315677 0.19972187
0.039999999 0.032796305 0.025807314 0.52287865 0.32315677 0.19972187
0 0.009899945 0.011588638 0.52287865 0.32315677 0.19972187
0 0.011053791 0.011776101 0.52287865 0.32315677 0.19972187
0.039999999 0.035993047 0.026326682 0.52287865 0.32315677 0.19972187
0.039999999 0.037054494 0.026499178 0.52287865 0.32315677 0.19972187
0.039999999 0.038113892 0.026671361 0.52287865 0.32315677 0.19972187
0.039999999 0.039171252 0.026843237 0.52287865 0.32315677 0.19972187
0.039999999 0.040226586 0.027014803 0.52287865 0.32315677 0.19972187
0.039999999 0.041279905 0.027186064 0.52287865 0.32315677 0.19972187
0.039999999 0.042331219 0.027357021 0.52287865 0.32315677 0.19972187
0.039999999 0.043380536 0.027527675 0.52287865 0.32315677 0.19972187
0.039999999 0.044427872 0.027698029 0.52287865 0.32315677 0.19972187
0.039999999 0.045473237 0.027868083 0.52287865 0.32315677 0.19972187
0.039999999 0.046516635 0.028037841 0.52287865 0.32315677 0.19972187
1.110223e-16 0.024728442 0.013999626 0.52287865 0.32315677 0.19972187
0.039999999 0.048597593 0.028376468 0.52287865 0.32315677 0.19972187
0.039999999 0.049635168 0.028545342 0.52287865 0.32315677 0.19972187
0.039999999 0.050670825 0.028713925 0.52287865 0.32315677 0.19972187
0.039999999 0.051704567 0.028882219 0.52287865 0.32315677 0.19972187
0.039999999 0.052736413 0.029050225 0.52287865 0.32315677 0.19972187
0.039999999 0.05376637 0.029217945 0.52287865 0.32315677 0.19972187
0.039999999 0.054794446 0.02938538 0.52287865 0.32315677 0.19972187
0.039999999 0.055820651 0.029552532 0.52287865 0.32315677 0.19972187
0.039999999 0.056844994 0.029719403 0.52287865 0.32315677 0.19972187
0.039999999 0.05786749 0.029885994 0.52287865 0.32315677 0.19972187
0.039999999 0.058888145 0.030052306 0.52287865 0.32315677 0.19972187
0.039999999 0.059906971 0.030218342 0.52287865 0.32315677 0.19972187
0.039999999 0.060923979 0.030384103 0.52287865 0.32315677 0.19972187
0.039999999 0.061939172 0.03054959 0.52287865 0.32315677 0.19972187
0.039999999 0.062952563 0.030714804 0.52287865 0.32315677 0.19972187
0.039999999 0.063964166 0.030879749 0.52287865 0.32315677 0.19972187
0.039999999 0.064973988 0.031044424 0.52287865 0.32315677 0.19972187
0.039999999 0.065982036 0.03120883 0.52287865 0.32315677 0.19972187
0.039999999 0.066988319 0.031372972 0.52287865 0.32315677 0.19972187
0.039999999 0.067992851 0.031536847 0.52287865 0.32315677 0.19972187
0 0.047941811 0.017782146 0.52287865 0.32315677 0.19972187
0.039999999 0.0699967 0.031863812 0.52287865 0.32315677 0.19972187
0.039999999 0.070996024 0.032026902 0.52287865 0.32315677 0.19972187
0.039999999 0.071993642 0.032189734 0.52287865 0.32315677 0.19972187
0.039999999 0.072989546 0.03235231 0.52287865 0.32315677 0.19972187
0 0.053343117 0.018663757 0.52287865 0.32315677 0.19972187
0.039999999 0.074976273 0.032676693 0.52287865 0.32315677 0.19972187
0.039999999 0.075967111 0.032838505 0.52287865 0.32315677 0.19972187
0.039999999 0.07695628 0.033000063 0.52287865 0.32315677 0.19972187
0.039999999 0.077943787 0.033161372 0.52287865 0.32315677 0.19972187
0.039999999 0.07892964 0.033322431 0.52287865 0.32315677 0.19972187
0.039999999 0.079913847 0.033483244 0.52287865 0.32315677 0.19972187
0.038213219 0.079999998 0.033029281 0.52287865 0.32315677 0.19972187
0 0.061890624 0.020060081 0.52287865 0.32315677 0.19972187
0 0.062951081 0.020233421 0.52287865 0.32315677 0.19972187
0.032263301 0.079999998 0.031470835 0.52287865 0.32315677 0.19972187
0.030254038 0.079999998 0.030944599 0.52287865 0.32315677 0.19972187
0 0.066122033 0.020751871 0.52287865 0.32315677 0.19972187
0.026195746 0.079999998 0.029881774 0.52287865 0.32315677 0.19972187
0.024146434 0.079999998 0.029345112 0.52287865 0.32315677 0.19972187
0.022083485 0.079999998 0.028804902 0.52287865 0.32315677 0.19972187
0.020006755 0.079999998 0.028261105 0.52287865 0.32315677 0.19972187
0.017916095 0.079999998 0.027713681 0.52287865 0.32315677 0.19972187
0.015811354 0.079999998 0.027162591 0.52287865 0.32315677 0.19972187
0.013692377 0.079999998 0.026607798 0.52287865 0.32315677 0.19972187
0.011559011 0.079999998 0.026049258 0.52287865 0.32315677 0.19972187
1.110223e-16 0.075543292 0.022293465 0.52287865 0.32315677 0.19972187
0.0072484785 0.079999998 0.024920778 0.52287865 0.32315677 0.19972187
0.00507099 0.079999998 0.024350755 0.52287865 0.32315677 0.19972187
0.0028784685 0.079999998 0.023776818 0.52287865 0.32315677 0.19972187
0 0.079687677 0.022972191 0.52287865 0.32315677 0.19972187
0.03870593 0 0.019159049 0.52287865 0.32315677 0.19972187
0.039999999 0.0019975065 0.019826226 0.52287865 0.32315677 0.19972187
0.039999999 0.0031288592 0.02001043 0.52287865 0.32315677 0.19972187
0.039999999 0.004257787 0.020194259 0.52287865 0.32315677 0.19972187
0.039999999 0.0053843027 0.020377714 0.52287865 0.32315677 0.19972187
0.039999999 0.0065084198 0.020560801 0.52287865 0.32315677 0.19972187
0.028322896 0 0.016415413 0.52287865 0.32315677 0.19972187
0.039999999 0.0087495092 0.020925868 0.52287865 0.32315677 0.19972187
0.039999999 0.0098665077 0.021107854 0.52287865 0.32315677 0.19972187
0.039999999 0.010981159 0.021289479 0.52287865 0.32315677 0.19972187
0.039999999 0.012093476 0.021470742 0.52287865 0.32315677 0.19972187
0.039999999 0.013203471 0.021651648 0.52287865 0.32315677 0.19972187
0.039999999 0.014311157 0.021832198 0.52287865 0.32315677 0.19972187
0.039999999 0.015416546 0.022012392 0.52287865 0.32315677 0.19972187
0.039999999 0.016519651 0.022192234 0.52287865 0.32315677 0.19972187
0.012152063 0 0.012143824 0.52287865 0.32315677 0.19972187
0.039999999 0.018719057 0.02255087 0.52287865 0.32315677 0.19972187
0.039999999 0.019815382 0.022729667 0.52287865 0.32315677 0.19972187
0.039999999 0.020909473 0.022908119 0.52287865 0.32315677 0.19972187
0.039999999 0.022001339 0.023086229 0.52287865 0.32315677 0.19972187
0.039999999 0.023090996 0.023263996 0.52287865 0.32315677 0.19972187
0.039999999 0.024178453 0.023441426 0.52287865 0.32315677 0.19972187
0.039999999 0.025263721 0.023618519 0.52287865 0.32315677 0.19972187
0.039999999 0.026346814 0.023795277 0.52287865 0.32315677 0.19972187
0 0.0029305713 0.0094131622 0.52287865 0.32315677 0.19972187
0.039999999 0.028506519 0.024147794 0.52287865 0.32315677 0.19972187
0 0.0052645304 0.0097941644 0.52287865 0.32315677 0.19972187
0.039999999 0.030657662 0.02449899 0.52287865 0.32315677 0.19972187
0.039999999 0.031730052 0.024674099 0.52287865 0.32315677 0.19972187
0.039999999 0.032800332 0.024848884 0.52287865 0.32315677 0.19972187
0.039999999 0.033868521 0.025023345 0.52287865 0.32315677 0.19972187
0.039999999 0.034934621 0.025197485 0.52287865 0.32315677 0.19972187
0.039999999 0.035998654 0.025371308 0.52287865 0.32315677 0.19972187
0.039999999 0.037060622 0.025544813 0.52287865 0.32315677 0.19972187
0.039999999 0.038120542 0.025718004 0.52287865 0.32315677 0.19972187
0.039999999 0.03917842 0.025890879 0.52287865 0.32315677 0.19972187
0.039999999 0.040234268 0.026063442 0.52287865 0.32315677 0.19972187
0.039999999 0.0412881 0.026235696 0.52287865 0.32315677 0.19972187
0.039999999 0.042339928 0.026407642 0.52287865 0.32315677 0.19972187
0 0.020214824 0.012236745 0.52287865 0.32315677 0.19972187
0.039999999 0.044437602 0.026750613 0.52287865 0.32315677 0.19972187
0.039999999 0.04548347 0.026921643 0.52287865 0.32315677 0.19972187
0 0.023612352 0.012792339 0.52287865 0.32315677 0.19972187
0.039999999 0.047569327 0.027262799 0.52287865 0.32315677 0.19972187
0.039999999 0.048609335 0.027432928 0.52287865 0.32315677 0.19972187
0.039999999 0.049647409 0.02760276 0.52287865 0.32315677 0.19972187
0.039999999 0.050683562 0.027772298 0.52287865 0.32315677 0.19972187
0.039999999 0.051717803 0.027941542 0.52287865 0.32315677 0.19972187
0.039999999 0.05275014 0.028110495 0.52287865 0.32315677 0.19972187
0.039999999 0.053780589 0.028279155 0.52287865 0.32315677 0.19972187
0.039999999 0.054809153 0.028447529 0.52287865 0.32315677 0.19972187
0.039999999 0.055835847 0.028615614 0.52287865 0.32315677 0.19972187
0 0.034801632 0.014623463 0.52287865 0.32315677 0.19972187
0.039999999 0.057883661 0.028950932 0.52287865 0.32315677 0.19972187
0.039999999 0.058904797 0.029118165 0.52287865 0.32315677 0.19972187
0.039999999 0.059924103 0.029285118 0.52287865 0.32315677 0.19972187
0.039999999 0.060941588 0.029451793 0.52287865 0.32315677 0.19972187
0.039999999 0.061957262 0.029618189 0.52287865 0.32315677 0.19972187
0.039999999 0.06297113 0.029784309 0.52287865 0.32315677 0.19972187
0.039999999 0.063983209 0.029950155 0.52287865 0.32315677 0.19972187
0.039999999 0.064993501 0.030115727 0.52287865 0.32315677 0.19972187
0 0.044700209 0.016245132 0.52287865 0.32315677 0.19972187
0.039999999 0.067008778 0.030446058 0.52287865 0.32315677 0.19972187
0.039999999 0.06801378 0.03061082 0.52287865 0.32315677 0.19972187
0.039999999 0.06901703 0.030775316 0.52287865 0.32315677 0.19972187
0 0.049049452 0.016958199 0.52287865 0.32315677 0.19972187
0.039999999 0.071018338 0.03110351 0.52287865 0.32315677 0.19972187
0.039999999 0.072016418 0.031267215 0.52287865 0.32315677 0.19972187
0.039999999 0.073012784 0.031430654 0.52287865 0.32315677 0.19972187
0.039999999 0.074007444 0.031593837 0.52287865 0.32315677 0.19972187
0.039999999 0.07500042 0.031756759 0.52287865 0.32315677 0.19972187
0.039999999 0.07599172 0.031919423 0.52287865 0.32315677 0.19972187
0.039999999 0.076981343 0.032081835 0.52287865 0.32315677 0.19972187
0.039999999 0.077969298 0.032243993 0.52287865 0.32315677 0.19972187
0.039999999 0.078955606 0.032405898 0.52287865 0.32315677 0.19972187
0.039999999 0.079940267 0.032567549 0.52287865 0.32315677 0.19972187
0.038159471 0.079999998 0.032092448 0.52287865 0.32315677 0.19972187
0.036187671 0.079999998 0.031572971 0.52287865 0.32315677 0.19972187
0.034203056 0.079999998 0.031050136 0.52287865 0.32315677 0.19972187
0.032205489 0.079999998 0.030523909 0.52287865 0.32315677 0.19972187
0 0.065097786 0.019592253 0.52287865 0.32315677 0.19972187
0.028170958 0.079999998 0.029461134 0.52287865 0.32315677 0.19972187
0.026133714 0.079999998 0.028924514 0.52287865 0.32315677 0.19972187
0 0.06825985 0.020111799 0.52287865 0.32315677 0.19972187
0.022018554 0.079999998 0.027840618 0.52287865 0.32315677 0.19972187
0.019940346 0.079999998 0.027293265 0.52287865 0.32315677 0.19972187
0.017848192 0.079999998 0.026742259 0.52287865 0.32315677 0.19972187
0.015741935 0.079999998 0.026187558 0.52287865 0.32315677 0.19972187
0.013621424 0.079999998 0.025629124 0.52287865 0.32315677 0.19972187
0.011486505 0.079999998 0.025066914 0.52287865 0.32315677 0.19972187
0.0093370182 0.079999998 0.02450089 0.52287865 0.32315677 0.19972187
0.0071728057 0.079999998 0.023931006 0.52287865 0.32315677 0.19972187
0.0049937041 0.079999998 0.023357222 0.52287865 0.32315677 0.19972187
0.0027995482 0.079999998 0.022779493 0.52287865 0.32315677 0.19972187
1.110223e-16 0.079725236 0.02199718 0.52287865 0.32315677 0.19972187
0.039999999 0.0008514456 0.018650534 0.52287865 0.32315677 0.19972187
0.039999999 0.0019858324 0.018836277 0.52287865 0.32315677 0.19972187
0.039999999 0.0031177783 0.01902164 0.52287865 0.32315677 0.19972187
0.039999999 0.0042472966 0.019206621 0.52287865 0.32315677 0.19972187
0.039999999 0.0053744004 0.019391226 0.52287865 0.32315677 0.19972187
0.039999999 0.0064991028 0.019575454 0.52287865 0.32315677 0.19972187
0.039999999 0.0076214173 0.01975931 0.52287865 0.32315677 0.19972187
0.039999999 0.0087413564 0.019942794 0.52287865 0.32315677 0.19972187
0.039999999 0.0098589333 0.020125911 0.52287865 0.32315677 0.19972187
0.02302536 0 0.014001742 0.52287865 0.32315677 0.19972187
0.039999999 0.01208705 0.020491039 0.52287865 0.32315677 0.19972187
0.039999999 0.013197616 0.020673059 0.52287865 0.32315677 0.19972187
0.039999999 0.014305871 0.020854717 0.52287865 0.32315677 0.19972187
0.039999999 0.015411826 0.021036016 0.52287865 0.32315677 0.19972187
0.039999999 0.016515495 0.021216959 0.52287865 0.32315677 0.19972187
0.039999999 0.017616889 0.021397544 0.52287865 0.32315677 0.19972187
0.039999999 0.018716021 0.021577777 0.52287865 0.32315677 0.19972187
0.039999999 0.019812904 0.02175766 0.52287865 0.32315677 0.19972187
0.0065977331 0 0.0096392548 0.52287865 0.32315677 0.19972187
0.039999999 0.021999968 0.022116378 0.52287865 0.32315677 0.19972187
0.039999999 0.023090174 0.022295218 0.52287865 0.32315677 0.19972187
0.039999999 0.024178179 0.022473713 0.52287865 0.32315677 0.19972187
0.039999999 0.025263993 0.022651868 0.52287865 0.32315677 0.19972187
0.039999999 0.02634763 0.022829682 0.52287865 0.32315677 0.19972187
0.039999999 0.0274291 0.023007158 0.52287865 0.32315677 0.19972187
0.039999999 0.028508415 0.023184298 0.52287865 0.32315677 0.19972187
0.039999999 0.029585589 0.023361104 0.52287865 0.32315677 0.19972187
0 0.0064312606 0.0089430781 0.52287865 0.32315677 0.19972187
0.039999999 0.031733554 0.023713721 0.52287865 0.32315677 0.19972187
0.039999999 0.032804366 0.023889534 0.52287865 0.32315677 0.19972187
0.039999999 0.033873081 0.024065021 0.52287865 0.32315677 0.19972187
0.039999999 0.03493971 0.024240185 0.52287865 0.32315677 0.19972187
0.039999999 0.036004268 0.024415022 0.52287865 0.32315677 0.19972187
0.039999999 0.037066758 0.024589539 0.52287865 0.32315677 0.19972187
0 0.01451633 0.010270808 0.52287865 0.32315677 0.19972187
0.039999999 0.039185595 0.024937615 0.52287865 0.32315677 0.19972187
0.039999999 0.04024196 0.025111178 0.52287865 0.32315677 0.19972187
0.039999999 0.041296307 0.025284426 0.52287865 0.32315677 0.19972187
0.039999999 0.042348646 0.025457362 0.52287865 0.32315677 0.19972187
0.039999999 0.043398988 0.025629986 0.52287865 0.32315677 0.19972187
0.039999999 0.04444734 0.025802299 0.52287865 0.32315677 0.19972187
0.039999999 0.045493715 0.025974307 0.52287865 0.32315677 0.19972187
0.039999999 0.046538126 0.026146008 0.52287865 0.32315677 0.19972187
0.039999999 0.047580581 0.026317405 0.52287865 0.32315677 0.19972187
0.039999999 0.048621088 0.026488498 0.52287865 0.32315677 0.19972187
0.039999999 0.049659662 0.026659291 0.52287865 0.32315677 0.19972187
1.110223e-16 0.028126631 0.012508001 0.52287865 0.32315677 0.19972187
0.039999999 0.05173105 0.02699998 0.52287865 0.32315677 0.19972187
0.039999999 0.052763883 0.027169881 0.52287865 0.32315677 0.19972187
0.039999999 0.05379482 0.027339486 0.52287865 0.32315677 0.19972187
