# .PCD v0.7 - Point Cloud Data file format
VERSION 0.7
FIELDS x y z vp_x vp_y vp_z
SIZE 4 4 4 4 4 4
TYPE F F F F F F
COUNT 1 1 1 1 1 1
WIDTH 696
HEIGHT 1
VIEWPOINT 0 0 0 1 0 0 0
POINTS 696
DATA ascii
0 0.079573154 0.029461067 0.52287865 0.32315677 -0.19972187
0.039999999 0.00023371913 0.031247625 0.52287865 0.32315677 -0.19972187
0.039999999 0.0013981134 0.031001883 0.52287865 0.32315677 -0.19972187
0.036144257 0 0.032597136 0.52287865 0.32315677 -0.19972187
0.034377858 0 0.033192944 0.52287865 0.32315677 -0.19972187
0.039999999 0.0048759235 0.030268522 0.52287865 0.32315677 -0.19972187
0.030818133 0 0.034393959 0.52287865 0.32315677 -0.19972187
0.039999999 0.0071817948 0.029782806 0.52287865 0.32315677 -0.19972187
0.039999999 0.0083309719 0.029540895 0.52287865 0.32315677 -0.19972187
0.039999999 0.009477661 0.029299611 0.52287865 0.32315677 -0.19972187
0.039999999 0.010621877 0.029058952 0.52287865 0.32315677 -0.19972187
0.039999999 0.011763634 0.028818911 0.52287865 0.32315677 -0.19972187
0.019917874 0 0.038074166 0.52287865 0.32315677 -0.19972187
0.039999999 0.014039822 0.028340681 0.52287865 0.32315677 -0.19972187
0.039999999 0.01517428 0.028102484 0.52287865 0.32315677 -0.19972187
0.039999999 0.016306331 0.027864896 0.52287865 0.32315677 -0.19972187
0.013722355 0.00079905312 0.039999999 0.52287865 0.32315677 -0.19972187
0.013192418 0.0016534015 0.039999999 0.52287865 0.32315677 -0.19972187
0.039999999 0.019688185 0.027155746 0.52287865 0.32315677 -0.19972187
0.039999999 0.020810746 0.026920557 0.52287865 0.32315677 -0.19972187
0.039999999 0.021930965 0.026685961 0.52287865 0.32315677 -0.19972187
0.039999999 0.023048857 0.026451956 0.52287865 0.32315677 -0.19972187
0.039999999 0.024164435 0.026218535 0.52287865 0.32315677 -0.19972187
0.039999999 0.02527771 0.025985701 0.52287865 0.32315677 -0.19972187
0.039999999 0.026388695 0.025753446 0.52287865 0.32315677 -0.19972187
0.0089614838 0.0084929867 0.039999999 0.52287865 0.32315677 -0.19972187
0.039999999 0.02860385 0.025290666 0.52287865 0.32315677 -0.19972187
0.039999999 0.029708043 0.025060134 0.52287865 0.32315677 -0.19972187
0.039999999 0.030809997 0.024830174 0.52287865 0.32315677 -0.19972187
0.0068515181 0.011916299 0.039999999 0.52287865 0.32315677 -0.19972187
0.039999999 0.033007234 0.024371944 0.52287865 0.32315677 -0.19972187
0.039999999 0.034102544 0.024143673 0.52287865 0.32315677 -0.19972187
0.039999999 0.03519566 0.023915958 0.52287865 0.32315677 -0.19972187
0.039999999 0.0362866 0.023688799 0.52287865 0.32315677 -0.19972187
0.0042189769 0.016199138 0.039999999 0.52287865 0.32315677 -0.19972187
0.039999999 0.038461987 0.023236133 0.52287865 0.32315677 -0.19972187
0.039999999 0.03954646 0.023010621 0.52287865 0.32315677 -0.19972187
0.039999999 0.040628802 0.022785652 0.52287865 0.32315677 -0.19972187
0.039999999 0.041709024 0.022561226 0.52287865 0.32315677 -0.19972187
0.039999999 0.042787138 0.022337338 0.52287865 0.32315677 -0.19972187
0.039999999 0.043863155 0.022113984 0.52287865 0.32315677 -0.19972187
0.039999999 0.044937085 0.021891164 0.52287865 0.32315677 -0.19972187
0.039999999 0.046008945 0.021668874 0.52287865 0.32315677 -0.19972187
0.039999999 0.048146483 0.021225875 0.52287865 0.32315677 -0.19972187
0.039999999 0.049212184 0.021005161 0.52287865 0.32315677 -0.19972187
0.039999999 0.050275858 0.020784967 0.52287865 0.32315677 -0.19972187
0.039999999 0.051337518 0.020565288 0.52287865 0.32315677 -0.19972187
0.039999999 0.052397165 0.020346126 0.52287865 0.32315677 -0.19972187
0.039999999 0.05345482 0.020127475 0.52287865 0.32315677 -0.19972187
0.039999999 0.054510485 0.019909335 0.52287865 0.32315677 -0.19972187
0.039999999 0.05556418 0.0196917 0.52287865 0.32315677 -0.19972187
0.039999999 0.056615911 0.019474572 0.52287865 0.32315677 -0.19972187
0 0.035673324 0.037397478 0.52287865 0.32315677 -0.19972187
0 0.036807958 0.037163448 0.52287865 0.32315677 -0.19972187
0.039999999 0.059759427 0.018826189 0.52287865 0.32315677 -0.19972187
0.039999999 0.061845485 0.018396409 0.52287865 0.32315677 -0.19972187
0.039999999 0.062885657 0.018182257 0.52287865 0.32315677 -0.19972187
0.039999999 0.06392394 0.017968591 0.52287865 0.32315677 -0.19972187
0 0.04357224 0.03577048 0.52287865 0.32315677 -0.19972187
0.039999999 0.065994874 0.017542712 0.52287865 0.32315677 -0.19972187
0.039999999 0.068058372 0.017118756 0.52287865 0.32315677 -0.19972187
0.039999999 0.069087364 0.016907493 0.52287865 0.32315677 -0.19972187
0.039999999 0.070114516 0.016696703 0.52287865 0.32315677 -0.19972187
0 0.050263647 0.034396332 0.52287865 0.32315677 -0.19972187
0.039999999 0.072163388 0.016276535 0.52287865 0.32315677 -0.19972187
0.039999999 0.073185116 0.016067151 0.52287865 0.32315677 -0.19972187
0.039999999 0.074205063 0.015858231 0.52287865 0.32315677 -0.19972187
0.039999999 0.075223222 0.015649773 0.52287865 0.32315677 -0.19972187
0.039999999 0.076239616 0.015441775 0.52287865 0.32315677 -0.19972187
0 0.056884531 0.033040456 0.52287865 0.32315677 -0.19972187
0.039999999 0.078267127 0.015027151 0.52287865 0.32315677 -0.19972187
0.039999999 0.079278268 0.014820518 0.52287865 0.32315677 -0.19972187
0.039428022 0.079999998 0.014868221 0.52287865 0.32315677 -0.19972187
0 0.061260406 0.032146435 0.52287865 0.32315677 -0.19972187
0.035386153 0.079999998 0.016247349 0.52287865 0.32315677 -0.19972187
0.033344992 0.079999998 0.016943961 0.52287865 0.32315677 -0.19972187
0.031290151 0.079999998 0.01764534 0.52287865 0.32315677 -0.19972187
0.029221484 0.079999998 0.018351536 0.52287865 0.32315677 -0.19972187
0.02713884 0.079999998 0.019062605 0.52287865 0.32315677 -0.19972187
0.025042066 0.079999998 0.019778596 0.52287865 0.32315677 -0.19972187
0.022931008 0.079999998 0.020499565 0.52287865 0.32315677 -0.19972187
0.020805508 0.079999998 0.021225568 0.52287865 0.32315677 -0.19972187
0 0.070998609 0.030162945 0.52287865 0.32315677 -0.19972187
0.016510542 0.079999998 0.022692889 0.52287865 0.32315677 -0.19972187
0.014340751 0.079999998 0.023434324 0.52287865 0.32315677 -0.19972187
0.012155866 0.079999998 0.024181018 0.52287865 0.32315677 -0.19972187
0.0099557182 0.079999998 0.024933029 0.52287865 0.32315677 -0.19972187
0.0077401372 0.079999998 0.02569042 0.52287865 0.32315677 -0.19972187
0.0055089472 0.079999998 0.026453247 0.52287865 0.32315677 -0.19972187
0.0032619722 0.079999998 0.027221574 0.52287865 0.32315677 -0.19972187
0.00099903287 0.079999998 0.027995463 0.52287865 0.32315677 -0.19972187
0.039999999 0.00024668244 0.030200485 0.52287865 0.32315677 -0.19972187
0.039999999 0.0014104467 0.029956032 0.52287865 0.32315677 -0.19972187
0.039999999 0.0025716422 0.029712217 0.52287865 0.32315677 -0.19972187
0.039999999 0.0037302829 0.029469041 0.52287865 0.32315677 -0.19972187
0.032586396 0 0.032741528 0.52287865 0.32315677 -0.19972187
0.039999999 0.0060399575 0.02898459 0.52287865 0.32315677 -0.19972187
0.029010234 0 0.033942915 0.52287865 0.32315677 -0.19972187
0.039999999 0.008339582 0.028502651 0.52287865 0.32315677 -0.19972187
0.02539737 0 0.035157043 0.52287865 0.32315677 -0.19972187
0.039999999 0.010629268 0.028023196 0.52287865 0.32315677 -0.19972187
0.039999999 0.011770419 0.027784394 0.52287865 0.32315677 -0.19972187
0.039999999 0.012909126 0.027546203 0.52287865 0.32315677 -0.19972187
0.039999999 0.014045403 0.027308621 0.52287865 0.32315677 -0.19972187
0.039999999 0.015179262 0.027071644 0.52287865 0.32315677 -0.19972187
0.039999999 0.01631072 0.02683527 0.52287865 0.32315677 -0.19972187
0.039999999 0.017439786 0.026599495 0.52287865 0.32315677 -0.19972187
0.039999999 0.018566476 0.026364317 0.52287865 0.32315677 -0.19972187
0.039999999 0.0196908 0.026129732 0.52287865 0.32315677 -0.19972187
0.039999999 0.020812776 0.025895737 0.52287865 0.32315677 -0.19972187
0.0092819901 0.0027702211 0.039999999 0.52287865 0.32315677 -0.19972187
0.039999999 0.023049723 0.025429506 0.52287865 0.32315677 -0.19972187
0.039999999 0.024164723 0.025197266 0.52287865 0.32315677 -0.19972187
0.039999999 0.025277423 0.024965601 0.52287865 0.32315677 -0.19972187
0.039999999 0.026387835 0.024734514 0.52287865 0.32315677 -0.19972187
0.039999999 0.027495973 0.024503998 0.52287865 0.32315677 -0.19972187
0.039999999 0.028601849 0.024274051 0.52287865 0.32315677 -0.19972187
0.039999999 0.029705476 0.024044672 0.52287865 0.32315677 -0.19972187
0.039999999 0.030806864 0.023815857 0.52287865 0.32315677 -0.19972187
0.0045102593 0.010500209 0.039999999 0.52287865 0.32315677 -0.19972187
0.039999999 0.03300298 0.023359908 0.52287865 0.32315677 -0.19972187
0.0034522912 0.012219677 0.039999999 0.52287865 0.32315677 -0.19972187
0.0029236253 0.013079659 0.039999999 0.52287865 0.32315677 -0.19972187
0.039999999 0.03628068 0.022680139 0.52287865 0.32315677 -0.19972187
0.039999999 0.037368901 0.022454647 0.52287865 0.32315677 -0.19972187
0.039999999 0.038454968 0.022229701 0.52287865 0.32315677 -0.19972187
0.039999999 0.039538894 0.022005295 0.52287865 0.32315677 -0.19972187
0.039999999 0.040620692 0.021781428 0.52287865 0.32315677 -0.19972187
0.039999999 0.041700371 0.021558098 0.52287865 0.32315677 -0.19972187
0.039999999 0.042777944 0.0213353 0.52287865 0.32315677 -0.19972187
0 0.020716898 0.039406236 0.52287865 0.32315677 -0.19972187
0.039999999 0.044926818 0.020891296 0.52287865 0.32315677 -0.19972187
0.039999999 0.045998141 0.020670082 0.52287865 0.32315677 -0.19972187
0.039999999 0.047067404 0.020449392 0.52287865 0.32315677 -0.19972187
0 0.025352733 0.038449213 0.52287865 0.32315677 -0.19972187
0.039999999 0.049199793 0.020009572 0.52287865 0.32315677 -0.19972187
0.039999999 0.050262943 0.019790435 0.52287865 0.32315677 -0.19972187
0.039999999 0.052383203 0.019353697 0.52287865 0.32315677 -0.19972187
0.039999999 0.053440336 0.01913609 0.52287865 0.32315677 -0.19972187
0.039999999 0.054495487 0.018918989 0.52287865 0.32315677 -0.19972187
0.039999999 0.055548664 0.01870239 0.52287865 0.32315677 -0.19972187
0.039999999 0.056599882 0.018486291 0.52287865 0.32315677 -0.19972187
0.039999999 0.057649147 0.018270688 0.52287865 0.32315677 -0.19972187
0.039999999 0.058696471 0.018055582 0.52287865 0.32315677 -0.19972187
0.039999999 0.059741866 0.017840968 0.52287865 0.32315677 -0.19972187
0 0.039051399 0.035631262 0.52287865 0.32315677 -0.19972187
0 0.040179245 0.035399929 0.52287865 0.32315677 -0.19972187
0.039999999 0.062866576 0.017200058 0.52287865 0.32315677 -0.19972187
0.039999999 0.06390436 0.016987391 0.52287865 0.32315677 -0.19972187
0.039999999 0.064940266 0.016775206 0.52287865 0.32315677 -0.19972187
0.039999999 0.069065303 0.015931219 0.52287865 0.32315677 -0.19972187
0.039999999 0.07009197 0.015721399 0.52287865 0.32315677 -0.19972187
0.039999999 0.07111682 0.015512048 0.52287865 0.32315677 -0.19972187
0 0.051346488 0.033115093 0.52287865 0.32315677 -0.19972187
0.039999999 0.07316111 0.015094736 0.52287865 0.32315677 -0.19972187
0.039999999 0.074180566 0.01488677 0.52287865 0.32315677 -0.19972187
0.039999999 0.075198248 0.014679263 0.52287865 0.32315677 -0.19972187
0.039999999 0.076214157 0.014472212 0.52287865 0.32315677 -0.19972187
0.039999999 0.078240715 0.014059465 0.52287865 0.32315677 -0.19972187
0.039999999 0.079251386 0.013853766 0.52287865 0.32315677 -0.19972187
0.039482482 0.079999998 0.013877191 0.52287865 0.32315677 -0.19972187
0 0.062319063 0.030880313 0.52287865 0.32315677 -0.19972187
0.033403713 0.079999998 0.015941754 0.52287865 0.32315677 -0.19972187
0.03135033 0.079999998 0.016639348 0.52287865 0.32315677 -0.19972187
0.029283136 0.079999998 0.017341727 0.52287865 0.32315677 -0.19972187
0.027201986 0.079999998 0.018048948 0.52287865 0.32315677 -0.19972187
0.025106724 0.079999998 0.018761059 0.52287865 0.32315677 -0.19972187
0.022997199 0.079999998 0.019478118 0.52287865 0.32315677 -0.19972187
0.02087325 0.079999998 0.020200174 0.52287865 0.32315677 -0.19972187
0.01873472 0.079999998 0.020927288 0.52287865 0.32315677 -0.19972187
0.016581448 0.079999998 0.02165951 0.52287865 0.32315677 -0.19972187
0.014413268 0.079999998 0.022396902 0.52287865 0.32315677 -0.19972187
0.012230017 0.079999998 0.023139518 0.52287865 0.32315677 -0.19972187
0.010031524 0.079999998 0.023887416 0.52287865 0.32315677 -0.19972187
0.0078176195 0.079999998 0.024640659 0.52287865 0.32315677 -0.19972187
0 0.077373251 0.027831219 0.52287865 0.32315677 -0.19972187
0 0.078435443 0.027616838 0.52287865 0.32315677 -0.19972187
0.0010816769 0.079999998 0.02693305 0.52287865 0.32315677 -0.19972187
0.039999999 0.00025962951 0.029154658 0.52287865 0.32315677 -0.19972187
0.039999999 0.0014227645 0.02891149 0.52287865 0.32315677 -0.19972187
0.039999999 0.0025833333 0.028668955 0.52287865 0.32315677 -0.19972187
0.039999999 0.0037413505 0.028427053 0.52287865 0.32315677 -0.19972187
0.039999999 0.0048968298 0.028185779 0.52287865 0.32315677 -0.19972187
0.039999999 0.0060497858 0.027945131 0.52287865 0.32315677 -0.19972187
0.039999999 0.0072002318 0.027705105 0.52287865 0.32315677 -0.19972187
0.039999999 0.0083481818 0.027465697 0.52287865 0.32315677 -0.19972187
0.039999999 0.0094936499 0.027226908 0.52287865 0.32315677 -0.19972187
0.039999999 0.010636651 0.02698873 0.52287865 0.32315677 -0.19972187
0.039999999 0.011777196 0.026751161 0.52287865 0.32315677 -0.19972187
0.039999999 0.0129153 0.026514199 0.52287865 0.32315677 -0.19972187
0.018049855 0 0.036551077 0.52287865 0.32315677 -0.19972187
0.039999999 0.01518424 0.02604208 0.52287865 0.32315677 -0.19972187
0.039999999 0.016315103 0.025806919 0.52287865 0.32315677 -0.19972187
0.039999999 0.017443577 0.02557235 0.52287865 0.32315677 -0.19972187
0.010560473 0 0.039059561 0.52287865 0.32315677 -0.19972187
0.039999999 0.019693414 0.025104985 0.52287865 0.32315677 -0.19972187
0.039999999 0.020814802 0.024872182 0.52287865 0.32315677 -0.19972187
0.039999999 0.021933857 0.02463996 0.52287865 0.32315677 -0.19972187
0.006408406 0.0021736149 0.039999999 0.52287865 0.32315677 -0.19972187
0.039999999 0.02416501 0.02417725 0.52287865 0.32315677 -0.19972187
0.039999999 0.025277134 0.023946756 0.52287865 0.32315677 -0.19972187
0.039999999 0.026386974 0.023716833 0.52287865 0.32315677 -0.19972187
0.039999999 0.027494542 0.023487477 0.52287865 0.32315677 -0.19972187
0.039999999 0.028599849 0.023258684 0.52287865 0.32315677 -0.19972187
0.039999999 0.029702911 0.023030454 0.52287865 0.32315677 -0.19972187
0.039999999 0.030803736 0.022802783 0.52287865 0.32315677 -0.19972187
0.039999999 0.031902339 0.022575667 0.52287865 0.32315677 -0.19972187
0.039999999 0.032998733 0.022349106 0.52287865 0.32315677 -0.19972187
0.0010882505 0.01079933 0.039999999 0.52287865 0.32315677 -0.19972187
0.00055740733 0.011662758 0.039999999 0.52287865 0.32315677 -0.19972187
0.039999999 0.036274765 0.021672709 0.52287865 0.32315677 -0.19972187
0 0.013688221 0.039769307 0.52287865 0.32315677 -0.19972187
0.039999999 0.038447957 0.021224493 0.52287865 0.32315677 -0.19972187
0.039999999 0.039531339 0.021001192 0.52287865 0.32315677 -0.19972187
0 0.017207608 0.039043907 0.52287865 0.32315677 -0.19972187
0.039999999 0.041691728 0.020556187 0.52287865 0.32315677 -0.19972187
0 0.019542389 0.038563188 0.52287865 0.32315677 -0.19972187
0.039999999 0.043843705 0.020113297 0.52287865 0.32315677 -0.19972187
0.039999999 0.044916563 0.019892639 0.52287865 0.32315677 -0.19972187
0.039999999 0.045987353 0.0196725 0.52287865 0.32315677 -0.19972187
0 0.024184858 0.03760856 0.52287865 0.32315677 -0.19972187
0.039999999 0.049187418 0.019015186 0.52287865 0.32315677 -0.19972187
0.039999999 0.050250042 0.018797103 0.52287865 0.32315677 -0.19972187
0.039999999 0.051310651 0.01857953 0.52287865 0.32315677 -0.19972187
0 0.029938154 0.036427818 0.52287865 0.32315677 -0.19972187
0.039999999 0.053425871 0.018145898 0.52287865 0.32315677 -0.19972187
0.039999999 0.054480504 0.017929833 0.52287865 0.32315677 -0.19972187
0.039999999 0.055533167 0.017714266 0.52287865 0.32315677 -0.19972187
0.039999999 0.05658387 0.017499195 0.52287865 0.32315677 -0.19972187
0.039999999 0.057632621 0.017284617 0.52287865 0.32315677 -0.19972187
0.039999999 0.058679439 0.017070528 0.52287865 0.32315677 -0.19972187
0.039999999 0.059724327 0.016856929 0.52287865 0.32315677 -0.19972187
0.039999999 0.060767297 0.016643815 0.52287865 0.32315677 -0.19972187
0.039999999 0.061808359 0.016431184 0.52287865 0.32315677 -0.19972187
0.039999999 0.062847525 0.016219035 0.52287865 0.32315677 -0.19972187
0.039999999 0.064920209 0.015796168 0.52287865 0.32315677 -0.19972187
0.039999999 0.066985436 0.015375198 0.52287865 0.32315677 -0.19972187
0.039999999 0.06801527 0.015165417 0.52287865 0.32315677 -0.19972187
0.039999999 0.069043271 0.014956105 0.52287865 0.32315677 -0.19972187
0 0.049104571 0.032513138 0.52287865 0.32315677 -0.19972187
0.039999999 0.071093813 0.014538869 0.52287865 0.32315677 -0.19972187
0.039999999 0.072116368 0.014330943 0.52287865 0.32315677 -0.19972187
0.039999999 0.073137127 0.014123474 0.52287865 0.32315677 -0.19972187
0 0.053529747 0.031613525 0.52287865 0.32315677 -0.19972187
0.039999999 0.075173303 0.013709903 0.52287865 0.32315677 -0.19972187
0.039999999 0.076188736 0.013503795 0.52287865 0.32315677 -0.19972187
0.039999999 0.07720241 0.013298135 0.52287865 0.32315677 -0.19972187
0.039999999 0.07821434 0.013092923 0.52287865 0.32315677 -0.19972187
0.039999999 0.079224527 0.012888156 0.52287865 0.32315677 -0.19972187
0.039536864 0.079999998 0.012887551 0.52287865 0.32315677 -0.19972187
0.037525427 0.079999998 0.013567401 0.52287865 0.32315677 -0.19972187
0.035500638 0.079999998 0.014251856 0.52287865 0.32315677 -0.19972187
0 0.063374892 0.029617887 0.52287865 0.32315677 -0.19972187
0.031410418 0.079999998 0.015634784 0.52287865 0.32315677 -0.19972187
0.0293447 0.079999998 0.016333358 0.52287865 0.32315677 -0.19972187
0.027265042 0.079999998 0.01703674 0.52287865 0.32315677 -0.19972187
0 0.067702472 0.028743254 0.52287865 0.32315677 -0.19972187
0.023063293 0.079999998 0.018458137 0.52287865 0.32315677 -0.19972187
0.020940894 0.079999998 0.01917626 0.52287865 0.32315677 -0.19972187
0.018803934 0.079999998 0.019899406 0.52287865 0.32315677 -0.19972187
0.016652251 0.079999998 0.020627629 0.52287865 0.32315677 -0.19972187
0.014485681 0.079999998 0.021360988 0.52287865 0.32315677 -0.19972187
0.01230406 0.079999998 0.022099536 0.52287865 0.32315677 -0.19972187
0.0078949872 0.079999998 0.02359244 0.52287865 0.32315677 -0.19972187
0.0056671915 0.079999998 0.024346914 0.52287865 0.32315677 -0.19972187
0.0034236545 0.079999998 0.025106817 0.52287865 0.32315677 -0.19972187
0.0011641985 0.079999998 0.02587221 0.52287865 0.32315677 -0.19972187
0.039999999 0.0002725604 0.028110137 0.52287865 0.32315677 -0.19972187
0.037846077 0 0.028883435 0.52287865 0.32315677 -0.19972187
0.036091004 0 0.029467426 0.52287865 0.32315677 -0.19972187
0.039999999 0.0037524044 0.02738636 0.52287865 0.32315677 -0.19972187
0.039999999 0.0049072634 0.027146352 0.52287865 0.32315677 -0.19972187
0.039999999 0.0060596019 0.026906963 0.52287865 0.32315677 -0.19972187
0.039999999 0.0072094328 0.026668191 0.52287865 0.32315677 -0.19972187
0.039999999 0.0083567714 0.026430031 0.52287865 0.32315677 -0.19972187
0.025372041 0 0.033036161 0.52287865 0.32315677 -0.19972187
0.039999999 0.010644023 0.025955543 0.52287865 0.32315677 -0.19972187
0.039999999 0.011783965 0.025719205 0.52287865 0.32315677 -0.19972187
0.039999999 0.012921467 0.025483469 0.52287865 0.32315677 -0.19972187
0.039999999 0.014056545 0.02524833 0.52287865 0.32315677 -0.19972187
0.039999999 0.015189211 0.025013786 0.52287865 0.32315677 -0.19972187
0.014317567 0 0.036720205 0.52287865 0.32315677 -0.19972187
0.039999999 0.017447362 0.02454647 0.52287865 0.32315677 -0.19972187
0.039999999 0.018572873 0.024313694 0.52287865 0.32315677 -0.19972187
0.039999999 0.019696023 0.024081498 0.52287865 0.32315677 -0.19972187
0.039999999 0.020816829 0.023849882 0.52287865 0.32315677 -0.19972187
0.039999999 0.021935301 0.023618843 0.52287865 0.32315677 -0.19972187
0.039999999 0.023051454 0.023388378 0.52287865 0.32315677 -0.19972187
0.039999999 0.024165299 0.023158483 0.52287865 0.32315677 -0.19972187
0.039999999 0.025276847 0.022929158 0.52287865 0.32315677 -0.19972187
0.039999999 0.026386116 0.022700395 0.52287865 0.32315677 -0.19972187
0.0019080684 0.004169655 0.039999999 0.52287865 0.32315677 -0.19972187
0.039999999 0.028597854 0.022244556 0.52287865 0.32315677 -0.19972187
0.00083970808 0.0059017418 0.039999999 0.52287865 0.32315677 -0.19972187
0.039999999 0.030800611 0.021790944 0.52287865 0.32315677 -0.19972187
0.039999999 0.031898655 0.021564964 0.52287865 0.32315677 -0.19972187
0 0.0089584459 0.039651498 0.52287865 0.32315677 -0.19972187
0.039999999 0.034088124 0.021114647 0.52287865 0.32315677 -0.19972187
0.039999999 0.035179578 0.020890305 0.52287865 0.32315677 -0.19972187
0.039999999 0.03626886 0.020666501 0.52287865 0.32315677 -0.19972187
0.039999999 0.037355982 0.020443235 0.52287865 0.32315677 -0.19972187
0.039999999 0.038440954 0.020220503 0.52287865 0.32315677 -0.19972187
0 0.016028613 0.038199164 0.52287865 0.32315677 -0.19972187
0.039999999 0.040604498 0.019776631 0.52287865 0.32315677 -0.19972187
0.039999999 0.041683096 0.019555487 0.52287865 0.32315677 -0.19972187
0.039999999 0.042759594 0.019334866 0.52287865 0.32315677 -0.19972187
0.039999999 0.043833997 0.019114766 0.52287865 0.32315677 -0.19972187
0.039999999 0.044906322 0.018895185 0.52287865 0.32315677 -0.19972187
0.039999999 0.045976579 0.018676119 0.52287865 0.32315677 -0.19972187
0.039999999 0.04704478 0.018457567 0.52287865 0.32315677 -0.19972187
0.039999999 0.048110936 0.018239524 0.52287865 0.32315677 -0.19972187
0.039999999 0.049175058 0.018021991 0.52287865 0.32315677 -0.19972187
0.039999999 0.050237156 0.017804964 0.52287865 0.32315677 -0.19972187
0.039999999 0.051297244 0.01758844 0.52287865 0.32315677 -0.19972187
0.039999999 0.052355327 0.017372416 0.52287865 0.32315677 -0.19972187
0.039999999 0.053411424 0.017156892 0.52287865 0.32315677 -0.19972187
0.039999999 0.05446554 0.01694186 0.52287865 0.32315677 -0.19972187
0.039999999 0.055517688 0.016727325 0.52287865 0.32315677 -0.19972187
0.039999999 0.056567878 0.016513279 0.52287865 0.32315677 -0.19972187
0 0.03561965 0.034194205 0.52287865 0.32315677 -0.19972187
0.039999999 0.059706807 0.015874062 0.52287865 0.32315677 -0.19972187
0.039999999 0.06074927 0.015661957 0.52287865 0.32315677 -0.19972187
0.039999999 0.061789829 0.015450329 0.52287865 0.32315677 -0.19972187
0.039999999 0.062828496 0.015239177 0.52287865 0.32315677 -0.19972187
0.039999999 0.063865274 0.0150285 0.52287865 0.32315677 -0.19972187
0.039999999 0.064900182 0.014818295 0.52287865 0.32315677 -0.19972187
0.039999999 0.06593322 0.014608558 0.52287865 0.32315677 -0.19972187
0.039999999 0.06696441 0.01439929 0.52287865 0.32315677 -0.19972187
0.039999999 0.06799376 0.014190486 0.52287865 0.32315677 -0.19972187
0.039999999 0.06902127 0.013982144 0.52287865 0.32315677 -0.19972187
0.039999999 0.070046954 0.013774264 0.52287865 0.32315677 -0.19972187
0.039999999 0.071070828 0.01356684 0.52287865 0.32315677 -0.19972187
0.039999999 0.072092898 0.013359874 0.52287865 0.32315677 -0.19972187
0.039999999 0.073113173 0.013153359 0.52287865 0.32315677 -0.19972187
0.039999999 0.074131668 0.012947298 0.52287865 0.32315677 -0.19972187
0.039999999 0.075148389 0.012741684 0.52287865 0.32315677 -0.19972187
0 0.05680038 0.029897591 0.52287865 0.32315677 -0.19972187
0.039999999 0.078187987 0.012127518 0.52287865 0.32315677 -0.19972187
0.039999999 0.079197705 0.01192368 0.52287865 0.32315677 -0.19972187
0.039591171 0.079999998 0.011899296 0.52287865 0.32315677 -0.19972187
0.037581131 0.079999998 0.012575469 0.52287865 0.32315677 -0.19972187
0.035557758 0.079999998 0.013256218 0.52287865 0.32315677 -0.19972187
0.033520903 0.079999998 0.013941593 0.52287865 0.32315677 -0.19972187
0 0.06442792 0.028359123 0.52287865 0.32315677 -0.19972187
0.029406177 0.079999998 0.015326418 0.52287865 0.32315677 -0.19972187
0.027328007 0.079999998 0.016025972 0.52287865 0.32315677 -0.19972187
0.025235765 0.079999998 0.016730353 0.52287865 0.32315677 -0.19972187
0.023129294 0.079999998 0.017439617 0.52287865 0.32315677 -0.19972187
0.021008441 0.079999998 0.018153816 0.52287865 0.32315677 -0.19972187
0.018873047 0.079999998 0.018873006 0.52287865 0.32315677 -0.19972187
0 0.071966305 0.026843356 0.52287865 0.32315677 -0.19972187
0 0.073036142 0.026628625 0.52287865 0.32315677 -0.19972187
0.012377996 0.079999998 0.021061067 0.52287865 0.32315677 -0.19972187
0.010182804 0.079999998 0.021800773 0.52287865 0.32315677 -0.19972187
0.0079722432 0.079999998 0.022545755 0.52287865 0.32315677 -0.19972187
0.0057461392 0.079999998 0.023296067 0.52287865 0.32315677 -0.19972187
0.003504317 0.079999998 0.024051774 0.52287865 0.32315677 -0.19972187
0.0012465983 0.079999998 0.024812935 0.52287865 0.32315677 -0.19972187
0.039999999 0.00028547525 0.027066914 0.52287865 0.32315677 -0.19972187
0.039999999 0.0014473541 0.026826305 0.52287865 0.32315677 -0.19972187
0.039999999 0.0026066725 0.026586322 0.52287865 0.32315677 -0.19972187
0.039999999 0.0037634445 0.026346957 0.52287865 0.32315677 -0.19972187
0.032538172 0 0.029597918 0.52287865 0.32315677 -0.19972187
0.039999999 0.0060694055 0.025870079 0.52287865 0.32315677 -0.19972187
0.039999999 0.0072186231 0.025632557 0.52287865 0.32315677 -0.19972187
0.039999999 0.0083653498 0.025395645 0.52287865 0.32315677 -0.19972187
0.039999999 0.0095095998 0.025159335 0.52287865 0.32315677 -0.19972187
0.039999999 0.010651387 0.024923628 0.52287865 0.32315677 -0.19972187
0.039999999 0.011790724 0.02468852 0.52287865 0.32315677 -0.19972187
0.039999999 0.012927626 0.024454007 0.52287865 0.32315677 -0.19972187
0.018031679 0 0.034408212 0.52287865 0.32315677 -0.19972187
0.039999999 0.015194176 0.023986755 0.52287865 0.32315677 -0.19972187
0.039999999 0.01632385 0.02375401 0.52287865 0.32315677 -0.19972187
0.012434972 0 0.036265671 0.52287865 0.32315677 -0.19972187
0.010549727 0 0.03689155 0.52287865 0.32315677 -0.19972187
0.039999999 0.019698629 0.023059262 0.52287865 0.32315677 -0.19972187
0.039999999 0.020818852 0.022828832 0.52287865 0.32315677 -0.19972187
0.039999999 0.021936743 0.022598974 0.52287865 0.32315677 -0.19972187
0.039999999 0.023052316 0.022369685 0.52287865 0.32315677 -0.19972187
0.039999999 0.024165586 0.022140959 0.52287865 0.32315677 -0.19972187
0.039999999 0.02527656 0.021912798 0.52287865 0.32315677 -0.19972187
5.6256915e-05 0.0018363046 0.039999999 0.52287865 0.32315677 -0.19972187
0.039999999 0.027491685 0.021458151 0.52287865 0.32315677 -0.19972187
0.039999999 0.028595859 0.021231661 0.52287865 0.32315677 -0.19972187
0.039999999 0.029697791 0.021005722 0.52287865 0.32315677 -0.19972187
0.039999999 0.030797491 0.020780331 0.52287865 0.32315677 -0.19972187
0.039999999 0.031894974 0.020555485 0.52287865 0.32315677 -0.19972187
0.039999999 0.032990251 0.020331183 0.52287865 0.32315677 -0.19972187
0.039999999 0.034083333 0.020107422 0.52287865 0.32315677 -0.19972187
0.039999999 0.035174232 0.019884197 0.52287865 0.32315677 -0.19972187
0.039999999 0.036262963 0.019661509 0.52287865 0.32315677 -0.19972187
0.039999999 0.037349533 0.019439351 0.52287865 0.32315677 -0.19972187
0.039999999 0.038433958 0.019217724 0.52287865 0.32315677 -0.19972187
0.039999999 0.040596418 0.018776046 0.52287865 0.32315677 -0.19972187
0.039999999 0.041674476 0.018555989 0.52287865 0.32315677 -0.19972187
0.039999999 0.042750433 0.018336453 0.52287865 0.32315677 -0.19972187
0.039999999 0.0438243 0.018117433 0.52287865 0.32315677 -0.19972187
0 0.021845937 0.035925884 0.52287865 0.32315677 -0.19972187
0.039999999 0.045965817 0.017680932 0.52287865 0.32315677 -0.19972187
0 0.024160389 0.035454325 0.52287865 0.32315677 -0.19972187
0.039999999 0.048099115 0.017246464 0.52287865 0.32315677 -0.19972187
0.039999999 0.049162712 0.017029986 0.52287865 0.32315677 -0.19972187
0.039999999 0.050224286 0.01681401 0.52287865 0.32315677 -0.19972187
0.039999999 0.051283851 0.016598532 0.52287865 0.32315677 -0.19972187
0.039999999 0.052341416 0.016383551 0.52287865 0.32315677 -0.19972187
0.039999999 0.053396992 0.016169062 0.52287865 0.32315677 -0.19972187
0.039999999 0.054450594 0.015955066 0.52287865 0.32315677 -0.19972187
0 0.033330649 0.033589803 0.52287865 0.32315677 -0.19972187
0.039999999 0.056551903 0.015528535 0.52287865 0.32315677 -0.19972187
0 0.035601798 0.033128992 0.52287865 0.32315677 -0.19972187
0.039999999 0.058645431 0.01510394 0.52287865 0.32315677 -0.19972187
0 0.03786457 0.032670263 0.52287865 0.32315677 -0.19972187
0.039999999 0.060731266 0.014681261 0.52287865 0.32315677 -0.19972187
0.039999999 0.061771322 0.014470634 0.52287865 0.32315677 -0.19972187
0.039999999 0.062809482 0.014260479 0.52287865 0.32315677 -0.19972187
0.039999999 0.063845769 0.014050794 0.52287865 0.32315677 -0.19972187
0.039999999 0.064880177 0.013841576 0.52287865 0.32315677 -0.19972187
0.039999999 0.065912724 0.013632823 0.52287865 0.32315677 -0.19972187
0.039999999 0.066943415 0.013424533 0.52287865 0.32315677 -0.19972187
0.039999999 0.067972265 0.013216703 0.52287865 0.32315677 -0.19972187
0.039999999 0.06899929 0.013009332 0.52287865 0.32315677 -0.19972187
0.039999999 0.07002449 0.012802416 0.52287865 0.32315677 -0.19972187
0.039999999 0.072069459 0.012389945 0.52287865 0.32315677 -0.19972187
0.039999999 0.073089249 0.012184384 0.52287865 0.32315677 -0.19972187
0.039999999 0.07410726 0.011979271 0.52287865 0.32315677 -0.19972187
0.039999999 0.075123496 0.011774601 0.52287865 0.32315677 -0.19972187
0 0.055675786 0.029073097 0.52287865 0.32315677 -0.19972187
0.039999999 0.077150695 0.01136659 0.52287865 0.32315677 -0.19972187
0.039999999 0.078161672 0.011163242 0.52287865 0.32315677 -0.19972187
0.039999999 0.079170913 0.010960332 0.52287865 0.32315677 -0.19972187
0.039645404 0.079999998 0.010912418 0.52287865 0.32315677 -0.19972187
0.037636761 0.079999998 0.011584923 0.52287865 0.32315677 -0.19972187
0.0356148 0.079999998 0.012261975 0.52287865 0.32315677 -0.19972187
0.033579376 0.079999998 0.012943622 0.52287865 0.32315677 -0.19972187
0.03153035 0.079999998 0.013629914 0.52287865 0.32315677 -0.19972187
0.029467568 0.079999998 0.014320902 0.52287865 0.32315677 -0.19972187
0.027390884 0.079999998 0.015016636 0.52287865 0.32315677 -0.19972187
0.025300145 0.079999998 0.015717167 0.52287865 0.32315677 -0.19972187
0.0231952 0.079999998 0.016422549 0.52287865 0.32315677 -0.19972187
0.021075891 0.079999998 0.017132834 0.52287865 0.32315677 -0.19972187
0.018942062 0.079999998 0.017848076 0.52287865 0.32315677 -0.19972187
0.016793549 0.079999998 0.018568331 0.52287865 0.32315677 -0.19972187
0.014630192 0.079999998 0.019293653 0.52287865 0.32315677 -0.19972187
0.012451825 0.079999998 0.020024098 0.52287865 0.32315677 -0.19972187
0.010258279 0.079999998 0.020759726 0.52287865 0.32315677 -0.19972187
0.0080493856 0.079999998 0.021500591 0.52287865 0.32315677 -0.19972187
0.0058249715 0.079999998 0.022246756 0.52287865 0.32315677 -0.19972187
0.0035848613 0.079999998 0.022998277 0.52287865 0.32315677 -0.19972187
0.0013288772 0.079999998 0.023755217 0.52287865 0.32315677 -0.19972187
0.039999999 0.00029837413 0.026024982 0.52287865 0.32315677 -0.19972187
0.039999999 0.0014596261 0.025785649 0.52287865 0.32315677 -0.19972187
0.039999999 0.0026183203 0.025546936 0.52287865 0.32315677 -0.19972187
0.039999999 0.0037744709 0.025308836 0.52287865 0.32315677 -0.19972187
0.039999999 0.004928092 0.025071349 0.52287865 0.32315677 -0.19972187
0.039999999 0.0060791974 0.024834471 0.52287865 0.32315677 -0.19972187
0.039999999 0.0072278017 0.024598198 0.52287865 0.32315677 -0.19972187
0.039999999 0.008373918 0.024362527 0.52287865 0.32315677 -0.19972187
0.039999999 0.0095175598 0.024127455 0.52287865 0.32315677 -0.19972187
0.039999999 0.010658742 0.02389298 0.52287865 0.32315677 -0.19972187
0.039999999 0.011797477 0.023659099 0.52287865 0.32315677 -0.19972187
0.039999999 0.012933778 0.023425806 0.52287865 0.32315677 -0.19972187
0.018022608 0 0.033338692 0.52287865 0.32315677 -0.19972187
0.039999999 0.015199135 0.022960979 0.52287865 0.32315677 -0.19972187
0.039999999 0.016328217 0.022729438 0.52287865 0.32315677 -0.19972187
0.012428667 0 0.035186779 0.52287865 0.32315677 -0.19972187
0.039999999 0.018579252 0.022268087 0.52287865 0.32315677 -0.19972187
0.039999999 0.019701233 0.022038272 0.52287865 0.32315677 -0.19972187
0.039999999 0.020820873 0.021809025 0.52287865 0.32315677 -0.19972187
0.039999999 0.021938184 0.021580344 0.52287865 0.32315677 -0.19972187
0.0029065148 0 0.038334567 0.52287865 0.32315677 -0.19972187
0.00097144162 0 0.038974542 0.52287865 0.32315677 -0.19972187
0.039999999 0.025276275 0.02089767 0.52287865 0.32315677 -0.19972187
0.039999999 0.0263844 0.020671226 0.52287865 0.32315677 -0.19972187
0.039999999 0.02749026 0.020445334 0.52287865 0.32315677 -0.19972187
0.039999999 0.028593868 0.020219989 0.52287865 0.32315677 -0.19972187
0.039999999 0.029695235 0.019995192 0.52287865 0.32315677 -0.19972187
0.039999999 0.030794373 0.019770937 0.52287865 0.32315677 -0.19972187
0.039999999 0.031891298 0.019547224 0.52287865 0.32315677 -0.19972187
0.039999999 0.032986015 0.019324049 0.52287865 0.32315677 -0.19972187
0.039999999 0.034078542 0.019101409 0.52287865 0.32315677 -0.19972187
0.039999999 0.03516889 0.0188793 0.52287865 0.32315677 -0.19972187
0.039999999 0.03625707 0.018657723 0.52287865 0.32315677 -0.19972187
0.039999999 0.037343096 0.018436672 0.52287865 0.32315677 -0.19972187
0.039999999 0.038426973 0.018216146 0.52287865 0.32315677 -0.19972187
0.039999999 0.040588345 0.017776657 0.52287865 0.32315677 -0.19972187
0.039999999 0.041665863 0.01755769 0.52287865 0.32315677 -0.19972187
0.039999999 0.042741284 0.017339235 0.52287865 0.32315677 -0.19972187
0 0.020674877 0.03508383 0.52287865 0.32315677 -0.19972187
0.039999999 0.044885874 0.016903859 0.52287865 0.32315677 -0.19972187
0.039999999 0.045955066 0.016686931 0.52287865 0.32315677 -0.19972187
0.039999999 0.047022209 0.016470507 0.52287865 0.32315677 -0.19972187
0.039999999 0.04808731 0.016254585 0.52287865 0.32315677 -0.19972187
0.039999999 0.049150381 0.016039163 0.52287865 0.32315677 -0.19972187
0.039999999 0.05021143 0.015824234 0.52287865 0.32315677 -0.19972187
0.039999999 0.051270474 0.015609802 0.52287865 0.32315677 -0.19972187
0.039999999 0.052327521 0.015395859 0.52287865 0.32315677 -0.19972187
0.039999999 0.053382579 0.015182407 0.52287865 0.32315677 -0.19972187
0.039999999 0.054435663 0.01496944 0.52287865 0.32315677 -0.19972187
0.039999999 0.055486783 0.014756957 0.52287865 0.32315677 -0.19972187
0.039999999 0.056535948 0.014544956 0.52287865 0.32315677 -0.19972187
0 0.035583969 0.032065038 0.52287865 0.32315677 -0.19972187
0.039999999 0.058628459 0.01412239 0.52287865 0.32315677 -0.19972187
0.039999999 0.059671827 0.01391182 0.52287865 0.32315677 -0.19972187
0.039999999 0.060713284 0.013701723 0.52287865 0.32315677 -0.19972187
0.039999999 0.061752837 0.013492094 0.52287865 0.32315677 -0.19972187
0.039999999 0.062790498 0.013282934 0.52287865 0.32315677 -0.19972187
0.039999999 0.063826278 0.013074239 0.52287865 0.32315677 -0.19972187
0.039999999 0.064860195 0.012866006 0.52287865 0.32315677 -0.19972187
0.039999999 0.065892242 0.012658235 0.52287865 0.32315677 -0.19972187
0 0.045696877 0.030026583 0.52287865 0.32315677 -0.19972187
0.039999999 0.067950808 0.012244064 0.52287865 0.32315677 -0.19972187
0.039999999 0.068977334 0.012037661 0.52287865 0.32315677 -0.19972187
0.039999999 0.070002049 0.011831709 0.52287865 0.32315677 -0.19972187
0.039999999 0.071024947 0.011626206 0.52287865 0.32315677 -0.19972187
0.039999999 0.072046049 0.011421151 0.52287865 0.32315677 -0.19972187
0.039999999 0.073065355 0.011216542 0.52287865 0.32315677 -0.19972187
0.039999999 0.074082881 0.011012374 0.52287865 0.32315677 -0.19972187
0 0.055648353 0.028028142 0.52287865 0.32315677 -0.19972187
0.039999999 0.077124879 0.010402508 0.52287865 0.32315677 -0.19972187
0.039999999 0.078135379 0.010200091 0.52287865 0.32315677 -0.19972187
0.039999999 0.07914415 0.0099981055 0.52287865 0.32315677 -0.19972187
0.039699558 0.079999998 0.0099269096 0.52287865 0.32315677 -0.19972187
0.037692308 0.079999998 0.010595755 0.52287865 0.32315677 -0.19972187
0.033637766 0.079999998 0.011947048 0.52287865 0.32315677 -0.19972187
0 0.064364851 0.026283938 0.52287865 0.32315677 -0.19972187
0.029528871 0.079999998 0.013316801 0.52287865 0.32315677 -0.19972187
0.027453672 0.079999998 0.014008725 0.52287865 0.32315677 -0.19972187
0.025364436 0.079999998 0.014705416 0.52287865 0.32315677 -0.19972187
0.023261014 0.079999998 0.015406925 0.52287865 0.32315677 -0.19972187
0.021143246 0.079999998 0.016113305 0.52287865 0.32315677 -0.19972187
0 0.070825666 0.024994932 0.52287865 0.32315677 -0.19972187
0.016864046 0.079999998 0.017540898 0.52287865 0.32315677 -0.19972187
0.014702291 0.079999998 0.018262217 0.52287865 0.32315677 -0.19972187
0.012525546 0.079999998 0.018988626 0.52287865 0.32315677 -0.19972187
0.010333645 0.079999998 0.019720184 0.52287865 0.32315677 -0.19972187
0.0081264162 0.079999998 0.020456946 0.52287865 0.32315677 -0.19972187
0.0059036892 0.079999998 0.021198971 0.52287865 0.32315677 -0.19972187
0.0036652882 0.079999998 0.021946318 0.52287865 0.32315677 -0.19972187
0.0014110354 0.079999998 0.022699049 0.52287865 0.32315677 -0.19972187
0.039999999 0.00031125711 0.024984332 0.52287865 0.32315677 -0.19972187
0.039999999 0.001471883 0.024746273 0.52287865 0.32315677 -0.19972187
0.039999999 0.0026299539 0.024508826 0.52287865 0.32315677 -0.19972187
0.039999999 0.003785484 0.024271989 0.52287865 0.32315677 -0.19972187
0.039999999 0.004938487 0.024035759 0.52287865 0.32315677 -0.19972187
0.039999999 0.0060889772 0.023800133 0.52287865 0.32315677 -0.19972187
0.028938401 0 0.028680077 0.52287865 0.32315677 -0.19972187
0.039999999 0.008382475 0.023330674 0.52287865 0.32315677 -0.19972187
0.039999999 0.0095255096 0.023096837 0.52287865 0.32315677 -0.19972187
0.039999999 0.010666087 0.022863591 0.52287865 0.32315677 -0.19972187
0.02169276 0 0.03106093 0.52287865 0.32315677 -0.19972187
0.039999999 0.012939923 0.022398857 0.52287865 0.32315677 -0.19972187
0.039999999 0.014073207 0.022167364 0.52287865 0.32315677 -0.19972187
0.039999999 0.015204088 0.02193645 0.52287865 0.32315677 -0.19972187
0.039999999 0.016332578 0.021706112 0.52287865 0.32315677 -0.19972187
0.039999999 0.01745869 0.021476345 0.52287865 0.32315677 -0.19972187
0.039999999 0.018582437 0.021247149 0.52287865 0.32315677 -0.19972187
0.039999999 0.019703833 0.021018518 0.52287865 0.32315677 -0.19972187
0.039999999 0.02082289 0.020790452 0.52287865 0.32315677 -0.19972187
0.039999999 0.021939622 0.020562947 0.52287865 0.32315677 -0.19972187
0.0029050224 0 0.037240956 0.52287865 0.32315677 -0.19972187
0.039999999 0.024166159 0.020109609 0.52287865 0.32315677 -0.19972187
0.039999999 0.025275989 0.019883769 0.52287865 0.32315677 -0.19972187
0.039999999 0.026383543 0.019658478 0.52287865 0.32315677 -0.19972187
0 0.0029967255 0.037587829 0.52287865 0.32315677 -0.19972187
0.039999999 0.028591879 0.019209536 0.52287865 0.32315677 -0.19972187
0.039999999 0.029692682 0.018985877 0.52287865 0.32315677 -0.19972187
0.039999999 0.03079126 0.018762756 0.52287865 0.32315677 -0.19972187
0.039999999 0.031887624 0.018540174 0.52287865 0.32315677 -0.19972187
0.039999999 0.032981787 0.018318122 0.52287865 0.32315677 -0.19972187
0.039999999 0.034073759 0.018096602 0.52287865 0.32315677 -0.19972187
0.039999999 0.035163555 0.017875608 0.52287865 0.32315677 -0.19972187
0.039999999 0.036251187 0.01765514 0.52287865 0.32315677 -0.19972187
0.039999999 0.037336662 0.017435193 0.52287865 0.32315677 -0.19972187
0.039999999 0.038419995 0.017215766 0.52287865 0.32315677 -0.19972187
0 0.016004153 0.034949087 0.52287865 0.32315677 -0.19972187
0.039999999 0.040580284 0.016778462 0.52287865 0.32315677 -0.19972187
0 0.018338816 0.034476671 0.52287865 0.32315677 -0.19972187
0.039999999 0.042732146 0.016343204 0.52287865 0.32315677 -0.19972187
0.039999999 0.043804944 0.016126337 0.52287865 0.32315677 -0.19972187
0.039999999 0.044875666 0.015909974 0.52287865 0.32315677 -0.19972187
0.039999999 0.045944329 0.015694112 0.52287865 0.32315677 -0.19972187
0.039999999 0.047010943 0.015478749 0.52287865 0.32315677 -0.19972187
0.039999999 0.048075516 0.015263883 0.52287865 0.32315677 -0.19972187
0.039999999 0.049138062 0.015049511 0.52287865 0.32315677 -0.19972187
0 0.027587678 0.032608833 0.52287865 0.32315677 -0.19972187
0.039999999 0.051257115 0.014622239 0.52287865 0.32315677 -0.19972187
0.039999999 0.052313641 0.014409335 0.52287865 0.32315677 -0.19972187
0.039999999 0.053368185 0.014196916 0.52287865 0.32315677 -0.19972187
0.039999999 0.054420751 0.013984977 0.52287865 0.32315677 -0.19972187
0.039999999 0.055471357 0.013773519 0.52287865 0.32315677 -0.19972187
0 0.034432746 0.031230282 0.52287865 0.32315677 -0.19972187
0 0.035566162 0.031002337 0.52287865 0.32315677 -0.19972187
0.039999999 0.058611508 0.013141995 0.52287865 0.32315677 -0.19972187
0.039999999 0.05965437 0.012932431 0.52287865 0.32315677 -0.19972187
0.039999999 0.06069532 0.012723335 0.52287865 0.32315677 -0.19972187
0.039999999 0.061734375 0.012514703 0.52287865 0.32315677 -0.19972187
0.039999999 0.062771536 0.012306535 0.52287865 0.32315677 -0.19972187
0.039999999 0.063806817 0.012098827 0.52287865 0.32315677 -0.19972187
0 0.043442186 0.029420907 0.52287865 0.32315677 -0.19972187
0.039999999 0.06587179 0.011684787 0.52287865 0.32315677 -0.19972187
0.039999999 0.066901498 0.011478447 0.52287865 0.32315677 -0.19972187
0.039999999 0.067929365 0.011272561 0.52287865 0.32315677 -0.19972187
0.039999999 0.068955407 0.011067123 0.52287865 0.32315677 -0.19972187
0.039999999 0.06997963 0.010862133 0.52287865 0.32315677 -0.19972187
0.039999999 0.071002044 0.010657588 0.52287865 0.32315677 -0.19972187
0 0.051219579 0.027863689 0.52287865 0.32315677 -0.19972187
0.039999999 0.074058533 0.010046602 0.52287865 0.32315677 -0.19972187
0.039999999 0.075073808 0.009843816 0.52287865 0.32315677 -0.19972187
0.039999999 0.076087326 0.0096414648 0.52287865 0.32315677 -0.19972187
0.039999999 0.077099092 0.0094395448 0.52287865 0.32315677 -0.19972187
0 0.057810221 0.026547575 0.52287865 0.32315677 -0.19972187
0.039999999 0.079117417 0.0090369936 0.52287865 0.32315677 -0.19972187
0.039753638 0.079999998 0.0089427615 0.52287865 0.32315677 -0.19972187
0 0.061080094 0.025895804 0.52287865 0.32315677 -0.19972187
0.035728641 0.079999998 0.010277642 0.52287865 0.32315677 -0.19972187
0.033696078 0.079999998 0.010951862 0.52287865 0.32315677 -0.19972187
0 0.064333372 0.025248144 0.52287865 0.32315677 -0.19972187
0.029590089 0.079999998 0.012314106 0.52287865 0.32315677 -0.19972187
0 0.066493131 0.024818625 0.52287865 0.32315677 -0.19972187
0.025428636 0.079999998 0.013695091 0.52287865 0.32315677 -0.19972187
0.023326734 0.079999998 0.014392737 0.52287865 0.32315677 -0.19972187
0.021210505 0.079999998 0.015095225 0.52287865 0.32315677 -0.19972187
0.019079795 0.079999998 0.015802603 0.52287865 0.32315677 -0.19972187
0.016934443 0.079999998 0.016514929 0.52287865 0.32315677 -0.19972187
0.014774287 0.079999998 0.017232256 0.52287865 0.32315677 -0.19972187
0.012599163 0.079999998 0.01795464 0.52287865 0.32315677 -0.19972187
0 0.07506118 0.023118198 0.52287865 0.32315677 -0.19972187
0.008203336 0.079999998 0.019414807 0.52287865 0.32315677 -0.19972187
0.0059822933 0.079999998 0.020152703 0.52287865 0.32315677 -0.19972187
0.0037455983 0.079999998 0.020895887 0.52287865 0.32315677 -0.19972187
0.001493074 0.079999998 0.021644417 0.52287865 0.32315677 -0.19972187
0.039999999 0.0003241243 0.023944957 0.52287865 0.32315677 -0.19972187
0.039999999 0.0014841249 0.023708168 0.52287865 0.32315677 -0.19972187
0.039999999 0.0026415733 0.023471989 0.52287865 0.32315677 -0.19972187
0.039999999 0.0037964834 0.023236411 0.52287865 0.32315677 -0.19972187
0.032490119 0 0.026465297 0.52287865 0.32315677 -0.19972187
0.039999999 0.0060987454 0.022767056 0.52287865 0.32315677 -0.19972187
0.039999999 0.007246125 0.022533271 0.52287865 0.32315677 -0.19972187
0.039999999 0.0083910227 0.022300078 0.52287865 0.32315677 -0.19972187
0.039999999 0.0095334509 0.022067472 0.52287865 0.32315677 -0.19972187
0.039999999 0.010673424 0.021835452 0.52287865 0.32315677 -0.19972187
0.039999999 0.011810956 0.021604015 0.52287865 0.32315677 -0.19972187
0.01984797 0 0.030600138 0.52287865 0.32315677 -0.19972187
0.039999999 0.014078747 0.021142872 0.52287865 0.32315677 -0.19972187
0.039999999 0.015209034 0.020913161 0.52287865 0.32315677 -0.19972187
0.039999999 0.016336933 0.020684022 0.52287865 0.32315677 -0.19972187
0.039999999 0.017462457 0.02045545 0.52287865 0.32315677 -0.19972187
0.039999999 0.018585619 0.020227442 0.52287865 0.32315677 -0.19972187
0.039999999 0.01970643 0.019999996 0.52287865 0.32315677 -0.19972187
0.039999999 0.020824907 0.019773107 0.52287865 0.32315677 -0.19972187
0.039999999 0.021941058 0.019546775 0.52287865 0.32315677 -0.19972187
0.039999999 0.023054902 0.019320996 0.52287865 0.32315677 -0.19972187
0.039999999 0.024166444 0.019095765 0.52287865 0.32315677 -0.19972187
0 0.00060026435 0.036978569 0.52287865 0.32315677 -0.19972187
0.039999999 0.026382688 0.018646946 0.52287865 0.32315677 -0.19972187
0.039999999 0.027487414 0.018423349 0.52287865 0.32315677 -0.19972187
0.039999999 0.028589891 0.018200291 0.52287865 0.32315677 -0.19972187
0.039999999 0.029690133 0.01797777 0.52287865 0.32315677 -0.19972187
0 0.0077559222 0.035531078 0.52287865 0.32315677 -0.19972187
0.039999999 0.032977562 0.017313397 0.52287865 0.32315677 -0.19972187
0 0.010121949 0.035053186 0.52287865 0.32315677 -0.19972187
0.039999999 0.035158228 0.01687311 0.52287865 0.32315677 -0.19972187
0.039999999 0.036245309 0.016653748 0.52287865 0.32315677 -0.19972187
0.039999999 0.037330236 0.016434904 0.52287865 0.32315677 -0.19972187
0.039999999 0.038413025 0.016216574 0.52287865 0.32315677 -0.19972187
0.039999999 0.040572233 0.015781451 0.52287865 0.32315677 -0.19972187
0.039999999 0.041648671 0.015564649 0.52287865 0.32315677 -0.19972187
0.039999999 0.042723019 0.015348353 0.52287865 0.32315677 -0.19972187
0 0.020653941 0.032930359 0.52287865 0.32315677 -0.19972187
0.039999999 0.044865474 0.014917264 0.52287865 0.32315677 -0.19972187
0 0.022969397 0.032464638 0.52287865 0.32315677 -0.19972187
0.039999999 0.046999693 0.014488162 0.52287865 0.32315677 -0.19972187
0 0.025275983 0.03200106 0.52287865 0.32315677 -0.19972187
0 0.026425978 0.031770065 0.52287865 0.32315677 -0.19972187
0.039999999 0.050185766 0.013848191 0.52287865 0.32315677 -0.19972187
0.039999999 0.051243767 0.01363584 0.52287865 0.32315677 -0.19972187
0.039999999 0.052299779 0.013423972 0.52287865 0.32315677 -0.19972187
0.039999999 0.053353805 0.013212582 0.52287865 0.32315677 -0.19972187
0 0.032143462 0.030622955 0.52287865 0.32315677 -0.19972187
0.039999999 0.055455953 0.012791233 0.52287865 0.32315677 -0.19972187
0.039999999 0.056504097 0.012581269 0.52287865 0.32315677 -0.19972187
0.039999999 0.0575503 0.012371775 0.52287865 0.32315677 -0.19972187
0.039999999 0.059636932 0.011954187 0.52287865 0.32315677 -0.19972187
0.039999999 0.060677379 0.01174609 0.52287865 0.32315677 -0.19972187
0.039999999 0.061715931 0.011538453 0.52287865 0.32315677 -0.19972187
0.039999999 0.062752597 0.011331276 0.52287865 0.32315677 -0.19972187
0 0.042302117 0.028590344 0.52287865 0.32315677 -0.19972187
0.039999999 0.064820297 0.010918287 0.52287865 0.32315677 -0.19972187
0.039999999 0.065851361 0.010712471 0.52287865 0.32315677 -0.19972187
0.039999999 0.066880576 0.010507105 0.52287865 0.32315677 -0.19972187
0.039999999 0.067907952 0.010302187 0.52287865 0.32315677 -0.19972187
0.039999999 0.068933509 0.010097713 0.52287865 0.32315677 -0.19972187
0.039999999 0.069957241 0.0098936828 0.52287865 0.32315677 -0.19972187
0.039999999 0.070979171 0.0096900938 0.52287865 0.32315677 -0.19972187
0.039999999 0.071999304 0.0094869426 0.52287865 0.32315677 -0.19972187
0.039999999 0.073017649 0.009284229 0.52287865 0.32315677 -0.19972187
