# .PCD v0.7 - Point Cloud Data file format
VERSION 0.7
FIELDS x y z vp_x vp_y vp_z
SIZE 4 4 4 4 4 4
TYPE F F F F F F
COUNT 1 1 1 1 1 1
WIDTH 919
HEIGHT 1
VIEWPOINT 0 0 0 1 0 0 0
POINTS 919
DATA ascii
0.03702163 0 0.024284564 -0.33897066 -0.54846609 0
0.038275305 0 0.024310481 -0.33897066 -0.54846609 0
0.039531659 0 0.024336511 -0.33897066 -0.54846609 0
0 0.078971133 0.024934795 -0.33897066 -0.54846609 0
0 0.076647237 0.024863336 -0.33897066 -0.54846609 0
0 0.074336618 0.024792347 -0.33897066 -0.54846609 0
0 0.07203915 0.02472182 -0.33897066 -0.54846609 0
0 0.069754705 0.024651753 -0.33897066 -0.54846609 0
0 0.067483172 0.02458214 -0.33897066 -0.54846609 0
0 0.065224431 0.02451298 -0.33897066 -0.54846609 0
0 0.06297835 0.024444265 -0.33897066 -0.54846609 0
0 0.060744826 0.024375996 -0.33897066 -0.54846609 0
0 0.058523737 0.024308162 -0.33897066 -0.54846609 0
0 0.056314971 0.024240766 -0.33897066 -0.54846609 0
0 0.054118413 0.024173798 -0.33897066 -0.54846609 0
0 0.051933952 0.024107259 -0.33897066 -0.54846609 0
0 0.049761478 0.024041142 -0.33897066 -0.54846609 0
0 0.047600884 0.023975445 -0.33897066 -0.54846609 0
0 0.045452058 0.023910163 -0.33897066 -0.54846609 0
0 0.0433149 0.023845293 -0.33897066 -0.54846609 0
0 0.041189302 0.023780832 -0.33897066 -0.54846609 0
0 0.039075159 0.023716776 -0.33897066 -0.54846609 0
0 0.03697237 0.02365312 -0.33897066 -0.54846609 0
0 0.034880836 0.023589861 -0.33897066 -0.54846609 0
0 0.032800451 0.023526996 -0.33897066 -0.54846609 0
0 0.030731121 0.023464523 -0.33897066 -0.54846609 0
0 0.028672747 0.023402438 -0.33897066 -0.54846609 0
0 0.026625233 0.023340736 -0.33897066 -0.54846609 0
0 0.024588481 0.023279414 -0.33897066 -0.54846609 0
0 0.022562398 0.023218468 -0.33897066 -0.54846609 0
0 0.020546891 0.023157898 -0.33897066 -0.54846609 0
0 0.018541869 0.023097698 -0.33897066 -0.54846609 0
0 0.016547237 0.023037866 -0.33897066 -0.54846609 0
0 0.014562909 0.022978399 -0.33897066 -0.54846609 0
0 0.012588793 0.022919292 -0.33897066 -0.54846609 0
0 0.010624804 0.022860544 -0.33897066 -0.54846609 0
0 0.0086708516 0.022802152 -0.33897066 -0.54846609 0
0 0.0067268508 0.022744112 -0.33897066 -0.54846609 0
0 0.0047927173 0.02268642 -0.33897066 -0.54846609 0
0 0.0028683662 0.022629075 -0.33897066 -0.54846609 0
0 0.00095371442 0.022572074 -0.33897066 -0.54846609 0
0.00058896991 0 0.022554534 -0.33897066 -0.54846609 0
0.0017686113 0 0.022576272 -0.33897066 -0.54846609 0
0.0029505317 0 0.022598108 -0.33897066 -0.54846609 0
0.0041347435 0 0.022620039 -0.33897066 -0.54846609 0
0.0053212587 0 0.022642069 -0.33897066 -0.54846609 0
0.0065100901 0 0.022664197 -0.33897066 -0.54846609 0
0.0077012503 0 0.022686422 -0.33897066 -0.54846609 0
0.0088947518 0 0.022708744 -0.33897066 -0.54846609 0
0.010090607 0 0.022731166 -0.33897066 -0.54846609 0
0.01128883 0 0.022753689 -0.33897066 -0.54846609 0
0.012489432 0 0.022776309 -0.33897066 -0.54846609 0
0.013692426 0 0.022799032 -0.33897066 -0.54846609 0
0.014897826 0 0.022821853 -0.33897066 -0.54846609 0
0.016105644 0 0.022844777 -0.33897066 -0.54846609 0
0.017315894 0 0.022867801 -0.33897066 -0.54846609 0
0.01852859 0 0.022890927 -0.33897066 -0.54846609 0
0.019743744 0 0.022914154 -0.33897066 -0.54846609 0
0.020961368 0 0.022937486 -0.33897066 -0.54846609 0
0.022181479 0 0.02296092 -0.33897066 -0.54846609 0
0.023404088 0 0.022984456 -0.33897066 -0.54846609 0
0.024629207 0 0.023008097 -0.33897066 -0.54846609 0
0.025856854 0 0.023031842 -0.33897066 -0.54846609 0
0.02708704 0 0.023055693 -0.33897066 -0.54846609 0
0.02831978 0 0.023079649 -0.33897066 -0.54846609 0
0.029555086 0 0.023103708 -0.33897066 -0.54846609 0
0.030792974 0 0.023127876 -0.33897066 -0.54846609 0
0.032033458 0 0.023152148 -0.33897066 -0.54846609 0
0.03327655 0 0.02317653 -0.33897066 -0.54846609 0
0.034522265 0 0.023201019 -0.33897066 -0.54846609 0
0.035770621 0 0.023225613 -0.33897066 -0.54846609 0
0.03702163 0 0.023250317 -0.33897066 -0.54846609 0
0.038275305 0 0.023275131 -0.33897066 -0.54846609 0
0.039531659 0 0.023300054 -0.33897066 -0.54846609 0
0 0.078971133 0.023825739 -0.33897066 -0.54846609 0
0 0.076647237 0.023757458 -0.33897066 -0.54846609 0
0 0.074336618 0.023689626 -0.33897066 -0.54846609 0
0 0.07203915 0.023622235 -0.33897066 -0.54846609 0
0 0.069754705 0.023555284 -0.33897066 -0.54846609 0
0 0.067483172 0.023488769 -0.33897066 -0.54846609 0
0 0.065224431 0.023422685 -0.33897066 -0.54846609 0
0 0.06297835 0.023357026 -0.33897066 -0.54846609 0
0 0.060744826 0.023291793 -0.33897066 -0.54846609 0
0 0.058523737 0.023226976 -0.33897066 -0.54846609 0
0 0.056314971 0.023162577 -0.33897066 -0.54846609 0
0 0.054118413 0.02309859 -0.33897066 -0.54846609 0
0 0.051933952 0.023035008 -0.33897066 -0.54846609 0
0 0.049761478 0.022971833 -0.33897066 -0.54846609 0
0 0.047600884 0.022909058 -0.33897066 -0.54846609 0
0 0.045452058 0.02284668 -0.33897066 -0.54846609 0
0 0.0433149 0.022784695 -0.33897066 -0.54846609 0
0 0.041189302 0.022723101 -0.33897066 -0.54846609 0
0 0.039075159 0.022661895 -0.33897066 -0.54846609 0
0 0.03697237 0.02260107 -0.33897066 -0.54846609 0
0 0.034880836 0.022540625 -0.33897066 -0.54846609 0
0 0.032800451 0.022480557 -0.33897066 -0.54846609 0
0 0.030731121 0.022420863 -0.33897066 -0.54846609 0
0 0.028672747 0.022361537 -0.33897066 -0.54846609 0
0 0.026625233 0.022302579 -0.33897066 -0.54846609 0
0 0.024588481 0.022243986 -0.33897066 -0.54846609 0
0 0.022562398 0.02218575 -0.33897066 -0.54846609 0
0 0.020546891 0.022127874 -0.33897066 -0.54846609 0
0 0.018541869 0.022070352 -0.33897066 -0.54846609 0
0 0.016547237 0.022013182 -0.33897066 -0.54846609 0
0 0.014562909 0.021956358 -0.33897066 -0.54846609 0
0 0.012588793 0.021899881 -0.33897066 -0.54846609 0
0 0.010624804 0.021843746 -0.33897066 -0.54846609 0
0 0.0086708516 0.021787951 -0.33897066 -0.54846609 0
0 0.0067268508 0.021732492 -0.33897066 -0.54846609 0
0 0.0047927173 0.021677367 -0.33897066 -0.54846609 0
0 0.0028683662 0.021622572 -0.33897066 -0.54846609 0
0 0.00095371442 0.021568106 -0.33897066 -0.54846609 0
0.00058896991 0 0.021551348 -0.33897066 -0.54846609 0
0.0017686113 0 0.021572119 -0.33897066 -0.54846609 0
0.0029505317 0 0.021592984 -0.33897066 -0.54846609 0
0.0041347435 0 0.021613939 -0.33897066 -0.54846609 0
0.0053212587 0 0.021634988 -0.33897066 -0.54846609 0
0.0065100901 0 0.021656131 -0.33897066 -0.54846609 0
0.0077012503 0 0.021677367 -0.33897066 -0.54846609 0
0.0088947518 0 0.021698698 -0.33897066 -0.54846609 0
0.010090607 0 0.021720124 -0.33897066 -0.54846609 0
0.01128883 0 0.021741644 -0.33897066 -0.54846609 0
0.012489432 0 0.02176326 -0.33897066 -0.54846609 0
0.013692426 0 0.021784971 -0.33897066 -0.54846609 0
0.014897826 0 0.021806777 -0.33897066 -0.54846609 0
0.016105644 0 0.021828679 -0.33897066 -0.54846609 0
0.017315894 0 0.021850681 -0.33897066 -0.54846609 0
0.01852859 0 0.021872777 -0.33897066 -0.54846609 0
0.019743744 0 0.021894973 -0.33897066 -0.54846609 0
0.020961368 0 0.021917265 -0.33897066 -0.54846609 0
0.022181479 0 0.021939658 -0.33897066 -0.54846609 0
0.023404088 0 0.021962147 -0.33897066 -0.54846609 0
0.024629207 0 0.021984737 -0.33897066 -0.54846609 0
0.025856854 0 0.022007426 -0.33897066 -0.54846609 0
0.02708704 0 0.022030216 -0.33897066 -0.54846609 0
0.02831978 0 0.022053106 -0.33897066 -0.54846609 0
0.029555086 0 0.022076096 -0.33897066 -0.54846609 0
0.030792974 0 0.022099188 -0.33897066 -0.54846609 0
0.032033458 0 0.022122381 -0.33897066 -0.54846609 0
0.03327655 0 0.022145677 -0.33897066 -0.54846609 0
0.034522265 0 0.022169076 -0.33897066 -0.54846609 0
0.035770621 0 0.022192579 -0.33897066 -0.54846609 0
0.03702163 0 0.022216184 -0.33897066 -0.54846609 0
0.038275305 0 0.022239894 -0.33897066 -0.54846609 0
0.039531659 0 0.022263708 -0.33897066 -0.54846609 0
0 0.078971133 0.022716796 -0.33897066 -0.54846609 0
0 0.076647237 0.022651695 -0.33897066 -0.54846609 0
0 0.074336618 0.022587018 -0.33897066 -0.54846609 0
0 0.07203915 0.022522766 -0.33897066 -0.54846609 0
0 0.069754705 0.022458931 -0.33897066 -0.54846609 0
0 0.067483172 0.022395512 -0.33897066 -0.54846609 0
0 0.065224431 0.022332503 -0.33897066 -0.54846609 0
0 0.06297835 0.022269901 -0.33897066 -0.54846609 0
0 0.060744826 0.022207703 -0.33897066 -0.54846609 0
0 0.058523737 0.022145905 -0.33897066 -0.54846609 0
0 0.056314971 0.022084503 -0.33897066 -0.54846609 0
0 0.054118413 0.022023492 -0.33897066 -0.54846609 0
0 0.051933952 0.021962872 -0.33897066 -0.54846609 0
0 0.049761478 0.021902636 -0.33897066 -0.54846609 0
0 0.047600884 0.021842781 -0.33897066 -0.54846609 0
0 0.045452058 0.021783307 -0.33897066 -0.54846609 0
0 0.0433149 0.021724207 -0.33897066 -0.54846609 0
0 0.041189302 0.02166548 -0.33897066 -0.54846609 0
0 0.039075159 0.021607121 -0.33897066 -0.54846609 0
0 0.03697237 0.021549128 -0.33897066 -0.54846609 0
0 0.034880836 0.021491498 -0.33897066 -0.54846609 0
0 0.032800451 0.021434225 -0.33897066 -0.54846609 0
0 0.030731121 0.021377308 -0.33897066 -0.54846609 0
0 0.028672747 0.021320745 -0.33897066 -0.54846609 0
0 0.026625233 0.021264531 -0.33897066 -0.54846609 0
0 0.024588481 0.021208664 -0.33897066 -0.54846609 0
0 0.022562398 0.021153141 -0.33897066 -0.54846609 0
0 0.020546891 0.021097958 -0.33897066 -0.54846609 0
0 0.018541869 0.021043113 -0.33897066 -0.54846609 0
0 0.016547237 0.020988604 -0.33897066 -0.54846609 0
0 0.014562909 0.020934425 -0.33897066 -0.54846609 0
0 0.012588793 0.020880576 -0.33897066 -0.54846609 0
0 0.010624804 0.020827055 -0.33897066 -0.54846609 0
0 0.0086708516 0.020773856 -0.33897066 -0.54846609 0
0 0.0067268508 0.020720977 -0.33897066 -0.54846609 0
0 0.0047927173 0.020668419 -0.33897066 -0.54846609 0
0 0.0028683662 0.020616176 -0.33897066 -0.54846609 0
0 0.00095371442 0.020564245 -0.33897066 -0.54846609 0
0.00058896991 0 0.020548265 -0.33897066 -0.54846609 0
0.0017686113 0 0.020568069 -0.33897066 -0.54846609 0
0.0029505317 0 0.020587962 -0.33897066 -0.54846609 0
0.0041347435 0 0.020607943 -0.33897066 -0.54846609 0
0.0053212587 0 0.020628013 -0.33897066 -0.54846609 0
0.0065100901 0 0.020648172 -0.33897066 -0.54846609 0
0.0077012503 0 0.020668421 -0.33897066 -0.54846609 0
0.0088947518 0 0.020688757 -0.33897066 -0.54846609 0
0.010090607 0 0.020709185 -0.33897066 -0.54846609 0
0.01128883 0 0.020729704 -0.33897066 -0.54846609 0
0.012489432 0 0.020750314 -0.33897066 -0.54846609 0
0.013692426 0 0.020771014 -0.33897066 -0.54846609 0
0.014897826 0 0.020791806 -0.33897066 -0.54846609 0
0.016105644 0 0.020812688 -0.33897066 -0.54846609 0
0.017315894 0 0.020833666 -0.33897066 -0.54846609 0
0.01852859 0 0.020854734 -0.33897066 -0.54846609 0
0.019743744 0 0.020875895 -0.33897066 -0.54846609 0
0.020961368 0 0.020897152 -0.33897066 -0.54846609 0
0.022181479 0 0.020918502 -0.33897066 -0.54846609 0
0.023404088 0 0.020939944 -0.33897066 -0.54846609 0
0.024629207 0 0.020961482 -0.33897066 -0.54846609 0
0.025856854 0 0.020983115 -0.33897066 -0.54846609 0
0.02708704 0 0.021004844 -0.33897066 -0.54846609 0
0.02831978 0 0.021026669 -0.33897066 -0.54846609 0
0.029555086 0 0.021048589 -0.33897066 -0.54846609 0
0.030792974 0 0.021070607 -0.33897066 -0.54846609 0
0.032033458 0 0.02109272 -0.33897066 -0.54846609 0
0.03327655 0 0.021114932 -0.33897066 -0.54846609 0
0.034522265 0 0.021137243 -0.33897066 -0.54846609 0
0.035770621 0 0.021159651 -0.33897066 -0.54846609 0
0.03702163 0 0.021182157 -0.33897066 -0.54846609 0
0.038275305 0 0.021204762 -0.33897066 -0.54846609 0
0.039531659 0 0.021227468 -0.33897066 -0.54846609 0
0 0.078971133 0.021607965 -0.33897066 -0.54846609 0
0 0.076647237 0.02154604 -0.33897066 -0.54846609 0
0 0.074336618 0.021484522 -0.33897066 -0.54846609 0
0 0.07203915 0.021423405 -0.33897066 -0.54846609 0
0 0.069754705 0.021362687 -0.33897066 -0.54846609 0
0 0.067483172 0.021302363 -0.33897066 -0.54846609 0
0 0.065224431 0.021242429 -0.33897066 -0.54846609 0
0 0.06297835 0.021182884 -0.33897066 -0.54846609 0
0 0.060744826 0.02112372 -0.33897066 -0.54846609 0
0 0.058523737 0.021064939 -0.33897066 -0.54846609 0
0 0.056314971 0.021006532 -0.33897066 -0.54846609 0
0 0.054118413 0.020948501 -0.33897066 -0.54846609 0
0 0.051933952 0.020890839 -0.33897066 -0.54846609 0
0 0.049761478 0.020833544 -0.33897066 -0.54846609 0
0 0.047600884 0.020776613 -0.33897066 -0.54846609 0
0 0.045452058 0.02072004 -0.33897066 -0.54846609 0
0 0.0433149 0.020663826 -0.33897066 -0.54846609 0
0 0.041189302 0.020607965 -0.33897066 -0.54846609 0
0 0.039075159 0.020552455 -0.33897066 -0.54846609 0
0 0.03697237 0.020497292 -0.33897066 -0.54846609 0
0 0.034880836 0.020442473 -0.33897066 -0.54846609 0
0 0.032800451 0.020387998 -0.33897066 -0.54846609 0
0 0.030731121 0.020333858 -0.33897066 -0.54846609 0
0 0.028672747 0.020280056 -0.33897066 -0.54846609 0
0 0.026625233 0.020226587 -0.33897066 -0.54846609 0
0 0.024588481 0.020173445 -0.33897066 -0.54846609 0
0 0.022562398 0.020120632 -0.33897066 -0.54846609 0
0 0.020546891 0.020068144 -0.33897066 -0.54846609 0
0 0.018541869 0.020015975 -0.33897066 -0.54846609 0
0 0.016547237 0.019964127 -0.33897066 -0.54846609 0
0 0.014562909 0.019912593 -0.33897066 -0.54846609 0
0 0.012588793 0.019861372 -0.33897066 -0.54846609 0
0 0.010624804 0.019810462 -0.33897066 -0.54846609 0
0 0.0086708516 0.019759862 -0.33897066 -0.54846609 0
0 0.0067268508 0.019709565 -0.33897066 -0.54846609 0
0 0.0047927173 0.019659571 -0.33897066 -0.54846609 0
0 0.0028683662 0.019609876 -0.33897066 -0.54846609 0
0 0.00095371442 0.01956048 -0.33897066 -0.54846609 0
0.00058896991 0 0.019545281 -0.33897066 -0.54846609 0
0.0017686113 0 0.01956412 -0.33897066 -0.54846609 0
0.0029505317 0 0.019583041 -0.33897066 -0.54846609 0
0.0041347435 0 0.019602047 -0.33897066 -0.54846609 0
0.0053212587 0 0.019621138 -0.33897066 -0.54846609 0
0.0065100901 0 0.019640312 -0.33897066 -0.54846609 0
0.0077012503 0 0.019659571 -0.33897066 -0.54846609 0
0.0088947518 0 0.019678917 -0.33897066 -0.54846609 0
0.010090607 0 0.019698348 -0.33897066 -0.54846609 0
0.01128883 0 0.019717865 -0.33897066 -0.54846609 0
0.012489432 0 0.019737467 -0.33897066 -0.54846609 0
0.013692426 0 0.019757157 -0.33897066 -0.54846609 0
0.014897826 0 0.019776935 -0.33897066 -0.54846609 0
0.016105644 0 0.019796798 -0.33897066 -0.54846609 0
0.017315894 0 0.019816751 -0.33897066 -0.54846609 0
0.01852859 0 0.019836791 -0.33897066 -0.54846609 0
0.019743744 0 0.01985692 -0.33897066 -0.54846609 0
0.020961368 0 0.019877138 -0.33897066 -0.54846609 0
0.022181479 0 0.019897446 -0.33897066 -0.54846609 0
0.023404088 0 0.019917842 -0.33897066 -0.54846609 0
0.024629207 0 0.019938329 -0.33897066 -0.54846609 0
0.025856854 0 0.019958906 -0.33897066 -0.54846609 0
0.02708704 0 0.019979574 -0.33897066 -0.54846609 0
0.02831978 0 0.020000333 -0.33897066 -0.54846609 0
0.029555086 0 0.020021183 -0.33897066 -0.54846609 0
0.030792974 0 0.020042127 -0.33897066 -0.54846609 0
0.032033458 0 0.020063162 -0.33897066 -0.54846609 0
0.03327655 0 0.02008429 -0.33897066 -0.54846609 0
0.034522265 0 0.020105511 -0.33897066 -0.54846609 0
0.035770621 0 0.020126825 -0.33897066 -0.54846609 0
0.03702163 0 0.020148233 -0.33897066 -0.54846609 0
0.038275305 0 0.020169735 -0.33897066 -0.54846609 0
0.039531659 0 0.020191332 -0.33897066 -0.54846609 0
0 0.078971133 0.020499237 -0.33897066 -0.54846609 0
0 0.076647237 0.020440491 -0.33897066 -0.54846609 0
0 0.074336618 0.020382129 -0.33897066 -0.54846609 0
0 0.07203915 0.020324148 -0.33897066 -0.54846609 0
0 0.069754705 0.020266544 -0.33897066 -0.54846609 0
0 0.067483172 0.020209316 -0.33897066 -0.54846609 0
0 0.065224431 0.020152457 -0.33897066 -0.54846609 0
0 0.06297835 0.020095967 -0.33897066 -0.54846609 0
0 0.060744826 0.02003984 -0.33897066 -0.54846609 0
0 0.058523737 0.019984074 -0.33897066 -0.54846609 0
0 0.056314971 0.019928666 -0.33897066 -0.54846609 0
0 0.054118413 0.019873612 -0.33897066 -0.54846609 0
0 0.051933952 0.019818908 -0.33897066 -0.54846609 0
0 0.049761478 0.019764552 -0.33897066 -0.54846609 0
0 0.047600884 0.019710543 -0.33897066 -0.54846609 0
0 0.045452058 0.019656872 -0.33897066 -0.54846609 0
0 0.0433149 0.019603543 -0.33897066 -0.54846609 0
0 0.041189302 0.019550549 -0.33897066 -0.54846609 0
0 0.039075159 0.019497886 -0.33897066 -0.54846609 0
0 0.03697237 0.019445553 -0.33897066 -0.54846609 0
0 0.034880836 0.019393548 -0.33897066 -0.54846609 0
0 0.032800451 0.019341867 -0.33897066 -0.54846609 0
0 0.030731121 0.019290507 -0.33897066 -0.54846609 0
0 0.028672747 0.019239465 -0.33897066 -0.54846609 0
0 0.026625233 0.019188739 -0.33897066 -0.54846609 0
0 0.024588481 0.019138325 -0.33897066 -0.54846609 0
0 0.022562398 0.019088222 -0.33897066 -0.54846609 0
0 0.020546891 0.019038426 -0.33897066 -0.54846609 0
0 0.018541869 0.018988935 -0.33897066 -0.54846609 0
0 0.016547237 0.018939747 -0.33897066 -0.54846609 0
0 0.014562909 0.018890856 -0.33897066 -0.54846609 0
0 0.012588793 0.018842265 -0.33897066 -0.54846609 0
0 0.010624804 0.018793967 -0.33897066 -0.54846609 0
0 0.0086708516 0.018745963 -0.33897066 -0.54846609 0
0 0.0067268508 0.018698245 -0.33897066 -0.54846609 0
0 0.0047927173 0.018650817 -0.33897066 -0.54846609 0
0 0.0028683662 0.018603673 -0.33897066 -0.54846609 0
0 0.00095371442 0.018556811 -0.33897066 -0.54846609 0
0.00058896991 0 0.018542392 -0.33897066 -0.54846609 0
0.0017686113 0 0.018560264 -0.33897066 -0.54846609 0
0.0029505317 0 0.018578215 -0.33897066 -0.54846609 0
0.0041347435 0 0.018596245 -0.33897066 -0.54846609 0
0.0053212587 0 0.018614355 -0.33897066 -0.54846609 0
0.0065100901 0 0.018632546 -0.33897066 -0.54846609 0
0.0077012503 0 0.018650819 -0.33897066 -0.54846609 0
0.0088947518 0 0.018669171 -0.33897066 -0.54846609 0
0.010090607 0 0.018687604 -0.33897066 -0.54846609 0
0.01128883 0 0.018706121 -0.33897066 -0.54846609 0
0.012489432 0 0.018724717 -0.33897066 -0.54846609 0
0.013692426 0 0.018743396 -0.33897066 -0.54846609 0
0.014897826 0 0.018762158 -0.33897066 -0.54846609 0
0.016105644 0 0.018781004 -0.33897066 -0.54846609 0
0.017315894 0 0.018799933 -0.33897066 -0.54846609 0
0.01852859 0 0.018818945 -0.33897066 -0.54846609 0
0.019743744 0 0.018838041 -0.33897066 -0.54846609 0
0.020961368 0 0.018857222 -0.33897066 -0.54846609 0
0.022181479 0 0.018876487 -0.33897066 -0.54846609 0
0.023404088 0 0.018895837 -0.33897066 -0.54846609 0
0.024629207 0 0.018915273 -0.33897066 -0.54846609 0
0.025856854 0 0.018934794 -0.33897066 -0.54846609 0
0.02708704 0 0.018954402 -0.33897066 -0.54846609 0
0.02831978 0 0.018974096 -0.33897066 -0.54846609 0
0.029555086 0 0.018993877 -0.33897066 -0.54846609 0
0.030792974 0 0.019013744 -0.33897066 -0.54846609 0
0.032033458 0 0.0190337 -0.33897066 -0.54846609 0
0.03327655 0 0.019053742 -0.33897066 -0.54846609 0
0.034522265 0 0.019073876 -0.33897066 -0.54846609 0
0.035770621 0 0.019094096 -0.33897066 -0.54846609 0
0.03702163 0 0.019114405 -0.33897066 -0.54846609 0
0.038275305 0 0.019134805 -0.33897066 -0.54846609 0
0.039531659 0 0.019155294 -0.33897066 -0.54846609 0
0 0.078971133 0.019390609 -0.33897066 -0.54846609 0
0 0.076647237 0.019335039 -0.33897066 -0.54846609 0
0 0.074336618 0.019279834 -0.33897066 -0.54846609 0
0 0.07203915 0.019224988 -0.33897066 -0.54846609 0
0 0.069754705 0.0191705 -0.33897066 -0.54846609 0
0 0.067483172 0.019116366 -0.33897066 -0.54846609 0
0 0.065224431 0.019062582 -0.33897066 -0.54846609 0
0 0.06297835 0.019009147 -0.33897066 -0.54846609 0
0 0.060744826 0.018956056 -0.33897066 -0.54846609 0
0 0.058523737 0.018903306 -0.33897066 -0.54846609 0
0 0.056314971 0.018850895 -0.33897066 -0.54846609 0
0 0.054118413 0.018798817 -0.33897066 -0.54846609 0
0 0.051933952 0.018747073 -0.33897066 -0.54846609 0
0 0.049761478 0.018695656 -0.33897066 -0.54846609 0
0 0.047600884 0.018644568 -0.33897066 -0.54846609 0
0 0.045452058 0.018593801 -0.33897066 -0.54846609 0
0 0.0433149 0.018543355 -0.33897066 -0.54846609 0
0 0.041189302 0.018493226 -0.33897066 -0.54846609 0
0 0.039075159 0.018443413 -0.33897066 -0.54846609 0
0 0.03697237 0.01839391 -0.33897066 -0.54846609 0
0 0.034880836 0.018344717 -0.33897066 -0.54846609 0
0 0.032800451 0.01829583 -0.33897066 -0.54846609 0
0 0.030731121 0.018247249 -0.33897066 -0.54846609 0
0 0.028672747 0.018198967 -0.33897066 -0.54846609 0
0 0.026625233 0.018150983 -0.33897066 -0.54846609 0
0 0.024588481 0.018103296 -0.33897066 -0.54846609 0
0 0.022562398 0.018055903 -0.33897066 -0.54846609 0
0 0.020546891 0.0180088 -0.33897066 -0.54846609 0
0 0.018541869 0.017961986 -0.33897066 -0.54846609 0
0 0.016547237 0.017915457 -0.33897066 -0.54846609 0
0 0.014562909 0.017869212 -0.33897066 -0.54846609 0
0 0.012588793 0.017823247 -0.33897066 -0.54846609 0
0 0.010624804 0.017777562 -0.33897066 -0.54846609 0
0 0.0086708516 0.017732153 -0.33897066 -0.54846609 0
0 0.0067268508 0.017687017 -0.33897066 -0.54846609 0
0 0.0047927173 0.017642153 -0.33897066 -0.54846609 0
0 0.0028683662 0.01759756 -0.33897066 -0.54846609 0
0 0.00095371442 0.017553233 -0.33897066 -0.54846609 0
0.00058896991 0 0.017539592 -0.33897066 -0.54846609 0
0.0017686113 0 0.017556498 -0.33897066 -0.54846609 0
0.0029505317 0 0.017573478 -0.33897066 -0.54846609 0
0.0041347435 0 0.017590534 -0.33897066 -0.54846609 0
0.0053212587 0 0.017607665 -0.33897066 -0.54846609 0
0.0065100901 0 0.017624872 -0.33897066 -0.54846609 0
0.0077012503 0 0.017642155 -0.33897066 -0.54846609 0
0.0088947518 0 0.017659515 -0.33897066 -0.54846609 0
0.010090607 0 0.017676951 -0.33897066 -0.54846609 0
0.01128883 0 0.017694466 -0.33897066 -0.54846609 0
0.012489432 0 0.017712057 -0.33897066 -0.54846609 0
0.013692426 0 0.017729726 -0.33897066 -0.54846609 0
0.014897826 0 0.017747475 -0.33897066 -0.54846609 0
0.016105644 0 0.0177653 -0.33897066 -0.54846609 0
0.017315894 0 0.017783204 -0.33897066 -0.54846609 0
0.01852859 0 0.01780119 -0.33897066 -0.54846609 0
0.019743744 0 0.017819252 -0.33897066 -0.54846609 0
0.020961368 0 0.017837396 -0.33897066 -0.54846609 0
0.022181479 0 0.017855618 -0.33897066 -0.54846609 0
0.023404088 0 0.017873922 -0.33897066 -0.54846609 0
0.024629207 0 0.017892307 -0.33897066 -0.54846609 0
0.025856854 0 0.017910773 -0.33897066 -0.54846609 0
0.02708704 0 0.017929319 -0.33897066 -0.54846609 0
0.02831978 0 0.017947949 -0.33897066 -0.54846609 0
0.029555086 0 0.01796666 -0.33897066 -0.54846609 0
0.030792974 0 0.017985454 -0.33897066 -0.54846609 0
0.032033458 0 0.01800433 -0.33897066 -0.54846609 0
0.03327655 0 0.01802329 -0.33897066 -0.54846609 0
0.034522265 0 0.018042332 -0.33897066 -0.54846609 0
0.035770621 0 0.018061459 -0.33897066 -0.54846609 0
0.03702163 0 0.01808067 -0.33897066 -0.54846609 0
0.038275305 0 0.018099967 -0.33897066 -0.54846609 0
0.039531659 0 0.018119348 -0.33897066 -0.54846609 0
0 0.078971133 0.018282074 -0.33897066 -0.54846609 0
0 0.076647237 0.01822968 -0.33897066 -0.54846609 0
0 0.074336618 0.01817763 -0.33897066 -0.54846609 0
0 0.07203915 0.018125921 -0.33897066 -0.54846609 0
0 0.069754705 0.018074548 -0.33897066 -0.54846609 0
0 0.067483172 0.01802351 -0.33897066 -0.54846609 0
0 0.065224431 0.017972801 -0.33897066 -0.54846609 0
0 0.06297835 0.01792242 -0.33897066 -0.54846609 0
0 0.060744826 0.017872363 -0.33897066 -0.54846609 0
0 0.058523737 0.017822629 -0.33897066 -0.54846609 0
0 0.056314971 0.017773215 -0.33897066 -0.54846609 0
0 0.054118413 0.017724114 -0.33897066 -0.54846609 0
0 0.051933952 0.017675327 -0.33897066 -0.54846609 0
0 0.049761478 0.017626852 -0.33897066 -0.54846609 0
0 0.047600884 0.017578682 -0.33897066 -0.54846609 0
0 0.045452058 0.017530818 -0.33897066 -0.54846609 0
0 0.0433149 0.017483257 -0.33897066 -0.54846609 0
0 0.041189302 0.017435994 -0.33897066 -0.54846609 0
0 0.039075159 0.017389027 -0.33897066 -0.54846609 0
0 0.03697237 0.017342355 -0.33897066 -0.54846609 0
0 0.034880836 0.017295975 -0.33897066 -0.54846609 0
0 0.032800451 0.017249882 -0.33897066 -0.54846609 0
0 0.030731121 0.017204078 -0.33897066 -0.54846609 0
0 0.028672747 0.017158557 -0.33897066 -0.54846609 0
0 0.026625233 0.017113317 -0.33897066 -0.54846609 0
0 0.024588481 0.017068356 -0.33897066 -0.54846609 0
0 0.022562398 0.017023671 -0.33897066 -0.54846609 0
0 0.020546891 0.016979262 -0.33897066 -0.54846609 0
0 0.018541869 0.016935123 -0.33897066 -0.54846609 0
0 0.016547237 0.016891254 -0.33897066 -0.54846609 0
0 0.014562909 0.016847653 -0.33897066 -0.54846609 0
0 0.012588793 0.016804317 -0.33897066 -0.54846609 0
0 0.010624804 0.016761243 -0.33897066 -0.54846609 0
0 0.0086708516 0.01671843 -0.33897066 -0.54846609 0
0 0.0067268508 0.016675875 -0.33897066 -0.54846609 0
0 0.0047927173 0.016633576 -0.33897066 -0.54846609 0
0 0.0028683662 0.01659153 -0.33897066 -0.54846609 0
0 0.00095371442 0.016549738 -0.33897066 -0.54846609 0
0.00058896991 0 0.016536878 -0.33897066 -0.54846609 0
0.0017686113 0 0.016552817 -0.33897066 -0.54846609 0
0.0029505317 0 0.016568827 -0.33897066 -0.54846609 0
0.0041347435 0 0.016584907 -0.33897066 -0.54846609 0
0.0053212587 0 0.016601058 -0.33897066 -0.54846609 0
0.0065100901 0 0.016617281 -0.33897066 -0.54846609 0
0.0077012503 0 0.016633576 -0.33897066 -0.54846609 0
0.0088947518 0 0.016649945 -0.33897066 -0.54846609 0
0.010090607 0 0.016666384 -0.33897066 -0.54846609 0
0.01128883 0 0.016682897 -0.33897066 -0.54846609 0
0.012489432 0 0.016699484 -0.33897066 -0.54846609 0
0.013692426 0 0.016716141 -0.33897066 -0.54846609 0
0.014897826 0 0.016732875 -0.33897066 -0.54846609 0
0.016105644 0 0.016749682 -0.33897066 -0.54846609 0
0.017315894 0 0.016766563 -0.33897066 -0.54846609 0
0.01852859 0 0.016783519 -0.33897066 -0.54846609 0
0.019743744 0 0.016800549 -0.33897066 -0.54846609 0
0.020961368 0 0.016817655 -0.33897066 -0.54846609 0
0.022181479 0 0.016834836 -0.33897066 -0.54846609 0
0.023404088 0 0.016852094 -0.33897066 -0.54846609 0
0.024629207 0 0.016869428 -0.33897066 -0.54846609 0
0.025856854 0 0.016886838 -0.33897066 -0.54846609 0
0.02708704 0 0.016904324 -0.33897066 -0.54846609 0
0.02831978 0 0.016921889 -0.33897066 -0.54846609 0
0.029555086 0 0.01693953 -0.33897066 -0.54846609 0
0.030792974 0 0.016957249 -0.33897066 -0.54846609 0
0.032033458 0 0.016975047 -0.33897066 -0.54846609 0
0.03327655 0 0.016992923 -0.33897066 -0.54846609 0
0.034522265 0 0.017010877 -0.33897066 -0.54846609 0
0.035770621 0 0.017028909 -0.33897066 -0.54846609 0
0.03702163 0 0.017047023 -0.33897066 -0.54846609 0
0.038275305 0 0.017065216 -0.33897066 -0.54846609 0
0.039531659 0 0.017083488 -0.33897066 -0.54846609 0
0 0.078971133 0.017173627 -0.33897066 -0.54846609 0
0 0.076647237 0.017124411 -0.33897066 -0.54846609 0
0 0.074336618 0.017075516 -0.33897066 -0.54846609 0
0 0.07203915 0.017026942 -0.33897066 -0.54846609 0
0 0.069754705 0.016978685 -0.33897066 -0.54846609 0
0 0.067483172 0.01693074 -0.33897066 -0.54846609 0
0 0.065224431 0.016883105 -0.33897066 -0.54846609 0
0 0.06297835 0.016835779 -0.33897066 -0.54846609 0
0 0.060744826 0.016788758 -0.33897066 -0.54846609 0
0 0.058523737 0.016742039 -0.33897066 -0.54846609 0
0 0.056314971 0.01669562 -0.33897066 -0.54846609 0
0 0.054118413 0.016649498 -0.33897066 -0.54846609 0
0 0.051933952 0.016603669 -0.33897066 -0.54846609 0
0 0.049761478 0.016558131 -0.33897066 -0.54846609 0
0 0.047600884 0.016512882 -0.33897066 -0.54846609 0
0 0.045452058 0.016467921 -0.33897066 -0.54846609 0
0 0.0433149 0.016423242 -0.33897066 -0.54846609 0
0 0.041189302 0.016378844 -0.33897066 -0.54846609 0
0 0.039075159 0.016334726 -0.33897066 -0.54846609 0
0 0.03697237 0.016290884 -0.33897066 -0.54846609 0
0 0.034880836 0.016247315 -0.33897066 -0.54846609 0
0 0.032800451 0.016204018 -0.33897066 -0.54846609 0
0 0.030731121 0.016160991 -0.33897066 -0.54846609 0
0 0.028672747 0.016118228 -0.33897066 -0.54846609 0
0 0.026625233 0.016075732 -0.33897066 -0.54846609 0
0 0.024588481 0.016033497 -0.33897066 -0.54846609 0
0 0.022562398 0.015991522 -0.33897066 -0.54846609 0
0 0.020546891 0.015949804 -0.33897066 -0.54846609 0
0 0.018541869 0.015908342 -0.33897066 -0.54846609 0
0 0.016547237 0.015867133 -0.33897066 -0.54846609 0
0 0.014562909 0.015826175 -0.33897066 -0.54846609 0
0 0.012588793 0.015785467 -0.33897066 -0.54846609 0
0 0.010624804 0.015745005 -0.33897066 -0.54846609 0
0 0.0086708516 0.015704786 -0.33897066 -0.54846609 0
0 0.0067268508 0.015664812 -0.33897066 -0.54846609 0
0 0.0047927173 0.015625078 -0.33897066 -0.54846609 0
0 0.0028683662 0.015585583 -0.33897066 -0.54846609 0
0 0.00095371442 0.015546323 -0.33897066 -0.54846609 0
0.00058896991 0 0.015534243 -0.33897066 -0.54846609 0
0.0017686113 0 0.015549215 -0.33897066 -0.54846609 0
0.0029505317 0 0.015564254 -0.33897066 -0.54846609 0
0.0041347435 0 0.01557936 -0.33897066 -0.54846609 0
0.0053212587 0 0.015594532 -0.33897066 -0.54846609 0
0.0065100901 0 0.015609772 -0.33897066 -0.54846609 0
0.0077012503 0 0.015625078 -0.33897066 -0.54846609 0
0.0088947518 0 0.015640454 -0.33897066 -0.54846609 0
0.010090607 0 0.015655898 -0.33897066 -0.54846609 0
0.01128883 0 0.01567141 -0.33897066 -0.54846609 0
0.012489432 0 0.015686989 -0.33897066 -0.54846609 0
0.013692426 0 0.015702639 -0.33897066 -0.54846609 0
0.014897826 0 0.015718358 -0.33897066 -0.54846609 0
0.016105644 0 0.015734145 -0.33897066 -0.54846609 0
0.017315894 0 0.015750002 -0.33897066 -0.54846609 0
0.01852859 0 0.01576593 -0.33897066 -0.54846609 0
0.019743744 0 0.015781928 -0.33897066 -0.54846609 0
0.020961368 0 0.015797997 -0.33897066 -0.54846609 0
0.022181479 0 0.015814137 -0.33897066 -0.54846609 0
0.023404088 0 0.015830347 -0.33897066 -0.54846609 0
0.024629207 0 0.015846631 -0.33897066 -0.54846609 0
0.025856854 0 0.015862985 -0.33897066 -0.54846609 0
0.02708704 0 0.015879411 -0.33897066 -0.54846609 0
0.02831978 0 0.015895911 -0.33897066 -0.54846609 0
0.029555086 0 0.015912483 -0.33897066 -0.54846609 0
0.030792974 0 0.015929127 -0.33897066 -0.54846609 0
0.032033458 0 0.015945844 -0.33897066 -0.54846609 0
0.03327655 0 0.015962636 -0.33897066 -0.54846609 0
0.034522265 0 0.015979502 -0.33897066 -0.54846609 0
0.035770621 0 0.015996443 -0.33897066 -0.54846609 0
0.03702163 0 0.016013458 -0.33897066 -0.54846609 0
0.038275305 0 0.016030548 -0.33897066 -0.54846609 0
0.039531659 0 0.016047712 -0.33897066 -0.54846609 0
0 0.078971133 0.016065264 -0.33897066 -0.54846609 0
0 0.076647237 0.016019223 -0.33897066 -0.54846609 0
0 0.074336618 0.015973484 -0.33897066 -0.54846609 0
0 0.07203915 0.015928045 -0.33897066 -0.54846609 0
0 0.069754705 0.015882902 -0.33897066 -0.54846609 0
0 0.067483172 0.015838051 -0.33897066 -0.54846609 0
0 0.065224431 0.015793491 -0.33897066 -0.54846609 0
0 0.06297835 0.01574922 -0.33897066 -0.54846609 0
0 0.060744826 0.015705233 -0.33897066 -0.54846609 0
0 0.058523737 0.01566153 -0.33897066 -0.54846609 0
0 0.056314971 0.015618106 -0.33897066 -0.54846609 0
0 0.054118413 0.01557496 -0.33897066 -0.54846609 0
0 0.051933952 0.015532089 -0.33897066 -0.54846609 0
0 0.049761478 0.015489491 -0.33897066 -0.54846609 0
0 0.047600884 0.015447163 -0.33897066 -0.54846609 0
0 0.045452058 0.015405103 -0.33897066 -0.54846609 0
0 0.0433149 0.015363308 -0.33897066 -0.54846609 0
0 0.041189302 0.015321775 -0.33897066 -0.54846609 0
0 0.039075159 0.015280504 -0.33897066 -0.54846609 0
0 0.03697237 0.015239491 -0.33897066 -0.54846609 0
0 0.034880836 0.015198735 -0.33897066 -0.54846609 0
0 0.032800451 0.015158232 -0.33897066 -0.54846609 0
0 0.030731121 0.015117981 -0.33897066 -0.54846609 0
0 0.028672747 0.015077979 -0.33897066 -0.54846609 0
0 0.026625233 0.015038225 -0.33897066 -0.54846609 0
0 0.024588481 0.014998716 -0.33897066 -0.54846609 0
0 0.022562398 0.01495945 -0.33897066 -0.54846609 0
0 0.020546891 0.014920425 -0.33897066 -0.54846609 0
0 0.018541869 0.014881639 -0.33897066 -0.54846609 0
0 0.016547237 0.01484309 -0.33897066 -0.54846609 0
0 0.014562909 0.014804775 -0.33897066 -0.54846609 0
0 0.012588793 0.014766693 -0.33897066 -0.54846609 0
0 0.010624804 0.014728842 -0.33897066 -0.54846609 0
0 0.0086708516 0.014691221 -0.33897066 -0.54846609 0
0 0.0067268508 0.014653825 -0.33897066 -0.54846609 0
0 0.0047927173 0.014616655 -0.33897066 -0.54846609 0
0 0.0028683662 0.014579709 -0.33897066 -0.54846609 0
0 0.00095371442 0.014542984 -0.33897066 -0.54846609 0
0.00058896991 0 0.014531683 -0.33897066 -0.54846609 0
0.0017686113 0 0.014545689 -0.33897066 -0.54846609 0
0.0029505317 0 0.014559757 -0.33897066 -0.54846609 0
0.0041347435 0 0.014573888 -0.33897066 -0.54846609 0
0.0053212587 0 0.014588081 -0.33897066 -0.54846609 0
0.0065100901 0 0.014602337 -0.33897066 -0.54846609 0
0.0077012503 0 0.014616656 -0.33897066 -0.54846609 0
0.0088947518 0 0.014631039 -0.33897066 -0.54846609 0
0.010090607 0 0.014645486 -0.33897066 -0.54846609 0
0.01128883 0 0.014659996 -0.33897066 -0.54846609 0
0.012489432 0 0.014674571 -0.33897066 -0.54846609 0
0.013692426 0 0.014689211 -0.33897066 -0.54846609 0
0.014897826 0 0.014703915 -0.33897066 -0.54846609 0
0.016105644 0 0.014718683 -0.33897066 -0.54846609 0
0.017315894 0 0.014733518 -0.33897066 -0.54846609 0
0.01852859 0 0.014748418 -0.33897066 -0.54846609 0
0.019743744 0 0.014763383 -0.33897066 -0.54846609 0
0.020961368 0 0.014778415 -0.33897066 -0.54846609 0
0.022181479 0 0.014793513 -0.33897066 -0.54846609 0
0.023404088 0 0.014808678 -0.33897066 -0.54846609 0
0.024629207 0 0.01482391 -0.33897066 -0.54846609 0
0.025856854 0 0.014839209 -0.33897066 -0.54846609 0
0.02708704 0 0.014854575 -0.33897066 -0.54846609 0
0.02831978 0 0.014870008 -0.33897066 -0.54846609 0
0.029555086 0 0.014885511 -0.33897066 -0.54846609 0
0.030792974 0 0.014901082 -0.33897066 -0.54846609 0
0.032033458 0 0.014916721 -0.33897066 -0.54846609 0
0.03327655 0 0.014932429 -0.33897066 -0.54846609 0
0.034522265 0 0.014948206 -0.33897066 -0.54846609 0
0.035770621 0 0.014964053 -0.33897066 -0.54846609 0
0.03702163 0 0.01497997 -0.33897066 -0.54846609 0
0.038275305 0 0.014995957 -0.33897066 -0.54846609 0
0.039531659 0 0.015012014 -0.33897066 -0.54846609 0
0 0.078971133 0.014956977 -0.33897066 -0.54846609 0
0 0.076647237 0.014914113 -0.33897066 -0.54846609 0
0 0.074336618 0.01487153 -0.33897066 -0.54846609 0
0 0.07203915 0.014829226 -0.33897066 -0.54846609 0
0 0.069754705 0.014787196 -0.33897066 -0.54846609 0
0 0.067483172 0.01474544 -0.33897066 -0.54846609 0
0 0.065224431 0.014703955 -0.33897066 -0.54846609 0
0 0.06297835 0.014662737 -0.33897066 -0.54846609 0
0 0.060744826 0.014621785 -0.33897066 -0.54846609 0
0 0.058523737 0.014581095 -0.33897066 -0.54846609 0
0 0.056314971 0.014540668 -0.33897066 -0.54846609 0
0 0.054118413 0.014500498 -0.33897066 -0.54846609 0
0 0.051933952 0.014460585 -0.33897066 -0.54846609 0
0 0.049761478 0.014420925 -0.33897066 -0.54846609 0
0 0.047600884 0.014381517 -0.33897066 -0.54846609 0
0 0.045452058 0.014342358 -0.33897066 -0.54846609 0
0 0.0433149 0.014303447 -0.33897066 -0.54846609 0
0 0.041189302 0.01426478 -0.33897066 -0.54846609 0
0 0.039075159 0.014226356 -0.33897066 -0.54846609 0
0 0.03697237 0.014188172 -0.33897066 -0.54846609 0
0 0.034880836 0.014150227 -0.33897066 -0.54846609 0
0 0.032800451 0.014112519 -0.33897066 -0.54846609 0
0 0.030731121 0.014075045 -0.33897066 -0.54846609 0
0 0.028672747 0.014037803 -0.33897066 -0.54846609 0
0 0.026625233 0.014000791 -0.33897066 -0.54846609 0
0 0.024588481 0.013964008 -0.33897066 -0.54846609 0
0 0.022562398 0.01392745 -0.33897066 -0.54846609 0
0 0.020546891 0.013891117 -0.33897066 -0.54846609 0
0 0.018541869 0.013855007 -0.33897066 -0.54846609 0
0 0.016547237 0.013819117 -0.33897066 -0.54846609 0
0 0.014562909 0.013783446 -0.33897066 -0.54846609 0
0 0.012588793 0.013747991 -0.33897066 -0.54846609 0
0 0.010624804 0.013712752 -0.33897066 -0.54846609 0
0 0.0086708516 0.013677725 -0.33897066 -0.54846609 0
0 0.0067268508 0.01364291 -0.33897066 -0.54846609 0
0 0.0047927173 0.013608304 -0.33897066 -0.54846609 0
0 0.0028683662 0.013573906 -0.33897066 -0.54846609 0
0 0.00095371442 0.013539714 -0.33897066 -0.54846609 0
0.00058896991 0 0.013529194 -0.33897066 -0.54846609 0
0.0017686113 0 0.013542233 -0.33897066 -0.54846609 0
0.0029505317 0 0.01355533 -0.33897066 -0.54846609 0
0.0041347435 0 0.013568486 -0.33897066 -0.54846609 0
0.0053212587 0 0.013581701 -0.33897066 -0.54846609 0
0.0065100901 0 0.013594973 -0.33897066 -0.54846609 0
0.0077012503 0 0.013608305 -0.33897066 -0.54846609 0
0.0088947518 0 0.013621695 -0.33897066 -0.54846609 0
0.010090607 0 0.013635146 -0.33897066 -0.54846609 0
0.01128883 0 0.013648654 -0.33897066 -0.54846609 0
0.012489432 0 0.013662224 -0.33897066 -0.54846609 0
0.013692426 0 0.013675854 -0.33897066 -0.54846609 0
0.014897826 0 0.013689543 -0.33897066 -0.54846609 0
0.016105644 0 0.013703293 -0.33897066 -0.54846609 0
0.017315894 0 0.013717104 -0.33897066 -0.54846609 0
0.01852859 0 0.013730976 -0.33897066 -0.54846609 0
0.019743744 0 0.013744909 -0.33897066 -0.54846609 0
0.020961368 0 0.013758904 -0.33897066 -0.54846609 0
0.022181479 0 0.013772961 -0.33897066 -0.54846609 0
0.023404088 0 0.013787079 -0.33897066 -0.54846609 0
0.024629207 0 0.01380126 -0.33897066 -0.54846609 0
0.025856854 0 0.013815504 -0.33897066 -0.54846609 0
0.02708704 0 0.01382981 -0.33897066 -0.54846609 0
0.02831978 0 0.013844179 -0.33897066 -0.54846609 0
0.029555086 0 0.013858612 -0.33897066 -0.54846609 0
0.030792974 0 0.013873109 -0.33897066 -0.54846609 0
0.032033458 0 0.013887669 -0.33897066 -0.54846609 0
0.03327655 0 0.013902294 -0.33897066 -0.54846609 0
0.034522265 0 0.013916982 -0.33897066 -0.54846609 0
0.035770621 0 0.013931735 -0.33897066 -0.54846609 0
0.03702163 0 0.013946555 -0.33897066 -0.54846609 0
0.038275305 0 0.013961438 -0.33897066 -0.54846609 0
0.039531659 0 0.013976388 -0.33897066 -0.54846609 0
0 0.078971133 0.013848763 -0.33897066 -0.54846609 0
0 0.076647237 0.013809076 -0.33897066 -0.54846609 0
0 0.074336618 0.013769647 -0.33897066 -0.54846609 0
0 0.07203915 0.013730478 -0.33897066 -0.54846609 0
0 0.069754705 0.013691562 -0.33897066 -0.54846609 0
0 0.067483172 0.013652899 -0.33897066 -0.54846609 0
0 0.065224431 0.013614488 -0.33897066 -0.54846609 0
0 0.06297835 0.013576324 -0.33897066 -0.54846609 0
0 0.060744826 0.013538406 -0.33897066 -0.54846609 0
0 0.058523737 0.013500732 -0.33897066 -0.54846609 0
0 0.056314971 0.0134633 -0.33897066 -0.54846609 0
0 0.054118413 0.013426106 -0.33897066 -0.54846609 0
0 0.051933952 0.013389151 -0.33897066 -0.54846609 0
0 0.049761478 0.013352429 -0.33897066 -0.54846609 0
0 0.047600884 0.013315941 -0.33897066 -0.54846609 0
0 0.045452058 0.013279684 -0.33897066 -0.54846609 0
0 0.0433149 0.013243655 -0.33897066 -0.54846609 0
0 0.041189302 0.013207853 -0.33897066 -0.54846609 0
0 0.039075159 0.013172276 -0.33897066 -0.54846609 0
0 0.03697237 0.013136921 -0.33897066 -0.54846609 0
0 0.034880836 0.013101788 -0.33897066 -0.54846609 0
0 0.032800451 0.013066874 -0.33897066 -0.54846609 0
0 0.030731121 0.013032176 -0.33897066 -0.54846609 0
0 0.028672747 0.012997693 -0.33897066 -0.54846609 0
0 0.026625233 0.012963424 -0.33897066 -0.54846609 0
0 0.024588481 0.012929366 -0.33897066 -0.54846609 0
0 0.022562398 0.012895517 -0.33897066 -0.54846609 0
0 0.020546891 0.012861877 -0.33897066 -0.54846609 0
0 0.018541869 0.012828441 -0.33897066 -0.54846609 0
0 0.016547237 0.012795211 -0.33897066 -0.54846609 0
0 0.014562909 0.012762182 -0.33897066 -0.54846609 0
0 0.012588793 0.012729355 -0.33897066 -0.54846609 0
0 0.010624804 0.012696726 -0.33897066 -0.54846609 0
0 0.0086708516 0.012664295 -0.33897066 -0.54846609 0
0 0.0067268508 0.01263206 -0.33897066 -0.54846609 0
0 0.0047927173 0.012600018 -0.33897066 -0.54846609 0
0 0.0028683662 0.012568168 -0.33897066 -0.54846609 0
0 0.00095371442 0.01253651 -0.33897066 -0.54846609 0
0.00058896991 0 0.012526769 -0.33897066 -0.54846609 0
0.0017686113 0 0.012538842 -0.33897066 -0.54846609 0
0.0029505317 0 0.01255097 -0.33897066 -0.54846609 0
0.0041347435 0 0.01256315 -0.33897066 -0.54846609 0
0.0053212587 0 0.012575385 -0.33897066 -0.54846609 0
0.0065100901 0 0.012587675 -0.33897066 -0.54846609 0
0.0077012503 0 0.012600019 -0.33897066 -0.54846609 0
0.0088947518 0 0.012612417 -0.33897066 -0.54846609 0
0.010090607 0 0.01262487 -0.33897066 -0.54846609 0
0.01128883 0 0.012637379 -0.33897066 -0.54846609 0
0.012489432 0 0.012649943 -0.33897066 -0.54846609 0
0.013692426 0 0.012662563 -0.33897066 -0.54846609 0
0.014897826 0 0.012675238 -0.33897066 -0.54846609 0
0.016105644 0 0.012687969 -0.33897066 -0.54846609 0
0.017315894 0 0.012700756 -0.33897066 -0.54846609 0
0.01852859 0 0.012713601 -0.33897066 -0.54846609 0
0.019743744 0 0.012726502 -0.33897066 -0.54846609 0
0.020961368 0 0.012739459 -0.33897066 -0.54846609 0
0.022181479 0 0.012752474 -0.33897066 -0.54846609 0
0.023404088 0 0.012765547 -0.33897066 -0.54846609 0
0.024629207 0 0.012778677 -0.33897066 -0.54846609 0
0.025856854 0 0.012791866 -0.33897066 -0.54846609 0
0.02708704 0 0.012805112 -0.33897066 -0.54846609 0
0.02831978 0 0.012818417 -0.33897066 -0.54846609 0
0.029555086 0 0.01283178 -0.33897066 -0.54846609 0
0.030792974 0 0.012845202 -0.33897066 -0.54846609 0
0.032033458 0 0.012858683 -0.33897066 -0.54846609 0
0.03327655 0 0.012872225 -0.33897066 -0.54846609 0
0.034522265 0 0.012885825 -0.33897066 -0.54846609 0
0.035770621 0 0.012899485 -0.33897066 -0.54846609 0
0.03702163 0 0.012913207 -0.33897066 -0.54846609 0
0.038275305 0 0.012926987 -0.33897066 -0.54846609 0
0.039531659 0 0.01294083 -0.33897066 -0.54846609 0
0 0.078971133 0.012740617 -0.33897066 -0.54846609 0
0 0.076647237 0.012704104 -0.33897066 -0.54846609 0
0 0.074336618 0.012667831 -0.33897066 -0.54846609 0
0 0.07203915 0.012631795 -0.33897066 -0.54846609 0
0 0.069754705 0.012595993 -0.33897066 -0.54846609 0
0 0.067483172 0.012560425 -0.33897066 -0.54846609 0
0 0.065224431 0.012525087 -0.33897066 -0.54846609 0
0 0.06297835 0.012489977 -0.33897066 -0.54846609 0
0 0.060744826 0.012455094 -0.33897066 -0.54846609 0
0 0.058523737 0.012420434 -0.33897066 -0.54846609 0
0 0.056314971 0.012385997 -0.33897066 -0.54846609 0
0 0.054118413 0.012351779 -0.33897066 -0.54846609 0
0 0.051933952 0.01231778 -0.33897066 -0.54846609 0
0 0.049761478 0.012283998 -0.33897066 -0.54846609 0
0 0.047600884 0.012250429 -0.33897066 -0.54846609 0
0 0.045452058 0.012217073 -0.33897066 -0.54846609 0
0 0.0433149 0.012183928 -0.33897066 -0.54846609 0
0 0.041189302 0.012150991 -0.33897066 -0.54846609 0
0 0.039075159 0.01211826 -0.33897066 -0.54846609 0
0 0.03697237 0.012085735 -0.33897066 -0.54846609 0
0 0.034880836 0.012053412 -0.33897066 -0.54846609 0
0 0.032800451 0.012021292 -0.33897066 -0.54846609 0
0 0.030731121 0.011989371 -0.33897066 -0.54846609 0
0 0.028672747 0.011957647 -0.33897066 -0.54846609 0
0 0.026625233 0.01192612 -0.33897066 -0.54846609 0
0 0.024588481 0.011894787 -0.33897066 -0.54846609 0
0 0.022562398 0.011863647 -0.33897066 -0.54846609 0
0 0.020546891 0.011832698 -0.33897066 -0.54846609 0
0 0.018541869 0.011801939 -0.33897066 -0.54846609 0
0 0.016547237 0.011771367 -0.33897066 -0.54846609 0
0 0.014562909 0.011740982 -0.33897066 -0.54846609 0
0 0.012588793 0.011710781 -0.33897066 -0.54846609 0
0 0.010624804 0.011680762 -0.33897066 -0.54846609 0
0 0.0086708516 0.011650926 -0.33897066 -0.54846609 0
0 0.0067268508 0.01162127 -0.33897066 -0.54846609 0
0 0.0047927173 0.011591793 -0.33897066 -0.54846609 0
0 0.0028683662 0.011562492 -0.33897066 -0.54846609 0
0 0.00095371442 0.011533367 -0.33897066 -0.54846609 0
0.00058896991 0 0.011524404 -0.33897066 -0.54846609 0
0.0017686113 0 0.011535512 -0.33897066 -0.54846609 0
0.0029505317 0 0.011546669 -0.33897066 -0.54846609 0
0.0041347435 0 0.011557875 -0.33897066 -0.54846609 0
0.0053212587 0 0.011569131 -0.33897066 -0.54846609 0
0.0065100901 0 0.011580437 -0.33897066 -0.54846609 0
0.0077012503 0 0.011591793 -0.33897066 -0.54846609 0
0.0088947518 0 0.0116032 -0.33897066 -0.54846609 0
0.010090607 0 0.011614657 -0.33897066 -0.54846609 0
0.01128883 0 0.011626164 -0.33897066 -0.54846609 0
0.012489432 0 0.011637723 -0.33897066 -0.54846609 0
0.013692426 0 0.011649332 -0.33897066 -0.54846609 0
0.014897826 0 0.011660993 -0.33897066 -0.54846609 0
0.016105644 0 0.011672706 -0.33897066 -0.54846609 0
0.017315894 0 0.011684471 -0.33897066 -0.54846609 0
0.01852859 0 0.011696286 -0.33897066 -0.54846609 0
0.019743744 0 0.011708155 -0.33897066 -0.54846609 0
0.020961368 0 0.011720076 -0.33897066 -0.54846609 0
0.022181479 0 0.01173205 -0.33897066 -0.54846609 0
0.023404088 0 0.011744076 -0.33897066 -0.54846609 0
0.024629207 0 0.011756156 -0.33897066 -0.54846609 0
0.025856854 0 0.011768289 -0.33897066 -0.54846609 0
0.02708704 0 0.011780475 -0.33897066 -0.54846609 0
0.02831978 0 0.011792716 -0.33897066 -0.54846609 0
0.029555086 0 0.011805009 -0.33897066 -0.54846609 0
0.030792974 0 0.011817358 -0.33897066 -0.54846609 0
0.032033458 0 0.011829761 -0.33897066 -0.54846609 0
0.03327655 0 0.011842218 -0.33897066 -0.54846609 0
0.034522265 0 0.011854731 -0.33897066 -0.54846609 0
0.035770621 0 0.011867298 -0.33897066 -0.54846609 0
0.03702163 0 0.01187992 -0.33897066 -0.54846609 0
0.038275305 0 0.011892599 -0.33897066 -0.54846609 0
0.039531659 0 0.011905333 -0.33897066 -0.54846609 0
0 0.078971133 0.011632531 -0.33897066 -0.54846609 0
0 0.076647237 0.011599194 -0.33897066 -0.54846609 0
0 0.074336618 0.011566075 -0.33897066 -0.54846609 0
0 0.07203915 0.011533174 -0.33897066 -0.54846609 0
0 0.069754705 0.011500486 -0.33897066 -0.54846609 0
0 0.067483172 0.011468011 -0.33897066 -0.54846609 0
0 0.065224431 0.011435746 -0.33897066 -0.54846609 0
0 0.06297835 0.01140369 -0.33897066 -0.54846609 0
0 0.060744826 0.011371841 -0.33897066 -0.54846609 0
0 0.058523737 0.011340195 -0.33897066 -0.54846609 0
0 0.056314971 0.011308753 -0.33897066 -0.54846609 0
0 0.054118413 0.011277512 -0.33897066 -0.54846609 0
0 0.051933952 0.01124647 -0.33897066 -0.54846609 0
0 0.049761478 0.011215625 -0.33897066 -0.54846609 0
0 0.047600884 0.011184976 -0.33897066 -0.54846609 0
0 0.045452058 0.011154521 -0.33897066 -0.54846609 0
0 0.0433149 0.011124259 -0.33897066 -0.54846609 0
0 0.041189302 0.011094186 -0.33897066 -0.54846609 0
0 0.039075159 0.011064302 -0.33897066 -0.54846609 0
0 0.03697237 0.011034606 -0.33897066 -0.54846609 0
0 0.034880836 0.011005095 -0.33897066 -0.54846609 0
0 0.032800451 0.010975768 -0.33897066 -0.54846609 0
0 0.030731121 0.010946623 -0.33897066 -0.54846609 0
0 0.028672747 0.010917659 -0.33897066 -0.54846609 0
0 0.026625233 0.010888874 -0.33897066 -0.54846609 0
0 0.024588481 0.010860265 -0.33897066 -0.54846609 0
0 0.022562398 0.010831834 -0.33897066 -0.54846609 0
0 0.020546891 0.010803577 -0.33897066 -0.54846609 0
0 0.018541869 0.010775493 -0.33897066 -0.54846609 0
0 0.016547237 0.01074758 -0.33897066 -0.54846609 0
0 0.014562909 0.010719837 -0.33897066 -0.54846609 0
0 0.012588793 0.010692262 -0.33897066 -0.54846609 0
0 0.010624804 0.010664855 -0.33897066 -0.54846609 0
0 0.0086708516 0.010637614 -0.33897066 -0.54846609 0
0 0.0067268508 0.010610538 -0.33897066 -0.54846609 0
0 0.0047927173 0.010583623 -0.33897066 -0.54846609 0
0 0.0028683662 0.010556871 -0.33897066 -0.54846609 0
0 0.00095371442 0.010530279 -0.33897066 -0.54846609 0
0.00058896991 0 0.010522096 -0.33897066 -0.54846609 0
0.0017686113 0 0.010532238 -0.33897066 -0.54846609 0
0.0029505317 0 0.010542424 -0.33897066 -0.54846609 0
0.0041347435 0 0.010552656 -0.33897066 -0.54846609 0
0.0053212587 0 0.010562933 -0.33897066 -0.54846609 0
0.0065100901 0 0.010573256 -0.33897066 -0.54846609 0
0.0077012503 0 0.010583624 -0.33897066 -0.54846609 0
0.0088947518 0 0.010594038 -0.33897066 -0.54846609 0
0.010090607 0 0.010604499 -0.33897066 -0.54846609 0
0.01128883 0 0.010615005 -0.33897066 -0.54846609 0
0.012489432 0 0.010625559 -0.33897066 -0.54846609 0
0.013692426 0 0.010636158 -0.33897066 -0.54846609 0
0.014897826 0 0.010646805 -0.33897066 -0.54846609 0
0.016105644 0 0.0106575 -0.33897066 -0.54846609 0
0.017315894 0 0.01066824 -0.33897066 -0.54846609 0
0.01852859 0 0.010679029 -0.33897066 -0.54846609 0
0.019743744 0 0.010689866 -0.33897066 -0.54846609 0
0.020961368 0 0.01070075 -0.33897066 -0.54846609 0
0.022181479 0 0.010711682 -0.33897066 -0.54846609 0
0.023404088 0 0.010722662 -0.33897066 -0.54846609 0
0.024629207 0 0.010733692 -0.33897066 -0.54846609 0
0.025856854 0 0.010744769 -0.33897066 -0.54846609 0
0.02708704 0 0.010755896 -0.33897066 -0.54846609 0
0.02831978 0 0.010767072 -0.33897066 -0.54846609 0
0.029555086 0 0.010778296 -0.33897066 -0.54846609 0
0.030792974 0 0.01078957 -0.33897066 -0.54846609 0
