# .PCD v0.7 - Point Cloud Data file format
VERSION 0.7
FIELDS x y z vp_x vp_y vp_z
SIZE 4 4 4 4 4 4
TYPE F F F F F F
COUNT 1 1 1 1 1 1
WIDTH 698
HEIGHT 1
VIEWPOINT 0 0 0 1 0 0 0
POINTS 698
DATA ascii
0.039999999 0.013965695 0.035312645 0.52287865 -0.32315677 -0.19972187
0.039999999 0.01516553 0.035568479 0.52287865 -0.32315677 -0.19972187
0.039999999 0.016368149 0.035825018 0.52287865 -0.32315677 -0.19972187
0.039999999 0.017573569 0.03608226 0.52287865 -0.32315677 -0.19972187
0.039999999 0.018781805 0.036340214 0.52287865 -0.32315677 -0.19972187
0.039999999 0.019992871 0.036598884 0.52287865 -0.32315677 -0.19972187
0.039999999 0.021206787 0.036858268 0.52287865 -0.32315677 -0.19972187
0.039999999 0.022423565 0.037118375 0.52287865 -0.32315677 -0.19972187
0.039999999 0.023643225 0.037379205 0.52287865 -0.32315677 -0.19972187
0.039999999 0.02486578 0.037640765 0.52287865 -0.32315677 -0.19972187
0.035738796 0.029173218 0.039999999 0.52287865 -0.32315677 -0.19972187
0.039999999 0.027319647 0.038166087 0.52287865 -0.32315677 -0.19972187
0.039999999 0.02855099 0.03842986 0.52287865 -0.32315677 -0.19972187
0.039999999 0.029785298 0.038694374 0.52287865 -0.32315677 -0.19972187
0.039999999 0.031022584 0.038959637 0.52287865 -0.32315677 -0.19972187
0.039999999 0.032262869 0.039225657 0.52287865 -0.32315677 -0.19972187
0.039999999 0.033506166 0.039492432 0.52287865 -0.32315677 -0.19972187
0.039999999 0.034752496 0.039759967 0.52287865 -0.32315677 -0.19972187
0.030542418 0.043036293 0.044723973 0.52287865 -0.32315677 -0.19972187
0.031461701 0.043627132 0.044541374 0.52287865 -0.32315677 -0.19972187
0.032308333 0.044270746 0.044394691 0.52287865 -0.32315677 -0.19972187
0.033131409 0.044930812 0.044259585 0.52287865 -0.32315677 -0.19972187
0.033883546 0.04564324 0.044159725 0.52287865 -0.32315677 -0.19972187
0.034621522 0.046365634 0.044066887 0.52287865 -0.32315677 -0.19972187
0.035283558 0.047145016 0.044011977 0.52287865 -0.32315677 -0.19972187
0.03594232 0.047926616 0.043958757 0.52287865 -0.32315677 -0.19972187
0.036516104 0.048772942 0.04394817 0.52287865 -0.32315677 -0.19972187
0.037089981 0.049619403 0.043937691 0.52287865 -0.32315677 -0.19972187
0.037582397 0.050528795 0.043968275 0.52287865 -0.32315677 -0.19972187
0.038067769 0.051444277 0.044002652 0.52287865 -0.32315677 -0.19972187
0.038477112 0.052419402 0.04407556 0.52287865 -0.32315677 -0.19972187
0.038870912 0.053407729 0.044156652 0.52287865 -0.32315677 -0.19972187
0.039187327 0.054457672 0.04427715 0.52287865 -0.32315677 -0.19972187
0.039483648 0.05552499 0.044408262 0.52287865 -0.32315677 -0.19972187
0.039690439 0.056664433 0.044585135 0.52287865 -0.32315677 -0.19972187
0.039879885 0.05781981 0.044771384 0.52287865 -0.32315677 -0.19972187
0.039949715 0.059072215 0.045018878 0.52287865 -0.32315677 -0.19972187
0.039980564 0.060358599 0.04528692 0.52287865 -0.32315677 -0.19972187
0.039906122 0.061732151 0.045609258 0.52287865 -0.32315677 -0.19972187
0.039711777 0.063205421 0.045993522 0.52287865 -0.32315677 -0.19972187
0.039399587 0.064777777 0.04643888 0.52287865 -0.32315677 -0.19972187
0.038907658 0.066500045 0.046977099 0.52287865 -0.32315677 -0.19972187
0.038110517 0.068475097 0.04767254 0.52287865 -0.32315677 -0.19972187
0.036700785 0.070954658 0.048682805 0.52287865 -0.32315677 -0.19972187
0.014339357 0 0.039959077 0.52287865 -0.32315677 -0.19972187
0.016208597 0 0.039327379 0.52287865 -0.32315677 -0.19972187
0.018068073 0 0.038699083 0.52287865 -0.32315677 -0.19972187
0.019917874 0 0.038074166 0.52287865 -0.32315677 -0.19972187
0.021758083 0 0.037452597 0.52287865 -0.32315677 -0.19972187
0.023588782 0 0.036834344 0.52287865 -0.32315677 -0.19972187
0.025410056 0 0.036219385 0.52287865 -0.32315677 -0.19972187
0.027221985 0 0.035607684 0.52287865 -0.32315677 -0.19972187
0.029024651 0 0.034999218 0.52287865 -0.32315677 -0.19972187
0.030818133 0 0.034393959 0.52287865 -0.32315677 -0.19972187
0.032602508 0 0.033791874 0.52287865 -0.32315677 -0.19972187
0.034377858 0 0.033192944 0.52287865 -0.32315677 -0.19972187
0.036144257 0 0.032597136 0.52287865 -0.32315677 -0.19972187
0.037901781 0 0.032004427 0.52287865 -0.32315677 -0.19972187
0.039650511 0 0.031414792 0.52287865 -0.32315677 -0.19972187
0.039999999 0.00093326112 0.031494018 0.52287865 -0.32315677 -0.19972187
0.039999999 0.0021028419 0.031741064 0.52287865 -0.32315677 -0.19972187
0.039999999 0.0032750375 0.031988766 0.52287865 -0.32315677 -0.19972187
0.039999999 0.004449863 0.032237131 0.52287865 -0.32315677 -0.19972187
0.039999999 0.0056273327 0.032486159 0.52287865 -0.32315677 -0.19972187
0.039999999 0.0068074614 0.032735854 0.52287865 -0.32315677 -0.19972187
0.039999999 0.0079902643 0.03298622 0.52287865 -0.32315677 -0.19972187
0.039999999 0.0091757569 0.03323726 0.52287865 -0.32315677 -0.19972187
0.039999999 0.010363953 0.033488978 0.52287865 -0.32315677 -0.19972187
0.039999999 0.011554869 0.033741377 0.52287865 -0.32315677 -0.19972187
0.039999999 0.012748519 0.033994466 0.52287865 -0.32315677 -0.19972187
0.039999999 0.01394492 0.03424824 0.52287865 -0.32315677 -0.19972187
0.039999999 0.015144086 0.034502707 0.52287865 -0.32315677 -0.19972187
0.039999999 0.016346034 0.034757871 0.52287865 -0.32315677 -0.19972187
0.039999999 0.017550778 0.035013732 0.52287865 -0.32315677 -0.19972187
0.039999999 0.018758334 0.0352703 0.52287865 -0.32315677 -0.19972187
0.030819792 0.026492022 0.039999999 0.52287865 -0.32315677 -0.19972187
0.039999999 0.02118195 0.03578556 0.52287865 -0.32315677 -0.19972187
0.039999999 0.022398042 0.036044259 0.52287865 -0.32315677 -0.19972187
0.039999999 0.023617009 0.036303677 0.52287865 -0.32315677 -0.19972187
0.039999999 0.02483887 0.036563821 0.52287865 -0.32315677 -0.19972187
0.039999999 0.02606364 0.036824688 0.52287865 -0.32315677 -0.19972187
0.034058612 0.031603288 0.039999999 0.52287865 -0.32315677 -0.19972187
0.039999999 0.028521976 0.037348621 0.52287865 -0.32315677 -0.19972187
0.039999999 0.029755576 0.037611689 0.52287865 -0.32315677 -0.19972187
0.039999999 0.03099215 0.037875503 0.52287865 -0.32315677 -0.19972187
0.039999999 0.032231718 0.038140066 0.52287865 -0.32315677 -0.19972187
0.039999999 0.0334743 0.038405374 0.52287865 -0.32315677 -0.19972187
0.039999999 0.034719907 0.038671438 0.52287865 -0.32315677 -0.19972187
0.039999999 0.035968557 0.038938262 0.52287865 -0.32315677 -0.19972187
0.039999999 0.037220273 0.039205849 0.52287865 -0.32315677 -0.19972187
0.039999999 0.038475066 0.0394742 0.52287865 -0.32315677 -0.19972187
0.039999999 0.039732959 0.039743323 0.52287865 -0.32315677 -0.19972187
0.033861969 0.045622803 0.043060571 0.52287865 -0.32315677 -0.19972187
0.03460218 0.046342865 0.042966783 0.52287865 -0.32315677 -0.19972187
0.035263881 0.047121849 0.042912021 0.52287865 -0.32315677 -0.19972187
0.035924967 0.047901023 0.042857617 0.52287865 -0.32315677 -0.19972187
0.036498453 0.04874691 0.042846952 0.52287865 -0.32315677 -0.19972187
0.037072033 0.049592931 0.042836394 0.52287865 -0.32315677 -0.19972187
0.037566971 0.0504997 0.042865295 0.52287865 -0.32315677 -0.19972187
0.038052086 0.051414695 0.042899363 0.52287865 -0.32315677 -0.19972187
0.038464192 0.052386981 0.042970266 0.52287865 -0.32315677 -0.19972187
0.038857777 0.053374771 0.043050803 0.52287865 -0.32315677 -0.19972187
0.039177302 0.05442157 0.043168899 0.52287865 -0.32315677 -0.19972187
0.039473455 0.055488288 0.043299198 0.52287865 -0.32315677 -0.19972187
0.039683837 0.056624174 0.043473154 0.52287865 -0.32315677 -0.19972187
0.039873172 0.05777888 0.043658305 0.52287865 -0.32315677 -0.19972187
0.039947271 0.059027139 0.043902207 0.52287865 -0.32315677 -0.19972187
0.039983273 0.06030865 0.044166107 0.52287865 -0.32315677 -0.19972187
0.039908875 0.061681345 0.044486631 0.52287865 -0.32315677 -0.19972187
0.039721109 0.063148528 0.044865482 0.52287865 -0.32315677 -0.19972187
0.039417546 0.064713091 0.045304101 0.52287865 -0.32315677 -0.19972187
0.038937662 0.066424742 0.045833405 0.52287865 -0.32315677 -0.19972187
0.038156118 0.068386205 0.046517391 0.52287865 -0.32315677 -0.19972187
0.036780596 0.070836931 0.047505271 0.52287865 -0.32315677 -0.19972187
0.012453933 0 0.039510116 0.52287865 -0.32315677 -0.19972187
0.014332085 0 0.03887815 0.52287865 -0.32315677 -0.19972187
0.016200399 0 0.038249597 0.52287865 -0.32315677 -0.19972187
0.018058959 0 0.037624434 0.52287865 -0.32315677 -0.19972187
0.019907853 0 0.037002623 0.52287865 -0.32315677 -0.19972187
0.021747163 0 0.036384143 0.52287865 -0.32315677 -0.19972187
0.023576975 0 0.03576896 0.52287865 -0.32315677 -0.19972187
0.02539737 0 0.035157043 0.52287865 -0.32315677 -0.19972187
0.027208429 0 0.034548372 0.52287865 -0.32315677 -0.19972187
0.029010234 0 0.033942915 0.52287865 -0.32315677 -0.19972187
0.030802863 0 0.03334064 0.52287865 -0.32315677 -0.19972187
0.032586396 0 0.032741528 0.52287865 -0.32315677 -0.19972187
0.034360912 0 0.032145549 0.52287865 -0.32315677 -0.19972187
0.036126483 0 0.031552672 0.52287865 -0.32315677 -0.19972187
0.037883192 0 0.030962875 0.52287865 -0.32315677 -0.19972187
0.03963111 0 0.030376131 0.52287865 -0.32315677 -0.19972187
0.019955365 0.014372308 0.039999999 0.52287865 -0.32315677 -0.19972187
0.039999999 0.0020886101 0.030691331 0.52287865 -0.32315677 -0.19972187
0.039999999 0.0032601673 0.030937729 0.52287865 -0.32315677 -0.19972187
0.021565365 0.016940646 0.039999999 0.52287865 -0.32315677 -0.19972187
0.039999999 0.0056111766 0.031432495 0.52287865 -0.32315677 -0.19972187
0.039999999 0.0067906585 0.031680867 0.52287865 -0.32315677 -0.19972187
0.023177866 0.019508434 0.039999999 0.52287865 -0.32315677 -0.19972187
0.039999999 0.0091576502 0.032179609 0.52287865 -0.32315677 -0.19972187
0.039999999 0.010345191 0.032429986 0.52287865 -0.32315677 -0.19972187
0.039999999 0.011535447 0.03268104 0.52287865 -0.32315677 -0.19972187
0.025331853 0.02293144 0.039999999 0.52287865 -0.32315677 -0.19972187
0.039999999 0.013924171 0.033185188 0.52287865 -0.32315677 -0.19972187
0.039999999 0.015122669 0.033438291 0.52287865 -0.32315677 -0.19972187
0.039999999 0.016323945 0.033692084 0.52287865 -0.32315677 -0.19972187
0.027490512 0.026353817 0.039999999 0.52287865 -0.32315677 -0.19972187
0.028030923 0.027209338 0.039999999 0.52287865 -0.32315677 -0.19972187
0.039999999 0.019944599 0.034457635 0.52287865 -0.32315677 -0.19972187
0.039999999 0.021157146 0.034714226 0.52287865 -0.32315677 -0.19972187
0.039999999 0.022372549 0.034971524 0.52287865 -0.32315677 -0.19972187
0.030195605 0.030631209 0.039999999 0.52287865 -0.32315677 -0.19972187
0.039999999 0.024811994 0.035488259 0.52287865 -0.32315677 -0.19972187
0.039999999 0.026036067 0.035747707 0.52287865 -0.32315677 -0.19972187
0.039999999 0.027263064 0.036007877 0.52287865 -0.32315677 -0.19972187
0.039999999 0.028493 0.036268774 0.52287865 -0.32315677 -0.19972187
0.039999999 0.029725891 0.036530405 0.52287865 -0.32315677 -0.19972187
0.039999999 0.030961756 0.03679277 0.52287865 -0.32315677 -0.19972187
0.039999999 0.032200612 0.037055876 0.52287865 -0.32315677 -0.19972187
0.039999999 0.033442475 0.037319724 0.52287865 -0.32315677 -0.19972187
0.039999999 0.034687359 0.037584323 0.52287865 -0.32315677 -0.19972187
0.039999999 0.035935286 0.037849672 0.52287865 -0.32315677 -0.19972187
0.039999999 0.037186272 0.038115777 0.52287865 -0.32315677 -0.19972187
0.039999999 0.038440336 0.038382638 0.52287865 -0.32315677 -0.19972187
0.039999999 0.039697494 0.038650267 0.52287865 -0.32315677 -0.19972187
0.039999999 0.04095776 0.038918667 0.52287865 -0.32315677 -0.19972187
0.039999999 0.042221159 0.039187834 0.52287865 -0.32315677 -0.19972187
0.039999999 0.043487705 0.039457779 0.52287865 -0.32315677 -0.19972187
0.039999999 0.044757415 0.039728507 0.52287865 -0.32315677 -0.19972187
0.036480825 0.048720911 0.041747089 0.52287865 -0.32315677 -0.19972187
0.037054107 0.049566489 0.041736454 0.52287865 -0.32315677 -0.19972187
0.037551567 0.050470643 0.041763693 0.52287865 -0.32315677 -0.19972187
0.038036421 0.051385149 0.041797448 0.52287865 -0.32315677 -0.19972187
0.038451292 0.0523546 0.041866362 0.52287865 -0.32315677 -0.19972187
0.03884466 0.053341851 0.041946352 0.52287865 -0.32315677 -0.19972187
0.039167292 0.054385513 0.042062059 0.52287865 -0.32315677 -0.19972187
0.039463282 0.055451635 0.04219155 0.52287865 -0.32315677 -0.19972187
0.039677244 0.056583963 0.042362612 0.52287865 -0.32315677 -0.19972187
0.03986647 0.057738006 0.042546667 0.52287865 -0.32315677 -0.19972187
0.039944831 0.058982123 0.042787001 0.52287865 -0.32315677 -0.19972187
0.039985973 0.060258765 0.043046791 0.52287865 -0.32315677 -0.19972187
0.039911624 0.061630607 0.043365501 0.52287865 -0.32315677 -0.19972187
0.039730422 0.06309171 0.043738984 0.52287865 -0.32315677 -0.19972187
0.03943548 0.064648494 0.044170912 0.52287865 -0.32315677 -0.19972187
0.038961951 0.066354118 0.044694241 0.52287865 -0.32315677 -0.19972187
0.038186654 0.06830956 0.045371577 0.52287865 -0.32315677 -0.19972187
0.03686028 0.070719406 0.046329688 0.52287865 -0.32315677 -0.19972187
0.032948006 0.075242907 0.048600912 0.52287865 -0.32315677 -0.19972187
0.0086633367 0 0.039695244 0.52287865 -0.32315677 -0.19972187
0.010560473 0 0.039059561 0.52287865 -0.32315677 -0.19972187
0.012447606 0 0.038427331 0.52287865 -0.32315677 -0.19972187
0.014324822 0 0.037798528 0.52287865 -0.32315677 -0.19972187
0.016192209 0 0.037173118 0.52287865 -0.32315677 -0.19972187
0.018049855 0 0.036551077 0.52287865 -0.32315677 -0.19972187
0.019897843 0 0.03593237 0.52287865 -0.32315677 -0.19972187
0.021736257 0 0.035316966 0.52287865 -0.32315677 -0.19972187
0.023565181 0 0.034704845 0.52287865 -0.32315677 -0.19972187
0.025384698 0 0.034095973 0.52287865 -0.32315677 -0.19972187
0.027194889 0 0.033490323 0.52287865 -0.32315677 -0.19972187
0.028995834 0 0.032887865 0.52287865 -0.32315677 -0.19972187
0.030787611 0 0.032288574 0.52287865 -0.32315677 -0.19972187
0.032570302 0 0.031692427 0.52287865 -0.32315677 -0.19972187
0.034343984 0 0.031099388 0.52287865 -0.32315677 -0.19972187
0.036108732 0 0.030509437 0.52287865 -0.32315677 -0.19972187
0.037864625 0 0.029922547 0.52287865 -0.32315677 -0.19972187
0.039611734 0 0.02933869 0.52287865 -0.32315677 -0.19972187
0.017656924 0.015900662 0.039999999 0.52287865 -0.32315677 -0.19972187
0.039999999 0.002074396 0.029642919 0.52287865 -0.32315677 -0.19972187
0.039999999 0.0032453155 0.029888013 0.52287865 -0.32315677 -0.19972187
0.039999999 0.0044188588 0.03013376 0.52287865 -0.32315677 -0.19972187
0.039999999 0.005595041 0.030380156 0.52287865 -0.32315677 -0.19972187
0.039999999 0.006773876 0.030627208 0.52287865 -0.32315677 -0.19972187
0.039999999 0.0079553798 0.030874919 0.52287865 -0.32315677 -0.19972187
0.039999999 0.0091395667 0.031123294 0.52287865 -0.32315677 -0.19972187
0.039999999 0.010326452 0.031372335 0.52287865 -0.32315677 -0.19972187
0.039999999 0.01151605 0.031622045 0.52287865 -0.32315677 -0.19972187
0.039999999 0.012708377 0.031872425 0.52287865 -0.32315677 -0.19972187
0.039999999 0.013903448 0.032123487 0.52287865 -0.32315677 -0.19972187
0.039999999 0.015101279 0.032375228 0.52287865 -0.32315677 -0.19972187
0.039999999 0.016301885 0.03262765 0.52287865 -0.32315677 -0.19972187
0.039999999 0.017505281 0.032880761 0.52287865 -0.32315677 -0.19972187
0.025763022 0.028790975 0.039999999 0.52287865 -0.32315677 -0.19972187
0.039999999 0.019920509 0.033389062 0.52287865 -0.32315677 -0.19972187
0.039999999 0.021132372 0.033644259 0.52287865 -0.32315677 -0.19972187
0.039999999 0.022347089 0.033900157 0.52287865 -0.32315677 -0.19972187
0.039999999 0.023564678 0.034156758 0.52287865 -0.32315677 -0.19972187
0.039999999 0.024785152 0.034414075 0.52287865 -0.32315677 -0.19972187
0.039999999 0.02600853 0.034672104 0.52287865 -0.32315677 -0.19972187
0.039999999 0.027234826 0.034930848 0.52287865 -0.32315677 -0.19972187
0.030113352 0.035663281 0.039999999 0.52287865 -0.32315677 -0.19972187
0.039999999 0.029696245 0.035450507 0.52287865 -0.32315677 -0.19972187
0.039999999 0.0309314 0.03571143 0.52287865 -0.32315677 -0.19972187
0.039999999 0.032169543 0.035973083 0.52287865 -0.32315677 -0.19972187
0.039999999 0.033410687 0.036235474 0.52287865 -0.32315677 -0.19972187
0.032842502 0.03995854 0.039999999 0.52287865 -0.32315677 -0.19972187
0.033389304 0.040817641 0.039999999 0.52287865 -0.32315677 -0.19972187
0.039999999 0.03715232 0.037027113 0.52287865 -0.32315677 -0.19972187
0.039999999 0.038405649 0.037292492 0.52287865 -0.32315677 -0.19972187
0.039999999 0.039662074 0.03755863 0.52287865 -0.32315677 -0.19972187
0.039999999 0.040921606 0.037825529 0.52287865 -0.32315677 -0.19972187
0.039999999 0.04218426 0.038093194 0.52287865 -0.32315677 -0.19972187
0.039999999 0.043450061 0.038361628 0.52287865 -0.32315677 -0.19972187
0.039999999 0.044719025 0.038630836 0.52287865 -0.32315677 -0.19972187
0.039999999 0.045991167 0.038900826 0.52287865 -0.32315677 -0.19972187
0.039999999 0.047266509 0.039171595 0.52287865 -0.32315677 -0.19972187
0.039999999 0.048545066 0.03944315 0.52287865 -0.32315677 -0.19972187
0.039999999 0.04982686 0.039715499 0.52287865 -0.32315677 -0.19972187
0.039999999 0.051111907 0.039988641 0.52287865 -0.32315677 -0.19972187
0.038831562 0.053308975 0.040843282 0.52287865 -0.32315677 -0.19972187
0.039157297 0.054349504 0.040956624 0.52287865 -0.32315677 -0.19972187
0.039453119 0.055415027 0.041085307 0.52287865 -0.32315677 -0.19972187
0.039670661 0.056543808 0.0412535 0.52287865 -0.32315677 -0.19972187
0.039859779 0.057697184 0.041436456 0.52287865 -0.32315677 -0.19972187
0.039942395 0.05893717 0.04167325 0.52287865 -0.32315677 -0.19972187
0.039988674 0.060208943 0.041928962 0.52287865 -0.32315677 -0.19972187
0.03991437 0.061579939 0.042245865 0.52287865 -0.32315677 -0.19972187
0.039739728 0.063034967 0.042614017 0.52287865 -0.32315677 -0.19972187
0.039453391 0.064583987 0.043039303 0.52287865 -0.32315677 -0.19972187
0.038980186 0.066288434 0.043559719 0.52287865 -0.32315677 -0.19972187
0.03821715 0.068233028 0.044227425 0.52287865 -0.32315677 -0.19972187
0.03693983 0.070602074 0.04515605 0.52287865 -0.32315677 -0.19972187
0.033351585 0.074860632 0.047252942 0.52287865 -0.32315677 -0.19972187
0.0048362091 0 0.039882775 0.52287865 -0.32315677 -0.19972187
0.0067526489 0 0.039243333 0.52287865 -0.32315677 -0.19972187
0.0086589148 0 0.038607385 0.52287865 -0.32315677 -0.19972187
0.010555097 0 0.037974901 0.52287865 -0.32315677 -0.19972187
0.012441286 0 0.037345853 0.52287865 -0.32315677 -0.19972187
0.014317567 0 0.036720205 0.52287865 -0.32315677 -0.19972187
0.016184032 0 0.036097933 0.52287865 -0.32315677 -0.19972187
0.018040761 0 0.035479005 0.52287865 -0.32315677 -0.19972187
0.019887844 0 0.034863394 0.52287865 -0.32315677 -0.19972187
0.021725362 0 0.034251068 0.52287865 -0.32315677 -0.19972187
0.023553401 0 0.033641998 0.52287865 -0.32315677 -0.19972187
0.025372041 0 0.033036161 0.52287865 -0.32315677 -0.19972187
0.027181365 0 0.032433525 0.52287865 -0.32315677 -0.19972187
0.028981451 0 0.031834066 0.52287865 -0.32315677 -0.19972187
0.030772379 0 0.031237751 0.52287865 -0.32315677 -0.19972187
0.032554228 0 0.030644557 0.52287865 -0.32315677 -0.19972187
0.034327079 0 0.030054457 0.52287865 -0.32315677 -0.19972187
0.036091004 0 0.029467426 0.52287865 -0.32315677 -0.19972187
0.037846077 0 0.028883435 0.52287865 -0.32315677 -0.19972187
0.039592382 0 0.028302461 0.52287865 -0.32315677 -0.19972187
0.039999999 0.00089252373 0.028352659 0.52287865 -0.32315677 -0.19972187
0.039999999 0.0020601999 0.028595816 0.52287865 -0.32315677 -0.19972187
0.039999999 0.0032304823 0.028839612 0.52287865 -0.32315677 -0.19972187
0.039999999 0.0044033863 0.029084051 0.52287865 -0.32315677 -0.19972187
0.039999999 0.0055789254 0.029329138 0.52287865 -0.32315677 -0.19972187
0.039999999 0.006757115 0.029574873 0.52287865 -0.32315677 -0.19972187
0.039999999 0.0079379706 0.029821262 0.52287865 -0.32315677 -0.19972187
0.039999999 0.0091215055 0.030068308 0.52287865 -0.32315677 -0.19972187
0.039999999 0.010307737 0.030316012 0.52287865 -0.32315677 -0.19972187
0.039999999 0.011496678 0.030564381 0.52287865 -0.32315677 -0.19972187
0.020757809 0.026071407 0.039999999 0.52287865 -0.32315677 -0.19972187
0.039999999 0.013882753 0.031063125 0.52287865 -0.32315677 -0.19972187
0.039999999 0.015079916 0.031313505 0.52287865 -0.32315677 -0.19972187
0.039999999 0.016279852 0.031564564 0.52287865 -0.32315677 -0.19972187
0.039999999 0.017482577 0.031816304 0.52287865 -0.32315677 -0.19972187
0.039999999 0.018688103 0.032068729 0.52287865 -0.32315677 -0.19972187
0.039999999 0.01989645 0.032321844 0.52287865 -0.32315677 -0.19972187
0.039999999 0.021107631 0.032575648 0.52287865 -0.32315677 -0.19972187
0.039999999 0.022321662 0.032830149 0.52287865 -0.32315677 -0.19972187
0.039999999 0.023538562 0.033085354 0.52287865 -0.32315677 -0.19972187
0.039999999 0.024758345 0.033341259 0.52287865 -0.32315677 -0.19972187
0.039999999 0.025981026 0.033597872 0.52287865 -0.32315677 -0.19972187
0.039999999 0.027206626 0.033855192 0.52287865 -0.32315677 -0.19972187
0.039999999 0.028435156 0.034113232 0.52287865 -0.32315677 -0.19972187
0.039999999 0.029666638 0.034371991 0.52287865 -0.32315677 -0.19972187
0.039999999 0.030901084 0.034631472 0.52287865 -0.32315677 -0.19972187
0.039999999 0.032138515 0.034891676 0.52287865 -0.32315677 -0.19972187
0.030034259 0.040737197 0.039999999 0.52287865 -0.32315677 -0.19972187
0.039999999 0.034622394 0.035414286 0.52287865 -0.32315677 -0.19972187
0.039999999 0.035868876 0.035676695 0.52287865 -0.32315677 -0.19972187
0.039999999 0.037118409 0.03593985 0.52287865 -0.32315677 -0.19972187
0.032230061 0.044188309 0.039999999 0.52287865 -0.32315677 -0.19972187
0.039999999 0.039626699 0.036468398 0.52287865 -0.32315677 -0.19972187
0.0023220046 0.069290936 0.05518394 0.52287865 -0.32315677 -0.19972187
0.039999999 0.042147413 0.036999967 0.52287865 -0.32315677 -0.19972187
0.003441819 0.071164995 0.055209037 0.52287865 -0.32315677 -0.19972187
0.039999999 0.044680681 0.037534587 0.52287865 -0.32315677 -0.19972187
0.0047512562 0.072895952 0.055141684 0.52287865 -0.32315677 -0.19972187
0.039999999 0.04722666 0.038072292 0.52287865 -0.32315677 -0.19972187
0.039999999 0.048504461 0.038342316 0.52287865 -0.32315677 -0.19972187
0.039999999 0.049785491 0.038613118 0.52287865 -0.32315677 -0.19972187
0.039999999 0.05106977 0.038884711 0.52287865 -0.32315677 -0.19972187
0.039999999 0.05235732 0.0391571 0.52287865 -0.32315677 -0.19972187
0.039999999 0.053648159 0.039430283 0.52287865 -0.32315677 -0.19972187
0.039999999 0.054942306 0.039704267 0.52287865 -0.32315677 -0.19972187
0.039999999 0.056239776 0.039979059 0.52287865 -0.32315677 -0.19972187
0.039853092 0.057656415 0.040327668 0.52287865 -0.32315677 -0.19972187
0.039939962 0.058892269 0.04056095 0.52287865 -0.32315677 -0.19972187
0.039991371 0.060159191 0.040812612 0.52287865 -0.32315677 -0.19972187
0.039917111 0.061529335 0.041127708 0.52287865 -0.32315677 -0.19972187
0.039749019 0.062978305 0.04149057 0.52287865 -0.32315677 -0.19972187
0.039471276 0.064519569 0.04190927 0.52287865 -0.32315677 -0.19972187
0.038998395 0.066222847 0.042426784 0.52287865 -0.32315677 -0.19972187
0.0382476 0.068156607 0.043084931 0.52287865 -0.32315677 -0.19972187
0.037019245 0.070484929 0.043984346 0.52287865 -0.32315677 -0.19972187
0.033753973 0.074479491 0.045908969 0.52287865 -0.32315677 -0.19972187
0.0029080091 0 0.039429493 0.52287865 -0.32315677 -0.19972187
0.004833729 0 0.038789783 0.52287865 -0.32315677 -0.19972187
0.006749195 0 0.038153574 0.52287865 -0.32315677 -0.19972187
0.0086544976 0 0.037520841 0.52287865 -0.32315677 -0.19972187
0.010549727 0 0.03689155 0.52287865 -0.32315677 -0.19972187
0.012434972 0 0.036265671 0.52287865 -0.32315677 -0.19972187
0.014310322 0 0.035643175 0.52287865 -0.32315677 -0.19972187
0.016175862 0 0.035024032 0.52287865 -0.32315677 -0.19972187
0.018031679 0 0.034408212 0.52287865 -0.32315677 -0.19972187
0.019877858 0 0.033795688 0.52287865 -0.32315677 -0.19972187
0.021714482 0 0.033186432 0.52287865 -0.32315677 -0.19972187
0.023541635 0 0.032580413 0.52287865 -0.32315677 -0.19972187
0.0253594 0 0.031977601 0.52287865 -0.32315677 -0.19972187
0.027167855 0 0.031377975 0.52287865 -0.32315677 -0.19972187
0.028967084 0 0.030781504 0.52287865 -0.32315677 -0.19972187
0.030757165 0 0.03018816 0.52287865 -0.32315677 -0.19972187
0.032538172 0 0.029597918 0.52287865 -0.32315677 -0.19972187
0.034310192 0 0.02901075 0.52287865 -0.32315677 -0.19972187
0.036073294 0 0.02842663 0.52287865 -0.32315677 -0.19972187
0.037827551 0 0.027845535 0.52287865 -0.32315677 -0.19972187
0.039573047 0 0.027267436 0.52287865 -0.32315677 -0.19972187
0.039999999 0.0008789784 0.027308151 0.52287865 -0.32315677 -0.19972187
0.039999999 0.0020460214 0.027550017 0.52287865 -0.32315677 -0.19972187
0.039999999 0.0032156678 0.027792517 0.52287865 -0.32315677 -0.19972187
0.039999999 0.0043879324 0.028035654 0.52287865 -0.32315677 -0.19972187
0.039999999 0.0055628303 0.028279431 0.52287865 -0.32315677 -0.19972187
0.039999999 0.0067403754 0.028523853 0.52287865 -0.32315677 -0.19972187
0.039999999 0.0079205828 0.028768921 0.52287865 -0.32315677 -0.19972187
0.039999999 0.0091034677 0.029014641 0.52287865 -0.32315677 -0.19972187
0.039999999 0.010289045 0.029261015 0.52287865 -0.32315677 -0.19972187
0.039999999 0.01147733 0.029508047 0.52287865 -0.32315677 -0.19972187
0.039999999 0.012668337 0.029755738 0.52287865 -0.32315677 -0.19972187
0.039999999 0.013862082 0.030004095 0.52287865 -0.32315677 -0.19972187
0.019534471 0.029392939 0.039999999 0.52287865 -0.32315677 -0.19972187
0.020080386 0.030259311 0.039999999 0.52287865 -0.32315677 -0.19972187
0.039999999 0.017459899 0.030753188 0.52287865 -0.32315677 -0.19972187
0.039999999 0.018664751 0.031004239 0.52287865 -0.32315677 -0.19972187
0.021719873 0.032858327 0.039999999 0.52287865 -0.32315677 -0.19972187
0.022266956 0.03372464 0.039999999 0.52287865 -0.32315677 -0.19972187
0.039999999 0.022296267 0.031761501 0.52287865 -0.32315677 -0.19972187
0.039999999 0.023512479 0.032015301 0.52287865 -0.32315677 -0.19972187
0.039999999 0.024731571 0.032269802 0.52287865 -0.32315677 -0.19972187
0.039999999 0.025953559 0.032525003 0.52287865 -0.32315677 -0.19972187
0.039999999 0.027178461 0.032780908 0.52287865 -0.32315677 -0.19972187
0.039999999 0.02840629 0.033037521 0.52287865 -0.32315677 -0.19972187
0.039999999 0.029637067 0.033294845 0.52287865 -0.32315677 -0.19972187
0.039999999 0.030870806 0.033552889 0.52287865 -0.32315677 -0.19972187
0.039999999 0.032107525 0.033811651 0.52287865 -0.32315677 -0.19972187
0.00020935162 0.06272424 0.053336386 0.52287865 -0.32315677 -0.19972187
0.039999999 0.034589972 0.034331352 0.52287865 -0.32315677 -0.19972187
0.039999999 0.035835732 0.034592297 0.52287865 -0.32315677 -0.19972187
0.039999999 0.037084542 0.03485398 0.52287865 -0.32315677 -0.19972187
0.039999999 0.038336415 0.035116404 0.52287865 -0.32315677 -0.19972187
0.039999999 0.039591372 0.03537957 0.52287865 -0.32315677 -0.19972187
0.039999999 0.040849432 0.035643481 0.52287865 -0.32315677 -0.19972187
0.039999999 0.042110607 0.035908148 0.52287865 -0.32315677 -0.19972187
0.039999999 0.043374922 0.036173571 0.52287865 -0.32315677 -0.19972187
0.039999999 0.044642389 0.03643975 0.52287865 -0.32315677 -0.19972187
0.039999999 0.045913033 0.036706697 0.52287865 -0.32315677 -0.19972187
0.039999999 0.047186863 0.036974415 0.52287865 -0.32315677 -0.19972187
0.039999999 0.048463903 0.037242901 0.52287865 -0.32315677 -0.19972187
0.0070201196 0.075212747 0.053714894 0.52287865 -0.32315677 -0.19972187
0.039999999 0.051027689 0.037782215 0.52287865 -0.32315677 -0.19972187
0.039999999 0.052314471 0.038053047 0.52287865 -0.32315677 -0.19972187
0.039999999 0.053604536 0.038324669 0.52287865 -0.32315677 -0.19972187
0.039999999 0.054897904 0.038597088 0.52287865 -0.32315677 -0.19972187
0.039999999 0.056194596 0.038870301 0.52287865 -0.32315677 -0.19972187
0.039999999 0.057494625 0.039144322 0.52287865 -0.32315677 -0.19972187
0.039999999 0.058798019 0.039419148 0.52287865 -0.32315677 -0.19972187
0.039999999 0.060104795 0.03969479 0.52287865 -0.32315677 -0.19972187
0.039999999 0.061414968 0.039971247 0.52287865 -0.32315677 -0.19972187
0.039758299 0.06292171 0.040368639 0.52287865 -0.32315677 -0.19972187
0.039489135 0.064455241 0.040780801 0.52287865 -0.32315677 -0.19972187
0.039016582 0.066157348 0.041295417 0.52287865 -0.32315677 -0.19972187
0.03827801 0.068080291 0.041944075 0.52287865 -0.32315677 -0.19972187
0.037098534 0.070367984 0.042814564 0.52287865 -0.32315677 -0.19972187
0.034155168 0.074099474 0.044568967 0.52287865 -0.32315677 -0.19972187
0.00097144162 0 0.038974542 0.52287865 -0.32315677 -0.19972187
0.0029065148 0 0.038334567 0.52287865 -0.32315677 -0.19972187
0.0048312522 0 0.037698105 0.52287865 -0.32315677 -0.19972187
0.0067457454 0 0.037065126 0.52287865 -0.32315677 -0.19972187
0.0086500859 0 0.036435597 0.52287865 -0.32315677 -0.19972187
0.010544364 0 0.035809495 0.52287865 -0.32315677 -0.19972187
0.012428667 0 0.035186779 0.52287865 -0.32315677 -0.19972187
0.014303085 0 0.034567427 0.52287865 -0.32315677 -0.19972187
0.016167704 0 0.033951409 0.52287865 -0.32315677 -0.19972187
0.018022608 0 0.033338692 0.52287865 -0.32315677 -0.19972187
0.019867884 0 0.032729249 0.52287865 -0.32315677 -0.19972187
0.021703614 0 0.032123055 0.52287865 -0.32315677 -0.19972187
0.023529883 0 0.031520076 0.52287865 -0.32315677 -0.19972187
0.025346773 0 0.030920291 0.52287865 -0.32315677 -0.19972187
0.027154364 0 0.030323666 0.52287865 -0.32315677 -0.19972187
0.028952735 0 0.029730177 0.52287865 -0.32315677 -0.19972187
0.030741965 0 0.029139796 0.52287865 -0.32315677 -0.19972187
0.032522138 0 0.028552499 0.52287865 -0.32315677 -0.19972187
0.034293324 0 0.027968258 0.52287865 -0.32315677 -0.19972187
0.036055602 0 0.027387045 0.52287865 -0.32315677 -0.19972187
0.037809048 0 0.026808837 0.52287865 -0.32315677 -0.19972187
0.039553739 0 0.026233608 0.52287865 -0.32315677 -0.19972187
0.039999999 0.0008654499 0.026264936 0.52287865 -0.32315677 -0.19972187
0.011196243 0.021429393 0.039999999 0.52287865 -0.32315677 -0.19972187
0.039999999 0.0032008716 0.02674672 0.52287865 -0.32315677 -0.19972187
0.039999999 0.004372498 0.026988558 0.52287865 -0.32315677 -0.19972187
0.039999999 0.0055467547 0.02723103 0.52287865 -0.32315677 -0.19972187
0.039999999 0.0067236559 0.027474141 0.52287865 -0.32315677 -0.19972187
0.039999999 0.0079032164 0.027717892 0.52287865 -0.32315677 -0.19972187
0.039999999 0.0090854522 0.027962288 0.52287865 -0.32315677 -0.19972187
0.015016688 0.027521323 0.039999999 0.52287865 -0.32315677 -0.19972187
0.015563548 0.028391447 0.039999999 0.52287865 -0.32315677 -0.19972187
0.039999999 0.012648354 0.028699381 0.52287865 -0.32315677 -0.19972187
0.039999999 0.013841437 0.02894639 0.52287865 -0.32315677 -0.19972187
0.039999999 0.015037271 0.029194063 0.52287865 -0.32315677 -0.19972187
0.017753778 0.031871691 0.039999999 0.52287865 -0.32315677 -0.19972187
0.039999999 0.017437251 0.029691406 0.52287865 -0.32315677 -0.19972187
0.018850597 0.033611707 0.039999999 0.52287865 -0.32315677 -0.19972187
0.039999999 0.019848421 0.03019144 0.52287865 -0.32315677 -0.19972187
0.039999999 0.021058239 0.030442476 0.52287865 -0.32315677 -0.19972187
0.039999999 0.022270905 0.030694194 0.52287865 -0.32315677 -0.19972187
0.039999999 0.023486428 0.030946601 0.52287865 -0.32315677 -0.19972187
0.039999999 0.024704831 0.031199697 0.52287865 -0.32315677 -0.19972187
0.039999999 0.025926126 0.03145349 0.52287865 -0.32315677 -0.19972187
0.039999999 0.027150331 0.03170798 0.52287865 -0.32315677 -0.19972187
0.039999999 0.02837746 0.031963173 0.52287865 -0.32315677 -0.19972187
0.039999999 0.029607534 0.032219071 0.52287865 -0.32315677 -0.19972187
0.039999999 0.030840566 0.032475676 0.52287865 -0.32315677 -0.19972187
0.039999999 0.032076575 0.032732997 0.52287865 -0.32315677 -0.19972187
0.039999999 0.03331558 0.032991037 0.52287865 -0.32315677 -0.19972187
0.039999999 0.034557592 0.033249795 0.52287865 -0.32315677 -0.19972187
0.039999999 0.035802633 0.033509281 0.52287865 -0.32315677 -0.19972187
0.039999999 0.037050717 0.033769496 0.52287865 -0.32315677 -0.19972187
0.039999999 0.038301863 0.034030445 0.52287865 -0.32315677 -0.19972187
0.039999999 0.03955609 0.034292128 0.52287865 -0.32315677 -0.19972187
0.0022925704 0.069235422 0.052848928 0.52287865 -0.32315677 -0.19972187
0.039999999 0.042073853 0.034817725 0.52287865 -0.32315677 -0.19972187
0.039999999 0.043337423 0.035081647 0.52287865 -0.32315677 -0.19972187
0.039999999 0.044604149 0.035346322 0.52287865 -0.32315677 -0.19972187
0.039999999 0.045874041 0.035611752 0.52287865 -0.32315677 -0.19972187
0.039999999 0.047147118 0.035877947 0.52287865 -0.32315677 -0.19972187
0.039999999 0.048423402 0.036144905 0.52287865 -0.32315677 -0.19972187
0.039999999 0.049702913 0.036412634 0.52287865 -0.32315677 -0.19972187
0.039999999 0.050985664 0.036681138 0.52287865 -0.32315677 -0.19972187
0.039999999 0.052271675 0.036950421 0.52287865 -0.32315677 -0.19972187
0.039999999 0.053560968 0.037220486 0.52287865 -0.32315677 -0.19972187
0.010771162 0.077734679 0.05184995 0.52287865 -0.32315677 -0.19972187
0.039999999 0.056149472 0.037762985 0.52287865 -0.32315677 -0.19972187
0.039999999 0.057448719 0.038035426 0.52287865 -0.32315677 -0.19972187
0.039999999 0.058751326 0.038308669 0.52287865 -0.32315677 -0.19972187
0.015541798 0.079467416 0.050653037 0.52287865 -0.32315677 -0.19972187
0.039999999 0.061366685 0.038857572 0.52287865 -0.32315677 -0.19972187
0.039999999 0.062679477 0.03913324 0.52287865 -0.32315677 -0.19972187
0.039999999 0.063995704 0.039409731 0.52287865 -0.32315677 -0.19972187
0.039999999 0.065315396 0.039687041 0.52287865 -0.32315677 -0.19972187
0.039999999 0.066638552 0.039965183 0.52287865 -0.32315677 -0.19972187
0.037162185 0.070263788 0.041654404 0.52287865 -0.32315677 -0.19972187
0.034532916 0.073738672 0.043243993 0.52287865 -0.32315677 -0.19972187
0.0009709415 0 0.037877668 0.52287865 -0.32315677 -0.19972187
0.0029050224 0 0.037240956 0.52287865 -0.32315677 -0.19972187
0.0048287781 0 0.036607739 0.52287865 -0.32315677 -0.19972187
0.0067423005 0 0.035977978 0.52287865 -0.32315677 -0.19972187
0.0086456798 0 0.035351653 0.52287865 -0.32315677 -0.19972187
0.010539007 0 0.034728728 0.52287865 -0.32315677 -0.19972187
0.01242237 0 0.034109171 0.52287865 -0.32315677 -0.19972187
0.014295856 0 0.03349296 0.52287865 -0.32315677 -0.19972187
0.016159553 0 0.032880057 0.52287865 -0.32315677 -0.19972187
0.018013546 0 0.032270435 0.52287865 -0.32315677 -0.19972187
0.019857921 0 0.03166407 0.52287865 -0.32315677 -0.19972187
0.02169276 0 0.03106093 0.52287865 -0.32315677 -0.19972187
0.023518145 0 0.030460989 0.52287865 -0.32315677 -0.19972187
0.025334161 0 0.029864216 0.52287865 -0.32315677 -0.19972187
0.027140886 0 0.029270589 0.52287865 -0.32315677 -0.19972187
0.028938401 0 0.028680077 0.52287865 -0.32315677 -0.19972187
0.030726787 0 0.028092654 0.52287865 -0.32315677 -0.19972187
0.032506119 0 0.027508294 0.52287865 -0.32315677 -0.19972187
0.034276474 0 0.026926972 0.52287865 -0.32315677 -0.19972187
0.036037933 0 0.026348662 0.52287865 -0.32315677 -0.19972187
0.037790567 0 0.025773337 0.52287865 -0.32315677 -0.19972187
0.039534453 0 0.025200972 0.52287865 -0.32315677 -0.19972187
0.039999999 0.00085193804 0.025223006 0.52287865 -0.32315677 -0.19972187
0.0088257622 0.023010707 0.039999999 0.52287865 -0.32315677 -0.19972187
0.039999999 0.0031860936 0.025702214 0.52287865 -0.32315677 -0.19972187
0.009920219 0.024758782 0.039999999 0.52287865 -0.32315677 -0.19972187
0.039999999 0.0055306992 0.026183926 0.52287865 -0.32315677 -0.19972187
0.039999999 0.0067069572 0.026425727 0.52287865 -0.32315677 -0.19972187
0.039999999 0.0078858724 0.026668165 0.52287865 -0.32315677 -0.19972187
0.039999999 0.0090674581 0.026911242 0.52287865 -0.32315677 -0.19972187
0.039999999 0.010251731 0.02715496 0.52287865 -0.32315677 -0.19972187
0.039999999 0.011438705 0.027399324 0.52287865 -0.32315677 -0.19972187
0.039999999 0.012628396 0.027644338 0.52287865 -0.32315677 -0.19972187
0.039999999 0.013820819 0.027890004 0.52287865 -0.32315677 -0.19972187
0.039999999 0.015015989 0.028136326 0.52287865 -0.32315677 -0.19972187
0.039999999 0.016213922 0.028383307 0.52287865 -0.32315677 -0.19972187
0.039999999 0.017414631 0.028630951 0.52287865 -0.32315677 -0.19972187
0.039999999 0.018618137 0.028879263 0.52287865 -0.32315677 -0.19972187
0.017060362 0.03611812 0.039999999 0.52287865 -0.32315677 -0.19972187
0.039999999 0.021033591 0.029377896 0.52287865 -0.32315677 -0.19972187
0.039999999 0.022245573 0.029628228 0.52287865 -0.32315677 -0.19972187
0.039999999 0.023460412 0.029879242 0.52287865 -0.32315677 -0.19972187
0.039999999 0.024678124 0.03013094 0.52287865 -0.32315677 -0.19972187
0.039999999 0.025898727 0.030383324 0.52287865 -0.32315677 -0.19972187
0.039999999 0.027122237 0.030636404 0.52287865 -0.32315677 -0.19972187
0.00020227551 0.057318922 0.04989668 0.52287865 -0.32315677 -0.19972187
0.039999999 0.029578039 0.031144649 0.52287865 -0.32315677 -0.19972187
0.039999999 0.030810365 0.031399824 0.52287865 -0.32315677 -0.19972187
7.6612982e-05 0.061413053 0.050785519 0.52287865 -0.32315677 -0.19972187
0.039999999 0.033283956 0.031912304 0.52287865 -0.32315677 -0.19972187
0.00039575709 0.063861251 0.051188648 0.52287865 -0.32315677 -0.19972187
0.039999999 0.035769574 0.032427639 0.52287865 -0.32315677 -0.19972187
0.039999999 0.037016936 0.03268639 0.52287865 -0.32315677 -0.19972187
0.039999999 0.038267355 0.032945868 0.52287865 -0.32315677 -0.19972187
0.039999999 0.039520852 0.033206075 0.52287865 -0.32315677 -0.19972187
0.039999999 0.040777441 0.033467017 0.52287865 -0.32315677 -0.19972187
0.039999999 0.042037144 0.033728696 0.52287865 -0.32315677 -0.19972187
0.003387647 0.071085103 0.051711477 0.52287865 -0.32315677 -0.19972187
0.039999999 0.044565953 0.034254286 0.52287865 -0.32315677 -0.19972187
0.039999999 0.045835096 0.034518208 0.52287865 -0.32315677 -0.19972187
0.039999999 0.047107425 0.034782883 0.52287865 -0.32315677 -0.19972187
0.039999999 0.048382953 0.035048317 0.52287865 -0.32315677 -0.19972187
0.039999999 0.049661703 0.035314515 0.52287865 -0.32315677 -0.19972187
0.039999999 0.050943691 0.035581477 0.52287865 -0.32315677 -0.19972187
0.039999999 0.052228935 0.035849214 0.52287865 -0.32315677 -0.19972187
0.039999999 0.053517457 0.036117729 0.52287865 -0.32315677 -0.19972187
0.039999999 0.054809276 0.036387019 0.52287865 -0.32315677 -0.19972187
0.039999999 0.056104407 0.036657095 0.52287865 -0.32315677 -0.19972187
0.012970234 0.078705199 0.050174747 0.52287865 -0.32315677 -0.19972187
0.039999999 0.058704689 0.03719962 0.52287865 -0.32315677 -0.19972187
0.039999999 0.060009882 0.03747208 0.52287865 -0.32315677 -0.19972187
0.039999999 0.061318465 0.037745338 0.52287865 -0.32315677 -0.19972187
0.039999999 0.06263046 0.038019404 0.52287865 -0.32315677 -0.19972187
0.039999999 0.063945882 0.038294282 0.52287865 -0.32315677 -0.19972187
0.039999999 0.065264761 0.038569976 0.52287865 -0.32315677 -0.19972187
0.039999999 0.066587113 0.038846489 0.52287865 -0.32315677 -0.19972187
0.039999999 0.067912951 0.039123826 0.52287865 -0.32315677 -0.19972187
0.039999999 0.069242306 0.039401997 0.52287865 -0.32315677 -0.19972187
0.039999999 0.0705752 0.039680999 0.52287865 -0.32315677 -0.19972187
0.039999999 0.07191164 0.039960839 0.52287865 -0.32315677 -0.19972187
0.00097044196 0 0.036782105 0.52287865 -0.32315677 -0.19972187
0.0029035318 0 0.036148656 0.52287865 -0.32315677 -0.19972187
0.0048263068 0 0.035518672 0.52287865 -0.32315677 -0.19972187
0.0067388592 0 0.034892131 0.52287865 -0.32315677 -0.19972187
0.0086412793 0 0.034268998 0.52287865 -0.32315677 -0.19972187
0.010533656 0 0.033649247 0.52287865 -0.32315677 -0.19972187
0.01241608 0 0.033032842 0.52287865 -0.32315677 -0.19972187
0.014288637 0 0.03241976 0.52287865 -0.32315677 -0.19972187
0.016151413 0 0.031809967 0.52287865 -0.32315677 -0.19972187
0.018004498 0 0.031203436 0.52287865 -0.32315677 -0.19972187
0.01984797 0 0.030600138 0.52287865 -0.32315677 -0.19972187
0.021681918 0 0.030000048 0.52287865 -0.32315677 -0.19972187
0.023506422 0 0.029403135 0.52287865 -0.32315677 -0.19972187
0.025321564 0 0.028809374 0.52287865 -0.32315677 -0.19972187
0.027127424 0 0.028218737 0.52287865 -0.32315677 -0.19972187
0.028924085 0 0.027631195 0.52287865 -0.32315677 -0.19972187
0.030711625 0 0.027046723 0.52287865 -0.32315677 -0.19972187
0.032490119 0 0.026465297 0.52287865 -0.32315677 -0.19972187
0.034259647 0 0.02588689 0.52287865 -0.32315677 -0.19972187
0.036020283 0 0.025311474 0.52287865 -0.32315677 -0.19972187
0.037772108 0 0.024739025 0.52287865 -0.32315677 -0.19972187
0.03951519 0 0.024169518 0.52287865 -0.32315677 -0.19972187
0.039999999 0.00083844282 0.024182355 0.52287865 -0.32315677 -0.19972187
0.039999999 0.0020035906 0.024420366 0.52287865 -0.32315677 -0.19972187
0.039999999 0.0031713338 0.024658993 0.52287865 -0.32315677 -0.19972187
0.039999999 0.0043416866 0.02489824 0.52287865 -0.32315677 -0.19972187
0.039999999 0.0055146636 0.02513811 0.52287865 -0.32315677 -0.19972187
0.008634639 0.028115479 0.039999999 0.52287865 -0.32315677 -0.19972187
0.039999999 0.0078685489 0.025619734 0.52287865 -0.32315677 -0.19972187
0.039999999 0.0090494873 0.025861492 0.52287865 -0.32315677 -0.19972187
0.039999999 0.010233109 0.026103888 0.52287865 -0.32315677 -0.19972187
0.039999999 0.011419429 0.026346924 0.52287865 -0.32315677 -0.19972187
0.011388622 0.032503121 0.039999999 0.52287865 -0.32315677 -0.19972187
0.011940227 0.033380583 0.039999999 0.52287865 -0.32315677 -0.19972187
0.039999999 0.014994732 0.027079901 0.52287865 -0.32315677 -0.19972187
0.039999999 0.016191998 0.02732553 0.52287865 -0.32315677 -0.19972187
0.013596693 0.036012899 0.039999999 0.52287865 -0.32315677 -0.19972187
0.039999999 0.018594874 0.02781876 0.52287865 -0.32315677 -0.19972187
0.039999999 0.019800512 0.028066369 0.52287865 -0.32315677 -0.19972187
0.039999999 0.021008974 0.028314646 0.52287865 -0.32315677 -0.19972187
0.039999999 0.022220273 0.028563594 0.52287865 -0.32315677 -0.19972187
0.039999999 0.023434427 0.028813217 0.52287865 -0.32315677 -0.19972187
0.039999999 0.024651451 0.029063519 0.52287865 -0.32315677 -0.19972187
0.039999999 0.025871363 0.029314501 0.52287865 -0.32315677 -0.19972187
0.039999999 0.027094176 0.029566171 0.52287865 -0.32315677 -0.19972187
0.039999999 0.02831991 0.029818527 0.52287865 -0.32315677 -0.19972187
0.039999999 0.02954858 0.030071579 0.52287865 -0.32315677 -0.19972187
0.039999999 0.030780202 0.030325327 0.52287865 -0.32315677 -0.19972187
0.039999999 0.032014795 0.030579776 0.52287865 -0.32315677 -0.19972187
0.039999999 0.033252373 0.030834928 0.52287865 -0.32315677 -0.19972187
0.039999999 0.034492955 0.03109079 0.52287865 -0.32315677 -0.19972187
0.039999999 0.035736557 0.031347364 0.52287865 -0.32315677 -0.19972187
0.039999999 0.036983196 0.031604651 0.52287865 -0.32315677 -0.19972187
0.039999999 0.038232893 0.031862661 0.52287865 -0.32315677 -0.19972187
0.0017686621 0.068197437 0.050477307 0.52287865 -0.32315677 -0.19972187
0.039999999 0.040741518 0.032380857 0.52287865 -0.32315677 -0.19972187
0.039999999 0.042000484 0.032641049 0.52287865 -0.32315677 -0.19972187
0.039999999 0.043262575 0.032901976 0.52287865 -0.32315677 -0.19972187
0.0039783148 0.071956269 0.05053639 0.52287865 -0.32315677 -0.19972187
0.039999999 0.045796204 0.033426058 0.52287865 -0.32315677 -0.19972187
0.039999999 0.04706778 0.033689216 0.52287865 -0.32315677 -0.19972187
0.039999999 0.048342556 0.033953127 0.52287865 -0.32315677 -0.19972187
0.006943298 0.075139977 0.050232738 0.52287865 -0.32315677 -0.19972187
0.039999999 0.050901771 0.034483224 0.52287865 -0.32315677 -0.19972187
0.0087130135 0.076505721 0.049941435 0.52287865 -0.32315677 -0.19972187
0.0096981991 0.077108495 0.049746774 0.52287865 -0.32315677 -0.19972187
0.039999999 0.054765046 0.035284117 0.52287865 -0.32315677 -0.19972187
0.039999999 0.056059398 0.035552628 0.52287865 -0.32315677 -0.19972187
0.039999999 0.057357084 0.035821922 0.52287865 -0.32315677 -0.19972187
0.039999999 0.058658116 0.036092006 0.52287865 -0.32315677 -0.19972187
0.039999999 0.059962515 0.036362875 0.52287865 -0.32315677 -0.19972187
0.039999999 0.061270304 0.036634542 0.52287865 -0.32315677 -0.19972187
0.039999999 0.062581502 0.036907006 0.52287865 -0.32315677 -0.19972187
0.01991773 0.079993129 0.047032718 0.52287865 -0.32315677 -0.19972187
0.039999999 0.065214194 0.037454356 0.52287865 -0.32315677 -0.19972187
0.023795182 0.079613343 0.045697816 0.52287865 -0.32315677 -0.19972187
0.026307248 0.078948654 0.044746056 0.52287865 -0.32315677 -0.19972187
0.039999999 0.069189295 0.038281485 0.52287865 -0.32315677 -0.19972187
0.039999999 0.070521362 0.038558841 0.52287865 -0.32315677 -0.19972187
0.039999999 0.071856976 0.038837031 0.52287865 -0.32315677 -0.19972187
0.039999999 0.073196165 0.039116055 0.52287865 -0.32315677 -0.19972187
0.039999999 0.074538939 0.039395921 0.52287865 -0.32315677 -0.19972187
0.039999999 0.075885326 0.039676633 0.52287865 -0.32315677 -0.19972187
0.039999999 0.077235349 0.039958198 0.52287865 -0.32315677 -0.19972187
0.00096994301 0 0.035687856 0.52287865 -0.32315677 -0.19972187
0.0029020431 0 0.035057656 0.52287865 -0.32315677 -0.19972187
0.0048238388 0 0.034430902 0.52287865 -0.32315677 -0.19972187
0.0067354222 0 0.033807572 0.52287865 -0.32315677 -0.19972187
0.0086368835 0 0.033187624 0.52287865 -0.32315677 -0.19972187
0.010528312 0 0.03257104 0.52287865 -0.32315677 -0.19972187
0.012409797 0 0.031957779 0.52287865 -0.32315677 -0.19972187
0.014281426 0 0.031347819 0.52287865 -0.32315677 -0.19972187
0.016143283 0 0.030741131 0.52287865 -0.32315677 -0.19972187
0.017995458 0 0.030137684 0.52287865 -0.32315677 -0.19972187
0.019838031 0 0.029537451 0.52287865 -0.32315677 -0.19972187
0.021671088 0 0.028940404 0.52287865 -0.32315677 -0.19972187
0.023494711 0 0.028346514 0.52287865 -0.32315677 -0.19972187
0.025308982 0 0.027755756 0.52287865 -0.32315677 -0.19972187
0.02711398 0 0.027168103 0.52287865 -0.32315677 -0.19972187
0.028909786 0 0.026583524 0.52287865 -0.32315677 -0.19972187
0.03069648 0 0.026001999 0.52287865 -0.32315677 -0.19972187
0.032474138 0 0.025423501 0.52287865 -0.32315677 -0.19972187
0.034242839 0 0.024847999 0.52287865 -0.32315677 -0.19972187
0.036002655 0 0.024275472 0.52287865 -0.32315677 -0.19972187
0.037753668 0 0.023705894 0.52287865 -0.32315677 -0.19972187
0.039495945 0 0.02313924 0.52287865 -0.32315677 -0.19972187
0.0034760816 0.025330257 0.039999999 0.52287865 -0.32315677 -0.19972187
0.039999999 0.0019894817 0.023379706 0.52287865 -0.32315677 -0.19972187
0.039999999 0.0031565919 0.023617048 0.52287865 -0.32315677 -0.19972187
0.039999999 0.0043263091 0.023855004 0.52287865 -0.32315677 -0.19972187
0.039999999 0.0054986477 0.024093578 0.52287865 -0.32315677 -0.19972187
0.039999999 0.0066736219 0.024332771 0.52287865 -0.32315677 -0.19972187
0.039999999 0.0078512477 0.024572589 0.52287865 -0.32315677 -0.19972187
0.039999999 0.0090315379 0.024813034 0.52287865 -0.32315677 -0.19972187
0.039999999 0.010214509 0.02505411 0.52287865 -0.32315677 -0.19972187
0.008445438 0.033262394 0.039999999 0.52287865 -0.32315677 -0.19972187
0.039999999 0.012588554 0.025538165 0.52287865 -0.32315677 -0.19972187
0.039999999 0.013779658 0.025781151 0.52287865 -0.32315677 -0.19972187
0.039999999 0.014973503 0.026024783 0.52287865 -0.32315677 -0.19972187
0.039999999 0.016170103 0.02626906 0.52287865 -0.32315677 -0.19972187
0.011215412 0.037668381 0.039999999 0.52287865 -0.32315677 -0.19972187
0.039999999 0.018571638 0.026759572 0.52287865 -0.32315677 -0.19972187
0.039999999 0.019776603 0.027005814 0.52287865 -0.32315677 -0.19972187
0.039999999 0.020984387 0.027252715 0.52287865 -0.32315677 -0.19972187
0.0041006613 0.047869988 0.044392984 0.52287865 -0.32315677 -0.19972187
0.039999999 0.023408474 0.02774852 0.52287865 -0.32315677 -0.19972187
0.0015689358 0.052303851 0.046121016 0.52287865 -0.32315677 -0.19972187
