# .PCD v0.7 - Point Cloud Data file format
VERSION 0.7
FIELDS x y z vp_x vp_y vp_z
SIZE 4 4 4 4 4 4
TYPE F F F F F F
COUNT 1 1 1 1 1 1
WIDTH 906
HEIGHT 1
VIEWPOINT 0 0 0 1 0 0 0
POINTS 906
DATA ascii
0.037588887 0 0.020580858 0 -0.33897066 -0.54846609
0.038621116 0 0.020582747 0 -0.33897066 -0.54846609
0.03965354 0 0.020584688 0 -0.33897066 -0.54846609
0.00051301741 0 0.018541874 0 -0.33897066 -0.54846609
0.0015390548 0 0.018541919 0 -0.33897066 -0.54846609
0.0025650999 0 0.01854201 0 -0.33897066 -0.54846609
0.003591158 0 0.018542148 0 -0.33897066 -0.54846609
0.0046172338 0 0.018542333 0 -0.33897066 -0.54846609
0.0056433328 0 0.018542562 0 -0.33897066 -0.54846609
0.0066694599 0 0.018542835 0 -0.33897066 -0.54846609
0.0076956204 0 0.018543158 0 -0.33897066 -0.54846609
0.0087218201 0 0.018543525 0 -0.33897066 -0.54846609
0.0097480621 0 0.018543936 0 -0.33897066 -0.54846609
0.010774354 0 0.018544395 0 -0.33897066 -0.54846609
0.0118007 0 0.018544899 0 -0.33897066 -0.54846609
0.012827104 0 0.018545449 0 -0.33897066 -0.54846609
0.013853572 0 0.018546045 0 -0.33897066 -0.54846609
0.014880111 0 0.018546687 0 -0.33897066 -0.54846609
0.015906723 0 0.018547375 0 -0.33897066 -0.54846609
0.016933415 0 0.018548109 0 -0.33897066 -0.54846609
0.017960193 0 0.018548889 0 -0.33897066 -0.54846609
0.01898706 0 0.018549714 0 -0.33897066 -0.54846609
0.020014022 0 0.018550586 0 -0.33897066 -0.54846609
0.021041084 0 0.018551502 0 -0.33897066 -0.54846609
0.022068251 0 0.018552467 0 -0.33897066 -0.54846609
0.02309553 0 0.018553475 0 -0.33897066 -0.54846609
0.024122922 0 0.018554531 0 -0.33897066 -0.54846609
0.025150437 0 0.018555632 0 -0.33897066 -0.54846609
0.026178077 0 0.018556779 0 -0.33897066 -0.54846609
0.027205849 0 0.018557973 0 -0.33897066 -0.54846609
0.028233757 0 0.018559212 0 -0.33897066 -0.54846609
0.029261807 0 0.018560497 0 -0.33897066 -0.54846609
0.030290004 0 0.018561829 0 -0.33897066 -0.54846609
0.031318352 0 0.018563207 0 -0.33897066 -0.54846609
0.032346856 0 0.01856463 0 -0.33897066 -0.54846609
0.033375524 0 0.0185661 0 -0.33897066 -0.54846609
0.03440436 0 0.018567616 0 -0.33897066 -0.54846609
0.035433367 0 0.018569179 0 -0.33897066 -0.54846609
0.036462553 0 0.018570786 0 -0.33897066 -0.54846609
0.037491921 0 0.01857244 0 -0.33897066 -0.54846609
0.038521476 0 0.018574141 0 -0.33897066 -0.54846609
0.039551225 0 0.018575888 0 -0.33897066 -0.54846609
0.00051169959 0 0.016547242 0 -0.33897066 -0.54846609
0.0015351014 0 0.016547283 0 -0.33897066 -0.54846609
0.0025585108 0 0.016547365 0 -0.33897066 -0.54846609
0.003581933 0 0.016547488 0 -0.33897066 -0.54846609
0.0046053729 0 0.01654765 0 -0.33897066 -0.54846609
0.0056288359 0 0.016547855 0 -0.33897066 -0.54846609
0.0066523273 0 0.016548099 0 -0.33897066 -0.54846609
0.0076758512 0 0.016548384 0 -0.33897066 -0.54846609
0.0086994134 0 0.016548712 0 -0.33897066 -0.54846609
0.0097230198 0 0.016549079 0 -0.33897066 -0.54846609
0.010746674 0 0.016549487 0 -0.33897066 -0.54846609
0.011770382 0 0.016549936 0 -0.33897066 -0.54846609
0.012794148 0 0.016550425 0 -0.33897066 -0.54846609
0.013817978 0 0.016550956 0 -0.33897066 -0.54846609
0.014841878 0 0.016551526 0 -0.33897066 -0.54846609
0.015865851 0 0.016552139 0 -0.33897066 -0.54846609
0.016889904 0 0.016552793 0 -0.33897066 -0.54846609
0.01791404 0 0.016553486 0 -0.33897066 -0.54846609
0.018938266 0 0.016554222 0 -0.33897066 -0.54846609
0.019962586 0 0.016554996 0 -0.33897066 -0.54846609
0.020987006 0 0.016555814 0 -0.33897066 -0.54846609
0.022011532 0 0.016556671 0 -0.33897066 -0.54846609
0.023036165 0 0.016557571 0 -0.33897066 -0.54846609
0.024060914 0 0.016558509 0 -0.33897066 -0.54846609
0.025085784 0 0.016559489 0 -0.33897066 -0.54846609
0.026110779 0 0.01656051 0 -0.33897066 -0.54846609
0.027135905 0 0.016561573 0 -0.33897066 -0.54846609
0.028161164 0 0.016562676 0 -0.33897066 -0.54846609
0.029186565 0 0.01656382 0 -0.33897066 -0.54846609
0.030212114 0 0.016565006 0 -0.33897066 -0.54846609
0.031237811 0 0.016566232 0 -0.33897066 -0.54846609
0.032263666 0 0.016567498 0 -0.33897066 -0.54846609
0.033289678 0 0.016568808 0 -0.33897066 -0.54846609
0.034315862 0 0.016570156 0 -0.33897066 -0.54846609
0.035342213 0 0.016571548 0 -0.33897066 -0.54846609
0.036368743 0 0.016572978 0 -0.33897066 -0.54846609
0.037395455 0 0.016574452 0 -0.33897066 -0.54846609
0.038422354 0 0.016575964 0 -0.33897066 -0.54846609
0.039449442 0 0.016577519 0 -0.33897066 -0.54846609
0.00051038864 0 0.014562913 0 -0.33897066 -0.54846609
0.0015311684 0 0.01456295 0 -0.33897066 -0.54846609
0.0025519556 0 0.014563021 0 -0.33897066 -0.54846609
0.0035727557 0 0.014563128 0 -0.33897066 -0.54846609
0.0045935735 0 0.014563272 0 -0.33897066 -0.54846609
0.0056144143 0 0.014563451 0 -0.33897066 -0.54846609
0.0066352827 0 0.014563666 0 -0.33897066 -0.54846609
0.007656184 0 0.014563916 0 -0.33897066 -0.54846609
0.0086771231 0 0.014564203 0 -0.33897066 -0.54846609
0.009698106 0 0.014564525 0 -0.33897066 -0.54846609
0.010719136 0 0.014564883 0 -0.33897066 -0.54846609
0.011740221 0 0.014565277 0 -0.33897066 -0.54846609
0.012761363 0 0.014565707 0 -0.33897066 -0.54846609
0.013782568 0 0.014566173 0 -0.33897066 -0.54846609
0.014803843 0 0.014566675 0 -0.33897066 -0.54846609
0.01582519 0 0.014567212 0 -0.33897066 -0.54846609
0.016846616 0 0.014567785 0 -0.33897066 -0.54846609
0.017868126 0 0.014568395 0 -0.33897066 -0.54846609
0.018889725 0 0.014569039 0 -0.33897066 -0.54846609
0.019911418 0 0.01456972 0 -0.33897066 -0.54846609
0.020933209 0 0.014570437 0 -0.33897066 -0.54846609
0.021955105 0 0.01457119 0 -0.33897066 -0.54846609
0.022977108 0 0.014571979 0 -0.33897066 -0.54846609
0.023999227 0 0.014572804 0 -0.33897066 -0.54846609
0.025021465 0 0.014573664 0 -0.33897066 -0.54846609
0.026043829 0 0.01457456 0 -0.33897066 -0.54846609
0.02706632 0 0.014575493 0 -0.33897066 -0.54846609
0.028088948 0 0.014576461 0 -0.33897066 -0.54846609
0.029111713 0 0.014577466 0 -0.33897066 -0.54846609
0.030134626 0 0.014578506 0 -0.33897066 -0.54846609
0.031157687 0 0.014579583 0 -0.33897066 -0.54846609
0.032180902 0 0.014580695 0 -0.33897066 -0.54846609
0.03320428 0 0.014581843 0 -0.33897066 -0.54846609
0.034227822 0 0.014583028 0 -0.33897066 -0.54846609
0.035251532 0 0.014584249 0 -0.33897066 -0.54846609
0.03627542 0 0.014585505 0 -0.33897066 -0.54846609
0.037299488 0 0.014586798 0 -0.33897066 -0.54846609
0.038323741 0 0.014588127 0 -0.33897066 -0.54846609
0.039348189 0 0.014589491 0 -0.33897066 -0.54846609
0.00050908438 0 0.012588797 0 -0.33897066 -0.54846609
0.0015272556 0 0.012588829 0 -0.33897066 -0.54846609
0.0025454343 0 0.01258889 0 -0.33897066 -0.54846609
0.0035636257 0 0.012588982 0 -0.33897066 -0.54846609
0.0045818347 0 0.012589106 0 -0.33897066 -0.54846609
0.0056000664 0 0.012589261 0 -0.33897066 -0.54846609
0.0066183261 0 0.012589446 0 -0.33897066 -0.54846609
0.0076366179 0 0.012589662 0 -0.33897066 -0.54846609
0.0086549474 0 0.012589909 0 -0.33897066 -0.54846609
0.0096733207 0 0.012590188 0 -0.33897066 -0.54846609
0.010691741 0 0.012590496 0 -0.33897066 -0.54846609
0.011710214 0 0.012590836 0 -0.33897066 -0.54846609
0.012728746 0 0.012591206 0 -0.33897066 -0.54846609
0.01374734 0 0.012591608 0 -0.33897066 -0.54846609
0.014766003 0 0.012592041 0 -0.33897066 -0.54846609
0.015784739 0 0.012592504 0 -0.33897066 -0.54846609
0.016803551 0 0.012592998 0 -0.33897066 -0.54846609
0.017822448 0 0.012593524 0 -0.33897066 -0.54846609
0.018841434 0 0.01259408 0 -0.33897066 -0.54846609
0.019860512 0 0.012594667 0 -0.33897066 -0.54846609
0.020879688 0 0.012595285 0 -0.33897066 -0.54846609
0.021898968 0 0.012595934 0 -0.33897066 -0.54846609
0.022918357 0 0.012596614 0 -0.33897066 -0.54846609
0.023937859 0 0.012597325 0 -0.33897066 -0.54846609
0.024957478 0 0.012598068 0 -0.33897066 -0.54846609
0.025977222 0 0.012598841 0 -0.33897066 -0.54846609
0.026997095 0 0.012599644 0 -0.33897066 -0.54846609
0.028017102 0 0.012600479 0 -0.33897066 -0.54846609
0.029037248 0 0.012601345 0 -0.33897066 -0.54846609
0.030057536 0 0.012602242 0 -0.33897066 -0.54846609
0.031077975 0 0.01260317 0 -0.33897066 -0.54846609
0.032098569 0 0.01260413 0 -0.33897066 -0.54846609
0.033119317 0 0.012605119 0 -0.33897066 -0.54846609
0.034140233 0 0.012606141 0 -0.33897066 -0.54846609
0.03516132 0 0.012607194 0 -0.33897066 -0.54846609
0.036182579 0 0.012608277 0 -0.33897066 -0.54846609
0.037204016 0 0.012609391 0 -0.33897066 -0.54846609
0.03822564 0 0.012610537 0 -0.33897066 -0.54846609
0.039247453 0 0.012611714 0 -0.33897066 -0.54846609
0.00050778681 0 0.010624806 0 -0.33897066 -0.54846609
0.0015233629 0 0.010624832 0 -0.33897066 -0.54846609
0.0025389465 0 0.010624885 0 -0.33897066 -0.54846609
0.0035545425 0 0.010624963 0 -0.33897066 -0.54846609
0.0045701563 0 0.010625066 0 -0.33897066 -0.54846609
0.0055857925 0 0.010625197 0 -0.33897066 -0.54846609
0.0066014561 0 0.010625353 0 -0.33897066 -0.54846609
0.0076171523 0 0.010625535 0 -0.33897066 -0.54846609
0.0086328862 0 0.010625742 0 -0.33897066 -0.54846609
0.0096486621 0 0.010625977 0 -0.33897066 -0.54846609
0.010664486 0 0.010626237 0 -0.33897066 -0.54846609
0.011680363 0 0.010626523 0 -0.33897066 -0.54846609
0.012696297 0 0.010626835 0 -0.33897066 -0.54846609
0.013712293 0 0.010627173 0 -0.33897066 -0.54846609
0.014728357 0 0.010627537 0 -0.33897066 -0.54846609
0.015744494 0 0.010627927 0 -0.33897066 -0.54846609
0.016760709 0 0.010628344 0 -0.33897066 -0.54846609
0.017777005 0 0.010628785 0 -0.33897066 -0.54846609
0.018793389 0 0.010629253 0 -0.33897066 -0.54846609
0.019809868 0 0.010629748 0 -0.33897066 -0.54846609
0.020826442 0 0.010630269 0 -0.33897066 -0.54846609
0.02184312 0 0.010630814 0 -0.33897066 -0.54846609
0.022859905 0 0.010631387 0 -0.33897066 -0.54846609
0.023876805 0 0.010631986 0 -0.33897066 -0.54846609
0.02489382 0 0.01063261 0 -0.33897066 -0.54846609
0.025910959 0 0.010633261 0 -0.33897066 -0.54846609
0.026928226 0 0.010633938 0 -0.33897066 -0.54846609
0.027945625 0 0.010634641 0 -0.33897066 -0.54846609
0.028963163 0 0.010635369 0 -0.33897066 -0.54846609
0.029980844 0 0.010636125 0 -0.33897066 -0.54846609
0.030998673 0 0.010636906 0 -0.33897066 -0.54846609
0.032016654 0 0.010637714 0 -0.33897066 -0.54846609
0.033034794 0 0.010638547 0 -0.33897066 -0.54846609
0.034053098 0 0.010639407 0 -0.33897066 -0.54846609
0.03507157 0 0.010640293 0 -0.33897066 -0.54846609
0.036090214 0 0.010641205 0 -0.33897066 -0.54846609
0.037109036 0 0.010642144 0 -0.33897066 -0.54846609
0.038128044 0 0.010643108 0 -0.33897066 -0.54846609
0.039147239 0 0.010644099 0 -0.33897066 -0.54846609
0.00050649588 0 0.0086708544 0 -0.33897066 -0.54846609
0.0015194901 0 0.0086708749 0 -0.33897066 -0.54846609
0.0025324917 0 0.0086709177 0 -0.33897066 -0.54846609
0.0035455059 0 0.008670981 0 -0.33897066 -0.54846609
0.0045585376 0 0.0086710658 0 -0.33897066 -0.54846609
0.0055715912 0 0.008671171 0 -0.33897066 -0.54846609
0.0065846727 0 0.0086712986 0 -0.33897066 -0.54846609
0.0075977859 0 0.0086714467 0 -0.33897066 -0.54846609
0.0086109368 0 0.0086716162 0 -0.33897066 -0.54846609
0.0096241301 0 0.0086718062 0 -0.33897066 -0.54846609
0.010637371 0 0.0086720176 0 -0.33897066 -0.54846609
0.011650663 0 0.0086722504 0 -0.33897066 -0.54846609
0.012664013 0 0.0086725047 0 -0.33897066 -0.54846609
0.013677425 0 0.0086727804 0 -0.33897066 -0.54846609
0.014690904 0 0.0086730765 0 -0.33897066 -0.54846609
0.015704455 0 0.0086733941 0 -0.33897066 -0.54846609
0.016718084 0 0.0086737331 0 -0.33897066 -0.54846609
0.017731795 0 0.0086740926 0 -0.33897066 -0.54846609
0.018745592 0 0.0086744735 0 -0.33897066 -0.54846609
0.019759482 0 0.0086748758 0 -0.33897066 -0.54846609
0.020773469 0 0.0086752996 0 -0.33897066 -0.54846609
0.021787558 0 0.0086757448 0 -0.33897066 -0.54846609
0.022801753 0 0.0086762104 0 -0.33897066 -0.54846609
0.023816062 0 0.0086766975 0 -0.33897066 -0.54846609
0.024830487 0 0.008677206 0 -0.33897066 -0.54846609
0.025845034 0 0.0086777359 0 -0.33897066 -0.54846609
0.026859708 0 0.0086782863 0 -0.33897066 -0.54846609
0.027874514 0 0.0086788591 0 -0.33897066 -0.54846609
0.028889459 0 0.0086794524 0 -0.33897066 -0.54846609
0.029904544 0 0.008680067 0 -0.33897066 -0.54846609
0.030919775 0 0.0086807031 0 -0.33897066 -0.54846609
0.031935159 0 0.0086813606 0 -0.33897066 -0.54846609
0.032950703 0 0.0086820386 0 -0.33897066 -0.54846609
0.033966407 0 0.008682739 0 -0.33897066 -0.54846609
0.034982279 0 0.0086834598 0 -0.33897066 -0.54846609
0.035998322 0 0.0086842021 0 -0.33897066 -0.54846609
0.03701454 0 0.0086849667 0 -0.33897066 -0.54846609
0.038030945 0 0.0086857518 0 -0.33897066 -0.54846609
0.039047536 0 0.0086865583 0 -0.33897066 -0.54846609
0.00050521153 0 0.0067268531 0 -0.33897066 -0.54846609
0.001515637 0 0.0067268694 0 -0.33897066 -0.54846609
0.00252607 0 0.006726902 0 -0.33897066 -0.54846609
0.0035365152 0 0.0067269513 0 -0.33897066 -0.54846609
0.0045469776 0 0.006727017 0 -0.33897066 -0.54846609
0.0055574626 0 0.0067270985 0 -0.33897066 -0.54846609
0.0065679746 0 0.0067271967 0 -0.33897066 -0.54846609
0.0075785187 0 0.0067273118 0 -0.33897066 -0.54846609
0.0085891001 0 0.0067274426 0 -0.33897066 -0.54846609
0.0095997229 0 0.0067275898 0 -0.33897066 -0.54846609
0.010610393 0 0.0067277537 0 -0.33897066 -0.54846609
0.011621115 0 0.0067279339 0 -0.33897066 -0.54846609
0.012631894 0 0.0067281304 0 -0.33897066 -0.54846609
0.013642735 0 0.0067283437 0 -0.33897066 -0.54846609
0.014653642 0 0.0067285728 0 -0.33897066 -0.54846609
0.01566462 0 0.0067288186 0 -0.33897066 -0.54846609
0.016675677 0 0.0067290808 0 -0.33897066 -0.54846609
0.017686814 0 0.0067293593 0 -0.33897066 -0.54846609
0.018698039 0 0.006729654 0 -0.33897066 -0.54846609
0.019709354 0 0.0067299656 0 -0.33897066 -0.54846609
0.020720765 0 0.0067302934 0 -0.33897066 -0.54846609
0.021732278 0 0.0067306375 0 -0.33897066 -0.54846609
0.022743898 0 0.0067309979 0 -0.33897066 -0.54846609
0.023755629 0 0.0067313751 0 -0.33897066 -0.54846609
0.024767477 0 0.0067317686 0 -0.33897066 -0.54846609
0.025779445 0 0.0067321784 0 -0.33897066 -0.54846609
0.026791541 0 0.0067326049 0 -0.33897066 -0.54846609
0.027803766 0 0.0067330478 0 -0.33897066 -0.54846609
0.028816128 0 0.0067335069 0 -0.33897066 -0.54846609
0.029828632 0 0.0067339824 0 -0.33897066 -0.54846609
0.030841282 0 0.0067344746 0 -0.33897066 -0.54846609
0.031854082 0 0.0067349831 0 -0.33897066 -0.54846609
0.03286704 0 0.0067355083 0 -0.33897066 -0.54846609
0.033880159 0 0.0067360499 0 -0.33897066 -0.54846609
0.034893442 0 0.0067366082 0 -0.33897066 -0.54846609
0.035906896 0 0.0067371824 0 -0.33897066 -0.54846609
0.036920529 0 0.0067377738 0 -0.33897066 -0.54846609
0.037934341 0 0.006738381 0 -0.33897066 -0.54846609
0.038948342 0 0.0067390054 0 -0.33897066 -0.54846609
0.03996253 0 0.0067396457 0 -0.33897066 -0.54846609
0.0005039337 0 0.0047927187 0 -0.33897066 -0.54846609
0.0015118035 0 0.0047927303 0 -0.33897066 -0.54846609
0.0025196807 0 0.0047927536 0 -0.33897066 -0.54846609
0.0035275701 0 0.0047927885 0 -0.33897066 -0.54846609
0.0045354767 0 0.0047928351 0 -0.33897066 -0.54846609
0.0055434057 0 0.0047928933 0 -0.33897066 -0.54846609
0.0065513612 0 0.0047929632 0 -0.33897066 -0.54846609
0.0075593488 0 0.0047930446 0 -0.33897066 -0.54846609
0.0085673733 0 0.0047931378 0 -0.33897066 -0.54846609
0.0095754396 0 0.0047932426 0 -0.33897066 -0.54846609
0.010583553 0 0.004793359 0 -0.33897066 -0.54846609
0.011591717 0 0.004793487 0 -0.33897066 -0.54846609
0.012599938 0 0.0047936267 0 -0.33897066 -0.54846609
0.01360822 0 0.0047937781 0 -0.33897066 -0.54846609
0.014616569 0 0.004793941 0 -0.33897066 -0.54846609
0.015624989 0 0.0047941157 0 -0.33897066 -0.54846609
0.016633485 0 0.0047943019 0 -0.33897066 -0.54846609
0.017642062 0 0.0047944998 0 -0.33897066 -0.54846609
0.018650725 0 0.0047947094 0 -0.33897066 -0.54846609
0.01965948 0 0.0047949306 0 -0.33897066 -0.54846609
0.02066833 0 0.0047951639 0 -0.33897066 -0.54846609
0.02167728 0 0.0047954083 0 -0.33897066 -0.54846609
0.022686336 0 0.0047956645 0 -0.33897066 -0.54846609
0.023695504 0 0.0047959327 0 -0.33897066 -0.54846609
0.024704786 0 0.0047962121 0 -0.33897066 -0.54846609
0.025714189 0 0.0047965036 0 -0.33897066 -0.54846609
0.026723718 0 0.0047968063 0 -0.33897066 -0.54846609
0.027733378 0 0.004797121 0 -0.33897066 -0.54846609
0.028743172 0 0.0047974475 0 -0.33897066 -0.54846609
0.029753106 0 0.0047977855 0 -0.33897066 -0.54846609
0.030763187 0 0.0047981353 0 -0.33897066 -0.54846609
0.031773418 0 0.0047984966 0 -0.33897066 -0.54846609
0.032783803 0 0.0047988701 0 -0.33897066 -0.54846609
0.033794347 0 0.0047992547 0 -0.33897066 -0.54846609
0.034805059 0 0.0047996514 0 -0.33897066 -0.54846609
0.035815939 0 0.0048000598 0 -0.33897066 -0.54846609
0.036826994 0 0.0048004799 0 -0.33897066 -0.54846609
0.037838232 0 0.0048009115 0 -0.33897066 -0.54846609
0.038849652 0 0.0048013548 0 -0.33897066 -0.54846609
0.039861262 0 0.0048018103 0 -0.33897066 -0.54846609
0.00050266233 0 0.0028683671 0 -0.33897066 -0.54846609
0.0015079894 0 0.0028683741 0 -0.33897066 -0.54846609
0.0025133237 0 0.0028683881 0 -0.33897066 -0.54846609
0.0035186703 0 0.0028684088 0 -0.33897066 -0.54846609
0.004524034 0 0.0028684365 0 -0.33897066 -0.54846609
0.0055294195 0 0.0028684714 0 -0.33897066 -0.54846609
0.0065348321 0 0.0028685131 0 -0.33897066 -0.54846609
0.0075402763 0 0.0028685618 0 -0.33897066 -0.54846609
0.0085457573 0 0.0028686172 0 -0.33897066 -0.54846609
0.0095512792 0 0.0028686798 0 -0.33897066 -0.54846609
0.010556848 0 0.0028687492 0 -0.33897066 -0.54846609
0.011562468 0 0.0028688258 0 -0.33897066 -0.54846609
0.012568143 0 0.0028689092 0 -0.33897066 -0.54846609
0.01357388 0 0.0028689995 0 -0.33897066 -0.54846609
0.014579684 0 0.0028690968 0 -0.33897066 -0.54846609
0.015585557 0 0.0028692009 0 -0.33897066 -0.54846609
0.016591506 0 0.0028693122 0 -0.33897066 -0.54846609
0.017597536 0 0.0028694305 0 -0.33897066 -0.54846609
0.018603653 0 0.0028695555 0 -0.33897066 -0.54846609
0.019609857 0 0.0028696875 0 -0.33897066 -0.54846609
0.020616159 0 0.0028698267 0 -0.33897066 -0.54846609
0.021622559 0 0.0028699727 0 -0.33897066 -0.54846609
0.022629065 0 0.0028701257 0 -0.33897066 -0.54846609
0.023635682 0 0.0028702857 0 -0.33897066 -0.54846609
0.024642413 0 0.0028704526 0 -0.33897066 -0.54846609
0.025649264 0 0.0028706265 0 -0.33897066 -0.54846609
0.02665624 0 0.0028708074 0 -0.33897066 -0.54846609
0.027663345 0 0.0028709951 0 -0.33897066 -0.54846609
0.028670585 0 0.00287119 0 -0.33897066 -0.54846609
0.029677963 0 0.0028713918 0 -0.33897066 -0.54846609
0.030685486 0 0.0028716007 0 -0.33897066 -0.54846609
0.031693161 0 0.0028718165 0 -0.33897066 -0.54846609
0.032700986 0 0.0028720391 0 -0.33897066 -0.54846609
0.033708971 0 0.0028722689 0 -0.33897066 -0.54846609
0.03471712 0 0.0028725057 0 -0.33897066 -0.54846609
0.035725441 0 0.0028727495 0 -0.33897066 -0.54846609
0.036733933 0 0.0028730002 0 -0.33897066 -0.54846609
0.037742604 0 0.002873258 0 -0.33897066 -0.54846609
0.038751461 0 0.0028735227 0 -0.33897066 -0.54846609
0.039760504 0 0.0028737944 0 -0.33897066 -0.54846609
0.00050139736 0 0.00095371471 0 -0.33897066 -0.54846609
0.0015041945 0 0.00095371704 0 -0.33897066 -0.54846609
0.0025069988 0 0.00095372164 0 -0.33897066 -0.54846609
0.0035098153 0 0.00095372857 0 -0.33897066 -0.54846609
0.0045126486 0 0.00095373776 0 -0.33897066 -0.54846609
0.0055155042 0 0.00095374929 0 -0.33897066 -0.54846609
0.0065183858 0 0.00095376314 0 -0.33897066 -0.54846609
0.0075212996 0 0.00095377926 0 -0.33897066 -0.54846609
0.0085242493 0 0.00095379766 0 -0.33897066 -0.54846609
0.0095272399 0 0.00095381844 0 -0.33897066 -0.54846609
0.010530277 0 0.00095384149 0 -0.33897066 -0.54846609
0.011533366 0 0.00095386681 0 -0.33897066 -0.54846609
0.012536509 0 0.00095389446 0 -0.33897066 -0.54846609
0.013539714 0 0.00095392443 0 -0.33897066 -0.54846609
0.014542984 0 0.00095395674 0 -0.33897066 -0.54846609
0.015546324 0 0.00095399132 0 -0.33897066 -0.54846609
0.01654974 0 0.00095402816 0 -0.33897066 -0.54846609
0.017553234 0 0.00095406739 0 -0.33897066 -0.54846609
0.018556817 0 0.00095410889 0 -0.33897066 -0.54846609
0.019560486 0 0.00095415267 0 -0.33897066 -0.54846609
0.020564251 0 0.00095419877 0 -0.33897066 -0.54846609
0.021568116 0 0.0009542472 0 -0.33897066 -0.54846609
0.022572085 0 0.00095429795 0 -0.33897066 -0.54846609
0.023576163 0 0.00095435104 0 -0.33897066 -0.54846609
0.024580356 0 0.00095440639 0 -0.33897066 -0.54846609
0.025584666 0 0.00095446408 0 -0.33897066 -0.54846609
0.026589101 0 0.00095452403 0 -0.33897066 -0.54846609
0.027593665 0 0.00095458631 0 -0.33897066 -0.54846609
0.028598363 0 0.00095465098 0 -0.33897066 -0.54846609
0.0296032 0 0.00095471786 0 -0.33897066 -0.54846609
0.030608179 0 0.00095478713 0 -0.33897066 -0.54846609
0.031613305 0 0.00095485873 0 -0.33897066 -0.54846609
0.03261859 0 0.00095493259 0 -0.33897066 -0.54846609
0.033624027 0 0.00095500879 0 -0.33897066 -0.54846609
0.034629628 0 0.00095508731 0 -0.33897066 -0.54846609
0.035635401 0 0.00095516816 0 -0.33897066 -0.54846609
0.036641344 0 0.00095525134 0 -0.33897066 -0.54846609
0.037647463 0 0.00095533679 0 -0.33897066 -0.54846609
0.038653765 0 0.00095542462 0 -0.33897066 -0.54846609
0.039660256 0 0.00095551473 0 -0.33897066 -0.54846609
0.00050100771 0.00058897008 0 0 -0.33897066 -0.54846609
0.0015030256 0.00058897148 0 0 -0.33897066 -0.54846609
0.0025050507 0.00058897433 0 0 -0.33897066 -0.54846609
0.0035070879 0.00058897858 0 0 -0.33897066 -0.54846609
0.0045091421 0.00058898429 0 0 -0.33897066 -0.54846609
0.0055112182 0.00058899139 0 0 -0.33897066 -0.54846609
0.0065133208 0.00058899994 0 0 -0.33897066 -0.54846609
0.0075154547 0.0005890099 0 0 -0.33897066 -0.54846609
0.0085176248 0.00058902125 0 0 -0.33897066 -0.54846609
0.0095198369 0.00058903405 0 0 -0.33897066 -0.54846609
0.010522094 0.00058904826 0 0 -0.33897066 -0.54846609
0.011524403 0.00058906391 0 0 -0.33897066 -0.54846609
0.012526766 0.00058908097 0 0 -0.33897066 -0.54846609
0.013529191 0.00058909948 0 0 -0.33897066 -0.54846609
0.01453168 0.00058911939 0 0 -0.33897066 -0.54846609
0.015534241 0.00058914075 0 0 -0.33897066 -0.54846609
0.016536875 0.00058916351 0 0 -0.33897066 -0.54846609
0.017539591 0.00058918766 0 0 -0.33897066 -0.54846609
0.01854239 0.00058921328 0 0 -0.33897066 -0.54846609
0.019545279 0.00058924034 0 0 -0.33897066 -0.54846609
0.020548264 0.00058926881 0 0 -0.33897066 -0.54846609
0.021551346 0.00058929867 0 0 -0.33897066 -0.54846609
0.022554534 0.00058932998 0 0 -0.33897066 -0.54846609
0.023557831 0.00058936269 0 0 -0.33897066 -0.54846609
0.024561241 0.00058939686 0 0 -0.33897066 -0.54846609
0.025564769 0.00058943249 0 0 -0.33897066 -0.54846609
0.026568422 0.00058946951 0 0 -0.33897066 -0.54846609
0.027572203 0.00058950792 0 0 -0.33897066 -0.54846609
0.028576119 0.0005895478 0 0 -0.33897066 -0.54846609
0.029580172 0.00058958912 0 0 -0.33897066 -0.54846609
0.030584369 0.00058963185 0 0 -0.33897066 -0.54846609
0.031588711 0.00058967597 0 0 -0.33897066 -0.54846609
0.032593209 0.0005897216 0 0 -0.33897066 -0.54846609
0.033597864 0.00058976858 0 0 -0.33897066 -0.54846609
0.034602683 0.00058981706 0 0 -0.33897066 -0.54846609
0.035607666 0.00058986695 0 0 -0.33897066 -0.54846609
0.036612824 0.00058991829 0 0 -0.33897066 -0.54846609
0.03761816 0.00058997102 0 0 -0.33897066 -0.54846609
0.038623676 0.00059002521 0 0 -0.33897066 -0.54846609
0.039629381 0.0005900808 0 0 -0.33897066 -0.54846609
0.00050148938 0.0017686118 0 0 -0.33897066 -0.54846609
0.0015044706 0.001768616 0 0 -0.33897066 -0.54846609
0.0025074591 0.0017686246 0 0 -0.33897066 -0.54846609
0.0035104598 0.0017686374 0 0 -0.33897066 -0.54846609
0.0045134774 0.0017686546 0 0 -0.33897066 -0.54846609
0.005516517 0.0017686759 0 0 -0.33897066 -0.54846609
0.0065195831 0.0017687016 0 0 -0.33897066 -0.54846609
0.0075226808 0.0017687315 0 0 -0.33897066 -0.54846609
0.0085258149 0.0017687656 0 0 -0.33897066 -0.54846609
0.0095289899 0.0017688042 0 0 -0.33897066 -0.54846609
0.010532212 0.0017688469 0 0 -0.33897066 -0.54846609
0.011535483 0.0017688939 0 0 -0.33897066 -0.54846609
0.012538812 0.0017689451 0 0 -0.33897066 -0.54846609
0.0135422 0.0017690008 0 0 -0.33897066 -0.54846609
0.014545655 0.0017690606 0 0 -0.33897066 -0.54846609
0.015549179 0.0017691248 0 0 -0.33897066 -0.54846609
0.01655278 0.0017691932 0 0 -0.33897066 -0.54846609
0.017556459 0.0017692659 0 0 -0.33897066 -0.54846609
0.018560225 0.0017693428 0 0 -0.33897066 -0.54846609
0.019564079 0.0017694241 0 0 -0.33897066 -0.54846609
0.020568028 0.0017695096 0 0 -0.33897066 -0.54846609
0.021572078 0.0017695995 0 0 -0.33897066 -0.54846609
0.022576232 0.0017696936 0 0 -0.33897066 -0.54846609
0.023580495 0.0017697919 0 0 -0.33897066 -0.54846609
0.024584871 0.0017698946 0 0 -0.33897066 -0.54846609
0.025589367 0.0017700016 0 0 -0.33897066 -0.54846609
0.026593987 0.0017701129 0 0 -0.33897066 -0.54846609
0.027598737 0.0017702285 0 0 -0.33897066 -0.54846609
0.028603619 0.0017703483 0 0 -0.33897066 -0.54846609
0.029608641 0.0017704724 0 0 -0.33897066 -0.54846609
0.030613806 0.0017706009 0 0 -0.33897066 -0.54846609
0.031619117 0.0017707336 0 0 -0.33897066 -0.54846609
0.032624584 0.0017708706 0 0 -0.33897066 -0.54846609
0.033630211 0.001771012 0 0 -0.33897066 -0.54846609
0.034635998 0.0017711576 0 0 -0.33897066 -0.54846609
0.035641953 0.0017713076 0 0 -0.33897066 -0.54846609
0.03664808 0.0017714618 0 0 -0.33897066 -0.54846609
0.037654389 0.0017716204 0 0 -0.33897066 -0.54846609
0.038660876 0.0017717832 0 0 -0.33897066 -0.54846609
0.039667554 0.0017719504 0 0 -0.33897066 -0.54846609
0.00050197198 0.0029505326 0 0 -0.33897066 -0.54846609
0.0015059185 0.0029505396 0 0 -0.33897066 -0.54846609
0.0025098722 0.002950554 0 0 -0.33897066 -0.54846609
0.0035138382 0.0029505752 0 0 -0.33897066 -0.54846609
0.0045178211 0.0029506038 0 0 -0.33897066 -0.54846609
0.005521826 0.0029506395 0 0 -0.33897066 -0.54846609
0.0065258574 0.0029506823 0 0 -0.33897066 -0.54846609
0.0075299204 0.0029507324 0 0 -0.33897066 -0.54846609
0.0085340198 0.0029507894 0 0 -0.33897066 -0.54846609
0.0095381606 0.0029508537 0 0 -0.33897066 -0.54846609
0.010542348 0.0029509251 0 0 -0.33897066 -0.54846609
0.011546587 0.0029510036 0 0 -0.33897066 -0.54846609
0.01255088 0.0029510893 0 0 -0.33897066 -0.54846609
0.013555235 0.002951182 0 0 -0.33897066 -0.54846609
0.014559656 0.0029512821 0 0 -0.33897066 -0.54846609
0.015564147 0.0029513892 0 0 -0.33897066 -0.54846609
0.016568715 0.0029515033 0 0 -0.33897066 -0.54846609
0.01757336 0.0029516248 0 0 -0.33897066 -0.54846609
0.018578093 0.0029517533 0 0 -0.33897066 -0.54846609
0.019582916 0.0029518888 0 0 -0.33897066 -0.54846609
0.020587832 0.0029520318 0 0 -0.33897066 -0.54846609
0.02159285 0.0029521817 0 0 -0.33897066 -0.54846609
0.02259797 0.0029523389 0 0 -0.33897066 -0.54846609
0.023603203 0.0029525033 0 0 -0.33897066 -0.54846609
0.024608547 0.0029526746 0 0 -0.33897066 -0.54846609
0.025614012 0.0029528535 0 0 -0.33897066 -0.54846609
0.026619602 0.0029530392 0 0 -0.33897066 -0.54846609
0.02762532 0.002953232 0 0 -0.33897066 -0.54846609
0.028631173 0.0029534323 0 0 -0.33897066 -0.54846609
0.029637164 0.0029536395 0 0 -0.33897066 -0.54846609
0.030643299 0.0029538539 0 0 -0.33897066 -0.54846609
0.031649582 0.0029540756 0 0 -0.33897066 -0.54846609
0.032656021 0.0029543045 0 0 -0.33897066 -0.54846609
0.033662617 0.0029545405 0 0 -0.33897066 -0.54846609
0.034669377 0.0029547838 0 0 -0.33897066 -0.54846609
0.035676304 0.0029550341 0 0 -0.33897066 -0.54846609
0.036683407 0.0029552917 0 0 -0.33897066 -0.54846609
0.037690684 0.0029555566 0 0 -0.33897066 -0.54846609
0.038698148 0.0029558286 0 0 -0.33897066 -0.54846609
0.039705798 0.0029561077 0 0 -0.33897066 -0.54846609
0.00050245551 0.0041347444 0 0 -0.33897066 -0.54846609
0.0015073691 0.0041347547 0 0 -0.33897066 -0.54846609
0.0025122899 0.0041347747 0 0 -0.33897066 -0.54846609
0.0035172228 0.0041348045 0 0 -0.33897066 -0.54846609
0.0045221732 0.0041348445 0 0 -0.33897066 -0.54846609
0.0055271448 0.0041348948 0 0 -0.33897066 -0.54846609
0.0065321438 0.0041349549 0 0 -0.33897066 -0.54846609
0.0075371745 0.0041350247 0 0 -0.33897066 -0.54846609
0.0085422415 0.0041351048 0 0 -0.33897066 -0.54846609
0.00954735 0.0041351952 0 0 -0.33897066 -0.54846609
0.010552505 0.0041352953 0 0 -0.33897066 -0.54846609
0.01155771 0.0041354052 0 0 -0.33897066 -0.54846609
0.012562972 0.0041355253 0 0 -0.33897066 -0.54846609
0.013568296 0.0041356557 0 0 -0.33897066 -0.54846609
0.014573685 0.0041357959 0 0 -0.33897066 -0.54846609
0.015579144 0.0041359458 0 0 -0.33897066 -0.54846609
0.016584679 0.0041361065 0 0 -0.33897066 -0.54846609
0.017590296 0.0041362764 0 0 -0.33897066 -0.54846609
0.018595997 0.0041364566 0 0 -0.33897066 -0.54846609
0.019601788 0.0041366471 0 0 -0.33897066 -0.54846609
0.020607674 0.0041368473 0 0 -0.33897066 -0.54846609
0.021613661 0.0041370578 0 0 -0.33897066 -0.54846609
0.022619752 0.0041372785 0 0 -0.33897066 -0.54846609
0.023625953 0.004137509 0 0 -0.33897066 -0.54846609
0.02463227 0.0041377493 0 0 -0.33897066 -0.54846609
0.025638705 0.0041379998 0 0 -0.33897066 -0.54846609
0.026645266 0.0041382606 0 0 -0.33897066 -0.54846609
0.027651956 0.0041385312 0 0 -0.33897066 -0.54846609
0.028658779 0.004138812 0 0 -0.33897066 -0.54846609
0.029665742 0.004139103 0 0 -0.33897066 -0.54846609
0.03067285 0.0041394038 0 0 -0.33897066 -0.54846609
0.031680107 0.0041397144 0 0 -0.33897066 -0.54846609
0.032687519 0.0041400357 0 0 -0.33897066 -0.54846609
0.033695087 0.0041403668 0 0 -0.33897066 -0.54846609
0.034702823 0.0041407077 0 0 -0.33897066 -0.54846609
0.035710722 0.0041410588 0 0 -0.33897066 -0.54846609
0.036718801 0.0041414201 0 0 -0.33897066 -0.54846609
0.037727054 0.0041417917 0 0 -0.33897066 -0.54846609
0.038735494 0.0041421731 0 0 -0.33897066 -0.54846609
0.03974412 0.0041425647 0 0 -0.33897066 -0.54846609
0.00050294003 0.0053212601 0 0 -0.33897066 -0.54846609
0.0015088225 0.0053212731 0 0 -0.33897066 -0.54846609
0.0025147123 0.0053212987 0 0 -0.33897066 -0.54846609
0.0035206142 0.0053213374 0 0 -0.33897066 -0.54846609
0.0045265337 0.0053213891 0 0 -0.33897066 -0.54846609
0.0055324747 0.0053214538 0 0 -0.33897066 -0.54846609
0.0065384423 0.0053215311 0 0 -0.33897066 -0.54846609
0.0075444425 0.0053216214 0 0 -0.33897066 -0.54846609
0.0085504791 0.0053217243 0 0 -0.33897066 -0.54846609
0.0095565571 0.0053218408 0 0 -0.33897066 -0.54846609
0.010562681 0.0053219697 0 0 -0.33897066 -0.54846609
0.011568856 0.0053221113 0 0 -0.33897066 -0.54846609
0.012575089 0.0053222664 0 0 -0.33897066 -0.54846609
0.013581381 0.005322434 0 0 -0.33897066 -0.54846609
0.01458774 0.0053226147 0 0 -0.33897066 -0.54846609
0.01559417 0.0053228079 0 0 -0.33897066 -0.54846609
0.016600676 0.0053230142 0 0 -0.33897066 -0.54846609
0.017607262 0.005323234 0 0 -0.33897066 -0.54846609
0.018613935 0.0053234659 0 0 -0.33897066 -0.54846609
0.019620696 0.0053237113 0 0 -0.33897066 -0.54846609
0.020627555 0.0053239693 0 0 -0.33897066 -0.54846609
0.021634514 0.0053242403 0 0 -0.33897066 -0.54846609
0.022641577 0.0053245244 0 0 -0.33897066 -0.54846609
0.02364875 0.0053248215 0 0 -0.33897066 -0.54846609
0.024656039 0.0053251311 0 0 -0.33897066 -0.54846609
0.025663447 0.0053254538 0 0 -0.33897066 -0.54846609
0.026670979 0.0053257896 0 0 -0.33897066 -0.54846609
0.027678642 0.0053261383 0 0 -0.33897066 -0.54846609
0.02868644 0.0053265002 0 0 -0.33897066 -0.54846609
0.029694378 0.0053268746 0 0 -0.33897066 -0.54846609
0.030702459 0.005327262 0 0 -0.33897066 -0.54846609
0.031710692 0.0053276625 0 0 -0.33897066 -0.54846609
0.032719076 0.005328076 0 0 -0.33897066 -0.54846609
0.03372762 0.0053285025 0 0 -0.33897066 -0.54846609
0.034736332 0.0053289421 0 0 -0.33897066 -0.54846609
0.035745207 0.0053293947 0 0 -0.33897066 -0.54846609
0.036754262 0.0053298599 0 0 -0.33897066 -0.54846609
0.037763495 0.0053303386 0 0 -0.33897066 -0.54846609
0.038772911 0.0053308299 0 0 -0.33897066 -0.54846609
0.039782513 0.0053313342 0 0 -0.33897066 -0.54846609
0.00050342543 0.0065100919 0 0 -0.33897066 -0.54846609
0.0015102788 0.0065101078 0 0 -0.33897066 -0.54846609
0.0025171395 0.0065101394 0 0 -0.33897066 -0.54846609
0.0035240124 0.0065101869 0 0 -0.33897066 -0.54846609
0.0045309025 0.0065102498 0 0 -0.33897066 -0.54846609
0.0055378145 0.006510329 0 0 -0.33897066 -0.54846609
0.0065447534 0.0065104235 0 0 -0.33897066 -0.54846609
0.0075517246 0.0065105343 0 0 -0.33897066 -0.54846609
0.0085587325 0.0065106605 0 0 -0.33897066 -0.54846609
0.0095657818 0.0065108025 0 0 -0.33897066 -0.54846609
0.010572877 0.0065109609 0 0 -0.33897066 -0.54846609
0.011580025 0.0065111346 0 0 -0.33897066 -0.54846609
0.012587228 0.0065113241 0 0 -0.33897066 -0.54846609
0.013594493 0.0065115294 0 0 -0.33897066 -0.54846609
0.014601824 0.0065117506 0 0 -0.33897066 -0.54846609
0.015609226 0.0065119877 0 0 -0.33897066 -0.54846609
0.016616704 0.0065122405 0 0 -0.33897066 -0.54846609
0.017624263 0.0065125087 0 0 -0.33897066 -0.54846609
0.018631907 0.0065127932 0 0 -0.33897066 -0.54846609
0.019639643 0.0065130936 0 0 -0.33897066 -0.54846609
0.020647474 0.0065134098 0 0 -0.33897066 -0.54846609
0.021655405 0.0065137418 0 0 -0.33897066 -0.54846609
0.022663442 0.0065140892 0 0 -0.33897066 -0.54846609
0.02367159 0.0065144529 0 0 -0.33897066 -0.54846609
0.024679853 0.0065148324 0 0 -0.33897066 -0.54846609
0.025688235 0.0065152277 0 0 -0.33897066 -0.54846609
0.026696743 0.0065156389 0 0 -0.33897066 -0.54846609
0.027705383 0.0065160659 0 0 -0.33897066 -0.54846609
0.028714156 0.0065165088 0 0 -0.33897066 -0.54846609
0.029723069 0.0065169674 0 0 -0.33897066 -0.54846609
0.030732125 0.0065174419 0 0 -0.33897066 -0.54846609
0.031741332 0.0065179323 0 0 -0.33897066 -0.54846609
0.032750696 0.0065184389 0 0 -0.33897066 -0.54846609
0.03376022 0.0065189609 0 0 -0.33897066 -0.54846609
0.034769904 0.0065194992 0 0 -0.33897066 -0.54846609
0.035779763 0.0065200534 0 0 -0.33897066 -0.54846609
0.036789794 0.0065206233 0 0 -0.33897066 -0.54846609
0.037800003 0.0065212091 0 0 -0.33897066 -0.54846609
0.038810398 0.0065218112 0 0 -0.33897066 -0.54846609
0.039820984 0.0065224287 0 0 -0.33897066 -0.54846609
0.00050391181 0.0077012526 0 0 -0.33897066 -0.54846609
0.0015117379 0.0077012712 0 0 -0.33897066 -0.54846609
0.0025195715 0.0077013089 0 0 -0.33897066 -0.54846609
0.0035274171 0.0077013648 0 0 -0.33897066 -0.54846609
0.0045352802 0.0077014398 0 0 -0.33897066 -0.54846609
0.0055431649 0.0077015334 0 0 -0.33897066 -0.54846609
0.0065510771 0.0077016456 0 0 -0.33897066 -0.54846609
0.007559021 0.0077017765 0 0 -0.33897066 -0.54846609
0.0085670017 0.0077019259 0 0 -0.33897066 -0.54846609
0.0095750242 0.007702094 0 0 -0.33897066 -0.54846609
0.010583093 0.0077022812 0 0 -0.33897066 -0.54846609
0.011591214 0.0077024871 0 0 -0.33897066 -0.54846609
0.012599391 0.0077027115 0 0 -0.33897066 -0.54846609
0.01360763 0.0077029546 0 0 -0.33897066 -0.54846609
0.014615934 0.0077032163 0 0 -0.33897066 -0.54846609
0.015624311 0.0077034971 0 0 -0.33897066 -0.54846609
0.016632764 0.0077037965 0 0 -0.33897066 -0.54846609
0.017641297 0.0077041145 0 0 -0.33897066 -0.54846609
0.018649915 0.0077044512 0 0 -0.33897066 -0.54846609
0.019658627 0.007704807 0 0 -0.33897066 -0.54846609
0.020667432 0.0077051809 0 0 -0.33897066 -0.54846609
0.021676339 0.0077055744 0 0 -0.33897066 -0.54846609
0.022685353 0.007705986 0 0 -0.33897066 -0.54846609
0.023694474 0.0077064163 0 0 -0.33897066 -0.54846609
0.024703713 0.0077068657 0 0 -0.33897066 -0.54846609
0.025713073 0.0077073337 0 0 -0.33897066 -0.54846609
0.026722558 0.0077078207 0 0 -0.33897066 -0.54846609
0.027732173 0.0077083264 0 0 -0.33897066 -0.54846609
0.028741924 0.0077088508 0 0 -0.33897066 -0.54846609
0.029751815 0.0077093937 0 0 -0.33897066 -0.54846609
0.030761851 0.0077099558 0 0 -0.33897066 -0.54846609
0.031772036 0.0077105365 0 0 -0.33897066 -0.54846609
0.03278238 0.0077111362 0 0 -0.33897066 -0.54846609
0.033792879 0.0077117546 0 0 -0.33897066 -0.54846609
0.034803547 0.0077123921 0 0 -0.33897066 -0.54846609
0.035814382 0.0077130483 0 0 -0.33897066 -0.54846609
0.036825396 0.007713723 0 0 -0.33897066 -0.54846609
0.037836585 0.0077144168 0 0 -0.33897066 -0.54846609
0.038847964 0.0077151293 0 0 -0.33897066 -0.54846609
0.03985953 0.0077158608 0 0 -0.33897066 -0.54846609
0.00050439913 0.0088947546 0 0 -0.33897066 -0.54846609
0.0015131999 0.008894776 0 0 -0.33897066 -0.54846609
0.002522008 0.0088948198 0 0 -0.33897066 -0.54846609
0.0035308285 0.008894884 0 0 -0.33897066 -0.54846609
0.0045396662 0.0088949706 0 0 -0.33897066 -0.54846609
0.0055485261 0.0088950787 0 0 -0.33897066 -0.54846609
0.0065574129 0.0088952091 0 0 -0.33897066 -0.54846609
0.0075663319 0.0088953599 0 0 -0.33897066 -0.54846609
0.0085752876 0.0088955332 0 0 -0.33897066 -0.54846609
0.0095842853 0.0088957278 0 0 -0.33897066 -0.54846609
0.01059333 0.0088959439 0 0 -0.33897066 -0.54846609
0.011602426 0.0088961814 0 0 -0.33897066 -0.54846609
0.012611578 0.0088964412 0 0 -0.33897066 -0.54846609
0.013620793 0.0088967225 0 0 -0.33897066 -0.54846609
0.014630074 0.0088970251 0 0 -0.33897066 -0.54846609
0.015639426 0.0088973492 0 0 -0.33897066 -0.54846609
0.016648853 0.0088976957 0 0 -0.33897066 -0.54846609
0.017658364 0.0088980636 0 0 -0.33897066 -0.54846609
0.018667961 0.0088984529 0 0 -0.33897066 -0.54846609
0.019677646 0.0088988636 0 0 -0.33897066 -0.54846609
0.020687429 0.0088992966 0 0 -0.33897066 -0.54846609
0.021697314 0.0088997502 0 0 -0.33897066 -0.54846609
0.022707304 0.008900227 0 0 -0.33897066 -0.54846609
0.023717405 0.0089007244 0 0 -0.33897066 -0.54846609
0.024727622 0.008901244 0 0 -0.33897066 -0.54846609
0.02573796 0.0089017851 0 0 -0.33897066 -0.54846609
0.026748424 0.0089023476 0 0 -0.33897066 -0.54846609
0.027759017 0.0089029325 0 0 -0.33897066 -0.54846609
0.028769748 0.0089035388 0 0 -0.33897066 -0.54846609
0.029780619 0.0089041665 0 0 -0.33897066 -0.54846609
0.030791635 0.0089048166 0 0 -0.33897066 -0.54846609
0.0318028 0.0089054881 0 0 -0.33897066 -0.54846609
0.032814123 0.008906181 0 0 -0.33897066 -0.54846609
0.033825606 0.0089068962 0 0 -0.33897066 -0.54846609
0.034837253 0.0089076329 0 0 -0.33897066 -0.54846609
0.035849072 0.008908391 0 0 -0.33897066 -0.54846609
0.036861066 0.0089091714 0 0 -0.33897066 -0.54846609
0.037873242 0.0089099733 0 0 -0.33897066 -0.54846609
0.038885601 0.0089107975 0 0 -0.33897066 -0.54846609
0.03989815 0.0089116432 0 0 -0.33897066 -0.54846609
0.00050488743 0.010090611 0 0 -0.33897066 -0.54846609
0.0015146649 0.010090635 0 0 -0.33897066 -0.54846609
0.0025244495 0.010090685 0 0 -0.33897066 -0.54846609
0.0035342467 0.010090758 0 0 -0.33897066 -0.54846609
0.0045440611 0.010090856 0 0 -0.33897066 -0.54846609
0.0055538975 0.010090979 0 0 -0.33897066 -0.54846609
0.0065637613 0.010091126 0 0 -0.33897066 -0.54846609
0.0075736572 0.010091298 0 0 -0.33897066 -0.54846609
0.0085835895 0.010091495 0 0 -0.33897066 -0.54846609
0.0095935641 0.010091715 0 0 -0.33897066 -0.54846609
0.010603586 0.01009196 0 0 -0.33897066 -0.54846609
0.01161366 0.010092231 0 0 -0.33897066 -0.54846609
0.01262379 0.010092526 0 0 -0.33897066 -0.54846609
0.013633981 0.010092845 0 0 -0.33897066 -0.54846609
0.01464424 0.010093189 0 0 -0.33897066 -0.54846609
0.015654569 0.010093557 0 0 -0.33897066 -0.54846609
0.016664976 0.01009395 0 0 -0.33897066 -0.54846609
0.017675465 0.010094368 0 0 -0.33897066 -0.54846609
0.018686039 0.010094809 0 0 -0.33897066 -0.54846609
0.019696705 0.010095277 0 0 -0.33897066 -0.54846609
0.020707468 0.010095768 0 0 -0.33897066 -0.54846609
0.021718331 0.010096284 0 0 -0.33897066 -0.54846609
0.0227293 0.010096825 0 0 -0.33897066 -0.54846609
0.023740381 0.01009739 0 0 -0.33897066 -0.54846609
0.024751578 0.01009798 0 0 -0.33897066 -0.54846609
0.025762895 0.010098594 0 0 -0.33897066 -0.54846609
0.026774339 0.010099233 0 0 -0.33897066 -0.54846609
0.027785916 0.010099897 0 0 -0.33897066 -0.54846609
0.028797626 0.010100585 0 0 -0.33897066 -0.54846609
0.029809479 0.010101298 0 0 -0.33897066 -0.54846609
0.030821476 0.010102036 0 0 -0.33897066 -0.54846609
0.031833626 0.010102798 0 0 -0.33897066 -0.54846609
0.032845929 0.010103586 0 0 -0.33897066 -0.54846609
0.033858396 0.010104397 0 0 -0.33897066 -0.54846609
0.034871027 0.010105235 0 0 -0.33897066 -0.54846609
0.035883829 0.010106095 0 0 -0.33897066 -0.54846609
0.036896806 0.010106982 0 0 -0.33897066 -0.54846609
0.037909966 0.010107893 0 0 -0.33897066 -0.54846609
0.038923312 0.010108828 0 0 -0.33897066 -0.54846609
0.039936848 0.010109788 0 0 -0.33897066 -0.54846609
0.00050537672 0.011288834 0 0 -0.33897066 -0.54846609
0.0015161326 0.011288861 0 0 -0.33897066 -0.54846609
0.0025268958 0.011288916 0 0 -0.33897066 -0.54846609
0.0035376716 0.011288999 0 0 -0.33897066 -0.54846609
0.0045484644 0.011289109 0 0 -0.33897066 -0.54846609
0.0055592796 0.011289245 0 0 -0.33897066 -0.54846609
0.0065701222 0.01128941 0 0 -0.33897066 -0.54846609
0.0075809965 0.011289603 0 0 -0.33897066 -0.54846609
0.008591908 0.011289823 0 0 -0.33897066 -0.54846609
0.0096028624 0.011290071 0 0 -0.33897066 -0.54846609
0.010613862 0.011290345 0 0 -0.33897066 -0.54846609
0.011624916 0.011290648 0 0 -0.33897066 -0.54846609
0.012636025 0.011290978 0 0 -0.33897066 -0.54846609
0.013647196 0.011291335 0 0 -0.33897066 -0.54846609
0.014658434 0.01129172 0 0 -0.33897066 -0.54846609
0.015669744 0.011292133 0 0 -0.33897066 -0.54846609
0.016681131 0.011292573 0 0 -0.33897066 -0.54846609
0.017692599 0.011293041 0 0 -0.33897066 -0.54846609
0.018704154 0.011293536 0 0 -0.33897066 -0.54846609
0.019715801 0.011294059 0 0 -0.33897066 -0.54846609
0.020727543 0.011294609 0 0 -0.33897066 -0.54846609
0.021739388 0.011295186 0 0 -0.33897066 -0.54846609
0.022751339 0.011295792 0 0 -0.33897066 -0.54846609
0.023763401 0.011296425 0 0 -0.33897066 -0.54846609
0.024775581 0.011297085 0 0 -0.33897066 -0.54846609
0.025787881 0.011297774 0 0 -0.33897066 -0.54846609
0.026800308 0.011298489 0 0 -0.33897066 -0.54846609
0.027812866 0.011299232 0 0 -0.33897066 -0.54846609
0.028825561 0.011300003 0 0 -0.33897066 -0.54846609
0.029838396 0.011300802 0 0 -0.33897066 -0.54846609
0.030851377 0.011301628 0 0 -0.33897066 -0.54846609
0.031864509 0.011302481 0 0 -0.33897066 -0.54846609
0.032877799 0.011303363 0 0 -0.33897066 -0.54846609
0.033891249 0.011304272 0 0 -0.33897066 -0.54846609
0.034904867 0.011305209 0 0 -0.33897066 -0.54846609
0.035918657 0.011306174 0 0 -0.33897066 -0.54846609
0.036932621 0.011307166 0 0 -0.33897066 -0.54846609
0.037946768 0.011308186 0 0 -0.33897066 -0.54846609
0.038961098 0.011309233 0 0 -0.33897066 -0.54846609
0.039975621 0.011310309 0 0 -0.33897066 -0.54846609
0.00050586695 0.012489435 0 0 -0.33897066 -0.54846609
0.0015176033 0.012489466 0 0 -0.33897066 -0.54846609
0.0025293471 0.012489527 0 0 -0.33897066 -0.54846609
0.0035411033 0.012489619 0 0 -0.33897066 -0.54846609
0.0045528766 0.01248974 0 0 -0.33897066 -0.54846609
0.0055646724 0.012489893 0 0 -0.33897066 -0.54846609
0.0065764957 0.012490075 0 0 -0.33897066 -0.54846609
0.0075883511 0.012490288 0 0 -0.33897066 -0.54846609
0.0086002434 0.012490531 0 0 -0.33897066 -0.54846609
0.0096121784 0.012490806 0 0 -0.33897066 -0.54846609
0.01062416 0.01249111 0 0 -0.33897066 -0.54846609
0.011636194 0.012491445 0 0 -0.33897066 -0.54846609
0.012648284 0.012491811 0 0 -0.33897066 -0.54846609
0.013660437 0.012492207 0 0 -0.33897066 -0.54846609
0.014672657 0.012492632 0 0 -0.33897066 -0.54846609
0.015684949 0.01249309 0 0 -0.33897066 -0.54846609
0.016697317 0.012493577 0 0 -0.33897066 -0.54846609
0.017709767 0.012494095 0 0 -0.33897066 -0.54846609
0.018722305 0.012494643 0 0 -0.33897066 -0.54846609
0.019734934 0.012495222 0 0 -0.33897066 -0.54846609
0.02074766 0.012495832 0 0 -0.33897066 -0.54846609
0.021760488 0.012496471 0 0 -0.33897066 -0.54846609
0.022773422 0.012497142 0 0 -0.33897066 -0.54846609
0.023786468 0.012497842 0 0 -0.33897066 -0.54846609
0.024799632 0.012498574 0 0 -0.33897066 -0.54846609
0.025812916 0.012499336 0 0 -0.33897066 -0.54846609
0.026826328 0.012500129 0 0 -0.33897066 -0.54846609
0.027839869 0.012500952 0 0 -0.33897066 -0.54846609
0.028853549 0.012501805 0 0 -0.33897066 -0.54846609
0.02986737 0.01250269 0 0 -0.33897066 -0.54846609
0.030881338 0.012503604 0 0 -0.33897066 -0.54846609
0.031895459 0.012504551 0 0 -0.33897066 -0.54846609
0.032909732 0.012505527 0 0 -0.33897066 -0.54846609
0.03392417 0.012506533 0 0 -0.33897066 -0.54846609
0.034938775 0.012507571 0 0 -0.33897066 -0.54846609
0.035953552 0.012508639 0 0 -0.33897066 -0.54846609
0.036968503 0.012509738 0 0 -0.33897066 -0.54846609
0.037983641 0.012510868 0 0 -0.33897066 -0.54846609
0.038998961 0.012512027 0 0 -0.33897066 -0.54846609
0.00050635816 0.01369243 0 0 -0.33897066 -0.54846609
0.0015190769 0.013692464 0 0 -0.33897066 -0.54846609
0.0025318032 0.013692531 0 0 -0.33897066 -0.54846609
0.0035445418 0.013692631 0 0 -0.33897066 -0.54846609
0.0045572976 0.013692765 0 0 -0.33897066 -0.54846609
0.0055700764 0.013692931 0 0 -0.33897066 -0.54846609
0.0065828818 0.013693132 0 0 -0.33897066 -0.54846609
0.0075957198 0.013693366 0 0 -0.33897066 -0.54846609
0.0086085955 0.013693633 0 0 -0.33897066 -0.54846609
0.0096215131 0.013693934 0 0 -0.33897066 -0.54846609
0.010634477 0.013694269 0 0 -0.33897066 -0.54846609
0.011647495 0.013694636 0 0 -0.33897066 -0.54846609
0.012660569 0.013695037 0 0 -0.33897066 -0.54846609
0.013673705 0.013695471 0 0 -0.33897066 -0.54846609
0.014686909 0.013695939 0 0 -0.33897066 -0.54846609
0.015700184 0.01369644 0 0 -0.33897066 -0.54846609
0.016713537 0.013696975 0 0 -0.33897066 -0.54846609
0.017726971 0.013697543 0 0 -0.33897066 -0.54846609
0.018740492 0.013698145 0 0 -0.33897066 -0.54846609
0.019754106 0.01369878 0 0 -0.33897066 -0.54846609
0.020767817 0.013699449 0 0 -0.33897066 -0.54846609
0.021781629 0.013700151 0 0 -0.33897066 -0.54846609
0.022795549 0.013700887 0 0 -0.33897066 -0.54846609
0.023809582 0.013701656 0 0 -0.33897066 -0.54846609
0.024823731 0.013702459 0 0 -0.33897066 -0.54846609
0.025838001 0.013703295 0 0 -0.33897066 -0.54846609
0.026852399 0.013704165 0 0 -0.33897066 -0.54846609
0.027866928 0.013705068 0 0 -0.33897066 -0.54846609
0.028881595 0.013706005 0 0 -0.33897066 -0.54846609
0.029896403 0.013706976 0 0 -0.33897066 -0.54846609
0.030911358 0.01370798 0 0 -0.33897066 -0.54846609
0.031926468 0.013709017 0 0 -0.33897066 -0.54846609
0.032941733 0.013710088 0 0 -0.33897066 -0.54846609
0.033957157 0.013711194 0 0 -0.33897066 -0.54846609
0.03497275 0.013712332 0 0 -0.33897066 -0.54846609
0.035988517 0.013713504 0 0 -0.33897066 -0.54846609
0.03700446 0.01371471 0 0 -0.33897066 -0.54846609
0.038020585 0.01371595 0 0 -0.33897066 -0.54846609
0.039036896 0.013717223 0 0 -0.33897066 -0.54846609
0.00050685031 0.014897831 0 0 -0.33897066 -0.54846609
0.0015205535 0.014897867 0 0 -0.33897066 -0.54846609
0.002534264 0.01489794 0 0 -0.33897066 -0.54846609
0.0035479872 0.01489805 0 0 -0.33897066 -0.54846609
0.0045617279 0.014898195 0 0 -0.33897066 -0.54846609
0.0055754906 0.014898377 0 0 -0.33897066 -0.54846609
0.0065892809 0.014898595 0 0 -0.33897066 -0.54846609
0.0076031038 0.01489885 0 0 -0.33897066 -0.54846609
0.0086169634 0.014899141 0 0 -0.33897066 -0.54846609
0.0096308663 0.014899468 0 0 -0.33897066 -0.54846609
0.010644816 0.014899832 0 0 -0.33897066 -0.54846609
0.011658818 0.014900233 0 0 -0.33897066 -0.54846609
0.012672877 0.014900669 0 0 -0.33897066 -0.54846609
0.013686999 0.014901143 0 0 -0.33897066 -0.54846609
0.014701188 0.014901652 0 0 -0.33897066 -0.54846609
0.01571545 0.014902198 0 0 -0.33897066 -0.54846609
0.016729787 0.014902781 0 0 -0.33897066 -0.54846609
0.017744208 0.014903399 0 0 -0.33897066 -0.54846609
0.018758716 0.014904055 0 0 -0.33897066 -0.54846609
0.019773318 0.014904747 0 0 -0.33897066 -0.54846609
0.020788014 0.014905475 0 0 -0.33897066 -0.54846609
0.021802815 0.01490624 0 0 -0.33897066 -0.54846609
0.022817722 0.014907041 0 0 -0.33897066 -0.54846609
0.02383274 0.014907879 0 0 -0.33897066 -0.54846609
0.024847876 0.014908752 0 0 -0.33897066 -0.54846609
0.025863135 0.014909663 0 0 -0.33897066 -0.54846609
0.026878521 0.01491061 0 0 -0.33897066 -0.54846609
0.027894041 0.014911595 0 0 -0.33897066 -0.54846609
0.028909696 0.014912615 0 0 -0.33897066 -0.54846609
0.029925494 0.014913672 0 0 -0.33897066 -0.54846609
0.03094144 0.014914765 0 0 -0.33897066 -0.54846609
