# .PCD v0.7 - Point Cloud Data file format
VERSION 0.7
FIELDS x y z vp_x vp_y vp_z
SIZE 4 4 4 4 4 4
TYPE F F F F F F
COUNT 1 1 1 1 1 1
WIDTH 894
HEIGHT 1
VIEWPOINT 0 0 0 1 0 0 0
POINTS 894
DATA ascii
0.028577713 0.030243816 0 0 0.25019264 -0.4048202
0.027852528 0.030241 0 0 0.25019264 -0.4048202
0.029807918 0.0085047185 0.039999999 0 0.25019264 -0.4048202
0.026402542 0.030235585 0 0 0.25019264 -0.4048202
0.028214939 0.0084989276 0.039999999 0 0.25019264 -0.4048202
0.027418651 0.0084961522 0.039999999 0 0.25019264 -0.4048202
0.024228491 0.030228006 5.5511151e-17 0 0.25019264 -0.4048202
0.023504037 0.030225625 0 0 0.25019264 -0.4048202
0.022779696 0.030223316 0 0 0.25019264 -0.4048202
0.024234746 0.0084858453 0.039999999 0 0.25019264 -0.4048202
0.021331331 0.030218916 0 0 0.25019264 -0.4048202
0.022643493 0.0084811701 0.039999999 0 0.25019264 -0.4048202
0.019883366 0.030214805 5.5511151e-17 0 0.25019264 -0.4048202
0.019159526 0.030212859 0 0 0.25019264 -0.4048202
0.018435774 0.030210983 0 0 0.25019264 -0.4048202
0.017712111 0.030209182 0 0 0.25019264 -0.4048202
0.016988531 0.030207451 0 0 0.25019264 -0.4048202
0.016265029 0.030205794 5.5511151e-17 0 0.25019264 -0.4048202
0.015541605 0.030204209 0 0 0.25019264 -0.4048202
0.014818253 0.030202694 0 0 0.25019264 -0.4048202
0.015487684 0.0084640607 0.039999999 0 0.25019264 -0.4048202
0.013371754 0.030199885 0 0 0.25019264 -0.4048202
0.0138984 0.0084611317 0.039999999 0 0.25019264 -0.4048202
0.011925506 0.030197363 0 0 0.25019264 -0.4048202
0.011202469 0.03019621 5.5511151e-17 0 0.25019264 -0.4048202
0.010479483 0.03019513 0 0 0.25019264 -0.4048202
0.0097565465 0.030194122 0 0 0.25019264 -0.4048202
0.0090336557 0.030193185 0 0 0.25019264 -0.4048202
0.0083108069 0.030192321 0 0 0.25019264 -0.4048202
0.0075879982 0.03019153 0 0 0.25019264 -0.4048202
0.0075435722 0.008452584 0.039999999 0 0.25019264 -0.4048202
0.0061424826 0.03019016 0 0 0.25019264 -0.4048202
0.0054197698 0.030189585 0 0 0.25019264 -0.4048202
0.0046970826 0.03018908 0 0 0.25019264 -0.4048202
0.0039744172 0.030188648 0 0 0.25019264 -0.4048202
0.0032517705 0.030188289 0 0 0.25019264 -0.4048202
0.0025291389 0.030188 0 0 0.25019264 -0.4048202
0.0018065193 0.030187784 0 0 0.25019264 -0.4048202
0.0010839083 0.03018764 0 0 0.25019264 -0.4048202
0.0003613022 0.030187568 0 0 0.25019264 -0.4048202
0.039510906 0.029467568 0 0 0.25019264 -0.4048202
0.038782645 0.029463761 0 0 0.25019264 -0.4048202
0.038054571 0.029460024 5.5511151e-17 0 0.25019264 -0.4048202
0.037326675 0.02945636 0 0 0.25019264 -0.4048202
0.039999999 0.0089399973 0.037618864 0 0.25019264 -0.4048202
0.035871409 0.029449243 0 0 0.25019264 -0.4048202
0.035144031 0.029445792 0 0 0.25019264 -0.4048202
0.034416821 0.029442413 0 0 0.25019264 -0.4048202
0.033689771 0.029439103 0 0 0.25019264 -0.4048202
0.032962881 0.029435866 5.5511151e-17 0 0.25019264 -0.4048202
0.032236148 0.029432697 0 0 0.25019264 -0.4048202
0.034623004 0.0076161618 0.039999999 0 0.25019264 -0.4048202
0.030783132 0.029426577 0 0 0.25019264 -0.4048202
0.03302674 0.0076095909 0.039999999 0 0.25019264 -0.4048202
0.032228842 0.0076064225 0.039999999 0 0.25019264 -0.4048202
0.028604688 0.029417925 0 0 0.25019264 -0.4048202
0.027878815 0.029415183 0 0 0.25019264 -0.4048202
0.027153073 0.029412512 0 0 0.25019264 -0.4048202
0.026427459 0.02940991 0 0 0.25019264 -0.4048202
0.025701968 0.02940738 0 0 0.25019264 -0.4048202
0.027444519 0.0075890427 0.039999999 0 0.25019264 -0.4048202
0.024251347 0.029402532 5.5511151e-17 0 0.25019264 -0.4048202
0.02352621 0.029400215 0 0 0.25019264 -0.4048202
0.025054153 0.0075814007 0.039999999 0 0.25019264 -0.4048202
0.022076264 0.029395789 5.5511151e-17 0 0.25019264 -0.4048202
0.021351449 0.029393682 0 0 0.25019264 -0.4048202
0.022664847 0.0075744558 0.039999999 0 0.25019264 -0.4048202
0.019902116 0.029389679 0 0 0.25019264 -0.4048202
0.019177591 0.029387785 0 0 0.25019264 -0.4048202
0.020276502 0.0075682076 0.039999999 0 0.25019264 -0.4048202
0.019480582 0.0075662793 0.039999999 0 0.25019264 -0.4048202
0.017004548 0.029382519 0 0 0.25019264 -0.4048202
0.016280362 0.029380906 0 0 0.25019264 -0.4048202
0.015556255 0.029379362 5.5511151e-17 0 0.25019264 -0.4048202
0.014832221 0.029377889 5.5511151e-17 0 0.25019264 -0.4048202
0.015502283 0.0075577982 0.039999999 0 0.25019264 -0.4048202
0.013384358 0.029375153 0 0 0.25019264 -0.4048202
0.0139115 0.0075549465 0.039999999 0 0.25019264 -0.4048202
0.011936746 0.029372698 5.5511151e-17 0 0.25019264 -0.4048202
0.011213026 0.029371576 0 0 0.25019264 -0.4048202
0.010489359 0.029370524 5.5511151e-17 0 0.25019264 -0.4048202
0.010730687 0.0075501683 0.039999999 0 0.25019264 -0.4048202
0.009042168 0.029368632 0 0 0.25019264 -0.4048202
0.0083186384 0.02936779 5.5511151e-17 0 0.25019264 -0.4048202
0.0083456198 0.0075473944 0.039999999 0 0.25019264 -0.4048202
0.0068716933 0.029366316 0 0 0.25019264 -0.4048202
0.0061482703 0.029365685 0 0 0.25019264 -0.4048202
0.0054248767 0.029365124 5.5511151e-17 0 0.25019264 -0.4048202
0.0047015082 0.029364634 0 0 0.25019264 -0.4048202
0.0039781621 0.029364213 5.5511151e-17 0 0.25019264 -0.4048202
0.0032548343 0.029363863 0 0 0.25019264 -0.4048202
0.002531522 0.029363582 0 0 0.25019264 -0.4048202
0.0018082215 0.029363371 0 0 0.25019264 -0.4048202
0.0010849294 0.029363232 0 0 0.25019264 -0.4048202
0.0003616426 0.029363163 0 0 0.25019264 -0.4048202
0.039548293 0.028638907 0 0 0.25019264 -0.4048202
0.038819339 0.028635202 5.5511151e-17 0 0.25019264 -0.4048202
0.038090572 0.028631568 5.5511151e-17 0 0.25019264 -0.4048202
0.037361983 0.028628003 0 0 0.25019264 -0.4048202
0.03663357 0.028624507 0 0 0.25019264 -0.4048202
0.039453112 0.0067277518 0.039999999 0 0.25019264 -0.4048202
0.035177261 0.028617723 0 0 0.25019264 -0.4048202
0.034449361 0.028614435 0 0 0.25019264 -0.4048202
0.033721618 0.028611217 0 0 0.25019264 -0.4048202
0.032994039 0.028608067 5.5511151e-17 0 0.25019264 -0.4048202
0.032266617 0.028604984 0 0 0.25019264 -0.4048202
0.031539343 0.028601972 0 0 0.25019264 -0.4048202
0.030812221 0.028599029 0 0 0.25019264 -0.4048202
0.030085243 0.028596155 0 0 0.25019264 -0.4048202
0.032259289 0.0066972817 0.039999999 0 0.25019264 -0.4048202
0.02863171 0.028590614 0 0 0.25019264 -0.4048202
0.030662436 0.0066913436 0.039999999 0 0.25019264 -0.4048202
0.027178718 0.028585348 0 0 0.25019264 -0.4048202
0.026452417 0.028582817 5.5511151e-17 0 0.25019264 -0.4048202
0.025726238 0.028580356 5.5511151e-17 0 0.25019264 -0.4048202
0.025000183 0.028577965 0 0 0.25019264 -0.4048202
0.026672766 0.0066778213 0.039999999 0 0.25019264 -0.4048202
0.023548421 0.028573385 0 0 0.25019264 -0.4048202
0.022822708 0.028571198 5.5511151e-17 0 0.25019264 -0.4048202
0.024280503 0.0066706133 0.039999999 0 0.25019264 -0.4048202
0.021371603 0.028567031 5.5511151e-17 0 0.25019264 -0.4048202
0.020646201 0.028565049 0 0 0.25019264 -0.4048202
0.019920899 0.028563138 5.5511151e-17 0 0.25019264 -0.4048202
0.019195689 0.028561294 0 0 0.25019264 -0.4048202
0.01847057 0.028559519 0 0 0.25019264 -0.4048202
0.01774554 0.028557811 0 0 0.25019264 -0.4048202
0.017020591 0.028556174 0 0 0.25019264 -0.4048202
0.016295722 0.028554603 5.5511151e-17 0 0.25019264 -0.4048202
0.015570931 0.0285531 0 0 0.25019264 -0.4048202
0.016313156 0.0066514802 0.039999999 0 0.25019264 -0.4048202
0.014121565 0.028550303 0 0 0.25019264 -0.4048202
0.013396983 0.028549006 0 0 0.25019264 -0.4048202
0.012672463 0.028547779 0 0 0.25019264 -0.4048202
0.011948004 0.028546618 0 0 0.25019264 -0.4048202
0.011223602 0.028545527 0 0 0.25019264 -0.4048202
0.011536676 0.0066436077 0.039999999 0 0.25019264 -0.4048202
0.0097749503 0.028543549 0 0 0.25019264 -0.4048202
0.0090506962 0.028542662 0 0 0.25019264 -0.4048202
0.0083264839 0.028541842 0 0 0.25019264 -0.4048202
0.0076023103 0.028541092 0 0 0.25019264 -0.4048202
0.006878173 0.02854041 0 0 0.25019264 -0.4048202
0.0061540678 0.028539797 0 0 0.25019264 -0.4048202
0.005429992 0.028539252 0 0 0.25019264 -0.4048202
0.0047059413 0.028538773 0 0 0.25019264 -0.4048202
0.0043753628 0.0066368622 0.039999999 0 0.25019264 -0.4048202
0.0032579033 0.028538024 0 0 0.25019264 -0.4048202
0.0025339089 0.02853775 0 0 0.25019264 -0.4048202
0.0019887639 0.006635963 0.039999999 0 0.25019264 -0.4048202
0.0011932546 0.006635813 0.039999999 0 0.25019264 -0.4048202
0.00036198358 0.02853734 0 0 0.25019264 -0.4048202
0.039585743 0.027808813 0 0 0.25019264 -0.4048202
0.039999999 0.021258242 0.0119177 0 0.25019264 -0.4048202
0.038126633 0.027801681 5.5511151e-17 0 0.25019264 -0.4048202
0.039999999 0.012320788 0.02817326 0 0.25019264 -0.4048202
0.039999999 0.0075872745 0.036782835 0 0.25019264 -0.4048202
0.03949045 0.0058161877 0.039999999 0 0.25019264 -0.4048202
0.03521055 0.027788226 0 0 0.25019264 -0.4048202
0.037889093 0.0058090901 0.039999999 0 0.25019264 -0.4048202
0.033753522 0.0277819 0 0 0.25019264 -0.4048202
0.03302525 0.027778838 0 0 0.25019264 -0.4048202
0.032297134 0.027775845 5.5511151e-17 0 0.25019264 -0.4048202
0.031569172 0.027772916 0 0 0.25019264 -0.4048202
0.030841358 0.027770055 5.5511151e-17 0 0.25019264 -0.4048202
0.03011369 0.027767263 0 0 0.25019264 -0.4048202
0.029386165 0.027764536 0 0 0.25019264 -0.4048202
0.031490531 0.0057836501 0.039999999 0 0.25019264 -0.4048202
0.027931526 0.027759284 0 0 0.25019264 -0.4048202
0.027204407 0.027756758 0 0 0.25019264 -0.4048202
0.029093632 0.0057753241 0.039999999 0 0.25019264 -0.4048202
0.025750551 0.027751906 0 0 0.25019264 -0.4048202
0.025023807 0.027749581 0 0 0.25019264 -0.4048202
0.024297182 0.027747322 0 0 0.25019264 -0.4048202
0.025899671 0.00576525 0.039999999 0 0.25019264 -0.4048202
0.02284427 0.027743006 0 0 0.25019264 -0.4048202
0.022117978 0.027740946 0 0 0.25019264 -0.4048202
0.02139179 0.027738955 0 0 0.25019264 -0.4048202
0.020665703 0.027737029 0 0 0.25019264 -0.4048202
0.019939713 0.027735172 0 0 0.25019264 -0.4048202
0.021112323 0.0057523367 0.039999999 0 0.25019264 -0.4048202
0.020314801 0.0057504405 0.039999999 0 0.25019264 -0.4048202
0.017762296 0.027729994 0 0 0.25019264 -0.4048202
0.017036662 0.027728401 5.5511151e-17 0 0.25019264 -0.4048202
0.016311109 0.027726876 0 0 0.25019264 -0.4048202
0.015585632 0.027725417 0 0 0.25019264 -0.4048202
0.01486023 0.027724024 0 0 0.25019264 -0.4048202
0.014134896 0.027722696 0 0 0.25019264 -0.4048202
0.013409629 0.027721437 5.5511151e-17 0 0.25019264 -0.4048202
0.012684426 0.027720243 0 0 0.25019264 -0.4048202
0.011959283 0.027719116 0 0 0.25019264 -0.4048202
0.012344238 0.0057354979 0.039999999 0 0.25019264 -0.4048202
0.010509161 0.027717059 0 0 0.25019264 -0.4048202
0.0097841769 0.027716132 0 0 0.25019264 -0.4048202
0.0090592382 0.027715269 0 0 0.25019264 -0.4048202
0.0091578523 0.0057315635 0.039999999 0 0.25019264 -0.4048202
0.0076094852 0.027713744 0 0 0.25019264 -0.4048202
0.0068846643 0.027713081 0 0 0.25019264 -0.4048202
0.0061598755 0.027712485 0 0 0.25019264 -0.4048202
0.0059721563 0.0057287957 0.039999999 0 0.25019264 -0.4048202
0.0047103823 0.02771149 0 0 0.25019264 -0.4048202
0.0039856704 0.027711093 0 0 0.25019264 -0.4048202
0.0032609776 0.027710762 5.5511151e-17 0 0.25019264 -0.4048202
0.0025362999 0.027710497 0 0 0.25019264 -0.4048202
0.0019906405 0.0057269749 0.039999999 0 0.25019264 -0.4048202
0.0010869772 0.027710166 0 0 0.25019264 -0.4048202
0.00036232514 0.027710099 0 0 0.25019264 -0.4048202
0.03962326 0.02697728 0 0 0.25019264 -0.4048202
0.038892917 0.026973784 5.5511151e-17 0 0.25019264 -0.4048202
0.038162757 0.026970355 0 0 0.25019264 -0.4048202
0.037432779 0.026966989 0 0 0.25019264 -0.4048202
0.036702979 0.02696369 0 0 0.25019264 -0.4048202
0.035973351 0.026960457 0 0 0.25019264 -0.4048202
0.035243895 0.026957288 0 0 0.25019264 -0.4048202
0.034514606 0.026954185 0 0 0.25019264 -0.4048202
0.033785481 0.026951147 0 0 0.25019264 -0.4048202
0.033056516 0.026948174 5.5511151e-17 0 0.25019264 -0.4048202
0.035521984 0.0048863511 0.039999999 0 0.25019264 -0.4048202
0.031599052 0.026942423 0 0 0.25019264 -0.4048202
0.030870548 0.026939645 0 0 0.25019264 -0.4048202
0.030142188 0.026936933 5.5511151e-17 0 0.25019264 -0.4048202
0.032320343 0.0048742862 0.039999999 0 0.25019264 -0.4048202
0.028685894 0.026931703 5.5511151e-17 0 0.25019264 -0.4048202
0.030720457 0.004868682 0.039999999 0 0.25019264 -0.4048202
0.027230142 0.026926734 0 0 0.25019264 -0.4048202
0.02650246 0.026924346 0 0 0.25019264 -0.4048202
0.025774905 0.026922023 0 0 0.25019264 -0.4048202
0.025047472 0.026919765 0 0 0.25019264 -0.4048202
0.024320157 0.026917571 0 0 0.25019264 -0.4048202
0.025924161 0.0048535815 0.039999999 0 0.25019264 -0.4048202
0.022865869 0.02691338 0 0 0.25019264 -0.4048202
0.022138888 0.026911382 0 0 0.25019264 -0.4048202
0.021412013 0.026909446 0 0 0.25019264 -0.4048202
0.020685239 0.026907576 0 0 0.25019264 -0.4048202
0.019958561 0.026905771 0 0 0.25019264 -0.4048202
0.019231979 0.026904032 0 0 0.25019264 -0.4048202
0.018505486 0.026902357 0 0 0.25019264 -0.4048202
0.017779082 0.026900746 5.5511151e-17 0 0.25019264 -0.4048202
0.017052762 0.0268992 0 0 0.25019264 -0.4048202
0.017939733 0.0048341043 0.039999999 0 0.25019264 -0.4048202
0.015600359 0.0268963 0 0 0.25019264 -0.4048202
0.014874269 0.026894948 5.5511151e-17 0 0.25019264 -0.4048202
0.01414825 0.026893659 0 0 0.25019264 -0.4048202
0.013422298 0.026892435 0 0 0.25019264 -0.4048202
0.01269641 0.026891276 0 0 0.25019264 -0.4048202
0.011970581 0.026890181 0 0 0.25019264 -0.4048202
0.011244807 0.026889151 0 0 0.25019264 -0.4048202
0.011558472 0.0048236307 0.039999999 0 0.25019264 -0.4048202
0.0097934185 0.026887285 0 0 0.25019264 -0.4048202
0.0090677943 0.026886448 0 0 0.25019264 -0.4048202
0.0083422139 0.026885675 5.5511151e-17 0 0.25019264 -0.4048202
0.0076166722 0.026884967 0 0 0.25019264 -0.4048202
0.0068911663 0.026884323 0 0 0.25019264 -0.4048202
0.006165693 0.026883744 0 0 0.25019264 -0.4048202
0.0059777964 0.0048181843 0.039999999 0 0.25019264 -0.4048202
0.0047148308 0.026882779 5.5511151e-17 0 0.25019264 -0.4048202
0.0039894343 0.026882391 0 0 0.25019264 -0.4048202
0.0032640572 0.026882071 0 0 0.25019264 -0.4048202
0.0025386952 0.026881812 0 0 0.25019264 -0.4048202
0.0018133451 0.02688162 0 0 0.25019264 -0.4048202
0.0010880036 0.026881492 5.5511151e-17 0 0.25019264 -0.4048202
0.00036266731 0.026881427 5.5511151e-17 0 0.25019264 -0.4048202
0.039999999 0.024228362 0.003461798 0 0.25019264 -0.4048202
0.038929801 0.026140908 0 0 0.25019264 -0.4048202
0.038198944 0.026137581 0 0 0.25019264 -0.4048202
0.037468269 0.026134318 5.5511151e-17 0 0.25019264 -0.4048202
0.039999999 0.0062349853 0.035947073 0 0.25019264 -0.4048202
0.036007449 0.026127979 0 0 0.25019264 -0.4048202
0.0352773 0.026124906 5.5511151e-17 0 0.25019264 -0.4048202
0.034547314 0.026121896 5.5511151e-17 0 0.25019264 -0.4048202
0.037158977 0.0039783856 0.039999999 0 0.25019264 -0.4048202
0.033087835 0.026116064 0 0 0.25019264 -0.4048202
0.032358333 0.026113244 0 0 0.25019264 -0.4048202
0.031628985 0.026110487 5.5511151e-17 0 0.25019264 -0.4048202
0.030899785 0.026107792 0 0 0.25019264 -0.4048202
0.033151884 0.0039632358 0.039999999 0 0.25019264 -0.4048202
0.029441824 0.026102593 5.5511151e-17 0 0.25019264 -0.4048202
0.028713055 0.026100088 0 0 0.25019264 -0.4048202
0.027984422 0.026097646 0 0 0.25019264 -0.4048202
0.027255921 0.026095267 0 0 0.25019264 -0.4048202
0.026527548 0.02609295 0 0 0.25019264 -0.4048202
0.025799302 0.026090696 0 0 0.25019264 -0.4048202
0.025071179 0.026088506 0 0 0.25019264 -0.4048202
0.024343174 0.026086379 5.5511151e-17 0 0.25019264 -0.4048202
0.023615284 0.026084315 5.5511151e-17 0 0.25019264 -0.4048202
0.022887506 0.026082313 0 0 0.25019264 -0.4048202
0.022159835 0.026080374 0 0 0.25019264 -0.4048202
0.021432271 0.026078498 0 0 0.25019264 -0.4048202
0.020704806 0.026076684 0 0 0.25019264 -0.4048202
0.019977441 0.026074933 0 0 0.25019264 -0.4048202
0.019250169 0.026073245 0 0 0.25019264 -0.4048202
0.018522989 0.026071619 0 0 0.25019264 -0.4048202
0.017795898 0.026070058 0 0 0.25019264 -0.4048202
0.017068889 0.026068557 0 0 0.25019264 -0.4048202
0.016341962 0.026067121 5.5511151e-17 0 0.25019264 -0.4048202
0.015615111 0.026065744 0 0 0.25019264 -0.4048202
0.014888334 0.026064433 0 0 0.25019264 -0.4048202
0.015560929 0.0039171106 0.039999999 0 0.25019264 -0.4048202
0.014762491 0.0039158063 0.039999999 0 0.25019264 -0.4048202
0.012708413 0.026060872 0 0 0.25019264 -0.4048202
0.011981897 0.02605981 5.5511151e-17 0 0.25019264 -0.4048202
0.011255438 0.026058812 0 0 0.25019264 -0.4048202
0.011569398 0.0039112763 0.039999999 0 0.25019264 -0.4048202
0.010771272 0.0039103157 0.039999999 0 0.25019264 -0.4048202
0.0090763662 0.026056187 0 0 0.25019264 -0.4048202
0.0083500994 0.026055438 5.5511151e-17 0 0.25019264 -0.4048202
0.0076238718 0.026054751 0 0 0.25019264 -0.4048202
0.0075792349 0.0039071594 0.039999999 0 0.25019264 -0.4048202
0.0061715208 0.026053565 0 0 0.25019264 -0.4048202
0.0054453909 0.026053065 0 0 0.25019264 -0.4048202
0.0047192872 0.026052628 0 0 0.25019264 -0.4048202
0.0043877708 0.0039051012 0.039999999 0 0.25019264 -0.4048202
0.0032671422 0.026051942 5.5511151e-17 0 0.25019264 -0.4048202
0.0025410946 0.026051693 0 0 0.25019264 -0.4048202
0.001815059 0.026051505 0 0 0.25019264 -0.4048202
0.0010890319 0.02605138 0 0 0.25019264 -0.4048202
0.00036301007 0.026051318 0 0 0.25019264 -0.4048202
0.039999999 0.023601877 0.0030746092 0 0.25019264 -0.4048202
0.038966749 0.025306577 0 0 0.25019264 -0.4048202
0.038235195 0.025303353 0 0 0.25019264 -0.4048202
0.03750382 0.02530019 0 0 0.25019264 -0.4048202
0.036772627 0.025297089 0 0 0.25019264 -0.4048202
0.039602853 0.003071978 0.039999999 0 0.25019264 -0.4048202
0.03531076 0.02529107 0 0 0.25019264 -0.4048202
0.034580082 0.025288153 0 0 0.25019264 -0.4048202
0.033849563 0.025285298 0 0 0.25019264 -0.4048202
0.033119209 0.025282502 0 0 0.25019264 -0.4048202
0.032389011 0.02527977 0 0 0.25019264 -0.4048202
0.03165897 0.025277099 0 0 0.25019264 -0.4048202
0.030929076 0.025274487 0 0 0.25019264 -0.4048202
0.033183303 0.0030476819 0.039999999 0 0.25019264 -0.4048202
0.029469727 0.025269449 0 0 0.25019264 -0.4048202
0.031580068 0.0030422802 0.039999999 0 0.25019264 -0.4048202
0.028010938 0.025264654 5.5511151e-17 0 0.25019264 -0.4048202
0.027281744 0.02526235 0 0 0.25019264 -0.4048202
0.026552681 0.025260106 5.5511151e-17 0 0.25019264 -0.4048202
0.028375369 0.0030322815 0.039999999 0 0.25019264 -0.4048202
0.025094926 0.025255799 5.5511151e-17 0 0.25019264 -0.4048202
0.02436623 0.025253737 0 0 0.25019264 -0.4048202
0.023637649 0.025251737 0 0 0.25019264 -0.4048202
0.022909179 0.025249798 0 0 0.25019264 -0.4048202
0.022180818 0.025247918 0 0 0.25019264 -0.4048202
0.021452563 0.025246101 0 0 0.25019264 -0.4048202
0.022772174 0.0030173613 0.039999999 0 0.25019264 -0.4048202
0.019996354 0.025242647 0 0 0.25019264 -0.4048202
0.019268394 0.025241012 5.5511151e-17 0 0.25019264 -0.4048202
0.018540524 0.025239436 0 0 0.25019264 -0.4048202
0.017812742 0.025237922 0 0 0.25019264 -0.4048202
0.017085044 0.025236469 0 0 0.25019264 -0.4048202
0.016357427 0.025235076 0 0 0.25019264 -0.4048202
0.015629889 0.025233744 0 0 0.25019264 -0.4048202
0.016374921 0.0030043169 0.039999999 0 0.25019264 -0.4048202
0.014175029 0.025231261 0 0 0.25019264 -0.4048202
0.013447702 0.025230112 0 0 0.25019264 -0.4048202
0.013977336 0.0030005255 0.039999999 0 0.25019264 -0.4048202
0.011993234 0.025227992 5.5511151e-17 0 0.25019264 -0.4048202
0.012379281 0.0029983306 0.039999999 0 0.25019264 -0.4048202
0.010538993 0.025226116 0 0 0.25019264 -0.4048202
0.0098119499 0.025225269 0 0 0.25019264 -0.4048202
0.009084953 0.025224483 0 0 0.25019264 -0.4048202
0.008357998 0.025223756 0 0 0.25019264 -0.4048202
0.0076310835 0.025223091 5.5511151e-17 0 0.25019264 -0.4048202
0.0075864047 0.0029933439 0.039999999 0 0.25019264 -0.4048202
0.0061773588 0.02522194 0 0 0.25019264 -0.4048202
0.0059891064 0.0029922137 0.039999999 0 0.25019264 -0.4048202
0.004723751 0.025221033 0 0 0.25019264 -0.4048202
0.0039969822 0.02522067 0 0 0.25019264 -0.4048202
0.0032702324 0.025220368 0 0 0.25019264 -0.4048202
0.0025434981 0.025220126 0 0 0.25019264 -0.4048202
0.0018167758 0.025219945 0 0 0.25019264 -0.4048202
0.001090062 0.025219824 0 0 0.25019264 -0.4048202
0.00039925613 0.0029903522 0.039999999 0 0.25019264 -0.4048202
0.039736204 0.024473961 0 0 0.25019264 -0.4048202
0.039003763 0.02447078 0 0 0.25019264 -0.4048202
0.038271509 0.02446766 0 0 0.25019264 -0.4048202
0.037539437 0.0244646 0 0 0.25019264 -0.4048202
0.036807545 0.024461597 0 0 0.25019264 -0.4048202
0.039640453 0.0021540404 0.039999999 0 0.25019264 -0.4048202
0.03534428 0.024455773 5.5511151e-17 0 0.25019264 -0.4048202
0.034612902 0.024452949 0 0 0.25019264 -0.4048202
0.03388169 0.024450185 5.5511151e-17 0 0.25019264 -0.4048202
0.033150639 0.02444748 0 0 0.25019264 -0.4048202
0.032419745 0.024444835 0 0 0.25019264 -0.4048202
0.031689007 0.02444225 0 0 0.25019264 -0.4048202
0.034017395 0.002133236 0.039999999 0 0.25019264 -0.4048202
0.030227976 0.024437254 0 0 0.25019264 -0.4048202
0.029497679 0.024434846 0 0 0.25019264 -0.4048202
0.028767521 0.024432495 0 0 0.25019264 -0.4048202
0.028037501 0.024430206 0 0 0.25019264 -0.4048202
0.027307613 0.024427975 0 0 0.25019264 -0.4048202
0.026577856 0.024425803 0 0 0.25019264 -0.4048202
0.025848225 0.024423689 5.5511151e-17 0 0.25019264 -0.4048202
0.025118716 0.024421634 5.5511151e-17 0 0.25019264 -0.4048202
0.024389327 0.024419639 0 0 0.25019264 -0.4048202
0.023660053 0.024417702 0 0 0.25019264 -0.4048202
0.022930892 0.024415825 0 0 0.25019264 -0.4048202
0.02220184 0.024414007 0 0 0.25019264 -0.4048202
0.021472892 0.024412246 5.5511151e-17 0 0.25019264 -0.4048202
0.020744046 0.024410546 0 0 0.25019264 -0.4048202
0.020015299 0.024408905 0 0 0.25019264 -0.4048202
0.019286649 0.024407322 0 0 0.25019264 -0.4048202
0.018558089 0.024405796 5.5511151e-17 0 0.25019264 -0.4048202
0.017829616 0.024404332 0 0 0.25019264 -0.4048202
0.017101228 0.024402924 0 0 0.25019264 -0.4048202
0.016372921 0.024401577 5.5511151e-17 0 0.25019264 -0.4048202
0.015644692 0.024400286 0 0 0.25019264 -0.4048202
0.014916537 0.024399057 0 0 0.25019264 -0.4048202
0.014188454 0.024397884 5.5511151e-17 0 0.25019264 -0.4048202
0.013460437 0.024396772 0 0 0.25019264 -0.4048202
0.012732483 0.024395717 0 0 0.25019264 -0.4048202
0.012004591 0.024394721 0 0 0.25019264 -0.4048202
0.011276755 0.024393784 5.5511151e-17 0 0.25019264 -0.4048202
0.010548973 0.024392905 5.5511151e-17 0 0.25019264 -0.4048202
0.0098212399 0.024392085 0 0 0.25019264 -0.4048202
0.0090935547 0.024391323 0 0 0.25019264 -0.4048202
0.0083659114 0.024390621 0 0 0.25019264 -0.4048202
0.0076383082 0.024389977 0 0 0.25019264 -0.4048202
0.0069107413 0.02438939 5.5511151e-17 0 0.25019264 -0.4048202
0.006183207 0.024388863 0 0 0.25019264 -0.4048202
0.0054557021 0.024388395 0 0 0.25019264 -0.4048202
0.0051954151 0.0020763869 0.039999999 0 0.25019264 -0.4048202
0.0043960786 0.0020760009 0.039999999 0 0.25019264 -0.4048202
0.0035967634 0.0020756791 0.039999999 0 0.25019264 -0.4048202
0.0025459058 0.024387106 5.5511151e-17 0 0.25019264 -0.4048202
0.0018184956 0.024386931 0 0 0.25019264 -0.4048202
0.0011989041 0.0020751003 0.039999999 0 0.25019264 -0.4048202
0.00039963407 0.0020750358 0.039999999 0 0.25019264 -0.4048202
0.039773982 0.023636589 5.5511151e-17 0 0.25019264 -0.4048202
0.039999999 0.018067395 0.0099456487 0 0.25019264 -0.4048202
0.038307887 0.023630498 0 0 0.25019264 -0.4048202
0.037575115 0.023627538 5.5511151e-17 0 0.25019264 -0.4048202
0.036842521 0.023624636 5.5511151e-17 0 0.25019264 -0.4048202
0.036110103 0.023621792 0 0 0.25019264 -0.4048202
0.03537786 0.023619005 5.5511151e-17 0 0.25019264 -0.4048202
0.034645785 0.023616277 0 0 0.25019264 -0.4048202
0.033913873 0.023613604 0 0 0.25019264 -0.4048202
0.036460824 0.0012226175 0.039999999 0 0.25019264 -0.4048202
0.032450531 0.023608433 5.5511151e-17 0 0.25019264 -0.4048202
0.031719096 0.023605932 0 0 0.25019264 -0.4048202
0.03098781 0.02360349 0 0 0.25019264 -0.4048202
0.030256674 0.023601104 0 0 0.25019264 -0.4048202
0.029525679 0.023598775 0 0 0.25019264 -0.4048202
0.028794827 0.023596505 0 0 0.25019264 -0.4048202
0.028064109 0.02359429 0 0 0.25019264 -0.4048202
0.027333528 0.023592133 0 0 0.25019264 -0.4048202
0.026603075 0.023590034 0 0 0.25019264 -0.4048202
0.02587275 0.023587991 0 0 0.25019264 -0.4048202
0.025142547 0.023586005 0 0 0.25019264 -0.4048202
0.024412462 0.023584075 0 0 0.25019264 -0.4048202
0.026022546 0.0011909868 0.039999999 0 0.25019264 -0.4048202
0.022952642 0.023580389 0 0 0.25019264 -0.4048202
0.022222895 0.023578631 0 0 0.25019264 -0.4048202
0.021493256 0.02357693 0 0 0.25019264 -0.4048202
0.022815367 0.001183385 0.039999999 0 0.25019264 -0.4048202
0.02003428 0.023573698 0 0 0.25019264 -0.4048202
0.019304935 0.023572167 0 0 0.25019264 -0.4048202
0.018575683 0.023570694 0 0 0.25019264 -0.4048202
0.017846519 0.023569277 0 0 0.25019264 -0.4048202
0.018808803 0.0011752889 0.039999999 0 0.25019264 -0.4048202
0.016388442 0.023566615 0 0 0.25019264 -0.4048202
0.015659522 0.023565367 5.5511151e-17 0 0.25019264 -0.4048202
0.014930677 0.023564178 0 0 0.25019264 -0.4048202
0.014201902 0.023563046 5.5511151e-17 0 0.25019264 -0.4048202
0.013473194 0.023561969 5.5511151e-17 0 0.25019264 -0.4048202
0.012744551 0.023560949 0 0 0.25019264 -0.4048202
0.012015968 0.023559988 5.5511151e-17 0 0.25019264 -0.4048202
0.011287441 0.02355908 0 0 0.25019264 -0.4048202
0.010558969 0.023558231 0 0 0.25019264 -0.4048202
0.0098305466 0.023557438 0 0 0.25019264 -0.4048202
0.0091021713 0.023556702 0 0 0.25019264 -0.4048202
0.0083738388 0.023556024 0 0 0.25019264 -0.4048202
0.0076455455 0.0235554 5.5511151e-17 0 0.25019264 -0.4048202
0.006917289 0.023554834 0 0 0.25019264 -0.4048202
0.0068006027 0.0011603532 0.039999999 0 0.25019264 -0.4048202
0.0054608709 0.023553872 5.5511151e-17 0 0.25019264 -0.4048202
0.0047327024 0.023553476 0 0 0.25019264 -0.4048202
0.0040045562 0.023553137 0 0 0.25019264 -0.4048202
0.0032764294 0.023552854 0 0 0.25019264 -0.4048202
0.0025483179 0.023552626 0 0 0.25019264 -0.4048202
0.002000073 0.0011583007 0.039999999 0 0.25019264 -0.4048202
0.0010921275 0.023552343 0 0 0.25019264 -0.4048202
0.00040001268 0.0011581141 0.039999999 0 0.25019264 -0.4048202
0.039811831 0.022797735 0 0 0.25019264 -0.4048202
0.039999999 0.017429499 0.0095514068 0 0.25019264 -0.4048202
0.038344327 0.022791855 0 0 0.25019264 -0.4048202
0.037610855 0.022789 0 0 0.25019264 -0.4048202
0.036877561 0.022786198 5.5511151e-17 0 0.25019264 -0.4048202
0.036144443 0.022783453 0 0 0.25019264 -0.4048202
0.035411499 0.022780761 0 0 0.25019264 -0.4048202
0.038105302 0.00030745936 0.039999999 0 0.25019264 -0.4048202
0.033946112 0.022775548 0 0 0.25019264 -0.4048202
0.036495481 0.00030185119 0.039999999 0 0.25019264 -0.4048202
0.032481372 0.022770554 5.5511151e-17 0 0.25019264 -0.4048202
0.031749237 0.02276814 0 0 0.25019264 -0.4048202
0.031017255 0.022765782 0 0 0.25019264 -0.4048202
0.03028542 0.022763478 5.5511151e-17 0 0.25019264 -0.4048202
0.032473914 0.00028889402 0.039999999 0 0.25019264 -0.4048202
0.02882218 0.022759037 5.5511151e-17 0 0.25019264 -0.4048202
0.028090766 0.022756901 0 0 0.25019264 -0.4048202
0.027359487 0.022754818 0 0 0.25019264 -0.4048202
0.02662834 0.02275279 0 0 0.25019264 -0.4048202
0.025897318 0.022750819 0 0 0.25019264 -0.4048202
0.02516642 0.022748901 0 0 0.25019264 -0.4048202
0.024435641 0.022747038 5.5511151e-17 0 0.25019264 -0.4048202
0.02370498 0.022745231 0 0 0.25019264 -0.4048202
0.02297443 0.02274348 5.5511151e-17 0 0.25019264 -0.4048202
0.02224399 0.022741782 0 0 0.25019264 -0.4048202
0.021513656 0.022740141 0 0 0.25019264 -0.4048202
0.020783424 0.022738554 0 0 0.25019264 -0.4048202
0.022034744 0.00026229146 0.039999999 0 0.25019264 -0.4048202
0.019323256 0.022735544 0 0 0.25019264 -0.4048202
0.018593309 0.02273412 0 0 0.25019264 -0.4048202
0.017863452 0.022732751 5.5511151e-17 0 0.25019264 -0.4048202
0.018826649 0.00025615908 0.039999999 0 0.25019264 -0.4048202
0.01640399 0.022730181 0 0 0.25019264 -0.4048202
0.015674379 0.022728978 0 0 0.25019264 -0.4048202
0.016421529 0.0002521924 0.039999999 0 0.25019264 -0.4048202
0.014215373 0.022726735 5.5511151e-17 0 0.25019264 -0.4048202
0.013485974 0.022725696 0 0 0.25019264 -0.4048202
0.014017113 0.00024876746 0.039999999 0 0.25019264 -0.4048202
0.012027364 0.022723783 5.5511151e-17 0 0.25019264 -0.4048202
0.011298147 0.022722907 5.5511151e-17 0 0.25019264 -0.4048202
0.010568983 0.022722088 0 0 0.25019264 -0.4048202
0.0098398691 0.022721322 0 0 0.25019264 -0.4048202
0.010011035 0.00024426216 0.039999999 0 0.25019264 -0.4048202
0.0083817793 0.022719957 0 0 0.25019264 -0.4048202
0.0084089627 0.00024288081 0.039999999 0 0.25019264 -0.4048202
0.0069238483 0.022718808 0 0 0.25019264 -0.4048202
0.0061949338 0.022718316 0 0 0.25019264 -0.4048202
0.0054660491 0.02271788 5.5511151e-17 0 0.25019264 -0.4048202
0.00473719 0.022717496 0 0 0.25019264 -0.4048202
0.0040083532 0.022717169 0 0 0.25019264 -0.4048202
0.003279536 0.022716897 5.5511151e-17 0 0.25019264 -0.4048202
0.002550734 0.022716677 5.5511151e-17 0 0.25019264 -0.4048202
0.0018219443 0.022716513 5.5511151e-17 0 0.25019264 -0.4048202
0.001093163 0.022716405 5.5511151e-17 0 0.25019264 -0.4048202
0.00040039196 0.00023957808 0.039999999 0 0.25019264 -0.4048202
0.039999999 0.021096822 0.0015263995 0 0.25019264 -0.4048202
0.039115194 0.021954535 0 0 0.25019264 -0.4048202
0.038380835 0.021951728 0 0 0.25019264 -0.4048202
0.039999999 0.0076811737 0.025305822 0 0.25019264 -0.4048202
0.036912661 0.021946272 0 0 0.25019264 -0.4048202
0.036178842 0.021943625 0 0 0.25019264 -0.4048202
0.03885242 0 0.038913958 0 0.25019264 -0.4048202
0.034711719 0.021938492 5.5511151e-17 0 0.25019264 -0.4048202
0.033978406 0.021936005 0 0 0.25019264 -0.4048202
0.033245258 0.021933571 5.5511151e-17 0 0.25019264 -0.4048202
0.03251227 0.02193119 0 0 0.25019264 -0.4048202
0.034832425 0 0.038890302 0 0.25019264 -0.4048202
0.031046752 0.021926589 0 0 0.25019264 -0.4048202
0.030314218 0.021924369 5.5511151e-17 0 0.25019264 -0.4048202
0.029581828 0.021922203 0 0 0.25019264 -0.4048202
0.028849581 0.021920089 0 0 0.25019264 -0.4048202
0.02811747 0.021918029 5.5511151e-17 0 0.25019264 -0.4048202
0.027385494 0.021916021 5.5511151e-17 0 0.25019264 -0.4048202
0.02921232 0 0.038861539 0 0.25019264 -0.4048202
0.02592193 0.021912165 0 0 0.25019264 -0.4048202
0.025190335 0.021910315 0 0 0.25019264 -0.4048202
0.024458859 0.021908522 5.5511151e-17 0 0.25019264 -0.4048202
0.023727503 0.021906778 0 0 0.25019264 -0.4048202
0.022996256 0.021905089 5.5511151e-17 0 0.25019264 -0.4048202
0.022265121 0.021903453 0 0 0.25019264 -0.4048202
0.021534093 0.02190187 5.5511151e-17 0 0.25019264 -0.4048202
0.020803167 0.021900339 5.5511151e-17 0 0.25019264 -0.4048202
0.020072339 0.021898862 0 0 0.25019264 -0.4048202
0.021196799 0 0.038829226 0 0.25019264 -0.4048202
0.018610967 0.021896066 0 0 0.25019264 -0.4048202
0.017880416 0.021894747 0 0 0.25019264 -0.4048202
0.017149949 0.021893483 0 0 0.25019264 -0.4048202
0.016419565 0.02189227 0 0 0.25019264 -0.4048202
0.015689259 0.02189111 5.5511151e-17 0 0.25019264 -0.4048202
0.014959029 0.021890001 0 0 0.25019264 -0.4048202
0.014228868 0.021888947 0 0 0.25019264 -0.4048202
0.013498777 0.021887947 5.5511151e-17 0 0.25019264 -0.4048202
0.012768748 0.021886997 0 0 0.25019264 -0.4048202
0.012038781 0.021886101 0 0 0.25019264 -0.4048202
0.011308871 0.021885257 0 0 0.25019264 -0.4048202
0.011593066 0 0.038804021 0 0.25019264 -0.4048202
0.01079327 0 0.038802586 0 0.25019264 -0.4048202
0.0099935317 0 0.038801257 0 0.25019264 -0.4048202
0.0083897347 0.021882413 0 0 0.25019264 -0.4048202
0.0076600588 0.021881832 5.5511151e-17 0 0.25019264 -0.4048202
0.0075946292 0 0.038797878 0 0.25019264 -0.4048202
0.0062008132 0.021880832 5.5511151e-17 0 0.25019264 -0.4048202
0.0054712361 0.021880411 5.5511151e-17 0 0.25019264 -0.4048202
0.0047416855 0.021880042 0 0 0.25019264 -0.4048202
0.0040121572 0.021879725 0 0 0.25019264 -0.4048202
0.003282648 0.021879461 0 0 0.25019264 -0.4048202
0.0025531545 0.02187925 0 0 0.25019264 -0.4048202
0.0018236731 0.021879094 0 0 0.25019264 -0.4048202
0.0010942004 0.021878988 0 0 0.25019264 -0.4048202
0.0003647329 0.021878935 0 0 0.25019264 -0.4048202
0.039887726 0.02111556 5.5511151e-17 0 0.25019264 -0.4048202
0.039152473 0.021112805 0 0 0.25019264 -0.4048202
0.038417406 0.021110103 0 0 0.25019264 -0.4048202
0.037682526 0.021107452 0 0 0.25019264 -0.4048202
0.036947828 0.021104852 0 0 0.25019264 -0.4048202
0.039549038 0 0.037289392 0 0.25019264 -0.4048202
0.035478953 0.021099808 0 0 0.25019264 -0.4048202
0.034744777 0.021097362 0 0 0.25019264 -0.4048202
0.03401076 0.021094969 0 0 0.25019264 -0.4048202
0.033276912 0.021092625 0 0 0.25019264 -0.4048202
0.03254322 0.021090334 0 0 0.25019264 -0.4048202
0.034737632 0 0.037261974 0 0.25019264 -0.4048202
0.031076303 0.021085907 0 0 0.25019264 -0.4048202
0.030343069 0.02108377 0 0 0.25019264 -0.4048202
0.029609978 0.021081684 0 0 0.25019264 -0.4048202
0.028877031 0.021079648 5.5511151e-17 0 0.25019264 -0.4048202
0.028144222 0.021077665 0 0 0.25019264 -0.4048202
0.027411547 0.021075733 5.5511151e-17 0 0.25019264 -0.4048202
0.026679002 0.021073852 0 0 0.25019264 -0.4048202
0.025946585 0.021072021 0 0 0.25019264 -0.4048202
0.025214292 0.021070242 0 0 0.25019264 -0.4048202
0.02448212 0.021068513 0 0 0.25019264 -0.4048202
0.023750065 0.021066837 0 0 0.25019264 -0.4048202
0.023018124 0.021065211 0 0 0.25019264 -0.4048202
0.02228629 0.021063637 0 0 0.25019264 -0.4048202
0.021554565 0.021062111 0 0 0.25019264 -0.4048202
0.020822942 0.02106064 0 0 0.25019264 -0.4048202
0.021937983 0 0.037206255 0 0.25019264 -0.4048202
0.019359991 0.021057846 0 0 0.25019264 -0.4048202
0.018628655 0.021056525 5.5511151e-17 0 0.25019264 -0.4048202
0.01789741 0.021055257 0 0 0.25019264 -0.4048202
0.017166248 0.021054039 0 0 0.25019264 -0.4048202
0.017945198 0 0.037194014 0 0.25019264 -0.4048202
0.015704168 0.021051753 5.5511151e-17 0 0.25019264 -0.4048202
0.014973243 0.021050688 5.5511151e-17 0 0.25019264 -0.4048202
0.015550732 0 0.037187845 0 0.25019264 -0.4048202
0.013511602 0.02104871 0 0 0.25019264 -0.4048202
0.01395485 0 0.037184224 0 0.25019264 -0.4048202
0.012050218 0.021046933 5.5511151e-17 0 0.25019264 -0.4048202
0.011319614 0.021046121 0 0 0.25019264 -0.4048202
0.010589064 0.021045361 0 0 0.25019264 -0.4048202
0.0098585645 0.021044651 0 0 0.25019264 -0.4048202
0.0091281123 0.021043992 0 0 0.25019264 -0.4048202
0.0083977031 0.021043383 0 0 0.25019264 -0.4048202
0.0083714258 0 0.037174635 0 0.25019264 -0.4048202
0.0069370018 0.021042317 0 0 0.25019264 -0.4048202
0.0062067024 0.021041861 0 0 0.25019264 -0.4048202
0.0054764324 0.021041455 0 0 0.25019264 -0.4048202
0.0047461889 0.021041101 5.5511151e-17 0 0.25019264 -0.4048202
0.0043847151 0 0.037170723 0 0.25019264 -0.4048202
0.0032857656 0.021040542 5.5511151e-17 0 0.25019264 -0.4048202
0.0025555792 0.021040339 0 0 0.25019264 -0.4048202
0.0018254051 0.021040188 0 0 0.25019264 -0.4048202
0.0011958011 0 0.037169352 0 0.25019264 -0.4048202
0.00036507926 0.021040035 5.5511151e-17 0 0.25019264 -0.4048202
0.039925773 0.02027222 5.5511151e-17 0 0.25019264 -0.4048202
0.039999999 0.015516297 0.0083689829 0 0.25019264 -0.4048202
0.038454045 0.020266976 0 0 0.25019264 -0.4048202
0.03771846 0.020264428 0 0 0.25019264 -0.4048202
0.036983054 0.02026193 0 0 0.25019264 -0.4048202
0.036247827 0.020259481 5.5511151e-17 0 0.25019264 -0.4048202
0.035512771 0.020257082 5.5511151e-17 0 0.25019264 -0.4048202
0.034777891 0.020254733 0 0 0.25019264 -0.4048202
0.037041593 0 0.035655331 0 0.25019264 -0.4048202
0.033308621 0.020250181 0 0 0.25019264 -0.4048202
0.032574225 0.020247979 0 0 0.25019264 -0.4048202
0.031839989 0.020245828 0 0 0.25019264 -0.4048202
0.033844337 0 0.035638649 0 0.25019264 -0.4048202
0.03037197 0.02024167 0 0 0.25019264 -0.4048202
0.032246828 0 0.035630874 0 0.25019264 -0.4048202
0.028904529 0.02023771 0 0 0.25019264 -0.4048202
0.02817102 0.020235803 0 0 0.25019264 -0.4048202
0.027437644 0.020233946 0 0 0.25019264 -0.4048202
0.026704401 0.020232139 5.5511151e-17 0 0.25019264 -0.4048202
0.025971284 0.020230381 0 0 0.25019264 -0.4048202
0.025238292 0.020228671 0 0 0.25019264 -0.4048202
0.024505422 0.020227009 0 0 0.25019264 -0.4048202
0.023772668 0.020225398 0 0 0.25019264 -0.4048202
0.023040028 0.020223835 0 0 0.25019264 -0.4048202
0.022307498 0.020222323 0 0 0.25019264 -0.4048202
0.021575075 0.020220857 0 0 0.25019264 -0.4048202
0.020842753 0.020219442 0 0 0.25019264 -0.4048202
0.020110533 0.020218076 0 0 0.25019264 -0.4048202
0.021081928 0 0.035587002 0 0.25019264 -0.4048202
0.020285433 0 0.035584573 0 0.25019264 -0.4048202
0.017914433 0.020214269 0 0 0.25019264 -0.4048202
0.017182576 0.020213099 0 0 0.25019264 -0.4048202
0.0164508 0.020211976 5.5511151e-17 0 0.25019264 -0.4048202
0.017100506 0 0.035575792 0 0.25019264 -0.4048202
0.014987482 0.020209879 0 0 0.25019264 -0.4048202
0.014255932 0.020208905 0 0 0.25019264 -0.4048202
0.014712797 0 0.035570189 0 0.25019264 -0.4048202
0.01391706 0 0.035568509 0 0.25019264 -0.4048202
0.012061675 0.020206271 0 0 0.25019264 -0.4048202
0.011330376 0.02020549 0 0 0.25019264 -0.4048202
0.010599132 0.02020476 0 0 0.25019264 -0.4048202
0.0098679373 0.020204077 5.5511151e-17 0 0.25019264 -0.4048202
0.0091367904 0.020203443 5.5511151e-17 0 0.25019264 -0.4048202
0.0084056864 0.020202858 0 0 0.25019264 -0.4048202
0.0076746228 0.020202322 0 0 0.25019264 -0.4048202
0.0069435961 0.020201836 0 0 0.25019264 -0.4048202
0.0062126024 0.020201396 0 0 0.25019264 -0.4048202
0.0054816385 0.020201007 0 0 0.25019264 -0.4048202
0.0047507002 0.020200666 0 0 0.25019264 -0.4048202
0.0043728454 0 0.035555627 0 0.25019264 -0.4048202
0.0032888888 0.02020013 0 0 0.25019264 -0.4048202
0.0025580083 0.020199934 5.5511151e-17 0 0.25019264 -0.4048202
0.0018271401 0.020199789 0 0 0.25019264 -0.4048202
0.0010962806 0.020199692 0 0 0.25019264 -0.4048202
0.00036542627 0.020199642 5.5511151e-17 0 0.25019264 -0.4048202
0.03996389 0.019427367 5.5511151e-17 0 0.25019264 -0.4048202
0.038490746 0.019422337 0 0 0.25019264 -0.4048202
0.037754454 0.019419894 0 0 0.25019264 -0.4048202
0.037018344 0.019417496 5.5511151e-17 0 0.25019264 -0.4048202
0.039334826 0 0.034057241 0 0.25019264 -0.4048202
0.038536783 0 0.034052864 0 0.25019264 -0.4048202
0.034811065 0.019410593 5.5511151e-17 0 0.25019264 -0.4048202
0.034075644 0.019408386 0 0 0.25019264 -0.4048202
0.033340387 0.019406227 0 0 0.25019264 -0.4048202
0.032605287 0.019404115 0 0 0.25019264 -0.4048202
0.031870347 0.019402049 0 0 0.25019264 -0.4048202
0.031135559 0.019400032 5.5511151e-17 0 0.25019264 -0.4048202
0.030400921 0.019398063 5.5511151e-17 0 0.25019264 -0.4048202
0.029666429 0.019396139 0 0 0.25019264 -0.4048202
0.028932078 0.019394264 5.5511151e-17 0 0.25019264 -0.4048202
0.028197866 0.019392436 0 0 0.25019264 -0.4048202
0.02746379 0.019390654 0 0 0.25019264 -0.4048202
0.028975315 0 0.034007367 0 0.25019264 -0.4048202
0.025996029 0.019387232 0 0 0.25019264 -0.4048202
0.025262337 0.019385593 0 0 0.25019264 -0.4048202
0.024528764 0.019384 0 0 0.25019264 -0.4048202
0.02379531 0.019382454 5.5511151e-17 0 0.25019264 -0.4048202
0.023061972 0.019380955 0 0 0.25019264 -0.4048202
0.022328742 0.019379504 0 0 0.25019264 -0.4048202
0.02159562 0.0193781 0 0 0.25019264 -0.4048202
0.0208626 0.019376742 0 0 0.25019264 -0.4048202
0.020129681 0.01937543 0 0 0.25019264 -0.4048202
0.021024968 0 0.033979319 0 0.25019264 -0.4048202
0.018664127 0.019372949 0 0 0.25019264 -0.4048202
0.017931487 0.01937178 0 0 0.25019264 -0.4048202
0.017198931 0.019370656 0 0 0.25019264 -0.4048202
0.016466459 0.01936958 5.5511151e-17 0 0.25019264 -0.4048202
0.017054318 0 0.033968642 0 0.25019264 -0.4048202
0.015001747 0.019367568 0 0 0.25019264 -0.4048202
0.015466731 0 0.033964995 0 0.25019264 -0.4048202
0.01353732 0.019365745 0 0 0.25019264 -0.4048202
0.012805207 0.019364903 0 0 0.25019264 -0.4048202
0.012073154 0.019364107 0 0 0.25019264 -0.4048202
0.011341158 0.019363359 0 0 0.25019264 -0.4048202
0.010609217 0.019362656 5.5511151e-17 0 0.25019264 -0.4048202
0.0098773269 0.019362003 0 0 0.25019264 -0.4048202
0.0099125775 0 0.033955038 0 0.25019264 -0.4048202
0.0091193747 0 0.033953972 0 0.25019264 -0.4048202
0.0076819248 0.019360319 0 0 0.25019264 -0.4048202
0.0069502024 0.019359851 5.5511151e-17 0 0.25019264 -0.4048202
0.006218513 0.01935943 5.5511151e-17 0 0.25019264 -0.4048202
0.0054868534 0.019359058 0 0 0.25019264 -0.4048202
0.0047552199 0.01935873 0 0 0.25019264 -0.4048202
0.0040236092 0.019358449 0 0 0.25019264 -0.4048202
0.0032920176 0.019358216 0 0 0.25019264 -0.4048202
0.0025604418 0.01935803 0 0 0.25019264 -0.4048202
0.0019822486 0 0.033948373 0 0.25019264 -0.4048202
0.0010973235 0.019357795 0 0 0.25019264 -0.4048202
0.00036577391 0.019357748 0 0 0.25019264 -0.4048202
0.039264701 0.018578563 0 0 0.25019264 -0.4048202
0.038527515 0.018576179 5.5511151e-17 0 0.25019264 -0.4048202
0.037790515 0.018573839 0 0 0.25019264 -0.4048202
0.037053697 0.018571544 0 0 0.25019264 -0.4048202
0.036317058 0.018569296 5.5511151e-17 0 0.25019264 -0.4048202
0.03558059 0.018567093 5.5511151e-17 0 0.25019264 -0.4048202
0.034844298 0.018564934 0 0 0.25019264 -0.4048202
0.036841601 0 0.032442309 0 0.25019264 -0.4048202
0.033372208 0.018560756 0 0 0.25019264 -0.4048202
0.035251267 0 0.03243459 0 0.25019264 -0.4048202
0.03190076 0.018556757 0 0 0.25019264 -0.4048202
0.033661693 0 0.03242721 0 0.25019264 -0.4048202
0.030429926 0.018552938 5.5511151e-17 0 0.25019264 -0.4048202
0.02969473 0.018551098 0 0 0.25019264 -0.4048202
0.031278681 0 0.032416787 0 0.25019264 -0.4048202
0.028224763 0.018547552 5.5511151e-17 0 0.25019264 -0.4048202
0.027489983 0.018545847 0 0 0.25019264 -0.4048202
0.026755335 0.018544186 0 0 0.25019264 -0.4048202
0.028103668 0 0.032404084 0 0.25019264 -0.4048202
0.025286423 0.018541001 0 0 0.25019264 -0.4048202
0.02455215 0.018539477 0 0 0.25019264 -0.4048202
0.025724014 0 0.032395449 0 0.25019264 -0.4048202
0.023083955 0.018536562 5.5511151e-17 0 0.25019264 -0.4048202
0.022350024 0.018535173 0 0 0.25019264 -0.4048202
0.023345603 0 0.032387577 0 0.25019264 -0.4048202
0.020882484 0.018532528 5.5511151e-17 0 0.25019264 -0.4048202
0.021760631 0 0.032382756 0 0.25019264 -0.4048202
0.019415341 0.018530061 0 0 0.25019264 -0.4048202
0.018681912 0.018528897 5.5511151e-17 0 0.25019264 -0.4048202
0.017948572 0.018527778 0 0 0.25019264 -0.4048202
0.017215317 0.018526701 0 0 0.25019264 -0.4048202
0.016482146 0.018525671 0 0 0.25019264 -0.4048202
0.015749054 0.018524686 0 0 0.25019264 -0.4048202
0.015016037 0.018523745 0 0 0.25019264 -0.4048202
0.014283092 0.018522849 0 0 0.25019264 -0.4048202
0.013550214 0.018522 0 0 0.25019264 -0.4048202
0.013842102 0 0.032363735 0 0.25019264 -0.4048202
0.012084652 0.018520432 5.5511151e-17 0 0.25019264 -0.4048202
0.011351959 0.018519716 0 0 0.25019264 -0.4048202
0.010619321 0.018519044 0 0 0.25019264 -0.4048202
0.0098867323 0.018518418 0 0 0.25019264 -0.4048202
0.0091541922 0.018517835 0 0 0.25019264 -0.4048202
0.0090948232 0 0.032356385 0 0.25019264 -0.4048202
0.0076892395 0.018516807 0 0 0.25019264 -0.4048202
0.007512833 0 0.032354612 0 0.25019264 -0.4048202
0.0062244339 0.018515956 0 0 0.25019264 -0.4048202
0.0054920777 0.018515598 0 0 0.25019264 -0.4048202
0.0047597475 0.018515285 0 0 0.25019264 -0.4048202
0.0040274402 0.018515015 5.5511151e-17 0 0.25019264 -0.4048202
0.003295152 0.018514792 5.5511151e-17 0 0.25019264 -0.4048202
0.0027676928 0 0.032351319 0 0.25019264 -0.4048202
0.0019769128 0 0.032351065 0 0.25019264 -0.4048202
0.0010983682 0.018514389 0 0 0.25019264 -0.4048202
0.00036612214 0.018514344 5.5511151e-17 0 0.25019264 -0.4048202
0.039302249 0.017730771 0 0 0.25019264 -0.4048202
0.03856435 0.017728491 5.5511151e-17 0 0.25019264 -0.4048202
0.037826642 0.017726256 0 0 0.25019264 -0.4048202
0.037089113 0.017724065 0 0 0.25019264 -0.4048202
0.039122965 0 0.030860618 0 0.25019264 -0.4048202
0.035614591 0.017719813 0 0 0.25019264 -0.4048202
0.037535738 0 0.030852811 0 0.25019264 -0.4048202
0.034140758 0.017715733 0 0 0.25019264 -0.4048202
0.03340409 0.017713757 0 0 0.25019264 -0.4048202
0.032667581 0.017711826 0 0 0.25019264 -0.4048202
0.031931229 0.017709939 0 0 0.25019264 -0.4048202
0.03357112 0 0.030834712 0 0.25019264 -0.4048202
0.030458983 0.017706292 0 0 0.25019264 -0.4048202
0.029723082 0.017704533 0 0 0.25019264 -0.4048202
0.031194549 0 0.030824827 0 0.25019264 -0.4048202
0.028251706 0.017701145 0 0 0.25019264 -0.4048202
0.027516222 0.017699517 0 0 0.25019264 -0.4048202
0.026780872 0.01769793 0 0 0.25019264 -0.4048202
0.02604565 0.017696388 0 0 0.25019264 -0.4048202
0.025310554 0.017694889 0 0 0.25019264 -0.4048202
0.024575578 0.01769343 0 0 0.25019264 -0.4048202
0.02384072 0.017692016 0 0 0.25019264 -0.4048202
0.024864068 0 0.030802021 0 0.25019264 -0.4048202
0.022371346 0.017689319 0 0 0.25019264 -0.4048202
0.023282867 0 0.030797128 0 0.25019264 -0.4048202
0.020902401 0.017686792 5.5511151e-17 0 0.25019264 -0.4048202
0.021702161 0 0.030792555 0 0.25019264 -0.4048202
0.019433858 0.017684437 0 0 0.25019264 -0.4048202
0.018699728 0.017683325 0 0 0.25019264 -0.4048202
0.017965687 0.017682254 0 0 0.25019264 -0.4048202
0.017231733 0.017681228 0 0 0.25019264 -0.4048202
0.016497862 0.017680243 5.5511151e-17 0 0.25019264 -0.4048202
0.015764069 0.017679302 0 0 0.25019264 -0.4048202
0.015030352 0.017678404 0 0 0.25019264 -0.4048202
0.014296708 0.017677547 0 0 0.25019264 -0.4048202
0.014594252 0 0.030775959 0 0.25019264 -0.4048202
0.013804931 0 0.030774517 0 0.25019264 -0.4048202
0.013015684 0 0.030773154 0 0.25019264 -0.4048202
0.011362779 0.017674554 0 0 0.25019264 -0.4048202
0.010629443 0.017673913 0 0 0.25019264 -0.4048202
0.010648342 0 0.030769549 0 0.25019264 -0.4048202
0.0091629168 0.017672759 0 0 0.25019264 -0.4048202
0.0090704067 0 0.030767547 0 0.25019264 -0.4048202
0.0082815131 0 0.030766666 0 0.25019264 -0.4048202
0.00696345 0.017671347 0 0 0.25019264 -0.4048202
0.0062303655 0.017670963 0 0 0.25019264 -0.4048202
0.0054973112 0.01767062 0 0 0.25019264 -0.4048202
0.0047642831 0.01767032 0 0 0.25019264 -0.4048202
0.0040312777 0.017670065 0 0 0.25019264 -0.4048202
0.0032982919 0.017669851 0 0 0.25019264 -0.4048202
0.0027602634 0 0.030762741 0 0.25019264 -0.4048202
0.0018323639 0.017669551 0 0 0.25019264 -0.4048202
0.0010994149 0.017669465 5.5511151e-17 0 0.25019264 -0.4048202
0.00036647104 0.017669423 0 0 0.25019264 -0.4048202
0.039339859 0.01688144 0 0 0.25019264 -0.4048202
0.038601253 0.016879268 5.5511151e-17 0 0.25019264 -0.4048202
0.037862834 0.016877139 0 0 0.25019264 -0.4048202
0.037124597 0.016875049 0 0 0.25019264 -0.4048202
0.036386538 0.016873002 0 0 0.25019264 -0.4048202
0.035648655 0.016870996 0 0 0.25019264 -0.4048202
0.034910943 0.016869033 0 0 0.25019264 -0.4048202
0.034173403 0.016867109 0 0 0.25019264 -0.4048202
0.035852827 0 0.029260963 0 0.25019264 -0.4048202
0.03269881 0.016863387 0 0 0.25019264 -0.4048202
0.03196175 0.016861588 0 0 0.25019264 -0.4048202
0.031224847 0.016859829 0 0 0.25019264 -0.4048202
0.030488092 0.016858112 0 0 0.25019264 -0.4048202
0.029751485 0.016856436 5.5511151e-17 0 0.25019264 -0.4048202
0.029015021 0.0168548 5.5511151e-17 0 0.25019264 -0.4048202
0.028278697 0.016853208 0 0 0.25019264 -0.4048202
0.027542509 0.016851654 0 0 0.25019264 -0.4048202
0.026806453 0.016850144 0 0 0.25019264 -0.4048202
0.026070528 0.016848672 0 0 0.25019264 -0.4048202
0.025334727 0.016847244 5.5511151e-17 0 0.25019264 -0.4048202
0.024599047 0.016845856 0 0 0.25019264 -0.4048202
0.023863487 0.016844507 0 0 0.25019264 -0.4048202
0.024797427 0 0.029219992 0 0.25019264 -0.4048202
0.022392705 0.016841937 0 0 0.25019264 -0.4048202
0.021657478 0.016840711 0 0 0.25019264 -0.4048202
0.022432182 0 0.02921316 0 0.25019264 -0.4048202
0.020187333 0.016838387 5.5511151e-17 0 0.25019264 -0.4048202
0.019452408 0.016837284 0 0 0.25019264 -0.4048202
0.018717576 0.016836224 5.5511151e-17 0 0.25019264 -0.4048202
0.017982833 0.016835205 0 0 0.25019264 -0.4048202
0.017248178 0.016834226 0 0 0.25019264 -0.4048202
0.016513605 0.016833287 0 0 0.25019264 -0.4048202
