# .PCD v0.7 - Point Cloud Data file format
VERSION 0.7
FIELDS x y z vp_x vp_y vp_z
SIZE 4 4 4 4 4 4
TYPE F F F F F F
COUNT 1 1 1 1 1 1
WIDTH 820
HEIGHT 1
VIEWPOINT 0 0 0 1 0 0 0
POINTS 820
DATA ascii
0.0097439578 0.077001348 0.07 0 0.25019264 0.4048202
0.009164433 0.076787345 0.069588743 0 0.25019264 0.4048202
0.0085914163 0.076413281 0.068867899 0 0.25019264 0.4048202
0.0080187209 0.075977907 0.068028398 0 0.25019264 0.4048202
0.0074431957 0.075540386 0.067184597 0 0.25019264 0.4048202
0.0068661403 0.075066894 0.066271111 0 0.25019264 0.4048202
0.0062885326 0.074519768 0.065215141 0 0.25019264 0.4048202
0.0057073408 0.073969252 0.064152464 0 0.25019264 0.4048202
0.0051248334 0.073335759 0.062929228 0 0.25019264 0.4048202
0.0045394599 0.072646603 0.061598253 0 0.25019264 0.4048202
0.0039503542 0.07191503 0.06018512 0 0.25019264 0.4048202
0.0033589224 0.071042739 0.058499806 0 0.25019264 0.4048202
0.0027623144 0.070121452 0.056719638 0 0.25019264 0.4048202
0.0021619604 0.068989061 0.054531235 0 0.25019264 0.4048202
0.0015555528 0.067662559 0.051967423 0 0.25019264 0.4048202
0.0009417918 0.066007294 0.048767924 0 0.25019264 0.4048202
0.00031839206 0.063389346 0.043707285 0 0.25019264 0.4048202
0.038613964 0.067237139 0.049463544 0 0.25019264 0.4048202
0.037475973 0.069671936 0.054202795 0 0.25019264 0.4048202
0.036542598 0.07118798 0.057157207 0 0.25019264 0.4048202
0.035684306 0.072383203 0.059488207 0 0.25019264 0.4048202
0.034884527 0.07332474 0.061326228 0 0.25019264 0.4048202
0.034116726 0.074135885 0.062910751 0 0.25019264 0.4048202
0.033375487 0.07483799 0.064283289 0 0.25019264 0.4048202
0.0326529 0.075467311 0.065514222 0 0.25019264 0.4048202
0.031952638 0.075999655 0.066556633 0 0.25019264 0.4048202
0.031256855 0.076528594 0.067592219 0 0.25019264 0.4048202
0.03058611 0.076937422 0.068394348 0 0.25019264 0.4048202
0.029919734 0.07733836 0.069180973 0 0.25019264 0.4048202
0.029259492 0.077720493 0.069930881 0 0.25019264 0.4048202
0.028660318 0.077752106 0.07 0 0.25019264 0.4048202
0.028067315 0.077748202 0.07 0 0.25019264 0.4048202
0.027474441 0.07774438 0.07 0 0.25019264 0.4048202
0.026881695 0.077740639 0.07 0 0.25019264 0.4048202
0.026289072 0.077736981 0.07 0 0.25019264 0.4048202
0.025696572 0.077733405 0.07 0 0.25019264 0.4048202
0.025104189 0.077729911 0.07 0 0.25019264 0.4048202
0.024511922 0.077726498 0.07 0 0.25019264 0.4048202
0.023919769 0.077723168 0.07 0 0.25019264 0.4048202
0.023327725 0.077719919 0.07 0 0.25019264 0.4048202
0.022735789 0.077716753 0.07 0 0.25019264 0.4048202
0.022143958 0.077713668 0.07 0 0.25019264 0.4048202
0.021552231 0.077710666 0.07 0 0.25019264 0.4048202
0.020960601 0.077707745 0.07 0 0.25019264 0.4048202
0.020369068 0.077704899 0.07 0 0.25019264 0.4048202
0.01977763 0.077702142 0.07 0 0.25019264 0.4048202
0.019186281 0.077699468 0.07 0 0.25019264 0.4048202
0.018595021 0.077696867 0.07 0 0.25019264 0.4048202
0.018003847 0.077694356 0.07 0 0.25019264 0.4048202
0.017412758 0.07769192 0.07 0 0.25019264 0.4048202
0.016821746 0.077689573 0.07 0 0.25019264 0.4048202
0.016230812 0.077687301 0.07 0 0.25019264 0.4048202
0.015639953 0.07768511 0.07 0 0.25019264 0.4048202
0.015049167 0.077683002 0.07 0 0.25019264 0.4048202
0.01445845 0.077680975 0.07 0 0.25019264 0.4048202
0.013867799 0.077679031 0.07 0 0.25019264 0.4048202
0.013277212 0.077677168 0.07 0 0.25019264 0.4048202
0.012686686 0.07767538 0.07 0 0.25019264 0.4048202
0.012096218 0.077673681 0.07 0 0.25019264 0.4048202
0.011505806 0.077672064 0.07 0 0.25019264 0.4048202
0.010915447 0.077670522 0.07 0 0.25019264 0.4048202
0.010335731 0.077492066 0.069656506 0 0.25019264 0.4048202
0.0097641898 0.077148199 0.068991825 0 0.25019264 0.4048202
0.0091904243 0.076802984 0.068324395 0 0.25019264 0.4048202
0.0086156456 0.076431699 0.067606218 0 0.25019264 0.4048202
0.0080413902 0.07599514 0.066761225 0 0.25019264 0.4048202
0.0074642901 0.07555642 0.065911882 0 0.25019264 0.4048202
0.0068855095 0.075085238 0.064999394 0 0.25019264 0.4048202
0.0063063274 0.074536629 0.063936494 0 0.25019264 0.4048202
0.0057235411 0.073984601 0.062866822 0 0.25019264 0.4048202
0.0051393318 0.073352829 0.061642237 0 0.25019264 0.4048202
0.0045523518 0.072661787 0.060302485 0 0.25019264 0.4048202
0.0039615449 0.071931534 0.058886494 0 0.25019264 0.4048202
0.0033684841 0.071056835 0.057190035 0 0.25019264 0.4048202
0.002770168 0.070136264 0.055404391 0 0.25019264 0.4048202
0.0021681457 0.069000728 0.053201448 0 0.25019264 0.4048202
0.001560008 0.067673743 0.050626807 0 0.25019264 0.4048202
0.00094449706 0.066017039 0.047412168 0 0.25019264 0.4048202
0.00031931393 0.063394971 0.042323999 0 0.25019264 0.4048202
0.038857028 0.066627115 0.04689192 0 0.25019264 0.4048202
0.037658025 0.069328561 0.052169781 0 0.25019264 0.4048202
0.036697019 0.070960209 0.055361331 0 0.25019264 0.4048202
0.035822224 0.072220847 0.057829149 0 0.25019264 0.4048202
0.035018615 0.073166892 0.059683323 0 0.25019264 0.4048202
0.034240004 0.074019119 0.061354324 0 0.25019264 0.4048202
0.033495583 0.074724242 0.06273827 0 0.25019264 0.4048202
0.032765124 0.075381994 0.064029641 0 0.25019264 0.4048202
0.032062106 0.075916439 0.065080389 0 0.25019264 0.4048202
0.031363595 0.07644745 0.066124231 0 0.25019264 0.4048202
0.030686956 0.076876745 0.066969559 0 0.25019264 0.4048202
0.03001814 0.07727915 0.067762285 0 0.25019264 0.4048202
0.029353024 0.07767722 0.068546347 0 0.25019264 0.4048202
0.028707404 0.077975921 0.069136515 0 0.25019264 0.4048202
0.028064201 0.078273498 0.069724314 0 0.25019264 0.4048202
0.027448796 0.07841105 0.07 0 0.25019264 0.4048202
0.026856605 0.078407243 0.07 0 0.25019264 0.4048202
0.026264539 0.078403518 0.07 0 0.25019264 0.4048202
0.025672592 0.078399874 0.07 0 0.25019264 0.4048202
0.025080765 0.078396313 0.07 0 0.25019264 0.4048202
0.024489054 0.078392841 0.07 0 0.25019264 0.4048202
0.023897454 0.078389451 0.07 0 0.25019264 0.4048202
0.023305966 0.078386135 0.07 0 0.25019264 0.4048202
0.022714585 0.078382917 0.07 0 0.25019264 0.4048202
0.022123307 0.078379773 0.07 0 0.25019264 0.4048202
0.021532131 0.07837671 0.07 0 0.25019264 0.4048202
0.020941056 0.078373738 0.07 0 0.25019264 0.4048202
0.020350076 0.078370847 0.07 0 0.25019264 0.4048202
0.019759189 0.078368038 0.07 0 0.25019264 0.4048202
0.019168396 0.078365311 0.07 0 0.25019264 0.4048202
0.018577687 0.078362666 0.07 0 0.25019264 0.4048202
0.017987067 0.078360103 0.07 0 0.25019264 0.4048202
0.017396528 0.078357622 0.07 0 0.25019264 0.4048202
0.016806068 0.07835523 0.07 0 0.25019264 0.4048202
0.016215688 0.078352921 0.07 0 0.25019264 0.4048202
0.01562538 0.078350686 0.07 0 0.25019264 0.4048202
0.015035145 0.07834854 0.07 0 0.25019264 0.4048202
0.014444979 0.078346476 0.07 0 0.25019264 0.4048202
0.013854879 0.078344494 0.07 0 0.25019264 0.4048202
0.013264842 0.078342602 0.07 0 0.25019264 0.4048202
0.012674867 0.078340784 0.07 0 0.25019264 0.4048202
0.01208495 0.078339048 0.07 0 0.25019264 0.4048202
0.011512463 0.078077644 0.069493927 0 0.25019264 0.4048202
0.010938513 0.077812105 0.068979651 0 0.25019264 0.4048202
0.01036502 0.077509694 0.068393379 0 0.25019264 0.4048202
0.0097919125 0.077164873 0.067724347 0 0.25019264 0.4048202
0.0092165694 0.076818712 0.067052551 0 0.25019264 0.4048202
0.0086400164 0.076450229 0.066337094 0 0.25019264 0.4048202
0.0080641946 0.076012477 0.06548655 0 0.25019264 0.4048202
0.0074855099 0.07557255 0.064631626 0 0.25019264 0.4048202
0.0069049932 0.075103693 0.063720174 0 0.25019264 0.4048202
0.0063242279 0.074553579 0.062650278 0 0.25019264 0.4048202
0.0057398384 0.074000038 0.061573543 0 0.25019264 0.4048202
0.0051539158 0.073369995 0.060347628 0 0.25019264 0.4048202
0.0045653209 0.072677054 0.058999013 0 0.25019264 0.4048202
0.0039728018 0.071948141 0.057580169 0 0.25019264 0.4048202
0.003378103 0.071071021 0.055872459 0 0.25019264 0.4048202
0.0027780682 0.070151165 0.054081317 0 0.25019264 0.4048202
0.0021743681 0.069012471 0.051863696 0 0.25019264 0.4048202
0.00156449 0.067684993 0.049278155 0 0.25019264 0.4048202
0.00094721862 0.066026844 0.046048269 0 0.25019264 0.4048202
0.00032024135 0.063400626 0.040932339 0 0.25019264 0.4048202
0.039251193 0.065312289 0.042922873 0 0.25019264 0.4048202
0.037841901 0.068981744 0.050116401 0 0.25019264 0.4048202
0.036852788 0.070730455 0.053549759 0 0.25019264 0.4048202
0.035964616 0.072040498 0.056124143 0 0.25019264 0.4048202
0.035153769 0.073007777 0.058027327 0 0.25019264 0.4048202
0.034364205 0.073901474 0.059786215 0 0.25019264 0.4048202
0.033616576 0.07460963 0.061181709 0 0.25019264 0.4048202
0.032878153 0.075296067 0.062534444 0 0.25019264 0.4048202
0.032172352 0.075832628 0.063593619 0 0.25019264 0.4048202
0.031471092 0.076365732 0.064645804 0 0.25019264 0.4048202
0.030788496 0.07681565 0.065534987 0 0.25019264 0.4048202
0.030117221 0.077219538 0.066333875 0 0.25019264 0.4048202
0.029449269 0.077621423 0.067128643 0 0.25019264 0.4048202
0.028799316 0.077933401 0.067747258 0 0.25019264 0.4048202
0.028153887 0.078232005 0.068339534 0 0.25019264 0.4048202
0.027510876 0.078529499 0.068929419 0 0.25019264 0.4048202
0.026881348 0.078755207 0.069378659 0 0.25019264 0.4048202
0.026255837 0.078965977 0.069798484 0 0.25019264 0.4048202
0.025648654 0.079065263 0.07 0 0.25019264 0.4048202
0.025057379 0.079061642 0.07 0 0.25019264 0.4048202
0.024466222 0.079058103 0.07 0 0.25019264 0.4048202
0.023875177 0.079054646 0.07 0 0.25019264 0.4048202
0.023284242 0.079051279 0.07 0 0.25019264 0.4048202
0.022693412 0.079048 0.07 0 0.25019264 0.4048202
0.022102689 0.079044797 0.07 0 0.25019264 0.4048202
0.021512067 0.079041682 0.07 0 0.25019264 0.4048202
0.020921543 0.079038657 0.07 0 0.25019264 0.4048202
0.020331115 0.079035714 0.07 0 0.25019264 0.4048202
0.019740781 0.079032853 0.07 0 0.25019264 0.4048202
0.019150538 0.079030074 0.07 0 0.25019264 0.4048202
0.018560382 0.079027385 0.07 0 0.25019264 0.4048202
0.017970312 0.079024777 0.07 0 0.25019264 0.4048202
0.017380325 0.079022251 0.07 0 0.25019264 0.4048202
0.016790416 0.079019815 0.07 0 0.25019264 0.4048202
0.016200585 0.07901746 0.07 0 0.25019264 0.4048202
0.015610829 0.079015195 0.07 0 0.25019264 0.4048202
0.015021144 0.079013005 0.07 0 0.25019264 0.4048202
0.014431529 0.079010904 0.07 0 0.25019264 0.4048202
0.013842762 0.078999199 0.069981053 0 0.25019264 0.4048202
0.013268084 0.078805558 0.069606088 0 0.25019264 0.4048202
0.012692183 0.078611508 0.069230162 0 0.25019264 0.4048202
0.012119191 0.078358345 0.068738483 0 0.25019264 0.4048202
0.011545355 0.078092858 0.068222538 0 0.25019264 0.4048202
0.010969813 0.077826582 0.067704886 0 0.25019264 0.4048202
0.010394483 0.077527419 0.067122757 0 0.25019264 0.4048202
0.009819801 0.077181652 0.066449337 0 0.25019264 0.4048202
0.0092428708 0.076834537 0.065773122 0 0.25019264 0.4048202
0.0086645326 0.076468863 0.065060444 0 0.25019264 0.4048202
0.0080871331 0.076029912 0.064204313 0 0.25019264 0.4048202
0.0075068558 0.075588778 0.063343741 0 0.25019264 0.4048202
0.0069245924 0.07512226 0.062433373 0 0.25019264 0.4048202
0.0063422346 0.074570641 0.061356418 0 0.25019264 0.4048202
0.0057562324 0.074015565 0.060272552 0 0.25019264 0.4048202
0.0051685865 0.073387265 0.059045326 0 0.25019264 0.4048202
0.0045783669 0.072692409 0.057687767 0 0.25019264 0.4048202
0.0039841263 0.071964838 0.056266073 0 0.25019264 0.4048202
0.0033877792 0.071085297 0.054547008 0 0.25019264 0.4048202
0.0027860156 0.070166156 0.052750342 0 0.25019264 0.4048202
0.0021806278 0.069024272 0.050517913 0 0.25019264 0.4048202
0.0015689989 0.067696311 0.047921393 0 0.25019264 0.4048202
0.00094995653 0.066036701 0.04467614 0 0.25019264 0.4048202
0.00032076312 0.063645512 0.039999999 0 0.25019264 0.4048202
0.03953125 0.064544469 0.039999999 0 0.25019264 0.4048202
0.038027629 0.068631433 0.048042342 0 0.25019264 0.4048202
0.037009928 0.070498675 0.051722277 0 0.25019264 0.4048202
0.036116816 0.071816005 0.054321259 0 0.25019264 0.4048202
0.035290007 0.072847396 0.056358069 0 0.25019264 0.4048202
0.034489341 0.073782943 0.058206283 0 0.25019264 0.4048202
0.033738475 0.074494168 0.059613459 0 0.25019264 0.4048202
0.032993894 0.07519944 0.061008696 0 0.25019264 0.4048202
0.032283388 0.075748213 0.062096205 0 0.25019264 0.4048202
0.03157936 0.076283425 0.063156836 0 0.25019264 0.4048202
0.030890735 0.076754138 0.06409052 0 0.25019264 0.4048202
0.030216983 0.077159509 0.064895645 0 0.25019264 0.4048202
0.029546577 0.077562876 0.06569659 0 0.25019264 0.4048202
0.028891843 0.07789059 0.066348724 0 0.25019264 0.4048202
0.028244169 0.078190237 0.066945516 0 0.25019264 0.4048202
0.027598932 0.07848876 0.067539893 0 0.25019264 0.4048202
0.026965437 0.078726873 0.068015426 0 0.25019264 0.4048202
0.026337856 0.078938343 0.068438418 0 0.25019264 0.4048202
0.025711993 0.079149231 0.068860091 0 0.25019264 0.4048202
0.025092492 0.079327814 0.069218114 0 0.25019264 0.4048202
0.024480684 0.079462469 0.069489673 0 0.25019264 0.4048202
0.023869991 0.079596877 0.069760568 0 0.25019264 0.4048202
0.023262551 0.079715356 0.07 0 0.25019264 0.4048202
0.022672275 0.079712011 0.07 0 0.25019264 0.4048202
0.022082103 0.079708755 0.07 0 0.25019264 0.4048202
0.021492032 0.079705589 0.07 0 0.25019264 0.4048202
0.02090206 0.079702504 0.07 0 0.25019264 0.4048202
0.020312184 0.079699509 0.07 0 0.25019264 0.4048202
0.019722402 0.079696596 0.07 0 0.25019264 0.4048202
0.019132709 0.079693772 0.07 0 0.25019264 0.4048202
0.018543104 0.079691038 0.07 0 0.25019264 0.4048202
0.017953586 0.079688385 0.07 0 0.25019264 0.4048202
0.017364148 0.079685815 0.07 0 0.25019264 0.4048202
0.01677479 0.079683334 0.07 0 0.25019264 0.4048202
0.01619219 0.079610564 0.069861807 0 0.25019264 0.4048202
0.015614165 0.079483345 0.069616534 0 0.25019264 0.4048202
0.01503537 0.079355955 0.069370769 0 0.25019264 0.4048202
0.014457662 0.0792064 0.069081314 0 0.25019264 0.4048202
0.013882593 0.079012625 0.068704873 0 0.25019264 0.4048202
0.013306302 0.07881844 0.068327472 0 0.25019264 0.4048202
0.012728781 0.078623839 0.067949086 0 0.25019264 0.4048202
0.012153873 0.078374393 0.067462862 0 0.25019264 0.4048202
0.011578445 0.078108169 0.066943534 0 0.25019264 0.4048202
0.011001299 0.077841155 0.066422485 0 0.25019264 0.4048202
0.010424121 0.077545248 0.065844566 0 0.25019264 0.4048202
0.0098478552 0.077198535 0.065166719 0 0.25019264 0.4048202
0.0092693288 0.076850459 0.064486042 0 0.25019264 0.4048202
0.0086891949 0.076487608 0.063776202 0 0.25019264 0.4048202
0.0081102094 0.076047458 0.062914424 0 0.25019264 0.4048202
0.0075283297 0.075605102 0.062048167 0 0.25019264 0.4048202
0.0069443085 0.075140931 0.061138917 0 0.25019264 0.4048202
0.0063603488 0.074587792 0.060054831 0 0.25019264 0.4048202
0.0057727243 0.074031189 0.058963772 0 0.25019264 0.4048202
0.0051833452 0.07340464 0.057735249 0 0.25019264 0.4048202
0.0045914911 0.072707862 0.056368668 0 0.25019264 0.4048202
0.0039955177 0.071981639 0.054944124 0 0.25019264 0.4048202
0.0033975136 0.071099654 0.0532136 0 0.25019264 0.4048202
0.0027940108 0.070181236 0.05141139 0 0.25019264 0.4048202
0.0021869254 0.069036156 0.049164008 0 0.25019264 0.4048202
0.0015735351 0.067707695 0.046556443 0 0.25019264 0.4048202
0.0009527111 0.066046625 0.043295708 0 0.25019264 0.4048202
0.00032046487 0.064367831 0.039999999 0 0.25019264 0.4048202
0.039494354 0.065268673 0.039999999 0 0.25019264 0.4048202
0.0382329 0.068193495 0.045781419 0 0.25019264 0.4048202
0.037172817 0.070243731 0.049836997 0 0.25019264 0.4048202
0.03627035 0.071589544 0.052502573 0 0.25019264 0.4048202
0.035427343 0.072685719 0.054675385 0 0.25019264 0.4048202
0.034621026 0.073634945 0.056558035 0 0.25019264 0.4048202
0.033861298 0.074377835 0.058033384 0 0.25019264 0.4048202
0.033113502 0.075086147 0.059440289 0 0.25019264 0.4048202
0.032395221 0.075663194 0.060588028 0 0.25019264 0.4048202
0.0316884 0.07620053 0.06165719 0 0.25019264 0.4048202
0.030993681 0.076692194 0.062636055 0 0.25019264 0.4048202
0.030317433 0.077099077 0.063447468 0 0.25019264 0.4048202
0.029644556 0.077503927 0.064254671 0 0.25019264 0.4048202
0.02898499 0.077847496 0.064940795 0 0.25019264 0.4048202
0.028335059 0.078148186 0.065542161 0 0.25019264 0.4048202
0.027687578 0.078447744 0.066141084 0 0.25019264 0.4048202
0.027050076 0.078698352 0.066643275 0 0.25019264 0.4048202
0.026420413 0.078910522 0.067069471 0 0.25019264 0.4048202
0.025792476 0.079122111 0.067494318 0 0.25019264 0.4048202
0.025169535 0.079310857 0.06787394 0 0.25019264 0.4048202
0.02455578 0.079445936 0.068147555 0 0.25019264 0.4048202
0.023943149 0.079580776 0.0684205 0 0.25019264 0.4048202
0.023331635 0.079715364 0.068692781 0 0.25019264 0.4048202
0.022728981 0.079791613 0.068849847 0 0.25019264 0.4048202
0.022128416 0.079856947 0.068985209 0 0.25019264 0.4048202
0.021528449 0.079922222 0.069120273 0 0.25019264 0.4048202
0.020931037 0.079971462 0.069223545 0 0.25019264 0.4048202
0.020339981 0.079971455 0.069229558 0 0.25019264 0.4048202
0.019749049 0.079971448 0.069235399 0 0.25019264 0.4048202
0.019158237 0.07997144 0.069241062 0 0.25019264 0.4048202
0.018571723 0.079933122 0.069171011 0 0.25019264 0.4048202
0.017987719 0.079869583 0.069051102 0 0.25019264 0.4048202
0.017403387 0.079806015 0.068930946 0 0.25019264 0.4048202
0.016818725 0.079742409 0.068810552 0 0.25019264 0.4048202
0.016239235 0.079620913 0.068575874 0 0.25019264 0.4048202
0.015659561 0.079493336 0.068329029 0 0.25019264 0.4048202
0.015079115 0.079365581 0.068081677 0 0.25019264 0.4048202
0.014499348 0.079220444 0.067799896 0 0.25019264 0.4048202
0.013922663 0.079026125 0.067421004 0 0.25019264 0.4048202
0.013344751 0.07883139 0.067041129 0 0.25019264 0.4048202
0.0127656 0.078636244 0.06666027 0 0.25019264 0.4048202
0.012188763 0.078390539 0.066179588 0 0.25019264 0.4048202
0.011611734 0.078123569 0.065656841 0 0.25019264 0.4048202
0.011032976 0.077855811 0.065132365 0 0.25019264 0.4048202
0.010453937 0.077563189 0.064558722 0 0.25019264 0.4048202
0.009876078 0.077215515 0.063876405 0 0.25019264 0.4048202
0.009295946 0.07686647 0.063191235 0 0.25019264 0.4048202
0.0087140035 0.076506473 0.06248429 0 0.25019264 0.4048202
0.0081334226 0.076065108 0.061616816 0 0.25019264 0.4048202
0.0075499318 0.07562153 0.060744815 0 0.25019264 0.4048202
0.006964142 0.075159721 0.059836723 0 0.25019264 0.4048202
0.0063785715 0.074605055 0.058745451 0 0.25019264 0.4048202
0.0057893158 0.074046902 0.057647131 0 0.25019264 0.4048202
0.0051981919 0.073422119 0.056417327 0 0.25019264 0.4048202
0.0046046944 0.072723404 0.055041637 0 0.25019264 0.4048202
0.0040069777 0.071998544 0.053614248 0 0.25019264 0.4048202
0.0034073067 0.071114093 0.051872157 0 0.25019264 0.4048202
0.0028020539 0.070196405 0.050064377 0 0.25019264 0.4048202
0.0021932609 0.069048107 0.047801908 0 0.25019264 0.4048202
0.0015780987 0.067719147 0.045183215 0 0.25019264 0.4048202
0.0009554823 0.066056602 0.041906882 0 0.25019264 0.4048202
0.00032016711 0.065088987 0.039999999 0 0.25019264 0.4048202
0.039457519 0.065991722 0.039999999 0 0.25019264 0.4048202
0.038475379 0.067584947 0.043167077 0 0.25019264 0.4048202
0.037355132 0.069899857 0.047763016 0 0.25019264 0.4048202
0.036425237 0.071361087 0.050667871 0 0.25019264 0.4048202
0.035565786 0.072522737 0.052979104 0 0.25019264 0.4048202
0.034755569 0.073476553 0.054878451 0 0.25019264 0.4048202
0.033985049 0.074260615 0.056441337 0 0.25019264 0.4048202
0.033234011 0.074972004 0.05786005 0 0.25019264 0.4048202
0.032507863 0.075577565 0.059068959 0 0.25019264 0.4048202
0.031798229 0.076117039 0.060146753 0 0.25019264 0.4048202
0.031097345 0.076629825 0.061171465 0 0.25019264 0.4048202
0.030418582 0.077038214 0.061989252 0 0.25019264 0.4048202
0.029743213 0.077444568 0.062802769 0 0.25019264 0.4048202
0.029078767 0.077804111 0.063523389 0 0.25019264 0.4048202
0.028426558 0.078105852 0.064129375 0 0.25019264 0.4048202
0.027776819 0.078406461 0.064732887 0 0.25019264 0.4048202
0.02713527 0.078669645 0.065262116 0 0.25019264 0.4048202
0.026503509 0.078882523 0.065691546 0 0.25019264 0.4048202
0.025873488 0.079094812 0.066119611 0 0.25019264 0.4048202
0.025247073 0.079293787 0.066521123 0 0.25019264 0.4048202
0.024631357 0.079429306 0.066796824 0 0.25019264 0.4048202
0.024016773 0.079564571 0.067071833 0 0.25019264 0.4048202
0.023403315 0.079699591 0.067346171 0 0.25019264 0.4048202
0.022797693 0.07978414 0.067520425 0 0.25019264 0.4048202
0.02219528 0.079849675 0.067656852 0 0.25019264 0.4048202
0.021593466 0.079915151 0.067792974 0 0.25019264 0.4048202
0.020993214 0.079972737 0.067913316 0 0.25019264 0.4048202
0.020400396 0.079972737 0.067919478 0 0.25019264 0.4048202
0.019807704 0.079972729 0.067925461 0 0.25019264 0.4048202
0.019215131 0.079972722 0.067931272 0 0.25019264 0.4048202
0.01862636 0.07993906 0.067870297 0 0.25019264 0.4048202
0.018040653 0.079875343 0.067749657 0 0.25019264 0.4048202
0.017454617 0.079811588 0.067628771 0 0.25019264 0.4048202
0.016868249 0.079747796 0.067507647 0 0.25019264 0.4048202
0.016286569 0.079631336 0.067282103 0 0.25019264 0.4048202
0.015705235 0.079503387 0.067033663 0 0.25019264 0.4048202
0.015123125 0.079375267 0.066784725 0 0.25019264 0.4048202
0.014541286 0.07923457 0.066510722 0 0.25019264 0.4048202
0.013962977 0.079039708 0.066129349 0 0.25019264 0.4048202
0.013383432 0.078844428 0.065746985 0 0.25019264 0.4048202
0.012802643 0.078648724 0.065363631 0 0.25019264 0.4048202
0.012223864 0.078406774 0.064888582 0 0.25019264 0.4048202
0.011645222 0.078139067 0.064362392 0 0.25019264 0.4048202
0.011064844 0.077870548 0.063834444 0 0.25019264 0.4048202
0.010483932 0.077581234 0.063265167 0 0.25019264 0.4048202
0.0099044703 0.077232599 0.062578343 0 0.25019264 0.4048202
0.0093227234 0.076882586 0.061888624 0 0.25019264 0.4048202
0.0087389611 0.076525442 0.061184637 0 0.25019264 0.4048202
0.0081567764 0.076082855 0.060311411 0 0.25019264 0.4048202
0.0075716646 0.075638048 0.059433617 0 0.25019264 0.4048202
0.0069840946 0.075178623 0.058526728 0 0.25019264 0.4048202
0.0063969037 0.074622422 0.057428196 0 0.25019264 0.4048202
0.005806007 0.074062712 0.056322545 0 0.25019264 0.4048202
0.0052131275 0.07343971 0.055091485 0 0.25019264 0.4048202
0.004617977 0.072739042 0.053706598 0 0.25019264 0.4048202
0.004018507 0.072015546 0.052276365 0 0.25019264 0.4048202
0.003417159 0.071128629 0.050522599 0 0.25019264 0.4048202
0.0028101457 0.070211671 0.048709229 0 0.25019264 0.4048202
0.0021996351 0.069060124 0.04643153 0 0.25019264 0.4048202
0.0015826902 0.067730673 0.043801636 0 0.25019264 0.4048202
0.00095827051 0.066066645 0.040509582 0 0.25019264 0.4048202
0.00031986981 0.065809004 0.039999999 0 0.25019264 0.4048202
0.039420743 0.066713616 0.039999999 0 0.25019264 0.4048202
0.038721021 0.066968456 0.040518645 0 0.25019264 0.4048202
0.037539296 0.069552496 0.045668028 0 0.25019264 0.4048202
0.036581498 0.071130604 0.048816934 0 0.25019264 0.4048202
0.035705354 0.072358429 0.051269051 0 0.25019264 0.4048202
0.034891203 0.073316887 0.053185303 0 0.25019264 0.4048202
0.034109741 0.074142501 0.054837178 0 0.25019264 0.4048202
0.033355433 0.074856989 0.056267839 0 0.25019264 0.4048202
0.03262132 0.075491317 0.057538882 0 0.25019264 0.4048202
0.031908847 0.076032944 0.0586254 0 0.25019264 0.4048202
0.031201733 0.076567017 0.059696648 0 0.25019264 0.4048202
0.030520434 0.076976933 0.060520872 0 0.25019264 0.4048202
0.029842556 0.077384792 0.061340775 0 0.25019264 0.4048202
0.029173175 0.077760428 0.062096398 0 0.25019264 0.4048202
0.028518675 0.078063235 0.062707052 0 0.25019264 0.4048202
0.02786666 0.078364894 0.063315198 0 0.25019264 0.4048202
0.027221024 0.078640752 0.063871853 0 0.25019264 0.4048202
0.026587153 0.078854337 0.064304546 0 0.25019264 0.4048202
0.025955031 0.079067335 0.064735867 0 0.25019264 0.4048202
0.025325112 0.079276614 0.065159582 0 0.25019264 0.4048202
0.024707424 0.079412565 0.065437376 0 0.25019264 0.4048202
0.024090873 0.079548262 0.065714486 0 0.25019264 0.4048202
0.023475457 0.079683714 0.065990895 0 0.25019264 0.4048202
0.022866841 0.079776615 0.066182584 0 0.25019264 0.4048202
0.022262566 0.079842359 0.066320084 0 0.25019264 0.4048202
0.021658897 0.079908028 0.066457272 0 0.25019264 0.4048202
0.021056103 0.079971425 0.06658975 0 0.25019264 0.4048202
0.020461189 0.079974018 0.066601239 0 0.25019264 0.4048202
0.019866724 0.079974018 0.066607364 0 0.25019264 0.4048202
0.019272381 0.079974011 0.066613317 0 0.25019264 0.4048202
0.018681336 0.079945043 0.066561542 0 0.25019264 0.4048202
0.018093914 0.079881139 0.066440172 0 0.25019264 0.4048202
0.017506164 0.079817198 0.066318557 0 0.25019264 0.4048202
0.016918078 0.07975322 0.066196688 0 0.25019264 0.4048202
0.016334191 0.079641812 0.06598042 0 0.25019264 0.4048202
0.01575119 0.079513498 0.065730378 0 0.25019264 0.4048202
0.015167406 0.079385012 0.065479822 0 0.25019264 0.4048202
0.014583479 0.079248793 0.065213718 0 0.25019264 0.4048202
0.014003536 0.079053372 0.064829849 0 0.25019264 0.4048202
0.013422349 0.078857541 0.064444974 0 0.25019264 0.4048202
0.012839912 0.078661285 0.064059086 0 0.25019264 0.4048202
0.012259177 0.078423113 0.063589767 0 0.25019264 0.4048202
0.011678915 0.078154653 0.063060097 0 0.25019264 0.4048202
0.011096905 0.077885382 0.062528655 0 0.25019264 0.4048202
0.010514107 0.077599391 0.061963812 0 0.25019264 0.4048202
0.0099330349 0.07724978 0.061272431 0 0.25019264 0.4048202
0.0093496628 0.076898791 0.06057813 0 0.25019264 0.4048202
0.0087640695 0.076544531 0.059877165 0 0.25019264 0.4048202
0.00818027 0.076100722 0.058998134 0 0.25019264 0.4048202
0.0075935284 0.075654671 0.058114488 0 0.25019264 0.4048202
0.007004167 0.07519763 0.057208844 0 0.25019264 0.4048202
0.0064153466 0.074639894 0.056102987 0 0.25019264 0.4048202
0.0058227992 0.074078619 0.054989941 0 0.25019264 0.4048202
0.0052281539 0.073457398 0.053757638 0 0.25019264 0.4048202
0.0046313405 0.072754778 0.052363474 0 0.25019264 0.4048202
0.0040301057 0.072032653 0.050930396 0 0.25019264 0.4048202
0.003427071 0.071143247 0.04916485 0 0.25019264 0.4048202
0.0028182867 0.070227027 0.047345862 0 0.25019264 0.4048202
0.0022060482 0.069072224 0.045052789 0 0.25019264 0.4048202
0.0015873095 0.067742266 0.042411614 0 0.25019264 0.4048202
0.0009587204 0.06652797 0.039999999 0 0.25019264 0.4048202
0.00031957298 0.066527873 0.039999999 0 0.25019264 0.4048202
0.039384022 0.067434363 0.039999999 0 0.25019264 0.4048202
0.038740031 0.067428254 0.039999999 0 0.25019264 0.4048202
0.037725337 0.069201596 0.043551695 0 0.25019264 0.4048202
0.036739144 0.070898078 0.046949532 0 0.25019264 0.4048202
0.035846058 0.072192788 0.049545046 0 0.25019264 0.4048202
0.035027932 0.073155917 0.051478419 0 0.25019264 0.4048202
0.034235384 0.074023493 0.053220756 0 0.25019264 0.4048202
0.033477779 0.074741103 0.054663505 0 0.25019264 0.4048202
0.032735605 0.075404435 0.055997659 0 0.25019264 0.4048202
0.032020271 0.075948238 0.057092998 0 0.25019264 0.4048202
0.031309605 0.076488495 0.058181006 0 0.25019264 0.4048202
0.030623 0.076915227 0.059042219 0 0.25019264 0.4048202
0.029942593 0.077324606 0.059868578 0 0.25019264 0.4048202
0.029268226 0.077716455 0.060659714 0 0.25019264 0.4048202
0.028611416 0.078020327 0.06127508 0 0.25019264 0.4048202
0.02795711 0.078323044 0.061887912 0 0.25019264 0.4048202
0.027307348 0.078611664 0.062472392 0 0.25019264 0.4048202
0.02667135 0.078825966 0.062908381 0 0.25019264 0.4048202
0.026037114 0.079039678 0.063342981 0 0.25019264 0.4048202
0.025404627 0.079252802 0.063776202 0 0.25019264 0.4048202
0.024783982 0.079395711 0.064069137 0 0.25019264 0.4048202
0.024165453 0.079531848 0.064348355 0 0.25019264 0.4048202
0.023548065 0.079667732 0.064626865 0 0.25019264 0.4048202
0.022936428 0.079769045 0.064836226 0 0.25019264 0.4048202
0.02233028 0.07983499 0.064974815 0 0.25019264 0.4048202
0.021724742 0.079900868 0.06511309 0 0.25019264 0.4048202
0.021119809 0.079966679 0.06525103 0 0.25019264 0.4048202
0.020522362 0.079975314 0.065274745 0 0.25019264 0.4048202
0.019926114 0.079975314 0.065281026 0 0.25019264 0.4048202
0.019329987 0.079975307 0.065287121 0 0.25019264 0.4048202
0.018736651 0.079951063 0.065244682 0 0.25019264 0.4048202
0.018147506 0.079886965 0.065122575 0 0.25019264 0.4048202
0.017558029 0.079822838 0.065000214 0 0.25019264 0.4048202
0.016968215 0.079758674 0.064877599 0 0.25019264 0.4048202
0.016382108 0.079652362 0.064670734 0 0.25019264 0.4048202
0.015797427 0.079523675 0.064419076 0 0.25019264 0.4048202
0.015211958 0.079394817 0.064166889 0 0.25019264 0.4048202
0.014625929 0.079263099 0.063908808 0 0.25019264 0.4048202
0.014044342 0.079067126 0.063522413 0 0.25019264 0.4048202
0.013461504 0.078870736 0.063135006 0 0.25019264 0.4048202
0.012877408 0.078673922 0.06274657 0 0.25019264 0.4048202
0.012294704 0.078439549 0.062283061 0 0.25019264 0.4048202
0.011712811 0.078170337 0.061749887 0 0.25019264 0.4048202
0.011129161 0.077900305 0.061214913 0 0.25019264 0.4048202
0.010544465 0.077617653 0.060654584 0 0.25019264 0.4048202
0.0099617718 0.077267073 0.059958607 0 0.25019264 0.4048202
0.0093767662 0.0769151 0.059259683 0 0.25019264 0.4048202
0.0087894304 0.076561727 0.058557786 0 0.25019264 0.4048202
0.0082039069 0.076118685 0.057676908 0 0.25019264 0.4048202
0.0076155253 0.07567139 0.056787357 0 0.25019264 0.4048202
0.0070243608 0.075216763 0.055883002 0 0.25019264 0.4048202
0.0064339014 0.07465747 0.054769747 0 0.25019264 0.4048202
0.0058396938 0.074094623 0.053649239 0 0.25019264 0.4048202
0.0052432711 0.073475197 0.052415714 0 0.25019264 0.4048202
0.0046447851 0.072770603 0.051012181 0 0.25019264 0.4048202
0.0040417747 0.072049864 0.049576264 0 0.25019264 0.4048202
0.0034370434 0.071157955 0.047798824 0 0.25019264 0.4048202
0.0028264769 0.070242472 0.045974195 0 0.25019264 0.4048202
0.0022125004 0.069084391 0.043665603 0 0.25019264 0.4048202
0.0015919574 0.067753933 0.041013073 0 0.25019264 0.4048202
0.00095783133 0.067245707 0.039999999 0 0.25019264 0.4048202
0.00031927662 0.067245603 0.039999999 0 0.25019264 0.4048202
0.039990924 0.068160281 0.039999999 0 0.25019264 0.4048202
0.039347362 0.06815397 0.039999999 0 0.25019264 0.4048202
0.038703978 0.068147764 0.039999999 0 0.25019264 0.4048202
0.037913285 0.068847105 0.04141368 0 0.25019264 0.4048202
0.036898203 0.070663467 0.045065433 0 0.25019264 0.4048202
0.035993572 0.071997784 0.047750812 0 0.25019264 0.4048202
0.035165779 0.072993644 0.049757622 0 0.25019264 0.4048202
0.034361996 0.073903568 0.051591929 0 0.25019264 0.4048202
0.033601064 0.07462433 0.053046908 0 0.25019264 0.4048202
0.032850727 0.075316921 0.054445162 0 0.25019264 0.4048202
0.032132506 0.075862914 0.055549428 0 0.25019264 0.4048202
0.031418994 0.076405339 0.056646273 0 0.25019264 0.4048202
0.030726286 0.076853082 0.05755318 0 0.25019264 0.4048202
0.03004333 0.077263996 0.058386061 0 0.25019264 0.4048202
0.029363925 0.077672176 0.059213232 0 0.25019264 0.4048202
0.028704789 0.077977128 0.059833363 0 0.25019264 0.4048202
0.028048174 0.078280918 0.06045093 0 0.25019264 0.4048202
0.027394244 0.078582384 0.061063632 0 0.25019264 0.4048202
0.026756106 0.078797407 0.06150296 0 0.25019264 0.4048202
0.026119739 0.079011835 0.061940875 0 0.25019264 0.4048202
0.025485134 0.079225674 0.06237739 0 0.25019264 0.4048202
0.024861038 0.079378754 0.062692009 0 0.25019264 0.4048202
0.024240516 0.079515323 0.06297335 0 0.25019264 0.4048202
0.023621144 0.079651646 0.063253984 0 0.25019264 0.4048202
0.02300646 0.079761431 0.063481271 0 0.25019264 0.4048202
0.022398427 0.079827577 0.063620962 0 0.25019264 0.4048202
0.021791009 0.079893656 0.063760325 0 0.25019264 0.4048202
0.021184199 0.079959668 0.063899353 0 0.25019264 0.4048202
0.020583918 0.079976618 0.063939929 0 0.25019264 0.4048202
0.019985875 0.079976611 0.063946359 0 0.25019264 0.4048202
0.019387957 0.079976611 0.063952602 0 0.25019264 0.4048202
0.018792311 0.079957113 0.063919626 0 0.25019264 0.4048202
0.018201431 0.079892837 0.063796774 0 0.25019264 0.4048202
0.017610218 0.079828516 0.063673668 0 0.25019264 0.4048202
0.017018666 0.079764165 0.063550301 0 0.25019264 0.4048202
0.016430316 0.079662971 0.06335298 0 0.25019264 0.4048202
0.015843948 0.079533912 0.063099682 0 0.25019264 0.4048202
0.015256787 0.079404682 0.062845856 0 0.25019264 0.4048202
0.014668829 0.07927528 0.062591493 0 0.25019264 0.4048202
0.014085397 0.079080962 0.062206969 0 0.25019264 0.4048202
0.013500899 0.078884006 0.061816998 0 0.25019264 0.4048202
0.012915134 0.078686632 0.061425991 0 0.25019264 0.4048202
0.012330448 0.078456089 0.060968395 0 0.25019264 0.4048202
0.011746915 0.07818611 0.060431678 0 0.25019264 0.4048202
0.011161615 0.077915326 0.059893139 0 0.25019264 0.4048202
0.010575007 0.077636033 0.059337407 0 0.25019264 0.4048202
0.0099906838 0.07728447 0.058636792 0 0.25019264 0.4048202
0.0094040344 0.076931506 0.057933196 0 0.25019264 0.4048202
0.0088150427 0.076577134 0.057226598 0 0.25019264 0.4048202
0.0082276873 0.076136768 0.05634765 0 0.25019264 0.4048202
0.0076376558 0.075688213 0.055452138 0 0.25019264 0.4048202
0.0070446772 0.075236008 0.054549117 0 0.25019264 0.4048202
0.0064525688 0.07467515 0.0534284 0 0.25019264 0.4048202
0.0058566914 0.074110724 0.052300353 0 0.25019264 0.4048202
0.0052584801 0.073493101 0.051065624 0 0.25019264 0.4048202
0.0046583116 0.072786532 0.04965264 0 0.25019264 0.4048202
0.0040535149 0.072067179 0.048213884 0 0.25019264 0.4048202
0.003447077 0.071172751 0.046424437 0 0.25019264 0.4048202
0.0028347175 0.070258014 0.044594146 0 0.25019264 0.4048202
0.0022189924 0.06909664 0.042269889 0 0.25019264 0.4048202
0.0015949109 0.067962512 0.039999999 0 0.25019264 0.4048202
0.00095694367 0.067962311 0.039999999 0 0.25019264 0.4048202
0.00031898075 0.067962207 0.039999999 0 0.25019264 0.4048202
0.039953716 0.068878852 0.039999999 0 0.25019264 0.4048202
0.039310757 0.068872437 0.039999999 0 0.25019264 0.4048202
0.038667977 0.068866134 0.039999999 0 0.25019264 0.4048202
0.038025372 0.068859935 0.039999999 0 0.25019264 0.4048202
0.037058689 0.070426755 0.04316441 0 0.25019264 0.4048202
0.036148932 0.071768634 0.045875885 0 0.25019264 0.4048202
0.035304751 0.072830036 0.048022736 0 0.25019264 0.4048202
0.034489583 0.073782712 0.04995054 0 0.25019264 0.4048202
0.033725291 0.074506655 0.051417895 0 0.25019264 0.4048202
0.032967508 0.075224437 0.052872565 0 0.25019264 0.4048202
0.032245565 0.075776964 0.053994555 0 0.25019264 0.4048202
0.031529177 0.076321572 0.055100333 0 0.25019264 0.4048202
0.030830301 0.076790497 0.056053631 0 0.25019264 0.4048202
0.030144775 0.077202961 0.05689311 0 0.25019264 0.4048202
0.029462714 0.077613331 0.057728149 0 0.25019264 0.4048202
0.0287988 0.077933639 0.058381788 0 0.25019264 0.4048202
0.028139859 0.078238495 0.059004143 0 0.25019264 0.4048202
0.027483437 0.078542195 0.059623923 0 0.25019264 0.4048202
0.026841426 0.078768656 0.060088165 0 0.25019264 0.4048202
0.026202915 0.078983814 0.060529433 0 0.25019264 0.4048202
0.025566177 0.07919836 0.060969278 0 0.25019264 0.4048202
0.024938595 0.079361685 0.061305888 0 0.25019264 0.4048202
0.024316069 0.079498693 0.061589386 0 0.25019264 0.4048202
0.023694698 0.079635456 0.061872162 0 0.25019264 0.4048202
0.02307694 0.079753764 0.062117625 0 0.25019264 0.4048202
0.022467012 0.079820119 0.062258426 0 0.25019264 0.4048202
0.021857699 0.079886399 0.062398892 0 0.25019264 0.4048202
0.021249 0.07995262 0.062539019 0 0.25019264 0.4048202
0.020645862 0.07997793 0.062596701 0 0.25019264 0.4048202
0.020046014 0.079977922 0.06260328 0 0.25019264 0.4048202
0.019446291 0.079977922 0.062609665 0 0.25019264 0.4048202
0.018848319 0.079963207 0.0625863 0 0.25019264 0.4048202
0.018255694 0.079898737 0.062462695 0 0.25019264 0.4048202
0.017662732 0.07983423 0.062338829 0 0.25019264 0.4048202
0.017069431 0.079769686 0.062214699 0 0.25019264 0.4048202
0.016478825 0.079673648 0.062027067 0 0.25019264 0.4048202
0.015890757 0.079544216 0.061772119 0 0.25019264 0.4048202
0.015301893 0.079414614 0.061516631 0 0.25019264 0.4048202
0.014712226 0.079284832 0.061260603 0 0.25019264 0.4048202
0.014126706 0.079094879 0.060883433 0 0.25019264 0.4048202
0.013540536 0.078897364 0.060490876 0 0.25019264 0.4048202
0.012953093 0.078699417 0.060097273 0 0.25019264 0.4048202
0.01236641 0.078472726 0.059645686 0 0.25019264 0.4048202
0.011781228 0.078201987 0.059105389 0 0.25019264 0.4048202
0.011194267 0.077930428 0.058563258 0 0.25019264 0.4048202
0.010605736 0.077654518 0.058012195 0 0.25019264 0.4048202
0.010019772 0.077301972 0.057306901 0 0.25019264 0.4048202
0.0094314702 0.076948009 0.056598589 0 0.25019264 0.4048202
0.0088408105 0.076592639 0.055887245 0 0.25019264 0.4048202
0.0082516121 0.076154955 0.055010282 0 0.25019264 0.4048202
0.0076599219 0.075705141 0.054108754 0 0.25019264 0.4048202
0.0070652114 0.075253032 0.053202424 0 0.25019264 0.4048202
0.0064713508 0.074692942 0.052078862 0 0.25019264 0.4048202
0.0058737933 0.074126922 0.050943207 0 0.25019264 0.4048202
0.0052737822 0.073511116 0.049707294 0 0.25019264 0.4048202
0.004671921 0.072802551 0.048284765 0 0.25019264 0.4048202
0.0040653269 0.072084606 0.046843179 0 0.25019264 0.4048202
0.0034571721 0.071187645 0.045041613 0 0.25019264 0.4048202
0.0028430086 0.070273653 0.04320563 0 0.25019264 0.4048202
0.0022255245 0.069108956 0.040865559 0 0.25019264 0.4048202
0.0015934338 0.068677999 0.039999999 0 0.25019264 0.4048202
0.00095605734 0.06867779 0.039999999 0 0.25019264 0.4048202
0.00031868531 0.068677686 0.039999999 0 0.25019264 0.4048202
0.039916568 0.069596291 0.039999999 0 0.25019264 0.4048202
0.039274212 0.069589786 0.039999999 0 0.25019264 0.4048202
0.038632032 0.069583386 0.039999999 0 0.25019264 0.4048202
0.037990034 0.06957709 0.039999999 0 0.25019264 0.4048202
0.037232265 0.0701316 0.04113251 0 0.25019264 0.4048202
0.036305681 0.071537435 0.043984156 0 0.25019264 0.4048202
0.035444871 0.07266508 0.046273571 0 0.25019264 0.4048202
0.034623917 0.07363154 0.048237085 0 0.25019264 0.4048202
0.03385048 0.074388079 0.049776316 0 0.25019264 0.4048202
0.033089358 0.07510902 0.051243354 0 0.25019264 0.4048202
0.032359455 0.075690389 0.052428246 0 0.25019264 0.4048202
0.031640172 0.076237194 0.053543061 0 0.25019264 0.4048202
0.030935053 0.076727472 0.054543454 0 0.25019264 0.4048202
0.03024694 0.077141486 0.055389605 0 0.25019264 0.4048202
0.029562315 0.077553406 0.05623126 0 0.25019264 0.4048202
0.028893458 0.077889845 0.056920253 0 0.25019264 0.4048202
0.028232174 0.078195788 0.057547443 0 0.25019264 0.4048202
0.027573425 0.078500561 0.058172029 0 0.25019264 0.4048202
0.026927317 0.078739718 0.058663908 0 0.25019264 0.4048202
0.026286647 0.078955598 0.059108563 0 0.25019264 0.4048202
0.025647761 0.079170875 0.059551775 0 0.25019264 0.4048202
0.025016662 0.079344504 0.059910689 0 0.25019264 0.4048202
0.024392117 0.079481959 0.060196362 0 0.25019264 0.4048202
0.023768734 0.079619162 0.060481306 0 0.25019264 0.4048202
0.023147874 0.079746045 0.060745206 0 0.25019264 0.4048202
0.022536036 0.079812609 0.060887124 0 0.25019264 0.4048202
0.021924818 0.079879098 0.061028704 0 0.25019264 0.4048202
0.021314219 0.079945527 0.061169941 0 0.25019264 0.4048202
0.0207082 0.079979248 0.061244965 0 0.25019264 0.4048202
0.020106534 0.079979248 0.0612517 0 0.25019264 0.4048202
0.019504996 0.079979241 0.061258234 0 0.25019264 0.4048202
0.018904677 0.079969339 0.061244607 0 0.25019264 0.4048202
0.018310295 0.079904675 0.061120246 0 0.25019264 0.4048202
0.017715577 0.079839982 0.060995616 0 0.25019264 0.4048202
0.017120516 0.079775244 0.060870714 0 0.25019264 0.4048202
0.016527636 0.079684392 0.060692914 0 0.25019264 0.4048202
0.015937857 0.079554588 0.060436301 0 0.25019264 0.4048202
0.015347279 0.079424605 0.06017914 0 0.25019264 0.4048202
0.014755893 0.079294443 0.059921429 0 0.25019264 0.4048202
0.01416827 0.079108886 0.059551723 0 0.25019264 0.4048202
0.013580418 0.078910805 0.059156559 0 0.25019264 0.4048202
0.012991288 0.078712292 0.058760334 0 0.25019264 0.4048202
0.012402594 0.078489468 0.058314852 0 0.25019264 0.4048202
0.011815751 0.078217961 0.057770945 0 0.25019264 0.4048202
0.011227122 0.077945627 0.057225183 0 0.25019264 0.4048202
0.010636693 0.077672467 0.05667755 0 0.25019264 0.4048202
0.010049039 0.077319577 0.055968851 0 0.25019264 0.4048202
0.0094590737 0.076964617 0.055255786 0 0.25019264 0.4048202
0.0088667385 0.076608233 0.054539651 0 0.25019264 0.4048202
0.008275684 0.076173253 0.053664722 0 0.25019264 0.4048202
0.0076823244 0.075722173 0.052757122 0 0.25019264 0.4048202
0.0070859278 0.075268783 0.051844671 0 0.25019264 0.4048202
0.0064902473 0.074710838 0.050721046 0 0.25019264 0.4048202
0.0058909999 0.074143216 0.049577713 0 0.25019264 0.4048202
0.0052891779 0.073529236 0.048340637 0 0.25019264 0.4048202
0.0046856143 0.072818674 0.046908475 0 0.25019264 0.4048202
0.004077211 0.072102129 0.045464057 0 0.25019264 0.4048202
0.0034673295 0.071202621 0.043650258 0 0.25019264 0.4048202
0.0028513507 0.070289388 0.04180856 0 0.25019264 0.4048202
0.0022287525 0.069392674 0.039999999 0 0.25019264 0.4048202
0.0015919589 0.069392361 0.039999999 0 0.25019264 0.4048202
0.00095517247 0.069392152 0.039999999 0 0.25019264 0.4048202
0.00031839035 0.069392055 0.039999999 0 0.25019264 0.4048202
0.039879475 0.070312612 0.039999999 0 0.25019264 0.4048202
0.039237723 0.070306003 0.039999999 0 0.25019264 0.4048202
0.038596146 0.070299506 0.039999999 0 0.25019264 0.4048202
0.037954748 0.070293121 0.039999999 0 0.25019264 0.4048202
0.037313521 0.07028684 0.039999999 0 0.25019264 0.4048202
0.036463842 0.071304142 0.042075384 0 0.25019264 0.4048202
0.035586149 0.072498761 0.044509944 0 0.25019264 0.4048202
0.034761146 0.073469989 0.046491168 0 0.25019264 0.4048202
0.033976637 0.074268579 0.048122015 0 0.25019264 0.4048202
0.033212155 0.074992701 0.049601566 0 0.25019264 0.4048202
0.032474186 0.075603165 0.050850365 0 0.25019264 0.4048202
0.031751983 0.076152191 0.051974323 0 0.25019264 0.4048202
0.031040549 0.076663993 0.053022534 0 0.25019264 0.4048202
0.030349828 0.077079587 0.053875424 0 0.25019264 0.4048202
0.02966262 0.077493057 0.054723769 0 0.25019264 0.4048202
0.028988766 0.077845745 0.055448644 0 0.25019264 0.4048202
0.028325122 0.078152783 0.056080721 0 0.25019264 0.4048202
0.027664032 0.078458637 0.056710165 0 0.25019264 0.4048202
0.027013784 0.078710578 0.057230085 0 0.25019264 0.4048202
0.026370941 0.078927197 0.057678159 0 0.25019264 0.4048202
0.025729893 0.079143196 0.058124777 0 0.25019264 0.4048202
0.025095241 0.079327203 0.05850631 0 0.25019264 0.4048202
0.024468664 0.079465114 0.058794182 0 0.25019264 0.4048202
0.023843257 0.079602763 0.059081316 0 0.25019264 0.4048202
0.023219267 0.079738274 0.059363909 0 0.25019264 0.4048202
0.022605507 0.079805046 0.059506964 0 0.25019264 0.4048202
0.021992372 0.079871751 0.059649669 0 0.25019264 0.4048202
0.021379856 0.079938389 0.059792023 0 0.25019264 0.4048202
0.020771109 0.079979137 0.059881713 0 0.25019264 0.4048202
0.020167438 0.079980575 0.059891533 0 0.25019264 0.4048202
0.019564072 0.079980567 0.05989822 0 0.25019264 0.4048202
0.018961791 0.07997191 0.059887171 0 0.25019264 0.4048202
0.018365242 0.079910658 0.05976934 0 0.25019264 0.4048202
0.017768754 0.079845764 0.059643943 0 0.25019264 0.4048202
0.017171923 0.079780832 0.059518266 0 0.25019264 0.4048202
0.016576752 0.079695202 0.059350438 0 0.25019264 0.4048202
0.015985252 0.079565018 0.059092142 0 0.25019264 0.4048202
0.015392949 0.079434656 0.05883329 0 0.25019264 0.4048202
0.014799834 0.079304114 0.058573883 0 0.25019264 0.4048202
0.014210091 0.079122975 0.058211759 0 0.25019264 0.4048202
0.013620549 0.078924328 0.057813961 0 0.25019264 0.4048202
0.013029719 0.078725241 0.057415091 0 0.25019264 0.4048202
0.012439 0.078506306 0.056975812 0 0.25019264 0.4048202
0.011850488 0.078234032 0.056428261 0 0.25019264 0.4048202
0.011260178 0.077960923 0.055878833 0 0.25019264 0.4048202
0.01066806 0.07768698 0.055327516 0 0.25019264 0.4048202
0.010078486 0.077337295 0.054622568 0 0.25019264 0.4048202
0.0094868476 0.076981328 0.053904697 0 0.25019264 0.4048202
0.0088928258 0.076623932 0.053183727 0 0.25019264 0.4048202
0.0082999039 0.076191664 0.052310891 0 0.25019264 0.4048202
0.0077048652 0.075739309 0.051397156 0 0.25019264 0.4048202
0.0071067722 0.07528463 0.050478525 0 0.25019264 0.4048202
0.0065092603 0.074728847 0.049354877 0 0.25019264 0.4048202
0.0059083127 0.074159622 0.048203792 0 0.25019264 0.4048202
0.0053046681 0.073547475 0.046965573 0 0.25019264 0.4048202
0.0046993922 0.072834894 0.045523684 0 0.25019264 0.4048202
0.0040892418 0.072116569 0.044069968 0 0.25019264 0.4048202
0.0034775499 0.071217701 0.042250291 0 0.25019264 0.4048202
0.0028597442 0.070305221 0.040402856 0 0.25019264 0.4048202
0.002226691 0.07010594 0.039999999 0 0.25019264 0.4048202
0.0015904864 0.07010562 0.039999999 0 0.25019264 0.4048202
0.00095428893 0.070105411 0.039999999 0 0.25019264 0.4048202
0.00031809584 0.070105299 0.039999999 0 0.25019264 0.4048202
0.039842442 0.071027815 0.039999999 0 0.25019264 0.4048202
0.039201289 0.07102111 0.039999999 0 0.25019264 0.4048202
0.038560316 0.071014516 0.039999999 0 0.25019264 0.4048202
0.037919514 0.071008034 0.039999999 0 0.25019264 0.4048202
0.037278891 0.071001664 0.039999999 0 0.25019264 0.4048202
0.036623433 0.071068749 0.040149331 0 0.25019264 0.4048202
0.035728596 0.072331063 0.042731669 0 0.25019264 0.4048202
0.034899507 0.073307104 0.044730827 0 0.25019264 0.4048202
0.034103777 0.074148156 0.046454836 0 0.25019264 0.4048202
0.033335898 0.074875489 0.047947049 0 0.25019264 0.4048202
0.032589767 0.0755153 0.04926078 0 0.25019264 0.4048202
0.031864621 0.076066568 0.050393984 0 0.25019264 0.4048202
0.0311468 0.076600067 0.051490743 0 0.25019264 0.4048202
0.030453449 0.07701724 0.052350454 0 0.25019264 0.4048202
0.029763637 0.077432275 0.053205561 0 0.25019264 0.4048202
0.029084735 0.077801347 0.053966846 0 0.25019264 0.4048202
0.028418712 0.078109488 0.054603867 0 0.25019264 0.4048202
0.027755262 0.078416429 0.055238221 0 0.25019264 0.4048202
0.027100837 0.078681245 0.055786587 0 0.25019264 0.4048202
0.026455801 0.078898601 0.056238119 0 0.25019264 0.4048202
0.025812576 0.079115339 0.056688175 0 0.25019264 0.4048202
0.02517434 0.079309799 0.057092659 0 0.25019264 0.4048202
0.024545716 0.079448156 0.057382751 0 0.25019264 0.4048202
0.023918269 0.079586253 0.057672095 0 0.25019264 0.4048202
0.023291994 0.079724088 0.057960689 0 0.25019264 0.4048202
0.022675429 0.079797439 0.058117848 0 0.25019264 0.4048202
0.022060363 0.079864353 0.058261689 0 0.25019264 0.4048202
0.021445921 0.0799312 0.058405176 0 0.25019264 0.4048202
0.020834617 0.079977416 0.058506485 0 0.25019264 0.4048202
0.020228731 0.079981908 0.058522686 0 0.25019264 0.4048202
0.019623525 0.079981901 0.058529526 0 0.25019264 0.4048202
0.019019384 0.079973467 0.05851901 0 0.25019264 0.4048202
0.018420536 0.079916671 0.058409899 0 0.25019264 0.4048202
0.017822267 0.079851583 0.05828372 0 0.25019264 0.4048202
0.017223654 0.079786465 0.058157261 0 0.25019264 0.4048202
0.016626174 0.07970608 0.057999551 0 0.25019264 0.4048202
0.016032945 0.079575509 0.05773956 0 0.25019264 0.4048202
0.015438905 0.079444766 0.057479002 0 0.25019264 0.4048202
0.01484405 0.079313844 0.057217877 0 0.25019264 0.4048202
0.014252173 0.079137154 0.056863457 0 0.25019264 0.4048202
0.013660928 0.078937933 0.056462999 0 0.25019264 0.4048202
0.01306839 0.078738272 0.056061458 0 0.25019264 0.4048202
0.012475632 0.078523256 0.055628482 0 0.25019264 0.4048202
0.01188544 0.0782502 0.055077251 0 0.25019264 0.4048202
0.01129344 0.077976309 0.054524124 0 0.25019264 0.4048202
0.010699621 0.077701576 0.053969089 0 0.25019264 0.4048202
0.010108115 0.077355124 0.053267963 0 0.25019264 0.4048202
0.0095147938 0.076998144 0.052545242 0 0.25019264 0.4048202
0.0089190751 0.076639727 0.051819392 0 0.25019264 0.4048202
0.0083242729 0.076210193 0.050948702 0 0.25019264 0.4048202
0.0077275457 0.07575655 0.050028779 0 0.25019264 0.4048202
0.0071277455 0.075300574 0.049103908 0 0.25019264 0.4048202
0.006528391 0.074746966 0.047980268 0 0.25019264 0.4048202
0.0059257331 0.074176118 0.046821356 0 0.25019264 0.4048202
0.0053202542 0.073565826 0.045582015 0 0.25019264 0.4048202
