# .PCD v0.7 - Point Cloud Data file format
VERSION 0.7
FIELDS x y z vp_x vp_y vp_z
SIZE 4 4 4 4 4 4
TYPE F F F F F F
COUNT 1 1 1 1 1 1
WIDTH 870
HEIGHT 1
VIEWPOINT 0 0 0 1 0 0 0
POINTS 870
DATA ascii
0 0.026712039 0.031448055 -0.4048202 0 -0.25019264
0 0.02593625 0.031445321 -0.4048202 0 -0.25019264
0 0.025160596 0.031442668 -0.4048202 0 -0.25019264
5.5511151e-17 0.02438507 0.031440098 -0.4048202 0 -0.25019264
0 0.023609674 0.031437609 -0.4048202 0 -0.25019264
5.5511151e-17 0.0228344 0.031435199 -0.4048202 0 -0.25019264
0 0.022059243 0.031432871 -0.4048202 0 -0.25019264
0 0.021284202 0.031430621 -0.4048202 0 -0.25019264
0.012321289 0.021133501 0.039999999 -0.4048202 0 -0.25019264
0 0.01973445 0.031426366 -0.4048202 0 -0.25019264
0 0.018959727 0.031424358 -0.4048202 0 -0.25019264
0 0.018185105 0.031422433 -0.4048202 0 -0.25019264
0 0.017410578 0.031420588 -0.4048202 0 -0.25019264
5.5511151e-17 0.016636141 0.031418823 -0.4048202 0 -0.25019264
0 0.015861791 0.031417135 -0.4048202 0 -0.25019264
5.5511151e-17 0.015087522 0.031415533 -0.4048202 0 -0.25019264
5.5511151e-17 0.014313332 0.03141401 -0.4048202 0 -0.25019264
5.5511151e-17 0.013539216 0.031412564 -0.4048202 0 -0.25019264
0.012346846 0.013154504 0.039999999 -0.4048202 0 -0.25019264
5.5511151e-17 0.011991193 0.031409916 -0.4048202 0 -0.25019264
0 0.011217276 0.031408712 -0.4048202 0 -0.25019264
0 0.010443417 0.031407591 -0.4048202 0 -0.25019264
5.5511151e-17 0.0096696131 0.031406548 -0.4048202 0 -0.25019264
0 0.0088958591 0.031405587 -0.4048202 0 -0.25019264
0 0.0081221517 0.031404704 -0.4048202 0 -0.25019264
0.012357658 0.0075728083 0.039999999 -0.4048202 0 -0.25019264
5.5511151e-17 0.0065748594 0.03140318 -0.4048202 0 -0.25019264
0 0.0058012661 0.031402539 -0.4048202 0 -0.25019264
5.5511151e-17 0.005027703 0.031401977 -0.4048202 0 -0.25019264
0 0.004254166 0.031401496 -0.4048202 0 -0.25019264
0 0.0034806512 0.031401098 -0.4048202 0 -0.25019264
0 0.0027071545 0.031400777 -0.4048202 0 -0.25019264
0 0.0019336717 0.031400535 -0.4048202 0 -0.25019264
5.5511151e-17 0.0011601989 0.031400375 -0.4048202 0 -0.25019264
0 0.00038673234 0.031400293 -0.4048202 0 -0.25019264
5.5511151e-17 0.079927109 0.030870443 -0.4048202 0 -0.25019264
5.5511151e-17 0.079133213 0.030862339 -0.4048202 0 -0.25019264
0 0.078339733 0.03085432 -0.4048202 0 -0.25019264
0 0.077546664 0.030846383 -0.4048202 0 -0.25019264
0 0.076754019 0.030838529 -0.4048202 0 -0.25019264
0 0.075961776 0.030830758 -0.4048202 0 -0.25019264
0 0.075169936 0.030823069 -0.4048202 0 -0.25019264
0 0.074378498 0.030815462 -0.4048202 0 -0.25019264
0 0.073587447 0.030807938 -0.4048202 0 -0.25019264
5.5511151e-17 0.072796799 0.030800497 -0.4048202 0 -0.25019264
0 0.072006524 0.030793136 -0.4048202 0 -0.25019264
5.5511151e-17 0.071216643 0.030785859 -0.4048202 0 -0.25019264
0 0.070427127 0.030778663 -0.4048202 0 -0.25019264
0 0.069637991 0.03077155 -0.4048202 0 -0.25019264
0.033655167 0.074573077 0.054122195 -0.4048202 0 -0.25019264
5.5511151e-17 0.068060823 0.030757567 -0.4048202 0 -0.25019264
5.5511151e-17 0.067272775 0.030750697 -0.4048202 0 -0.25019264
0 0.066485085 0.03074391 -0.4048202 0 -0.25019264
0.036273725 0.071584567 0.05590979 -0.4048202 0 -0.25019264
0.036798086 0.070811138 0.056266453 -0.4048202 0 -0.25019264
0 0.064124115 0.030724036 -0.4048202 0 -0.25019264
0 0.063337803 0.030717574 -0.4048202 0 -0.25019264
5.5511151e-17 0.062551826 0.030711193 -0.4048202 0 -0.25019264
0.038455967 0.067633666 0.057388801 -0.4048202 0 -0.25019264
0 0.06098086 0.030698672 -0.4048202 0 -0.25019264
0 0.06019586 0.030692535 -0.4048202 0 -0.25019264
0 0.059411176 0.030686475 -0.4048202 0 -0.25019264
0 0.058626808 0.030680498 -0.4048202 0 -0.25019264
0 0.057842746 0.030674601 -0.4048202 0 -0.25019264
0 0.057058986 0.030668786 -0.4048202 0 -0.25019264
0 0.056275532 0.030663049 -0.4048202 0 -0.25019264
0 0.055492368 0.030657394 -0.4048202 0 -0.25019264
0 0.054709498 0.030651819 -0.4048202 0 -0.25019264
0 0.053926915 0.030646324 -0.4048202 0 -0.25019264
0 0.053144615 0.030640909 -0.4048202 0 -0.25019264
0 0.052362595 0.030635575 -0.4048202 0 -0.25019264
0 0.05158085 0.030630318 -0.4048202 0 -0.25019264
0.03954237 0.055761397 0.058055099 -0.4048202 0 -0.25019264
5.5511151e-17 0.050018162 0.03062005 -0.4048202 0 -0.25019264
0 0.049237214 0.030615034 -0.4048202 0 -0.25019264
0 0.048456524 0.030610098 -0.4048202 0 -0.25019264
5.5511151e-17 0.04767609 0.030605242 -0.4048202 0 -0.25019264
0 0.046895903 0.030600466 -0.4048202 0 -0.25019264
0 0.046115961 0.030595768 -0.4048202 0 -0.25019264
0 0.045336261 0.030591151 -0.4048202 0 -0.25019264
0 0.0445568 0.030586613 -0.4048202 0 -0.25019264
0 0.04377757 0.030582154 -0.4048202 0 -0.25019264
0 0.042998567 0.030577775 -0.4048202 0 -0.25019264
0 0.042219792 0.030573474 -0.4048202 0 -0.25019264
5.5511151e-17 0.041441236 0.030569253 -0.4048202 0 -0.25019264
0 0.040662896 0.030565111 -0.4048202 0 -0.25019264
0 0.039884772 0.030561049 -0.4048202 0 -0.25019264
0 0.039106853 0.030557064 -0.4048202 0 -0.25019264
5.5511151e-17 0.038329136 0.03055316 -0.4048202 0 -0.25019264
0 0.037551623 0.030549334 -0.4048202 0 -0.25019264
0 0.036774304 0.030545587 -0.4048202 0 -0.25019264
0 0.035997175 0.030541919 -0.4048202 0 -0.25019264
5.5511151e-17 0.035220236 0.03053833 -0.4048202 0 -0.25019264
5.5511151e-17 0.034443479 0.030534819 -0.4048202 0 -0.25019264
0 0.033666905 0.030531386 -0.4048202 0 -0.25019264
5.5511151e-17 0.032890502 0.030528033 -0.4048202 0 -0.25019264
0 0.032114275 0.030524759 -0.4048202 0 -0.25019264
0 0.031338211 0.030521562 -0.4048202 0 -0.25019264
0 0.030562311 0.030518444 -0.4048202 0 -0.25019264
5.5511151e-17 0.02978657 0.030515404 -0.4048202 0 -0.25019264
0 0.029010985 0.030512443 -0.4048202 0 -0.25019264
0 0.028235551 0.030509561 -0.4048202 0 -0.25019264
5.5511151e-17 0.027460262 0.030506756 -0.4048202 0 -0.25019264
0 0.026685119 0.030504031 -0.4048202 0 -0.25019264
5.5511151e-17 0.025910111 0.030501382 -0.4048202 0 -0.25019264
0.013702846 0.025986049 0.039999999 -0.4048202 0 -0.25019264
5.5511151e-17 0.0243605 0.030496322 -0.4048202 0 -0.25019264
0 0.023585886 0.030493909 -0.4048202 0 -0.25019264
0 0.022811394 0.030491574 -0.4048202 0 -0.25019264
0 0.022037022 0.030489318 -0.4048202 0 -0.25019264
0 0.021262763 0.030487139 -0.4048202 0 -0.25019264
0 0.020488614 0.030485038 -0.4048202 0 -0.25019264
0.013726403 0.020383043 0.039999999 -0.4048202 0 -0.25019264
0 0.018940633 0.03048107 -0.4048202 0 -0.25019264
0 0.018166792 0.030479204 -0.4048202 0 -0.25019264
0 0.017393045 0.030477416 -0.4048202 0 -0.25019264
5.5511151e-17 0.01661939 0.030475706 -0.4048202 0 -0.25019264
0 0.015845818 0.030474072 -0.4048202 0 -0.25019264
5.5511151e-17 0.015072331 0.030472517 -0.4048202 0 -0.25019264
0 0.014298921 0.03047104 -0.4048202 0 -0.25019264
5.5511151e-17 0.013525586 0.030469641 -0.4048202 0 -0.25019264
0 0.012752321 0.03046832 -0.4048202 0 -0.25019264
0 0.011979122 0.030467076 -0.4048202 0 -0.25019264
5.5511151e-17 0.011205984 0.03046591 -0.4048202 0 -0.25019264
0 0.010432906 0.030464822 -0.4048202 0 -0.25019264
5.5511151e-17 0.0096598808 0.030463813 -0.4048202 0 -0.25019264
0 0.0088869054 0.03046288 -0.4048202 0 -0.25019264
0.013757708 0.0083897281 0.039999999 -0.4048202 0 -0.25019264
5.5511151e-17 0.0073410906 0.030461248 -0.4048202 0 -0.25019264
5.5511151e-17 0.0065682419 0.03046055 -0.4048202 0 -0.25019264
0 0.0057954276 0.030459927 -0.4048202 0 -0.25019264
0 0.0050226431 0.030459384 -0.4048202 0 -0.25019264
5.5511151e-17 0.0042498847 0.030458918 -0.4048202 0 -0.25019264
5.5511151e-17 0.0034771482 0.030458529 -0.4048202 0 -0.25019264
0 0.0027044301 0.030458217 -0.4048202 0 -0.25019264
5.5511151e-17 0.0019317258 0.030457985 -0.4048202 0 -0.25019264
5.5511151e-17 0.0011590314 0.03045783 -0.4048202 0 -0.25019264
0 0.00038634313 0.030457752 -0.4048202 0 -0.25019264
0 0.079845682 0.029916799 -0.4048202 0 -0.25019264
5.5511151e-17 0.079052612 0.029908955 -0.4048202 0 -0.25019264
0 0.07825996 0.029901192 -0.4048202 0 -0.25019264
5.5511151e-17 0.077467725 0.029893508 -0.4048202 0 -0.25019264
5.5511151e-17 0.076675907 0.029885903 -0.4048202 0 -0.25019264
0 0.075884484 0.02987838 -0.4048202 0 -0.25019264
0.024056287 0.079555877 0.046513606 -0.4048202 0 -0.25019264
0 0.07430286 0.029863572 -0.4048202 0 -0.25019264
5.5511151e-17 0.073512636 0.029856287 -0.4048202 0 -0.25019264
0 0.0727228 0.029849082 -0.4048202 0 -0.25019264
0 0.071933351 0.029841958 -0.4048202 0 -0.25019264
5.5511151e-17 0.071144283 0.029834913 -0.4048202 0 -0.25019264
0 0.070355594 0.029827945 -0.4048202 0 -0.25019264
0 0.069567278 0.029821059 -0.4048202 0 -0.25019264
0 0.068779327 0.029814251 -0.4048202 0 -0.25019264
0 0.067991734 0.029807521 -0.4048202 0 -0.25019264
0 0.067204505 0.029800871 -0.4048202 0 -0.25019264
0 0.066417634 0.0297943 -0.4048202 0 -0.25019264
0 0.065631106 0.029787809 -0.4048202 0 -0.25019264
0 0.064844929 0.029781396 -0.4048202 0 -0.25019264
0 0.064059094 0.029775059 -0.4048202 0 -0.25019264
5.5511151e-17 0.063273594 0.029768804 -0.4048202 0 -0.25019264
0 0.062488429 0.029762626 -0.4048202 0 -0.25019264
0 0.061703593 0.029756526 -0.4048202 0 -0.25019264
0 0.06091908 0.029750504 -0.4048202 0 -0.25019264
5.5511151e-17 0.060134888 0.029744562 -0.4048202 0 -0.25019264
0 0.059351012 0.029738696 -0.4048202 0 -0.25019264
5.5511151e-17 0.058567446 0.029732909 -0.4048202 0 -0.25019264
5.5511151e-17 0.057784192 0.0297272 -0.4048202 0 -0.25019264
0 0.057001237 0.029721569 -0.4048202 0 -0.25019264
0 0.056218583 0.029716017 -0.4048202 0 -0.25019264
0.039950836 0.060907107 0.057333585 -0.4048202 0 -0.25019264
5.5511151e-17 0.054654155 0.029705144 -0.4048202 0 -0.25019264
0 0.053872377 0.029699825 -0.4048202 0 -0.25019264
0.03990921 0.05832484 0.057287268 -0.4048202 0 -0.25019264
0 0.052309655 0.029689416 -0.4048202 0 -0.25019264
0 0.051528707 0.029684329 -0.4048202 0 -0.25019264
0 0.050748032 0.029679319 -0.4048202 0 -0.25019264
0 0.049967621 0.029674387 -0.4048202 0 -0.25019264
0 0.04918747 0.029669531 -0.4048202 0 -0.25019264
0 0.048407577 0.029664753 -0.4048202 0 -0.25019264
0 0.047627937 0.029660052 -0.4048202 0 -0.25019264
0 0.046848543 0.029655427 -0.4048202 0 -0.25019264
0 0.046069399 0.02965088 -0.4048202 0 -0.25019264
0 0.045290492 0.02964641 -0.4048202 0 -0.25019264
0 0.044511825 0.029642016 -0.4048202 0 -0.25019264
5.5511151e-17 0.043733388 0.0296377 -0.4048202 0 -0.25019264
0 0.042955179 0.029633459 -0.4048202 0 -0.25019264
0 0.042177193 0.029629296 -0.4048202 0 -0.25019264
0 0.04139943 0.029625209 -0.4048202 0 -0.25019264
0 0.04062188 0.029621201 -0.4048202 0 -0.25019264
5.5511151e-17 0.039844543 0.029617267 -0.4048202 0 -0.25019264
0 0.039067414 0.029613409 -0.4048202 0 -0.25019264
0 0.038290489 0.02960963 -0.4048202 0 -0.25019264
5.5511151e-17 0.037513763 0.029605925 -0.4048202 0 -0.25019264
5.5511151e-17 0.036737233 0.029602297 -0.4048202 0 -0.25019264
5.5511151e-17 0.035960894 0.029598746 -0.4048202 0 -0.25019264
0 0.035184741 0.029595271 -0.4048202 0 -0.25019264
5.5511151e-17 0.034408771 0.029591871 -0.4048202 0 -0.25019264
0.015064506 0.034884561 0.039999999 -0.4048202 0 -0.25019264
0 0.032857366 0.029585302 -0.4048202 0 -0.25019264
0.015074138 0.033276543 0.039999999 -0.4048202 0 -0.25019264
0 0.031306643 0.029579038 -0.4048202 0 -0.25019264
0 0.030531529 0.029576018 -0.4048202 0 -0.25019264
0 0.029756574 0.029573075 -0.4048202 0 -0.25019264
0 0.028981771 0.029570209 -0.4048202 0 -0.25019264
5.5511151e-17 0.028207121 0.029567419 -0.4048202 0 -0.25019264
0 0.027432617 0.029564703 -0.4048202 0 -0.25019264
0 0.026658254 0.029562065 -0.4048202 0 -0.25019264
5.5511151e-17 0.02588403 0.029559501 -0.4048202 0 -0.25019264
0.015111838 0.026047289 0.039999999 -0.4048202 0 -0.25019264
0 0.024335982 0.029554602 -0.4048202 0 -0.25019264
5.5511151e-17 0.02356215 0.029552266 -0.4048202 0 -0.25019264
0 0.022788439 0.029550005 -0.4048202 0 -0.25019264
5.5511151e-17 0.022014847 0.02954782 -0.4048202 0 -0.25019264
0 0.021241369 0.029545711 -0.4048202 0 -0.25019264
5.5511151e-17 0.020468002 0.029543677 -0.4048202 0 -0.25019264
5.5511151e-17 0.01969474 0.02954172 -0.4048202 0 -0.25019264
0.015137625 0.019629125 0.039999999 -0.4048202 0 -0.25019264
0 0.018148519 0.02953803 -0.4048202 0 -0.25019264
5.5511151e-17 0.017375551 0.029536298 -0.4048202 0 -0.25019264
5.5511151e-17 0.016602674 0.029534642 -0.4048202 0 -0.25019264
0 0.015829884 0.02953306 -0.4048202 0 -0.25019264
0 0.015057174 0.029531555 -0.4048202 0 -0.25019264
0 0.014284543 0.029530125 -0.4048202 0 -0.25019264
0 0.013511986 0.029528771 -0.4048202 0 -0.25019264
0 0.012739498 0.029527491 -0.4048202 0 -0.25019264
0 0.011967077 0.029526288 -0.4048202 0 -0.25019264
0 0.011194717 0.029525159 -0.4048202 0 -0.25019264
0 0.010422416 0.029524105 -0.4048202 0 -0.25019264
0.015162712 0.01001162 0.039999999 -0.4048202 0 -0.25019264
0 0.0088779712 0.029522225 -0.4048202 0 -0.25019264
0 0.00810582 0.029521396 -0.4048202 0 -0.25019264
0 0.0073337108 0.029520644 -0.4048202 0 -0.25019264
0 0.0065616393 0.029519968 -0.4048202 0 -0.25019264
0 0.0057896017 0.029519366 -0.4048202 0 -0.25019264
0 0.0050175944 0.029518839 -0.4048202 0 -0.25019264
0 0.0042456128 0.029518388 -0.4048202 0 -0.25019264
5.5511151e-17 0.0034736532 0.029518012 -0.4048202 0 -0.25019264
0 0.0027017116 0.029517712 -0.4048202 0 -0.25019264
0 0.001929784 0.029517487 -0.4048202 0 -0.25019264
0 0.0011578664 0.029517336 -0.4048202 0 -0.25019264
5.5511151e-17 0.0003859548 0.029517259 -0.4048202 0 -0.25019264
0 0.079764433 0.02896525 -0.4048202 0 -0.25019264
5.5511151e-17 0.078972191 0.028957663 -0.4048202 0 -0.25019264
5.5511151e-17 0.078180365 0.028950155 -0.4048202 0 -0.25019264
0 0.077388957 0.028942723 -0.4048202 0 -0.25019264
5.5511151e-17 0.076597959 0.028935367 -0.4048202 0 -0.25019264
0 0.07580737 0.02892809 -0.4048202 0 -0.25019264
0 0.075017177 0.028920891 -0.4048202 0 -0.25019264
0 0.074227385 0.028913768 -0.4048202 0 -0.25019264
5.5511151e-17 0.073437981 0.028906723 -0.4048202 0 -0.25019264
0 0.072648965 0.028899755 -0.4048202 0 -0.25019264
0 0.071860336 0.028892864 -0.4048202 0 -0.25019264
0 0.071072087 0.028886048 -0.4048202 0 -0.25019264
0 0.070284218 0.028879311 -0.4048202 0 -0.25019264
0 0.069496714 0.028872648 -0.4048202 0 -0.25019264
5.5511151e-17 0.068709575 0.028866064 -0.4048202 0 -0.25019264
0 0.067922801 0.028859556 -0.4048202 0 -0.25019264
0.035184596 0.072971486 0.053106144 -0.4048202 0 -0.25019264
0.03582165 0.072221518 0.053538352 -0.4048202 0 -0.25019264
5.5511151e-17 0.06556461 0.028840488 -0.4048202 0 -0.25019264
0 0.064779244 0.028834285 -0.4048202 0 -0.25019264
0 0.063994214 0.028828157 -0.4048202 0 -0.25019264
0 0.063209526 0.028822107 -0.4048202 0 -0.25019264
0 0.06242517 0.028816132 -0.4048202 0 -0.25019264
0 0.061641138 0.028810231 -0.4048202 0 -0.25019264
0 0.060857434 0.028804408 -0.4048202 0 -0.25019264
0 0.060074046 0.02879866 -0.4048202 0 -0.25019264
5.5511151e-17 0.059290975 0.028792987 -0.4048202 0 -0.25019264
0 0.058508217 0.028787389 -0.4048202 0 -0.25019264
0 0.057725765 0.028781869 -0.4048202 0 -0.25019264
0 0.056943614 0.028776422 -0.4048202 0 -0.25019264
0 0.056161761 0.02877105 -0.4048202 0 -0.25019264
5.5511151e-17 0.055380203 0.028765755 -0.4048202 0 -0.25019264
5.5511151e-17 0.054598935 0.028760534 -0.4048202 0 -0.25019264
5.5511151e-17 0.053817954 0.028755389 -0.4048202 0 -0.25019264
0 0.053037252 0.028750317 -0.4048202 0 -0.25019264
0 0.05225683 0.028745322 -0.4048202 0 -0.25019264
0 0.05147668 0.028740402 -0.4048202 0 -0.25019264
0 0.050696801 0.028735556 -0.4048202 0 -0.25019264
0.03927115 0.054759596 0.05578883 -0.4048202 0 -0.25019264
0 0.049137831 0.028726088 -0.4048202 0 -0.25019264
0 0.048358731 0.028721467 -0.4048202 0 -0.25019264
0 0.047579885 0.02871692 -0.4048202 0 -0.25019264
0 0.046801288 0.028712446 -0.4048202 0 -0.25019264
0 0.046022937 0.028708048 -0.4048202 0 -0.25019264
0.03692184 0.049371399 0.054140616 -0.4048202 0 -0.25019264
5.5511151e-17 0.044466946 0.028699474 -0.4048202 0 -0.25019264
0 0.043689299 0.0286953 -0.4048202 0 -0.25019264
0 0.042911883 0.028691199 -0.4048202 0 -0.25019264
0 0.042134687 0.028687172 -0.4048202 0 -0.25019264
0 0.041357715 0.028683219 -0.4048202 0 -0.25019264
5.5511151e-17 0.040580954 0.028679341 -0.4048202 0 -0.25019264
0 0.039804406 0.028675536 -0.4048202 0 -0.25019264
0 0.039028063 0.028671807 -0.4048202 0 -0.25019264
0 0.038251925 0.02866815 -0.4048202 0 -0.25019264
0 0.037475988 0.028664567 -0.4048202 0 -0.25019264
0 0.036700241 0.028661057 -0.4048202 0 -0.25019264
0 0.035924688 0.028657623 -0.4048202 0 -0.25019264
5.5511151e-17 0.035149321 0.028654262 -0.4048202 0 -0.25019264
0 0.03437414 0.028650975 -0.4048202 0 -0.25019264
0 0.033599135 0.02864776 -0.4048202 0 -0.25019264
5.5511151e-17 0.032824304 0.02864462 -0.4048202 0 -0.25019264
5.5511151e-17 0.032049641 0.028641554 -0.4048202 0 -0.25019264
0.016495069 0.032549504 0.039999999 -0.4048202 0 -0.25019264
0 0.030500816 0.02863564 -0.4048202 0 -0.25019264
5.5511151e-17 0.029726641 0.028632794 -0.4048202 0 -0.25019264
0.016507972 0.030133268 0.039999999 -0.4048202 0 -0.25019264
5.5511151e-17 0.028178753 0.028627323 -0.4048202 0 -0.25019264
5.5511151e-17 0.027405031 0.028624697 -0.4048202 0 -0.25019264
0.016519876 0.027718224 0.039999999 -0.4048202 0 -0.25019264
5.5511151e-17 0.025858007 0.028619664 -0.4048202 0 -0.25019264
0 0.025084697 0.028617259 -0.4048202 0 -0.25019264
0 0.024311518 0.028614925 -0.4048202 0 -0.25019264
0 0.023538467 0.028612666 -0.4048202 0 -0.25019264
0 0.022765536 0.028610479 -0.4048202 0 -0.25019264
0 0.021992723 0.028608367 -0.4048202 0 -0.25019264
0.016543781 0.022087222 0.039999999 -0.4048202 0 -0.25019264
5.5511151e-17 0.020447433 0.028604358 -0.4048202 0 -0.25019264
5.5511151e-17 0.019674951 0.028602464 -0.4048202 0 -0.25019264
0 0.018902568 0.028600644 -0.4048202 0 -0.25019264
0 0.018130286 0.028598895 -0.4048202 0 -0.25019264
0 0.017358096 0.028597221 -0.4048202 0 -0.25019264
0 0.016585996 0.028595619 -0.4048202 0 -0.25019264
5.5511151e-17 0.015813982 0.02859409 -0.4048202 0 -0.25019264
0 0.015042049 0.028592633 -0.4048202 0 -0.25019264
0 0.014270195 0.028591251 -0.4048202 0 -0.25019264
0 0.013498414 0.02858994 -0.4048202 0 -0.25019264
0 0.012726704 0.028588703 -0.4048202 0 -0.25019264
0 0.011955058 0.028587539 -0.4048202 0 -0.25019264
0 0.011183475 0.028586447 -0.4048202 0 -0.25019264
0 0.01041195 0.028585428 -0.4048202 0 -0.25019264
0 0.0096404785 0.028584482 -0.4048202 0 -0.25019264
5.5511151e-17 0.0088690566 0.028583609 -0.4048202 0 -0.25019264
0 0.0080976812 0.028582809 -0.4048202 0 -0.25019264
0.016580427 0.0076264157 0.039999999 -0.4048202 0 -0.25019264
5.5511151e-17 0.0065550506 0.028581426 -0.4048202 0 -0.25019264
0 0.0057837889 0.028580844 -0.4048202 0 -0.25019264
5.5511151e-17 0.0050125564 0.028580336 -0.4048202 0 -0.25019264
0 0.0042413501 0.028579898 -0.4048202 0 -0.25019264
5.5511151e-17 0.0034701657 0.028579535 -0.4048202 0 -0.25019264
5.5511151e-17 0.0026989991 0.028579244 -0.4048202 0 -0.25019264
0 0.0019278465 0.028579026 -0.4048202 0 -0.25019264
0 0.0011567039 0.028578879 -0.4048202 0 -0.25019264
5.5511151e-17 0.00038556731 0.028578807 -0.4048202 0 -0.25019264
0 0.079683363 0.028015783 -0.4048202 0 -0.25019264
0 0.078891948 0.028008454 -0.4048202 0 -0.25019264
0 0.07810095 0.028001197 -0.4048202 0 -0.25019264
0 0.077310361 0.027994016 -0.4048202 0 -0.25019264
0 0.07652019 0.02798691 -0.4048202 0 -0.25019264
0 0.075730421 0.027979879 -0.4048202 0 -0.25019264
0 0.074941047 0.027972922 -0.4048202 0 -0.25019264
0 0.074152075 0.027966039 -0.4048202 0 -0.25019264
0 0.07336349 0.027959231 -0.4048202 0 -0.25019264
0 0.072575293 0.027952498 -0.4048202 0 -0.25019264
0.030234437 0.077149011 0.048718914 -0.4048202 0 -0.25019264
0 0.071000054 0.027939254 -0.4048202 0 -0.25019264
0 0.07021299 0.027932744 -0.4048202 0 -0.25019264
0 0.069426306 0.027926307 -0.4048202 0 -0.25019264
0 0.068639979 0.027919946 -0.4048202 0 -0.25019264
0 0.067854017 0.027913656 -0.4048202 0 -0.25019264
0 0.067068413 0.027907442 -0.4048202 0 -0.25019264
0 0.066283166 0.027901301 -0.4048202 0 -0.25019264
0 0.065498263 0.027895233 -0.4048202 0 -0.25019264
0 0.064713702 0.027889239 -0.4048202 0 -0.25019264
0 0.063929483 0.027883319 -0.4048202 0 -0.25019264
0 0.0631456 0.027877472 -0.4048202 0 -0.25019264
0 0.062362049 0.027871698 -0.4048202 0 -0.25019264
0 0.061578825 0.027865998 -0.4048202 0 -0.25019264
0 0.060795922 0.02786037 -0.4048202 0 -0.25019264
5.5511151e-17 0.060013339 0.027854817 -0.4048202 0 -0.25019264
0 0.059231073 0.027849335 -0.4048202 0 -0.25019264
5.5511151e-17 0.058449116 0.027843926 -0.4048202 0 -0.25019264
0.0396927 0.063321769 0.055099607 -0.4048202 0 -0.25019264
0 0.056886114 0.02783333 -0.4048202 0 -0.25019264
0 0.056105062 0.027828138 -0.4048202 0 -0.25019264
0 0.055324305 0.027823022 -0.4048202 0 -0.25019264
0 0.054543834 0.027817978 -0.4048202 0 -0.25019264
0 0.05376365 0.027813006 -0.4048202 0 -0.25019264
0 0.052983746 0.027808106 -0.4048202 0 -0.25019264
5.5511151e-17 0.052204121 0.027803279 -0.4048202 0 -0.25019264
5.5511151e-17 0.051424768 0.027798524 -0.4048202 0 -0.25019264
5.5511151e-17 0.050645683 0.027793841 -0.4048202 0 -0.25019264
0 0.049866859 0.027789231 -0.4048202 0 -0.25019264
0 0.049088299 0.027784694 -0.4048202 0 -0.25019264
5.5511151e-17 0.048309993 0.027780227 -0.4048202 0 -0.25019264
0 0.04753194 0.027775835 -0.4048202 0 -0.25019264
0 0.046754137 0.027771512 -0.4048202 0 -0.25019264
0 0.045976575 0.027767263 -0.4048202 0 -0.25019264
5.5511151e-17 0.045199253 0.027763085 -0.4048202 0 -0.25019264
5.5511151e-17 0.044422165 0.027758978 -0.4048202 0 -0.25019264
0 0.043645307 0.027754944 -0.4048202 0 -0.25019264
0 0.042868681 0.027750982 -0.4048202 0 -0.25019264
0.033850539 0.045611974 0.050988048 -0.4048202 0 -0.25019264
5.5511151e-17 0.041316088 0.027743272 -0.4048202 0 -0.25019264
0 0.040540114 0.027739525 -0.4048202 0 -0.25019264
0.030002449 0.042711411 0.048333969 -0.4048202 0 -0.25019264
5.5511151e-17 0.038988799 0.027732244 -0.4048202 0 -0.25019264
0 0.038213447 0.02772871 -0.4048202 0 -0.25019264
0 0.037438292 0.02772525 -0.4048202 0 -0.25019264
5.5511151e-17 0.036663335 0.027721858 -0.4048202 0 -0.25019264
0 0.035888564 0.027718538 -0.4048202 0 -0.25019264
0 0.035113983 0.027715292 -0.4048202 0 -0.25019264
0.017899601 0.035857946 0.039999999 -0.4048202 0 -0.25019264
0 0.033565357 0.027709009 -0.4048202 0 -0.25019264
0 0.032791309 0.027705975 -0.4048202 0 -0.25019264
0.017913448 0.033434216 0.039999999 -0.4048202 0 -0.25019264
0 0.031243719 0.027700119 -0.4048202 0 -0.25019264
0 0.030470168 0.027697299 -0.4048202 0 -0.25019264
0 0.029696776 0.027694548 -0.4048202 0 -0.25019264
0 0.028923536 0.027691869 -0.4048202 0 -0.25019264
0 0.028150447 0.027689261 -0.4048202 0 -0.25019264
0 0.027377503 0.027686723 -0.4048202 0 -0.25019264
0 0.026604703 0.027684256 -0.4048202 0 -0.25019264
0 0.025832038 0.027681861 -0.4048202 0 -0.25019264
5.5511151e-17 0.025059508 0.027679536 -0.4048202 0 -0.25019264
0 0.024287108 0.027677283 -0.4048202 0 -0.25019264
0 0.023514833 0.0276751 -0.4048202 0 -0.25019264
0 0.022742679 0.027672986 -0.4048202 0 -0.25019264
5.5511151e-17 0.021970645 0.027670944 -0.4048202 0 -0.25019264
0.017965233 0.022139486 0.039999999 -0.4048202 0 -0.25019264
5.5511151e-17 0.02042691 0.027667072 -0.4048202 0 -0.25019264
0 0.019655203 0.027665243 -0.4048202 0 -0.25019264
5.5511151e-17 0.018883599 0.027663482 -0.4048202 0 -0.25019264
0.017976157 0.018916363 0.039999999 -0.4048202 0 -0.25019264
0 0.017340677 0.027660174 -0.4048202 0 -0.25019264
5.5511151e-17 0.016569354 0.027658626 -0.4048202 0 -0.25019264
5.5511151e-17 0.015798114 0.027657149 -0.4048202 0 -0.25019264
0.017985364 0.015694575 0.039999999 -0.4048202 0 -0.25019264
0 0.014255878 0.027654406 -0.4048202 0 -0.25019264
5.5511151e-17 0.013484872 0.027653141 -0.4048202 0 -0.25019264
0 0.012713936 0.027651945 -0.4048202 0 -0.25019264
5.5511151e-17 0.011943066 0.02765082 -0.4048202 0 -0.25019264
5.5511151e-17 0.011172257 0.027649764 -0.4048202 0 -0.25019264
5.5511151e-17 0.010401506 0.02764878 -0.4048202 0 -0.25019264
0 0.0096308086 0.027647866 -0.4048202 0 -0.25019264
5.5511151e-17 0.0088601606 0.027647022 -0.4048202 0 -0.25019264
5.5511151e-17 0.0080895592 0.027646249 -0.4048202 0 -0.25019264
0 0.0073189992 0.027645545 -0.4048202 0 -0.25019264
0 0.0065484769 0.027644914 -0.4048202 0 -0.25019264
0 0.0057779881 0.027644351 -0.4048202 0 -0.25019264
0 0.0050075292 0.027643859 -0.4048202 0 -0.25019264
0 0.0042370963 0.027643437 -0.4048202 0 -0.25019264
5.5511151e-17 0.0034666855 0.027643086 -0.4048202 0 -0.25019264
0 0.0026962925 0.027642805 -0.4048202 0 -0.25019264
0 0.0019259132 0.027642593 -0.4048202 0 -0.25019264
0.018005589 0.0012069403 0.039999999 -0.4048202 0 -0.25019264
5.5511151e-17 0.00038518064 0.027642382 -0.4048202 0 -0.25019264
0 0.079602472 0.027068388 -0.4048202 0 -0.25019264
0 0.078811876 0.027061312 -0.4048202 0 -0.25019264
5.5511151e-17 0.078021705 0.027054308 -0.4048202 0 -0.25019264
0 0.077231944 0.027047377 -0.4048202 0 -0.25019264
0 0.076442584 0.027040519 -0.4048202 0 -0.25019264
0 0.075653635 0.027033731 -0.4048202 0 -0.25019264
0 0.074865088 0.027027017 -0.4048202 0 -0.25019264
0 0.074076928 0.027020374 -0.4048202 0 -0.25019264
5.5511151e-17 0.073289163 0.027013803 -0.4048202 0 -0.25019264
0 0.072501786 0.027007304 -0.4048202 0 -0.25019264
5.5511151e-17 0.071714789 0.027000878 -0.4048202 0 -0.25019264
0 0.070928171 0.026994521 -0.4048202 0 -0.25019264
0 0.070141926 0.026988238 -0.4048202 0 -0.25019264
0 0.069356047 0.026982024 -0.4048202 0 -0.25019264
0 0.068570539 0.026975883 -0.4048202 0 -0.25019264
0 0.067785382 0.026969815 -0.4048202 0 -0.25019264
0 0.06700059 0.026963815 -0.4048202 0 -0.25019264
5.5511151e-17 0.066216148 0.026957888 -0.4048202 0 -0.25019264
0 0.065432049 0.026952032 -0.4048202 0 -0.25019264
0 0.0646483 0.026946247 -0.4048202 0 -0.25019264
5.5511151e-17 0.063864887 0.026940532 -0.4048202 0 -0.25019264
0 0.063081808 0.026934888 -0.4048202 0 -0.25019264
5.5511151e-17 0.062299065 0.026929315 -0.4048202 0 -0.25019264
0 0.061516643 0.026923813 -0.4048202 0 -0.25019264
0 0.060734544 0.026918381 -0.4048202 0 -0.25019264
0 0.059952766 0.026913021 -0.4048202 0 -0.25019264
0 0.0591713 0.026907729 -0.4048202 0 -0.25019264
0 0.058390141 0.02690251 -0.4048202 0 -0.25019264
0 0.05760929 0.02689736 -0.4048202 0 -0.25019264
0 0.056828741 0.02689228 -0.4048202 0 -0.25019264
0 0.056048486 0.026887272 -0.4048202 0 -0.25019264
5.5511151e-17 0.055268526 0.026882332 -0.4048202 0 -0.25019264
0 0.054488853 0.026877463 -0.4048202 0 -0.25019264
5.5511151e-17 0.053709466 0.026872665 -0.4048202 0 -0.25019264
0 0.052930359 0.026867935 -0.4048202 0 -0.25019264
0 0.052151524 0.026863275 -0.4048202 0 -0.25019264
0 0.051372964 0.026858687 -0.4048202 0 -0.25019264
5.5511151e-17 0.050594673 0.026854167 -0.4048202 0 -0.25019264
5.5511151e-17 0.049816646 0.026849717 -0.4048202 0 -0.25019264
0 0.049038876 0.026845338 -0.4048202 0 -0.25019264
5.5511151e-17 0.048261363 0.026841028 -0.4048202 0 -0.25019264
5.5511151e-17 0.0474841 0.026836786 -0.4048202 0 -0.25019264
5.5511151e-17 0.046707086 0.026832614 -0.4048202 0 -0.25019264
5.5511151e-17 0.045930311 0.026828513 -0.4048202 0 -0.25019264
0 0.045153778 0.02682448 -0.4048202 0 -0.25019264
0 0.04437748 0.026820516 -0.4048202 0 -0.25019264
0 0.043601412 0.026816623 -0.4048202 0 -0.25019264
5.5511151e-17 0.042825572 0.026812797 -0.4048202 0 -0.25019264
5.5511151e-17 0.042049952 0.026809042 -0.4048202 0 -0.25019264
0 0.041274551 0.026805356 -0.4048202 0 -0.25019264
5.5511151e-17 0.040499363 0.026801739 -0.4048202 0 -0.25019264
0 0.039724387 0.026798191 -0.4048202 0 -0.25019264
5.5511151e-17 0.038949616 0.026794711 -0.4048202 0 -0.25019264
0 0.03817505 0.026791301 -0.4048202 0 -0.25019264
0 0.037400678 0.026787959 -0.4048202 0 -0.25019264
0 0.036626503 0.026784686 -0.4048202 0 -0.25019264
5.5511151e-17 0.035852518 0.026781483 -0.4048202 0 -0.25019264
0 0.035078716 0.026778348 -0.4048202 0 -0.25019264
0 0.034305096 0.026775282 -0.4048202 0 -0.25019264
0 0.033531655 0.026772285 -0.4048202 0 -0.25019264
0.019338509 0.034323275 0.039999999 -0.4048202 0 -0.25019264
0 0.03198529 0.026766496 -0.4048202 0 -0.25019264
5.5511151e-17 0.031212358 0.026763704 -0.4048202 0 -0.25019264
0 0.030439585 0.02676098 -0.4048202 0 -0.25019264
0.0193554 0.03108542 0.039999999 -0.4048202 0 -0.25019264
5.5511151e-17 0.028894512 0.026755741 -0.4048202 0 -0.25019264
0 0.028122202 0.026753223 -0.4048202 0 -0.25019264
0 0.027350036 0.026750773 -0.4048202 0 -0.25019264
0 0.026578013 0.026748393 -0.4048202 0 -0.25019264
0 0.025806125 0.026746081 -0.4048202 0 -0.25019264
0 0.025034374 0.026743837 -0.4048202 0 -0.25019264
0 0.024262749 0.026741661 -0.4048202 0 -0.25019264
5.5511151e-17 0.02349125 0.026739553 -0.4048202 0 -0.25019264
0 0.022719873 0.026737515 -0.4048202 0 -0.25019264
0 0.021948615 0.026735544 -0.4048202 0 -0.25019264
0 0.021177467 0.026733641 -0.4048202 0 -0.25019264
0 0.020406431 0.026731806 -0.4048202 0 -0.25019264
0 0.019635499 0.02673004 -0.4048202 0 -0.25019264
5.5511151e-17 0.018864669 0.026728341 -0.4048202 0 -0.25019264
0.019403828 0.018961214 0.039999999 -0.4048202 0 -0.25019264
0 0.017323297 0.026725149 -0.4048202 0 -0.25019264
5.5511151e-17 0.016552746 0.026723655 -0.4048202 0 -0.25019264
0 0.015782282 0.026722228 -0.4048202 0 -0.25019264
0 0.015011898 0.02672087 -0.4048202 0 -0.25019264
5.5511151e-17 0.014241592 0.026719581 -0.4048202 0 -0.25019264
0 0.013471359 0.026718358 -0.4048202 0 -0.25019264
5.5511151e-17 0.012701197 0.026717205 -0.4048202 0 -0.25019264
0 0.011931099 0.026716119 -0.4048202 0 -0.25019264
0 0.011161063 0.0267151 -0.4048202 0 -0.25019264
0 0.010391084 0.02671415 -0.4048202 0 -0.25019264
5.5511151e-17 0.0096211601 0.026713267 -0.4048202 0 -0.25019264
0 0.0088512842 0.026712453 -0.4048202 0 -0.25019264
0 0.0080814548 0.026711706 -0.4048202 0 -0.25019264
5.5511151e-17 0.0073116669 0.026711028 -0.4048202 0 -0.25019264
0 0.0065419166 0.026710417 -0.4048202 0 -0.25019264
5.5511151e-17 0.0057721999 0.026709875 -0.4048202 0 -0.25019264
0 0.0050025131 0.0267094 -0.4048202 0 -0.25019264
0 0.0042328523 0.026708992 -0.4048202 0 -0.25019264
0 0.0034632129 0.026708653 -0.4048202 0 -0.25019264
0 0.0026935916 0.026708381 -0.4048202 0 -0.25019264
5.5511151e-17 0.001923984 0.026708178 -0.4048202 0 -0.25019264
0 0.0011543864 0.026708042 -0.4048202 0 -0.25019264
0 0.00038479484 0.026707975 -0.4048202 0 -0.25019264
0 0.079521753 0.026123051 -0.4048202 0 -0.25019264
5.5511151e-17 0.078731984 0.026116228 -0.4048202 0 -0.25019264
0 0.077942632 0.026109476 -0.4048202 0 -0.25019264
0 0.07715369 0.026102794 -0.4048202 0 -0.25019264
0 0.076365151 0.026096182 -0.4048202 0 -0.25019264
0 0.075577021 0.026089638 -0.4048202 0 -0.25019264
5.5511151e-17 0.074789286 0.026083166 -0.4048202 0 -0.25019264
0 0.074001946 0.02607676 -0.4048202 0 -0.25019264
0 0.073215 0.026070425 -0.4048202 0 -0.25019264
0 0.072428435 0.026064159 -0.4048202 0 -0.25019264
0 0.07164225 0.026057964 -0.4048202 0 -0.25019264
0 0.070856445 0.026051836 -0.4048202 0 -0.25019264
5.5511151e-17 0.070071012 0.026045779 -0.4048202 0 -0.25019264
0 0.069285944 0.026039788 -0.4048202 0 -0.25019264
0 0.068501242 0.026033867 -0.4048202 0 -0.25019264
0 0.067716897 0.026028015 -0.4048202 0 -0.25019264
0 0.066932917 0.026022233 -0.4048202 0 -0.25019264
0 0.066149279 0.026016517 -0.4048202 0 -0.25019264
0 0.065365992 0.026010871 -0.4048202 0 -0.25019264
5.5511151e-17 0.064583041 0.026005294 -0.4048202 0 -0.25019264
0 0.063800432 0.025999784 -0.4048202 0 -0.25019264
0 0.063018158 0.025994344 -0.4048202 0 -0.25019264
0 0.062236216 0.02598897 -0.4048202 0 -0.25019264
0 0.061454598 0.025983665 -0.4048202 0 -0.25019264
0 0.0606733 0.025978429 -0.4048202 0 -0.25019264
5.5511151e-17 0.059892323 0.02597326 -0.4048202 0 -0.25019264
5.5511151e-17 0.059111655 0.02596816 -0.4048202 0 -0.25019264
5.5511151e-17 0.058331296 0.025963128 -0.4048202 0 -0.25019264
0 0.057551242 0.025958162 -0.4048202 0 -0.25019264
0 0.056771491 0.025953265 -0.4048202 0 -0.25019264
0 0.055992033 0.025948435 -0.4048202 0 -0.25019264
0 0.055212867 0.025943674 -0.4048202 0 -0.25019264
0 0.05443399 0.025938978 -0.4048202 0 -0.25019264
5.5511151e-17 0.053655397 0.025934352 -0.4048202 0 -0.25019264
0 0.052877083 0.025929794 -0.4048202 0 -0.25019264
0 0.052099042 0.025925301 -0.4048202 0 -0.25019264
5.5511151e-17 0.051321276 0.025920877 -0.4048202 0 -0.25019264
0 0.050543774 0.025916519 -0.4048202 0 -0.25019264
0 0.049766537 0.025912229 -0.4048202 0 -0.25019264
0 0.04898956 0.025908006 -0.4048202 0 -0.25019264
0 0.048212837 0.025903851 -0.4048202 0 -0.25019264
5.5511151e-17 0.047436364 0.025899762 -0.4048202 0 -0.25019264
0 0.046660136 0.025895741 -0.4048202 0 -0.25019264
0 0.045884151 0.025891785 -0.4048202 0 -0.25019264
0 0.045108404 0.025887897 -0.4048202 0 -0.25019264
5.5511151e-17 0.044332892 0.025884077 -0.4048202 0 -0.25019264
0 0.04355761 0.025880322 -0.4048202 0 -0.25019264
5.5511151e-17 0.042782556 0.025876634 -0.4048202 0 -0.25019264
0 0.042007722 0.025873015 -0.4048202 0 -0.25019264
0 0.041233104 0.025869459 -0.4048202 0 -0.25019264
0 0.040458702 0.025865972 -0.4048202 0 -0.25019264
0.029832166 0.042608954 0.046205714 -0.4048202 0 -0.25019264
0 0.038910523 0.025859198 -0.4048202 0 -0.25019264
0 0.038136736 0.025855908 -0.4048202 0 -0.25019264
0 0.037363146 0.025852688 -0.4048202 0 -0.25019264
0 0.036589753 0.025849532 -0.4048202 0 -0.25019264
0 0.035816547 0.025846444 -0.4048202 0 -0.25019264
0 0.035043526 0.025843421 -0.4048202 0 -0.25019264
0 0.034270689 0.025840465 -0.4048202 0 -0.25019264
0 0.033498026 0.025837576 -0.4048202 0 -0.25019264
0 0.032725535 0.025834752 -0.4048202 0 -0.25019264
0 0.031953216 0.025831994 -0.4048202 0 -0.25019264
0 0.031181064 0.025829302 -0.4048202 0 -0.25019264
0 0.03040907 0.025826678 -0.4048202 0 -0.25019264
5.5511151e-17 0.029637234 0.025824118 -0.4048202 0 -0.25019264
0 0.028865552 0.025821624 -0.4048202 0 -0.25019264
0 0.028094018 0.025819197 -0.4048202 0 -0.25019264
0 0.027322628 0.025816835 -0.4048202 0 -0.25019264
0 0.026551381 0.025814541 -0.4048202 0 -0.25019264
0 0.02578027 0.025812311 -0.4048202 0 -0.25019264
0 0.025009291 0.025810149 -0.4048202 0 -0.25019264
5.5511151e-17 0.024238443 0.025808051 -0.4048202 0 -0.25019264
0 0.02346772 0.025806019 -0.4048202 0 -0.25019264
0 0.022697117 0.025804052 -0.4048202 0 -0.25019264
0 0.021926632 0.025802152 -0.4048202 0 -0.25019264
0.02082777 0.022244737 0.039999999 -0.4048202 0 -0.25019264
5.5511151e-17 0.020385996 0.025798548 -0.4048202 0 -0.25019264
0 0.019615836 0.025796846 -0.4048202 0 -0.25019264
0 0.01884578 0.025795208 -0.4048202 0 -0.25019264
0.020838074 0.019006271 0.039999999 -0.4048202 0 -0.25019264
5.5511151e-17 0.017305953 0.025792131 -0.4048202 0 -0.25019264
0 0.016536174 0.02579069 -0.4048202 0 -0.25019264
0 0.015766483 0.025789315 -0.4048202 0 -0.25019264
5.5511151e-17 0.014996871 0.025788005 -0.4048202 0 -0.25019264
0.020848678 0.01496006 0.039999999 -0.4048202 0 -0.25019264
0 0.013457876 0.025785584 -0.4048202 0 -0.25019264
5.5511151e-17 0.012688484 0.025784472 -0.4048202 0 -0.25019264
0 0.011919159 0.025783423 -0.4048202 0 -0.25019264
0 0.011149894 0.025782442 -0.4048202 0 -0.25019264
5.5511151e-17 0.010380685 0.025781527 -0.4048202 0 -0.25019264
0 0.0096115321 0.025780676 -0.4048202 0 -0.25019264
5.5511151e-17 0.0088424273 0.02577989 -0.4048202 0 -0.25019264
0 0.0080733681 0.025779171 -0.4048202 0 -0.25019264
0 0.0073043504 0.025778517 -0.4048202 0 -0.25019264
0 0.0065353708 0.025777929 -0.4048202 0 -0.25019264
0.020863112 0.0060636071 0.039999999 -0.4048202 0 -0.25019264
0 0.0049975077 0.025776947 -0.4048202 0 -0.25019264
5.5511151e-17 0.0042286171 0.025776554 -0.4048202 0 -0.25019264
0 0.0034597479 0.025776228 -0.4048202 0 -0.25019264
0.02086533 0.0028295913 0.039999999 -0.4048202 0 -0.25019264
5.5511151e-17 0.001922059 0.02577577 -0.4048202 0 -0.25019264
0 0.0011532315 0.025775637 -0.4048202 0 -0.25019264
0.020865936 0.00040422374 0.039999999 -0.4048202 0 -0.25019264
5.5511151e-17 0.079441212 0.025179761 -0.4048202 0 -0.25019264
0 0.078652263 0.025173193 -0.4048202 0 -0.25019264
0 0.07786373 0.02516669 -0.4048202 0 -0.25019264
5.5511151e-17 0.077075601 0.025160257 -0.4048202 0 -0.25019264
0 0.076287888 0.025153888 -0.4048202 0 -0.25019264
0 0.07550057 0.025147589 -0.4048202 0 -0.25019264
0.025050696 0.079337008 0.042179309 -0.4048202 0 -0.25019264
5.5511151e-17 0.073927127 0.025135187 -0.4048202 0 -0.25019264
5.5511151e-17 0.073140994 0.025129087 -0.4048202 0 -0.25019264
5.5511151e-17 0.072355241 0.025123054 -0.4048202 0 -0.25019264
0.03053486 0.076968253 0.045883205 -0.4048202 0 -0.25019264
0 0.070784874 0.025111187 -0.4048202 0 -0.25019264
0 0.070000246 0.025105353 -0.4048202 0 -0.25019264
0 0.069215991 0.025099587 -0.4048202 0 -0.25019264
5.5511151e-17 0.0684321 0.025093885 -0.4048202 0 -0.25019264
5.5511151e-17 0.06764856 0.025088251 -0.4048202 0 -0.25019264
5.5511151e-17 0.066865385 0.025082681 -0.4048202 0 -0.25019264
0 0.066082552 0.025077179 -0.4048202 0 -0.25019264
0 0.06530007 0.025071742 -0.4048202 0 -0.25019264
0 0.064517923 0.02506637 -0.4048202 0 -0.25019264
0 0.063736118 0.025061065 -0.4048202 0 -0.25019264
0 0.062954649 0.025055826 -0.4048202 0 -0.25019264
5.5511151e-17 0.062173504 0.025050653 -0.4048202 0 -0.25019264
5.5511151e-17 0.061392687 0.025045544 -0.4048202 0 -0.25019264
0 0.060612187 0.025040502 -0.4048202 0 -0.25019264
5.5511151e-17 0.059832007 0.025035525 -0.4048202 0 -0.25019264
0.039393805 0.064798608 0.0518131 -0.4048202 0 -0.25019264
0 0.058272578 0.025025768 -0.4048202 0 -0.25019264
5.5511151e-17 0.057493318 0.025020987 -0.4048202 0 -0.25019264
0 0.056714363 0.025016271 -0.4048202 0 -0.25019264
0 0.055935699 0.025011621 -0.4048202 0 -0.25019264
5.5511151e-17 0.05515733 0.025007036 -0.4048202 0 -0.25019264
0 0.054379243 0.025002515 -0.4048202 0 -0.25019264
0 0.053601444 0.024998059 -0.4048202 0 -0.25019264
5.5511151e-17 0.052823924 0.024993669 -0.4048202 0 -0.25019264
5.5511151e-17 0.052046675 0.024989344 -0.4048202 0 -0.25019264
0 0.051269699 0.024985084 -0.4048202 0 -0.25019264
0 0.050492987 0.024980888 -0.4048202 0 -0.25019264
0 0.04971654 0.024976756 -0.4048202 0 -0.25019264
0 0.048940349 0.02497269 -0.4048202 0 -0.25019264
0 0.048164412 0.024968689 -0.4048202 0 -0.25019264
0 0.047388729 0.024964752 -0.4048202 0 -0.25019264
0 0.046613287 0.024960879 -0.4048202 0 -0.25019264
5.5511151e-17 0.045838088 0.02495707 -0.4048202 0 -0.25019264
0 0.045063127 0.024953326 -0.4048202 0 -0.25019264
0 0.044288401 0.024949647 -0.4048202 0 -0.25019264
5.5511151e-17 0.043513905 0.024946032 -0.4048202 0 -0.25019264
0 0.04273963 0.024942482 -0.4048202 0 -0.25019264
0 0.041965581 0.024938995 -0.4048202 0 -0.25019264
5.5511151e-17 0.041191746 0.024935573 -0.4048202 0 -0.25019264
5.5511151e-17 0.040418126 0.024932215 -0.4048202 0 -0.25019264
5.5511151e-17 0.039644714 0.02492892 -0.4048202 0 -0.25019264
0 0.038871508 0.02492569 -0.4048202 0 -0.25019264
0 0.038098503 0.024922524 -0.4048202 0 -0.25019264
0 0.037325695 0.024919422 -0.4048202 0 -0.25019264
0 0.036553081 0.024916384 -0.4048202 0 -0.25019264
5.5511151e-17 0.035780653 0.02491341 -0.4048202 0 -0.25019264
0.022204526 0.036928635 0.039999999 -0.4048202 0 -0.25019264
0 0.034236353 0.024907652 -0.4048202 0 -0.25019264
5.5511151e-17 0.033464469 0.024904869 -0.4048202 0 -0.25019264
0 0.032692757 0.02490215 -0.4048202 0 -0.25019264
5.5511151e-17 0.031921215 0.024899496 -0.4048202 0 -0.25019264
0 0.031149836 0.024896905 -0.4048202 0 -0.25019264
0 0.030378619 0.024894375 -0.4048202 0 -0.25019264
0 0.029607559 0.024891911 -0.4048202 0 -0.25019264
0 0.028836653 0.02488951 -0.4048202 0 -0.25019264
5.5511151e-17 0.028065894 0.024887174 -0.4048202 0 -0.25019264
0 0.027295278 0.0248849 -0.4048202 0 -0.25019264
5.5511151e-17 0.026524805 0.024882689 -0.4048202 0 -0.25019264
0 0.025754469 0.024880543 -0.4048202 0 -0.25019264
5.5511151e-17 0.024984265 0.024878459 -0.4048202 0 -0.25019264
0 0.024214189 0.02487644 -0.4048202 0 -0.25019264
0 0.023444239 0.024874482 -0.4048202 0 -0.25019264
0 0.02267441 0.02487259 -0.4048202 0 -0.25019264
5.5511151e-17 0.021904696 0.024870761 -0.4048202 0 -0.25019264
0 0.021135096 0.024868993 -0.4048202 0 -0.25019264
0 0.020365603 0.024867291 -0.4048202 0 -0.25019264
5.5511151e-17 0.019596217 0.02486565 -0.4048202 0 -0.25019264
0 0.018826932 0.024864074 -0.4048202 0 -0.25019264
0 0.018057743 0.02486256 -0.4048202 0 -0.25019264
5.5511151e-17 0.017288646 0.02486111 -0.4048202 0 -0.25019264
0 0.01651964 0.024859723 -0.4048202 0 -0.25019264
5.5511151e-17 0.015750717 0.024858398 -0.4048202 0 -0.25019264
0.022287371 0.015806703 0.039999999 -0.4048202 0 -0.25019264
0.022289231 0.01499568 0.039999999 -0.4048202 0 -0.25019264
0 0.013444421 0.024854805 -0.4048202 0 -0.25019264
0 0.012675799 0.024853734 -0.4048202 0 -0.25019264
0 0.011907242 0.024852727 -0.4048202 0 -0.25019264
5.5511151e-17 0.011138747 0.02485178 -0.4048202 0 -0.25019264
5.5511151e-17 0.010370309 0.024850897 -0.4048202 0 -0.25019264
0 0.0096019246 0.02485008 -0.4048202 0 -0.25019264
0 0.008833589 0.024849324 -0.4048202 0 -0.25019264
0 0.0080652982 0.024848631 -0.4048202 0 -0.25019264
0 0.0072970497 0.024848001 -0.4048202 0 -0.25019264
0 0.0065288385 0.024847433 -0.4048202 0 -0.25019264
0 0.0057606613 0.02484693 -0.4048202 0 -0.25019264
5.5511151e-17 0.004992513 0.024846489 -0.4048202 0 -0.25019264
0 0.0042243907 0.02484611 -0.4048202 0 -0.25019264
5.5511151e-17 0.0034562901 0.024845796 -0.4048202 0 -0.25019264
0 0.0026882072 0.024845544 -0.4048202 0 -0.25019264
5.5511151e-17 0.0019201381 0.024845354 -0.4048202 0 -0.25019264
0.022305865 0.0012155593 0.039999999 -0.4048202 0 -0.25019264
0 0.00038402565 0.024845166 -0.4048202 0 -0.25019264
0 0.079360843 0.024238508 -0.4048202 0 -0.25019264
0.0073536308 0.079999998 0.029217167 -0.4048202 0 -0.25019264
0 0.077784993 0.024225939 -0.4048202 0 -0.25019264
5.5511151e-17 0.07699769 0.024219751 -0.4048202 0 -0.25019264
0 0.076210789 0.024213629 -0.4048202 0 -0.25019264
5.5511151e-17 0.075424284 0.02420757 -0.4048202 0 -0.25019264
0 0.07463818 0.024201576 -0.4048202 0 -0.25019264
0 0.073852472 0.024195645 -0.4048202 0 -0.25019264
0 0.073067144 0.02418978 -0.4048202 0 -0.25019264
0 0.072282203 0.024183977 -0.4048202 0 -0.25019264
0 0.071497642 0.024178239 -0.4048202 0 -0.25019264
0 0.070713453 0.024172565 -0.4048202 0 -0.25019264
0 0.069929637 0.024166955 -0.4048202 0 -0.25019264
5.5511151e-17 0.069146186 0.02416141 -0.4048202 0 -0.25019264
0.034126941 0.074126214 0.047283914 -0.4048202 0 -0.25019264
0 0.067580372 0.024150508 -0.4048202 0 -0.25019264
0 0.066797994 0.024145152 -0.4048202 0 -0.25019264
0 0.066015966 0.024139861 -0.4048202 0 -0.25019264
0 0.065234289 0.024134632 -0.4048202 0 -0.25019264
0 0.064452946 0.024129467 -0.4048202 0 -0.25019264
5.5511151e-17 0.063671939 0.024124365 -0.4048202 0 -0.25019264
0 0.062891267 0.024119327 -0.4048202 0 -0.25019264
0 0.062110927 0.024114352 -0.4048202 0 -0.25019264
0 0.061330907 0.02410944 -0.4048202 0 -0.25019264
0 0.060551208 0.02410459 -0.4048202 0 -0.25019264
0 0.059771821 0.024099804 -0.4048202 0 -0.25019264
0 0.058992751 0.024095081 -0.4048202 0 -0.25019264
0 0.058213983 0.02409042 -0.4048202 0 -0.25019264
0 0.05743552 0.024085823 -0.4048202 0 -0.25019264
5.5511151e-17 0.056657355 0.024081288 -0.4048202 0 -0.25019264
5.5511151e-17 0.055879489 0.024076816 -0.4048202 0 -0.25019264
0 0.055101909 0.024072407 -0.4048202 0 -0.25019264
0.039983205 0.05969014 0.051156189 -0.4048202 0 -0.25019264
0.039936598 0.058830224 0.051119905 -0.4048202 0 -0.25019264
0 0.052770875 0.024059553 -0.4048202 0 -0.25019264
5.5511151e-17 0.051994417 0.024055393 -0.4048202 0 -0.25019264
0 0.05121823 0.024051296 -0.4048202 0 -0.25019264
0 0.050442308 0.024047261 -0.4048202 0 -0.25019264
0 0.049666647 0.024043288 -0.4048202 0 -0.25019264
0 0.048891243 0.024039378 -0.4048202 0 -0.25019264
0 0.048116095 0.02403553 -0.4048202 0 -0.25019264
0 0.047341194 0.024031743 -0.4048202 0 -0.25019264
0 0.046566539 0.02402802 -0.4048202 0 -0.25019264
5.5511151e-17 0.045792125 0.024024358 -0.4048202 0 -0.25019264
0 0.045017947 0.024020758 -0.4048202 0 -0.25019264
0.036122177 0.048191905 0.048485011 -0.4048202 0 -0.25019264
5.5511151e-17 0.04347029 0.024013743 -0.4048202 0 -0.25019264
5.5511151e-17 0.0426968 0.024010329 -0.4048202 0 -0.25019264
0 0.04192353 0.024006974 -0.4048202 0 -0.25019264
0 0.041150477 0.024003685 -0.4048202 0 -0.25019264
0.031292975 0.043498866 0.045195833 -0.4048202 0 -0.25019264
5.5511151e-17 0.039605007 0.023997286 -0.4048202 0 -0.25019264
0 0.038832579 0.023994179 -0.4048202 0 -0.25019264
0 0.038060352 0.023991136 -0.4048202 0 -0.25019264
5.5511151e-17 0.037288323 0.023988152 -0.4048202 0 -0.25019264
0 0.036516488 0.023985231 -0.4048202 0 -0.25019264
0 0.035744838 0.02398237 -0.4048202 0 -0.25019264
5.5511151e-17 0.034973372 0.023979571 -0.4048202 0 -0.25019264
0.023658728 0.036200948 0.039999999 -0.4048202 0 -0.25019264
5.5511151e-17 0.033430982 0.023974158 -0.4048202 0 -0.25019264
0 0.032660045 0.023971543 -0.4048202 0 -0.25019264
0 0.031889278 0.023968989 -0.4048202 0 -0.25019264
0 0.031118676 0.023966497 -0.4048202 0 -0.25019264
0 0.030348234 0.023964066 -0.4048202 0 -0.25019264
0 0.029577948 0.023961697 -0.4048202 0 -0.25019264
0 0.028807813 0.023959387 -0.4048202 0 -0.25019264
0 0.028037829 0.023957139 -0.4048202 0 -0.25019264
5.5511151e-17 0.027267987 0.023954954 -0.4048202 0 -0.25019264
0.023696249 0.02804937 0.039999999 -0.4048202 0 -0.25019264
0 0.025728723 0.023950763 -0.4048202 0 -0.25019264
0 0.02495929 0.023948759 -0.4048202 0 -0.25019264
5.5511151e-17 0.024189986 0.023946818 -0.4048202 0 -0.25019264
0 0.023420807 0.023944935 -0.4048202 0 -0.25019264
0 0.022651749 0.023943115 -0.4048202 0 -0.25019264
5.5511151e-17 0.021882806 0.023941355 -0.4048202 0 -0.25019264
5.5511151e-17 0.021113977 0.023939656 -0.4048202 0 -0.25019264
0 0.020345256 0.023938019 -0.4048202 0 -0.25019264
0 0.019576639 0.023936441 -0.4048202 0 -0.25019264
5.5511151e-17 0.018808123 0.023934925 -0.4048202 0 -0.25019264
0.02372651 0.019097012 0.039999999 -0.4048202 0 -0.25019264
0 0.017271377 0.023932075 -0.4048202 0 -0.25019264
0 0.016503138 0.023930741 -0.4048202 0 -0.25019264
0 0.015734985 0.023929467 -0.4048202 0 -0.25019264
0 0.014966913 0.023928255 -0.4048202 0 -0.25019264
0 0.014198918 0.023927104 -0.4048202 0 -0.25019264
5.5511151e-17 0.013430995 0.023926012 -0.4048202 0 -0.25019264
5.5511151e-17 0.012663141 0.023924982 -0.4048202 0 -0.25019264
5.5511151e-17 0.011895353 0.023924012 -0.4048202 0 -0.25019264
0 0.011127625 0.023923103 -0.4048202 0 -0.25019264
5.5511151e-17 0.010359954 0.023922255 -0.4048202 0 -0.25019264
0 0.0095923375 0.023921467 -0.4048202 0 -0.25019264
5.5511151e-17 0.0088247694 0.023920741 -0.4048202 0 -0.25019264
5.5511151e-17 0.008057246 0.023920074 -0.4048202 0 -0.25019264
0 0.0072897649 0.023919469 -0.4048202 0 -0.25019264
5.5511151e-17 0.0065223207 0.023918923 -0.4048202 0 -0.25019264
5.5511151e-17 0.0057549099 0.023918439 -0.4048202 0 -0.25019264
0 0.004987529 0.023918014 -0.4048202 0 -0.25019264
0 0.0042201737 0.023917651 -0.4048202 0 -0.25019264
0 0.0034528398 0.023917347 -0.4048202 0 -0.25019264
5.5511151e-17 0.0026855236 0.023917105 -0.4048202 0 -0.25019264
5.5511151e-17 0.0019182214 0.023916924 -0.4048202 0 -0.25019264
0 0.0011509289 0.023916803 -0.4048202 0 -0.25019264
0 0.0003836423 0.023916742 -0.4048202 0 -0.25019264
5.5511151e-17 0.079280645 0.023299281 -0.4048202 0 -0.25019264
0 0.078493334 0.023293216 -0.4048202 0 -0.25019264
0.011948587 0.079999998 0.031359185 -0.4048202 0 -0.25019264
0 0.076919943 0.023281269 -0.4048202 0 -0.25019264
5.5511151e-17 0.076133855 0.023275388 -0.4048202 0 -0.25019264
0 0.075348161 0.023269571 -0.4048202 0 -0.25019264
0 0.07456287 0.023263814 -0.4048202 0 -0.25019264
0 0.073777974 0.02325812 -0.4048202 0 -0.25019264
5.5511151e-17 0.072993457 0.023252487 -0.4048202 0 -0.25019264
0 0.072209328 0.023246916 -0.4048202 0 -0.25019264
5.5511151e-17 0.071425572 0.023241406 -0.4048202 0 -0.25019264
