# .PCD v0.7 - Point Cloud Data file format
VERSION 0.7
FIELDS x y z vp_x vp_y vp_z
SIZE 4 4 4 4 4 4
TYPE F F F F F F
COUNT 1 1 1 1 1 1
WIDTH 784
HEIGHT 1
VIEWPOINT 0 0 0 1 0 0 0
POINTS 784
DATA ascii
0.039999999 0.0031494268 0.0069934377 0.4048202 0 -0.25019264
0.039999999 0.0038493327 0.0069938442 0.4048202 0 -0.25019264
0.039999999 0.0045492589 0.0069943317 0.4048202 0 -0.25019264
0.039999999 0.0052492088 0.0069949008 0.4048202 0 -0.25019264
0.039999999 0.0059491862 0.0069955513 0.4048202 0 -0.25019264
0.039999999 0.0066491948 0.0069962833 0.4048202 0 -0.25019264
0.039999999 0.0073492378 0.0069970964 0.4048202 0 -0.25019264
0.039999999 0.0080493195 0.0069979909 0.4048202 0 -0.25019264
0.039999999 0.0087494431 0.0069989664 0.4048202 0 -0.25019264
0.039999999 0.0094496123 0.0070000235 0.4048202 0 -0.25019264
0.039999999 0.010149831 0.0070011625 0.4048202 0 -0.25019264
0.039999999 0.010850104 0.0070023821 0.4048202 0 -0.25019264
0.039999999 0.011550431 0.0070036836 0.4048202 0 -0.25019264
0.039999999 0.01225082 0.0070050666 0.4048202 0 -0.25019264
0.039999999 0.012951273 0.0070065306 0.4048202 0 -0.25019264
0.039999999 0.013651794 0.0070080766 0.4048202 0 -0.25019264
0.039999999 0.014352386 0.0070097037 0.4048202 0 -0.25019264
0.039999999 0.015053052 0.0070114126 0.4048202 0 -0.25019264
0.039999999 0.015753798 0.0070132031 0.4048202 0 -0.25019264
0.039999999 0.016454626 0.0070150751 0.4048202 0 -0.25019264
0.039999999 0.017155541 0.0070170285 0.4048202 0 -0.25019264
0.039999999 0.017856544 0.0070190635 0.4048202 0 -0.25019264
0.039999999 0.018557642 0.0070211799 0.4048202 0 -0.25019264
0.039999999 0.019258836 0.0070233783 0.4048202 0 -0.25019264
0.039999999 0.019960131 0.0070256586 0.4048202 0 -0.25019264
0.039999999 0.020661531 0.0070280205 0.4048202 0 -0.25019264
0.039999999 0.021363039 0.0070304638 0.4048202 0 -0.25019264
0.039999999 0.022064658 0.0070329891 0.4048202 0 -0.25019264
0.039999999 0.022766393 0.0070355963 0.4048202 0 -0.25019264
0.039999999 0.023468249 0.007038285 0.4048202 0 -0.25019264
0.039999999 0.024170225 0.0070410562 0.4048202 0 -0.25019264
0.039999999 0.024872329 0.0070439088 0.4048202 0 -0.25019264
0.039999999 0.025574563 0.0070468434 0.4048202 0 -0.25019264
0.039999999 0.026276931 0.0070498604 0.4048202 0 -0.25019264
0.039999999 0.026979437 0.0070529589 0.4048202 0 -0.25019264
0.039999999 0.027682085 0.0070561399 0.4048202 0 -0.25019264
0.039999999 0.028384877 0.0070594028 0.4048202 0 -0.25019264
0.039999999 0.029087819 0.0070627481 0.4048202 0 -0.25019264
0.039999999 0.029790914 0.0070661753 0.4048202 0 -0.25019264
0.039999999 0.030494163 0.007069685 0.4048202 0 -0.25019264
0.039999999 0.031197574 0.0070732767 0.4048202 0 -0.25019264
0.039999999 0.031901147 0.0070769507 0.4048202 0 -0.25019264
0.039999999 0.032604888 0.0070807077 0.4048202 0 -0.25019264
0.039999999 0.033308804 0.0070845466 0.4048202 0 -0.25019264
0.039999999 0.034012891 0.0070884679 0.4048202 0 -0.25019264
0.039999999 0.034717157 0.0070924722 0.4048202 0 -0.25019264
0.039999999 0.035421606 0.0070965588 0.4048202 0 -0.25019264
0.039999999 0.036126241 0.0071007279 0.4048202 0 -0.25019264
0.039999999 0.036831066 0.0071049798 0.4048202 0 -0.25019264
0.039999999 0.037536085 0.0071093147 0.4048202 0 -0.25019264
0.039999999 0.038241301 0.0071137319 0.4048202 0 -0.25019264
0.039999999 0.038946718 0.0071182325 0.4048202 0 -0.25019264
0.039999999 0.039652344 0.0071228156 0.4048202 0 -0.25019264
0.039999999 0.040358175 0.007127482 0.4048202 0 -0.25019264
0.039999999 0.041064218 0.0071322313 0.4048202 0 -0.25019264
0.039999999 0.041770481 0.0071370639 0.4048202 0 -0.25019264
0.039999999 0.04247696 0.0071419794 0.4048202 0 -0.25019264
0.039999999 0.043183666 0.0071469783 0.4048202 0 -0.25019264
0.039999999 0.043890595 0.0071520605 0.4048202 0 -0.25019264
0.039999999 0.04459776 0.0071572256 0.4048202 0 -0.25019264
0.039999999 0.045305159 0.0071624746 0.4048202 0 -0.25019264
0.039999999 0.0460128 0.0071678073 0.4048202 0 -0.25019264
0.039999999 0.04672068 0.0071732234 0.4048202 0 -0.25019264
0.039999999 0.047428809 0.0071787229 0.4048202 0 -0.25019264
0.039999999 0.048137188 0.0071843062 0.4048202 0 -0.25019264
0.039999999 0.04884582 0.0071899733 0.4048202 0 -0.25019264
0.039999999 0.049554713 0.0071957242 0.4048202 0 -0.25019264
0.039999999 0.050263867 0.0072015594 0.4048202 0 -0.25019264
0.039999999 0.050973285 0.0072074784 0.4048202 0 -0.25019264
0.039999999 0.051682975 0.0072134812 0.4048202 0 -0.25019264
0.039999999 0.052392941 0.0072195684 0.4048202 0 -0.25019264
0.039999999 0.053103182 0.0072257398 0.4048202 0 -0.25019264
0.039999999 0.053813703 0.0072319959 0.4048202 0 -0.25019264
0.039999999 0.054524511 0.0072383359 0.4048202 0 -0.25019264
0.039999999 0.055235609 0.0072447606 0.4048202 0 -0.25019264
0.039999999 0.055946998 0.0072512701 0.4048202 0 -0.25019264
0.039999999 0.056658685 0.0072578639 0.4048202 0 -0.25019264
0.039999999 0.057370674 0.0072645424 0.4048202 0 -0.25019264
0.039999999 0.058082968 0.0072713061 0.4048202 0 -0.25019264
0.039999999 0.058795568 0.0072781546 0.4048202 0 -0.25019264
0.039999999 0.059508484 0.0072850883 0.4048202 0 -0.25019264
0.039999999 0.060221713 0.0072921067 0.4048202 0 -0.25019264
0.039999999 0.060935266 0.0072992104 0.4048202 0 -0.25019264
0.039999999 0.061649144 0.0073063998 0.4048202 0 -0.25019264
0.039999999 0.062363345 0.0073136743 0.4048202 0 -0.25019264
0.039999999 0.063077882 0.0073210341 0.4048202 0 -0.25019264
0.039999999 0.063792758 0.0073284796 0.4048202 0 -0.25019264
0.039999999 0.064507969 0.0073360112 0.4048202 0 -0.25019264
0.039999999 0.06522353 0.007343628 0.4048202 0 -0.25019264
0.039999999 0.065939434 0.0073513309 0.4048202 0 -0.25019264
0.039999999 0.066655695 0.0073591201 0.4048202 0 -0.25019264
0.039999999 0.067372307 0.0073669949 0.4048202 0 -0.25019264
0.039999999 0.068089284 0.0073749563 0.4048202 0 -0.25019264
0.039999999 0.068806618 0.0073830038 0.4048202 0 -0.25019264
0.039999999 0.069524333 0.0073911375 0.4048202 0 -0.25019264
0.039999999 0.070242412 0.0073993579 0.4048202 0 -0.25019264
0.039999999 0.070960864 0.0074076653 0.4048202 0 -0.25019264
0.039999999 0.071679704 0.0074160588 0.4048202 0 -0.25019264
0.039999999 0.072398923 0.0074245394 0.4048202 0 -0.25019264
0.039999999 0.07311853 0.0074331071 0.4048202 0 -0.25019264
0.039999999 0.073838539 0.0074417619 0.4048202 0 -0.25019264
0.039999999 0.074558936 0.0074505038 0.4048202 0 -0.25019264
0.039999999 0.075279735 0.0074593332 0.4048202 0 -0.25019264
0.039999999 0.076000944 0.0074682496 0.4048202 0 -0.25019264
0.039999999 0.076722555 0.0074772537 0.4048202 0 -0.25019264
0.039999999 0.077444583 0.0074863457 0.4048202 0 -0.25019264
0.039999999 0.078167029 0.0074955253 0.4048202 0 -0.25019264
0.039999999 0.078889892 0.0075047929 0.4048202 0 -0.25019264
0.039999999 0.079613186 0.0075141485 0.4048202 0 -0.25019264
0.039999999 0.00034957638 0.0061357189 0.4048202 0 -0.25019264
0.039999999 0.0010487309 0.0061357976 0.4048202 0 -0.25019264
0.039999999 0.0017478911 0.0061359559 0.4048202 0 -0.25019264
0.039999999 0.0024470603 0.0061361929 0.4048202 0 -0.25019264
0.039999999 0.0031462421 0.0061365091 0.4048202 0 -0.25019264
0.039999999 0.0038454405 0.006136904 0.4048202 0 -0.25019264
0.039999999 0.0045446591 0.006137378 0.4048202 0 -0.25019264
0.039999999 0.0052439012 0.0061379313 0.4048202 0 -0.25019264
0.039999999 0.0059431703 0.0061385636 0.4048202 0 -0.25019264
0.039999999 0.0066424711 0.0061392747 0.4048202 0 -0.25019264
0.039999999 0.0073418058 0.0061400654 0.4048202 0 -0.25019264
0.039999999 0.0080411797 0.0061409348 0.4048202 0 -0.25019264
0.039999999 0.0087405946 0.0061418833 0.4048202 0 -0.25019264
0.039999999 0.009440056 0.0061429106 0.4048202 0 -0.25019264
0.039999999 0.010139566 0.0061440174 0.4048202 0 -0.25019264
0.039999999 0.010839129 0.006145203 0.4048202 0 -0.25019264
0.039999999 0.011538749 0.0061464682 0.4048202 0 -0.25019264
0.039999999 0.012238428 0.0061478121 0.4048202 0 -0.25019264
0.039999999 0.012938173 0.0061492356 0.4048202 0 -0.25019264
0.039999999 0.013637983 0.0061507379 0.4048202 0 -0.25019264
0.039999999 0.014337866 0.0061523197 0.4048202 0 -0.25019264
0.039999999 0.015037823 0.0061539807 0.4048202 0 -0.25019264
0.039999999 0.01573786 0.0061557209 0.4048202 0 -0.25019264
0.039999999 0.016437978 0.0061575403 0.4048202 0 -0.25019264
0.039999999 0.017138181 0.0061594392 0.4048202 0 -0.25019264
0.039999999 0.017838474 0.0061614173 0.4048202 0 -0.25019264
0.039999999 0.018538861 0.0061634746 0.4048202 0 -0.25019264
0.039999999 0.019239344 0.0061656116 0.4048202 0 -0.25019264
0.039999999 0.019939927 0.0061678276 0.4048202 0 -0.25019264
0.039999999 0.020640615 0.0061701233 0.4048202 0 -0.25019264
0.039999999 0.021341411 0.0061724982 0.4048202 0 -0.25019264
0.039999999 0.022042319 0.0061749527 0.4048202 0 -0.25019264
0.039999999 0.022743342 0.0061774869 0.4048202 0 -0.25019264
0.039999999 0.023444485 0.0061801006 0.4048202 0 -0.25019264
0.039999999 0.024145748 0.006182794 0.4048202 0 -0.25019264
0.039999999 0.024847139 0.006185567 0.4048202 0 -0.25019264
0.039999999 0.025548659 0.0061884192 0.4048202 0 -0.25019264
0.039999999 0.026250314 0.0061913515 0.4048202 0 -0.25019264
0.039999999 0.026952107 0.0061943638 0.4048202 0 -0.25019264
0.039999999 0.027654039 0.0061974553 0.4048202 0 -0.25019264
0.039999999 0.028356116 0.006200627 0.4048202 0 -0.25019264
0.039999999 0.029058343 0.0062038782 0.4048202 0 -0.25019264
0.039999999 0.02976072 0.0062072095 0.4048202 0 -0.25019264
0.039999999 0.030463254 0.006210621 0.4048202 0 -0.25019264
0.039999999 0.031165948 0.006214112 0.4048202 0 -0.25019264
0.039999999 0.031868804 0.0062176837 0.4048202 0 -0.25019264
0.039999999 0.03257183 0.0062213349 0.4048202 0 -0.25019264
0.039999999 0.033275027 0.0062250663 0.4048202 0 -0.25019264
0.039999999 0.033978395 0.0062288782 0.4048202 0 -0.25019264
0.039999999 0.034681942 0.0062327697 0.4048202 0 -0.25019264
0.039999999 0.035385672 0.0062367418 0.4048202 0 -0.25019264
0.039999999 0.036089588 0.0062407944 0.4048202 0 -0.25019264
0.039999999 0.036793694 0.0062449272 0.4048202 0 -0.25019264
0.039999999 0.037497994 0.0062491405 0.4048202 0 -0.25019264
0.039999999 0.038202487 0.0062534343 0.4048202 0 -0.25019264
0.039999999 0.038907185 0.0062578088 0.4048202 0 -0.25019264
0.039999999 0.039612085 0.0062622637 0.4048202 0 -0.25019264
0.039999999 0.040317193 0.0062667993 0.4048202 0 -0.25019264
0.039999999 0.041022513 0.0062714154 0.4048202 0 -0.25019264
0.039999999 0.041728053 0.0062761125 0.4048202 0 -0.25019264
0.039999999 0.042433809 0.0062808902 0.4048202 0 -0.25019264
0.039999999 0.043139789 0.0062857494 0.4048202 0 -0.25019264
0.039999999 0.043845996 0.0062906891 0.4048202 0 -0.25019264
0.039999999 0.044552434 0.0062957099 0.4048202 0 -0.25019264
0.039999999 0.045259107 0.0063008117 0.4048202 0 -0.25019264
0.039999999 0.045966018 0.0063059949 0.4048202 0 -0.25019264
0.039999999 0.046673171 0.0063112588 0.4048202 0 -0.25019264
0.039999999 0.04738057 0.0063166046 0.4048202 0 -0.25019264
0.039999999 0.048088219 0.0063220314 0.4048202 0 -0.25019264
0.039999999 0.048796125 0.0063275397 0.4048202 0 -0.25019264
0.039999999 0.049504288 0.0063331299 0.4048202 0 -0.25019264
0.039999999 0.050212707 0.0063388012 0.4048202 0 -0.25019264
0.039999999 0.050921395 0.0063445545 0.4048202 0 -0.25019264
0.039999999 0.051630355 0.0063503892 0.4048202 0 -0.25019264
0.039999999 0.052339584 0.0063563059 0.4048202 0 -0.25019264
0.039999999 0.053049091 0.0063623046 0.4048202 0 -0.25019264
0.039999999 0.053758882 0.0063683847 0.4048202 0 -0.25019264
0.039999999 0.054468952 0.0063745473 0.4048202 0 -0.25019264
0.039999999 0.055179313 0.0063807922 0.4048202 0 -0.25019264
0.039999999 0.055889968 0.0063871192 0.4048202 0 -0.25019264
0.039999999 0.056600917 0.0063935281 0.4048202 0 -0.25019264
0.039999999 0.057312168 0.0064000199 0.4048202 0 -0.25019264
0.039999999 0.058023721 0.0064065941 0.4048202 0 -0.25019264
0.039999999 0.058735583 0.0064132502 0.4048202 0 -0.25019264
0.039999999 0.059447758 0.0064199897 0.4048202 0 -0.25019264
0.039999999 0.060160249 0.0064268117 0.4048202 0 -0.25019264
0.039999999 0.060873058 0.0064337165 0.4048202 0 -0.25019264
0.039999999 0.06158619 0.0064407038 0.4048202 0 -0.25019264
0.039999999 0.06229965 0.0064477748 0.4048202 0 -0.25019264
0.039999999 0.063013442 0.0064549283 0.4048202 0 -0.25019264
0.039999999 0.063727573 0.0064621652 0.4048202 0 -0.25019264
0.039999999 0.064442039 0.0064694853 0.4048202 0 -0.25019264
0.039999999 0.065156847 0.0064768889 0.4048202 0 -0.25019264
0.039999999 0.065872006 0.0064843763 0.4048202 0 -0.25019264
0.039999999 0.066587515 0.0064919465 0.4048202 0 -0.25019264
0.039999999 0.067303382 0.0064996011 0.4048202 0 -0.25019264
0.039999999 0.068019606 0.006507339 0.4048202 0 -0.25019264
0.039999999 0.068736196 0.0065151611 0.4048202 0 -0.25019264
0.039999999 0.06945315 0.0065230671 0.4048202 0 -0.25019264
0.039999999 0.070170477 0.0065310569 0.4048202 0 -0.25019264
0.039999999 0.070888177 0.0065391315 0.4048202 0 -0.25019264
0.039999999 0.071606256 0.0065472899 0.4048202 0 -0.25019264
0.039999999 0.072324723 0.006555533 0.4048202 0 -0.25019264
0.039999999 0.073043577 0.0065638605 0.4048202 0 -0.25019264
0.039999999 0.073762819 0.0065722726 0.4048202 0 -0.25019264
0.039999999 0.074482463 0.0065807691 0.4048202 0 -0.25019264
0.039999999 0.075202502 0.0065893508 0.4048202 0 -0.25019264
0.039999999 0.075922944 0.0065980176 0.4048202 0 -0.25019264
0.039999999 0.076643795 0.0066067693 0.4048202 0 -0.25019264
0.039999999 0.077365056 0.0066156066 0.4048202 0 -0.25019264
0.039999999 0.078086741 0.0066245287 0.4048202 0 -0.25019264
0.039999999 0.078808837 0.0066335364 0.4048202 0 -0.25019264
0.039999999 0.079531364 0.0066426299 0.4048202 0 -0.25019264
0.039999999 0.00034922335 0.0052807024 0.4048202 0 -0.25019264
0.039999999 0.0010476719 0.0052807792 0.4048202 0 -0.25019264
0.039999999 0.0017461258 0.0052809324 0.4048202 0 -0.25019264
0.039999999 0.0024445888 0.0052811629 0.4048202 0 -0.25019264
0.039999999 0.0031430647 0.0052814698 0.4048202 0 -0.25019264
0.039999999 0.0038415568 0.0052818535 0.4048202 0 -0.25019264
0.039999999 0.004540069 0.005282314 0.4048202 0 -0.25019264
0.039999999 0.0052386047 0.0052828514 0.4048202 0 -0.25019264
0.039999999 0.0059371679 0.0052834656 0.4048202 0 -0.25019264
0.039999999 0.0066357618 0.0052841567 0.4048202 0 -0.25019264
0.039999999 0.0073343902 0.0052849241 0.4048202 0 -0.25019264
0.039999999 0.0080330567 0.0052857688 0.4048202 0 -0.25019264
0.039999999 0.0087317657 0.0052866898 0.4048202 0 -0.25019264
0.039999999 0.0094305193 0.0052876878 0.4048202 0 -0.25019264
0.039999999 0.010129323 0.005288763 0.4048202 0 -0.25019264
0.039999999 0.010828179 0.0052899146 0.4048202 0 -0.25019264
0.039999999 0.011527091 0.0052911434 0.4048202 0 -0.25019264
0.039999999 0.012226064 0.0052924491 0.4048202 0 -0.25019264
0.039999999 0.0129251 0.0052938312 0.4048202 0 -0.25019264
0.039999999 0.013624203 0.0052952906 0.4048202 0 -0.25019264
0.039999999 0.014323378 0.0052968273 0.4048202 0 -0.25019264
0.039999999 0.015022627 0.0052984403 0.4048202 0 -0.25019264
0.039999999 0.015721954 0.0053001307 0.4048202 0 -0.25019264
0.039999999 0.016421365 0.0053018979 0.4048202 0 -0.25019264
0.039999999 0.017120859 0.0053037419 0.4048202 0 -0.25019264
0.039999999 0.017820444 0.0053056632 0.4048202 0 -0.25019264
0.039999999 0.018520121 0.0053076618 0.4048202 0 -0.25019264
0.039999999 0.019219896 0.0053097373 0.4048202 0 -0.25019264
0.039999999 0.01991977 0.00531189 0.4048202 0 -0.25019264
0.039999999 0.020619748 0.0053141196 0.4048202 0 -0.25019264
0.039999999 0.021319833 0.0053164265 0.4048202 0 -0.25019264
0.039999999 0.022020031 0.0053188107 0.4048202 0 -0.25019264
0.039999999 0.022720343 0.0053212722 0.4048202 0 -0.25019264
0.039999999 0.023420773 0.005323811 0.4048202 0 -0.25019264
0.039999999 0.024121325 0.0053264271 0.4048202 0 -0.25019264
0.039999999 0.024822006 0.00532912 0.4048202 0 -0.25019264
0.039999999 0.025522813 0.0053318907 0.4048202 0 -0.25019264
0.039999999 0.026223756 0.0053347391 0.4048202 0 -0.25019264
0.039999999 0.026924836 0.0053376644 0.4048202 0 -0.25019264
0.039999999 0.027626054 0.0053406674 0.4048202 0 -0.25019264
0.039999999 0.028327418 0.0053437483 0.4048202 0 -0.25019264
0.039999999 0.029028932 0.0053469064 0.4048202 0 -0.25019264
0.039999999 0.029730596 0.0053501418 0.4048202 0 -0.25019264
0.039999999 0.030432414 0.0053534554 0.4048202 0 -0.25019264
0.039999999 0.031134393 0.0053568464 0.4048202 0 -0.25019264
0.039999999 0.031836536 0.0053603151 0.4048202 0 -0.25019264
0.039999999 0.032538846 0.0053638616 0.4048202 0 -0.25019264
0.039999999 0.033241324 0.0053674863 0.4048202 0 -0.25019264
0.039999999 0.033943977 0.0053711883 0.4048202 0 -0.25019264
0.039999999 0.034646805 0.0053749685 0.4048202 0 -0.25019264
0.039999999 0.03534982 0.005378827 0.4048202 0 -0.25019264
0.039999999 0.036053017 0.0053827628 0.4048202 0 -0.25019264
0.039999999 0.036756404 0.0053867772 0.4048202 0 -0.25019264
0.039999999 0.037459984 0.0053908695 0.4048202 0 -0.25019264
0.039999999 0.038163759 0.0053950404 0.4048202 0 -0.25019264
0.039999999 0.038867734 0.0053992891 0.4048202 0 -0.25019264
0.039999999 0.039571915 0.005403616 0.4048202 0 -0.25019264
0.039999999 0.040276304 0.0054080216 0.4048202 0 -0.25019264
0.039999999 0.040980902 0.005412505 0.4048202 0 -0.25019264
0.039999999 0.041685719 0.0054170676 0.4048202 0 -0.25019264
0.039999999 0.042390753 0.0054217083 0.4048202 0 -0.25019264
0.039999999 0.04309601 0.0054264278 0.4048202 0 -0.25019264
0.039999999 0.04380149 0.0054312255 0.4048202 0 -0.25019264
0.039999999 0.044507205 0.0054361024 0.4048202 0 -0.25019264
0.039999999 0.045213152 0.005441058 0.4048202 0 -0.25019264
0.039999999 0.04591934 0.0054460922 0.4048202 0 -0.25019264
0.039999999 0.046625767 0.0054512052 0.4048202 0 -0.25019264
0.039999999 0.04733244 0.0054563973 0.4048202 0 -0.25019264
0.039999999 0.048039362 0.0054616686 0.4048202 0 -0.25019264
0.039999999 0.048746537 0.0054670186 0.4048202 0 -0.25019264
0.039999999 0.04945397 0.0054724482 0.4048202 0 -0.25019264
0.039999999 0.050161663 0.005477957 0.4048202 0 -0.25019264
0.039999999 0.050869621 0.0054835449 0.4048202 0 -0.25019264
0.039999999 0.051577851 0.0054892125 0.4048202 0 -0.25019264
0.039999999 0.052286349 0.0054949592 0.4048202 0 -0.25019264
0.039999999 0.052995123 0.0055007855 0.4048202 0 -0.25019264
0.039999999 0.05370418 0.0055066915 0.4048202 0 -0.25019264
0.039999999 0.05441352 0.0055126771 0.4048202 0 -0.25019264
0.039999999 0.055123147 0.0055187424 0.4048202 0 -0.25019264
0.039999999 0.055833064 0.0055248877 0.4048202 0 -0.25019264
0.039999999 0.056543279 0.0055311131 0.4048202 0 -0.25019264
0.039999999 0.057253793 0.0055374182 0.4048202 0 -0.25019264
0.039999999 0.057964608 0.0055438033 0.4048202 0 -0.25019264
0.039999999 0.058675732 0.005550269 0.4048202 0 -0.25019264
0.039999999 0.05938717 0.0055568148 0.4048202 0 -0.25019264
0.039999999 0.06009892 0.0055634407 0.4048202 0 -0.25019264
0.039999999 0.060810987 0.0055701472 0.4048202 0 -0.25019264
0.039999999 0.061523378 0.0055769342 0.4048202 0 -0.25019264
0.039999999 0.062236097 0.0055838018 0.4048202 0 -0.25019264
0.039999999 0.062949151 0.0055907504 0.4048202 0 -0.25019264
0.039999999 0.063662529 0.0055977795 0.4048202 0 -0.25019264
0.039999999 0.064376257 0.0056048892 0.4048202 0 -0.25019264
0.039999999 0.065090321 0.0056120805 0.4048202 0 -0.25019264
0.039999999 0.065804735 0.0056193527 0.4048202 0 -0.25019264
0.039999999 0.066519491 0.0056267059 0.4048202 0 -0.25019264
0.039999999 0.067234613 0.0056341402 0.4048202 0 -0.25019264
0.039999999 0.067950085 0.0056416565 0.4048202 0 -0.25019264
0.039999999 0.068665922 0.0056492537 0.4048202 0 -0.25019264
0.039999999 0.069382124 0.0056569325 0.4048202 0 -0.25019264
0.039999999 0.070098698 0.0056646932 0.4048202 0 -0.25019264
0.039999999 0.070815653 0.0056725354 0.4048202 0 -0.25019264
0.039999999 0.07153298 0.0056804596 0.4048202 0 -0.25019264
0.039999999 0.072250687 0.0056884661 0.4048202 0 -0.25019264
0.039999999 0.072968788 0.0056965542 0.4048202 0 -0.25019264
0.039999999 0.07368727 0.0057047247 0.4048202 0 -0.25019264
0.039999999 0.074406154 0.0057129776 0.4048202 0 -0.25019264
0.039999999 0.075125434 0.0057213129 0.4048202 0 -0.25019264
0.039999999 0.075845122 0.0057297307 0.4048202 0 -0.25019264
0.039999999 0.076565214 0.0057382314 0.4048202 0 -0.25019264
0.039999999 0.077285714 0.0057468144 0.4048202 0 -0.25019264
0.039999999 0.078006625 0.0057554804 0.4048202 0 -0.25019264
0.039999999 0.078727968 0.0057642292 0.4048202 0 -0.25019264
0.039999999 0.079449721 0.0057730614 0.4048202 0 -0.25019264
0.039999999 0.00034887108 0.0044275648 0.4048202 0 -0.25019264
0.039999999 0.0010466151 0.0044276393 0.4048202 0 -0.25019264
0.039999999 0.0017443644 0.0044277883 0.4048202 0 -0.25019264
0.039999999 0.0024421229 0.0044280118 0.4048202 0 -0.25019264
0.039999999 0.003139894 0.0044283099 0.4048202 0 -0.25019264
0.039999999 0.0038376816 0.0044286824 0.4048202 0 -0.25019264
0.039999999 0.0045354888 0.0044291294 0.4048202 0 -0.25019264
0.039999999 0.0052333199 0.004429651 0.4048202 0 -0.25019264
0.039999999 0.0059311781 0.004430247 0.4048202 0 -0.25019264
0.039999999 0.0066290675 0.0044309176 0.4048202 0 -0.25019264
0.039999999 0.0073269908 0.0044316626 0.4048202 0 -0.25019264
0.039999999 0.0080249524 0.0044324822 0.4048202 0 -0.25019264
0.039999999 0.0087229563 0.0044333762 0.4048202 0 -0.25019264
0.039999999 0.0094210049 0.0044343448 0.4048202 0 -0.25019264
0.039999999 0.010119103 0.0044353884 0.4048202 0 -0.25019264
0.039999999 0.010817253 0.0044365064 0.4048202 0 -0.25019264
0.039999999 0.01151546 0.004437699 0.4048202 0 -0.25019264
0.039999999 0.012213727 0.004438966 0.4048202 0 -0.25019264
0.039999999 0.012912056 0.0044403076 0.4048202 0 -0.25019264
0.039999999 0.013610454 0.0044417242 0.4048202 0 -0.25019264
0.039999999 0.014308922 0.0044432152 0.4048202 0 -0.25019264
0.039999999 0.015007465 0.0044447812 0.4048202 0 -0.25019264
0.039999999 0.015706085 0.0044464217 0.4048202 0 -0.25019264
0.039999999 0.016404789 0.0044481368 0.4048202 0 -0.25019264
0.039999999 0.017103577 0.0044499268 0.4048202 0 -0.25019264
0.039999999 0.017802453 0.0044517918 0.4048202 0 -0.25019264
0.039999999 0.018501423 0.0044537312 0.4048202 0 -0.25019264
0.039999999 0.019200489 0.0044557457 0.4048202 0 -0.25019264
0.039999999 0.019899655 0.0044578351 0.4048202 0 -0.25019264
0.039999999 0.020598926 0.004459999 0.4048202 0 -0.25019264
0.039999999 0.021298302 0.0044622384 0.4048202 0 -0.25019264
0.039999999 0.021997791 0.0044645523 0.4048202 0 -0.25019264
0.039999999 0.022697393 0.0044669411 0.4048202 0 -0.25019264
0.039999999 0.023397114 0.0044694054 0.4048202 0 -0.25019264
0.039999999 0.024096958 0.0044719442 0.4048202 0 -0.25019264
0.039999999 0.024796927 0.0044745584 0.4048202 0 -0.25019264
0.039999999 0.025497025 0.0044772476 0.4048202 0 -0.25019264
0.039999999 0.026197257 0.0044800118 0.4048202 0 -0.25019264
0.039999999 0.026897624 0.0044828514 0.4048202 0 -0.25019264
0.039999999 0.027598131 0.0044857659 0.4048202 0 -0.25019264
0.039999999 0.028298784 0.0044887559 0.4048202 0 -0.25019264
0.039999999 0.028999584 0.0044918209 0.4048202 0 -0.25019264
0.039999999 0.029700536 0.0044949618 0.4048202 0 -0.25019264
0.039999999 0.030401643 0.0044981777 0.4048202 0 -0.25019264
0.039999999 0.031102909 0.004501469 0.4048202 0 -0.25019264
0.039999999 0.031804338 0.0045048357 0.4048202 0 -0.25019264
0.039999999 0.032505929 0.0045082779 0.4048202 0 -0.25019264
0.039999999 0.033207696 0.0045117955 0.4048202 0 -0.25019264
0.039999999 0.033909634 0.004515389 0.4048202 0 -0.25019264
0.039999999 0.03461175 0.0045190579 0.4048202 0 -0.25019264
0.039999999 0.035314046 0.0045228028 0.4048202 0 -0.25019264
0.039999999 0.036016528 0.0045266231 0.4048202 0 -0.25019264
0.039999999 0.036719196 0.0045305192 0.4048202 0 -0.25019264
0.039999999 0.037422057 0.0045344909 0.4048202 0 -0.25019264
0.039999999 0.038125116 0.0045385389 0.4048202 0 -0.25019264
0.039999999 0.038828373 0.0045426628 0.4048202 0 -0.25019264
0.039999999 0.039531834 0.0045468626 0.4048202 0 -0.25019264
0.039999999 0.040235505 0.0045511383 0.4048202 0 -0.25019264
0.039999999 0.040939383 0.0045554899 0.4048202 0 -0.25019264
0.039999999 0.041643478 0.0045599183 0.4048202 0 -0.25019264
0.039999999 0.042347793 0.0045644222 0.4048202 0 -0.25019264
0.039999999 0.043052327 0.0045690029 0.4048202 0 -0.25019264
0.039999999 0.043757088 0.0045736595 0.4048202 0 -0.25019264
0.039999999 0.044462077 0.004578393 0.4048202 0 -0.25019264
0.039999999 0.045167301 0.0045832023 0.4048202 0 -0.25019264
0.039999999 0.045872763 0.0045880885 0.4048202 0 -0.25019264
0.039999999 0.046578467 0.0045930515 0.4048202 0 -0.25019264
0.039999999 0.047284417 0.0045980904 0.4048202 0 -0.25019264
0.039999999 0.047990613 0.0046032066 0.4048202 0 -0.25019264
0.039999999 0.048697062 0.0046083997 0.4048202 0 -0.25019264
0.039999999 0.049403768 0.0046136691 0.4048202 0 -0.25019264
0.039999999 0.050110735 0.0046190158 0.4048202 0 -0.25019264
0.039999999 0.050817963 0.0046244394 0.4048202 0 -0.25019264
0.039999999 0.051525462 0.0046299398 0.4048202 0 -0.25019264
0.039999999 0.05223323 0.0046355175 0.4048202 0 -0.25019264
0.039999999 0.052941274 0.0046411725 0.4048202 0 -0.25019264
0.039999999 0.053649601 0.0046469048 0.4048202 0 -0.25019264
0.039999999 0.054358207 0.0046527139 0.4048202 0 -0.25019264
0.039999999 0.0550671 0.0046586008 0.4048202 0 -0.25019264
0.039999999 0.055776287 0.0046645654 0.4048202 0 -0.25019264
0.039999999 0.056485768 0.0046706074 0.4048202 0 -0.25019264
0.039999999 0.057195544 0.0046767271 0.4048202 0 -0.25019264
0.039999999 0.057905626 0.0046829241 0.4048202 0 -0.25019264
0.039999999 0.058616016 0.0046891994 0.4048202 0 -0.25019264
0.039999999 0.059326712 0.0046955524 0.4048202 0 -0.25019264
0.039999999 0.060037725 0.0047019836 0.4048202 0 -0.25019264
0.039999999 0.060749054 0.0047084927 0.4048202 0 -0.25019264
0.039999999 0.061460707 0.0047150799 0.4048202 0 -0.25019264
0.039999999 0.062172685 0.0047217454 0.4048202 0 -0.25019264
0.039999999 0.062884994 0.0047284896 0.4048202 0 -0.25019264
0.039999999 0.063597634 0.0047353115 0.4048202 0 -0.25019264
0.039999999 0.064310618 0.0047422121 0.4048202 0 -0.25019264
0.039999999 0.065023936 0.0047491915 0.4048202 0 -0.25019264
0.039999999 0.065737605 0.0047562495 0.4048202 0 -0.25019264
0.039999999 0.066451624 0.0047633862 0.4048202 0 -0.25019264
0.039999999 0.067165993 0.0047706021 0.4048202 0 -0.25019264
0.039999999 0.06788072 0.0047778967 0.4048202 0 -0.25019264
0.039999999 0.068595812 0.0047852704 0.4048202 0 -0.25019264
0.039999999 0.069311261 0.0047927233 0.4048202 0 -0.25019264
0.039999999 0.070027091 0.0048002554 0.4048202 0 -0.25019264
0.039999999 0.070743285 0.0048078671 0.4048202 0 -0.25019264
0.039999999 0.07145986 0.004815558 0.4048202 0 -0.25019264
0.039999999 0.072176822 0.0048233285 0.4048202 0 -0.25019264
0.039999999 0.072894163 0.0048311786 0.4048202 0 -0.25019264
0.039999999 0.073611893 0.0048391083 0.4048202 0 -0.25019264
0.039999999 0.074330017 0.0048471182 0.4048202 0 -0.25019264
0.039999999 0.075048544 0.0048552081 0.4048202 0 -0.25019264
0.039999999 0.075767472 0.0048633781 0.4048202 0 -0.25019264
0.039999999 0.076486804 0.0048716282 0.4048202 0 -0.25019264
0.039999999 0.077206545 0.0048799585 0.4048202 0 -0.25019264
0.039999999 0.077926695 0.0048883692 0.4048202 0 -0.25019264
0.039999999 0.078647271 0.004896861 0.4048202 0 -0.25019264
0.039999999 0.079368271 0.0049054329 0.4048202 0 -0.25019264
0.039999999 0.00034851956 0.0035762959 0.4048202 0 -0.25019264
0.039999999 0.0010455606 0.0035763683 0.4048202 0 -0.25019264
0.039999999 0.001742607 0.0035765127 0.4048202 0 -0.25019264
0.039999999 0.0024396623 0.0035767294 0.4048202 0 -0.25019264
0.039999999 0.0031367305 0.0035770184 0.4048202 0 -0.25019264
0.039999999 0.0038338148 0.0035773797 0.4048202 0 -0.25019264
0.039999999 0.0045309193 0.0035778133 0.4048202 0 -0.25019264
0.039999999 0.0052280468 0.003578319 0.4048202 0 -0.25019264
0.039999999 0.0059252018 0.0035788969 0.4048202 0 -0.25019264
0.039999999 0.0066223876 0.0035795472 0.4048202 0 -0.25019264
0.039999999 0.0073196078 0.0035802699 0.4048202 0 -0.25019264
0.039999999 0.0080168657 0.0035810648 0.4048202 0 -0.25019264
0.039999999 0.0087141655 0.003581932 0.4048202 0 -0.25019264
0.039999999 0.009411511 0.0035828715 0.4048202 0 -0.25019264
0.039999999 0.010108905 0.0035838834 0.4048202 0 -0.25019264
0.039999999 0.010806351 0.0035849675 0.4048202 0 -0.25019264
0.039999999 0.011503854 0.0035861239 0.4048202 0 -0.25019264
0.039999999 0.012201416 0.0035873528 0.4048202 0 -0.25019264
0.039999999 0.012899041 0.0035886541 0.4048202 0 -0.25019264
0.039999999 0.013596734 0.0035900278 0.4048202 0 -0.25019264
0.039999999 0.014294498 0.0035914739 0.4048202 0 -0.25019264
0.039999999 0.014992336 0.0035929924 0.4048202 0 -0.25019264
0.039999999 0.01569025 0.0035945836 0.4048202 0 -0.25019264
0.039999999 0.016388249 0.0035962469 0.4048202 0 -0.25019264
0.039999999 0.017086331 0.0035979829 0.4048202 0 -0.25019264
0.039999999 0.017784502 0.0035997916 0.4048202 0 -0.25019264
0.039999999 0.018482765 0.0036016726 0.4048202 0 -0.25019264
0.039999999 0.019181125 0.0036036263 0.4048202 0 -0.25019264
0.039999999 0.019879585 0.0036056524 0.4048202 0 -0.25019264
0.039999999 0.020578148 0.0036077513 0.4048202 0 -0.25019264
0.039999999 0.021276819 0.0036099227 0.4048202 0 -0.25019264
0.039999999 0.021975599 0.003612167 0.4048202 0 -0.25019264
0.039999999 0.022674493 0.0036144839 0.4048202 0 -0.25019264
0.039999999 0.023373507 0.0036168734 0.4048202 0 -0.25019264
0.039999999 0.024072642 0.0036193358 0.4048202 0 -0.25019264
0.039999999 0.024771903 0.0036218711 0.4048202 0 -0.25019264
0.039999999 0.025471292 0.0036244791 0.4048202 0 -0.25019264
0.039999999 0.026170814 0.0036271599 0.4048202 0 -0.25019264
0.039999999 0.026870472 0.0036299136 0.4048202 0 -0.25019264
0.039999999 0.02757027 0.0036327404 0.4048202 0 -0.25019264
0.039999999 0.028270213 0.00363564 0.4048202 0 -0.25019264
0.039999999 0.028970303 0.0036386128 0.4048202 0 -0.25019264
0.039999999 0.029670544 0.0036416585 0.4048202 0 -0.25019264
0.039999999 0.030370938 0.0036447772 0.4048202 0 -0.25019264
0.039999999 0.031071492 0.0036479691 0.4048202 0 -0.25019264
0.039999999 0.031772207 0.0036512343 0.4048202 0 -0.25019264
0.039999999 0.032473091 0.0036545726 0.4048202 0 -0.25019264
0.039999999 0.033174142 0.0036579843 0.4048202 0 -0.25019264
0.039999999 0.033875365 0.0036614691 0.4048202 0 -0.25019264
0.039999999 0.034576766 0.0036650272 0.4048202 0 -0.25019264
0.039999999 0.03527835 0.0036686589 0.4048202 0 -0.25019264
0.039999999 0.035980117 0.0036723639 0.4048202 0 -0.25019264
0.039999999 0.036682069 0.0036761425 0.4048202 0 -0.25019264
0.039999999 0.037384216 0.0036799945 0.4048202 0 -0.25019264
0.039999999 0.03808656 0.0036839203 0.4048202 0 -0.25019264
0.039999999 0.038789101 0.0036879194 0.4048202 0 -0.25019264
0.039999999 0.039491843 0.0036919923 0.4048202 0 -0.25019264
0.039999999 0.040194795 0.003696139 0.4048202 0 -0.25019264
0.039999999 0.040897954 0.0037003595 0.4048202 0 -0.25019264
0.039999999 0.04160133 0.0037046538 0.4048202 0 -0.25019264
0.039999999 0.042304926 0.0037090222 0.4048202 0 -0.25019264
0.039999999 0.043008741 0.0037134644 0.4048202 0 -0.25019264
0.039999999 0.04371278 0.0037179806 0.4048202 0 -0.25019264
0.039999999 0.04441705 0.0037225708 0.4048202 0 -0.25019264
0.039999999 0.045121554 0.0037272351 0.4048202 0 -0.25019264
0.039999999 0.045826294 0.0037319739 0.4048202 0 -0.25019264
0.039999999 0.046531271 0.0037367868 0.4048202 0 -0.25019264
0.039999999 0.047236498 0.0037416739 0.4048202 0 -0.25019264
0.039999999 0.047941968 0.0037466355 0.4048202 0 -0.25019264
0.039999999 0.048647694 0.0037516714 0.4048202 0 -0.25019264
0.039999999 0.049353674 0.003756782 0.4048202 0 -0.25019264
0.039999999 0.050059915 0.0037619672 0.4048202 0 -0.25019264
0.039999999 0.050766416 0.0037672271 0.4048202 0 -0.25019264
0.039999999 0.051473189 0.0037725614 0.4048202 0 -0.25019264
0.039999999 0.052180231 0.0037779708 0.4048202 0 -0.25019264
0.039999999 0.052887544 0.0037834549 0.4048202 0 -0.25019264
0.039999999 0.053595141 0.003789014 0.4048202 0 -0.25019264
0.039999999 0.054303017 0.003794648 0.4048202 0 -0.25019264
0.039999999 0.055011179 0.0038003572 0.4048202 0 -0.25019264
0.039999999 0.055719633 0.0038061414 0.4048202 0 -0.25019264
0.039999999 0.05642838 0.0038120009 0.4048202 0 -0.25019264
0.039999999 0.057137426 0.0038179357 0.4048202 0 -0.25019264
0.039999999 0.057846773 0.003823946 0.4048202 0 -0.25019264
0.039999999 0.05855643 0.0038300317 0.4048202 0 -0.25019264
0.039999999 0.059266392 0.0038361929 0.4048202 0 -0.25019264
0.039999999 0.059976667 0.0038424297 0.4048202 0 -0.25019264
0.039999999 0.060687259 0.0038487422 0.4048202 0 -0.25019264
0.039999999 0.061398175 0.0038551304 0.4048202 0 -0.25019264
0.039999999 0.062109414 0.0038615947 0.4048202 0 -0.25019264
0.039999999 0.062820986 0.0038681349 0.4048202 0 -0.25019264
0.039999999 0.063532881 0.003874751 0.4048202 0 -0.25019264
0.039999999 0.06424512 0.0038814433 0.4048202 0 -0.25019264
0.039999999 0.064957701 0.0038882119 0.4048202 0 -0.25019264
0.039999999 0.065670624 0.0038950567 0.4048202 0 -0.25019264
0.039999999 0.066383898 0.0039019778 0.4048202 0 -0.25019264
0.039999999 0.067097522 0.0039089755 0.4048202 0 -0.25019264
0.039999999 0.067811504 0.0039160498 0.4048202 0 -0.25019264
0.039999999 0.068525851 0.003923201 0.4048202 0 -0.25019264
0.039999999 0.069240555 0.0039304285 0.4048202 0 -0.25019264
0.039999999 0.069955632 0.0039377334 0.4048202 0 -0.25019264
0.039999999 0.070671082 0.0039451146 0.4048202 0 -0.25019264
0.039999999 0.071386904 0.0039525735 0.4048202 0 -0.25019264
0.039999999 0.072103113 0.0039601093 0.4048202 0 -0.25019264
0.039999999 0.072819702 0.0039677224 0.4048202 0 -0.25019264
0.039999999 0.073536679 0.0039754128 0.4048202 0 -0.25019264
0.039999999 0.074254051 0.0039831805 0.4048202 0 -0.25019264
0.039999999 0.074971825 0.003991026 0.4048202 0 -0.25019264
0.039999999 0.075689994 0.0039989492 0.4048202 0 -0.25019264
0.039999999 0.076408565 0.0040069497 0.4048202 0 -0.25019264
0.039999999 0.077127546 0.0040150285 0.4048202 0 -0.25019264
0.039999999 0.077846944 0.0040231855 0.4048202 0 -0.25019264
0.039999999 0.07856676 0.0040314202 0.4048202 0 -0.25019264
0.039999999 0.079286993 0.0040397332 0.4048202 0 -0.25019264
0.039999999 0.00034816886 0.0027268853 0.4048202 0 -0.25019264
0.039999999 0.0010445083 0.0027269553 0.4048202 0 -0.25019264
0.039999999 0.0017408533 0.0027270953 0.4048202 0 -0.25019264
0.039999999 0.0024372071 0.0027273053 0.4048202 0 -0.25019264
0.039999999 0.0031335738 0.0027275854 0.4048202 0 -0.25019264
0.039999999 0.0038299565 0.0027279353 0.4048202 0 -0.25019264
0.039999999 0.0045263595 0.0027283556 0.4048202 0 -0.25019264
0.039999999 0.0052227853 0.0027288457 0.4048202 0 -0.25019264
0.039999999 0.0059192386 0.0027294056 0.4048202 0 -0.25019264
0.039999999 0.0066157226 0.0027300359 0.4048202 0 -0.25019264
0.039999999 0.0073122405 0.002730736 0.4048202 0 -0.25019264
0.039999999 0.0080087967 0.0027315062 0.4048202 0 -0.25019264
0.039999999 0.0087053943 0.0027323465 0.4048202 0 -0.25019264
0.039999999 0.0094020376 0.0027332569 0.4048202 0 -0.25019264
0.039999999 0.010098729 0.0027342376 0.4048202 0 -0.25019264
0.039999999 0.010795473 0.0027352881 0.4048202 0 -0.25019264
0.039999999 0.011492273 0.0027364087 0.4048202 0 -0.25019264
0.039999999 0.012189132 0.0027375997 0.4048202 0 -0.25019264
0.039999999 0.012886055 0.0027388604 0.4048202 0 -0.25019264
0.039999999 0.013583045 0.0027401915 0.4048202 0 -0.25019264
0.039999999 0.014280105 0.0027415929 0.4048202 0 -0.25019264
0.039999999 0.014977239 0.0027430644 0.4048202 0 -0.25019264
0.039999999 0.015674451 0.002744606 0.4048202 0 -0.25019264
0.039999999 0.016371744 0.0027462181 0.4048202 0 -0.25019264
0.039999999 0.017069124 0.0027479003 0.4048202 0 -0.25019264
0.039999999 0.017766589 0.0027496526 0.4048202 0 -0.25019264
0.039999999 0.01846415 0.0027514754 0.4048202 0 -0.25019264
0.039999999 0.019161804 0.0027533686 0.4048202 0 -0.25019264
0.039999999 0.019859558 0.0027553318 0.4048202 0 -0.25019264
0.039999999 0.020557417 0.0027573658 0.4048202 0 -0.25019264
0.039999999 0.021255381 0.0027594699 0.4048202 0 -0.25019264
0.039999999 0.021953456 0.0027616445 0.4048202 0 -0.25019264
0.039999999 0.022651644 0.0027638895 0.4048202 0 -0.25019264
0.039999999 0.023349952 0.0027662052 0.4048202 0 -0.25019264
0.039999999 0.024048381 0.0027685913 0.4048202 0 -0.25019264
0.039999999 0.024746934 0.0027710479 0.4048202 0 -0.25019264
0.039999999 0.025445616 0.002773575 0.4048202 0 -0.25019264
0.039999999 0.02614443 0.0027761727 0.4048202 0 -0.25019264
0.039999999 0.02684338 0.0027788412 0.4048202 0 -0.25019264
0.039999999 0.02754247 0.0027815802 0.4048202 0 -0.25019264
0.039999999 0.028241703 0.00278439 0.4048202 0 -0.25019264
0.039999999 0.028941084 0.0027872706 0.4048202 0 -0.25019264
0.039999999 0.029640615 0.0027902219 0.4048202 0 -0.25019264
0.039999999 0.030340301 0.0027932441 0.4048202 0 -0.25019264
0.039999999 0.031040145 0.002796337 0.4048202 0 -0.25019264
0.039999999 0.031740151 0.0027995009 0.4048202 0 -0.25019264
0.039999999 0.03244032 0.0028027357 0.4048202 0 -0.25019264
0.039999999 0.033140659 0.0028060416 0.4048202 0 -0.25019264
0.039999999 0.033841174 0.0028094184 0.4048202 0 -0.25019264
0.039999999 0.034541864 0.0028128664 0.4048202 0 -0.25019264
0.039999999 0.035242733 0.0028163854 0.4048202 0 -0.25019264
0.039999999 0.035943784 0.0028199756 0.4048202 0 -0.25019264
0.039999999 0.036645025 0.0028236369 0.4048202 0 -0.25019264
0.039999999 0.037346456 0.0028273696 0.4048202 0 -0.25019264
0.039999999 0.038048085 0.0028311736 0.4048202 0 -0.25019264
0.039999999 0.038749911 0.0028350488 0.4048202 0 -0.25019264
0.039999999 0.039451938 0.0028389955 0.4048202 0 -0.25019264
0.039999999 0.040154174 0.0028430135 0.4048202 0 -0.25019264
0.039999999 0.040856618 0.0028471032 0.4048202 0 -0.25019264
0.039999999 0.041559275 0.0028512646 0.4048202 0 -0.25019264
0.039999999 0.042262152 0.0028554972 0.4048202 0 -0.25019264
0.039999999 0.042965248 0.0028598018 0.4048202 0 -0.25019264
0.039999999 0.043668572 0.0028641778 0.4048202 0 -0.25019264
0.039999999 0.044372119 0.0028686258 0.4048202 0 -0.25019264
0.039999999 0.045075905 0.0028731457 0.4048202 0 -0.25019264
0.039999999 0.045779921 0.0028777374 0.4048202 0 -0.25019264
0.039999999 0.04648418 0.002882401 0.4048202 0 -0.25019264
0.039999999 0.047188684 0.0028871368 0.4048202 0 -0.25019264
0.039999999 0.047893435 0.0028919445 0.4048202 0 -0.25019264
0.039999999 0.048598435 0.0028968244 0.4048202 0 -0.25019264
0.039999999 0.049303692 0.0029017765 0.4048202 0 -0.25019264
0.039999999 0.050009206 0.0029068007 0.4048202 0 -0.25019264
0.039999999 0.050714985 0.0029118974 0.4048202 0 -0.25019264
0.039999999 0.051421028 0.0029170664 0.4048202 0 -0.25019264
0.039999999 0.052127343 0.0029223082 0.4048202 0 -0.25019264
0.039999999 0.052833933 0.0029276223 0.4048202 0 -0.25019264
0.039999999 0.0535408 0.0029330088 0.4048202 0 -0.25019264
0.039999999 0.054247949 0.0029384682 0.4048202 0 -0.25019264
0.039999999 0.054955382 0.0029440003 0.4048202 0 -0.25019264
0.039999999 0.055663105 0.0029496052 0.4048202 0 -0.25019264
0.039999999 0.056371123 0.002955283 0.4048202 0 -0.25019264
0.039999999 0.057079438 0.002961034 0.4048202 0 -0.25019264
0.039999999 0.057788052 0.0029668577 0.4048202 0 -0.25019264
0.039999999 0.058496974 0.0029727546 0.4048202 0 -0.25019264
0.039999999 0.059206203 0.0029787249 0.4048202 0 -0.25019264
0.039999999 0.059915744 0.0029847682 0.4048202 0 -0.25019264
0.039999999 0.060625602 0.0029908849 0.4048202 0 -0.25019264
0.039999999 0.06133578 0.0029970752 0.4048202 0 -0.25019264
0.039999999 0.062046282 0.0030033388 0.4048202 0 -0.25019264
0.039999999 0.062757112 0.0030096762 0.4048202 0 -0.25019264
0.039999999 0.063468277 0.0030160872 0.4048202 0 -0.25019264
0.039999999 0.064179771 0.003022572 0.4048202 0 -0.25019264
0.039999999 0.064891614 0.0030291306 0.4048202 0 -0.25019264
0.039999999 0.065603793 0.003035763 0.4048202 0 -0.25019264
0.039999999 0.066316329 0.0030424697 0.4048202 0 -0.25019264
0.039999999 0.067029208 0.0030492505 0.4048202 0 -0.25019264
0.039999999 0.067742445 0.0030561052 0.4048202 0 -0.25019264
0.039999999 0.068456046 0.0030630345 0.4048202 0 -0.25019264
0.039999999 0.069170006 0.003070038 0.4048202 0 -0.25019264
0.039999999 0.069884337 0.0030771161 0.4048202 0 -0.25019264
0.039999999 0.070599034 0.0030842687 0.4048202 0 -0.25019264
0.039999999 0.071314111 0.0030914959 0.4048202 0 -0.25019264
0.039999999 0.072029568 0.003098798 0.4048202 0 -0.25019264
0.039999999 0.072745413 0.0031061748 0.4048202 0 -0.25019264
0.039999999 0.073461637 0.0031136265 0.4048202 0 -0.25019264
0.039999999 0.074178256 0.0031211535 0.4048202 0 -0.25019264
0.039999999 0.07489527 0.0031287556 0.4048202 0 -0.25019264
0.039999999 0.075612687 0.0031364327 0.4048202 0 -0.25019264
0.039999999 0.076330505 0.0031441855 0.4048202 0 -0.25019264
0.039999999 0.077048734 0.0031520135 0.4048202 0 -0.25019264
0.039999999 0.077767372 0.0031599172 0.4048202 0 -0.25019264
0.039999999 0.07848642 0.0031678965 0.4048202 0 -0.25019264
0.039999999 0.0792059 0.0031759518 0.4048202 0 -0.25019264
0.039999999 0.079925798 0.0031840827 0.4048202 0 -0.25019264
0.039999999 0.00034781889 0.0018793227 0.4048202 0 -0.25019264
0.039999999 0.0010434585 0.0018793904 0.4048202 0 -0.25019264
0.039999999 0.0017391035 0.001879526 0.4048202 0 -0.25019264
0.039999999 0.0024347573 0.0018797293 0.4048202 0 -0.25019264
0.039999999 0.0031304238 0.0018800005 0.4048202 0 -0.25019264
0.039999999 0.0038261067 0.0018803393 0.4048202 0 -0.25019264
0.039999999 0.0045218095 0.001880746 0.4048202 0 -0.25019264
0.039999999 0.0052175354 0.0018812205 0.4048202 0 -0.25019264
0.039999999 0.0059132883 0.0018817628 0.4048202 0 -0.25019264
0.039999999 0.006609072 0.0018823728 0.4048202 0 -0.25019264
0.039999999 0.0073048896 0.0018830507 0.4048202 0 -0.25019264
0.039999999 0.0080007454 0.0018837964 0.4048202 0 -0.25019264
0.039999999 0.0086966427 0.0018846099 0.4048202 0 -0.25019264
0.039999999 0.0093925847 0.0018854914 0.4048202 0 -0.25019264
0.039999999 0.010088575 0.0018864406 0.4048202 0 -0.25019264
0.039999999 0.010784619 0.0018874577 0.4048202 0 -0.25019264
0.039999999 0.011480717 0.0018885427 0.4048202 0 -0.25019264
0.039999999 0.012176876 0.0018896956 0.4048202 0 -0.25019264
0.039999999 0.012873097 0.0018909164 0.4048202 0 -0.25019264
0.039999999 0.013569385 0.0018922051 0.4048202 0 -0.25019264
0.039999999 0.014265743 0.0018935618 0.4048202 0 -0.25019264
0.039999999 0.014962176 0.0018949864 0.4048202 0 -0.25019264
0.039999999 0.015658686 0.0018964789 0.4048202 0 -0.25019264
0.039999999 0.016355276 0.0018980396 0.4048202 0 -0.25019264
0.039999999 0.017051952 0.0018996681 0.4048202 0 -0.25019264
0.039999999 0.017748717 0.0019013648 0.4048202 0 -0.25019264
0.039999999 0.018445574 0.0019031295 0.4048202 0 -0.25019264
0.039999999 0.019142525 0.0019049622 0.4048202 0 -0.25019264
0.039999999 0.019839576 0.0019068631 0.4048202 0 -0.25019264
0.039999999 0.02053673 0.0019088321 0.4048202 0 -0.25019264
0.039999999 0.021233991 0.0019108693 0.4048202 0 -0.25019264
0.039999999 0.021931361 0.0019129746 0.4048202 0 -0.25019264
0.039999999 0.022628846 0.0019151482 0.4048202 0 -0.25019264
0.039999999 0.023326447 0.0019173899 0.4048202 0 -0.25019264
0.039999999 0.024024172 0.0019196999 0.4048202 0 -0.25019264
0.039999999 0.024722019 0.0019220783 0.4048202 0 -0.25019264
0.039999999 0.025419995 0.001924525 0.4048202 0 -0.25019264
0.039999999 0.026118103 0.0019270401 0.4048202 0 -0.25019264
0.039999999 0.026816348 0.0019296234 0.4048202 0 -0.25019264
0.039999999 0.027514732 0.0019322752 0.4048202 0 -0.25019264
0.039999999 0.028213257 0.0019349955 0.4048202 0 -0.25019264
0.039999999 0.02891193 0.0019377843 0.4048202 0 -0.25019264
0.039999999 0.029610753 0.0019406416 0.4048202 0 -0.25019264
0.039999999 0.030309731 0.0019435674 0.4048202 0 -0.25019264
0.039999999 0.031008866 0.001946562 0.4048202 0 -0.25019264
0.039999999 0.031708162 0.0019496251 0.4048202 0 -0.25019264
0.039999999 0.032407623 0.0019527568 0.4048202 0 -0.25019264
0.039999999 0.033107251 0.0019559574 0.4048202 0 -0.25019264
0.039999999 0.033807054 0.0019592266 0.4048202 0 -0.25019264
0.039999999 0.034507032 0.0019625647 0.4048202 0 -0.25019264
0.039999999 0.03520719 0.0019659717 0.4048202 0 -0.25019264
0.039999999 0.035907533 0.0019694474 0.4048202 0 -0.25019264
0.039999999 0.036608063 0.0019729922 0.4048202 0 -0.25019264
0.039999999 0.037308782 0.0019766057 0.4048202 0 -0.25019264
0.039999999 0.038009696 0.0019802887 0.4048202 0 -0.25019264
0.039999999 0.038710807 0.0019840405 0.4048202 0 -0.25019264
0.039999999 0.039412122 0.0019878612 0.4048202 0 -0.25019264
0.039999999 0.040113643 0.0019917514 0.4048202 0 -0.25019264
0.039999999 0.040815372 0.0019957109 0.4048202 0 -0.25019264
0.039999999 0.041517314 0.0019997393 0.4048202 0 -0.25019264
0.039999999 0.042219471 0.0020038374 0.4048202 0 -0.25019264
0.039999999 0.042921852 0.0020080046 0.4048202 0 -0.25019264
0.039999999 0.043624457 0.0020122414 0.4048202 0 -0.25019264
0.039999999 0.044327289 0.0020165476 0.4048202 0 -0.25019264
0.039999999 0.045030352 0.0020209234 0.4048202 0 -0.25019264
0.039999999 0.045733653 0.0020253689 0.4048202 0 -0.25019264
0.039999999 0.046437193 0.0020298839 0.4048202 0 -0.25019264
0.039999999 0.047140975 0.0020344688 0.4048202 0 -0.25019264
0.039999999 0.047845002 0.0020391233 0.4048202 0 -0.25019264
0.039999999 0.048549283 0.0020438477 0.4048202 0 -0.25019264
0.039999999 0.049253818 0.0020486419 0.4048202 0 -0.25019264
0.039999999 0.049958609 0.0020535062 0.4048202 0 -0.25019264
0.039999999 0.050663665 0.0020584404 0.4048202 0 -0.25019264
0.039999999 0.051368985 0.0020634448 0.4048202 0 -0.25019264
0.039999999 0.052074574 0.0020685194 0.4048202 0 -0.25019264
0.039999999 0.052780438 0.002073664 0.4048202 0 -0.25019264
0.039999999 0.053486578 0.0020788792 0.4048202 0 -0.25019264
0.039999999 0.054193001 0.0020841644 0.4048202 0 -0.25019264
0.039999999 0.054899707 0.0020895202 0.4048202 0 -0.25019264
0.039999999 0.055606704 0.0020949466 0.4048202 0 -0.25019264
0.039999999 0.056313992 0.0021004435 0.4048202 0 -0.25019264
0.039999999 0.057021573 0.0021060109 0.4048202 0 -0.25019264
0.039999999 0.05772946 0.0021116491 0.4048202 0 -0.25019264
0.039999999 0.058437649 0.0021173584 0.4048202 0 -0.25019264
0.039999999 0.059146143 0.0021231382 0.4048202 0 -0.25019264
0.039999999 0.059854954 0.002128989 0.4048202 0 -0.25019264
0.039999999 0.060564078 0.0021349108 0.4048202 0 -0.25019264
0.039999999 0.061273519 0.0021409036 0.4048202 0 -0.25019264
0.039999999 0.061983287 0.0021469677 0.4048202 0 -0.25019264
0.039999999 0.06269338 0.002153103 0.4048202 0 -0.25019264
0.039999999 0.063403808 0.0021593098 0.4048202 0 -0.25019264
0.039999999 0.064114571 0.0021655879 0.4048202 0 -0.25019264
0.039999999 0.064825669 0.0021719374 0.4048202 0 -0.25019264
0.039999999 0.06553711 0.0021783584 0.4048202 0 -0.25019264
0.039999999 0.066248901 0.0021848513 0.4048202 0 -0.25019264
0.039999999 0.066961043 0.0021914158 0.4048202 0 -0.25019264
0.039999999 0.067673542 0.0021980521 0.4048202 0 -0.25019264
0.039999999 0.068386391 0.0022047604 0.4048202 0 -0.25019264
0.039999999 0.069099613 0.0022115407 0.4048202 0 -0.25019264
0.039999999 0.069813192 0.0022183931 0.4048202 0 -0.25019264
0.039999999 0.070527151 0.0022253178 0.4048202 0 -0.25019264
0.039999999 0.071241483 0.0022323146 0.4048202 0 -0.25019264
0.039999999 0.071956187 0.002239384 0.4048202 0 -0.25019264
0.039999999 0.072671279 0.0022465256 0.4048202 0 -0.25019264
0.039999999 0.073386759 0.0022537399 0.4048202 0 -0.25019264
0.039999999 0.074102625 0.0022610268 0.4048202 0 -0.25019264
0.039999999 0.074818887 0.0022683865 0.4048202 0 -0.25019264
0.039999999 0.075535551 0.002275819 0.4048202 0 -0.25019264
0.039999999 0.076252617 0.0022833245 0.4048202 0 -0.25019264
