# .PCD v0.7 - Point Cloud Data file format
VERSION 0.7
FIELDS x y z vp_x vp_y vp_z
SIZE 4 4 4 4 4 4
TYPE F F F F F F
COUNT 1 1 1 1 1 1
WIDTH 670
HEIGHT 1
VIEWPOINT 0 0 0 1 0 0 0
POINTS 670
DATA ascii
0.0050093434 0.073199794 0.061338294 -0.14741376 0.38593423 -0.23852047
0.0045085181 0.072610177 0.061648335 -0.14741376 0.38593423 -0.23852047
0.0040127304 0.07200703 0.061971124 -0.14741376 0.38593423 -0.23852047
0.0035520187 0.07132753 0.062366702 -0.14741376 0.38593423 -0.23852047
0.003090167 0.070646353 0.062763542 -0.14741376 0.38593423 -0.23852047
0.0026514521 0.069912344 0.063210465 -0.14741376 0.38593423 -0.23852047
0.0022349218 0.06912668 0.063706234 -0.14741376 0.38593423 -0.23852047
0.0018213064 0.068329573 0.064212397 -0.14741376 0.38593423 -0.23852047
0.0014583674 0.067418635 0.064826436 -0.14741376 0.38593423 -0.23852047
0.001094005 0.066504128 0.065443158 -0.14741376 0.38593423 -0.23852047
0.00078857725 0.065455474 0.066186711 -0.14741376 0.38593423 -0.23852047
0.0004906315 0.064382389 0.066952556 -0.14741376 0.38593423 -0.23852047
0.00027454653 0.063121907 0.067895316 -0.14741376 0.38593423 -0.23852047
9.5892392e-05 0.061768644 0.068924829 -0.14741376 0.38593423 -0.23852047
0.033350788 0.074861392 0.068395451 -0.14741376 0.38593423 -0.23852047
0.031773195 0.076136068 0.066857368 -0.14741376 0.38593423 -0.23852047
0.03041883 0.077038065 0.065689504 -0.14741376 0.38593423 -0.23852047
0.029174348 0.077759884 0.064701423 -0.14741376 0.38593423 -0.23852047
0.028050696 0.078279749 0.063914046 -0.14741376 0.38593423 -0.23852047
0.026974635 0.078723773 0.06320294 -0.14741376 0.38593423 -0.23852047
0.025960486 0.079065502 0.062593862 -0.14741376 0.38593423 -0.23852047
0.024980711 0.079352416 0.062039983 -0.14741376 0.38593423 -0.23852047
0.024050128 0.079557233 0.061567873 -0.14741376 0.38593423 -0.23852047
0.023130178 0.079747967 0.061110742 -0.14741376 0.38593423 -0.23852047
0.022266591 0.079841919 0.060749419 -0.14741376 0.38593423 -0.23852047
0.021405324 0.079935618 0.06038934 -0.14741376 0.38593423 -0.23852047
0.020573085 0.079980388 0.060078003 -0.14741376 0.38593423 -0.23852047
0.01976707 0.079980649 0.05981097 -0.14741376 0.38593423 -0.23852047
0.018967522 0.079972066 0.059553381 -0.14741376 0.38593423 -0.23852047
0.018207446 0.079893492 0.059364717 -0.14741376 0.38593423 -0.23852047
0.017450618 0.079811156 0.059180386 -0.14741376 0.38593423 -0.23852047
0.016698625 0.079722025 0.059003323 -0.14741376 0.38593423 -0.23852047
0.015984118 0.079564765 0.058893051 -0.14741376 0.38593423 -0.23852047
0.015270317 0.079407662 0.058783159 -0.14741376 0.38593423 -0.23852047
0.014562045 0.079241566 0.058682509 -0.14741376 0.38593423 -0.23852047
0.013886791 0.079014041 0.058641855 -0.14741376 0.38593423 -0.23852047
0.013211879 0.078786619 0.058601495 -0.14741376 0.38593423 -0.23852047
0.012540462 0.078553252 0.058567293 -0.14741376 0.38593423 -0.23852047
0.011901613 0.078257687 0.058593541 -0.14741376 0.38593423 -0.23852047
0.011262793 0.07796213 0.058620062 -0.14741376 0.38593423 -0.23852047
0.010624424 0.077665761 0.058647651 -0.14741376 0.38593423 -0.23852047
0.010020306 0.077302292 0.058740154 -0.14741376 0.38593423 -0.23852047
0.0094159395 0.076938666 0.058832966 -0.14741376 0.38593423 -0.23852047
0.0088113202 0.076574892 0.058926091 -0.14741376 0.38593423 -0.23852047
0.0082392925 0.076145589 0.059082329 -0.14741376 0.38593423 -0.23852047
0.0076687927 0.075711884 0.059242845 -0.14741376 0.38593423 -0.23852047
0.0070977877 0.075277798 0.059403777 -0.14741376 0.38593423 -0.23852047
0.0065594148 0.074776351 0.059629295 -0.14741376 0.38593423 -0.23852047
0.0060231877 0.07426843 0.059860952 -0.14741376 0.38593423 -0.23852047
0.0054862248 0.073759809 0.060093202 -0.14741376 0.38593423 -0.23852047
0.0049863895 0.07317277 0.060400322 -0.14741376 0.38593423 -0.23852047
0.0044860486 0.072583728 0.060709152 -0.14741376 0.38593423 -0.23852047
0.0039925897 0.071977325 0.06103434 -0.14741376 0.38593423 -0.23852047
0.0035323137 0.071298465 0.061428364 -0.14741376 0.38593423 -0.23852047
0.0030709002 0.070617937 0.061823636 -0.14741376 0.38593423 -0.23852047
0.0026345623 0.069880486 0.062272727 -0.14741376 0.38593423 -0.23852047
0.0022184185 0.069095559 0.06276653 -0.14741376 0.38593423 -0.23852047
0.0018073583 0.068294562 0.063275076 -0.14741376 0.38593423 -0.23852047
0.0014447479 0.067384452 0.063886672 -0.14741376 0.38593423 -0.23852047
0.0010807165 0.066470772 0.064500943 -0.14741376 0.38593423 -0.23852047
0.00077807182 0.06541764 0.065246679 -0.14741376 0.38593423 -0.23852047
0.0004803894 0.064345501 0.066009477 -0.14741376 0.38593423 -0.23852047
0.0002675741 0.063079379 0.066954859 -0.14741376 0.38593423 -0.23852047
9.3161187e-05 0.06171827 0.067988783 -0.14741376 0.38593423 -0.23852047
8.0351356e-06 0.060148198 0.069218703 -0.14741376 0.38593423 -0.23852047
0.035312321 0.072821125 0.069682971 -0.14741376 0.38593423 -0.23852047
0.033194654 0.075009279 0.067248173 -0.14741376 0.38593423 -0.23852047
0.031650227 0.07622955 0.065769173 -0.14741376 0.38593423 -0.23852047
0.030315269 0.077100374 0.06463626 -0.14741376 0.38593423 -0.23852047
0.029083822 0.077801771 0.063671939 -0.14741376 0.38593423 -0.23852047
0.027961835 0.078320861 0.062888369 -0.14741376 0.38593423 -0.23852047
0.026895095 0.078750573 0.062194072 -0.14741376 0.38593423 -0.23852047
0.025882347 0.079091825 0.061587907 -0.14741376 0.38593423 -0.23852047
0.024909701 0.07936804 0.061046746 -0.14741376 0.38593423 -0.23852047
0.023980333 0.079572588 0.060576882 -0.14741376 0.38593423 -0.23852047
0.023066111 0.079754941 0.06012987 -0.14741376 0.38593423 -0.23852047
0.022203598 0.079848774 0.059770267 -0.14741376 0.38593423 -0.23852047
0.021343399 0.079942353 0.059411906 -0.14741376 0.38593423 -0.23852047
0.020515328 0.079981342 0.059107635 -0.14741376 0.38593423 -0.23852047
0.019710274 0.079981595 0.058841892 -0.14741376 0.38593423 -0.23852047
0.018913176 0.079970263 0.058588222 -0.14741376 0.38593423 -0.23852047
0.018156081 0.079887904 0.058404252 -0.14741376 0.38593423 -0.23852047
0.017400121 0.079805657 0.058220834 -0.14741376 0.38593423 -0.23852047
0.016651642 0.079711683 0.05804944 -0.14741376 0.38593423 -0.23852047
0.015937928 0.079554603 0.057939749 -0.14741376 0.38593423 -0.23852047
0.01522492 0.079397671 0.057830434 -0.14741376 0.38593423 -0.23852047
0.014519775 0.079227328 0.057734609 -0.14741376 0.38593423 -0.23852047
0.013845249 0.079000041 0.05769423 -0.14741376 0.38593423 -0.23852047
0.013171065 0.078772865 0.057654146 -0.14741376 0.38593423 -0.23852047
0.012502489 0.078535683 0.057624105 -0.14741376 0.38593423 -0.23852047
0.011864311 0.078240424 0.057650343 -0.14741376 0.38593423 -0.23852047
0.011226162 0.077945188 0.057676848 -0.14741376 0.38593423 -0.23852047
0.010590422 0.077645309 0.057708088 -0.14741376 0.38593423 -0.23852047
0.009986924 0.077282205 0.057800293 -0.14741376 0.38593423 -0.23852047
0.0093831783 0.07691896 0.057892807 -0.14741376 0.38593423 -0.23852047
0.0087791793 0.076555558 0.05798563 -0.14741376 0.38593423 -0.23852047
0.0082095833 0.076123007 0.058144826 -0.14741376 0.38593423 -0.23852047
0.0076396563 0.075689733 0.058304761 -0.14741376 0.38593423 -0.23852047
0.007069225 0.075256087 0.058465101 -0.14741376 0.38593423 -0.23852047
0.0065331841 0.074751511 0.05869323 -0.14741376 0.38593423 -0.23852047
0.005997485 0.074244082 0.058924008 -0.14741376 0.38593423 -0.23852047
0.0054624118 0.073733188 0.05915802 -0.14741376 0.38593423 -0.23852047
0.0049634962 0.073145822 0.059464797 -0.14741376 0.38593423 -0.23852047
0.0044636382 0.072557345 0.059772428 -0.14741376 0.38593423 -0.23852047
0.0039725015 0.071947694 0.060099985 -0.14741376 0.38593423 -0.23852047
0.0035126603 0.071269482 0.06049246 -0.14741376 0.38593423 -0.23852047
0.0030516835 0.070589595 0.060886174 -0.14741376 0.38593423 -0.23852047
0.0026177161 0.069848709 0.061337404 -0.14741376 0.38593423 -0.23852047
0.0022019579 0.069064505 0.061829247 -0.14741376 0.38593423 -0.23852047
0.0017934459 0.068259642 0.062340144 -0.14741376 0.38593423 -0.23852047
0.0014311631 0.067350358 0.062949315 -0.14741376 0.38593423 -0.23852047
0.001067462 0.066437505 0.063561141 -0.14741376 0.38593423 -0.23852047
0.00076759298 0.065379895 0.064309016 -0.14741376 0.38593423 -0.23852047
0.00047017323 0.064308703 0.065068781 -0.14741376 0.38593423 -0.23852047
0.0002606191 0.063036956 0.066016749 -0.14741376 0.38593423 -0.23852047
9.0436668e-05 0.06166802 0.067055039 -0.14741376 0.38593423 -0.23852047
5.3789954e-06 0.060099211 0.068280123 -0.14741376 0.38593423 -0.23852047
0.00010236927 0.058111895 0.069897227 -0.14741376 0.38593423 -0.23852047
0.035084002 0.073089913 0.068412341 -0.14741376 0.38593423 -0.23852047
0.033039112 0.075156614 0.066105254 -0.14741376 0.38593423 -0.23852047
0.031527687 0.076322705 0.064684726 -0.14741376 0.38593423 -0.23852047
0.030212043 0.077162482 0.063586429 -0.14741376 0.38593423 -0.23852047
0.028993577 0.077843525 0.062645666 -0.14741376 0.38593423 -0.23852047
0.027873252 0.078361847 0.061865885 -0.14741376 0.38593423 -0.23852047
0.026815794 0.078777298 0.061188247 -0.14741376 0.38593423 -0.23852047
0.025804443 0.07911808 0.060584981 -0.14741376 0.38593423 -0.23852047
0.024838902 0.079383627 0.060056433 -0.14741376 0.38593423 -0.23852047
0.023910742 0.079587907 0.059588805 -0.14741376 0.38593423 -0.23852047
0.023002228 0.079761893 0.059151821 -0.14741376 0.38593423 -0.23852047
0.022140786 0.079855606 0.058793936 -0.14741376 0.38593423 -0.23852047
0.02128165 0.079949066 0.058437277 -0.14741376 0.38593423 -0.23852047
0.020457733 0.079982281 0.058140017 -0.14741376 0.38593423 -0.23852047
0.019653641 0.079982542 0.057875555 -0.14741376 0.38593423 -0.23852047
0.018861085 0.079964601 0.057629518 -0.14741376 0.38593423 -0.23852047
0.018104861 0.079882331 0.057446465 -0.14741376 0.38593423 -0.23852047
0.017349767 0.079800181 0.057263948 -0.14741376 0.38593423 -0.23852047
0.016604787 0.079701371 0.057098176 -0.14741376 0.38593423 -0.23852047
0.015891867 0.079544462 0.056989066 -0.14741376 0.38593423 -0.23852047
0.015179648 0.079387709 0.056880329 -0.14741376 0.38593423 -0.23852047
0.014477619 0.07921312 0.056789279 -0.14741376 0.38593423 -0.23852047
0.01380382 0.078986079 0.05674918 -0.14741376 0.38593423 -0.23852047
0.013130362 0.078759156 0.056709364 -0.14741376 0.38593423 -0.23852047
0.012464616 0.07851816 0.056683455 -0.14741376 0.38593423 -0.23852047
0.011827108 0.078223214 0.056709677 -0.14741376 0.38593423 -0.23852047
0.011189629 0.077928282 0.056736168 -0.14741376 0.38593423 -0.23852047
0.01055651 0.077624902 0.056771025 -0.14741376 0.38593423 -0.23852047
0.0099536311 0.077262178 0.056862935 -0.14741376 0.38593423 -0.23852047
0.0093505038 0.076899298 0.056955151 -0.14741376 0.38593423 -0.23852047
0.0087488089 0.07653293 0.057050861 -0.14741376 0.38593423 -0.23852047
0.0081799524 0.076100476 0.057209805 -0.14741376 0.38593423 -0.23852047
0.0076105967 0.075667642 0.057369154 -0.14741376 0.38593423 -0.23852047
0.0070414669 0.075232968 0.057530306 -0.14741376 0.38593423 -0.23852047
0.0065070228 0.074726731 0.057759624 -0.14741376 0.38593423 -0.23852047
0.0059718499 0.074219801 0.057989519 -0.14741376 0.38593423 -0.23852047
0.005439098 0.07370574 0.058226123 -0.14741376 0.38593423 -0.23852047
0.0049406621 0.073118933 0.058531709 -0.14741376 0.38593423 -0.23852047
0.0044412855 0.07253103 0.05883814 -0.14741376 0.38593423 -0.23852047
0.0039524646 0.071918145 0.059168041 -0.14741376 0.38593423 -0.23852047
0.0034930573 0.071240567 0.059558973 -0.14741376 0.38593423 -0.23852047
0.0030325167 0.070561327 0.059951138 -0.14741376 0.38593423 -0.23852047
0.0026009129 0.069817014 0.060404476 -0.14741376 0.38593423 -0.23852047
0.0021855393 0.069033541 0.060894366 -0.14741376 0.38593423 -0.23852047
0.0017795687 0.06822481 0.061407585 -0.14741376 0.38593423 -0.23852047
0.0014176129 0.067316346 0.062014334 -0.14741376 0.38593423 -0.23852047
0.0010542414 0.066404328 0.062623732 -0.14741376 0.38593423 -0.23852047
0.00075714057 0.065342255 0.063373715 -0.14741376 0.38593423 -0.23852047
0.00046227901 0.064267009 0.064135164 -0.14741376 0.38593423 -0.23852047
0.00025368138 0.062994637 0.065080971 -0.14741376 0.38593423 -0.23852047
8.7718799e-05 0.061617889 0.066123568 -0.14741376 0.38593423 -0.23852047
2.729357e-06 0.060050339 0.067343839 -0.14741376 0.38593423 -0.23852047
0.00010566069 0.058051188 0.068967149 -0.14741376 0.38593423 -0.23852047
0.034856725 0.07335747 0.067147501 -0.14741376 0.38593423 -0.23852047
0.0328965 0.075282119 0.064987443 -0.14741376 0.38593423 -0.23852047
0.031405564 0.076415546 0.06360402 -0.14741376 0.38593423 -0.23852047
0.030109154 0.077224389 0.06254001 -0.14741376 0.38593423 -0.23852047
0.028903613 0.077885143 0.061622582 -0.14741376 0.38593423 -0.23852047
0.027784942 0.078402698 0.060846571 -0.14741376 0.38593423 -0.23852047
0.026736733 0.078803934 0.060185447 -0.14741376 0.38593423 -0.23852047
0.025726773 0.079144247 0.059585065 -0.14741376 0.38593423 -0.23852047
0.02476831 0.079399161 0.059069019 -0.14741376 0.38593423 -0.23852047
0.023841357 0.07960318 0.058603615 -0.14741376 0.38593423 -0.23852047
0.022938529 0.079768822 0.058176577 -0.14741376 0.38593423 -0.23852047
0.022078153 0.079862416 0.057820398 -0.14741376 0.38593423 -0.23852047
0.021220081 0.079955772 0.057465438 -0.14741376 0.38593423 -0.23852047
0.020400301 0.079983227 0.057175133 -0.14741376 0.38593423 -0.23852047
0.019597165 0.07998348 0.056911945 -0.14741376 0.38593423 -0.23852047
0.018809142 0.079958946 0.056673478 -0.14741376 0.38593423 -0.23852047
0.018053783 0.079876773 0.05649133 -0.14741376 0.38593423 -0.23852047
0.017299552 0.07979472 0.056309719 -0.14741376 0.38593423 -0.23852047
0.01655806 0.07969109 0.05614952 -0.14741376 0.38593423 -0.23852047
0.01584593 0.079534352 0.056040984 -0.14741376 0.38593423 -0.23852047
0.015134499 0.07937777 0.05593282 -0.14741376 0.38593423 -0.23852047
0.014435577 0.079198956 0.055846512 -0.14741376 0.38593423 -0.23852047
0.013762503 0.078972161 0.055806685 -0.14741376 0.38593423 -0.23852047
0.01308977 0.078745477 0.055767141 -0.14741376 0.38593423 -0.23852047
0.012426846 0.078500688 0.055745322 -0.14741376 0.38593423 -0.23852047
0.011790005 0.078206047 0.055771533 -0.14741376 0.38593423 -0.23852047
0.011153194 0.077911429 0.055798009 -0.14741376 0.38593423 -0.23852047
0.010522689 0.077604555 0.05583645 -0.14741376 0.38593423 -0.23852047
0.0099204257 0.077242196 0.055928066 -0.14741376 0.38593423 -0.23852047
0.0093179159 0.076879695 0.056019988 -0.14741376 0.38593423 -0.23852047
0.0087186871 0.076510035 0.056118876 -0.14741376 0.38593423 -0.23852047
0.0081503997 0.076078013 0.056277242 -0.14741376 0.38593423 -0.23852047
0.007581614 0.075645611 0.05643601 -0.14741376 0.38593423 -0.23852047
0.0070148502 0.075207755 0.056600008 -0.14741376 0.38593423 -0.23852047
0.0064809294 0.07470201 0.056828454 -0.14741376 0.38593423 -0.23852047
0.0059462818 0.074195586 0.057057474 -0.14741376 0.38593423 -0.23852047
0.0054158447 0.073678359 0.057296641 -0.14741376 0.38593423 -0.23852047
0.0049178875 0.073092125 0.057601042 -0.14741376 0.38593423 -0.23852047
0.0044189915 0.072504781 0.057906281 -0.14741376 0.38593423 -0.23852047
0.0039324798 0.07188867 0.058238499 -0.14741376 0.38593423 -0.23852047
0.0034735049 0.071211733 0.058627892 -0.14741376 0.38593423 -0.23852047
0.003013399 0.070533127 0.059018511 -0.14741376 0.38593423 -0.23852047
0.0025841529 0.069785401 0.059473932 -0.14741376 0.38593423 -0.23852047
0.0021691627 0.069002651 0.059961885 -0.14741376 0.38593423 -0.23852047
0.0017657267 0.068190068 0.060477391 -0.14741376 0.38593423 -0.23852047
0.0014040971 0.067282423 0.061081734 -0.14741376 0.38593423 -0.23852047
0.001042171 0.066368826 0.06169096 -0.14741376 0.38593423 -0.23852047
0.00074671436 0.065304704 0.062440772 -0.14741376 0.38593423 -0.23852047
0.00045518254 0.064223722 0.063205451 -0.14741376 0.38593423 -0.23852047
0.00024676087 0.062952422 0.064147517 -0.14741376 0.38593423 -0.23852047
8.5007545e-05 0.061567884 0.065194368 -0.14741376 0.38593423 -0.23852047
8.6182993e-08 0.060001589 0.066409834 -0.14741376 0.38593423 -0.23852047
0.00010894431 0.057990626 0.068039283 -0.14741376 0.38593423 -0.23852047
0.034630481 0.073623814 0.065888405 -0.14741376 0.38593423 -0.23852047
0.03277209 0.075376697 0.063903376 -0.14741376 0.38593423 -0.23852047
0.031283863 0.07650806 0.062527016 -0.14741376 0.38593423 -0.23852047
0.030006595 0.077286094 0.061496966 -0.14741376 0.38593423 -0.23852047
0.028813928 0.077926636 0.060602669 -0.14741376 0.38593423 -0.23852047
0.027696906 0.07844343 0.059830409 -0.14741376 0.38593423 -0.23852047
0.026657909 0.078830495 0.059185654 -0.14741376 0.38593423 -0.23852047
0.025649335 0.079170346 0.05858814 -0.14741376 0.38593423 -0.23852047
0.024697922 0.079414651 0.058084488 -0.14741376 0.38593423 -0.23852047
0.023772173 0.079618402 0.0576213 -0.14741376 0.38593423 -0.23852047
0.022875011 0.079775728 0.057204124 -0.14741376 0.38593423 -0.23852047
0.0220157 0.079869211 0.056849644 -0.14741376 0.38593423 -0.23852047
0.021158684 0.079962447 0.056496374 -0.14741376 0.38593423 -0.23852047
0.02034303 0.079984166 0.056212962 -0.14741376 0.38593423 -0.23852047
0.019540848 0.079984419 0.055951044 -0.14741376 0.38593423 -0.23852047
0.01875734 0.079953313 0.055720087 -0.14741376 0.38593423 -0.23852047
0.018002845 0.07987123 0.055538837 -0.14741376 0.38593423 -0.23852047
0.017249474 0.079789273 0.055358123 -0.14741376 0.38593423 -0.23852047
0.016511463 0.07968083 0.055203453 -0.14741376 0.38593423 -0.23852047
0.015800118 0.079524271 0.055095494 -0.14741376 0.38593423 -0.23852047
0.015089475 0.079367861 0.0549879 -0.14741376 0.38593423 -0.23852047
0.014393649 0.07918483 0.054906286 -0.14741376 0.38593423 -0.23852047
0.013721298 0.078958273 0.054866735 -0.14741376 0.38593423 -0.23852047
0.013049287 0.078731835 0.054827459 -0.14741376 0.38593423 -0.23852047
0.012389176 0.078483254 0.054809697 -0.14741376 0.38593423 -0.23852047
0.011753001 0.078188926 0.054835897 -0.14741376 0.38593423 -0.23852047
0.011116857 0.077894613 0.054862354 -0.14741376 0.38593423 -0.23852047
0.010488956 0.077584259 0.054904345 -0.14741376 0.38593423 -0.23852047
0.0098873088 0.077222273 0.054995671 -0.14741376 0.38593423 -0.23852047
0.0092854146 0.076860137 0.055087298 -0.14741376 0.38593423 -0.23852047
0.0086886445 0.076487191 0.055189338 -0.14741376 0.38593423 -0.23852047
0.0081209242 0.076055601 0.055347126 -0.14741376 0.38593423 -0.23852047
0.0075527071 0.075623639 0.055505317 -0.14741376 0.38593423 -0.23852047
0.0069883028 0.075182609 0.055672131 -0.14741376 0.38593423 -0.23852047
0.0064549041 0.074677363 0.055899709 -0.14741376 0.38593423 -0.23852047
0.0059207799 0.074171431 0.056127857 -0.14741376 0.38593423 -0.23852047
0.0053926515 0.07365106 0.056369562 -0.14741376 0.38593423 -0.23852047
0.0048951716 0.073065378 0.056672782 -0.14741376 0.38593423 -0.23852047
0.0043967548 0.0724786 0.056976832 -0.14741376 0.38593423 -0.23852047
0.0039125462 0.07185927 0.057311341 -0.14741376 0.38593423 -0.23852047
0.0034540028 0.071182966 0.057699203 -0.14741376 0.38593423 -0.23852047
0.0029943306 0.070505001 0.058088284 -0.14741376 0.38593423 -0.23852047
0.0025674356 0.06975387 0.058545757 -0.14741376 0.38593423 -0.23852047
0.002152828 0.068971843 0.059031777 -0.14741376 0.38593423 -0.23852047
0.0017519197 0.068155415 0.059549548 -0.14741376 0.38593423 -0.23852047
0.0013906154 0.067248583 0.060151488 -0.14741376 0.38593423 -0.23852047
0.0010315127 0.066330433 0.060763326 -0.14741376 0.38593423 -0.23852047
0.00073631428 0.065267242 0.061510157 -0.14741376 0.38593423 -0.23852047
0.00044810362 0.064180546 0.062278032 -0.14741376 0.38593423 -0.23852047
0.0002398575 0.062910318 0.063216373 -0.14741376 0.38593423 -0.23852047
8.230286e-05 0.061517999 0.064267412 -0.14741376 0.38593423 -0.23852047
3.2454943e-06 0.059940137 0.06549006 -0.14741376 0.38593423 -0.23852047
0.00011222018 0.057930205 0.067113601 -0.14741376 0.38593423 -0.23852047
0.00072370638 0.054778166 0.069798127 -0.14741376 0.38593423 -0.23852047
0.034439553 0.073830105 0.064692177 -0.14741376 0.38593423 -0.23852047
0.032648109 0.075470954 0.062823027 -0.14741376 0.38593423 -0.23852047
0.031171151 0.076585419 0.061468095 -0.14741376 0.38593423 -0.23852047
0.029904369 0.077347606 0.060457285 -0.14741376 0.38593423 -0.23852047
0.02872452 0.077968001 0.059585903 -0.14741376 0.38593423 -0.23852047
0.02760914 0.078484036 0.058817379 -0.14741376 0.38593423 -0.23852047
0.02657932 0.078856975 0.058188844 -0.14741376 0.38593423 -0.23852047
0.025572129 0.079196356 0.057594188 -0.14741376 0.38593423 -0.23852047
0.024627741 0.079430103 0.057102825 -0.14741376 0.38593423 -0.23852047
0.02370319 0.079633586 0.056641839 -0.14741376 0.38593423 -0.23852047
0.022811675 0.07978262 0.056234445 -0.14741376 0.38593423 -0.23852047
0.021953423 0.079875991 0.055881657 -0.14741376 0.38593423 -0.23852047
0.021097464 0.079969108 0.055530068 -0.14741376 0.38593423 -0.23852047
0.020285921 0.079985105 0.055253491 -0.14741376 0.38593423 -0.23852047
0.019484691 0.079985358 0.05499284 -0.14741376 0.38593423 -0.23852047
0.018705683 0.079947695 0.054769322 -0.14741376 0.38593423 -0.23852047
0.017952047 0.079865701 0.054588974 -0.14741376 0.38593423 -0.23852047
0.017199535 0.079783842 0.05440915 -0.14741376 0.38593423 -0.23852047
0.01646499 0.079670601 0.05425996 -0.14741376 0.38593423 -0.23852047
0.015754431 0.079514213 0.054152571 -0.14741376 0.38593423 -0.23852047
0.015044572 0.079357982 0.054045547 -0.14741376 0.38593423 -0.23852047
0.014351835 0.079170734 0.053968593 -0.14741376 0.38593423 -0.23852047
0.013680204 0.07894443 0.05392931 -0.14741376 0.38593423 -0.23852047
0.013008912 0.07871823 0.053890307 -0.14741376 0.38593423 -0.23852047
0.012351606 0.078465872 0.053876564 -0.14741376 0.38593423 -0.23852047
0.011716097 0.078171857 0.053902749 -0.14741376 0.38593423 -0.23852047
0.011080615 0.077877849 0.053929191 -0.14741376 0.38593423 -0.23852047
0.010455314 0.077564016 0.053974703 -0.14741376 0.38593423 -0.23852047
0.0098542795 0.077202402 0.054065738 -0.14741376 0.38593423 -0.23852047
0.009252998 0.076840632 0.054157067 -0.14741376 0.38593423 -0.23852047
0.0086586801 0.076464415 0.054262228 -0.14741376 0.38593423 -0.23852047
0.0080915261 0.076033257 0.054419447 -0.14741376 0.38593423 -0.23852047
0.0075238757 0.075601719 0.054577064 -0.14741376 0.38593423 -0.23852047
0.0069618244 0.075157523 0.054746661 -0.14741376 0.38593423 -0.23852047
0.0064289467 0.074652776 0.054973375 -0.14741376 0.38593423 -0.23852047
0.0058953445 0.074147336 0.055200659 -0.14741376 0.38593423 -0.23852047
0.005369518 0.073623821 0.055444874 -0.14741376 0.38593423 -0.23852047
0.0048725144 0.073038705 0.055746913 -0.14741376 0.38593423 -0.23852047
0.0043745753 0.072452493 0.056049783 -0.14741376 0.38593423 -0.23852047
0.0038926634 0.071829945 0.056386553 -0.14741376 0.38593423 -0.23852047
0.0034345507 0.071154281 0.056772891 -0.14741376 0.38593423 -0.23852047
0.0029753111 0.070476949 0.057160437 -0.14741376 0.38593423 -0.23852047
0.0025507605 0.069722421 0.057619944 -0.14741376 0.38593423 -0.23852047
0.0021365348 0.068941109 0.058104038 -0.14741376 0.38593423 -0.23852047
0.0017381475 0.068120852 0.058624037 -0.14741376 0.38593423 -0.23852047
0.0013771678 0.067214832 0.059223589 -0.14741376 0.38593423 -0.23852047
0.001020881 0.066292144 0.059838001 -0.14741376 0.38593423 -0.23852047
0.00072594016 0.065229878 0.06058187 -0.14741376 0.38593423 -0.23852047
0.00044104207 0.064137474 0.061352897 -0.14741376 0.38593423 -0.23852047
0.00023297114 0.062868312 0.062287521 -0.14741376 0.38593423 -0.23852047
7.960471e-05 0.061468232 0.063342705 -0.14741376 0.38593423 -0.23852047
6.5927875e-06 0.059878401 0.064572841 -0.14741376 0.38593423 -0.23852047
0.00011548835 0.057869926 0.066190094 -0.14741376 0.38593423 -0.23852047
0.00076165766 0.054641478 0.068937205 -0.14741376 0.38593423 -0.23852047
0.034282323 0.073979035 0.063555621 -0.14741376 0.38593423 -0.23852047
0.032524548 0.075564884 0.061746385 -0.14741376 0.38593423 -0.23852047
0.031067213 0.076647952 0.06042676 -0.14741376 0.38593423 -0.23852047
0.02980247 0.077408917 0.05942094 -0.14741376 0.38593423 -0.23852047
0.028635386 0.07800924 0.05857227 -0.14741376 0.38593423 -0.23852047
0.027521644 0.078524515 0.05780746 -0.14741376 0.38593423 -0.23852047
0.026500965 0.07888338 0.057195008 -0.14741376 0.38593423 -0.23852047
0.025495151 0.079222299 0.056603193 -0.14741376 0.38593423 -0.23852047
0.024557764 0.079445504 0.056124013 -0.14741376 0.38593423 -0.23852047
0.023634406 0.079648726 0.055665221 -0.14741376 0.38593423 -0.23852047
0.022748519 0.07978949 0.05526752 -0.14741376 0.38593423 -0.23852047
0.021891324 0.079882741 0.054916415 -0.14741376 0.38593423 -0.23852047
0.021038536 0.079971902 0.054570187 -0.14741376 0.38593423 -0.23852047
0.020228971 0.079986036 0.054296706 -0.14741376 0.38593423 -0.23852047
0.01942963 0.079984568 0.054038957 -0.14741376 0.38593423 -0.23852047
0.018654166 0.079942085 0.053821173 -0.14741376 0.38593423 -0.23852047
0.017901391 0.079860196 0.053641718 -0.14741376 0.38593423 -0.23852047
0.017149733 0.079778418 0.053462785 -0.14741376 0.38593423 -0.23852047
0.016418645 0.079660401 0.05331903 -0.14741376 0.38593423 -0.23852047
0.015708869 0.079504184 0.053212207 -0.14741376 0.38593423 -0.23852047
0.014999791 0.079348125 0.053105749 -0.14741376 0.38593423 -0.23852047
0.014310131 0.079156682 0.053033412 -0.14741376 0.38593423 -0.23852047
0.013639219 0.078930616 0.0529944 -0.14741376 0.38593423 -0.23852047
0.012968646 0.078704663 0.052955665 -0.14741376 0.38593423 -0.23852047
0.012314136 0.078448541 0.052945904 -0.14741376 0.38593423 -0.23852047
0.011679289 0.078154825 0.052972078 -0.14741376 0.38593423 -0.23852047
0.011044471 0.077861123 0.052998506 -0.14741376 0.38593423 -0.23852047
0.010421759 0.077543832 0.053047504 -0.14741376 0.38593423 -0.23852047
0.0098213367 0.077182576 0.053138249 -0.14741376 0.38593423 -0.23852047
0.0092206681 0.076821178 0.053229287 -0.14741376 0.38593423 -0.23852047
0.008628794 0.07644169 0.053337537 -0.14741376 0.38593423 -0.23852047
0.0080622043 0.076010965 0.053494185 -0.14741376 0.38593423 -0.23852047
0.0074951197 0.075579859 0.053651229 -0.14741376 0.38593423 -0.23852047
0.0069354139 0.075132512 0.053823587 -0.14741376 0.38593423 -0.23852047
0.0064030564 0.074628249 0.054049443 -0.14741376 0.38593423 -0.23852047
0.0058699753 0.074123308 0.054275859 -0.14741376 0.38593423 -0.23852047
0.0053464435 0.073596656 0.054522559 -0.14741376 0.38593423 -0.23852047
0.0048499149 0.073012099 0.054823425 -0.14741376 0.38593423 -0.23852047
0.0043524532 0.072426446 0.055125117 -0.14741376 0.38593423 -0.23852047
0.0038728314 0.071800694 0.055464126 -0.14741376 0.38593423 -0.23852047
0.0034151482 0.071125664 0.055848945 -0.14741376 0.38593423 -0.23852047
0.0029563403 0.070448972 0.056234963 -0.14741376 0.38593423 -0.23852047
0.0025341278 0.069691047 0.056696471 -0.14741376 0.38593423 -0.23852047
0.002120283 0.06891045 0.05717865 -0.14741376 0.38593423 -0.23852047
0.0017244098 0.068086371 0.05770085 -0.14741376 0.38593423 -0.23852047
0.0013637539 0.067181163 0.058298022 -0.14741376 0.38593423 -0.23852047
0.0010102756 0.066253945 0.058914974 -0.14741376 0.38593423 -0.23852047
0.00071559189 0.06519261 0.05965589 -0.14741376 0.38593423 -0.23852047
0.00043399783 0.064094506 0.060430028 -0.14741376 0.38593423 -0.23852047
0.00022610171 0.06282641 0.061360952 -0.14741376 0.38593423 -0.23852047
7.6913064e-05 0.061418589 0.062420219 -0.14741376 0.38593423 -0.23852047
9.9322642e-06 0.059816808 0.063657761 -0.14741376 0.38593423 -0.23852047
0.00012355162 0.057799108 0.065278642 -0.14741376 0.38593423 -0.23852047
0.00079953735 0.05450505 0.068077907 -0.14741376 0.38593423 -0.23852047
0.034125686 0.074127398 0.062423334 -0.14741376 0.38593423 -0.23852047
0.032401409 0.075658493 0.060673408 -0.14741376 0.38593423 -0.23852047
0.030963611 0.076710284 0.059388768 -0.14741376 0.38593423 -0.23852047
0.029700896 0.077470027 0.058387913 -0.14741376 0.38593423 -0.23852047
0.028546527 0.078050353 0.057561748 -0.14741376 0.38593423 -0.23852047
0.027434416 0.078564875 0.056800634 -0.14741376 0.38593423 -0.23852047
0.026422843 0.078909703 0.056204122 -0.14741376 0.38593423 -0.23852047
0.025418403 0.07924816 0.055615135 -0.14741376 0.38593423 -0.23852047
0.024487989 0.079460859 0.055148032 -0.14741376 0.38593423 -0.23852047
0.023565821 0.079663821 0.054691423 -0.14741376 0.38593423 -0.23852047
0.022685541 0.079796344 0.054303337 -0.14741376 0.38593423 -0.23852047
0.021829402 0.079889484 0.053953905 -0.14741376 0.38593423 -0.23852047
0.02098044 0.079973474 0.053614158 -0.14741376 0.38593423 -0.23852047
0.020172179 0.079986967 0.053342585 -0.14741376 0.38593423 -0.23852047
0.019375095 0.079983093 0.053088378 -0.14741376 0.38593423 -0.23852047
0.018602792 0.079936497 0.052875619 -0.14741376 0.38593423 -0.23852047
0.017850872 0.079854697 0.052697055 -0.14741376 0.38593423 -0.23852047
0.01710007 0.079773016 0.052519012 -0.14741376 0.38593423 -0.23852047
0.016372424 0.079650231 0.05238064 -0.14741376 0.38593423 -0.23852047
0.01566343 0.079494186 0.052274387 -0.14741376 0.38593423 -0.23852047
0.014955131 0.07933829 0.052168492 -0.14741376 0.38593423 -0.23852047
0.014268539 0.079142667 0.052100733 -0.14741376 0.38593423 -0.23852047
0.013598345 0.07891684 0.05206199 -0.14741376 0.38593423 -0.23852047
0.012928488 0.078691132 0.052023519 -0.14741376 0.38593423 -0.23852047
0.012276765 0.078431249 0.052017707 -0.14741376 0.38593423 -0.23852047
0.011642579 0.078137845 0.05204387 -0.14741376 0.38593423 -0.23852047
0.011008422 0.077844448 0.052070279 -0.14741376 0.38593423 -0.23852047
0.010388292 0.077523693 0.052122734 -0.14741376 0.38593423 -0.23852047
0.0097884806 0.07716281 0.052213192 -0.14741376 0.38593423 -0.23852047
0.009188422 0.076801777 0.05230394 -0.14741376 0.38593423 -0.23852047
0.0085989852 0.076419033 0.052415248 -0.14741376 0.38593423 -0.23852047
0.008032959 0.075988732 0.05257133 -0.14741376 0.38593423 -0.23852047
0.0074664387 0.075558051 0.052727804 -0.14741376 0.38593423 -0.23852047
0.0069090719 0.07510756 0.052902892 -0.14741376 0.38593423 -0.23852047
0.0063772327 0.074603789 0.053127892 -0.14741376 0.38593423 -0.23852047
0.0058446713 0.07409934 0.053353447 -0.14741376 0.38593423 -0.23852047
0.0053234287 0.073569559 0.053602602 -0.14741376 0.38593423 -0.23852047
0.0048273741 0.072985567 0.053902306 -0.14741376 0.38593423 -0.23852047
0.0043303878 0.072400466 0.054202821 -0.14741376 0.38593423 -0.23852047
0.0038530496 0.071771517 0.054544043 -0.14741376 0.38593423 -0.23852047
0.0033957949 0.071097121 0.054927345 -0.14741376 0.38593423 -0.23852047
0.0029374177 0.070421062 0.055311847 -0.14741376 0.38593423 -0.23852047
0.0025175372 0.069659755 0.055775333 -0.14741376 0.38593423 -0.23852047
0.0021040721 0.068879873 0.056255598 -0.14741376 0.38593423 -0.23852047
0.0017107064 0.068051979 0.056779973 -0.14741376 0.38593423 -0.23852047
0.0013503736 0.067147583 0.057374772 -0.14741376 0.38593423 -0.23852047
0.00099969655 0.066215843 0.057994235 -0.14741376 0.38593423 -0.23852047
0.00070526922 0.065155432 0.058732208 -0.14741376 0.38593423 -0.23852047
0.00042697083 0.064051643 0.059509415 -0.14741376 0.38593423 -0.23852047
0.00021924909 0.062784612 0.060436655 -0.14741376 0.38593423 -0.23852047
7.4227879e-05 0.061369061 0.061499953 -0.14741376 0.38593423 -0.23852047
1.3263968e-05 0.059755359 0.062744819 -0.14741376 0.38593423 -0.23852047
0.00013716692 0.05771606 0.064380705 -0.14741376 0.38593423 -0.23852047
0.00083734578 0.05436888 0.067220226 -0.14741376 0.38593423 -0.23852047
0.037047107 0.070443839 0.065257311 -0.14741376 0.38593423 -0.23852047
0.033969637 0.07427521 0.061295297 -0.14741376 0.38593423 -0.23852047
0.03227869 0.075751781 0.059604086 -0.14741376 0.38593423 -0.23852047
0.03086034 0.076772422 0.058354095 -0.14741376 0.38593423 -0.23852047
0.029599648 0.077530943 0.057358179 -0.14741376 0.38593423 -0.23852047
0.028457938 0.078091338 0.056554314 -0.14741376 0.38593423 -0.23852047
0.027352348 0.078596503 0.055805124 -0.14741376 0.38593423 -0.23852047
0.026344951 0.078935951 0.055216167 -0.14741376 0.38593423 -0.23852047
0.025342535 0.079272777 0.054631107 -0.14741376 0.38593423 -0.23852047
0.024418414 0.07947617 0.054174867 -0.14741376 0.38593423 -0.23852047
0.023497434 0.079678871 0.05372043 -0.14741376 0.38593423 -0.23852047
0.022622742 0.079803176 0.053341877 -0.14741376 0.38593423 -0.23852047
0.021767654 0.079896197 0.052994113 -0.14741376 0.38593423 -0.23852047
0.020922506 0.079975039 0.052660789 -0.14741376 0.38593423 -0.23852047
0.020115545 0.079987898 0.052391119 -0.14741376 0.38593423 -0.23852047
0.019320711 0.079981618 0.052140426 -0.14741376 0.38593423 -0.23852047
0.018551556 0.079930924 0.051932652 -0.14741376 0.38593423 -0.23852047
0.017800491 0.079849213 0.051754974 -0.14741376 0.38593423 -0.23852047
0.017050538 0.07976763 0.051577814 -0.14741376 0.38593423 -0.23852047
0.016326329 0.079640083 0.051444784 -0.14741376 0.38593423 -0.23852047
0.015618114 0.079484209 0.051339094 -0.14741376 0.38593423 -0.23852047
0.014910592 0.079328492 0.051233757 -0.14741376 0.38593423 -0.23852047
0.014227059 0.07912869 0.051170535 -0.14741376 0.38593423 -0.23852047
0.013557579 0.078903109 0.051132064 -0.14741376 0.38593423 -0.23852047
0.012888436 0.078677632 0.051093858 -0.14741376 0.38593423 -0.23852047
0.012239492 0.078414008 0.051091962 -0.14741376 0.38593423 -0.23852047
0.011605966 0.078120902 0.051118109 -0.14741376 0.38593423 -0.23852047
0.010972467 0.077827811 0.051144503 -0.14741376 0.38593423 -0.23852047
0.010354914 0.077503614 0.051200382 -0.14741376 0.38593423 -0.23852047
0.0097557101 0.077143095 0.051290553 -0.14741376 0.38593423 -0.23852047
0.0091562606 0.076782428 0.051381007 -0.14741376 0.38593423 -0.23852047
0.0085692536 0.076396428 0.051495347 -0.14741376 0.38593423 -0.23852047
0.0080037899 0.075966559 0.051650867 -0.14741376 0.38593423 -0.23852047
0.0074378317 0.075536303 0.05180677 -0.14741376 0.38593423 -0.23852047
0.0068827979 0.075082667 0.051984567 -0.14741376 0.38593423 -0.23852047
0.0063514751 0.074579388 0.05220871 -0.14741376 0.38593423 -0.23852047
0.0058194324 0.074075431 0.052433409 -0.14741376 0.38593423 -0.23852047
0.005300472 0.073542535 0.052684996 -0.14741376 0.38593423 -0.23852047
0.0048048901 0.072959095 0.052983534 -0.14741376 0.38593423 -0.23852047
0.0043083788 0.07237456 0.053282883 -0.14741376 0.38593423 -0.23852047
0.0038333181 0.071742415 0.053626288 -0.14741376 0.38593423 -0.23852047
0.0033764909 0.071068645 0.054008085 -0.14741376 0.38593423 -0.23852047
0.0029185431 0.070393227 0.054391075 -0.14741376 0.38593423 -0.23852047
0.0025009881 0.069628537 0.054856509 -0.14741376 0.38593423 -0.23852047
0.0020879023 0.068849377 0.055334873 -0.14741376 0.38593423 -0.23852047
0.0016970371 0.068017669 0.055861391 -0.14741376 0.38593423 -0.23852047
0.0013370267 0.067114085 0.056453828 -0.14741376 0.38593423 -0.23852047
0.0009891435 0.066177838 0.057075765 -0.14741376 0.38593423 -0.23852047
0.00069497211 0.065118343 0.057810809 -0.14741376 0.38593423 -0.23852047
0.00041996094 0.064008884 0.058591045 -0.14741376 0.38593423 -0.23852047
0.00021241322 0.062742919 0.059514612 -0.14741376 0.38593423 -0.23852047
7.1549119e-05 0.061319657 0.060581885 -0.14741376 0.38593423 -0.23852047
1.6587941e-05 0.059694052 0.061833989 -0.14741376 0.38593423 -0.23852047
0.0001507524 0.057633195 0.063484721 -0.14741376 0.38593423 -0.23852047
0.00087508344 0.054232962 0.066364147 -0.14741376 0.38593423 -0.23852047
0.03652747 0.071210295 0.063525654 -0.14741376 0.38593423 -0.23852047
0.033814169 0.074422471 0.060171474 -0.14741376 0.38593423 -0.23852047
0.032156389 0.075844757 0.058538385 -0.14741376 0.38593423 -0.23852047
0.030757397 0.076834358 0.057322726 -0.14741376 0.38593423 -0.23852047
0.029498721 0.077591673 0.056331724 -0.14741376 0.38593423 -0.23852047
0.02836962 0.078132197 0.055549957 -0.14741376 0.38593423 -0.23852047
0.02727331 0.078623131 0.054817263 -0.14741376 0.38593423 -0.23852047
0.02626729 0.078962117 0.05423113 -0.14741376 0.38593423 -0.23852047
0.025271971 0.079288311 0.053658564 -0.14741376 0.38593423 -0.23852047
0.024349039 0.079491444 0.053204495 -0.14741376 0.38593423 -0.23852047
0.023429245 0.079693884 0.052752223 -0.14741376 0.38593423 -0.23852047
0.02256012 0.079809986 0.052383121 -0.14741376 0.38593423 -0.23852047
0.021706078 0.079902895 0.052037019 -0.14741376 0.38593423 -0.23852047
0.020864734 0.079976603 0.051710069 -0.14741376 0.38593423 -0.23852047
0.02005907 0.079988822 0.051442288 -0.14741376 0.38593423 -0.23852047
0.019266477 0.07998015 0.051195081 -0.14741376 0.38593423 -0.23852047
0.018500462 0.079925366 0.050992254 -0.14741376 0.38593423 -0.23852047
0.017750246 0.079843752 0.050815459 -0.14741376 0.38593423 -0.23852047
0.017001145 0.079762258 0.050639175 -0.14741376 0.38593423 -0.23852047
0.016280357 0.079629965 0.050511442 -0.14741376 0.38593423 -0.23852047
0.015572919 0.079474263 0.050406314 -0.14741376 0.38593423 -0.23852047
0.014866171 0.079318717 0.050301537 -0.14741376 0.38593423 -0.23852047
0.014185688 0.07911475 0.050242811 -0.14741376 0.38593423 -0.23852047
0.013516922 0.078889407 0.050204605 -0.14741376 0.38593423 -0.23852047
0.012848491 0.078664176 0.050166663 -0.14741376 0.38593423 -0.23852047
0.012202319 0.078396805 0.050168645 -0.14741376 0.38593423 -0.23852047
0.01156945 0.078104012 0.050194781 -0.14741376 0.38593423 -0.23852047
0.010936608 0.077811219 0.05022116 -0.14741376 0.38593423 -0.23852047
0.010321621 0.07748358 0.050280433 -0.14741376 0.38593423 -0.23852047
0.0097230244 0.077123426 0.050370317 -0.14741376 0.38593423 -0.23852047
0.0091241831 0.076763131 0.050460484 -0.14741376 0.38593423 -0.23852047
0.0085395994 0.07637389 0.050577827 -0.14741376 0.38593423 -0.23852047
0.0079746954 0.075944439 0.05073278 -0.14741376 0.38593423 -0.23852047
0.0074092988 0.075514615 0.050888121 -0.14741376 0.38593423 -0.23852047
0.006856591 0.075057849 0.051068593 -0.14741376 0.38593423 -0.23852047
0.0063257841 0.074555054 0.051291887 -0.14741376 0.38593423 -0.23852047
0.0057942583 0.074051581 0.051515732 -0.14741376 0.38593423 -0.23852047
0.0052775741 0.073515579 0.051769722 -0.14741376 0.38593423 -0.23852047
0.0047824639 0.07293269 0.052067101 -0.14741376 0.38593423 -0.23852047
0.0042864257 0.072348714 0.052365288 -0.14741376 0.38593423 -0.23852047
0.0038136365 0.071713388 0.052710854 -0.14741376 0.38593423 -0.23852047
0.0033572356 0.07104025 0.05309115 -0.14741376 0.38593423 -0.23852047
0.0028997161 0.070365459 0.053472631 -0.14741376 0.38593423 -0.23852047
0.0024844806 0.069597401 0.053939987 -0.14741376 0.38593423 -0.23852047
0.0020717727 0.068818957 0.054416459 -0.14741376 0.38593423 -0.23852047
0.001683402 0.067983449 0.054945093 -0.14741376 0.38593423 -0.23852047
0.0013237131 0.067080669 0.055535175 -0.14741376 0.38593423 -0.23852047
0.00097861653 0.066139922 0.056159556 -0.14741376 0.38593423 -0.23852047
0.00068470038 0.065081351 0.05689168 -0.14741376 0.38593423 -0.23852047
0.00041296807 0.06396623 0.057674907 -0.14741376 0.38593423 -0.23852047
0.00020559397 0.062701322 0.058594815 -0.14741376 0.38593423 -0.23852047
6.8876747e-05 0.061270367 0.059666011 -0.14741376 0.38593423 -0.23852047
1.9904228e-05 0.059632886 0.060925268 -0.14741376 0.38593423 -0.23852047
0.00016430824 0.057550509 0.062590703 -0.14741376 0.38593423 -0.23852047
0.00091275072 0.054097299 0.065509669 -0.14741376 0.38593423 -0.23852047
0.036011785 0.071970917 0.061807189 -0.14741376 0.38593423 -0.23852047
0.033659283 0.074569181 0.059051841 -0.14741376 0.38593423 -0.23852047
0.032034501 0.07593742 0.05747629 -0.14741376 0.38593423 -0.23852047
0.030654782 0.076896101 0.056294635 -0.14741376 0.38593423 -0.23852047
0.029398113 0.077652201 0.055308521 -0.14741376 0.38593423 -0.23852047
0.028281571 0.078172937 0.054548651 -0.14741376 0.38593423 -0.23852047
0.027194507 0.078649685 0.053832315 -0.14741376 0.38593423 -0.23852047
0.026189858 0.078988209 0.053248987 -0.14741376 0.38593423 -0.23852047
0.025201607 0.079303794 0.052688811 -0.14741376 0.38593423 -0.23852047
0.024279865 0.079506665 0.052236911 -0.14741376 0.38593423 -0.23852047
0.023361249 0.079708844 0.051786788 -0.14741376 0.38593423 -0.23852047
0.022497673 0.079816781 0.051427059 -0.14741376 0.38593423 -0.23852047
0.021644676 0.079909578 0.051082607 -0.14741376 0.38593423 -0.23852047
0.020807121 0.079978161 0.050761979 -0.14741376 0.38593423 -0.23852047
0.020002749 0.079989746 0.050496075 -0.14741376 0.38593423 -0.23852047
0.019212393 0.07997869 0.05025233 -0.14741376 0.38593423 -0.23852047
0.018449506 0.079919823 0.050054409 -0.14741376 0.38593423 -0.23852047
0.017700139 0.079838298 0.049878493 -0.14741376 0.38593423 -0.23852047
0.016951883 0.079756901 0.04970308 -0.14741376 0.38593423 -0.23852047
0.016234508 0.079619877 0.049580596 -0.14741376 0.38593423 -0.23852047
0.015527844 0.079464346 0.049476031 -0.14741376 0.38593423 -0.23852047
0.01482187 0.079308964 0.049371809 -0.14741376 0.38593423 -0.23852047
0.014144426 0.079100847 0.049317542 -0.14741376 0.38593423 -0.23852047
0.013476372 0.078875743 0.049279604 -0.14741376 0.38593423 -0.23852047
0.012808652 0.07865075 0.049241923 -0.14741376 0.38593423 -0.23852047
0.012165242 0.078379653 0.049247749 -0.14741376 0.38593423 -0.23852047
0.011533028 0.078087159 0.049273875 -0.14741376 0.38593423 -0.23852047
0.010900842 0.077794679 0.049300238 -0.14741376 0.38593423 -0.23852047
0.010288415 0.077463605 0.049362872 -0.14741376 0.38593423 -0.23852047
0.0096904244 0.077103816 0.049452469 -0.14741376 0.38593423 -0.23852047
0.0090921884 0.076743878 0.049542349 -0.14741376 0.38593423 -0.23852047
0.0085100215 0.076351404 0.049662665 -0.14741376 0.38593423 -0.23852047
0.0079456763 0.075922377 0.049817059 -0.14741376 0.38593423 -0.23852047
0.0073808394 0.075492978 0.049971834 -0.14741376 0.38593423 -0.23852047
0.0068304511 0.075033084 0.050154958 -0.14741376 0.38593423 -0.23852047
0.0063001588 0.07453078 0.050377406 -0.14741376 0.38593423 -0.23852047
0.0057691485 0.074027799 0.050600402 -0.14741376 0.38593423 -0.23852047
0.0052547343 0.07348869 0.050856769 -0.14741376 0.38593423 -0.23852047
0.0047600945 0.07290636 0.051152997 -0.14741376 0.38593423 -0.23852047
0.0042645284 0.072322935 0.051450022 -0.14741376 0.38593423 -0.23852047
0.0037940042 0.071684435 0.051797722 -0.14741376 0.38593423 -0.23852047
0.0033380287 0.071011923 0.052176524 -0.14741376 0.38593423 -0.23852047
0.002880937 0.070337757 0.0525565 -0.14741376 0.38593423 -0.23852047
0.0024680144 0.069566339 0.05302576 -0.14741376 0.38593423 -0.23852047
0.0020556839 0.068788603 0.053500343 -0.14741376 0.38593423 -0.23852047
0.0016698005 0.06794931 0.054031063 -0.14741376 0.38593423 -0.23852047
0.0013104324 0.067047335 0.054618802 -0.14741376 0.38593423 -0.23852047
0.00096811529 0.066102102 0.055245589 -0.14741376 0.38593423 -0.23852047
0.00067445386 0.065044448 0.055974808 -0.14741376 0.38593423 -0.23852047
0.00040599212 0.063923679 0.056760982 -0.14741376 0.38593423 -0.23852047
0.00019879125 0.06265983 0.05767725 -0.14741376 0.38593423 -0.23852047
6.6210734e-05 0.061221194 0.058752313 -0.14741376 0.38593423 -0.23852047
2.3212871e-05 0.059571858 0.06001864 -0.14741376 0.38593423 -0.23852047
0.00017783459 0.057468001 0.061698623 -0.14741376 0.38593423 -0.23852047
0.00095034787 0.053961888 0.064656787 -0.14741376 0.38593423 -0.23852047
0.035734773 0.072323799 0.060485009 -0.14741376 0.38593423 -0.23852047
0.03350497 0.074715346 0.057936367 -0.14741376 0.38593423 -0.23852047
0.03191302 0.07602977 0.056417771 -0.14741376 0.38593423 -0.23852047
0.030552493 0.076957643 0.0552698 -0.14741376 0.38593423 -0.23852047
0.029305458 0.077699229 0.054301202 -0.14741376 0.38593423 -0.23852047
0.02819379 0.078213543 0.053550381 -0.14741376 0.38593423 -0.23852047
0.027115934 0.078676164 0.052850261 -0.14741376 0.38593423 -0.23852047
0.026112651 0.079014227 0.052269723 -0.14741376 0.38593423 -0.23852047
0.025131445 0.079319239 0.051721834 -0.14741376 0.38593423 -0.23852047
0.024210887 0.07952185 0.051272087 -0.14741376 0.38593423 -0.23852047
0.023293447 0.079723768 0.050824109 -0.14741376 0.38593423 -0.23852047
0.022435399 0.079823554 0.050473671 -0.14741376 0.38593423 -0.23852047
0.021583445 0.079916239 0.050130866 -0.14741376 0.38593423 -0.23852047
0.020749668 0.079979718 0.049816508 -0.14741376 0.38593423 -0.23852047
0.019946583 0.07999067 0.04955247 -0.14741376 0.38593423 -0.23852047
0.019158456 0.079977229 0.049312156 -0.14741376 0.38593423 -0.23852047
0.018398687 0.079914294 0.0491191 -0.14741376 0.38593423 -0.23852047
0.017650168 0.079832859 0.04894406 -0.14741376 0.38593423 -0.23852047
0.016902756 0.079751551 0.048769519 -0.14741376 0.38593423 -0.23852047
0.016188782 0.079609811 0.048652243 -0.14741376 0.38593423 -0.23852047
0.01548289 0.079454452 0.048548233 -0.14741376 0.38593423 -0.23852047
0.014777687 0.079299241 0.048444562 -0.14741376 0.38593423 -0.23852047
0.014103274 0.079086982 0.048394717 -0.14741376 0.38593423 -0.23852047
0.013435929 0.078862116 0.04835704 -0.14741376 0.38593423 -0.23852047
0.012768918 0.078637362 0.048319623 -0.14741376 0.38593423 -0.23852047
0.012128262 0.078362547 0.04832926 -0.14741376 0.38593423 -0.23852047
0.011496702 0.07807035 0.048355371 -0.14741376 0.38593423 -0.23852047
0.010865171 0.077778168 0.04838172 -0.14741376 0.38593423 -0.23852047
0.010255296 0.077443674 0.048447683 -0.14741376 0.38593423 -0.23852047
0.0096579082 0.077084251 0.048536997 -0.14741376 0.38593423 -0.23852047
0.0090602776 0.076724678 0.048626591 -0.14741376 0.38593423 -0.23852047
0.0084805191 0.07632897 0.048749853 -0.14741376 0.38593423 -0.23852047
0.0079167318 0.075900376 0.048903689 -0.14741376 0.38593423 -0.23852047
0.0073524532 0.075471401 0.049057905 -0.14741376 0.38593423 -0.23852047
0.0068043778 0.075008392 0.049243648 -0.14741376 0.38593423 -0.23852047
0.0062745982 0.074506573 0.049465254 -0.14741376 0.38593423 -0.23852047
0.0057441029 0.074004076 0.049687404 -0.14741376 0.38593423 -0.23852047
0.0052319523 0.073461868 0.049946126 -0.14741376 0.38593423 -0.23852047
0.0047377814 0.072880089 0.050241202 -0.14741376 0.38593423 -0.23852047
0.0042426866 0.072297215 0.050537072 -0.14741376 0.38593423 -0.23852047
0.0037744213 0.071655549 0.050886884 -0.14741376 0.38593423 -0.23852047
0.0033188702 0.070983663 0.051264197 -0.14741376 0.38593423 -0.23852047
0.0028622723 0.070309989 0.051642805 -0.14741376 0.38593423 -0.23852047
0.0024515891 0.06953536 0.052113809 -0.14741376 0.38593423 -0.23852047
0.0020396349 0.068758331 0.052586511 -0.14741376 0.38593423 -0.23852047
0.0016562326 0.067915253 0.053119291 -0.14741376 0.38593423 -0.23852047
0.0012971847 0.067014083 0.053704694 -0.14741376 0.38593423 -0.23852047
0.00095763971 0.066064373 0.054333858 -0.14741376 0.38593423 -0.23852047
0.00066423242 0.065007634 0.055060182 -0.14741376 0.38593423 -0.23852047
0.00039903299 0.063881233 0.055849262 -0.14741376 0.38593423 -0.23852047
0.000192005 0.062618434 0.056761902 -0.14741376 0.38593423 -0.23852047
6.3551037e-05 0.061172139 0.057840779 -0.14741376 0.38593423 -0.23852047
2.6513915e-05 0.059510976 0.059114095 -0.14741376 0.38593423 -0.23852047
0.00019133164 0.057385676 0.06080848 -0.14741376 0.38593423 -0.23852047
0.00098787539 0.053826731 0.063805476 -0.14741376 0.38593423 -0.23852047
0.035508845 0.07258977 0.059250355 -0.14741376 0.38593423 -0.23852047
0.033351231 0.074860968 0.056825019 -0.14741376 0.38593423 -0.23852047
0.031791952 0.076121807 0.055362809 -0.14741376 0.38593423 -0.23852047
0.030450528 0.077018999 0.054248206 -0.14741376 0.38593423 -0.23852047
0.029216321 0.077740468 0.05330231 -0.14741376 0.38593423 -0.23852047
0.028106272 0.078254037 0.052555125 -0.14741376 0.38593423 -0.23852047
0.027037593 0.078702562 0.05187108 -0.14741376 0.38593423 -0.23852047
0.026035672 0.079040162 0.051293325 -0.14741376 0.38593423 -0.23852047
0.025061484 0.079334639 0.050757613 -0.14741376 0.38593423 -0.23852047
0.024142107 0.079536982 0.050310012 -0.14741376 0.38593423 -0.23852047
