# .PCD v0.7 - Point Cloud Data file format
VERSION 0.7
FIELDS x y z vp_x vp_y vp_z
SIZE 4 4 4 4 4 4
TYPE F F F F F F
COUNT 1 1 1 1 1 1
WIDTH 721
HEIGHT 1
VIEWPOINT 0 0 0 1 0 0 0
POINTS 721
DATA ascii
0.02545256 0.079999998 0.00061189529 0.14741376 0.38593423 -0.23852047
0.024767553 0.079999998 0.00079041632 0.14741376 0.38593423 -0.23852047
0.024081497 0.079999998 0.00096933969 0.14741376 0.38593423 -0.23852047
0.023394385 0.079999998 0.0011486673 0.14741376 0.38593423 -0.23852047
0.022706212 0.079999998 0.001328401 0.14741376 0.38593423 -0.23852047
0.02201697 0.079999998 0.0015085428 0.14741376 0.38593423 -0.23852047
0.021326656 0.079999998 0.0016890946 0.14741376 0.38593423 -0.23852047
0.02063526 0.079999998 0.0018700582 0.14741376 0.38593423 -0.23852047
0.019942779 0.079999998 0.0020514359 0.14741376 0.38593423 -0.23852047
0.019249205 0.079999998 0.0022332291 0.14741376 0.38593423 -0.23852047
0.018554531 0.079999998 0.0024154403 0.14741376 0.38593423 -0.23852047
0.017858753 0.079999998 0.0025980712 0.14741376 0.38593423 -0.23852047
0.017161863 0.079999998 0.0027811239 0.14741376 0.38593423 -0.23852047
0.016463853 0.079999998 0.0029646005 0.14741376 0.38593423 -0.23852047
0.015764719 0.079999998 0.0031485027 0.14741376 0.38593423 -0.23852047
0.015064454 0.079999998 0.0033328328 0.14741376 0.38593423 -0.23852047
0.01436305 0.079999998 0.0035175928 0.14741376 0.38593423 -0.23852047
0.013660503 0.079999998 0.0037027847 0.14741376 0.38593423 -0.23852047
0.012956804 0.079999998 0.0038884105 0.14741376 0.38593423 -0.23852047
0.012251946 0.079999998 0.0040744725 0.14741376 0.38593423 -0.23852047
0.011545925 0.079999998 0.0042609726 0.14741376 0.38593423 -0.23852047
0.010838733 0.079999998 0.0044479128 0.14741376 0.38593423 -0.23852047
0.010130363 0.079999998 0.0046352954 0.14741376 0.38593423 -0.23852047
0.0094208075 0.079999998 0.0048231222 0.14741376 0.38593423 -0.23852047
0.0087100612 0.079999998 0.005011396 0.14741376 0.38593423 -0.23852047
0.0079981163 0.079999998 0.0052001183 0.14741376 0.38593423 -0.23852047
0.0072849663 0.079999998 0.0053892918 0.14741376 0.38593423 -0.23852047
0.0065706037 0.079999998 0.0055789179 0.14741376 0.38593423 -0.23852047
0.005855022 0.079999998 0.0057689999 0.14741376 0.38593423 -0.23852047
0.0051382142 0.079999998 0.0059595387 0.14741376 0.38593423 -0.23852047
0.0044201734 0.079999998 0.0061505376 0.14741376 0.38593423 -0.23852047
0.0037008922 0.079999998 0.0063419985 0.14741376 0.38593423 -0.23852047
0.0029803633 0.079999998 0.0065339231 0.14741376 0.38593423 -0.23852047
0.0022585799 0.079999998 0.0067263143 0.14741376 0.38593423 -0.23852047
0.0015355349 0.079999998 0.006919174 0.14741376 0.38593423 -0.23852047
0.00081122073 0.079999998 0.0071125049 0.14741376 0.38593423 -0.23852047
8.563028e-05 0.079999998 0.0073063085 0.14741376 0.38593423 -0.23852047
0.039999999 0.016486082 0.039137565 0.14741376 0.38593423 -0.23852047
0.039999999 0.019121969 0.037348405 0.14741376 0.38593423 -0.23852047
0.039999999 0.021723641 0.035582617 0.14741376 0.38593423 -0.23852047
0.037570506 0.016112115 0.039999999 0.14741376 0.38593423 -0.23852047
0.039999999 0.026827015 0.032119319 0.14741376 0.38593423 -0.23852047
0.039999999 0.029330017 0.030420924 0.14741376 0.38593423 -0.23852047
0.039999999 0.031801403 0.028744124 0.14741376 0.38593423 -0.23852047
0.039999999 0.034241777 0.027088506 0.14741376 0.38593423 -0.23852047
0.039999999 0.036651734 0.025453662 0.14741376 0.38593423 -0.23852047
0.039999999 0.039031852 0.023839202 0.14741376 0.38593423 -0.23852047
0.039999999 0.041382696 0.022244737 0.14741376 0.38593423 -0.23852047
0.039999999 0.043704815 0.020669892 0.14741376 0.38593423 -0.23852047
0.039999999 0.045998741 0.019114304 0.14741376 0.38593423 -0.23852047
0.039999999 0.048264999 0.017577616 0.14741376 0.38593423 -0.23852047
0.039999999 0.0505041 0.016059477 0.14741376 0.38593423 -0.23852047
0.039999999 0.052716538 0.014559549 0.14741376 0.38593423 -0.23852047
0.039999999 0.054902799 0.013077501 0.14741376 0.38593423 -0.23852047
0.039999999 0.05706336 0.01161301 0.14741376 0.38593423 -0.23852047
0.039999999 0.059198681 0.01016576 0.14741376 0.38593423 -0.23852047
0.039999999 0.061309211 0.0087354425 0.14741376 0.38593423 -0.23852047
0.039999999 0.063395388 0.0073217573 0.14741376 0.38593423 -0.23852047
0.039999999 0.06545765 0.0059244107 0.14741376 0.38593423 -0.23852047
0.039999999 0.067496412 0.0045431154 0.14741376 0.38593423 -0.23852047
0.039999999 0.069512084 0.0031775916 0.14741376 0.38593423 -0.23852047
0.039999999 0.07150507 0.0018275658 0.14741376 0.38593423 -0.23852047
0.039999999 0.073475756 0.00049277046 0.14741376 0.38593423 -0.23852047
0.039626252 0.074344113 0 0.14741376 0.38593423 -0.23852047
0.039031152 0.074568421 0 0.14741376 0.38593423 -0.23852047
0.038436148 0.074792884 0 0.14741376 0.38593423 -0.23852047
0.037841242 0.075017497 0 0.14741376 0.38593423 -0.23852047
0.037246425 0.075242259 0 0.14741376 0.38593423 -0.23852047
0.036651704 0.075467177 0 0.14741376 0.38593423 -0.23852047
0.036057066 0.075692251 0 0.14741376 0.38593423 -0.23852047
0.035462517 0.075917475 0 0.14741376 0.38593423 -0.23852047
0.034868054 0.076142855 0 0.14741376 0.38593423 -0.23852047
0.034273669 0.076368392 2.7755576e-17 0.14741376 0.38593423 -0.23852047
0.033679366 0.076594085 0 0.14741376 0.38593423 -0.23852047
0.033085138 0.076819934 0 0.14741376 0.38593423 -0.23852047
0.032490987 0.07704594 0 0.14741376 0.38593423 -0.23852047
0.031896908 0.07727211 0 0.14741376 0.38593423 -0.23852047
0.031302899 0.077498443 0 0.14741376 0.38593423 -0.23852047
0.030708957 0.077724934 0 0.14741376 0.38593423 -0.23852047
0.030115081 0.077951588 0 0.14741376 0.38593423 -0.23852047
0.02952127 0.078178398 0 0.14741376 0.38593423 -0.23852047
0.02892752 0.07840538 0 0.14741376 0.38593423 -0.23852047
0.028333828 0.078632526 0 0.14741376 0.38593423 -0.23852047
0.027740194 0.078859836 0 0.14741376 0.38593423 -0.23852047
0.027146613 0.07908731 0 0.14741376 0.38593423 -0.23852047
0.026553085 0.079314955 0 0.14741376 0.38593423 -0.23852047
0.025959607 0.079542771 0 0.14741376 0.38593423 -0.23852047
0.025366178 0.079770751 0 0.14741376 0.38593423 -0.23852047
0.024772793 0.079998903 0 0.14741376 0.38593423 -0.23852047
0.024087854 0.079999998 0.00017728521 0.14741376 0.38593423 -0.23852047
0.023401422 0.079999998 0.00035582756 0.14741376 0.38593423 -0.23852047
0.022713931 0.079999998 0.00053477235 0.14741376 0.38593423 -0.23852047
0.022025375 0.079999998 0.0007141215 0.14741376 0.38593423 -0.23852047
0.021335747 0.079999998 0.00089387689 0.14741376 0.38593423 -0.23852047
0.020645041 0.079999998 0.0010740404 0.14741376 0.38593423 -0.23852047
0.019953249 0.079999998 0.0012546142 0.14741376 0.38593423 -0.23852047
0.019260367 0.079999998 0.0014355999 0.14741376 0.38593423 -0.23852047
0.01856639 0.079999998 0.0016169996 0.14741376 0.38593423 -0.23852047
0.017871309 0.079999998 0.0017988154 0.14741376 0.38593423 -0.23852047
0.017175118 0.079999998 0.0019810491 0.14741376 0.38593423 -0.23852047
0.01647781 0.079999998 0.0021637026 0.14741376 0.38593423 -0.23852047
0.01577938 0.079999998 0.0023467783 0.14741376 0.38593423 -0.23852047
0.015079821 0.079999998 0.0025302777 0.14741376 0.38593423 -0.23852047
0.014379127 0.079999998 0.0027142032 0.14741376 0.38593423 -0.23852047
0.01367729 0.079999998 0.0028985569 0.14741376 0.38593423 -0.23852047
0.012974304 0.079999998 0.0030833404 0.14741376 0.38593423 -0.23852047
0.012270164 0.079999998 0.0032685562 0.14741376 0.38593423 -0.23852047
0.01156486 0.079999998 0.003454206 0.14741376 0.38593423 -0.23852047
0.010858389 0.079999998 0.0036402922 0.14741376 0.38593423 -0.23852047
0.010150742 0.079999998 0.0038268166 0.14741376 0.38593423 -0.23852047
0.0094419122 0.079999998 0.0040137814 0.14741376 0.38593423 -0.23852047
0.0087318933 0.079999998 0.0042011891 0.14741376 0.38593423 -0.23852047
0.0080206785 0.079999998 0.0043890416 0.14741376 0.38593423 -0.23852047
0.0073082615 0.079999998 0.0045773406 0.14741376 0.38593423 -0.23852047
0.0065946346 0.079999998 0.0047660884 0.14741376 0.38593423 -0.23852047
0.005879791 0.079999998 0.004955288 0.14741376 0.38593423 -0.23852047
0.0051637236 0.079999998 0.0051449407 0.14741376 0.38593423 -0.23852047
0.0044464259 0.079999998 0.0053350488 0.14741376 0.38593423 -0.23852047
0.0037278903 0.079999998 0.0055256146 0.14741376 0.38593423 -0.23852047
0.0030081098 0.079999998 0.0057166405 0.14741376 0.38593423 -0.23852047
0.0022870775 0.079999998 0.0059081288 0.14741376 0.38593423 -0.23852047
0.0015647858 0.079999998 0.0061000814 0.14741376 0.38593423 -0.23852047
0.000841228 0.079999998 0.0062925005 0.14741376 0.38593423 -0.23852047
0.00011639651 0.079999998 0.0064853886 0.14741376 0.38593423 -0.23852047
0.039999999 0.013929002 0.039948709 0.14741376 0.38593423 -0.23852047
0.039999999 0.016595736 0.038144536 0.14741376 0.38593423 -0.23852047
0.038579222 0.014377176 0.039999999 0.14741376 0.38593423 -0.23852047
0.037879001 0.014635744 0.039999999 0.14741376 0.38593423 -0.23852047
0.039999999 0.024389794 0.032872342 0.14741376 0.38593423 -0.23852047
0.039999999 0.026921341 0.031160187 0.14741376 0.38593423 -0.23852047
0.039999999 0.029420733 0.029469922 0.14741376 0.38593423 -0.23852047
0.039999999 0.031888593 0.027801124 0.14741376 0.38593423 -0.23852047
0.039999999 0.034325521 0.026153378 0.14741376 0.38593423 -0.23852047
0.039999999 0.036732111 0.024526283 0.14741376 0.38593423 -0.23852047
0.039999999 0.039108939 0.022919446 0.14741376 0.38593423 -0.23852047
0.039999999 0.041456569 0.021332487 0.14741376 0.38593423 -0.23852047
0.039999999 0.043775544 0.019765034 0.14741376 0.38593423 -0.23852047
0.039999999 0.0460664 0.01821672 0.14741376 0.38593423 -0.23852047
0.039999999 0.048329655 0.016687194 0.14741376 0.38593423 -0.23852047
0.039999999 0.05056582 0.01517611 0.14741376 0.38593423 -0.23852047
0.039999999 0.052775387 0.01368313 0.14741376 0.38593423 -0.23852047
0.039999999 0.054958843 0.012207925 0.14741376 0.38593423 -0.23852047
0.039999999 0.057116657 0.010750175 0.14741376 0.38593423 -0.23852047
0.039999999 0.059249293 0.0093095647 0.14741376 0.38593423 -0.23852047
0.039999999 0.061357196 0.0078857904 0.14741376 0.38593423 -0.23852047
0.039999999 0.063440807 0.0064785522 0.14741376 0.38593423 -0.23852047
0.039999999 0.065500557 0.0050875582 0.14741376 0.38593423 -0.23852047
0.039999999 0.067536861 0.0037125242 0.14741376 0.38593423 -0.23852047
0.039999999 0.069550127 0.0023531714 0.14741376 0.38593423 -0.23852047
0.039999999 0.071540751 0.0010092284 0.14741376 0.38593423 -0.23852047
0.039855894 0.073089987 0 0.14741376 0.38593423 -0.23852047
0.039259315 0.073314711 0 0.14741376 0.38593423 -0.23852047
0.038662832 0.073539577 0 0.14741376 0.38593423 -0.23852047
0.038066451 0.0737646 0 0.14741376 0.38593423 -0.23852047
0.037470162 0.073989764 0 0.14741376 0.38593423 -0.23852047
0.03687397 0.074215084 0 0.14741376 0.38593423 -0.23852047
0.036277864 0.074440554 0 0.14741376 0.38593423 -0.23852047
0.035681847 0.074666172 0 0.14741376 0.38593423 -0.23852047
0.035085917 0.074891947 0 0.14741376 0.38593423 -0.23852047
0.034490068 0.075117871 0 0.14741376 0.38593423 -0.23852047
0.0338943 0.075343952 0 0.14741376 0.38593423 -0.23852047
0.033298612 0.075570188 0 0.14741376 0.38593423 -0.23852047
0.032703001 0.075796582 0 0.14741376 0.38593423 -0.23852047
0.032107465 0.076023132 0 0.14741376 0.38593423 -0.23852047
0.031512 0.076249838 0 0.14741376 0.38593423 -0.23852047
0.030916605 0.076476701 0 0.14741376 0.38593423 -0.23852047
0.030321278 0.076703727 0 0.14741376 0.38593423 -0.23852047
0.029726014 0.07693091 0 0.14741376 0.38593423 -0.23852047
0.029130815 0.077158257 0 0.14741376 0.38593423 -0.23852047
0.028535675 0.077385768 0 0.14741376 0.38593423 -0.23852047
0.027940594 0.077613436 0 0.14741376 0.38593423 -0.23852047
0.02734557 0.077841274 0 0.14741376 0.38593423 -0.23852047
0.026750598 0.07806927 0 0.14741376 0.38593423 -0.23852047
0.026155679 0.078297436 0 0.14741376 0.38593423 -0.23852047
0.025560809 0.078525767 0 0.14741376 0.38593423 -0.23852047
0.0044314326 0.027240038 0.039999999 0.14741376 0.38593423 -0.23852047
0.024371207 0.078982934 0 0.14741376 0.38593423 -0.23852047
0.02377647 0.079211771 0 0.14741376 0.38593423 -0.23852047
0.0023480083 0.028041676 0.039999999 0.14741376 0.38593423 -0.23852047
0.022587115 0.079669952 0 0.14741376 0.38593423 -0.23852047
0.021992493 0.079899304 0 0.14741376 0.38593423 -0.23852047
0.021344816 0.079999998 0.00010048121 0.14741376 0.38593423 -0.23852047
0.020654798 0.079999998 0.00027984774 0.14741376 0.38593423 -0.23852047
0.019963697 0.079999998 0.00045962064 0.14741376 0.38593423 -0.23852047
0.019271506 0.079999998 0.00063980184 0.14741376 0.38593423 -0.23852047
0.018578222 0.079999998 0.00082039327 0.14741376 0.38593423 -0.23852047
0.017883835 0.079999998 0.0010013969 0.14741376 0.38593423 -0.23852047
0.017188342 0.079999998 0.0011828147 0.14741376 0.38593423 -0.23852047
0.016491735 0.079999998 0.0013646487 0.14741376 0.38593423 -0.23852047
0.015794007 0.079999998 0.0015469007 0.14741376 0.38593423 -0.23852047
0.015095154 0.079999998 0.0017295729 0.14741376 0.38593423 -0.23852047
0.014395166 0.079999998 0.0019126671 0.14741376 0.38593423 -0.23852047
0.013694039 0.079999998 0.0020961855 0.14741376 0.38593423 -0.23852047
0.012991765 0.079999998 0.0022801301 0.14741376 0.38593423 -0.23852047
0.012288339 0.079999998 0.0024645028 0.14741376 0.38593423 -0.23852047
0.011583752 0.079999998 0.0026493059 0.14741376 0.38593423 -0.23852047
0.010877999 0.079999998 0.0028345413 0.14741376 0.38593423 -0.23852047
0.010171073 0.079999998 0.0030202109 0.14741376 0.38593423 -0.23852047
0.0094629675 0.079999998 0.0032063171 0.14741376 0.38593423 -0.23852047
0.008753675 0.079999998 0.0033928619 0.14741376 0.38593423 -0.23852047
0.0080431895 0.079999998 0.0035798473 0.14741376 0.38593423 -0.23852047
0.0073315031 0.079999998 0.0037672757 0.14741376 0.38593423 -0.23852047
0.0066186097 0.079999998 0.0039551491 0.14741376 0.38593423 -0.23852047
0.0059045022 0.079999998 0.0041434695 0.14741376 0.38593423 -0.23852047
0.0051891739 0.079999998 0.0043322388 0.14741376 0.38593423 -0.23852047
0.0044726171 0.079999998 0.0045214598 0.14741376 0.38593423 -0.23852047
0.0037548256 0.079999998 0.0047111348 0.14741376 0.38593423 -0.23852047
0.0030357917 0.079999998 0.0049012653 0.14741376 0.38593423 -0.23852047
0.0023155082 0.079999998 0.0050918539 0.14741376 0.38593423 -0.23852047
0.0015939685 0.079999998 0.0052829026 0.14741376 0.38593423 -0.23852047
0.00087116507 0.079999998 0.0054744137 0.14741376 0.38593423 -0.23852047
0.00014709072 0.079999998 0.0056663901 0.14741376 0.38593423 -0.23852047
0.039999999 0.014042403 0.038949668 0.14741376 0.38593423 -0.23852047
0.039999999 0.016705083 0.037154291 0.14741376 0.38593423 -0.23852047
0.039999999 0.019333046 0.035382461 0.14741376 0.38593423 -0.23852047
0.037487358 0.013412054 0.039999999 0.14741376 0.38593423 -0.23852047
0.036785711 0.01367148 0.039999999 0.14741376 0.38593423 -0.23852047
0.039999999 0.027015412 0.030203681 0.14741376 0.38593423 -0.23852047
0.035382945 0.014190776 0.039999999 0.14741376 0.38593423 -0.23852047
0.039999999 0.031975545 0.026860677 0.14741376 0.38593423 -0.23852047
0.039999999 0.034409039 0.025220769 0.14741376 0.38593423 -0.23852047
0.039999999 0.036812276 0.023601385 0.14741376 0.38593423 -0.23852047
0.039999999 0.039185822 0.022002142 0.14741376 0.38593423 -0.23852047
0.039999999 0.041530248 0.020422654 0.14741376 0.38593423 -0.23852047
0.039999999 0.043846089 0.018862557 0.14741376 0.38593423 -0.23852047
0.039999999 0.04613388 0.017321488 0.14741376 0.38593423 -0.23852047
0.039999999 0.048394144 0.015799094 0.14741376 0.38593423 -0.23852047
0.039999999 0.050627381 0.014295034 0.14741376 0.38593423 -0.23852047
0.039999999 0.052834086 0.012808971 0.14741376 0.38593423 -0.23852047
0.039999999 0.055014744 0.01134058 0.14741376 0.38593423 -0.23852047
0.039999999 0.057169821 0.0098895421 0.14741376 0.38593423 -0.23852047
0.039999999 0.059299778 0.0084555447 0.14741376 0.38593423 -0.23852047
0.039999999 0.061405063 0.007038285 0.14741376 0.38593423 -0.23852047
0.039999999 0.063486114 0.0056374664 0.14741376 0.38593423 -0.23852047
0.039999999 0.065543354 0.0042527993 0.14741376 0.38593423 -0.23852047
0.039999999 0.067577206 0.0028840001 0.14741376 0.38593423 -0.23852047
0.039999999 0.069588073 0.001530793 0.14741376 0.38593423 -0.23852047
0.039999999 0.071576349 0.00019290789 0.14741376 0.38593423 -0.23852047
0.039488737 0.072055526 0 0.14741376 0.38593423 -0.23852047
0.038890772 0.072280817 0 0.14741376 0.38593423 -0.23852047
0.038292907 0.072506249 0 0.14741376 0.38593423 -0.23852047
0.03769514 0.072731823 0 0.14741376 0.38593423 -0.23852047
0.037097465 0.072957553 0 0.14741376 0.38593423 -0.23852047
0.036499884 0.073183425 0 0.14741376 0.38593423 -0.23852047
0.035902392 0.073409446 0 0.14741376 0.38593423 -0.23852047
0.03530499 0.073635623 0 0.14741376 0.38593423 -0.23852047
0.034707669 0.073861942 0 0.14741376 0.38593423 -0.23852047
0.034110431 0.074088417 0 0.14741376 0.38593423 -0.23852047
0.033513278 0.074315049 0 0.14741376 0.38593423 -0.23852047
0.032916199 0.07454183 0 0.14741376 0.38593423 -0.23852047
0.013017782 0.022586163 0.039999999 0.14741376 0.38593423 -0.23852047
0.03172227 0.074995853 0 0.14741376 0.38593423 -0.23852047
0.031125413 0.075223096 0 0.14741376 0.38593423 -0.23852047
0.030528625 0.075450502 0 0.14741376 0.38593423 -0.23852047
0.029931905 0.075678065 0 0.14741376 0.38593423 -0.23852047
0.029335249 0.075905785 0 0.14741376 0.38593423 -0.23852047
0.028738655 0.076133661 0 0.14741376 0.38593423 -0.23852047
0.028142121 0.076361701 0 0.14741376 0.38593423 -0.23852047
0.027545644 0.076589897 0 0.14741376 0.38593423 -0.23852047
0.026949223 0.076818265 0 0.14741376 0.38593423 -0.23852047
0.026352854 0.077046789 0 0.14741376 0.38593423 -0.23852047
0.025756538 0.077275477 0 0.14741376 0.38593423 -0.23852047
0.025160268 0.077504329 0 0.14741376 0.38593423 -0.23852047
0.024564046 0.077733345 0 0.14741376 0.38593423 -0.23852047
0.023967868 0.077962533 0 0.14741376 0.38593423 -0.23852047
0.02337173 0.078191891 0 0.14741376 0.38593423 -0.23852047
0.022775631 0.078421406 2.7755576e-17 0.14741376 0.38593423 -0.23852047
0.022179572 0.0786511 0 0.14741376 0.38593423 -0.23852047
0.021583546 0.078880958 0 0.14741376 0.38593423 -0.23852047
0.020987552 0.079110995 0 0.14741376 0.38593423 -0.23852047
0.020391589 0.079341196 0 0.14741376 0.38593423 -0.23852047
0.019795652 0.079571567 0 0.14741376 0.38593423 -0.23852047
0.019199742 0.079802118 0 0.14741376 0.38593423 -0.23852047
0.018590026 0.079999998 2.5610976e-05 0.14741376 0.38593423 -0.23852047
0.017896334 0.079999998 0.00020580564 0.14741376 0.38593423 -0.23852047
0.017201537 0.079999998 0.00038641068 0.14741376 0.38593423 -0.23852047
0.016505629 0.079999998 0.00056742801 0.14741376 0.38593423 -0.23852047
0.015808601 0.079999998 0.00074885972 0.14741376 0.38593423 -0.23852047
0.015110451 0.079999998 0.00093070767 0.14741376 0.38593423 -0.23852047
0.014411168 0.079999998 0.0011129739 0.14741376 0.38593423 -0.23852047
0.013710749 0.079999998 0.0012956603 0.14741376 0.38593423 -0.23852047
0.013009186 0.079999998 0.0014787691 0.14741376 0.38593423 -0.23852047
0.012306471 0.079999998 0.0016623022 0.14741376 0.38593423 -0.23852047
0.011602599 0.079999998 0.0018462616 0.14741376 0.38593423 -0.23852047
0.010897564 0.079999998 0.0020306495 0.14741376 0.38593423 -0.23852047
0.010191358 0.079999998 0.0022154676 0.14741376 0.38593423 -0.23852047
0.0094839735 0.079999998 0.0024007184 0.14741376 0.38593423 -0.23852047
0.0087754065 0.079999998 0.0025864039 0.14741376 0.38593423 -0.23852047
0.0080656474 0.079999998 0.0027725259 0.14741376 0.38593423 -0.23852047
0.0073546907 0.079999998 0.0029590868 0.14741376 0.38593423 -0.23852047
0.0066425293 0.079999998 0.0031460884 0.14741376 0.38593423 -0.23852047
0.0059291562 0.079999998 0.0033335334 0.14741376 0.38593423 -0.23852047
0.005214565 0.079999998 0.0035214236 0.14741376 0.38593423 -0.23852047
0.0044987476 0.079999998 0.003709761 0.14741376 0.38593423 -0.23852047
0.0037816982 0.079999998 0.0038985477 0.14741376 0.38593423 -0.23852047
0.0030634089 0.079999998 0.0040877867 0.14741376 0.38593423 -0.23852047
0.002343873 0.079999998 0.0042774789 0.14741376 0.38593423 -0.23852047
0.0016230833 0.079999998 0.0044676275 0.14741376 0.38593423 -0.23852047
0.00090103241 0.079999998 0.0046582348 0.14741376 0.38593423 -0.23852047
0.00017771333 0.079999998 0.0048493021 0.14741376 0.38593423 -0.23852047
0.039999999 0.011461516 0.039763942 0.14741376 0.38593423 -0.23852047
0.039999999 0.014155485 0.037953433 0.14741376 0.38593423 -0.23852047
0.038501065 0.011663147 0.039999999 0.14741376 0.38593423 -0.23852047
0.039999999 0.019438144 0.034403585 0.14741376 0.38593423 -0.23852047
0.039999999 0.022028223 0.032663308 0.14741376 0.38593423 -0.23852047
0.036390729 0.012443135 0.039999999 0.14741376 0.38593423 -0.23852047
0.03568764 0.012703421 0.039999999 0.14741376 0.38593423 -0.23852047
0.039999999 0.029601429 0.027575672 0.14741376 0.38593423 -0.23852047
0.039999999 0.032062266 0.025922766 0.14741376 0.38593423 -0.23852047
0.039999999 0.034492336 0.02429066 0.14741376 0.38593423 -0.23852047
0.039999999 0.036892224 0.022678956 0.14741376 0.38593423 -0.23852047
0.039999999 0.039262503 0.02108727 0.14741376 0.38593423 -0.23852047
0.039999999 0.041603729 0.019515224 0.14741376 0.38593423 -0.23852047
0.039999999 0.043916449 0.01796245 0.14741376 0.38593423 -0.23852047
0.039999999 0.046201188 0.016428594 0.14741376 0.38593423 -0.23852047
0.039999999 0.048458464 0.014913301 0.14741376 0.38593423 -0.23852047
0.039999999 0.050688781 0.013416233 0.14741376 0.38593423 -0.23852047
0.039999999 0.052892633 0.011937059 0.14741376 0.38593423 -0.23852047
0.039999999 0.055070501 0.010475453 0.14741376 0.38593423 -0.23852047
0.039999999 0.057222847 0.0090310983 0.14741376 0.38593423 -0.23852047
0.039999999 0.059350133 0.0076036858 0.14741376 0.38593423 -0.23852047
0.039999999 0.061452806 0.0061929142 0.14741376 0.38593423 -0.23852047
0.039999999 0.063531302 0.0047984887 0.14741376 0.38593423 -0.23852047
0.039999999 0.065586045 0.0034201215 0.14741376 0.38593423 -0.23852047
0.039999999 0.067617446 0.0020575318 0.14741376 0.38593423 -0.23852047
0.039999999 0.069625922 0.00071044493 0.14741376 0.38593423 -0.23852047
0.039719429 0.070790827 0 0.14741376 0.38593423 -0.23852047
0.039119974 0.071016535 0 0.14741376 0.38593423 -0.23852047
0.038520619 0.071242392 0 0.14741376 0.38593423 -0.23852047
0.037921362 0.071468391 0 0.14741376 0.38593423 -0.23852047
0.037322201 0.071694531 0 0.14741376 0.38593423 -0.23852047
0.036723137 0.071920812 0 0.14741376 0.38593423 -0.23852047
0.036124162 0.07214725 0 0.14741376 0.38593423 -0.23852047
0.035525277 0.07237383 0 0.14741376 0.38593423 -0.23852047
0.034926478 0.072600551 0 0.14741376 0.38593423 -0.23852047
0.015363188 0.020319268 0.039999999 0.14741376 0.38593423 -0.23852047
0.033729136 0.073054455 0 0.14741376 0.38593423 -0.23852047
0.033130582 0.073281631 0 0.14741376 0.38593423 -0.23852047
0.032532111 0.073508963 0 0.14741376 0.38593423 -0.23852047
0.031933714 0.073736444 0 0.14741376 0.38593423 -0.23852047
0.031335387 0.073964074 0 0.14741376 0.38593423 -0.23852047
0.030737132 0.074191868 0 0.14741376 0.38593423 -0.23852047
0.030138947 0.074419811 2.7755576e-17 0.14741376 0.38593423 -0.23852047
0.029540827 0.074647911 0 0.14741376 0.38593423 -0.23852047
0.028942771 0.074876167 0 0.14741376 0.38593423 -0.23852047
0.028344776 0.075104579 0 0.14741376 0.38593423 -0.23852047
0.027746843 0.075333148 0 0.14741376 0.38593423 -0.23852047
0.027148964 0.075561881 2.7755576e-17 0.14741376 0.38593423 -0.23852047
0.02655114 0.07579077 0 0.14741376 0.38593423 -0.23852047
0.025953369 0.076019824 0 0.14741376 0.38593423 -0.23852047
0.025355648 0.076249041 0 0.14741376 0.38593423 -0.23852047
0.024757976 0.076478422 0 0.14741376 0.38593423 -0.23852047
0.024160346 0.076707959 0 0.14741376 0.38593423 -0.23852047
0.023562761 0.076937668 0 0.14741376 0.38593423 -0.23852047
0.022965217 0.077167541 0 0.14741376 0.38593423 -0.23852047
0.022367712 0.077397577 0 0.14741376 0.38593423 -0.23852047
0.021770243 0.077627786 0 0.14741376 0.38593423 -0.23852047
0.021172807 0.077858157 0 0.14741376 0.38593423 -0.23852047
0.020575402 0.078088701 0 0.14741376 0.38593423 -0.23852047
0.019978028 0.078319415 0 0.14741376 0.38593423 -0.23852047
0.019380679 0.078550301 0 0.14741376 0.38593423 -0.23852047
0.018783357 0.078781351 0 0.14741376 0.38593423 -0.23852047
0.018186057 0.07901258 0 0.14741376 0.38593423 -0.23852047
0.017588776 0.079243988 0 0.14741376 0.38593423 -0.23852047
0.016991513 0.079475567 0 0.14741376 0.38593423 -0.23852047
0.016394265 0.079707317 0 0.14741376 0.38593423 -0.23852047
0.015797032 0.079939246 0 0.14741376 0.38593423 -0.23852047
0.015125712 0.079999998 0.00013367194 0.14741376 0.38593423 -0.23852047
0.014427135 0.079999998 0.00031511328 0.14741376 0.38593423 -0.23852047
0.013727421 0.079999998 0.00049697101 0.14741376 0.38593423 -0.23852047
0.013026566 0.079999998 0.0006792472 0.14741376 0.38593423 -0.23852047
0.012324562 0.079999998 0.00086194382 0.14741376 0.38593423 -0.23852047
0.011621404 0.079999998 0.0010450629 0.14741376 0.38593423 -0.23852047
0.010917084 0.079999998 0.0012286064 0.14741376 0.38593423 -0.23852047
0.010211595 0.079999998 0.0014125765 0.14741376 0.38593423 -0.23852047
0.009504932 0.079999998 0.0015969751 0.14741376 0.38593423 -0.23852047
0.0087970868 0.079999998 0.0017818044 0.14741376 0.38593423 -0.23852047
0.0080880532 0.079999998 0.0019670664 0.14741376 0.38593423 -0.23852047
0.0073778247 0.079999998 0.0021527633 0.14741376 0.38593423 -0.23852047
0.0066663935 0.079999998 0.002338897 0.14741376 0.38593423 -0.23852047
0.0059537534 0.079999998 0.0025254698 0.14741376 0.38593423 -0.23852047
0.0052398969 0.079999998 0.0027124835 0.14741376 0.38593423 -0.23852047
0.0045248177 0.079999998 0.0028999408 0.14741376 0.38593423 -0.23852047
0.0038085086 0.079999998 0.0030878433 0.14741376 0.38593423 -0.23852047
0.0030909623 0.079999998 0.0032761935 0.14741376 0.38593423 -0.23852047
0.002372172 0.079999998 0.0034649936 0.14741376 0.38593423 -0.23852047
0.0016521303 0.079999998 0.0036542455 0.14741376 0.38593423 -0.23852047
0.00093083031 0.079999998 0.0038439517 0.14741376 0.38593423 -0.23852047
0.00020826473 0.079999998 0.0040341141 0.14741376 0.38593423 -0.23852047
0.039520282 0.0099065062 0.039999999 0.14741376 0.38593423 -0.23852047
0.039999999 0.01426825 0.036959987 0.14741376 0.38593423 -0.23852047
0.039999999 0.016922865 0.03518207 0.14741376 0.38593423 -0.23852047
0.039999999 0.019542951 0.033427417 0.14741376 0.38593423 -0.23852047
0.036698896 0.010948527 0.039999999 0.14741376 0.38593423 -0.23852047
0.039999999 0.024682254 0.029986065 0.14741376 0.38593423 -0.23852047
0.039999999 0.027202781 0.028298482 0.14741376 0.38593423 -0.23852047
0.039999999 0.029691409 0.026632393 0.14741376 0.38593423 -0.23852047
0.039999999 0.032148752 0.024987379 0.14741376 0.38593423 -0.23852047
0.039999999 0.034575406 0.023363039 0.14741376 0.38593423 -0.23852047
0.039999999 0.03697196 0.021758981 0.14741376 0.38593423 -0.23852047
0.039999999 0.03933898 0.020174818 0.14741376 0.38593423 -0.23852047
0.039999999 0.04167702 0.018610179 0.14741376 0.38593423 -0.23852047
0.039999999 0.043986622 0.0170647 0.14741376 0.38593423 -0.23852047
0.039999999 0.046268318 0.015538023 0.14741376 0.38593423 -0.23852047
0.039999999 0.048522618 0.014029801 0.14741376 0.38593423 -0.23852047
0.039999999 0.050750025 0.012539698 0.14741376 0.38593423 -0.23852047
0.039999999 0.05295103 0.011067382 0.14741376 0.38593423 -0.23852047
0.039999999 0.055126112 0.0096125314 0.14741376 0.38593423 -0.23852047
0.039999999 0.057275739 0.008174832 0.14741376 0.38593423 -0.23852047
0.039999999 0.059400365 0.0067539765 0.14741376 0.38593423 -0.23852047
0.039999999 0.06150043 0.0053496659 0.14741376 0.38593423 -0.23852047
0.039999999 0.063576378 0.0039616064 0.14741376 0.38593423 -0.23852047
0.039999999 0.065628625 0.0025895133 0.14741376 0.38593423 -0.23852047
0.039999999 0.06765759 0.0012331072 0.14741376 0.38593423 -0.23852047
0.039951392 0.069520563 0 0.14741376 0.38593423 -0.23852047
0.039350439 0.069746703 0 0.14741376 0.38593423 -0.23852047
0.038749587 0.069972984 0 0.14741376 0.38593423 -0.23852047
0.038148835 0.0701994 0 0.14741376 0.38593423 -0.23852047
0.037548184 0.070425965 0 0.14741376 0.38593423 -0.23852047
0.036947627 0.070652671 0 0.14741376 0.38593423 -0.23852047
0.036347162 0.070879519 0 0.14741376 0.38593423 -0.23852047
0.035746787 0.071106516 0 0.14741376 0.38593423 -0.23852047
0.035146505 0.071333654 0 0.14741376 0.38593423 -0.23852047
0.034546308 0.071560942 0 0.14741376 0.38593423 -0.23852047
0.033946194 0.071788371 0 0.14741376 0.38593423 -0.23852047
0.033346161 0.072015949 0 0.14741376 0.38593423 -0.23852047
0.032746207 0.072243683 0 0.14741376 0.38593423 -0.23852047
0.032146335 0.072471559 0 0.14741376 0.38593423 -0.23852047
0.031546533 0.072699584 0 0.14741376 0.38593423 -0.23852047
0.030946804 0.072927766 0 0.14741376 0.38593423 -0.23852047
0.030347146 0.073156103 0 0.14741376 0.38593423 -0.23852047
0.029747557 0.07338459 0 0.14741376 0.38593423 -0.23852047
0.029148031 0.073613226 0 0.14741376 0.38593423 -0.23852047
0.02854857 0.073842019 0 0.14741376 0.38593423 -0.23852047
0.027949169 0.074070975 0 0.14741376 0.38593423 -0.23852047
0.027349828 0.074300081 0 0.14741376 0.38593423 -0.23852047
0.026750542 0.074529342 0 0.14741376 0.38593423 -0.23852047
0.026151309 0.074758768 0 0.14741376 0.38593423 -0.23852047
0.025552129 0.07498835 0 0.14741376 0.38593423 -0.23852047
0.024952998 0.075218096 0 0.14741376 0.38593423 -0.23852047
0.024353914 0.075447999 0 0.14741376 0.38593423 -0.23852047
0.0030172172 0.023647955 0.039999999 0.14741376 0.38593423 -0.23852047
0.023155876 0.075908296 0 0.14741376 0.38593423 -0.23852047
0.022556918 0.07613869 0 0.14741376 0.38593423 -0.23852047
0.021957999 0.076369248 0 0.14741376 0.38593423 -0.23852047
0.021359114 0.07659997 0 0.14741376 0.38593423 -0.23852047
0.020760262 0.076830857 0 0.14741376 0.38593423 -0.23852047
0.020161442 0.077061914 0 0.14741376 0.38593423 -0.23852047
0.01956265 0.077293143 0 0.14741376 0.38593423 -0.23852047
0.018963885 0.077524535 0 0.14741376 0.38593423 -0.23852047
0.018365141 0.077756099 0 0.14741376 0.38593423 -0.23852047
0.01776642 0.077987842 0 0.14741376 0.38593423 -0.23852047
0.017167719 0.078219749 0 0.14741376 0.38593423 -0.23852047
0.016569033 0.078451827 0 0.14741376 0.38593423 -0.23852047
0.015970362 0.078684084 0 0.14741376 0.38593423 -0.23852047
0.015371704 0.078916512 0 0.14741376 0.38593423 -0.23852047
0.014773057 0.07914912 2.7755576e-17 0.14741376 0.38593423 -0.23852047
0.014174416 0.079381905 0 0.14741376 0.38593423 -0.23852047
0.01357578 0.079614863 0 0.14741376 0.38593423 -0.23852047
0.012977147 0.079847999 0 0.14741376 0.38593423 -0.23852047
0.012342612 0.079999998 6.3417508e-05 0.14741376 0.38593423 -0.23852047
0.011640165 0.079999998 0.00024569943 0.14741376 0.38593423 -0.23852047
0.010936559 0.079999998 0.00042840195 0.14741376 0.38593423 -0.23852047
0.010231787 0.079999998 0.00061152707 0.14741376 0.38593423 -0.23852047
0.009525842 0.079999998 0.00079507683 0.14741376 0.38593423 -0.23852047
0.0088187186 0.079999998 0.00097905332 0.14741376 0.38593423 -0.23852047
0.0081104087 0.079999998 0.0011634586 0.14741376 0.38593423 -0.23852047
0.0074009052 0.079999998 0.0013482947 0.14741376 0.38593423 -0.23852047
0.0066902027 0.079999998 0.0015335636 0.14741376 0.38593423 -0.23852047
0.0059782937 0.079999998 0.0017192677 0.14741376 0.38593423 -0.23852047
0.0052651707 0.079999998 0.0019054088 0.14741376 0.38593423 -0.23852047
0.0045508277 0.079999998 0.0020919892 0.14741376 0.38593423 -0.23852047
0.0038352569 0.079999998 0.0022790108 0.14741376 0.38593423 -0.23852047
0.0031184519 0.079999998 0.0024664761 0.14741376 0.38593423 -0.23852047
0.0024004052 0.079999998 0.0026543871 0.14741376 0.38593423 -0.23852047
0.0016811101 0.079999998 0.002842746 0.14741376 0.38593423 -0.23852047
0.00096055918 0.079999998 0.0030315549 0.14741376 0.38593423 -0.23852047
0.00023874531 0.079999998 0.0032208159 0.14741376 0.38593423 -0.23852047
0.039999999 0.0089733843 0.039579045 0.14741376 0.38593423 -0.23852047
0.039129961 0.0086636776 0.039999999 0.14741376 0.38593423 -0.23852047
0.038422704 0.008924704 0.039999999 0.14741376 0.38593423 -0.23852047
0.039999999 0.017031303 0.034200069 0.14741376 0.38593423 -0.23852047
0.039999999 0.01964747 0.032453943 0.14741376 0.38593423 -0.23852047
0.039999999 0.022229884 0.030730477 0.14741376 0.38593423 -0.23852047
0.03559554 0.0099701844 0.039999999 0.14741376 0.38593423 -0.23852047
0.039999999 0.027296085 0.027349761 0.14741376 0.38593423 -0.23852047
0.039999999 0.029781148 0.025691655 0.14741376 0.38593423 -0.23852047
0.039999999 0.032235004 0.024054499 0.14741376 0.38593423 -0.23852047
0.039999999 0.034658257 0.022437893 0.14741376 0.38593423 -0.23852047
0.039999999 0.037051484 0.020841444 0.14741376 0.38593423 -0.23852047
0.039999999 0.039415251 0.019264774 0.14741376 0.38593423 -0.23852047
0.039999999 0.041750114 0.01770751 0.14741376 0.38593423 -0.23852047
0.039999999 0.044056613 0.016169291 0.14741376 0.38593423 -0.23852047
0.039999999 0.046335272 0.014649763 0.14741376 0.38593423 -0.23852047
0.039999999 0.048586603 0.013148583 0.14741376 0.38593423 -0.23852047
0.039999999 0.050811112 0.011665412 0.14741376 0.38593423 -0.23852047
0.039999999 0.053009279 0.010199926 0.14741376 0.38593423 -0.23852047
0.039999999 0.055181585 0.0087518031 0.14741376 0.38593423 -0.23852047
0.039999999 0.057328496 0.0073207305 0.14741376 0.38593423 -0.23852047
0.039999999 0.059450466 0.0059064045 0.14741376 0.38593423 -0.23852047
0.039999999 0.061547939 0.004508527 0.14741376 0.38593423 -0.23852047
0.039999999 0.063621342 0.0031268077 0.14741376 0.38593423 -0.23852047
0.039999999 0.065671109 0.0017609628 0.14741376 0.38593423 -0.23852047
0.039999999 0.067697637 0.00041071483 0.14741376 0.38593423 -0.23852047
0.039582178 0.068471253 0 0.14741376 0.38593423 -0.23852047
0.038979821 0.068697967 0 0.14741376 0.38593423 -0.23852047
0.038377568 0.068924822 2.7755576e-17 0.14741376 0.38593423 -0.23852047
0.037775416 0.069151819 0 0.14741376 0.38593423 -0.23852047
0.037173357 0.06937895 0 0.14741376 0.38593423 -0.23852047
0.036571398 0.069606222 0 0.14741376 0.38593423 -0.23852047
0.035969529 0.069833636 0 0.14741376 0.38593423 -0.23852047
0.03536775 0.070061192 0 0.14741376 0.38593423 -0.23852047
0.034766063 0.070288897 0 0.14741376 0.38593423 -0.23852047
0.034164459 0.070516743 0 0.14741376 0.38593423 -0.23852047
0.03356294 0.070744731 0 0.14741376 0.38593423 -0.23852047
0.032961499 0.070972867 0 0.14741376 0.38593423 -0.23852047
0.03236014 0.071201153 0 0.14741376 0.38593423 -0.23852047
0.031758856 0.07142958 0 0.14741376 0.38593423 -0.23852047
0.031157646 0.071658164 0 0.14741376 0.38593423 -0.23852047
0.030556509 0.07188689 0 0.14741376 0.38593423 -0.23852047
0.010257623 0.019488262 0.039999999 0.14741376 0.38593423 -0.23852047
0.02935444 0.072344802 0 0.14741376 0.38593423 -0.23852047
0.028753504 0.072573982 2.7755576e-17 0.14741376 0.38593423 -0.23852047
0.028152632 0.072803319 0 0.14741376 0.38593423 -0.23852047
0.027551819 0.073032811 0 0.14741376 0.38593423 -0.23852047
0.026951062 0.073262453 2.7755576e-17 0.14741376 0.38593423 -0.23852047
0.026350362 0.073492259 0 0.14741376 0.38593423 -0.23852047
0.0053465948 0.021364108 0.039999999 0.14741376 0.38593423 -0.23852047
0.02514912 0.073952332 0 0.14741376 0.38593423 -0.23852047
0.024548572 0.0741826 0 0.14741376 0.38593423 -0.23852047
0.02394807 0.074413039 0 0.14741376 0.38593423 -0.23852047
0.023347612 0.074643627 0 0.14741376 0.38593423 -0.23852047
0.022747196 0.074874386 0 0.14741376 0.38593423 -0.23852047
0.022146819 0.075105302 0 0.14741376 0.38593423 -0.23852047
0.021546479 0.075336382 0 0.14741376 0.38593423 -0.23852047
0 0.024163205 0.039504912 0.14741376 0.38593423 -0.23852047
0.0203459 0.075799033 0 0.14741376 0.38593423 -0.23852047
0.019745657 0.076030605 2.7755576e-17 0.14741376 0.38593423 -0.23852047
0.01914544 0.076262347 0 0.14741376 0.38593423 -0.23852047
0.018545249 0.076494254 0 0.14741376 0.38593423 -0.23852047
0.017945081 0.076726332 0 0.14741376 0.38593423 -0.23852047
0.017344935 0.076958574 2.7755576e-17 0.14741376 0.38593423 -0.23852047
0.016744805 0.077190988 0 0.14741376 0.38593423 -0.23852047
0.016144691 0.07742358 0 0.14741376 0.38593423 -0.23852047
0.015544591 0.077656336 0 0.14741376 0.38593423 -0.23852047
0.014944502 0.077889271 0 0.14741376 0.38593423 -0.23852047
0.014344422 0.078122377 0 0.14741376 0.38593423 -0.23852047
0.013744349 0.078355655 0 0.14741376 0.38593423 -0.23852047
0.01314428 0.078589112 0 0.14741376 0.38593423 -0.23852047
0.012544213 0.078822747 0 0.14741376 0.38593423 -0.23852047
0.011944145 0.079056561 0 0.14741376 0.38593423 -0.23852047
0.011344074 0.079290546 0 0.14741376 0.38593423 -0.23852047
0.010743998 0.079524718 0 0.14741376 0.38593423 -0.23852047
0.010143915 0.079759069 0 0.14741376 0.38593423 -0.23852047
0 0.05881536 0.016511191 0.14741376 0.38593423 -0.23852047
0.0088403001 0.079999998 0.00017814033 0.14741376 0.38593423 -0.23852047
0.008132712 0.079999998 0.0003616921 0.14741376 0.38593423 -0.23852047
0.0074239336 0.079999998 0.00054567074 0.14741376 0.38593423 -0.23852047
0.0067139575 0.079999998 0.00073007838 0.14741376 0.38593423 -0.23852047
0.0060027777 0.079999998 0.00091491698 0.14741376 0.38593423 -0.23852047
0.0052903867 0.079999998 0.0011001887 0.14741376 0.38593423 -0.23852047
0.0045767776 0.079999998 0.0012858956 0.14741376 0.38593423 -0.23852047
0.003861944 0.079999998 0.00147204 0.14741376 0.38593423 -0.23852047
0.0031458782 0.079999998 0.0016586237 0.14741376 0.38593423 -0.23852047
0.0024285738 0.079999998 0.001845649 0.14741376 0.38593423 -0.23852047
0.0017100231 0.079999998 0.0020331182 0.14741376 0.38593423 -0.23852047
0.00099021941 0.079999998 0.002221033 0.14741376 0.38593423 -0.23852047
0.00026915548 0.079999998 0.0024093962 0.14741376 0.38593423 -0.23852047
0.039999999 0.0090938183 0.038573422 0.14741376 0.38593423 -0.23852047
0.039999999 0.011811203 0.036765449 0.14741376 0.38593423 -0.23852047
0.039999999 0.014492839 0.034981396 0.14741376 0.38593423 -0.23852047
0.039999999 0.017139439 0.033220783 0.14741376 0.38593423 -0.23852047
0.036611795 0.0082010245 0.039999999 0.14741376 0.38593423 -0.23852047
0.039999999 0.022330299 0.029768026 0.14741376 0.38593423 -0.23852047
0.039999999 0.024875898 0.028074989 0.14741376 0.38593423 -0.23852047
0.039999999 0.027389137 0.026403602 0.14741376 0.38593423 -0.23852047
0.039999999 0.029870644 0.024753446 0.14741376 0.38593423 -0.23852047
0.039999999 0.032321028 0.023124112 0.14741376 0.38593423 -0.23852047
0.039999999 0.034740888 0.021515206 0.14741376 0.38593423 -0.23852047
0.039999999 0.037130799 0.019926334 0.14741376 0.38593423 -0.23852047
0.039999999 0.039491326 0.018357122 0.14741376 0.38593423 -0.23852047
0.039999999 0.041823022 0.0168072 0.14741376 0.38593423 -0.23852047
0.039999999 0.044126425 0.015276211 0.14741376 0.38593423 -0.23852047
0.039999999 0.046402056 0.013763801 0.14741376 0.38593423 -0.23852047
0.039999999 0.048650429 0.012269631 0.14741376 0.38593423 -0.23852047
0.039999999 0.050872039 0.010793365 0.14741376 0.38593423 -0.23852047
0.039999999 0.053067379 0.0093346788 0.14741376 0.38593423 -0.23852047
0.039999999 0.055236921 0.007893254 0.14741376 0.38593423 -0.23852047
0.039999999 0.057381123 0.0064687813 0.14741376 0.38593423 -0.23852047
0.039999999 0.059500445 0.0050609573 0.14741376 0.38593423 -0.23852047
0.039999999 0.061595324 0.0036694866 0.14741376 0.38593423 -0.23852047
0.039999999 0.063666195 0.0022940808 0.14741376 0.38593423 -0.23852047
0.039999999 0.06571348 0.00093445816 0.14741376 0.38593423 -0.23852047
0.039815199 0.067190148 0 0.14741376 0.38593423 -0.23852047
0.039211329 0.067417301 0 0.14741376 0.38593423 -0.23852047
0.038607568 0.067644596 0 0.14741376 0.38593423 -0.23852047
0.038003903 0.067872025 0 0.14741376 0.38593423 -0.23852047
0.037400343 0.068099596 0 0.14741376 0.38593423 -0.23852047
0.036796875 0.0683273 0 0.14741376 0.38593423 -0.23852047
0.036193505 0.068555139 0 0.14741376 0.38593423 -0.23852047
0.035590224 0.068783127 0 0.14741376 0.38593423 -0.23852047
0.034987036 0.069011249 0 0.14741376 0.38593423 -0.23852047
0.034383938 0.069239512 0 0.14741376 0.38593423 -0.23852047
0.033780921 0.069467925 0 0.14741376 0.38593423 -0.23852047
0.033177987 0.069696471 0 0.14741376 0.38593423 -0.23852047
0.032575134 0.069925167 0 0.14741376 0.38593423 -0.23852047
0.031972364 0.070154011 0 0.14741376 0.38593423 -0.23852047
0.031369664 0.070382997 0 0.14741376 0.38593423 -0.23852047
0.03076704 0.070612125 0 0.14741376 0.38593423 -0.23852047
0.030164488 0.070841409 0 0.14741376 0.38593423 -0.23852047
0.029562004 0.071070835 0 0.14741376 0.38593423 -0.23852047
0.028959585 0.071300417 0 0.14741376 0.38593423 -0.23852047
0.028357232 0.071530148 0 0.14741376 0.38593423 -0.23852047
0.02775494 0.071760029 0 0.14741376 0.38593423 -0.23852047
0.027152708 0.071990058 0 0.14741376 0.38593423 -0.23852047
0.026550533 0.072220244 0 0.14741376 0.38593423 -0.23852047
0.025948413 0.072450586 0 0.14741376 0.38593423 -0.23852047
0.025346344 0.072681077 0 0.14741376 0.38593423 -0.23852047
0.024744328 0.072911724 0 0.14741376 0.38593423 -0.23852047
0.024142357 0.073142529 0 0.14741376 0.38593423 -0.23852047
0.023540432 0.073373497 0 0.14741376 0.38593423 -0.23852047
0.022938551 0.073604621 0 0.14741376 0.38593423 -0.23852047
0.02233671 0.073835902 0 0.14741376 0.38593423 -0.23852047
0.021734906 0.074067339 0 0.14741376 0.38593423 -0.23852047
0.02113314 0.074298948 0 0.14741376 0.38593423 -0.23852047
0.020531407 0.074530713 0 0.14741376 0.38593423 -0.23852047
0.019929705 0.074762635 0 0.14741376 0.38593423 -0.23852047
0.019328032 0.074994728 0 0.14741376 0.38593423 -0.23852047
0 0.030013358 0.034709126 0.14741376 0.38593423 -0.23852047
0.018124763 0.075459413 0 0.14741376 0.38593423 -0.23852047
0.017523164 0.075691998 0 0.14741376 0.38593423 -0.23852047
0.016921584 0.075924754 0 0.14741376 0.38593423 -0.23852047
0.01632002 0.076157682 0 0.14741376 0.38593423 -0.23852047
0.015718471 0.076390781 0 0.14741376 0.38593423 -0.23852047
0.015116935 0.076624043 0 0.14741376 0.38593423 -0.23852047
0.014515409 0.076857477 0 0.14741376 0.38593423 -0.23852047
0.013913891 0.07709109 0 0.14741376 0.38593423 -0.23852047
0.013312379 0.077324867 0 0.14741376 0.38593423 -0.23852047
0.01271087 0.077558823 0 0.14741376 0.38593423 -0.23852047
0.012109362 0.077792957 2.7755576e-17 0.14741376 0.38593423 -0.23852047
0.011507851 0.078027263 2.7755576e-17 0.14741376 0.38593423 -0.23852047
0.010906338 0.078261748 0 0.14741376 0.38593423 -0.23852047
0.010304817 0.078496411 0 0.14741376 0.38593423 -0.23852047
0.0097032888 0.078731254 0 0.14741376 0.38593423 -0.23852047
0.0091017494 0.078966275 0 0.14741376 0.38593423 -0.23852047
0.008500196 0.079201475 0 0.14741376 0.38593423 -0.23852047
0.0078986278 0.079436861 0 0.14741376 0.38593423 -0.23852047
0.0072970414 0.079672426 0 0.14741376 0.38593423 -0.23852047
0.0066954345 0.079908177 0 0.14741376 0.38593423 -0.23852047
0.0060272054 0.079999998 0.00011240729 0.14741376 0.38593423 -0.23852047
0.0053155445 0.079999998 0.00029681297 0.14741376 0.38593423 -0.23852047
0.0046026683 0.079999998 0.00048164985 0.14741376 0.38593423 -0.23852047
0.0038885695 0.079999998 0.00066692004 0.14741376 0.38593423 -0.23852047
0.0031732416 0.079999998 0.00085262564 0.14741376 0.38593423 -0.23852047
0.0024566774 0.079999998 0.0010387688 0.14741376 0.38593423 -0.23852047
0.0017388697 0.079999998 0.0012253516 0.14741376 0.38593423 -0.23852047
0.0010198115 0.079999998 0.0014123763 0.14741376 0.38593423 -0.23852047
0.00029949564 0.079999998 0.0015998449 0.14741376 0.38593423 -0.23852047
0.039999999 0.00646433 0.039393969 0.14741376 0.38593423 -0.23852047
0.039999999 0.0092139142 0.037570622 0.14741376 0.38593423 -0.23852047
0.039999999 0.011927116 0.035771534 0.14741376 0.38593423 -0.23852047
0.037633579 0.0064239483 0.039999999 0.14741376 0.38593423 -0.23852047
0.039999999 0.017247278 0.032244194 0.14741376 0.38593423 -0.23852047
0.039999999 0.019855645 0.030515004 0.14741376 0.38593423 -0.23852047
0.035503086 0.0072122384 0.039999999 0.14741376 0.38593423 -0.23852047
0.039999999 0.024972327 0.027123336 0.14741376 0.38593423 -0.23852047
0.039999999 0.027481938 0.025459992 0.14741376 0.38593423 -0.23852047
0.039999999 0.029959902 0.02381775 0.14741376 0.38593423 -0.23852047
0.039999999 0.032406826 0.022196205 0.14741376 0.38593423 -0.23852047
0.039999999 0.034823298 0.020594962 0.14741376 0.38593423 -0.23852047
0.039999999 0.037209902 0.019013634 0.14741376 0.38593423 -0.23852047
0.039999999 0.039567199 0.017451849 0.14741376 0.38593423 -0.23852047
0.039999999 0.04189574 0.015909238 0.14741376 0.38593423 -0.23852047
0.039999999 0.044196054 0.014385446 0.14741376 0.38593423 -0.23852047
0.039999999 0.046468668 0.012880124 0.14741376 0.38593423 -0.23852047
0.039999999 0.048714086 0.011392933 0.14741376 0.38593423 -0.23852047
0.039999999 0.050932813 0.0099235419 0.14741376 0.38593423 -0.23852047
0.039999999 0.053125333 0.0084716268 0.14741376 0.38593423 -0.23852047
0.039999999 0.055292111 0.0070368731 0.14741376 0.38593423 -0.23852047
0.039999999 0.057433616 0.0056189718 0.14741376 0.38593423 -0.23852047
0.039999999 0.059550297 0.0042176223 0.14741376 0.38593423 -0.23852047
0.039999999 0.061642595 0.0028325322 0.14741376 0.38593423 -0.23852047
0.039999999 0.063710935 0.0014634139 0.14741376 0.38593423 -0.23852047
0.039999999 0.065755747 0.00010998786 0.14741376 0.38593423 -0.23852047
0.039444119 0.066130929 0 0.14741376 0.38593423 -0.23852047
0.038838837 0.066358671 0 0.14741376 0.38593423 -0.23852047
0.038233656 0.066586547 0 0.14741376 0.38593423 -0.23852047
0.03762858 0.066814557 0 0.14741376 0.38593423 -0.23852047
0.037023604 0.067042701 0 0.14741376 0.38593423 -0.23852047
0.036418721 0.067270979 0 0.14741376 0.38593423 -0.23852047
0.035813935 0.067499399 0 0.14741376 0.38593423 -0.23852047
0.035209239 0.067727953 0 0.14741376 0.38593423 -0.23852047
0.034604631 0.067956641 0 0.14741376 0.38593423 -0.23852047
0.034000114 0.068185478 0 0.14741376 0.38593423 -0.23852047
0.033395682 0.06841445 0 0.14741376 0.38593423 -0.23852047
0.032791328 0.068643562 0 0.14741376 0.38593423 -0.23852047
0.03218706 0.068872824 0 0.14741376 0.38593423 -0.23852047
0.031582866 0.06910222 0 0.14741376 0.38593423 -0.23852047
0.030978747 0.069331765 0 0.14741376 0.38593423 -0.23852047
0.0303747 0.069561452 0 0.14741376 0.38593423 -0.23852047
0.029770726 0.069791287 0 0.14741376 0.38593423 -0.23852047
0.02916682 0.070021272 0 0.14741376 0.38593423 -0.23852047
0.0086316438 0.017311232 0.039999999 0.14741376 0.38593423 -0.23852047
0.027959201 0.070481673 0 0.14741376 0.38593423 -0.23852047
0.027355485 0.070712097 0 0.14741376 0.38593423 -0.23852047
0.026751827 0.070942678 0 0.14741376 0.38593423 -0.23852047
0.026148226 0.071173407 0 0.14741376 0.38593423 -0.23852047
0.0051071751 0.018657461 0.039999999 0.14741376 0.38593423 -0.23852047
0.024941185 0.071635321 0 0.14741376 0.38593423 -0.23852047
0.024337739 0.071866505 0 0.14741376 0.38593423 -0.23852047
0.02373434 0.072097845 0 0.14741376 0.38593423 -0.23852047
0.023130985 0.072329342 0 0.14741376 0.38593423 -0.23852047
0.022527672 0.072560996 0 0.14741376 0.38593423 -0.23852047
0.021924401 0.072792806 0 0.14741376 0.38593423 -0.23852047
0.021321164 0.07302478 0 0.14741376 0.38593423 -0.23852047
0.020717965 0.07325691 0 0.14741376 0.38593423 -0.23852047
0.020114798 0.073489197 0 0.14741376 0.38593423 -0.23852047
0.019511662 0.073721647 0 0.14741376 0.38593423 -0.23852047
0 0.028048808 0.035096452 0.14741376 0.38593423 -0.23852047
0.018305471 0.074187033 0 0.14741376 0.38593423 -0.23852047
0.01770241 0.074419975 0 0.14741376 0.38593423 -0.23852047
