# .PCD v0.7 - Point Cloud Data file format
VERSION 0.7
FIELDS x y z vp_x vp_y vp_z
SIZE 4 4 4 4 4 4
TYPE F F F F F F
COUNT 1 1 1 1 1 1
WIDTH 927
HEIGHT 1
VIEWPOINT 0 0 0 1 0 0 0
POINTS 927
DATA ascii
0.012789665 0.079999998 0.015295403 0 0.47704095 0
0.012165379 0.079999998 0.015294648 0 0.47704095 0
0.011541152 0.079999998 0.015293931 0 0.47704095 0
0.010916983 0.079999998 0.015293252 0 0.47704095 0
0.010292867 0.079999998 0.01529261 0 0.47704095 0
0.0096688028 0.079999998 0.015292007 0 0.47704095 0
0.009044786 0.079999998 0.01529144 0 0.47704095 0
0.0084208129 0.079999998 0.015290911 0 0.47704095 0
0.0077968827 0.079999998 0.015290421 0 0.47704095 0
0.0071729901 0.079999998 0.015289969 0 0.47704095 0
0.0065491335 0.079999998 0.015289553 0 0.47704095 0
0.0059253089 0.079999998 0.015289176 0 0.47704095 0
0.0053015137 0.079999998 0.015288836 0 0.47704095 0
0.0046777446 0.079999998 0.015288535 0 0.47704095 0
0.0040539987 0.079999998 0.015288271 0 0.47704095 0
0.0034302727 0.079999998 0.015288045 0 0.47704095 0
0.0028065636 0.079999998 0.015287856 0 0.47704095 0
0.0021828685 0.079999998 0.015287705 0 0.47704095 0
0.0015591842 0.079999998 0.015287592 0 0.47704095 0
0.00093550741 0.079999998 0.015287517 0 0.47704095 0
0.00031183529 0.079999998 0.015287478 0 0.47704095 0
0.039734937 0.079999998 0.014736162 0 0.47704095 0
0.039105117 0.079999998 0.014733864 0 0.47704095 0
0.038475495 0.079999998 0.014731603 0 0.47704095 0
0.037846062 0.079999998 0.014729379 0 0.47704095 0
0.03721682 0.079999998 0.014727192 0 0.47704095 0
0.036587764 0.079999998 0.014725042 0 0.47704095 0
0.035958886 0.079999998 0.014722929 0 0.47704095 0
0.035330188 0.079999998 0.014720852 0 0.47704095 0
0.034701668 0.079999998 0.014718814 0 0.47704095 0
0.034073319 0.079999998 0.014716811 0 0.47704095 0
0.033445138 0.079999998 0.014714846 0 0.47704095 0
0.032817125 0.079999998 0.014712918 0 0.47704095 0
0.032189276 0.079999998 0.014711025 0 0.47704095 0
0.031561587 0.079999998 0.014709171 0 0.47704095 0
0.030934053 0.079999998 0.014707352 0 0.47704095 0
0.030306673 0.079999998 0.01470557 0 0.47704095 0
0.029679442 0.079999998 0.014703826 0 0.47704095 0
0.02905236 0.079999998 0.014702117 0 0.47704095 0
0.028425422 0.079999998 0.014700446 0 0.47704095 0
0.027798625 0.079999998 0.014698811 0 0.47704095 0
0.027171966 0.079999998 0.014697213 0 0.47704095 0
0.026545441 0.079999998 0.014695651 0 0.47704095 0
0.025919048 0.079999998 0.014694126 0 0.47704095 0
0.025292784 0.079999998 0.014692638 0 0.47704095 0
0.024666645 0.079999998 0.014691186 0 0.47704095 0
0.024040626 0.079999998 0.014689771 0 0.47704095 0
0.023414729 0.079999998 0.014688391 0 0.47704095 0
0.022788947 0.079999998 0.014687049 0 0.47704095 0
0.022163277 0.079999998 0.014685743 0 0.47704095 0
0.021537719 0.079999998 0.014684474 0 0.47704095 0
0.020912265 0.079999998 0.014683241 0 0.47704095 0
0.020286916 0.079999998 0.014682044 0 0.47704095 0
0.019661667 0.079999998 0.014680884 0 0.47704095 0
0.019036517 0.079999998 0.01467976 0 0.47704095 0
0.018411458 0.079999998 0.014678673 0 0.47704095 0
0.017786492 0.079999998 0.014677621 0 0.47704095 0
0.017161613 0.079999998 0.014676607 0 0.47704095 0
0.016536819 0.079999998 0.014675628 0 0.47704095 0
0.015912106 0.079999998 0.014674687 0 0.47704095 0
0.015287474 0.079999998 0.014673781 0 0.47704095 0
0.014662916 0.079999998 0.014672912 0 0.47704095 0
0.014038431 0.079999998 0.014672079 0 0.47704095 0
0.013414015 0.079999998 0.014671282 0 0.47704095 0
0.012789665 0.079999998 0.014670522 0 0.47704095 0
0.012165379 0.079999998 0.014669797 0 0.47704095 0
0.011541152 0.079999998 0.014669109 0 0.47704095 0
0.010916983 0.079999998 0.014668458 0 0.47704095 0
0.010292867 0.079999998 0.014667843 0 0.47704095 0
0.0096688028 0.079999998 0.014667263 0 0.47704095 0
0.009044786 0.079999998 0.01466672 0 0.47704095 0
0.0084208129 0.079999998 0.014666214 0 0.47704095 0
0.0077968827 0.079999998 0.014665743 0 0.47704095 0
0.0071729901 0.079999998 0.014665308 0 0.47704095 0
0.0065491335 0.079999998 0.014664911 0 0.47704095 0
0.0059253089 0.079999998 0.014664548 0 0.47704095 0
0.0053015137 0.079999998 0.014664223 0 0.47704095 0
0.0046777446 0.079999998 0.014663934 0 0.47704095 0
0.0040539987 0.079999998 0.01466368 0 0.47704095 0
0.0034302727 0.079999998 0.014663463 0 0.47704095 0
0.0028065636 0.079999998 0.014663283 0 0.47704095 0
0.0021828685 0.079999998 0.014663137 0 0.47704095 0
0.0015591842 0.079999998 0.014663029 0 0.47704095 0
0.00093550741 0.079999998 0.014662957 0 0.47704095 0
0.00031183529 0.079999998 0.01466292 0 0.47704095 0
0.039734937 0.079999998 0.014108557 0 0.47704095 0
0.039105117 0.079999998 0.014106357 0 0.47704095 0
0.038475495 0.079999998 0.014104192 0 0.47704095 0
0.037846062 0.079999998 0.014102063 0 0.47704095 0
0.03721682 0.079999998 0.014099969 0 0.47704095 0
0.036587764 0.079999998 0.01409791 0 0.47704095 0
0.035958886 0.079999998 0.014095888 0 0.47704095 0
0.035330188 0.079999998 0.0140939 0 0.47704095 0
0.034701668 0.079999998 0.014091948 0 0.47704095 0
0.034073319 0.079999998 0.01409003 0 0.47704095 0
0.033445138 0.079999998 0.014088149 0 0.47704095 0
0.032817125 0.079999998 0.014086302 0 0.47704095 0
0.032189276 0.079999998 0.014084491 0 0.47704095 0
0.031561587 0.079999998 0.014082715 0 0.47704095 0
0.030934053 0.079999998 0.014080974 0 0.47704095 0
0.030306673 0.079999998 0.014079269 0 0.47704095 0
0.029679442 0.079999998 0.014077598 0 0.47704095 0
0.02905236 0.079999998 0.014075963 0 0.47704095 0
0.028425422 0.079999998 0.014074362 0 0.47704095 0
0.027798625 0.079999998 0.014072797 0 0.47704095 0
0.027171966 0.079999998 0.014071267 0 0.47704095 0
0.026545441 0.079999998 0.014069771 0 0.47704095 0
0.025919048 0.079999998 0.014068312 0 0.47704095 0
0.025292784 0.079999998 0.014066886 0 0.47704095 0
0.024666645 0.079999998 0.014065497 0 0.47704095 0
0.024040626 0.079999998 0.014064142 0 0.47704095 0
0.023414729 0.079999998 0.014062821 0 0.47704095 0
0.022788947 0.079999998 0.014061536 0 0.47704095 0
0.022163277 0.079999998 0.014060286 0 0.47704095 0
0.021537719 0.079999998 0.01405907 0 0.47704095 0
0.020912265 0.079999998 0.01405789 0 0.47704095 0
0.020286916 0.079999998 0.014056744 0 0.47704095 0
0.019661667 0.079999998 0.014055633 0 0.47704095 0
0.019036517 0.079999998 0.014054557 0 0.47704095 0
0.018411458 0.079999998 0.014053516 0 0.47704095 0
0.017786492 0.079999998 0.01405251 0 0.47704095 0
0.017161613 0.079999998 0.014051539 0 0.47704095 0
0.016536819 0.079999998 0.014050602 0 0.47704095 0
0.015912106 0.079999998 0.0140497 0 0.47704095 0
0.015287474 0.079999998 0.014048833 0 0.47704095 0
0.014662916 0.079999998 0.014048001 0 0.47704095 0
0.014038431 0.079999998 0.014047204 0 0.47704095 0
0.013414015 0.079999998 0.01404644 0 0.47704095 0
0.012789665 0.079999998 0.014045713 0 0.47704095 0
0.012165379 0.079999998 0.014045019 0 0.47704095 0
0.011541152 0.079999998 0.01404436 0 0.47704095 0
0.010916983 0.079999998 0.014043736 0 0.47704095 0
0.010292867 0.079999998 0.014043147 0 0.47704095 0
0.0096688028 0.079999998 0.014042593 0 0.47704095 0
0.009044786 0.079999998 0.014042073 0 0.47704095 0
0.0084208129 0.079999998 0.014041588 0 0.47704095 0
0.0077968827 0.079999998 0.014041137 0 0.47704095 0
0.0071729901 0.079999998 0.014040722 0 0.47704095 0
0.0065491335 0.079999998 0.014040341 0 0.47704095 0
0.0059253089 0.079999998 0.014039994 0 0.47704095 0
0.0053015137 0.079999998 0.014039682 0 0.47704095 0
0.0046777446 0.079999998 0.014039405 0 0.47704095 0
0.0040539987 0.079999998 0.014039163 0 0.47704095 0
0.0034302727 0.079999998 0.014038955 0 0.47704095 0
0.0028065636 0.079999998 0.014038782 0 0.47704095 0
0.0021828685 0.079999998 0.014038643 0 0.47704095 0
0.0015591842 0.079999998 0.014038539 0 0.47704095 0
0.00093550741 0.079999998 0.01403847 0 0.47704095 0
0.00031183529 0.079999998 0.014038435 0 0.47704095 0
0.039734937 0.079999998 0.013481022 0 0.47704095 0
0.039105117 0.079999998 0.01347892 0 0.47704095 0
0.038475495 0.079999998 0.013476851 0 0.47704095 0
0.037846062 0.079999998 0.013474816 0 0.47704095 0
0.03721682 0.079999998 0.013472816 0 0.47704095 0
0.036587764 0.079999998 0.013470849 0 0.47704095 0
0.035958886 0.079999998 0.013468917 0 0.47704095 0
0.035330188 0.079999998 0.013467017 0 0.47704095 0
0.034701668 0.079999998 0.013465151 0 0.47704095 0
0.034073319 0.079999998 0.013463319 0 0.47704095 0
0.033445138 0.079999998 0.013461522 0 0.47704095 0
0.032817125 0.079999998 0.013459757 0 0.47704095 0
0.032189276 0.079999998 0.013458027 0 0.47704095 0
0.031561587 0.079999998 0.01345633 0 0.47704095 0
0.030934053 0.079999998 0.013454666 0 0.47704095 0
0.030306673 0.079999998 0.013453037 0 0.47704095 0
0.029679442 0.079999998 0.01345144 0 0.47704095 0
0.02905236 0.079999998 0.013449878 0 0.47704095 0
0.028425422 0.079999998 0.013448348 0 0.47704095 0
0.027798625 0.079999998 0.013446853 0 0.47704095 0
0.027171966 0.079999998 0.01344539 0 0.47704095 0
0.026545441 0.079999998 0.013443962 0 0.47704095 0
0.025919048 0.079999998 0.013442567 0 0.47704095 0
0.025292784 0.079999998 0.013441205 0 0.47704095 0
0.024666645 0.079999998 0.013439877 0 0.47704095 0
0.024040626 0.079999998 0.013438581 0 0.47704095 0
0.023414729 0.079999998 0.01343732 0 0.47704095 0
0.022788947 0.079999998 0.013436092 0 0.47704095 0
0.022163277 0.079999998 0.013434897 0 0.47704095 0
0.021537719 0.079999998 0.013433736 0 0.47704095 0
0.020912265 0.079999998 0.013432608 0 0.47704095 0
0.020286916 0.079999998 0.013431514 0 0.47704095 0
0.019661667 0.079999998 0.013430452 0 0.47704095 0
0.019036517 0.079999998 0.013429424 0 0.47704095 0
0.018411458 0.079999998 0.013428429 0 0.47704095 0
0.017786492 0.079999998 0.013427468 0 0.47704095 0
0.017161613 0.079999998 0.013426539 0 0.47704095 0
0.016536819 0.079999998 0.013425644 0 0.47704095 0
0.015912106 0.079999998 0.013424783 0 0.47704095 0
0.015287474 0.079999998 0.013423954 0 0.47704095 0
0.014662916 0.079999998 0.013423159 0 0.47704095 0
0.014038431 0.079999998 0.013422397 0 0.47704095 0
0.013414015 0.079999998 0.013421668 0 0.47704095 0
0.012789665 0.079999998 0.013420972 0 0.47704095 0
0.012165379 0.079999998 0.01342031 0 0.47704095 0
0.011541152 0.079999998 0.01341968 0 0.47704095 0
0.010916983 0.079999998 0.013419084 0 0.47704095 0
0.010292867 0.079999998 0.013418522 0 0.47704095 0
0.0096688028 0.079999998 0.013417992 0 0.47704095 0
0.009044786 0.079999998 0.013417494 0 0.47704095 0
0.0084208129 0.079999998 0.013417032 0 0.47704095 0
0.0077968827 0.079999998 0.013416601 0 0.47704095 0
0.0071729901 0.079999998 0.013416204 0 0.47704095 0
0.0065491335 0.079999998 0.01341584 0 0.47704095 0
0.0059253089 0.079999998 0.013415508 0 0.47704095 0
0.0053015137 0.079999998 0.013415211 0 0.47704095 0
0.0046777446 0.079999998 0.013414945 0 0.47704095 0
0.0040539987 0.079999998 0.013414714 0 0.47704095 0
0.0034302727 0.079999998 0.013414515 0 0.47704095 0
0.0028065636 0.079999998 0.01341435 0 0.47704095 0
0.0021828685 0.079999998 0.013414217 0 0.47704095 0
0.0015591842 0.079999998 0.013414118 0 0.47704095 0
0.00093550741 0.079999998 0.013414052 0 0.47704095 0
0.00031183529 0.079999998 0.013414019 0 0.47704095 0
0.039734937 0.079999998 0.012853554 0 0.47704095 0
0.039105117 0.079999998 0.012851548 0 0.47704095 0
0.038475495 0.079999998 0.012849577 0 0.47704095 0
0.037846062 0.079999998 0.012847637 0 0.47704095 0
0.03721682 0.079999998 0.012845729 0 0.47704095 0
0.036587764 0.079999998 0.012843854 0 0.47704095 0
0.035958886 0.079999998 0.012842011 0 0.47704095 0
0.035330188 0.079999998 0.0128402 0 0.47704095 0
0.034701668 0.079999998 0.012838421 0 0.47704095 0
0.034073319 0.079999998 0.012836675 0 0.47704095 0
0.033445138 0.079999998 0.012834961 0 0.47704095 0
0.032817125 0.079999998 0.012833279 0 0.47704095 0
0.032189276 0.079999998 0.012831628 0 0.47704095 0
0.031561587 0.079999998 0.012830011 0 0.47704095 0
0.030934053 0.079999998 0.012828425 0 0.47704095 0
0.030306673 0.079999998 0.01282687 0 0.47704095 0
0.029679442 0.079999998 0.012825348 0 0.47704095 0
0.02905236 0.079999998 0.012823858 0 0.47704095 0
0.028425422 0.079999998 0.012822401 0 0.47704095 0
0.027798625 0.079999998 0.012820974 0 0.47704095 0
0.027171966 0.079999998 0.012819581 0 0.47704095 0
0.026545441 0.079999998 0.012818218 0 0.47704095 0
0.025919048 0.079999998 0.012816888 0 0.47704095 0
0.025292784 0.079999998 0.01281559 0 0.47704095 0
0.024666645 0.079999998 0.012814323 0 0.47704095 0
0.024040626 0.079999998 0.012813088 0 0.47704095 0
0.023414729 0.079999998 0.012811886 0 0.47704095 0
0.022788947 0.079999998 0.012810715 0 0.47704095 0
0.022163277 0.079999998 0.012809576 0 0.47704095 0
0.021537719 0.079999998 0.012808468 0 0.47704095 0
0.020912265 0.079999998 0.012807393 0 0.47704095 0
0.020286916 0.079999998 0.012806349 0 0.47704095 0
0.019661667 0.079999998 0.012805337 0 0.47704095 0
0.019036517 0.079999998 0.012804357 0 0.47704095 0
0.018411458 0.079999998 0.012803408 0 0.47704095 0
0.017786492 0.079999998 0.012802492 0 0.47704095 0
0.017161613 0.079999998 0.012801607 0 0.47704095 0
0.016536819 0.079999998 0.012800754 0 0.47704095 0
0.015912106 0.079999998 0.012799932 0 0.47704095 0
0.015287474 0.079999998 0.012799142 0 0.47704095 0
0.014662916 0.079999998 0.012798384 0 0.47704095 0
0.014038431 0.079999998 0.012797657 0 0.47704095 0
0.013414015 0.079999998 0.012796963 0 0.47704095 0
0.012789665 0.079999998 0.012796299 0 0.47704095 0
0.012165379 0.079999998 0.012795667 0 0.47704095 0
0.011541152 0.079999998 0.012795067 0 0.47704095 0
0.010916983 0.079999998 0.012794498 0 0.47704095 0
0.010292867 0.079999998 0.012793962 0 0.47704095 0
0.0096688028 0.079999998 0.012793457 0 0.47704095 0
0.009044786 0.079999998 0.012792983 0 0.47704095 0
0.0084208129 0.079999998 0.012792542 0 0.47704095 0
0.0077968827 0.079999998 0.012792131 0 0.47704095 0
0.0071729901 0.079999998 0.012791752 0 0.47704095 0
0.0065491335 0.079999998 0.012791405 0 0.47704095 0
0.0059253089 0.079999998 0.012791089 0 0.47704095 0
0.0053015137 0.079999998 0.012790805 0 0.47704095 0
0.0046777446 0.079999998 0.012790552 0 0.47704095 0
0.0040539987 0.079999998 0.012790332 0 0.47704095 0
0.0034302727 0.079999998 0.012790143 0 0.47704095 0
0.0028065636 0.079999998 0.012789984 0 0.47704095 0
0.0021828685 0.079999998 0.012789859 0 0.47704095 0
0.0015591842 0.079999998 0.012789764 0 0.47704095 0
0.00093550741 0.079999998 0.0127897 0 0.47704095 0
0.00031183529 0.079999998 0.012789669 0 0.47704095 0
0.039734937 0.079999998 0.012226149 0 0.47704095 0
0.039105117 0.079999998 0.012224241 0 0.47704095 0
0.038475495 0.079999998 0.012222365 0 0.47704095 0
0.037846062 0.079999998 0.012220521 0 0.47704095 0
0.03721682 0.079999998 0.012218706 0 0.47704095 0
0.036587764 0.079999998 0.012216923 0 0.47704095 0
0.035958886 0.079999998 0.012215169 0 0.47704095 0
0.035330188 0.079999998 0.012213447 0 0.47704095 0
0.034701668 0.079999998 0.012211755 0 0.47704095 0
0.034073319 0.079999998 0.012210093 0 0.47704095 0
0.033445138 0.079999998 0.012208464 0 0.47704095 0
0.032817125 0.079999998 0.012206863 0 0.47704095 0
0.032189276 0.079999998 0.012205293 0 0.47704095 0
0.031561587 0.079999998 0.012203755 0 0.47704095 0
0.030934053 0.079999998 0.012202246 0 0.47704095 0
0.030306673 0.079999998 0.012200768 0 0.47704095 0
0.029679442 0.079999998 0.01219932 0 0.47704095 0
0.02905236 0.079999998 0.012197902 0 0.47704095 0
0.028425422 0.079999998 0.012196516 0 0.47704095 0
0.027798625 0.079999998 0.01219516 0 0.47704095 0
0.027171966 0.079999998 0.012193833 0 0.47704095 0
0.026545441 0.079999998 0.012192538 0 0.47704095 0
0.025919048 0.079999998 0.012191272 0 0.47704095 0
0.025292784 0.079999998 0.012190037 0 0.47704095 0
0.024666645 0.079999998 0.012188833 0 0.47704095 0
0.024040626 0.079999998 0.012187659 0 0.47704095 0
0.023414729 0.079999998 0.012186515 0 0.47704095 0
0.022788947 0.079999998 0.012185401 0 0.47704095 0
0.022163277 0.079999998 0.012184317 0 0.47704095 0
0.021537719 0.079999998 0.012183264 0 0.47704095 0
0.020912265 0.079999998 0.012182241 0 0.47704095 0
0.020286916 0.079999998 0.012181249 0 0.47704095 0
0.019661667 0.079999998 0.012180286 0 0.47704095 0
0.019036517 0.079999998 0.012179353 0 0.47704095 0
0.018411458 0.079999998 0.012178452 0 0.47704095 0
0.017786492 0.079999998 0.012177579 0 0.47704095 0
0.017161613 0.079999998 0.012176737 0 0.47704095 0
0.016536819 0.079999998 0.012175926 0 0.47704095 0
0.015912106 0.079999998 0.012175145 0 0.47704095 0
0.015287474 0.079999998 0.012174393 0 0.47704095 0
0.014662916 0.079999998 0.012173671 0 0.47704095 0
0.014038431 0.079999998 0.01217298 0 0.47704095 0
0.013414015 0.079999998 0.01217232 0 0.47704095 0
0.012789665 0.079999998 0.012171688 0 0.47704095 0
0.012165379 0.079999998 0.012171088 0 0.47704095 0
0.011541152 0.079999998 0.012170517 0 0.47704095 0
0.010916983 0.079999998 0.012169977 0 0.47704095 0
0.010292867 0.079999998 0.012169465 0 0.47704095 0
0.0096688028 0.079999998 0.012168985 0 0.47704095 0
0.009044786 0.079999998 0.012168535 0 0.47704095 0
0.0084208129 0.079999998 0.012168114 0 0.47704095 0
0.0077968827 0.079999998 0.012167724 0 0.47704095 0
0.0071729901 0.079999998 0.012167363 0 0.47704095 0
0.0065491335 0.079999998 0.012167034 0 0.47704095 0
0.0059253089 0.079999998 0.012166733 0 0.47704095 0
0.0053015137 0.079999998 0.012166463 0 0.47704095 0
0.0046777446 0.079999998 0.012166223 0 0.47704095 0
0.0040539987 0.079999998 0.012166013 0 0.47704095 0
0.0034302727 0.079999998 0.012165832 0 0.47704095 0
0.0028065636 0.079999998 0.012165682 0 0.47704095 0
0.0021828685 0.079999998 0.012165562 0 0.47704095 0
0.0015591842 0.079999998 0.012165472 0 0.47704095 0
0.00093550741 0.079999998 0.012165412 0 0.47704095 0
0.00031183529 0.079999998 0.012165383 0 0.47704095 0
0.039734937 0.079999998 0.011598804 0 0.47704095 0
0.039105117 0.079999998 0.011596994 0 0.47704095 0
0.038475495 0.079999998 0.011595216 0 0.47704095 0
0.037846062 0.079999998 0.011593465 0 0.47704095 0
0.03721682 0.079999998 0.011591744 0 0.47704095 0
0.036587764 0.079999998 0.011590051 0 0.47704095 0
0.035958886 0.079999998 0.011588388 0 0.47704095 0
0.035330188 0.079999998 0.011586754 0 0.47704095 0
0.034701668 0.079999998 0.011585149 0 0.47704095 0
0.034073319 0.079999998 0.011583573 0 0.47704095 0
0.033445138 0.079999998 0.011582026 0 0.47704095 0
0.032817125 0.079999998 0.011580508 0 0.47704095 0
0.032189276 0.079999998 0.011579019 0 0.47704095 0
0.031561587 0.079999998 0.011577559 0 0.47704095 0
0.030934053 0.079999998 0.011576127 0 0.47704095 0
0.030306673 0.079999998 0.011574726 0 0.47704095 0
0.029679442 0.079999998 0.011573352 0 0.47704095 0
0.02905236 0.079999998 0.011572007 0 0.47704095 0
0.028425422 0.079999998 0.011570692 0 0.47704095 0
0.027798625 0.079999998 0.011569405 0 0.47704095 0
0.027171966 0.079999998 0.011568147 0 0.47704095 0
0.026545441 0.079999998 0.011566918 0 0.47704095 0
0.025919048 0.079999998 0.011565718 0 0.47704095 0
0.025292784 0.079999998 0.011564546 0 0.47704095 0
0.024666645 0.079999998 0.011563404 0 0.47704095 0
0.024040626 0.079999998 0.011562289 0 0.47704095 0
0.023414729 0.079999998 0.011561204 0 0.47704095 0
0.022788947 0.079999998 0.011560147 0 0.47704095 0
0.022163277 0.079999998 0.011559119 0 0.47704095 0
0.021537719 0.079999998 0.01155812 0 0.47704095 0
0.020912265 0.079999998 0.01155715 0 0.47704095 0
0.020286916 0.079999998 0.011556208 0 0.47704095 0
0.019661667 0.079999998 0.011555295 0 0.47704095 0
0.019036517 0.079999998 0.01155441 0 0.47704095 0
0.018411458 0.079999998 0.011553554 0 0.47704095 0
0.017786492 0.079999998 0.011552727 0 0.47704095 0
0.017161613 0.079999998 0.011551928 0 0.47704095 0
0.016536819 0.079999998 0.011551159 0 0.47704095 0
0.015912106 0.079999998 0.011550417 0 0.47704095 0
0.015287474 0.079999998 0.011549704 0 0.47704095 0
0.014662916 0.079999998 0.011549019 0 0.47704095 0
0.014038431 0.079999998 0.011548364 0 0.47704095 0
0.013414015 0.079999998 0.011547737 0 0.47704095 0
0.012789665 0.079999998 0.011547138 0 0.47704095 0
0.012165379 0.079999998 0.011546568 0 0.47704095 0
0.011541152 0.079999998 0.011546027 0 0.47704095 0
0.010916983 0.079999998 0.011545514 0 0.47704095 0
0.010292867 0.079999998 0.011545029 0 0.47704095 0
0.0096688028 0.079999998 0.011544574 0 0.47704095 0
0.009044786 0.079999998 0.011544147 0 0.47704095 0
0.0084208129 0.079999998 0.011543748 0 0.47704095 0
0.0077968827 0.079999998 0.011543377 0 0.47704095 0
0.0071729901 0.079999998 0.011543036 0 0.47704095 0
0.0065491335 0.079999998 0.011542722 0 0.47704095 0
0.0059253089 0.079999998 0.011542438 0 0.47704095 0
0.0053015137 0.079999998 0.011542181 0 0.47704095 0
0.0046777446 0.079999998 0.011541953 0 0.47704095 0
0.0040539987 0.079999998 0.011541754 0 0.47704095 0
0.0034302727 0.079999998 0.011541583 0 0.47704095 0
0.0028065636 0.079999998 0.01154144 0 0.47704095 0
0.0021828685 0.079999998 0.011541327 0 0.47704095 0
0.0015591842 0.079999998 0.011541241 0 0.47704095 0
0.00093550741 0.079999998 0.011541184 0 0.47704095 0
0.00031183529 0.079999998 0.011541156 0 0.47704095 0
0.039734937 0.079999998 0.010971516 0 0.47704095 0
0.039105117 0.079999998 0.010969806 0 0.47704095 0
0.038475495 0.079999998 0.010968122 0 0.47704095 0
0.037846062 0.079999998 0.010966466 0 0.47704095 0
0.03721682 0.079999998 0.010964838 0 0.47704095 0
0.036587764 0.079999998 0.010963237 0 0.47704095 0
0.035958886 0.079999998 0.010961664 0 0.47704095 0
0.035330188 0.079999998 0.010960119 0 0.47704095 0
0.034701668 0.079999998 0.0109586 0 0.47704095 0
0.034073319 0.079999998 0.01095711 0 0.47704095 0
0.033445138 0.079999998 0.010955646 0 0.47704095 0
0.032817125 0.079999998 0.010954211 0 0.47704095 0
0.032189276 0.079999998 0.010952801 0 0.47704095 0
0.031561587 0.079999998 0.01095142 0 0.47704095 0
0.030934053 0.079999998 0.010950067 0 0.47704095 0
0.030306673 0.079999998 0.01094874 0 0.47704095 0
0.029679442 0.079999998 0.010947441 0 0.47704095 0
0.02905236 0.079999998 0.010946169 0 0.47704095 0
0.028425422 0.079999998 0.010944925 0 0.47704095 0
0.027798625 0.079999998 0.010943708 0 0.47704095 0
0.027171966 0.079999998 0.010942518 0 0.47704095 0
0.026545441 0.079999998 0.010941355 0 0.47704095 0
0.025919048 0.079999998 0.010940219 0 0.47704095 0
0.025292784 0.079999998 0.010939111 0 0.47704095 0
0.024666645 0.079999998 0.010938031 0 0.47704095 0
0.024040626 0.079999998 0.010936976 0 0.47704095 0
0.023414729 0.079999998 0.01093595 0 0.47704095 0
0.022788947 0.079999998 0.010934951 0 0.47704095 0
0.022163277 0.079999998 0.010933978 0 0.47704095 0
0.021537719 0.079999998 0.010933033 0 0.47704095 0
0.020912265 0.079999998 0.010932115 0 0.47704095 0
0.020286916 0.079999998 0.010931224 0 0.47704095 0
0.019661667 0.079999998 0.01093036 0 0.47704095 0
0.019036517 0.079999998 0.010929524 0 0.47704095 0
0.018411458 0.079999998 0.010928714 0 0.47704095 0
0.017786492 0.079999998 0.010927931 0 0.47704095 0
0.017161613 0.079999998 0.010927176 0 0.47704095 0
0.016536819 0.079999998 0.010926448 0 0.47704095 0
0.015912106 0.079999998 0.010925747 0 0.47704095 0
0.015287474 0.079999998 0.010925072 0 0.47704095 0
0.014662916 0.079999998 0.010924425 0 0.47704095 0
0.014038431 0.079999998 0.010923805 0 0.47704095 0
0.013414015 0.079999998 0.010923211 0 0.47704095 0
0.012789665 0.079999998 0.010922645 0 0.47704095 0
0.012165379 0.079999998 0.010922106 0 0.47704095 0
0.011541152 0.079999998 0.010921594 0 0.47704095 0
0.010916983 0.079999998 0.010921109 0 0.47704095 0
0.010292867 0.079999998 0.01092065 0 0.47704095 0
0.0096688028 0.079999998 0.010920219 0 0.47704095 0
0.009044786 0.079999998 0.010919815 0 0.47704095 0
0.0084208129 0.079999998 0.010919438 0 0.47704095 0
0.0077968827 0.079999998 0.010919088 0 0.47704095 0
0.0071729901 0.079999998 0.010918764 0 0.47704095 0
0.0065491335 0.079999998 0.010918467 0 0.47704095 0
0.0059253089 0.079999998 0.010918198 0 0.47704095 0
0.0053015137 0.079999998 0.010917956 0 0.47704095 0
0.0046777446 0.079999998 0.01091774 0 0.47704095 0
0.0040539987 0.079999998 0.010917552 0 0.47704095 0
0.0034302727 0.079999998 0.01091739 0 0.47704095 0
0.0028065636 0.079999998 0.010917256 0 0.47704095 0
0.0021828685 0.079999998 0.010917148 0 0.47704095 0
0.0015591842 0.079999998 0.010917067 0 0.47704095 0
0.00093550741 0.079999998 0.010917013 0 0.47704095 0
0.00031183529 0.079999998 0.010916987 0 0.47704095 0
0.039734937 0.079999998 0.010344283 0 0.47704095 0
0.039105117 0.079999998 0.01034267 0 0.47704095 0
0.038475495 0.079999998 0.010341083 0 0.47704095 0
0.037846062 0.079999998 0.010339522 0 0.47704095 0
0.03721682 0.079999998 0.010337987 0 0.47704095 0
0.036587764 0.079999998 0.010336477 0 0.47704095 0
0.035958886 0.079999998 0.010334994 0 0.47704095 0
0.035330188 0.079999998 0.010333537 0 0.47704095 0
0.034701668 0.079999998 0.010332106 0 0.47704095 0
0.034073319 0.079999998 0.0103307 0 0.47704095 0
0.033445138 0.079999998 0.01032932 0 0.47704095 0
0.032817125 0.079999998 0.010327966 0 0.47704095 0
0.032189276 0.079999998 0.010326639 0 0.47704095 0
0.031561587 0.079999998 0.010325336 0 0.47704095 0
0.030934053 0.079999998 0.01032406 0 0.47704095 0
0.030306673 0.079999998 0.010322809 0 0.47704095 0
0.029679442 0.079999998 0.010321585 0 0.47704095 0
0.02905236 0.079999998 0.010320385 0 0.47704095 0
0.028425422 0.079999998 0.010319212 0 0.47704095 0
0.027798625 0.079999998 0.010318064 0 0.47704095 0
0.027171966 0.079999998 0.010316943 0 0.47704095 0
0.026545441 0.079999998 0.010315846 0 0.47704095 0
0.025919048 0.079999998 0.010314776 0 0.47704095 0
0.025292784 0.079999998 0.010313731 0 0.47704095 0
0.024666645 0.079999998 0.010312712 0 0.47704095 0
0.024040626 0.079999998 0.010311718 0 0.47704095 0
0.023414729 0.079999998 0.01031075 0 0.47704095 0
0.022788947 0.079999998 0.010309808 0 0.47704095 0
0.022163277 0.079999998 0.010308891 0 0.47704095 0
0.021537719 0.079999998 0.010308 0 0.47704095 0
0.020912265 0.079999998 0.010307134 0 0.47704095 0
0.020286916 0.079999998 0.010306294 0 0.47704095 0
0.019661667 0.079999998 0.01030548 0 0.47704095 0
0.019036517 0.079999998 0.010304691 0 0.47704095 0
0.018411458 0.079999998 0.010303928 0 0.47704095 0
0.017786492 0.079999998 0.01030319 0 0.47704095 0
0.017161613 0.079999998 0.010302478 0 0.47704095 0
0.016536819 0.079999998 0.010301791 0 0.47704095 0
0.015912106 0.079999998 0.01030113 0 0.47704095 0
0.015287474 0.079999998 0.010300494 0 0.47704095 0
0.014662916 0.079999998 0.010299884 0 0.47704095 0
0.014038431 0.079999998 0.010299299 0 0.47704095 0
0.013414015 0.079999998 0.01029874 0 0.47704095 0
0.012789665 0.079999998 0.010298206 0 0.47704095 0
0.012165379 0.079999998 0.010297698 0 0.47704095 0
0.011541152 0.079999998 0.010297215 0 0.47704095 0
0.010916983 0.079999998 0.010296757 0 0.47704095 0
0.010292867 0.079999998 0.010296325 0 0.47704095 0
0.0096688028 0.079999998 0.010295919 0 0.47704095 0
0.009044786 0.079999998 0.010295537 0 0.47704095 0
0.0084208129 0.079999998 0.010295182 0 0.47704095 0
0.0077968827 0.079999998 0.010294852 0 0.47704095 0
0.0071729901 0.079999998 0.010294546 0 0.47704095 0
0.0065491335 0.079999998 0.010294267 0 0.47704095 0
0.0059253089 0.079999998 0.010294014 0 0.47704095 0
0.0053015137 0.079999998 0.010293785 0 0.47704095 0
0.0046777446 0.079999998 0.010293582 0 0.47704095 0
0.0040539987 0.079999998 0.010293404 0 0.47704095 0
0.0034302727 0.079999998 0.010293251 0 0.47704095 0
0.0028065636 0.079999998 0.010293124 0 0.47704095 0
0.0021828685 0.079999998 0.010293023 0 0.47704095 0
0.0015591842 0.079999998 0.010292946 0 0.47704095 0
0.00093550741 0.079999998 0.010292896 0 0.47704095 0
0.00031183529 0.079999998 0.01029287 0 0.47704095 0
0.039734937 0.079999998 0.0097171012 0 0.47704095 0
0.039105117 0.079999998 0.009715586 0 0.47704095 0
0.038475495 0.079999998 0.0097140949 0 0.47704095 0
0.037846062 0.079999998 0.0097126281 0 0.47704095 0
0.03721682 0.079999998 0.0097111864 0 0.47704095 0
0.036587764 0.079999998 0.0097097689 0 0.47704095 0
0.035958886 0.079999998 0.0097083757 0 0.47704095 0
0.035330188 0.079999998 0.0097070066 0 0.47704095 0
0.034701668 0.079999998 0.0097056618 0 0.47704095 0
0.034073319 0.079999998 0.0097043412 0 0.47704095 0
0.033445138 0.079999998 0.0097030457 0 0.47704095 0
0.032817125 0.079999998 0.0097017735 0 0.47704095 0
0.032189276 0.079999998 0.0097005265 0 0.47704095 0
0.031561587 0.079999998 0.0096993027 0 0.47704095 0
0.030934053 0.079999998 0.0096981041 0 0.47704095 0
0.030306673 0.079999998 0.0096969288 0 0.47704095 0
0.029679442 0.079999998 0.0096957786 0 0.47704095 0
0.02905236 0.079999998 0.0096946517 0 0.47704095 0
0.028425422 0.079999998 0.0096935499 0 0.47704095 0
0.027798625 0.079999998 0.0096924715 0 0.47704095 0
0.027171966 0.079999998 0.0096914181 0 0.47704095 0
0.026545441 0.079999998 0.0096903881 0 0.47704095 0
0.025919048 0.079999998 0.0096893823 0 0.47704095 0
0.025292784 0.079999998 0.0096884007 0 0.47704095 0
0.024666645 0.079999998 0.0096874433 0 0.47704095 0
0.024040626 0.079999998 0.0096865101 0 0.47704095 0
0.023414729 0.079999998 0.0096856011 0 0.47704095 0
0.022788947 0.079999998 0.0096847164 0 0.47704095 0
0.022163277 0.079999998 0.0096838549 0 0.47704095 0
0.021537719 0.079999998 0.0096830176 0 0.47704095 0
0.020912265 0.079999998 0.0096822046 0 0.47704095 0
0.020286916 0.079999998 0.0096814157 0 0.47704095 0
0.019661667 0.079999998 0.0096806502 0 0.47704095 0
0.019036517 0.079999998 0.0096799098 0 0.47704095 0
0.018411458 0.079999998 0.0096791927 0 0.47704095 0
0.017786492 0.079999998 0.0096784998 0 0.47704095 0
0.017161613 0.079999998 0.0096778302 0 0.47704095 0
0.016536819 0.079999998 0.0096771857 0 0.47704095 0
0.015912106 0.079999998 0.0096765645 0 0.47704095 0
0.015287474 0.079999998 0.0096759666 0 0.47704095 0
0.014662916 0.079999998 0.0096753938 0 0.47704095 0
0.014038431 0.079999998 0.0096748443 0 0.47704095 0
0.013414015 0.079999998 0.0096743191 0 0.47704095 0
0.012789665 0.079999998 0.009673818 0 0.47704095 0
0.012165379 0.079999998 0.0096733402 0 0.47704095 0
0.011541152 0.079999998 0.0096728867 0 0.47704095 0
0.010916983 0.079999998 0.0096724564 0 0.47704095 0
0.010292867 0.079999998 0.0096720513 0 0.47704095 0
0.0096688028 0.079999998 0.0096716695 0 0.47704095 0
0.009044786 0.079999998 0.0096713109 0 0.47704095 0
0.0084208129 0.079999998 0.0096709765 0 0.47704095 0
0.0077968827 0.079999998 0.0096706664 0 0.47704095 0
0.0071729901 0.079999998 0.0096703805 0 0.47704095 0
0.0065491335 0.079999998 0.0096701179 0 0.47704095 0
0.0059253089 0.079999998 0.0096698795 0 0.47704095 0
0.0053015137 0.079999998 0.0096696643 0 0.47704095 0
0.0046777446 0.079999998 0.0096694734 0 0.47704095 0
0.0040539987 0.079999998 0.0096693067 0 0.47704095 0
0.0034302727 0.079999998 0.0096691633 0 0.47704095 0
0.0028065636 0.079999998 0.0096690441 0 0.47704095 0
0.0021828685 0.079999998 0.0096689491 0 0.47704095 0
0.0015591842 0.079999998 0.0096688773 0 0.47704095 0
0.00093550741 0.079999998 0.0096688289 0 0.47704095 0
0.00031183529 0.079999998 0.0096688056 0 0.47704095 0
0.039734937 0.079999998 0.0090899672 0 0.47704095 0
0.039105117 0.079999998 0.0090885498 0 0.47704095 0
0.038475495 0.079999998 0.0090871546 0 0.47704095 0
0.037846062 0.079999998 0.0090857828 0 0.47704095 0
0.03721682 0.079999998 0.0090844342 0 0.47704095 0
0.036587764 0.079999998 0.009083108 0 0.47704095 0
0.035958886 0.079999998 0.0090818042 0 0.47704095 0
0.035330188 0.079999998 0.0090805236 0 0.47704095 0
0.034701668 0.079999998 0.0090792663 0 0.47704095 0
0.034073319 0.079999998 0.0090780305 0 0.47704095 0
0.033445138 0.079999998 0.0090768188 0 0.47704095 0
0.032817125 0.079999998 0.0090756286 0 0.47704095 0
0.032189276 0.079999998 0.0090744616 0 0.47704095 0
0.031561587 0.079999998 0.0090733171 0 0.47704095 0
0.030934053 0.079999998 0.0090721957 0 0.47704095 0
0.030306673 0.079999998 0.0090710968 0 0.47704095 0
0.029679442 0.079999998 0.0090700202 0 0.47704095 0
0.02905236 0.079999998 0.0090689668 0 0.47704095 0
0.028425422 0.079999998 0.0090679359 0 0.47704095 0
0.027798625 0.079999998 0.0090669272 0 0.47704095 0
0.027171966 0.079999998 0.0090659419 0 0.47704095 0
0.026545441 0.079999998 0.009064978 0 0.47704095 0
0.025919048 0.079999998 0.0090640374 0 0.47704095 0
0.025292784 0.079999998 0.0090631191 0 0.47704095 0
0.024666645 0.079999998 0.0090622241 0 0.47704095 0
0.024040626 0.079999998 0.0090613505 0 0.47704095 0
0.023414729 0.079999998 0.0090605002 0 0.47704095 0
0.022788947 0.079999998 0.0090596722 0 0.47704095 0
0.022163277 0.079999998 0.0090588666 0 0.47704095 0
0.021537719 0.079999998 0.0090580834 0 0.47704095 0
0.020912265 0.079999998 0.0090573225 0 0.47704095 0
0.020286916 0.079999998 0.0090565849 0 0.47704095 0
0.019661667 0.079999998 0.0090558687 0 0.47704095 0
0.019036517 0.079999998 0.0090551758 0 0.47704095 0
0.018411458 0.079999998 0.0090545053 0 0.47704095 0
0.017786492 0.079999998 0.0090538571 0 0.47704095 0
0.017161613 0.079999998 0.0090532312 0 0.47704095 0
0.016536819 0.079999998 0.0090526277 0 0.47704095 0
0.015912106 0.079999998 0.0090520466 0 0.47704095 0
0.015287474 0.079999998 0.0090514878 0 0.47704095 0
0.014662916 0.079999998 0.0090509513 0 0.47704095 0
0.014038431 0.079999998 0.0090504372 0 0.47704095 0
0.013414015 0.079999998 0.0090499464 0 0.47704095 0
0.012789665 0.079999998 0.0090494771 0 0.47704095 0
0.012165379 0.079999998 0.00904903 0 0.47704095 0
0.011541152 0.079999998 0.0090486063 0 0.47704095 0
0.010916983 0.079999998 0.0090482039 0 0.47704095 0
0.010292867 0.079999998 0.009047824 0 0.47704095 0
0.0096688028 0.079999998 0.0090474673 0 0.47704095 0
0.009044786 0.079999998 0.009047132 0 0.47704095 0
0.0084208129 0.079999998 0.00904682 0 0.47704095 0
0.0077968827 0.079999998 0.0090465294 0 0.47704095 0
0.0071729901 0.079999998 0.0090462612 0 0.47704095 0
0.0065491335 0.079999998 0.0090460163 0 0.47704095 0
0.0059253089 0.079999998 0.0090457927 0 0.47704095 0
0.0053015137 0.079999998 0.0090455916 0 0.47704095 0
0.0046777446 0.079999998 0.0090454137 0 0.47704095 0
0.0040539987 0.079999998 0.0090452572 0 0.47704095 0
0.0034302727 0.079999998 0.0090451231 0 0.47704095 0
0.0028065636 0.079999998 0.0090450114 0 0.47704095 0
0.0021828685 0.079999998 0.009044922 0 0.47704095 0
0.0015591842 0.079999998 0.0090448549 0 0.47704095 0
0.00093550741 0.079999998 0.0090448102 0 0.47704095 0
0.00031183529 0.079999998 0.0090447888 0 0.47704095 0
0.039734937 0.079999998 0.0084628779 0 0.47704095 0
0.039105117 0.079999998 0.0084615583 0 0.47704095 0
0.038475495 0.079999998 0.00846026 0 0.47704095 0
0.037846062 0.079999998 0.0084589822 0 0.47704095 0
0.03721682 0.079999998 0.0084577268 0 0.47704095 0
0.036587764 0.079999998 0.0084564919 0 0.47704095 0
0.035958886 0.079999998 0.0084552784 0 0.47704095 0
0.035330188 0.079999998 0.0084540863 0 0.47704095 0
0.034701668 0.079999998 0.0084529147 0 0.47704095 0
0.034073319 0.079999998 0.0084517654 0 0.47704095 0
0.033445138 0.079999998 0.0084506366 0 0.47704095 0
0.032817125 0.079999998 0.0084495284 0 0.47704095 0
0.032189276 0.079999998 0.0084484424 0 0.47704095 0
0.031561587 0.079999998 0.008447377 0 0.47704095 0
0.030934053 0.079999998 0.008446333 0 0.47704095 0
0.030306673 0.079999998 0.0084453095 0 0.47704095 0
0.029679442 0.079999998 0.0084443074 0 0.47704095 0
0.02905236 0.079999998 0.0084433267 0 0.47704095 0
0.028425422 0.079999998 0.0084423665 0 0.47704095 0
0.027798625 0.079999998 0.0084414277 0 0.47704095 0
0.027171966 0.079999998 0.0084405094 0 0.47704095 0
0.026545441 0.079999998 0.0084396126 0 0.47704095 0
0.025919048 0.079999998 0.0084387371 0 0.47704095 0
0.025292784 0.079999998 0.0084378822 0 0.47704095 0
0.024666645 0.079999998 0.0084370486 0 0.47704095 0
0.024040626 0.079999998 0.0084362356 0 0.47704095 0
0.023414729 0.079999998 0.008435444 0 0.47704095 0
0.022788947 0.079999998 0.0084346728 0 0.47704095 0
0.022163277 0.079999998 0.0084339231 0 0.47704095 0
0.021537719 0.079999998 0.0084331939 0 0.47704095 0
0.020912265 0.079999998 0.0084324852 0 0.47704095 0
0.020286916 0.079999998 0.0084317988 0 0.47704095 0
0.019661667 0.079999998 0.008431132 0 0.47704095 0
0.019036517 0.079999998 0.0084304865 0 0.47704095 0
0.018411458 0.079999998 0.0084298626 0 0.47704095 0
0.017786492 0.079999998 0.0084292581 0 0.47704095 0
0.017161613 0.079999998 0.0084286761 0 0.47704095 0
0.016536819 0.079999998 0.0084281145 0 0.47704095 0
0.015912106 0.079999998 0.0084275734 0 0.47704095 0
0.015287474 0.079999998 0.0084270528 0 0.47704095 0
0.014662916 0.079999998 0.0084265536 0 0.47704095 0
0.014038431 0.079999998 0.0084260749 0 0.47704095 0
0.013414015 0.079999998 0.0084256176 0 0.47704095 0
0.012789665 0.079999998 0.0084251808 0 0.47704095 0
0.012165379 0.079999998 0.0084247654 0 0.47704095 0
0.011541152 0.079999998 0.0084243696 0 0.47704095 0
0.010916983 0.079999998 0.0084239962 0 0.47704095 0
0.010292867 0.079999998 0.0084236423 0 0.47704095 0
0.0096688028 0.079999998 0.0084233098 0 0.47704095 0
0.009044786 0.079999998 0.0084229978 0 0.47704095 0
0.0084208129 0.079999998 0.0084227072 0 0.47704095 0
0.0077968827 0.079999998 0.0084224371 0 0.47704095 0
0.0071729901 0.079999998 0.0084221875 0 0.47704095 0
0.0065491335 0.079999998 0.0084219584 0 0.47704095 0
0.0059253089 0.079999998 0.0084217507 0 0.47704095 0
0.0053015137 0.079999998 0.0084215635 0 0.47704095 0
0.0046777446 0.079999998 0.0084213978 0 0.47704095 0
0.0040539987 0.079999998 0.0084212525 0 0.47704095 0
0.0034302727 0.079999998 0.0084211277 0 0.47704095 0
0.0028065636 0.079999998 0.0084210234 0 0.47704095 0
0.0021828685 0.079999998 0.0084209405 0 0.47704095 0
0.0015591842 0.079999998 0.0084208781 0 0.47704095 0
0.00093550741 0.079999998 0.0084208371 0 0.47704095 0
0.00031183529 0.079999998 0.0084208157 0 0.47704095 0
0.039734937 0.079999998 0.0078358306 0 0.47704095 0
0.039105117 0.079999998 0.0078346087 0 0.47704095 0
0.038475495 0.079999998 0.0078334063 0 0.47704095 0
0.037846062 0.079999998 0.0078322235 0 0.47704095 0
0.03721682 0.079999998 0.0078310603 0 0.47704095 0
0.036587764 0.079999998 0.0078299176 0 0.47704095 0
0.035958886 0.079999998 0.0078287935 0 0.47704095 0
0.035330188 0.079999998 0.0078276899 0 0.47704095 0
0.034701668 0.079999998 0.0078266058 0 0.47704095 0
0.034073319 0.079999998 0.0078255413 0 0.47704095 0
0.033445138 0.079999998 0.0078244954 0 0.47704095 0
0.032817125 0.079999998 0.00782347 0 0.47704095 0
0.032189276 0.079999998 0.0078224642 0 0.47704095 0
0.031561587 0.079999998 0.0078214779 0 0.47704095 0
0.030934053 0.079999998 0.0078205112 0 0.47704095 0
0.030306673 0.079999998 0.0078195641 0 0.47704095 0
0.029679442 0.079999998 0.0078186356 0 0.47704095 0
0.02905236 0.079999998 0.0078177275 0 0.47704095 0
0.028425422 0.079999998 0.007816839 0 0.47704095 0
0.027798625 0.079999998 0.0078159692 0 0.47704095 0
0.027171966 0.079999998 0.0078151198 0 0.47704095 0
0.026545441 0.079999998 0.0078142891 0 0.47704095 0
0.025919048 0.079999998 0.0078134779 0 0.47704095 0
0.025292784 0.079999998 0.0078126872 0 0.47704095 0
0.024666645 0.079999998 0.0078119147 0 0.47704095 0
0.024040626 0.079999998 0.0078111622 0 0.47704095 0
0.023414729 0.079999998 0.0078104287 0 0.47704095 0
0.022788947 0.079999998 0.0078097149 0 0.47704095 0
0.022163277 0.079999998 0.0078090206 0 0.47704095 0
0.021537719 0.079999998 0.0078083458 0 0.47704095 0
0.020912265 0.079999998 0.0078076902 0 0.47704095 0
0.020286916 0.079999998 0.0078070536 0 0.47704095 0
0.019661667 0.079999998 0.0078064366 0 0.47704095 0
0.019036517 0.079999998 0.0078058392 0 0.47704095 0
0.018411458 0.079999998 0.0078052608 0 0.47704095 0
0.017786492 0.079999998 0.007804702 0 0.47704095 0
0.017161613 0.079999998 0.0078041628 0 0.47704095 0
0.016536819 0.079999998 0.0078036422 0 0.47704095 0
0.015912106 0.079999998 0.0078031416 0 0.47704095 0
0.015287474 0.079999998 0.0078026601 0 0.47704095 0
0.014662916 0.079999998 0.0078021977 0 0.47704095 0
0.014038431 0.079999998 0.0078017549 0 0.47704095 0
0.013414015 0.079999998 0.0078013311 0 0.47704095 0
0.012789665 0.079999998 0.0078009269 0 0.47704095 0
0.012165379 0.079999998 0.0078005418 0 0.47704095 0
0.011541152 0.079999998 0.0078001758 0 0.47704095 0
0.010916983 0.079999998 0.0077998294 0 0.47704095 0
0.010292867 0.079999998 0.007799502 0 0.47704095 0
0.0096688028 0.079999998 0.0077991942 0 0.47704095 0
0.009044786 0.079999998 0.0077989055 0 0.47704095 0
0.0084208129 0.079999998 0.0077986359 0 0.47704095 0
0.0077968827 0.079999998 0.0077983858 0 0.47704095 0
0.0071729901 0.079999998 0.0077981548 0 0.47704095 0
0.0065491335 0.079999998 0.007797943 0 0.47704095 0
0.0059253089 0.079999998 0.0077977506 0 0.47704095 0
0.0053015137 0.079999998 0.0077975774 0 0.47704095 0
0.0046777446 0.079999998 0.0077974238 0 0.47704095 0
0.0040539987 0.079999998 0.0077972892 0 0.47704095 0
0.0034302727 0.079999998 0.0077971737 0 0.47704095 0
0.0028065636 0.079999998 0.0077970773 0 0.47704095 0
0.0021828685 0.079999998 0.0077970005 0 0.47704095 0
0.0015591842 0.079999998 0.0077969427 0 0.47704095 0
0.00093550741 0.079999998 0.0077969041 0 0.47704095 0
0.00031183529 0.079999998 0.007796885 0 0.47704095 0
0.039734937 0.079999998 0.0072088214 0 0.47704095 0
0.039105117 0.079999998 0.0072076973 0 0.47704095 0
0.038475495 0.079999998 0.0072065913 0 0.47704095 0
0.037846062 0.079999998 0.0072055035 0 0.47704095 0
0.03721682 0.079999998 0.0072044334 0 0.47704095 0
0.036587764 0.079999998 0.007203382 0 0.47704095 0
0.035958886 0.079999998 0.0072023482 0 0.47704095 0
0.035330188 0.079999998 0.0072013326 0 0.47704095 0
0.034701668 0.079999998 0.0072003352 0 0.47704095 0
0.034073319 0.079999998 0.0071993554 0 0.47704095 0
0.033445138 0.079999998 0.0071983943 0 0.47704095 0
0.032817125 0.079999998 0.0071974504 0 0.47704095 0
0.032189276 0.079999998 0.0071965251 0 0.47704095 0
0.031561587 0.079999998 0.0071956175 0 0.47704095 0
0.030934053 0.079999998 0.0071947281 0 0.47704095 0
0.030306673 0.079999998 0.0071938564 0 0.47704095 0
0.029679442 0.079999998 0.0071930028 0 0.47704095 0
0.02905236 0.079999998 0.0071921675 0 0.47704095 0
0.028425422 0.079999998 0.0071913498 0 0.47704095 0
0.027798625 0.079999998 0.0071905497 0 0.47704095 0
0.027171966 0.079999998 0.0071897679 0 0.47704095 0
0.026545441 0.079999998 0.0071890042 0 0.47704095 0
0.025919048 0.079999998 0.0071882582 0 0.47704095 0
0.025292784 0.079999998 0.0071875299 0 0.47704095 0
0.024666645 0.079999998 0.0071868198 0 0.47704095 0
0.024040626 0.079999998 0.0071861274 0 0.47704095 0
0.023414729 0.079999998 0.0071854526 0 0.47704095 0
0.022788947 0.079999998 0.007184796 0 0.47704095 0
0.022163277 0.079999998 0.0071841571 0 0.47704095 0
0.021537719 0.079999998 0.007183536 0 0.47704095 0
0.020912265 0.079999998 0.0071829329 0 0.47704095 0
0.020286916 0.079999998 0.0071823476 0 0.47704095 0
0.019661667 0.079999998 0.0071817799 0 0.47704095 0
0.019036517 0.079999998 0.0071812305 0 0.47704095 0
0.018411458 0.079999998 0.0071806982 0 0.47704095 0
0.017786492 0.079999998 0.0071801841 0 0.47704095 0
0.017161613 0.079999998 0.0071796877 0 0.47704095 0
0.016536819 0.079999998 0.0071792095 0 0.47704095 0
0.015912106 0.079999998 0.0071787485 0 0.47704095 0
0.015287474 0.079999998 0.0071783056 0 0.47704095 0
0.014662916 0.079999998 0.00717788 0 0.47704095 0
0.014038431 0.079999998 0.0071774726 0 0.47704095 0
0.013414015 0.079999998 0.0071770828 0 0.47704095 0
0.012789665 0.079999998 0.0071767108 0 0.47704095 0
0.012165379 0.079999998 0.0071763564 0 0.47704095 0
0.011541152 0.079999998 0.0071760202 0 0.47704095 0
0.010916983 0.079999998 0.0071757012 0 0.47704095 0
0.010292867 0.079999998 0.0071754004 0 0.47704095 0
0.0096688028 0.079999998 0.0071751168 0 0.47704095 0
0.009044786 0.079999998 0.0071748514 0 0.47704095 0
0.0084208129 0.079999998 0.0071746036 0 0.47704095 0
0.0077968827 0.079999998 0.0071743731 0 0.47704095 0
0.0071729901 0.079999998 0.0071741608 0 0.47704095 0
0.0065491335 0.079999998 0.0071739662 0 0.47704095 0
0.0059253089 0.079999998 0.0071737892 0 0.47704095 0
0.0053015137 0.079999998 0.0071736299 0 0.47704095 0
0.0046777446 0.079999998 0.0071734879 0 0.47704095 0
0.0040539987 0.079999998 0.0071733641 0 0.47704095 0
0.0034302727 0.079999998 0.0071732579 0 0.47704095 0
0.0028065636 0.079999998 0.0071731694 0 0.47704095 0
0.0021828685 0.079999998 0.0071730986 0 0.47704095 0
0.0015591842 0.079999998 0.0071730455 0 0.47704095 0
0.00093550741 0.079999998 0.0071730101 0 0.47704095 0
0.00031183529 0.079999998 0.0071729925 0 0.47704095 0
0.039734937 0.079999998 0.0065818485 0 0.47704095 0
0.039105117 0.079999998 0.0065808222 0 0.47704095 0
0.038475495 0.079999998 0.0065798122 0 0.47704095 0
0.037846062 0.079999998 0.0065788189 0 0.47704095 0
0.03721682 0.079999998 0.0065778419 0 0.47704095 0
0.036587764 0.079999998 0.0065768817 0 0.47704095 0
0.035958886 0.079999998 0.0065759378 0 0.47704095 0
0.035330188 0.079999998 0.0065750107 0 0.47704095 0
0.034701668 0.079999998 0.0065740999 0 0.47704095 0
0.034073319 0.079999998 0.0065732058 0 0.47704095 0
0.033445138 0.079999998 0.006572328 0 0.47704095 0
0.032817125 0.079999998 0.0065714666 0 0.47704095 0
0.032189276 0.079999998 0.0065706214 0 0.47704095 0
0.031561587 0.079999998 0.006569793 0 0.47704095 0
0.030934053 0.079999998 0.0065689809 0 0.47704095 0
0.030306673 0.079999998 0.0065681851 0 0.47704095 0
0.029679442 0.079999998 0.0065674055 0 0.47704095 0
0.02905236 0.079999998 0.0065666428 0 0.47704095 0
0.028425422 0.079999998 0.0065658963 0 0.47704095 0
0.027798625 0.079999998 0.0065651657 0 0.47704095 0
0.027171966 0.079999998 0.0065644523 0 0.47704095 0
0.026545441 0.079999998 0.0065637548 0 0.47704095 0
0.025919048 0.079999998 0.0065630735 0 0.47704095 0
0.025292784 0.079999998 0.0065624085 0 0.47704095 0
0.024666645 0.079999998 0.0065617599 0 0.47704095 0
0.024040626 0.079999998 0.006561128 0 0.47704095 0
0.023414729 0.079999998 0.0065605119 0 0.47704095 0
0.022788947 0.079999998 0.0065599126 0 0.47704095 0
0.022163277 0.079999998 0.0065593291 0 0.47704095 0
0.021537719 0.079999998 0.0065587619 0 0.47704095 0
0.020912265 0.079999998 0.0065582115 0 0.47704095 0
0.020286916 0.079999998 0.0065576769 0 0.47704095 0
0.019661667 0.079999998 0.0065571587 0 0.47704095 0
0.019036517 0.079999998 0.0065566567 0 0.47704095 0
0.018411458 0.079999998 0.006556171 0 0.47704095 0
0.017786492 0.079999998 0.0065557016 0 0.47704095 0
0.017161613 0.079999998 0.0065552485 0 0.47704095 0
0.016536819 0.079999998 0.0065548117 0 0.47704095 0
0.015912106 0.079999998 0.0065543908 0 0.47704095 0
0.015287474 0.079999998 0.0065539866 0 0.47704095 0
0.014662916 0.079999998 0.0065535982 0 0.47704095 0
0.014038431 0.079999998 0.0065532262 0 0.47704095 0
0.013414015 0.079999998 0.0065528699 0 0.47704095 0
0.012789665 0.079999998 0.0065525305 0 0.47704095 0
0.012165379 0.079999998 0.0065522068 0 0.47704095 0
0.011541152 0.079999998 0.0065518999 0 0.47704095 0
0.010916983 0.079999998 0.0065516089 0 0.47704095 0
0.010292867 0.079999998 0.0065513337 0 0.47704095 0
0.0096688028 0.079999998 0.0065510753 0 0.47704095 0
0.009044786 0.079999998 0.0065508327 0 0.47704095 0
0.0084208129 0.079999998 0.0065506063 0 0.47704095 0
0.0077968827 0.079999998 0.0065503963 0 0.47704095 0
0.0071729901 0.079999998 0.0065502021 0 0.47704095 0
0.0065491335 0.079999998 0.0065500243 0 0.47704095 0
0.0059253089 0.079999998 0.0065498627 0 0.47704095 0
0.0053015137 0.079999998 0.0065497174 0 0.47704095 0
0.0046777446 0.079999998 0.0065495879 0 0.47704095 0
0.0040539987 0.079999998 0.0065494748 0 0.47704095 0
0.0034302727 0.079999998 0.0065493779 0 0.47704095 0
0.0028065636 0.079999998 0.0065492974 0 0.47704095 0
0.0021828685 0.079999998 0.0065492326 0 0.47704095 0
0.0015591842 0.079999998 0.0065491842 0 0.47704095 0
0.00093550741 0.079999998 0.0065491516 0 0.47704095 0
0.00031183529 0.079999998 0.0065491358 0 0.47704095 0
0.039734937 0.079999998 0.0059549077 0 0.47704095 0
0.039105117 0.079999998 0.0059539792 0 0.47704095 0
0.038475495 0.079999998 0.0059530656 0 0.47704095 0
0.037846062 0.079999998 0.0059521669 0 0.47704095 0
0.03721682 0.079999998 0.005951283 0 0.47704095 0
0.036587764 0.079999998 0.0059504141 0 0.47704095 0
0.035958886 0.079999998 0.0059495606 0 0.47704095 0
0.035330188 0.079999998 0.0059487214 0 0.47704095 0
0.034701668 0.079999998 0.0059478972 0 0.47704095 0
0.034073319 0.079999998 0.0059470884 0 0.47704095 0
