# .PCD v0.7 - Point Cloud Data file format
VERSION 0.7
FIELDS x y z vp_x vp_y vp_z
SIZE 4 4 4 4 4 4
TYPE F F F F F F
COUNT 1 1 1 1 1 1
WIDTH 683
HEIGHT 1
VIEWPOINT 0 0 0 1 0 0 0
POINTS 683
DATA ascii
0.011825462 0.079999998 0.0076492149 0.14741376 0.38593423 0.23852047
0.011128904 0.079999998 0.0074747484 0.14741376 0.38593423 0.23852047
0.010431205 0.079999998 0.0072998977 0.14741376 0.38593423 0.23852047
0.0097323563 0.079999998 0.0071246605 0.14741376 0.38593423 0.23852047
0.0090323519 0.079999998 0.006949035 0.14741376 0.38593423 0.23852047
0.0083311861 0.079999998 0.0067730192 0.14741376 0.38593423 0.23852047
0.0076288511 0.079999998 0.0065966113 0.14741376 0.38593423 0.23852047
0.0069253407 0.079999998 0.0064198095 0.14741376 0.38593423 0.23852047
0.0062206485 0.079999998 0.0062426119 0.14741376 0.38593423 0.23852047
0.0055147675 0.079999998 0.0060650161 0.14741376 0.38593423 0.23852047
0.0048076906 0.079999998 0.0058870213 0.14741376 0.38593423 0.23852047
0.0040994119 0.079999998 0.0057086241 0.14741376 0.38593423 0.23852047
0.0033899238 0.079999998 0.0055298232 0.14741376 0.38593423 0.23852047
0.0026792199 0.079999998 0.0053506168 0.14741376 0.38593423 0.23852047
0.001967293 0.079999998 0.0051710028 0.14741376 0.38593423 0.23852047
0.0012541361 0.079999998 0.0049909786 0.14741376 0.38593423 0.23852047
0.00053974247 0.079999998 0.0048105433 0.14741376 0.38593423 0.23852047
0.039999999 0.059846833 0.00079868676 0.14741376 0.38593423 0.23852047
0.039999999 0.061923776 0.0021460466 0.14741376 0.38593423 0.23852047
0.039999999 0.0639771 0.0034779797 0.14741376 0.38593423 0.23852047
0.039999999 0.066007204 0.004794755 0.14741376 0.38593423 0.23852047
0.039999999 0.06801451 0.006096635 0.14741376 0.38593423 0.23852047
0.039999999 0.069999389 0.0073838765 0.14741376 0.38593423 0.23852047
0.039999999 0.071962245 0.008656729 0.14741376 0.38593423 0.23852047
0.039999999 0.073903434 0.0099154385 0.14741376 0.38593423 0.23852047
0.039999999 0.075823337 0.011160243 0.14741376 0.38593423 0.23852047
0.039999999 0.077722304 0.012391378 0.14741376 0.38593423 0.23852047
0.039999999 0.079600692 0.013609071 0.14741376 0.38593423 0.23852047
0.039485347 0.079999998 0.013741695 0.14741376 0.38593423 0.23852047
0.038829781 0.079999998 0.01358083 0.14741376 0.38593423 0.23852047
0.03817331 0.079999998 0.013419645 0.14741376 0.38593423 0.23852047
0.037515935 0.079999998 0.01325814 0.14741376 0.38593423 0.23852047
0.036857646 0.079999998 0.013096312 0.14741376 0.38593423 0.23852047
0.036198437 0.079999998 0.012934161 0.14741376 0.38593423 0.23852047
0.035538301 0.079999998 0.012771686 0.14741376 0.38593423 0.23852047
0.034877241 0.079999998 0.012608883 0.14741376 0.38593423 0.23852047
0.034215242 0.079999998 0.012445753 0.14741376 0.38593423 0.23852047
0.0335523 0.079999998 0.012282291 0.14741376 0.38593423 0.23852047
0.032888416 0.079999998 0.0121185 0.14741376 0.38593423 0.23852047
0.032223579 0.079999998 0.011954376 0.14741376 0.38593423 0.23852047
0.031557783 0.079999998 0.011789916 0.14741376 0.38593423 0.23852047
0.030891024 0.079999998 0.011625121 0.14741376 0.38593423 0.23852047
0.030223297 0.079999998 0.011459989 0.14741376 0.38593423 0.23852047
0.029554596 0.079999998 0.011294517 0.14741376 0.38593423 0.23852047
0.028884914 0.079999998 0.011128704 0.14741376 0.38593423 0.23852047
0.028214246 0.079999998 0.010962549 0.14741376 0.38593423 0.23852047
0.027542587 0.079999998 0.010796049 0.14741376 0.38593423 0.23852047
0.02686993 0.079999998 0.010629203 0.14741376 0.38593423 0.23852047
0.026196271 0.079999998 0.01046201 0.14741376 0.38593423 0.23852047
0.025521602 0.079999998 0.010294468 0.14741376 0.38593423 0.23852047
0.024845921 0.079999998 0.010126575 0.14741376 0.38593423 0.23852047
0.024169216 0.079999998 0.0099583296 0.14741376 0.38593423 0.23852047
0.023491485 0.079999998 0.0097897295 0.14741376 0.38593423 0.23852047
0.022812722 0.079999998 0.0096207736 0.14741376 0.38593423 0.23852047
0.02213292 0.079999998 0.009451461 0.14741376 0.38593423 0.23852047
0.021452075 0.079999998 0.009281788 0.14741376 0.38593423 0.23852047
0.020770177 0.079999998 0.0091117546 0.14741376 0.38593423 0.23852047
0.020087224 0.079999998 0.008941358 0.14741376 0.38593423 0.23852047
0.019403208 0.079999998 0.0087705962 0.14741376 0.38593423 0.23852047
0.018718123 0.079999998 0.0085994694 0.14741376 0.38593423 0.23852047
0.018031962 0.079999998 0.0084279738 0.14741376 0.38593423 0.23852047
0.017344723 0.079999998 0.0082561085 0.14741376 0.38593423 0.23852047
0.016656393 0.079999998 0.0080838706 0.14741376 0.38593423 0.23852047
0.01596697 0.079999998 0.0079112602 0.14741376 0.38593423 0.23852047
0.015276449 0.079999998 0.0077382745 0.14741376 0.38593423 0.23852047
0.014584821 0.079999998 0.0075649116 0.14741376 0.38593423 0.23852047
0.01389208 0.079999998 0.0073911697 0.14741376 0.38593423 0.23852047
0.01319822 0.079999998 0.0072170468 0.14741376 0.38593423 0.23852047
0.012503236 0.079999998 0.0070425416 0.14741376 0.38593423 0.23852047
0.011807119 0.079999998 0.0068676518 0.14741376 0.38593423 0.23852047
0.011109863 0.079999998 0.006692376 0.14741376 0.38593423 0.23852047
0.010411464 0.079999998 0.0065167118 0.14741376 0.38593423 0.23852047
0.0097119128 0.079999998 0.0063406569 0.14741376 0.38593423 0.23852047
0.0090112034 0.079999998 0.0061642108 0.14741376 0.38593423 0.23852047
0.0083093308 0.079999998 0.0059873704 0.14741376 0.38593423 0.23852047
0.0076062861 0.079999998 0.0058101341 0.14741376 0.38593423 0.23852047
0.0069020642 0.079999998 0.0056325002 0.14741376 0.38593423 0.23852047
0.0061966577 0.079999998 0.0054544662 0.14741376 0.38593423 0.23852047
0.00549006 0.079999998 0.0052760309 0.14741376 0.38593423 0.23852047
0.0047822641 0.079999998 0.0050971918 0.14741376 0.38593423 0.23852047
0.0040732636 0.079999998 0.0049179471 0.14741376 0.38593423 0.23852047
0.0033630517 0.079999998 0.0047382945 0.14741376 0.38593423 0.23852047
0.0026516211 0.079999998 0.0045582326 0.14741376 0.38593423 0.23852047
0.0019389649 0.079999998 0.0043777591 0.14741376 0.38593423 0.23852047
0.0012250765 0.079999998 0.0041968715 0.14741376 0.38593423 0.23852047
0.00050994864 0.079999998 0.0040155686 0.14741376 0.38593423 0.23852047
0.039999999 0.061877199 0.0013213617 0.14741376 0.38593423 0.23852047
0.039999999 0.063933007 0.0026594291 0.14741376 0.38593423 0.23852047
0.039999999 0.065965556 0.0039822506 0.14741376 0.38593423 0.23852047
0.039999999 0.067975238 0.005290091 0.14741376 0.38593423 0.23852047
0.039999999 0.069962449 0.0065832078 0.14741376 0.38593423 0.23852047
0.039999999 0.071927585 0.0078618536 0.14741376 0.38593423 0.23852047
0.039999999 0.073871009 0.0091262758 0.14741376 0.38593423 0.23852047
0.039999999 0.075793095 0.010376713 0.14741376 0.38593423 0.23852047
0.039999999 0.077694207 0.011613403 0.14741376 0.38593423 0.23852047
0.039999999 0.079574689 0.012836576 0.14741376 0.38593423 0.23852047
0.039493833 0.079999998 0.012988669 0.14741376 0.38593423 0.23852047
0.038837649 0.079999998 0.012827132 0.14741376 0.38593423 0.23852047
0.038180564 0.079999998 0.012665273 0.14741376 0.38593423 0.23852047
0.037522566 0.079999998 0.012503089 0.14741376 0.38593423 0.23852047
0.036863651 0.079999998 0.012340581 0.14741376 0.38593423 0.23852047
0.036203817 0.079999998 0.012177747 0.14741376 0.38593423 0.23852047
0.035543058 0.079999998 0.012014583 0.14741376 0.38593423 0.23852047
0.034881368 0.079999998 0.01185109 0.14741376 0.38593423 0.23852047
0.03421874 0.079999998 0.011687266 0.14741376 0.38593423 0.23852047
0.033555165 0.079999998 0.011523108 0.14741376 0.38593423 0.23852047
0.032890648 0.079999998 0.011358616 0.14741376 0.38593423 0.23852047
0.032225173 0.079999998 0.011193788 0.14741376 0.38593423 0.23852047
0.031558741 0.079999998 0.011028621 0.14741376 0.38593423 0.23852047
0.030891344 0.079999998 0.010863116 0.14741376 0.38593423 0.23852047
0.030222977 0.079999998 0.01069727 0.14741376 0.38593423 0.23852047
0.029553631 0.079999998 0.010531081 0.14741376 0.38593423 0.23852047
0.028883306 0.079999998 0.010364547 0.14741376 0.38593423 0.23852047
0.028211992 0.079999998 0.010197668 0.14741376 0.38593423 0.23852047
0.027539684 0.079999998 0.010030441 0.14741376 0.38593423 0.23852047
0.026866376 0.079999998 0.0098628653 0.14741376 0.38593423 0.23852047
0.026192065 0.079999998 0.0096949385 0.14741376 0.38593423 0.23852047
0.025516743 0.079999998 0.0095266588 0.14741376 0.38593423 0.23852047
0.024840403 0.079999998 0.0093580252 0.14741376 0.38593423 0.23852047
0.024163041 0.079999998 0.0091890348 0.14741376 0.38593423 0.23852047
0.023484649 0.079999998 0.0090196878 0.14741376 0.38593423 0.23852047
0.022805223 0.079999998 0.0088499803 0.14741376 0.38593423 0.23852047
0.022124758 0.079999998 0.0086799124 0.14741376 0.38593423 0.23852047
0.021443246 0.079999998 0.0085094813 0.14741376 0.38593423 0.23852047
0.02076068 0.079999998 0.0083386861 0.14741376 0.38593423 0.23852047
0.020077055 0.079999998 0.0081675239 0.14741376 0.38593423 0.23852047
0.019392367 0.079999998 0.0079959938 0.14741376 0.38593423 0.23852047
0.018706607 0.079999998 0.007824094 0.14741376 0.38593423 0.23852047
0.018019769 0.079999998 0.0076518226 0.14741376 0.38593423 0.23852047
0.01733185 0.079999998 0.0074791778 0.14741376 0.38593423 0.23852047
0.016642841 0.079999998 0.0073061571 0.14741376 0.38593423 0.23852047
0.015952734 0.079999998 0.0071327598 0.14741376 0.38593423 0.23852047
0.015261527 0.079999998 0.0069589834 0.14741376 0.38593423 0.23852047
0.014569211 0.079999998 0.0067848265 0.14741376 0.38593423 0.23852047
0.01387578 0.079999998 0.0066102864 0.14741376 0.38593423 0.23852047
0.013181227 0.079999998 0.0064353622 0.14741376 0.38593423 0.23852047
0.012485548 0.079999998 0.0062600519 0.14741376 0.38593423 0.23852047
0.011788734 0.079999998 0.0060843532 0.14741376 0.38593423 0.23852047
0.01109078 0.079999998 0.0059082643 0.14741376 0.38593423 0.23852047
0.010391679 0.079999998 0.0057317833 0.14741376 0.38593423 0.23852047
0.0096914237 0.079999998 0.0055549089 0.14741376 0.38593423 0.23852047
0.0089900084 0.079999998 0.0053776386 0.14741376 0.38593423 0.23852047
0.008287427 0.079999998 0.0051999702 0.14741376 0.38593423 0.23852047
0.0075836712 0.079999998 0.0050219023 0.14741376 0.38593423 0.23852047
0.006878736 0.079999998 0.0048434329 0.14741376 0.38593423 0.23852047
0.0061726132 0.079999998 0.0046645598 0.14741376 0.38593423 0.23852047
0.0054652975 0.079999998 0.0044852812 0.14741376 0.38593423 0.23852047
0.0047567808 0.079999998 0.0043055951 0.14741376 0.38593423 0.23852047
0.0040470571 0.079999998 0.0041254992 0.14741376 0.38593423 0.23852047
0.0033361192 0.079999998 0.0039449921 0.14741376 0.38593423 0.23852047
0.0026239604 0.079999998 0.0037640713 0.14741376 0.38593423 0.23852047
0.0019105736 0.079999998 0.0035827351 0.14741376 0.38593423 0.23852047
0.0011959517 0.079999998 0.003400981 0.14741376 0.38593423 0.23852047
0.00048008782 0.079999998 0.0032188073 0.14741376 0.38593423 0.23852047
0.039999999 0.061830509 0.0004946611 0.14741376 0.38593423 0.23852047
0.039999999 0.063888811 0.0018388877 0.14741376 0.38593423 0.23852047
0.039999999 0.065923795 0.0031677801 0.14741376 0.38593423 0.23852047
0.039999999 0.067935869 0.0044816048 0.14741376 0.38593423 0.23852047
0.039999999 0.06992542 0.0057806214 0.14741376 0.38593423 0.23852047
0.039999999 0.071892835 0.0070650838 0.14741376 0.38593423 0.23852047
0.039999999 0.073838502 0.0083352411 0.14741376 0.38593423 0.23852047
0.039999999 0.075762786 0.0095913345 0.14741376 0.38593423 0.23852047
0.039999999 0.077666044 0.010833602 0.14741376 0.38593423 0.23852047
0.039999999 0.079548627 0.012062276 0.14741376 0.38593423 0.23852047
0.039502341 0.079999998 0.01223401 0.14741376 0.38593423 0.23852047
0.038845539 0.079999998 0.012071799 0.14741376 0.38593423 0.23852047
0.038187828 0.079999998 0.011909262 0.14741376 0.38593423 0.23852047
0.037529208 0.079999998 0.011746399 0.14741376 0.38593423 0.23852047
0.036869671 0.079999998 0.011583207 0.14741376 0.38593423 0.23852047
0.036209211 0.079999998 0.011419686 0.14741376 0.38593423 0.23852047
0.035547823 0.079999998 0.011255833 0.14741376 0.38593423 0.23852047
0.034885503 0.079999998 0.011091647 0.14741376 0.38593423 0.23852047
0.034222241 0.079999998 0.010927126 0.14741376 0.38593423 0.23852047
0.033558037 0.079999998 0.010762269 0.14741376 0.38593423 0.23852047
0.032892883 0.079999998 0.010597073 0.14741376 0.38593423 0.23852047
0.032226775 0.079999998 0.010431539 0.14741376 0.38593423 0.23852047
0.031559702 0.079999998 0.010265663 0.14741376 0.38593423 0.23852047
0.030891664 0.079999998 0.010099445 0.14741376 0.38593423 0.23852047
0.030222654 0.079999998 0.0099328822 0.14741376 0.38593423 0.23852047
0.029552666 0.079999998 0.0097659733 0.14741376 0.38593423 0.23852047
0.028881693 0.079999998 0.0095987171 0.14741376 0.38593423 0.23852047
0.028209731 0.079999998 0.0094311116 0.14741376 0.38593423 0.23852047
0.027536774 0.079999998 0.0092631541 0.14741376 0.38593423 0.23852047
0.026862815 0.079999998 0.0090948455 0.14741376 0.38593423 0.23852047
0.02618785 0.079999998 0.0089261811 0.14741376 0.38593423 0.23852047
0.025511872 0.079999998 0.0087571619 0.14741376 0.38593423 0.23852047
0.024834873 0.079999998 0.0085877841 0.14741376 0.38593423 0.23852047
0.024156852 0.079999998 0.0084180478 0.14741376 0.38593423 0.23852047
0.023477798 0.079999998 0.0082479492 0.14741376 0.38593423 0.23852047
0.022797709 0.079999998 0.0080774883 0.14741376 0.38593423 0.23852047
0.022116577 0.079999998 0.0079066632 0.14741376 0.38593423 0.23852047
0.021434397 0.079999998 0.0077354712 0.14741376 0.38593423 0.23852047
0.020751162 0.079999998 0.0075639109 0.14741376 0.38593423 0.23852047
0.020066865 0.079999998 0.0073919808 0.14741376 0.38593423 0.23852047
0.019381503 0.079999998 0.0072196792 0.14741376 0.38593423 0.23852047
0.018695066 0.079999998 0.0070470041 0.14741376 0.38593423 0.23852047
0.01800755 0.079999998 0.0068739532 0.14741376 0.38593423 0.23852047
0.017318949 0.079999998 0.0067005255 0.14741376 0.38593423 0.23852047
0.016629256 0.079999998 0.0065267193 0.14741376 0.38593423 0.23852047
0.015938466 0.079999998 0.0063525317 0.14741376 0.38593423 0.23852047
0.015246571 0.079999998 0.0061779618 0.14741376 0.38593423 0.23852047
0.014553566 0.079999998 0.0060030078 0.14741376 0.38593423 0.23852047
0.013859443 0.079999998 0.0058276672 0.14741376 0.38593423 0.23852047
0.013164197 0.079999998 0.0056519383 0.14741376 0.38593423 0.23852047
0.012467821 0.079999998 0.0054758196 0.14741376 0.38593423 0.23852047
0.011770309 0.079999998 0.0052993088 0.14741376 0.38593423 0.23852047
0.011071654 0.079999998 0.0051224041 0.14741376 0.38593423 0.23852047
0.010371849 0.079999998 0.004945104 0.14741376 0.38593423 0.23852047
0.009670889 0.079999998 0.0047674058 0.14741376 0.38593423 0.23852047
0.0089687658 0.079999998 0.0045893085 0.14741376 0.38593423 0.23852047
0.0082654739 0.079999998 0.0044108094 0.14741376 0.38593423 0.23852047
0.0075610057 0.079999998 0.0042319065 0.14741376 0.38593423 0.23852047
0.0068553551 0.079999998 0.0040525985 0.14741376 0.38593423 0.23852047
0.0061485153 0.079999998 0.003872883 0.14741376 0.38593423 0.23852047
0.0054404791 0.079999998 0.003692758 0.14741376 0.38593423 0.23852047
0.0047312402 0.079999998 0.0035122216 0.14741376 0.38593423 0.23852047
0.0040207915 0.079999998 0.0033312717 0.14741376 0.38593423 0.23852047
0.0033091265 0.079999998 0.0031499064 0.14741376 0.38593423 0.23852047
0.0025962375 0.079999998 0.0029681234 0.14741376 0.38593423 0.23852047
0.0018821182 0.079999998 0.0027859211 0.14741376 0.38593423 0.23852047
0.0011667612 0.079999998 0.0026032971 0.14741376 0.38593423 0.23852047
0.00045015968 0.079999998 0.0024202494 0.14741376 0.38593423 0.23852047
0.039999999 0.063844509 0.0010163441 0.14741376 0.38593423 0.23852047
0.039999999 0.065881938 0.0023513325 0.14741376 0.38593423 0.23852047
0.039999999 0.067896403 0.0036711658 0.14741376 0.38593423 0.23852047
0.039999999 0.069888301 0.0049761059 0.14741376 0.38593423 0.23852047
0.039999999 0.071858011 0.0062664086 0.14741376 0.38593423 0.23852047
0.039999999 0.073805921 0.0075423238 0.14741376 0.38593423 0.23852047
0.039999999 0.075732403 0.0088040959 0.14741376 0.38593423 0.23852047
0.039999999 0.077637814 0.010051963 0.14741376 0.38593423 0.23852047
0.039999999 0.079522505 0.011286159 0.14741376 0.38593423 0.23852047
0.039510865 0.079999998 0.011477708 0.14741376 0.38593423 0.23852047
0.038853444 0.079999998 0.01131482 0.14741376 0.38593423 0.23852047
0.038195111 0.079999998 0.011151605 0.14741376 0.38593423 0.23852047
0.037535869 0.079999998 0.010988059 0.14741376 0.38593423 0.23852047
0.036875706 0.079999998 0.010824182 0.14741376 0.38593423 0.23852047
0.036214616 0.079999998 0.010659971 0.14741376 0.38593423 0.23852047
0.035552599 0.079999998 0.010495425 0.14741376 0.38593423 0.23852047
0.03488965 0.079999998 0.010330544 0.14741376 0.38593423 0.23852047
0.034225754 0.079999998 0.010165324 0.14741376 0.38593423 0.23852047
0.033560917 0.079999998 0.0099997642 0.14741376 0.38593423 0.23852047
0.032895125 0.079999998 0.0098338639 0.14741376 0.38593423 0.23852047
0.032228377 0.079999998 0.0096676201 0.14741376 0.38593423 0.23852047
0.031560667 0.079999998 0.0095010325 0.14741376 0.38593423 0.23852047
0.030891987 0.079999998 0.0093340985 0.14741376 0.38593423 0.23852047
0.030222332 0.079999998 0.0091668162 0.14741376 0.38593423 0.23852047
0.029551698 0.079999998 0.0089991856 0.14741376 0.38593423 0.23852047
0.028880078 0.079999998 0.008831203 0.14741376 0.38593423 0.23852047
0.028207468 0.079999998 0.0086628683 0.14741376 0.38593423 0.23852047
0.027533859 0.079999998 0.0084941797 0.14741376 0.38593423 0.23852047
0.026859246 0.079999998 0.0083251344 0.14741376 0.38593423 0.23852047
0.026183626 0.079999998 0.0081557306 0.14741376 0.38593423 0.23852047
0.02550699 0.079999998 0.0079859681 0.14741376 0.38593423 0.23852047
0.024829332 0.079999998 0.0078158444 0.14741376 0.38593423 0.23852047
0.024150649 0.079999998 0.0076453579 0.14741376 0.38593423 0.23852047
0.023470933 0.079999998 0.0074745063 0.14741376 0.38593423 0.23852047
0.022790179 0.079999998 0.0073032887 0.14741376 0.38593423 0.23852047
0.02210838 0.079999998 0.0071317027 0.14741376 0.38593423 0.23852047
0.021425528 0.079999998 0.0069597466 0.14741376 0.38593423 0.23852047
0.020741621 0.079999998 0.0067874193 0.14741376 0.38593423 0.23852047
0.020056652 0.079999998 0.0066147181 0.14741376 0.38593423 0.23852047
0.019370614 0.079999998 0.0064416416 0.14741376 0.38593423 0.23852047
0.018683499 0.079999998 0.0062681884 0.14741376 0.38593423 0.23852047
0.017995303 0.079999998 0.0060943556 0.14741376 0.38593423 0.23852047
0.01730602 0.079999998 0.0059201424 0.14741376 0.38593423 0.23852047
0.016615644 0.079999998 0.0057455469 0.14741376 0.38593423 0.23852047
0.015924167 0.079999998 0.0055705667 0.14741376 0.38593423 0.23852047
0.015231582 0.079999998 0.0053952006 0.14741376 0.38593423 0.23852047
0.014537886 0.079999998 0.005219446 0.14741376 0.38593423 0.23852047
0.01384307 0.079999998 0.0050433017 0.14741376 0.38593423 0.23852047
0.013147129 0.079999998 0.0048667653 0.14741376 0.38593423 0.23852047
0.012450054 0.079999998 0.004689835 0.14741376 0.38593423 0.23852047
0.011751843 0.079999998 0.0045125093 0.14741376 0.38593423 0.23852047
0.011052485 0.079999998 0.004334786 0.14741376 0.38593423 0.23852047
0.010351975 0.079999998 0.0041566631 0.14741376 0.38593423 0.23852047
0.0096503077 0.079999998 0.0039781383 0.14741376 0.38593423 0.23852047
0.0089474758 0.079999998 0.0037992105 0.14741376 0.38593423 0.23852047
0.0082434714 0.079999998 0.0036198774 0.14741376 0.38593423 0.23852047
0.0075382893 0.079999998 0.0034401368 0.14741376 0.38593423 0.23852047
0.0068319221 0.079999998 0.0032599869 0.14741376 0.38593423 0.23852047
0.0061243628 0.079999998 0.0030794258 0.14741376 0.38593423 0.23852047
0.0054156054 0.079999998 0.0028984512 0.14741376 0.38593423 0.23852047
0.0047056424 0.079999998 0.0027170612 0.14741376 0.38593423 0.23852047
0.0039944672 0.079999998 0.0025352538 0.14741376 0.38593423 0.23852047
0.0032820725 0.079999998 0.002353027 0.14741376 0.38593423 0.23852047
0.0025684522 0.079999998 0.0021703788 0.14741376 0.38593423 0.23852047
0.0018535984 0.079999998 0.0019873071 0.14741376 0.38593423 0.23852047
0.0011375047 0.079999998 0.0018038097 0.14741376 0.38593423 0.23852047
0.00042016382 0.079999998 0.0016198846 0.14741376 0.38593423 0.23852047
0.039999999 0.063800097 0.00019178695 0.14741376 0.38593423 0.23852047
0.039999999 0.065839976 0.001532896 0.14741376 0.38593423 0.23852047
0.039999999 0.067856841 0.0028587626 0.14741376 0.38593423 0.23852047
0.039999999 0.069851086 0.0041696504 0.14741376 0.38593423 0.23852047
0.039999999 0.071823105 0.0054658167 0.14741376 0.38593423 0.23852047
0.039999999 0.073773265 0.0067475131 0.14741376 0.38593423 0.23852047
0.039999999 0.075701945 0.0080149863 0.14741376 0.38593423 0.23852047
0.039999999 0.077609517 0.0092684748 0.14741376 0.38593423 0.23852047
0.039999999 0.079496317 0.010508215 0.14741376 0.38593423 0.23852047
0.039519411 0.079999998 0.010719755 0.14741376 0.38593423 0.23852047
0.038861364 0.079999998 0.010556189 0.14741376 0.38593423 0.23852047
0.038202412 0.079999998 0.010392291 0.14741376 0.38593423 0.23852047
0.037542541 0.079999998 0.01022806 0.14741376 0.38593423 0.23852047
0.036881752 0.079999998 0.010063495 0.14741376 0.38593423 0.23852047
0.036220036 0.079999998 0.0098985927 0.14741376 0.38593423 0.23852047
0.035557386 0.079999998 0.0097333519 0.14741376 0.38593423 0.23852047
0.034893803 0.079999998 0.009567772 0.14741376 0.38593423 0.23852047
0.034229275 0.079999998 0.0094018504 0.14741376 0.38593423 0.23852047
0.0335638 0.079999998 0.009235586 0.14741376 0.38593423 0.23852047
0.032897372 0.079999998 0.0090689771 0.14741376 0.38593423 0.23852047
0.032229986 0.079999998 0.0089020217 0.14741376 0.38593423 0.23852047
0.031561632 0.079999998 0.0087347189 0.14741376 0.38593423 0.23852047
0.030892309 0.079999998 0.0085670669 0.14741376 0.38593423 0.23852047
0.03022201 0.079999998 0.0083990637 0.14741376 0.38593423 0.23852047
0.029550729 0.079999998 0.0082307076 0.14741376 0.38593423 0.23852047
0.02887846 0.079999998 0.0080619967 0.14741376 0.38593423 0.23852047
0.028205197 0.079999998 0.0078929309 0.14741376 0.38593423 0.23852047
0.027530935 0.079999998 0.0077235061 0.14741376 0.38593423 0.23852047
0.026855668 0.079999998 0.0075537218 0.14741376 0.38593423 0.23852047
0.02617939 0.079999998 0.0073835766 0.14741376 0.38593423 0.23852047
0.025502097 0.079999998 0.0072130687 0.14741376 0.38593423 0.23852047
0.024823779 0.079999998 0.0070421956 0.14741376 0.38593423 0.23852047
0.024144433 0.079999998 0.0068709562 0.14741376 0.38593423 0.23852047
0.023464052 0.079999998 0.0066993488 0.14741376 0.38593423 0.23852047
0.022782631 0.079999998 0.0065273712 0.14741376 0.38593423 0.23852047
0.022100162 0.079999998 0.0063550221 0.14741376 0.38593423 0.23852047
0.021416642 0.079999998 0.0061822995 0.14741376 0.38593423 0.23852047
0.020732062 0.079999998 0.0060092011 0.14741376 0.38593423 0.23852047
0.020046417 0.079999998 0.0058357264 0.14741376 0.38593423 0.23852047
0.0193597 0.079999998 0.0056618722 0.14741376 0.38593423 0.23852047
0.018671907 0.079999998 0.0054876376 0.14741376 0.38593423 0.23852047
0.017983029 0.079999998 0.0053130202 0.14741376 0.38593423 0.23852047
0.017293062 0.079999998 0.0051380186 0.14741376 0.38593423 0.23852047
0.016602 0.079999998 0.004962631 0.14741376 0.38593423 0.23852047
0.015909834 0.079999998 0.0047868551 0.14741376 0.38593423 0.23852047
0.01521656 0.079999998 0.0046106894 0.14741376 0.38593423 0.23852047
0.014522171 0.079999998 0.0044341316 0.14741376 0.38593423 0.23852047
0.01382666 0.079999998 0.0042571803 0.14741376 0.38593423 0.23852047
0.013130021 0.079999998 0.0040798332 0.14741376 0.38593423 0.23852047
0.012432248 0.079999998 0.0039020889 0.14741376 0.38593423 0.23852047
0.011733335 0.079999998 0.0037239448 0.14741376 0.38593423 0.23852047
0.011033272 0.079999998 0.0035453993 0.14741376 0.38593423 0.23852047
0.010332057 0.079999998 0.0033664505 0.14741376 0.38593423 0.23852047
0.0096296808 0.079999998 0.0031870967 0.14741376 0.38593423 0.23852047
0.0089261374 0.079999998 0.0030073354 0.14741376 0.38593423 0.23852047
0.0082214195 0.079999998 0.0028271649 0.14741376 0.38593423 0.23852047
0.0075155217 0.079999998 0.0026465831 0.14741376 0.38593423 0.23852047
0.006808436 0.079999998 0.0024655883 0.14741376 0.38593423 0.23852047
0.0061001559 0.079999998 0.002284178 0.14741376 0.38593423 0.23852047
0.0053906753 0.079999998 0.0021023506 0.14741376 0.38593423 0.23852047
0.0046799863 0.079999998 0.0019201039 0.14741376 0.38593423 0.23852047
0.0039680828 0.079999998 0.0017374358 0.14741376 0.38593423 0.23852047
0.0032549575 0.079999998 0.0015543443 0.14741376 0.38593423 0.23852047
0.0025406037 0.079999998 0.0013708274 0.14741376 0.38593423 0.23852047
0.0018250141 0.079999998 0.001186883 0.14741376 0.38593423 0.23852047
0.0011081819 0.079999998 0.0010025089 0.14741376 0.38593423 0.23852047
0.00039009986 0.079999998 0.00081770302 0.14741376 0.38593423 0.23852047
0.039999999 0.065797918 0.00071245967 0.14741376 0.38593423 0.23852047
0.039999999 0.067817189 0.0020443844 0.14741376 0.38593423 0.23852047
0.039999999 0.069813788 0.0033612438 0.14741376 0.38593423 0.23852047
0.039999999 0.07178811 0.0046632974 0.14741376 0.38593423 0.23852047
0.039999999 0.073740527 0.0059507987 0.14741376 0.38593423 0.23852047
0.039999999 0.07567142 0.0072239949 0.14741376 0.38593423 0.23852047
0.039999999 0.077581145 0.0084831286 0.14741376 0.38593423 0.23852047
0.039999999 0.079470068 0.0097284354 0.14741376 0.38593423 0.23852047
0.039527975 0.079999998 0.009960142 0.14741376 0.38593423 0.23852047
0.038869306 0.079999998 0.0097958948 0.14741376 0.38593423 0.23852047
0.038209725 0.079999998 0.0096313125 0.14741376 0.38593423 0.23852047
0.037549227 0.079999998 0.0094663939 0.14741376 0.38593423 0.23852047
0.03688781 0.079999998 0.0093011372 0.14741376 0.38593423 0.23852047
0.036225464 0.079999998 0.0091355406 0.14741376 0.38593423 0.23852047
0.035562184 0.079999998 0.0089696022 0.14741376 0.38593423 0.23852047
0.034897968 0.079999998 0.008803321 0.14741376 0.38593423 0.23852047
0.034232803 0.079999998 0.0086366963 0.14741376 0.38593423 0.23852047
0.033566691 0.079999998 0.0084697241 0.14741376 0.38593423 0.23852047
0.032899626 0.079999998 0.0083024045 0.14741376 0.38593423 0.23852047
0.032231595 0.079999998 0.0081347357 0.14741376 0.38593423 0.23852047
0.0315626 0.079999998 0.0079667149 0.14741376 0.38593423 0.23852047
0.030892633 0.079999998 0.007798342 0.14741376 0.38593423 0.23852047
0.030221686 0.079999998 0.0076296143 0.14741376 0.38593423 0.23852047
0.029549757 0.079999998 0.0074605304 0.14741376 0.38593423 0.23852047
0.028876837 0.079999998 0.0072910888 0.14741376 0.38593423 0.23852047
0.028202923 0.079999998 0.0071212878 0.14741376 0.38593423 0.23852047
0.027528007 0.079999998 0.0069511253 0.14741376 0.38593423 0.23852047
0.026852084 0.079999998 0.0067805997 0.14741376 0.38593423 0.23852047
0.026175147 0.079999998 0.0066097095 0.14741376 0.38593423 0.23852047
0.025497193 0.079999998 0.0064384528 0.14741376 0.38593423 0.23852047
0.024818214 0.079999998 0.0062668277 0.14741376 0.38593423 0.23852047
0.024138203 0.079999998 0.0060948329 0.14741376 0.38593423 0.23852047
0.023457155 0.079999998 0.0059224665 0.14741376 0.38593423 0.23852047
0.022775065 0.079999998 0.0057497267 0.14741376 0.38593423 0.23852047
0.022091927 0.079999998 0.0055766115 0.14741376 0.38593423 0.23852047
0.021407733 0.079999998 0.0054031191 0.14741376 0.38593423 0.23852047
0.020722479 0.079999998 0.0052292477 0.14741376 0.38593423 0.23852047
0.020036157 0.079999998 0.0050549959 0.14741376 0.38593423 0.23852047
0.019348763 0.079999998 0.0048803613 0.14741376 0.38593423 0.23852047
0.018660288 0.079999998 0.0047053425 0.14741376 0.38593423 0.23852047
0.017970728 0.079999998 0.0045299376 0.14741376 0.38593423 0.23852047
0.017280076 0.079999998 0.0043541444 0.14741376 0.38593423 0.23852047
0.016588325 0.079999998 0.004177962 0.14741376 0.38593423 0.23852047
0.015895471 0.079999998 0.0040013869 0.14741376 0.38593423 0.23852047
0.015201504 0.079999998 0.0038244186 0.14741376 0.38593423 0.23852047
0.014506421 0.079999998 0.0036470548 0.14741376 0.38593423 0.23852047
0.013810214 0.079999998 0.0034692935 0.14741376 0.38593423 0.23852047
0.013112877 0.079999998 0.0032911329 0.14741376 0.38593423 0.23852047
0.012414402 0.079999998 0.0031125706 0.14741376 0.38593423 0.23852047
0.011714784 0.079999998 0.0029336053 0.14741376 0.38593423 0.23852047
0.011014017 0.079999998 0.0027542349 0.14741376 0.38593423 0.23852047
0.010312094 0.079999998 0.0025744573 0.14741376 0.38593423 0.23852047
0.0096090073 0.079999998 0.0023942706 0.14741376 0.38593423 0.23852047
0.0089047514 0.079999998 0.0022136727 0.14741376 0.38593423 0.23852047
0.0081993183 0.079999998 0.0020326618 0.14741376 0.38593423 0.23852047
0.0074927025 0.079999998 0.0018512356 0.14741376 0.38593423 0.23852047
0.0067848968 0.079999998 0.0016693925 0.14741376 0.38593423 0.23852047
0.0060758945 0.079999998 0.0014871301 0.14741376 0.38593423 0.23852047
0.0053656884 0.079999998 0.0013044465 0.14741376 0.38593423 0.23852047
0.0046542725 0.079999998 0.0011213397 0.14741376 0.38593423 0.23852047
0.0039416389 0.079999998 0.00093780761 0.14741376 0.38593423 0.23852047
0.003227781 0.079999998 0.00075384811 0.14741376 0.38593423 0.23852047
0.002512692 0.079999998 0.00056945917 0.14741376 0.38593423 0.23852047
0.0017963648 0.079999998 0.00038463861 0.14741376 0.38593423 0.23852047
0.0010787923 0.079999998 0.00019938442 0.14741376 0.38593423 0.23852047
0.00035996744 0.079999998 1.3694411e-05 0.14741376 0.38593423 0.23852047
0.039999999 0.067777433 0.0012280195 0.14741376 0.38593423 0.23852047
0.039999999 0.069776401 0.0025508751 0.14741376 0.38593423 0.23852047
0.039999999 0.071753033 0.0038588401 0.14741376 0.38593423 0.23852047
0.039999999 0.073707715 0.0051521696 0.14741376 0.38593423 0.23852047
0.039999999 0.07564082 0.0064311125 0.14741376 0.38593423 0.23852047
0.039999999 0.077552713 0.0076959128 0.14741376 0.38593423 0.23852047
0.039999999 0.07944376 0.0089468081 0.14741376 0.38593423 0.23852047
0.039536554 0.079999998 0.0091988584 0.14741376 0.38593423 0.23852047
0.038877264 0.079999998 0.0090339277 0.14741376 0.38593423 0.23852047
0.038217057 0.079999998 0.0088686589 0.14741376 0.38593423 0.23852047
0.037555933 0.079999998 0.0087030502 0.14741376 0.38593423 0.23852047
0.036893882 0.079999998 0.0085370997 0.14741376 0.38593423 0.23852047
0.036230907 0.079999998 0.0083708065 0.14741376 0.38593423 0.23852047
0.035566993 0.079999998 0.0082041677 0.14741376 0.38593423 0.23852047
0.03490214 0.079999998 0.0080371834 0.14741376 0.38593423 0.23852047
0.034236342 0.079999998 0.0078698518 0.14741376 0.38593423 0.23852047
0.033569589 0.079999998 0.0077021695 0.14741376 0.38593423 0.23852047
0.032901879 0.079999998 0.0075341365 0.14741376 0.38593423 0.23852047
0.032233208 0.079999998 0.0073657506 0.14741376 0.38593423 0.23852047
0.031563569 0.079999998 0.0071970103 0.14741376 0.38593423 0.23852047
0.030892957 0.079999998 0.0070279134 0.14741376 0.38593423 0.23852047
0.030221362 0.079999998 0.0068584587 0.14741376 0.38593423 0.23852047
0.029548783 0.079999998 0.0066886446 0.14741376 0.38593423 0.23852047
0.028875211 0.079999998 0.0065184692 0.14741376 0.38593423 0.23852047
0.028200643 0.079999998 0.0063479305 0.14741376 0.38593423 0.23852047
0.027525071 0.079999998 0.0061770272 0.14741376 0.38593423 0.23852047
0.026848489 0.079999998 0.0060057575 0.14741376 0.38593423 0.23852047
0.026170895 0.079999998 0.0058341199 0.14741376 0.38593423 0.23852047
0.025492277 0.079999998 0.0056621116 0.14741376 0.38593423 0.23852047
0.024812635 0.079999998 0.0054897321 0.14741376 0.38593423 0.23852047
0.024131959 0.079999998 0.0053169793 0.14741376 0.38593423 0.23852047
0.023450244 0.079999998 0.0051438506 0.14741376 0.38593423 0.23852047
0.022767484 0.079999998 0.0049703452 0.14741376 0.38593423 0.23852047
0.022083674 0.079999998 0.0047964612 0.14741376 0.38593423 0.23852047
0.021398807 0.079999998 0.0046221963 0.14741376 0.38593423 0.23852047
0.020712875 0.079999998 0.0044475487 0.14741376 0.38593423 0.23852047
0.020025875 0.079999998 0.0042725168 0.14741376 0.38593423 0.23852047
0.019337801 0.079999998 0.004097099 0.14741376 0.38593423 0.23852047
0.018648643 0.079999998 0.0039212932 0.14741376 0.38593423 0.23852047
0.017958399 0.079999998 0.0037450977 0.14741376 0.38593423 0.23852047
0.01726706 0.079999998 0.0035685103 0.14741376 0.38593423 0.23852047
0.016574621 0.079999998 0.0033915292 0.14741376 0.38593423 0.23852047
0.015881075 0.079999998 0.0032141528 0.14741376 0.38593423 0.23852047
0.015186414 0.079999998 0.0030363789 0.14741376 0.38593423 0.23852047
0.014490635 0.079999998 0.0028582057 0.14741376 0.38593423 0.23852047
0.01379373 0.079999998 0.0026796313 0.14741376 0.38593423 0.23852047
0.013095693 0.079999998 0.0025006537 0.14741376 0.38593423 0.23852047
0.012396515 0.079999998 0.002321271 0.14741376 0.38593423 0.23852047
0.011696193 0.079999998 0.0021414813 0.14741376 0.38593423 0.23852047
0.010994718 0.079999998 0.0019612827 0.14741376 0.38593423 0.23852047
0.010292086 0.079999998 0.0017806729 0.14741376 0.38593423 0.23852047
0.0095882872 0.079999998 0.0015996502 0.14741376 0.38593423 0.23852047
0.0088833161 0.079999998 0.0014182125 0.14741376 0.38593423 0.23852047
0.0081771668 0.079999998 0.0012363578 0.14741376 0.38593423 0.23852047
0.0074698315 0.079999998 0.0010540842 0.14741376 0.38593423 0.23852047
0.0067613041 0.079999998 0.00087138946 0.14741376 0.38593423 0.23852047
0.0060515776 0.079999998 0.00068827166 0.14741376 0.38593423 0.23852047
0.0053406451 0.079999998 0.0005047287 0.14741376 0.38593423 0.23852047
0.0046284995 0.079999998 0.00032075853 0.14741376 0.38593423 0.23852047
0.0039151344 0.079999998 0.00013635904 0.14741376 0.38593423 0.23852047
0.039999999 0.067737587 0.0004096569 0.14741376 0.38593423 0.23852047
0.039999999 0.069738917 0.0017385333 0.14741376 0.38593423 0.23852047
0.039999999 0.071717866 0.0030524337 0.14741376 0.38593423 0.23852047
0.039999999 0.073674813 0.0043516145 0.14741376 0.38593423 0.23852047
0.039999999 0.075610146 0.0056363274 0.14741376 0.38593423 0.23852047
0.039999999 0.077524215 0.0069068172 0.14741376 0.38593423 0.23852047
0.039999999 0.079417385 0.0081633236 0.14741376 0.38593423 0.23852047
0.039545156 0.079999998 0.0084358966 0.14741376 0.38593423 0.23852047
0.038885236 0.079999998 0.0082702795 0.14741376 0.38593423 0.23852047
0.038224403 0.079999998 0.0081043206 0.14741376 0.38593423 0.23852047
0.03756265 0.079999998 0.007938019 0.14741376 0.38593423 0.23852047
0.036899969 0.079999998 0.0077713728 0.14741376 0.38593423 0.23852047
0.036236357 0.079999998 0.0076043801 0.14741376 0.38593423 0.23852047
0.03557181 0.079999998 0.0074370396 0.14741376 0.38593423 0.23852047
0.03490632 0.079999998 0.0072693489 0.14741376 0.38593423 0.23852047
0.034239884 0.079999998 0.0071013076 0.14741376 0.38593423 0.23852047
0.033572491 0.079999998 0.0069329129 0.14741376 0.38593423 0.23852047
0.032904141 0.079999998 0.0067641637 0.14741376 0.38593423 0.23852047
0.032234829 0.079999998 0.0065950584 0.14741376 0.38593423 0.23852047
0.031564541 0.079999998 0.0064255949 0.14741376 0.38593423 0.23852047
0.030893281 0.079999998 0.006255772 0.14741376 0.38593423 0.23852047
0.030221038 0.079999998 0.0060855877 0.14741376 0.38593423 0.23852047
0.029547807 0.079999998 0.0059150406 0.14741376 0.38593423 0.23852047
0.028873581 0.079999998 0.0057441285 0.14741376 0.38593423 0.23852047
0.028198358 0.079999998 0.0055728499 0.14741376 0.38593423 0.23852047
0.027522128 0.079999998 0.0054012029 0.14741376 0.38593423 0.23852047
0.026844889 0.079999998 0.0052291863 0.14741376 0.38593423 0.23852047
0.026166633 0.079999998 0.0050567975 0.14741376 0.38593423 0.23852047
0.025487352 0.079999998 0.0048840358 0.14741376 0.38593423 0.23852047
0.024807043 0.079999998 0.0047108987 0.14741376 0.38593423 0.23852047
0.024125701 0.079999998 0.0045373845 0.14741376 0.38593423 0.23852047
0.023443317 0.079999998 0.0043634912 0.14741376 0.38593423 0.23852047
0.022759885 0.079999998 0.0041892175 0.14741376 0.38593423 0.23852047
0.022075402 0.079999998 0.0040145614 0.14741376 0.38593423 0.23852047
0.021389859 0.079999998 0.0038395212 0.14741376 0.38593423 0.23852047
0.020703251 0.079999998 0.0036640947 0.14741376 0.38593423 0.23852047
0.020015571 0.079999998 0.0034882801 0.14741376 0.38593423 0.23852047
0.019326814 0.079999998 0.003312076 0.14741376 0.38593423 0.23852047
0.018636974 0.079999998 0.00313548 0.14741376 0.38593423 0.23852047
0.017946042 0.079999998 0.0029584907 0.14741376 0.38593423 0.23852047
0.017254014 0.079999998 0.0027811059 0.14741376 0.38593423 0.23852047
0.016560884 0.079999998 0.0026033237 0.14741376 0.38593423 0.23852047
0.015866645 0.079999998 0.0024251423 0.14741376 0.38593423 0.23852047
0.01517129 0.079999998 0.0022465598 0.14741376 0.38593423 0.23852047
0.014474814 0.079999998 0.0020675743 0.14741376 0.38593423 0.23852047
0.013777209 0.079999998 0.0018881838 0.14741376 0.38593423 0.23852047
0.01307847 0.079999998 0.0017083862 0.14741376 0.38593423 0.23852047
0.012378588 0.079999998 0.0015281799 0.14741376 0.38593423 0.23852047
0.011677559 0.079999998 0.0013475625 0.14741376 0.38593423 0.23852047
0.010975377 0.079999998 0.0011665324 0.14741376 0.38593423 0.23852047
0.010272032 0.079999998 0.00098508748 0.14741376 0.38593423 0.23852047
0.0095675196 0.079999998 0.00080322562 0.14741376 0.38593423 0.23852047
0.0088618323 0.079999998 0.00062094489 0.14741376 0.38593423 0.23852047
0.008154965 0.079999998 0.00043824333 0.14741376 0.38593423 0.23852047
0.0074469089 0.079999998 0.00025511879 0.14741376 0.38593423 0.23852047
0.0067376578 0.079999998 7.1569273e-05 0.14741376 0.38593423 0.23852047
0.039999999 0.069701344 0.0009242068 0.14741376 0.38593423 0.23852047
0.039999999 0.071682617 0.0022440667 0.14741376 0.38593423 0.23852047
0.039999999 0.073641844 0.0035491234 0.14741376 0.38593423 0.23852047
0.039999999 0.075579397 0.0048396294 0.14741376 0.38593423 0.23852047
0.039999999 0.077495649 0.0061158314 0.14741376 0.38593423 0.23852047
0.039999999 0.079390951 0.0073779714 0.14741376 0.38593423 0.23852047
0.039553776 0.079999998 0.0076712458 0.14741376 0.38593423 0.23852047
0.03889323 0.079999998 0.00750494 0.14741376 0.38593423 0.23852047
0.038231768 0.079999998 0.0073382896 0.14741376 0.38593423 0.23852047
0.037569381 0.079999998 0.0071712928 0.14741376 0.38593423 0.23852047
0.036906071 0.079999998 0.0070039476 0.14741376 0.38593423 0.23852047
0.036241826 0.079999998 0.0068362532 0.14741376 0.38593423 0.23852047
0.035576642 0.079999998 0.0066682072 0.14741376 0.38593423 0.23852047
0.034910511 0.079999998 0.0064998083 0.14741376 0.38593423 0.23852047
0.034243435 0.079999998 0.0063310545 0.14741376 0.38593423 0.23852047
0.033575404 0.079999998 0.0061619445 0.14741376 0.38593423 0.23852047
0.032906409 0.079999998 0.0059924768 0.14741376 0.38593423 0.23852047
0.032236449 0.079999998 0.0058226492 0.14741376 0.38593423 0.23852047
0.031565517 0.079999998 0.0056524603 0.14741376 0.38593423 0.23852047
0.030893605 0.079999998 0.0054819081 0.14741376 0.38593423 0.23852047
0.030220712 0.079999998 0.0053109913 0.14741376 0.38593423 0.23852047
0.029546827 0.079999998 0.0051397085 0.14741376 0.38593423 0.23852047
0.028871948 0.079999998 0.0049680569 0.14741376 0.38593423 0.23852047
0.028196068 0.079999998 0.0047960356 0.14741376 0.38593423 0.23852047
0.02751918 0.079999998 0.0046236422 0.14741376 0.38593423 0.23852047
0.026841279 0.079999998 0.0044508758 0.14741376 0.38593423 0.23852047
0.02616236 0.079999998 0.0042777341 0.14741376 0.38593423 0.23852047
0.025482416 0.079999998 0.0041042152 0.14741376 0.38593423 0.23852047
0.024801441 0.079999998 0.0039303177 0.14741376 0.38593423 0.23852047
0.024119429 0.079999998 0.0037560393 0.14741376 0.38593423 0.23852047
0.023436373 0.079999998 0.0035813786 0.14741376 0.38593423 0.23852047
0.02275227 0.079999998 0.003406334 0.14741376 0.38593423 0.23852047
0.022067111 0.079999998 0.0032309031 0.14741376 0.38593423 0.23852047
0.02138089 0.079999998 0.0030550843 0.14741376 0.38593423 0.23852047
0.020693604 0.079999998 0.0028788757 0.14741376 0.38593423 0.23852047
0.020005243 0.079999998 0.0027022755 0.14741376 0.38593423 0.23852047
0.019315802 0.079999998 0.0025252819 0.14741376 0.38593423 0.23852047
0.018625276 0.079999998 0.0023478931 0.14741376 0.38593423 0.23852047
0.017933657 0.079999998 0.0021701069 0.14741376 0.38593423 0.23852047
0.01724094 0.079999998 0.0019919216 0.14741376 0.38593423 0.23852047
0.016547117 0.079999998 0.0018133352 0.14741376 0.38593423 0.23852047
0.015852183 0.079999998 0.0016343459 0.14741376 0.38593423 0.23852047
0.015156132 0.079999998 0.0014549517 0.14741376 0.38593423 0.23852047
0.014458957 0.079999998 0.0012751507 0.14741376 0.38593423 0.23852047
0.013760651 0.079999998 0.0010949408 0.14741376 0.38593423 0.23852047
0.013061208 0.079999998 0.00091432029 0.14741376 0.38593423 0.23852047
0.012360621 0.079999998 0.00073328702 0.14741376 0.38593423 0.23852047
0.011658884 0.079999998 0.00055183901 0.14741376 0.38593423 0.23852047
0.01095599 0.079999998 0.00036997427 0.14741376 0.38593423 0.23852047
0.010251933 0.079999998 0.00018769082 0.14741376 0.38593423 0.23852047
0.0095467046 0.079999998 4.9866344e-06 0.14741376 0.38593423 0.23852047
0.039999999 0.069663681 0.00010788456 0.14741376 0.38593423 0.23852047
0.039999999 0.071647279 0.0014337283 0.14741376 0.38593423 0.23852047
0.039999999 0.073608786 0.0027446842 0.14741376 0.38593423 0.23852047
0.039999999 0.075548574 0.0040410068 0.14741376 0.38593423 0.23852047
0.039999999 0.077467009 0.0053229444 0.14741376 0.38593423 0.23852047
0.039999999 0.079364456 0.0065907403 0.14741376 0.38593423 0.23852047
0.039562415 0.079999998 0.0069048977 0.14741376 0.38593423 0.23852047
0.03890124 0.079999998 0.0067379009 0.14741376 0.38593423 0.23852047
0.038239148 0.079999998 0.0065705557 0.14741376 0.38593423 0.23852047
0.037576128 0.079999998 0.0064028609 0.14741376 0.38593423 0.23852047
0.036912184 0.079999998 0.0062348144 0.14741376 0.38593423 0.23852047
0.036247302 0.079999998 0.0060664155 0.14741376 0.38593423 0.23852047
0.035581481 0.079999998 0.0058976612 0.14741376 0.38593423 0.23852047
0.034914713 0.079999998 0.0057285512 0.14741376 0.38593423 0.23852047
0.034246996 0.079999998 0.0055590831 0.14741376 0.38593423 0.23852047
0.033578318 0.079999998 0.005389255 0.14741376 0.38593423 0.23852047
0.032908682 0.079999998 0.0052190656 0.14741376 0.38593423 0.23852047
0.032238074 0.079999998 0.0050485134 0.14741376 0.38593423 0.23852047
0.031566493 0.079999998 0.0048775962 0.14741376 0.38593423 0.23852047
0.030893931 0.079999998 0.0047063124 0.14741376 0.38593423 0.23852047
0.030220386 0.079999998 0.0045346604 0.14741376 0.38593423 0.23852047
0.029545847 0.079999998 0.0043626386 0.14741376 0.38593423 0.23852047
0.028870311 0.079999998 0.0041902452 0.14741376 0.38593423 0.23852047
0.028193772 0.079999998 0.0040174783 0.14741376 0.38593423 0.23852047
0.027516225 0.079999998 0.0038443359 0.14741376 0.38593423 0.23852047
0.026837662 0.079999998 0.0036708168 0.14741376 0.38593423 0.23852047
0.026158078 0.079999998 0.0034969188 0.14741376 0.38593423 0.23852047
0.025477467 0.079999998 0.0033226402 0.14741376 0.38593423 0.23852047
0.024795825 0.079999998 0.0031479793 0.14741376 0.38593423 0.23852047
0.024113143 0.079999998 0.0029729342 0.14741376 0.38593423 0.23852047
0.023429414 0.079999998 0.002797503 0.14741376 0.38593423 0.23852047
0.022744637 0.079999998 0.0026216842 0.14741376 0.38593423 0.23852047
0.022058802 0.079999998 0.0024454754 0.14741376 0.38593423 0.23852047
0.021371903 0.079999998 0.0022688755 0.14741376 0.38593423 0.23852047
0.020683935 0.079999998 0.0020918818 0.14741376 0.38593423 0.23852047
0.019994892 0.079999998 0.001914493 0.14741376 0.38593423 0.23852047
0.019304765 0.079999998 0.0017367071 0.14741376 0.38593423 0.23852047
0.018613553 0.079999998 0.0015585221 0.14741376 0.38593423 0.23852047
0.017921245 0.079999998 0.0013799361 0.14741376 0.38593423 0.23852047
0.017227836 0.079999998 0.0012009473 0.14741376 0.38593423 0.23852047
0.016533319 0.079999998 0.0010215538 0.14741376 0.38593423 0.23852047
0.01583769 0.079999998 0.00084175344 0.14741376 0.38593423 0.23852047
0.01514094 0.079999998 0.00066154444 0.14741376 0.38593423 0.23852047
0.014443064 0.079999998 0.00048092485 0.14741376 0.38593423 0.23852047
0.013744055 0.079999998 0.00029989265 0.14741376 0.38593423 0.23852047
0.013043907 0.079999998 0.00011844585 0.14741376 0.38593423 0.23852047
0.039999999 0.071611859 0.00062140723 0.14741376 0.38593423 0.23852047
0.039999999 0.073575653 0.0019382866 0.14741376 0.38593423 0.23852047
0.039999999 0.075517677 0.0032404494 0.14741376 0.38593423 0.23852047
0.039999999 0.077438302 0.0045281453 0.14741376 0.38593423 0.23852047
0.039999999 0.079337895 0.00580162 0.14741376 0.38593423 0.23852047
0.039571073 0.079999998 0.0061368425 0.14741376 0.38593423 0.23852047
0.038909268 0.079999998 0.0059691514 0.14741376 0.38593423 0.23852047
0.038246542 0.079999998 0.0058011091 0.14741376 0.38593423 0.23852047
0.037582893 0.079999998 0.0056327139 0.14741376 0.38593423 0.23852047
0.036918309 0.079999998 0.0054639638 0.14741376 0.38593423 0.23852047
0.036252793 0.079999998 0.0052948575 0.14741376 0.38593423 0.23852047
0.035586331 0.079999998 0.0051253932 0.14741376 0.38593423 0.23852047
0.034918923 0.079999998 0.0049555688 0.14741376 0.38593423 0.23852047
0.034250561 0.079999998 0.0047853831 0.14741376 0.38593423 0.23852047
0.033581242 0.079999998 0.0046148347 0.14741376 0.38593423 0.23852047
0.032910958 0.079999998 0.0044439211 0.14741376 0.38593423 0.23852047
0.032239702 0.079999998 0.0042726411 0.14741376 0.38593423 0.23852047
0.031567473 0.079999998 0.0041009933 0.14741376 0.38593423 0.23852047
0.030894259 0.079999998 0.0039289752 0.14741376 0.38593423 0.23852047
0.030220058 0.079999998 0.0037565853 0.14741376 0.38593423 0.23852047
0.029544864 0.079999998 0.0035838219 0.14741376 0.38593423 0.23852047
0.02886867 0.079999998 0.0034106835 0.14741376 0.38593423 0.23852047
0.028191471 0.079999998 0.0032371681 0.14741376 0.38593423 0.23852047
0.027513262 0.079999998 0.0030632738 0.14741376 0.38593423 0.23852047
0.026834037 0.079999998 0.0028889992 0.14741376 0.38593423 0.23852047
0.026153786 0.079999998 0.0027143422 0.14741376 0.38593423 0.23852047
0.025472509 0.079999998 0.0025393011 0.14741376 0.38593423 0.23852047
0.024790196 0.079999998 0.0023638739 0.14741376 0.38593423 0.23852047
0.024106842 0.079999998 0.002188059 0.14741376 0.38593423 0.23852047
0.023422441 0.079999998 0.0020118547 0.14741376 0.38593423 0.23852047
0.022736987 0.079999998 0.0018352587 0.14741376 0.38593423 0.23852047
0.022050474 0.079999998 0.0016582693 0.14741376 0.38593423 0.23852047
0.021362895 0.079999998 0.0014808849 0.14741376 0.38593423 0.23852047
0.020674245 0.079999998 0.0013031034 0.14741376 0.38593423 0.23852047
0.019984517 0.079999998 0.0011249229 0.14741376 0.38593423 0.23852047
0.019293705 0.079999998 0.00094634155 0.14741376 0.38593423 0.23852047
0.018601801 0.079999998 0.00076735747 0.14741376 0.38593423 0.23852047
0.017908802 0.079999998 0.00058796868 0.14741376 0.38593423 0.23852047
0.017214701 0.079999998 0.00040817331 0.14741376 0.38593423 0.23852047
0.016519489 0.079999998 0.00022796937 0.14741376 0.38593423 0.23852047
0.015823161 0.079999998 4.7354952e-05 0.14741376 0.38593423 0.23852047
0.039999999 0.073542438 0.0011299191 0.14741376 0.38593423 0.23852047
0.039999999 0.075486705 0.0024379457 0.14741376 0.38593423 0.23852047
0.039999999 0.077409528 0.0037314238 0.14741376 0.38593423 0.23852047
0.039999999 0.079311267 0.0050105997 0.14741376 0.38593423 0.23852047
0.039579749 0.079999998 0.0053670704 0.14741376 0.38593423 0.23852047
0.038917314 0.079999998 0.0051986831 0.14741376 0.38593423 0.23852047
0.038253956 0.079999998 0.005029941 0.14741376 0.38593423 0.23852047
