# .PCD v0.7 - Point Cloud Data file format
VERSION 0.7
FIELDS x y z vp_x vp_y vp_z
SIZE 4 4 4 4 4 4
TYPE F F F F F F
COUNT 1 1 1 1 1 1
WIDTH 722
HEIGHT 1
VIEWPOINT 0 0 0 1 0 0 0
POINTS 722
DATA ascii
0 0.063877784 0.034081258 -0.14741376 0.38593423 0.23852047
2.7755576e-17 0.062328935 0.033244409 -0.14741376 0.38593423 0.23852047
0 0.060767621 0.03240082 -0.14741376 0.38593423 0.23852047
0 0.059193682 0.031550415 -0.14741376 0.38593423 0.23852047
0 0.057606954 0.030693099 -0.14741376 0.38593423 0.23852047
0 0.056007281 0.029828783 -0.14741376 0.38593423 0.23852047
0 0.054394487 0.02895738 -0.14741376 0.38593423 0.23852047
0 0.052768409 0.028078798 -0.14741376 0.38593423 0.23852047
0 0.051128868 0.027192941 -0.14741376 0.38593423 0.23852047
0 0.049475692 0.026299715 -0.14741376 0.38593423 0.23852047
0 0.047808699 0.025399024 -0.14741376 0.38593423 0.23852047
0 0.04612771 0.024490768 -0.14741376 0.38593423 0.23852047
0 0.044432536 0.023574848 -0.14741376 0.38593423 0.23852047
0 0.042722993 0.022651162 -0.14741376 0.38593423 0.23852047
0 0.040998884 0.021719605 -0.14741376 0.38593423 0.23852047
0 0.039260011 0.020780073 -0.14741376 0.38593423 0.23852047
0 0.037506185 0.019832456 -0.14741376 0.38593423 0.23852047
0 0.035737194 0.018876649 -0.14741376 0.38593423 0.23852047
0 0.03395284 0.017912537 -0.14741376 0.38593423 0.23852047
0 0.032152902 0.016940005 -0.14741376 0.38593423 0.23852047
0 0.030337177 0.015958941 -0.14741376 0.38593423 0.23852047
0 0.028505441 0.014969226 -0.14741376 0.38593423 0.23852047
0 0.026657475 0.01397074 -0.14741376 0.38593423 0.23852047
0 0.024793049 0.012963361 -0.14741376 0.38593423 0.23852047
0 0.022911938 0.011946964 -0.14741376 0.38593423 0.23852047
0 0.021013904 0.010921423 -0.14741376 0.38593423 0.23852047
0 0.01909871 0.0098866085 -0.14741376 0.38593423 0.23852047
0 0.017166112 0.00884239 -0.14741376 0.38593423 0.23852047
0 0.015215863 0.0077886321 -0.14741376 0.38593423 0.23852047
0 0.013247707 0.0067251991 -0.14741376 0.38593423 0.23852047
0 0.01126139 0.0056519513 -0.14741376 0.38593423 0.23852047
0 0.009256647 0.0045687472 -0.14741376 0.38593423 0.23852047
0 0.0072332122 0.0034754425 -0.14741376 0.38593423 0.23852047
0 0.0051908121 0.0023718891 -0.14741376 0.38593423 0.23852047
0 0.0031291684 0.0012579371 -0.14741376 0.38593423 0.23852047
0 0.001047998 0.00013343304 -0.14741376 0.38593423 0.23852047
0.039608222 0.079999998 0.03386455 -0.14741376 0.38593423 0.23852047
0.03885207 0.079999998 0.034021467 -0.14741376 0.38593423 0.23852047
0.038097452 0.079999998 0.034178067 -0.14741376 0.38593423 0.23852047
0.037344359 0.079999998 0.034334343 -0.14741376 0.38593423 0.23852047
0.036592785 0.079999998 0.034490302 -0.14741376 0.38593423 0.23852047
0.03584272 0.079999998 0.034645945 -0.14741376 0.38593423 0.23852047
0.035094161 0.079999998 0.034801275 -0.14741376 0.38593423 0.23852047
0.034347091 0.079999998 0.034956291 -0.14741376 0.38593423 0.23852047
0.033601504 0.079999998 0.035110999 -0.14741376 0.38593423 0.23852047
0.032857396 0.079999998 0.035265394 -0.14741376 0.38593423 0.23852047
0.032114759 0.079999998 0.035419483 -0.14741376 0.38593423 0.23852047
0.031373579 0.079999998 0.035573266 -0.14741376 0.38593423 0.23852047
0.030633854 0.079999998 0.035726745 -0.14741376 0.38593423 0.23852047
0.029895574 0.079999998 0.035879921 -0.14741376 0.38593423 0.23852047
0.02915873 0.079999998 0.0360328 -0.14741376 0.38593423 0.23852047
0.028423315 0.079999998 0.036185376 -0.14741376 0.38593423 0.23852047
0.027689323 0.079999998 0.036337655 -0.14741376 0.38593423 0.23852047
0.026956744 0.079999998 0.036489636 -0.14741376 0.38593423 0.23852047
0.026225571 0.079999998 0.036641326 -0.14741376 0.38593423 0.23852047
0.025495796 0.079999998 0.036792722 -0.14741376 0.38593423 0.23852047
0.024767412 0.079999998 0.036943823 -0.14741376 0.38593423 0.23852047
0.024040412 0.079999998 0.037094638 -0.14741376 0.38593423 0.23852047
0.023314787 0.079999998 0.037245166 -0.14741376 0.38593423 0.23852047
0.022590529 0.079999998 0.037395407 -0.14741376 0.38593423 0.23852047
0.021867633 0.079999998 0.037545361 -0.14741376 0.38593423 0.23852047
0.021146091 0.079999998 0.037695032 -0.14741376 0.38593423 0.23852047
0.020425893 0.079999998 0.037844423 -0.14741376 0.38593423 0.23852047
0.019707035 0.079999998 0.037993532 -0.14741376 0.38593423 0.23852047
0.018989509 0.079999998 0.038142361 -0.14741376 0.38593423 0.23852047
0.018273307 0.079999998 0.038290914 -0.14741376 0.38593423 0.23852047
0.017558422 0.079999998 0.038439192 -0.14741376 0.38593423 0.23852047
0.016844846 0.079999998 0.038587194 -0.14741376 0.38593423 0.23852047
0.016132573 0.079999998 0.038734924 -0.14741376 0.38593423 0.23852047
0.015421596 0.079999998 0.038882382 -0.14741376 0.38593423 0.23852047
0.014711907 0.079999998 0.039029572 -0.14741376 0.38593423 0.23852047
0.0140035 0.079999998 0.03917649 -0.14741376 0.38593423 0.23852047
0.013296368 0.079999998 0.039323144 -0.14741376 0.38593423 0.23852047
0.012590503 0.079999998 0.039469533 -0.14741376 0.38593423 0.23852047
0.0118859 0.079999998 0.039615657 -0.14741376 0.38593423 0.23852047
0.011182549 0.079999998 0.039761517 -0.14741376 0.38593423 0.23852047
0.010480447 0.079999998 0.039907116 -0.14741376 0.38593423 0.23852047
0.0098211318 0.079919137 0.039999999 -0.14741376 0.38593423 0.23852047
0.00923583 0.079695277 0.039999999 -0.14741376 0.38593423 0.23852047
0.0086506968 0.079471484 0.039999999 -0.14741376 0.38593423 0.23852047
0.0080657313 0.079247765 0.039999999 -0.14741376 0.38593423 0.23852047
0.0074809296 0.079024106 0.039999999 -0.14741376 0.38593423 0.23852047
0.0068962886 0.078800514 0.039999999 -0.14741376 0.38593423 0.23852047
0.006311805 0.078576989 0.039999999 -0.14741376 0.38593423 0.23852047
0.0057274769 0.078353532 0.039999999 -0.14741376 0.38593423 0.23852047
0.0051433006 0.078130133 0.039999999 -0.14741376 0.38593423 0.23852047
0.0045592734 0.077906802 0.039999999 -0.14741376 0.38593423 0.23852047
0.0039753923 0.077683531 0.039999999 -0.14741376 0.38593423 0.23852047
0.0033916547 0.077460311 0.039999999 -0.14741376 0.38593423 0.23852047
0.0028080572 0.077237159 0.039999999 -0.14741376 0.38593423 0.23852047
0.0022245974 0.077014059 0.039999999 -0.14741376 0.38593423 0.23852047
0.001641272 0.076791018 0.039999999 -0.14741376 0.38593423 0.23852047
0.0010580783 0.07656803 0.039999999 -0.14741376 0.38593423 0.23852047
0.00047501322 0.076345101 0.039999999 -0.14741376 0.38593423 0.23852047
0 0.075895227 0.039854549 -0.14741376 0.38593423 0.23852047
0 0.074439809 0.039065406 -0.14741376 0.38593423 0.23852047
0 0.072973087 0.038270131 -0.14741376 0.38593423 0.23852047
2.7755576e-17 0.071494929 0.037468649 -0.14741376 0.38593423 0.23852047
2.7755576e-17 0.070005186 0.036660887 -0.14741376 0.38593423 0.23852047
2.7755576e-17 0.068503723 0.035846762 -0.14741376 0.38593423 0.23852047
0 0.066990376 0.0350262 -0.14741376 0.38593423 0.23852047
0 0.065465018 0.034199115 -0.14741376 0.38593423 0.23852047
0 0.063927487 0.033365428 -0.14741376 0.38593423 0.23852047
0 0.062377624 0.032525055 -0.14741376 0.38593423 0.23852047
0 0.060815282 0.031677909 -0.14741376 0.38593423 0.23852047
0 0.059240296 0.030823907 -0.14741376 0.38593423 0.23852047
0 0.057652507 0.029962959 -0.14741376 0.38593423 0.23852047
0 0.05605175 0.029094974 -0.14741376 0.38593423 0.23852047
2.7755576e-17 0.054437853 0.028219866 -0.14741376 0.38593423 0.23852047
0 0.05281065 0.027337536 -0.14741376 0.38593423 0.23852047
0 0.051169965 0.026447896 -0.14741376 0.38593423 0.23852047
0 0.049515627 0.025550848 -0.14741376 0.38593423 0.23852047
0 0.04784745 0.024646293 -0.14741376 0.38593423 0.23852047
0 0.046165254 0.023734136 -0.14741376 0.38593423 0.23852047
0 0.044468854 0.02281427 -0.14741376 0.38593423 0.23852047
0 0.042758059 0.021886598 -0.14741376 0.38593423 0.23852047
0 0.041032679 0.020951014 -0.14741376 0.38593423 0.23852047
0 0.039292514 0.020007411 -0.14741376 0.38593423 0.23852047
0 0.03753737 0.019055679 -0.14741376 0.38593423 0.23852047
0 0.035767037 0.018095711 -0.14741376 0.38593423 0.23852047
0 0.033981312 0.017127395 -0.14741376 0.38593423 0.23852047
0 0.032179989 0.016150614 -0.14741376 0.38593423 0.23852047
0 0.030362844 0.015165253 -0.14741376 0.38593423 0.23852047
0 0.028529665 0.014171194 -0.14741376 0.38593423 0.23852047
0 0.026680227 0.013168315 -0.14741376 0.38593423 0.23852047
0 0.024814306 0.012156496 -0.14741376 0.38593423 0.23852047
0 0.022931671 0.011135609 -0.14741376 0.38593423 0.23852047
0 0.021032084 0.010105527 -0.14741376 0.38593423 0.23852047
0 0.019115306 0.0090661207 -0.14741376 0.38593423 0.23852047
0.0051272786 0.0043552937 2.7755576e-17 -0.14741376 0.38593423 0.23852047
0 0.015229206 0.0069588036 -0.14741376 0.38593423 0.23852047
0 0.013259377 0.0058906199 -0.14741376 0.38593423 0.23852047
0 0.011271356 0.0048125675 -0.14741376 0.38593423 0.23852047
0 0.0092648771 0.0037245026 -0.14741376 0.38593423 0.23852047
0 0.0072396733 0.0026262805 -0.14741376 0.38593423 0.23852047
0 0.0051954705 0.0015177527 -0.14741376 0.38593423 0.23852047
0.00024686466 0.0024909349 2.7755576e-17 -0.14741376 0.38593423 0.23852047
0.039677761 0.079999998 0.03309951 -0.14741376 0.38593423 0.23852047
0.03892079 0.079999998 0.033257362 -0.14741376 0.38593423 0.23852047
0.038165357 0.079999998 0.033414889 -0.14741376 0.38593423 0.23852047
0.037411455 0.079999998 0.033572093 -0.14741376 0.38593423 0.23852047
0.036659069 0.079999998 0.033728972 -0.14741376 0.38593423 0.23852047
0.0359082 0.079999998 0.033885535 -0.14741376 0.38593423 0.23852047
0.035158835 0.079999998 0.034041777 -0.14741376 0.38593423 0.23852047
0.034410965 0.079999998 0.034197703 -0.14741376 0.38593423 0.23852047
0.033664584 0.079999998 0.034353316 -0.14741376 0.38593423 0.23852047
0.032919683 0.079999998 0.034508616 -0.14741376 0.38593423 0.23852047
0.032176252 0.079999998 0.034663603 -0.14741376 0.38593423 0.23852047
0.03143429 0.079999998 0.034818277 -0.14741376 0.38593423 0.23852047
0.030693779 0.079999998 0.034972645 -0.14741376 0.38593423 0.23852047
0.029954718 0.079999998 0.035126708 -0.14741376 0.38593423 0.23852047
0.029217096 0.079999998 0.035280466 -0.14741376 0.38593423 0.23852047
0.028480908 0.079999998 0.035433922 -0.14741376 0.38593423 0.23852047
0.027746143 0.079999998 0.035587076 -0.14741376 0.38593423 0.23852047
0.027012795 0.079999998 0.035739928 -0.14741376 0.38593423 0.23852047
0.026280858 0.079999998 0.035892483 -0.14741376 0.38593423 0.23852047
0.025550319 0.079999998 0.036044743 -0.14741376 0.38593423 0.23852047
0.024821175 0.079999998 0.036196705 -0.14741376 0.38593423 0.23852047
0.024093419 0.079999998 0.036348376 -0.14741376 0.38593423 0.23852047
0.02336704 0.079999998 0.036499754 -0.14741376 0.38593423 0.23852047
0.022642031 0.079999998 0.036650844 -0.14741376 0.38593423 0.23852047
0.021918388 0.079999998 0.036801644 -0.14741376 0.38593423 0.23852047
0.021196099 0.079999998 0.036952153 -0.14741376 0.38593423 0.23852047
0.02047516 0.079999998 0.037102383 -0.14741376 0.38593423 0.23852047
0.019755563 0.079999998 0.037252322 -0.14741376 0.38593423 0.23852047
0.019037299 0.079999998 0.037401982 -0.14741376 0.38593423 0.23852047
0.018320361 0.079999998 0.037551362 -0.14741376 0.38593423 0.23852047
0.017604744 0.079999998 0.037700463 -0.14741376 0.38593423 0.23852047
0.01689044 0.079999998 0.037849285 -0.14741376 0.38593423 0.23852047
0.016177442 0.079999998 0.037997827 -0.14741376 0.38593423 0.23852047
0.015465741 0.079999998 0.038146097 -0.14741376 0.38593423 0.23852047
0.014755332 0.079999998 0.038294096 -0.14741376 0.38593423 0.23852047
0.014046206 0.079999998 0.038441818 -0.14741376 0.38593423 0.23852047
0.013338359 0.079999998 0.038589273 -0.14741376 0.38593423 0.23852047
0.012631781 0.079999998 0.038736459 -0.14741376 0.38593423 0.23852047
0.011926468 0.079999998 0.038883377 -0.14741376 0.38593423 0.23852047
0.011222409 0.079999998 0.039030027 -0.14741376 0.38593423 0.23852047
0.010519601 0.079999998 0.039176412 -0.14741376 0.38593423 0.23852047
0.009818037 0.079999998 0.039322536 -0.14741376 0.38593423 0.23852047
0.0091177076 0.079999998 0.039468396 -0.14741376 0.38593423 0.23852047
0.0084186085 0.079999998 0.039613999 -0.14741376 0.38593423 0.23852047
0.0077207321 0.079999998 0.039759338 -0.14741376 0.38593423 0.23852047
0.0070240716 0.079999998 0.039904423 -0.14741376 0.38593423 0.23852047
0.006366773 0.079924077 0.039999999 -0.14741376 0.38593423 0.23852047
0.0057839463 0.079701006 0.039999999 -0.14741376 0.38593423 0.23852047
0.0052012727 0.079478003 0.039999999 -0.14741376 0.38593423 0.23852047
0.004618749 0.079255067 0.039999999 -0.14741376 0.38593423 0.23852047
0.0040363721 0.079032198 0.039999999 -0.14741376 0.38593423 0.23852047
0.0034541395 0.078809388 0.039999999 -0.14741376 0.38593423 0.23852047
0.0028720479 0.078586638 0.039999999 -0.14741376 0.38593423 0.23852047
0.0022900947 0.078363955 0.039999999 -0.14741376 0.38593423 0.23852047
0.0017082769 0.078141324 0.039999999 -0.14741376 0.38593423 0.23852047
0.0011265917 0.07791876 0.039999999 -0.14741376 0.38593423 0.23852047
0.00054503599 0.077696249 0.039999999 -0.14741376 0.38593423 0.23852047
2.7755576e-17 0.077397622 0.039950978 -0.14741376 0.38593423 0.23852047
2.7755576e-17 0.0759525 0.039164651 -0.14741376 0.38593423 0.23852047
0 0.074496202 0.038372241 -0.14741376 0.38593423 0.23852047
0 0.073028587 0.037573665 -0.14741376 0.38593423 0.23852047
2.7755576e-17 0.071549512 0.036768854 -0.14741376 0.38593423 0.23852047
2.7755576e-17 0.070058845 0.035957728 -0.14741376 0.38593423 0.23852047
0 0.068556428 0.035140209 -0.14741376 0.38593423 0.23852047
0 0.067042127 0.034316216 -0.14741376 0.38593423 0.23852047
0 0.065515794 0.033485666 -0.14741376 0.38593423 0.23852047
2.7755576e-17 0.063977264 0.032648481 -0.14741376 0.38593423 0.23852047
2.7755576e-17 0.062426392 0.031804573 -0.14741376 0.38593423 0.23852047
0 0.060863018 0.030953858 -0.14741376 0.38593423 0.23852047
0 0.059286986 0.030096248 -0.14741376 0.38593423 0.23852047
0 0.057698131 0.029231656 -0.14741376 0.38593423 0.23852047
0 0.056096286 0.028359994 -0.14741376 0.38593423 0.23852047
0 0.054481287 0.027481167 -0.14741376 0.38593423 0.23852047
0 0.052852958 0.026595084 -0.14741376 0.38593423 0.23852047
0 0.05121113 0.025701648 -0.14741376 0.38593423 0.23852047
0 0.049555626 0.024800766 -0.14741376 0.38593423 0.23852047
0 0.047886264 0.023892337 -0.14741376 0.38593423 0.23852047
0 0.046202861 0.022976264 -0.14741376 0.38593423 0.23852047
0 0.044505235 0.022052445 -0.14741376 0.38593423 0.23852047
0 0.042793188 0.021120774 -0.14741376 0.38593423 0.23852047
0 0.041066531 0.020181149 -0.14741376 0.38593423 0.23852047
0 0.039325073 0.019233461 -0.14741376 0.38593423 0.23852047
0 0.037568606 0.018277604 -0.14741376 0.38593423 0.23852047
0 0.035796929 0.017313464 -0.14741376 0.38593423 0.23852047
0 0.034009837 0.01634093 -0.14741376 0.38593423 0.23852047
0 0.032207116 0.015359885 -0.14741376 0.38593423 0.23852047
0 0.030388555 0.014370214 -0.14741376 0.38593423 0.23852047
0 0.028553929 0.013371798 -0.14741376 0.38593423 0.23852047
0 0.026703021 0.012364514 -0.14741376 0.38593423 0.23852047
0 0.0248356 0.01134824 -0.14741376 0.38593423 0.23852047
0 0.022951435 0.010322848 -0.14741376 0.38593423 0.23852047
0 0.021050293 0.0092882123 -0.14741376 0.38593423 0.23852047
0 0.019131932 0.0082441997 -0.14741376 0.38593423 0.23852047
0 0.017196108 0.0071906783 -0.14741376 0.38593423 0.23852047
0 0.015242572 0.0061275121 -0.14741376 0.38593423 0.23852047
0 0.013271069 0.0050545628 -0.14741376 0.38593423 0.23852047
0 0.01128134 0.0039716898 -0.14741376 0.38593423 0.23852047
0 0.009273123 0.002878749 -0.14741376 0.38593423 0.23852047
0 0.0072461464 0.0017755938 -0.14741376 0.38593423 0.23852047
0 0.0052001378 0.0006620753 -0.14741376 0.38593423 0.23852047
0.039747447 0.079999998 0.032332942 -0.14741376 0.38593423 0.23852047
0.038989652 0.079999998 0.032491732 -0.14741376 0.38593423 0.23852047
0.038233399 0.079999998 0.032650191 -0.14741376 0.38593423 0.23852047
0.037478682 0.079999998 0.032808322 -0.14741376 0.38593423 0.23852047
0.036725488 0.079999998 0.032966129 -0.14741376 0.38593423 0.23852047
0.03597381 0.079999998 0.033123612 -0.14741376 0.38593423 0.23852047
0.035223641 0.079999998 0.033280771 -0.14741376 0.38593423 0.23852047
0.034474969 0.079999998 0.033437613 -0.14741376 0.38593423 0.23852047
0.033727787 0.079999998 0.033594131 -0.14741376 0.38593423 0.23852047
0.032982092 0.079999998 0.033750337 -0.14741376 0.38593423 0.23852047
0.032237872 0.079999998 0.033906225 -0.14741376 0.38593423 0.23852047
0.031495117 0.079999998 0.034061797 -0.14741376 0.38593423 0.23852047
0.030753823 0.079999998 0.03421706 -0.14741376 0.38593423 0.23852047
0.030013978 0.079999998 0.034372013 -0.14741376 0.38593423 0.23852047
0.029275579 0.079999998 0.034526654 -0.14741376 0.38593423 0.23852047
0.028538613 0.079999998 0.034680992 -0.14741376 0.38593423 0.23852047
0.027803076 0.079999998 0.034835022 -0.14741376 0.38593423 0.23852047
0.027068958 0.079999998 0.03498875 -0.14741376 0.38593423 0.23852047
0.026336251 0.079999998 0.035142176 -0.14741376 0.38593423 0.23852047
0.02560495 0.079999998 0.0352953 -0.14741376 0.38593423 0.23852047
0.024875045 0.079999998 0.035448126 -0.14741376 0.38593423 0.23852047
0.024146529 0.079999998 0.035600655 -0.14741376 0.38593423 0.23852047
0.023419395 0.079999998 0.035752885 -0.14741376 0.38593423 0.23852047
0.022693634 0.079999998 0.035904825 -0.14741376 0.38593423 0.23852047
0.02196924 0.079999998 0.036056474 -0.14741376 0.38593423 0.23852047
0.021246204 0.079999998 0.036207829 -0.14741376 0.38593423 0.23852047
0.020524522 0.079999998 0.036358893 -0.14741376 0.38593423 0.23852047
0.019804182 0.079999998 0.036509674 -0.14741376 0.38593423 0.23852047
0.01908518 0.079999998 0.036660165 -0.14741376 0.38593423 0.23852047
0.018367508 0.079999998 0.036810376 -0.14741376 0.38593423 0.23852047
0.017651157 0.079999998 0.0369603 -0.14741376 0.38593423 0.23852047
0.016936123 0.079999998 0.037109941 -0.14741376 0.38593423 0.23852047
0.016222397 0.079999998 0.037259307 -0.14741376 0.38593423 0.23852047
0.015509971 0.079999998 0.037408389 -0.14741376 0.38593423 0.23852047
0.01479884 0.079999998 0.037557196 -0.14741376 0.38593423 0.23852047
0.014088995 0.079999998 0.037705731 -0.14741376 0.38593423 0.23852047
0.013380431 0.079999998 0.037853986 -0.14741376 0.38593423 0.23852047
0.012673139 0.079999998 0.038001973 -0.14741376 0.38593423 0.23852047
0.011967112 0.079999998 0.038149688 -0.14741376 0.38593423 0.23852047
0.011262346 0.079999998 0.038297132 -0.14741376 0.38593423 0.23852047
0.010558832 0.079999998 0.038444307 -0.14741376 0.38593423 0.23852047
0.0098565621 0.079999998 0.038591217 -0.14741376 0.38593423 0.23852047
0.0091555323 0.079999998 0.03873786 -0.14741376 0.38593423 0.23852047
0.0084557338 0.079999998 0.038884241 -0.14741376 0.38593423 0.23852047
0.0077571608 0.079999998 0.039030358 -0.14741376 0.38593423 0.23852047
0.007059806 0.079999998 0.039176214 -0.14741376 0.38593423 0.23852047
0.0063636634 0.079999998 0.03932181 -0.14741376 0.38593423 0.23852047
0.0056687258 0.079999998 0.039467148 -0.14741376 0.38593423 0.23852047
0.0049749874 0.079999998 0.03961223 -0.14741376 0.38593423 0.23852047
0.004282441 0.079999998 0.039757058 -0.14741376 0.38593423 0.23852047
0.0035910807 0.079999998 0.039901629 -0.14741376 0.38593423 0.23852047
0.0029356985 0.079929173 0.039999999 -0.14741376 0.38593423 0.23852047
0.002355244 0.079706892 0.039999999 -0.14741376 0.38593423 0.23852047
0.0017749257 0.079484671 0.039999999 -0.14741376 0.38593423 0.23852047
0.0011947409 0.07926251 0.039999999 -0.14741376 0.38593423 0.23852047
0.00061468646 0.079040416 0.039999999 -0.14741376 0.38593423 0.23852047
3.4759803e-05 0.078818381 0.039999999 -0.14741376 0.38593423 0.23852047
2.7755576e-17 0.077455848 0.039263275 -0.14741376 0.38593423 0.23852047
0 0.076009862 0.038473703 -0.14741376 0.38593423 0.23852047
0 0.074552678 0.037678014 -0.14741376 0.38593423 0.23852047
0 0.073084161 0.036876135 -0.14741376 0.38593423 0.23852047
2.7755576e-17 0.071604177 0.036067981 -0.14741376 0.38593423 0.23852047
0 0.070112579 0.035253484 -0.14741376 0.38593423 0.23852047
0 0.068609223 0.034432556 -0.14741376 0.38593423 0.23852047
2.7755576e-17 0.067093961 0.033605121 -0.14741376 0.38593423 0.23852047
2.7755576e-17 0.065566644 0.032771099 -0.14741376 0.38593423 0.23852047
0 0.064027123 0.031930406 -0.14741376 0.38593423 0.23852047
0 0.062475238 0.031082952 -0.14741376 0.38593423 0.23852047
0 0.060910832 0.030228658 -0.14741376 0.38593423 0.23852047
0 0.059333749 0.029367434 -0.14741376 0.38593423 0.23852047
0 0.057743825 0.02849919 -0.14741376 0.38593423 0.23852047
0 0.056140896 0.027623836 -0.14741376 0.38593423 0.23852047
0 0.05452479 0.026741281 -0.14741376 0.38593423 0.23852047
2.7755576e-17 0.052895337 0.02585143 -0.14741376 0.38593423 0.23852047
0 0.051252361 0.024954189 -0.14741376 0.38593423 0.23852047
0 0.049595691 0.024049461 -0.14741376 0.38593423 0.23852047
0 0.047925141 0.023137148 -0.14741376 0.38593423 0.23852047
0 0.046240531 0.022217149 -0.14741376 0.38593423 0.23852047
0 0.044541672 0.02128936 -0.14741376 0.38593423 0.23852047
0 0.042828374 0.02035368 -0.14741376 0.38593423 0.23852047
0 0.041100442 0.019410003 -0.14741376 0.38593423 0.23852047
0 0.039357685 0.018458221 -0.14741376 0.38593423 0.23852047
0 0.037599895 0.017498223 -0.14741376 0.38593423 0.23852047
0 0.035826873 0.016529897 -0.14741376 0.38593423 0.23852047
0 0.03403841 0.015553134 -0.14741376 0.38593423 0.23852047
0 0.032234292 0.014567813 -0.14741376 0.38593423 0.23852047
0 0.030414307 0.013573819 -0.14741376 0.38593423 0.23852047
0 0.028578235 0.012571031 -0.14741376 0.38593423 0.23852047
0 0.026725851 0.011559328 -0.14741376 0.38593423 0.23852047
0 0.024856929 0.010538585 -0.14741376 0.38593423 0.23852047
0 0.022971235 0.0095086759 -0.14741376 0.38593423 0.23852047
0 0.021068536 0.0084694698 -0.14741376 0.38593423 0.23852047
0.0047336011 0.0073707388 0 -0.14741376 0.38593423 0.23852047
0 0.017211147 0.0063626426 -0.14741376 0.38593423 0.23852047
0 0.015255962 0.00529475 -0.14741376 0.38593423 0.23852047
2.7755576e-17 0.013282781 0.0042170198 -0.14741376 0.38593423 0.23852047
0 0.011291343 0.0031293109 -0.14741376 0.38593423 0.23852047
0 0.0072526308 0.00092337414 -0.14741376 0.38593423 0.23852047
0.039817266 0.079999998 0.031564835 -0.14741376 0.38593423 0.23852047
0.039058652 0.079999998 0.031724568 -0.14741376 0.38593423 0.23852047
0.03830158 0.079999998 0.031883962 -0.14741376 0.38593423 0.23852047
0.037546046 0.079999998 0.032043029 -0.14741376 0.38593423 0.23852047
0.036792036 0.079999998 0.032201763 -0.14741376 0.38593423 0.23852047
0.03603955 0.079999998 0.03236017 -0.14741376 0.38593423 0.23852047
0.035288572 0.079999998 0.032518253 -0.14741376 0.38593423 0.23852047
0.0345391 0.079999998 0.032676008 -0.14741376 0.38593423 0.23852047
0.033791121 0.079999998 0.032833442 -0.14741376 0.38593423 0.23852047
0.033044625 0.079999998 0.032990552 -0.14741376 0.38593423 0.23852047
0.032299612 0.079999998 0.033147343 -0.14741376 0.38593423 0.23852047
0.031556066 0.079999998 0.03330382 -0.14741376 0.38593423 0.23852047
0.030813985 0.079999998 0.033459976 -0.14741376 0.38593423 0.23852047
0.030073358 0.079999998 0.03361582 -0.14741376 0.38593423 0.23852047
0.029334176 0.079999998 0.033771355 -0.14741376 0.38593423 0.23852047
0.028596433 0.079999998 0.033926573 -0.14741376 0.38593423 0.23852047
0.02786012 0.079999998 0.034081485 -0.14741376 0.38593423 0.23852047
0.02712523 0.079999998 0.034236088 -0.14741376 0.38593423 0.23852047
0.026391756 0.079999998 0.03439039 -0.14741376 0.38593423 0.23852047
0.025659688 0.079999998 0.034544382 -0.14741376 0.38593423 0.23852047
0.024929021 0.079999998 0.034698073 -0.14741376 0.38593423 0.23852047
0.024199745 0.079999998 0.034851462 -0.14741376 0.38593423 0.23852047
0.023471853 0.079999998 0.035004552 -0.14741376 0.38593423 0.23852047
0.022745337 0.079999998 0.035157349 -0.14741376 0.38593423 0.23852047
0.022020193 0.079999998 0.035309844 -0.14741376 0.38593423 0.23852047
0.021296408 0.079999998 0.035462048 -0.14741376 0.38593423 0.23852047
0.020573979 0.079999998 0.035613958 -0.14741376 0.38593423 0.23852047
0.019852897 0.079999998 0.035765573 -0.14741376 0.38593423 0.23852047
0.019133156 0.079999998 0.035916902 -0.14741376 0.38593423 0.23852047
0.018414745 0.079999998 0.03606794 -0.14741376 0.38593423 0.23852047
0.017697662 0.079999998 0.036218695 -0.14741376 0.38593423 0.23852047
0.016981896 0.079999998 0.036369164 -0.14741376 0.38593423 0.23852047
0.016267439 0.079999998 0.036519345 -0.14741376 0.38593423 0.23852047
0.015554287 0.079999998 0.036669247 -0.14741376 0.38593423 0.23852047
0.014842432 0.079999998 0.036818869 -0.14741376 0.38593423 0.23852047
0.014131866 0.079999998 0.036968213 -0.14741376 0.38593423 0.23852047
0.013422583 0.079999998 0.037117276 -0.14741376 0.38593423 0.23852047
0.012714576 0.079999998 0.037266064 -0.14741376 0.38593423 0.23852047
0.012007837 0.079999998 0.037414581 -0.14741376 0.38593423 0.23852047
0.011302359 0.079999998 0.037562821 -0.14741376 0.38593423 0.23852047
0.010598137 0.079999998 0.03771079 -0.14741376 0.38593423 0.23852047
0.0098951627 0.079999998 0.037858486 -0.14741376 0.38593423 0.23852047
0.0091934288 0.079999998 0.038005915 -0.14741376 0.38593423 0.23852047
0.0084929299 0.079999998 0.038153078 -0.14741376 0.38593423 0.23852047
0.0077936589 0.079999998 0.038299974 -0.14741376 0.38593423 0.23852047
0.0070956089 0.079999998 0.038446605 -0.14741376 0.38593423 0.23852047
0.0063987733 0.079999998 0.038592976 -0.14741376 0.38593423 0.23852047
0.0057031452 0.079999998 0.038739081 -0.14741376 0.38593423 0.23852047
0.0050087185 0.079999998 0.03888493 -0.14741376 0.38593423 0.23852047
0.0043154862 0.079999998 0.039030518 -0.14741376 0.38593423 0.23852047
0.0036234423 0.079999998 0.039175846 -0.14741376 0.38593423 0.23852047
0.0029325797 0.079999998 0.03932092 -0.14741376 0.38593423 0.23852047
0.0022428925 0.079999998 0.03946574 -0.14741376 0.38593423 0.23852047
0.0015543741 0.079999998 0.039610308 -0.14741376 0.38593423 0.23852047
0.00086701813 0.079999998 0.039754622 -0.14741376 0.38593423 0.23852047
0.00018081818 0.079999998 0.039898682 -0.14741376 0.38593423 0.23852047
2.7755576e-17 0.078949951 0.039361268 -0.14741376 0.38593423 0.23852047
2.7755576e-17 0.077514164 0.03857452 -0.14741376 0.38593423 0.23852047
0 0.076067306 0.037781697 -0.14741376 0.38593423 0.23852047
0 0.074609242 0.036982726 -0.14741376 0.38593423 0.23852047
0 0.073139831 0.036177527 -0.14741376 0.38593423 0.23852047
0 0.071658932 0.035366025 -0.14741376 0.38593423 0.23852047
2.7755576e-17 0.070166402 0.034548145 -0.14741376 0.38593423 0.23852047
0 0.0686621 0.033723801 -0.14741376 0.38593423 0.23852047
0 0.067145877 0.032892916 -0.14741376 0.38593423 0.23852047
2.7755576e-17 0.065617576 0.032055411 -0.14741376 0.38593423 0.23852047
0 0.064077057 0.031211197 -0.14741376 0.38593423 0.23852047
0 0.062524162 0.03036019 -0.14741376 0.38593423 0.23852047
0 0.060958721 0.029502306 -0.14741376 0.38593423 0.23852047
0 0.059380587 0.028637454 -0.14741376 0.38593423 0.23852047
2.7755576e-17 0.057789594 0.027765546 -0.14741376 0.38593423 0.23852047
0 0.056185577 0.026886493 -0.14741376 0.38593423 0.23852047
0 0.054568361 0.026000198 -0.14741376 0.38593423 0.23852047
0 0.052937783 0.02510657 -0.14741376 0.38593423 0.23852047
0 0.05129366 0.024205513 -0.14741376 0.38593423 0.23852047
0 0.04963582 0.023296928 -0.14741376 0.38593423 0.23852047
0 0.047964085 0.022380719 -0.14741376 0.38593423 0.23852047
0 0.046278261 0.02145678 -0.14741376 0.38593423 0.23852047
0 0.044578169 0.020525014 -0.14741376 0.38593423 0.23852047
0 0.042863615 0.019585311 -0.14741376 0.38593423 0.23852047
0 0.04113441 0.01863757 -0.14741376 0.38593423 0.23852047
0 0.039390348 0.017681679 -0.14741376 0.38593423 0.23852047
0 0.037631236 0.016717527 -0.14741376 0.38593423 0.23852047
0 0.035856865 0.015745007 -0.14741376 0.38593423 0.23852047
0 0.034067027 0.014763998 -0.14741376 0.38593423 0.23852047
0 0.032261513 0.013774388 -0.14741376 0.38593423 0.23852047
0 0.030440105 0.012776058 -0.14741376 0.38593423 0.23852047
0 0.028602583 0.011768887 -0.14741376 0.38593423 0.23852047
0 0.026748722 0.010752751 -0.14741376 0.38593423 0.23852047
0 0.024878295 0.0097275255 -0.14741376 0.38593423 0.23852047
0 0.022991071 0.0086930832 -0.14741376 0.38593423 0.23852047
0 0.021086808 0.0076492941 -0.14741376 0.38593423 0.23852047
0 0.019165272 0.0065960255 -0.14741376 0.38593423 0.23852047
0 0.01722621 0.0055331429 -0.14741376 0.38593423 0.23852047
2.7755576e-17 0.015269376 0.0044605089 -0.14741376 0.38593423 0.23852047
2.7755576e-17 0.013294514 0.0033779829 -0.14741376 0.38593423 0.23852047
0 0.011301363 0.0022854223 -0.14741376 0.38593423 0.23852047
0 0.0092896568 0.0011826819 -0.14741376 0.38593423 0.23852047
0 0.0072591272 6.9613001e-05 -0.14741376 0.38593423 0.23852047
0.039887227 0.079999998 0.030795189 -0.14741376 0.38593423 0.23852047
0.039127789 0.079999998 0.030955864 -0.14741376 0.38593423 0.23852047
0.038369894 0.079999998 0.031116201 -0.14741376 0.38593423 0.23852047
0.037613541 0.079999998 0.0312762 -0.14741376 0.38593423 0.23852047
0.036858719 0.079999998 0.03143587 -0.14741376 0.38593423 0.23852047
0.03610542 0.079999998 0.031595204 -0.14741376 0.38593423 0.23852047
0.035353635 0.079999998 0.031754207 -0.14741376 0.38593423 0.23852047
0.034603357 0.079999998 0.031912882 -0.14741376 0.38593423 0.23852047
0.033854578 0.079999998 0.032071233 -0.14741376 0.38593423 0.23852047
0.033107284 0.079999998 0.032229256 -0.14741376 0.38593423 0.23852047
0.032361474 0.079999998 0.032386955 -0.14741376 0.38593423 0.23852047
0.031617139 0.079999998 0.032544333 -0.14741376 0.38593423 0.23852047
0.030874267 0.079999998 0.032701392 -0.14741376 0.38593423 0.23852047
0.030132854 0.079999998 0.03285813 -0.14741376 0.38593423 0.23852047
0.029392889 0.079999998 0.033014555 -0.14741376 0.38593423 0.23852047
0.028654367 0.079999998 0.033170663 -0.14741376 0.38593423 0.23852047
0.027917277 0.079999998 0.033326458 -0.14741376 0.38593423 0.23852047
0.027181614 0.079999998 0.033481941 -0.14741376 0.38593423 0.23852047
0.026447369 0.079999998 0.033637118 -0.14741376 0.38593423 0.23852047
0.025714533 0.079999998 0.033791982 -0.14741376 0.38593423 0.23852047
0.024983101 0.079999998 0.033946544 -0.14741376 0.38593423 0.23852047
0.024253063 0.079999998 0.034100797 -0.14741376 0.38593423 0.23852047
0.023524413 0.079999998 0.034254748 -0.14741376 0.38593423 0.23852047
0.022797143 0.079999998 0.034408398 -0.14741376 0.38593423 0.23852047
0.022071244 0.079999998 0.03456175 -0.14741376 0.38593423 0.23852047
0.021346711 0.079999998 0.034714803 -0.14741376 0.38593423 0.23852047
0.020623535 0.079999998 0.034867559 -0.14741376 0.38593423 0.23852047
0.019901708 0.079999998 0.035020016 -0.14741376 0.38593423 0.23852047
0.019181225 0.079999998 0.035172183 -0.14741376 0.38593423 0.23852047
0.018462077 0.079999998 0.035324059 -0.14741376 0.38593423 0.23852047
0.017744256 0.079999998 0.035475641 -0.14741376 0.38593423 0.23852047
0.017027756 0.079999998 0.035626937 -0.14741376 0.38593423 0.23852047
0.016312569 0.079999998 0.035777945 -0.14741376 0.38593423 0.23852047
0.01559869 0.079999998 0.035928667 -0.14741376 0.38593423 0.23852047
0.01488611 0.079999998 0.036079105 -0.14741376 0.38593423 0.23852047
0.014174822 0.079999998 0.03622926 -0.14741376 0.38593423 0.23852047
0.013464819 0.079999998 0.036379136 -0.14741376 0.38593423 0.23852047
0.012756093 0.079999998 0.036528729 -0.14741376 0.38593423 0.23852047
0.01204864 0.079999998 0.036678046 -0.14741376 0.38593423 0.23852047
0.01134245 0.079999998 0.036827084 -0.14741376 0.38593423 0.23852047
0.010637519 0.079999998 0.036975849 -0.14741376 0.38593423 0.23852047
0.0099338368 0.079999998 0.037124339 -0.14741376 0.38593423 0.23852047
0.0092313997 0.079999998 0.037272558 -0.14741376 0.38593423 0.23852047
0.0085301986 0.079999998 0.037420504 -0.14741376 0.38593423 0.23852047
0.0078302277 0.079999998 0.037568182 -0.14741376 0.38593423 0.23852047
0.0071314811 0.079999998 0.037715591 -0.14741376 0.38593423 0.23852047
0.0064339507 0.079999998 0.037862737 -0.14741376 0.38593423 0.23852047
0.0057376307 0.079999998 0.038009614 -0.14741376 0.38593423 0.23852047
0.0050425143 0.079999998 0.03815623 -0.14741376 0.38593423 0.23852047
0.0043485947 0.079999998 0.038302582 -0.14741376 0.38593423 0.23852047
0.003655866 0.079999998 0.038448673 -0.14741376 0.38593423 0.23852047
0.0029643211 0.079999998 0.038594503 -0.14741376 0.38593423 0.23852047
0.0022739538 0.079999998 0.03874008 -0.14741376 0.38593423 0.23852047
0.0015847577 0.079999998 0.038885396 -0.14741376 0.38593423 0.23852047
0.00089672615 0.079999998 0.039030459 -0.14741376 0.38593423 0.23852047
0.00020985307 0.079999998 0.039175265 -0.14741376 0.38593423 0.23852047
0 0.079009213 0.038674697 -0.14741376 0.38593423 0.23852047
2.7755576e-17 0.077572569 0.037884716 -0.14741376 0.38593423 0.23852047
0 0.076124847 0.037088633 -0.14741376 0.38593423 0.23852047
2.7755576e-17 0.074665897 0.036286365 -0.14741376 0.38593423 0.23852047
0 0.073195584 0.035477839 -0.14741376 0.38593423 0.23852047
0 0.071713768 0.034662981 -0.14741376 0.38593423 0.23852047
0 0.070220307 0.033841707 -0.14741376 0.38593423 0.23852047
0 0.068715058 0.033013936 -0.14741376 0.38593423 0.23852047
2.7755576e-17 0.067197867 0.032179594 -0.14741376 0.38593423 0.23852047
0 0.06566859 0.031338595 -0.14741376 0.38593423 0.23852047
0 0.064127073 0.030490851 -0.14741376 0.38593423 0.23852047
0 0.062573157 0.029636281 -0.14741376 0.38593423 0.23852047
0 0.061006688 0.028774794 -0.14741376 0.38593423 0.23852047
0 0.059427503 0.027906306 -0.14741376 0.38593423 0.23852047
2.7755576e-17 0.057835437 0.027030725 -0.14741376 0.38593423 0.23852047
0 0.056230329 0.026147958 -0.14741376 0.38593423 0.23852047
0 0.054612007 0.025257913 -0.14741376 0.38593423 0.23852047
0 0.052980296 0.024360498 -0.14741376 0.38593423 0.23852047
0 0.051335026 0.023455612 -0.14741376 0.38593423 0.23852047
0 0.049676016 0.02254316 -0.14741376 0.38593423 0.23852047
0 0.048003089 0.021623041 -0.14741376 0.38593423 0.23852047
0 0.046316054 0.020695154 -0.14741376 0.38593423 0.23852047
0 0.044614729 0.019759396 -0.14741376 0.38593423 0.23852047
0 0.042898919 0.018815659 -0.14741376 0.38593423 0.23852047
0 0.041168433 0.01786384 -0.14741376 0.38593423 0.23852047
0 0.039423071 0.016903829 -0.14741376 0.38593423 0.23852047
0 0.037662629 0.015935514 -0.14741376 0.38593423 0.23852047
0 0.03588691 0.014958781 -0.14741376 0.38593423 0.23852047
0 0.034095697 0.013973517 -0.14741376 0.38593423 0.23852047
0 0.032288782 0.012979605 -0.14741376 0.38593423 0.23852047
0 0.030465949 0.011976926 -0.14741376 0.38593423 0.23852047
0 0.028626973 0.010965356 -0.14741376 0.38593423 0.23852047
0 0.026771633 0.0099447733 -0.14741376 0.38593423 0.23852047
0 0.024899701 0.0089150518 -0.14741376 0.38593423 0.23852047
0 0.023010939 0.0078760628 -0.14741376 0.38593423 0.23852047
0 0.021105114 0.0068276757 -0.14741376 0.38593423 0.23852047
0 0.019181984 0.0057697571 -0.14741376 0.38593423 0.23852047
0 0.017241301 0.0047021718 -0.14741376 0.38593423 0.23852047
0 0.015282814 0.0036247808 -0.14741376 0.38593423 0.23852047
0 0.013306268 0.0025374435 -0.14741376 0.38593423 0.23852047
0 0.011311401 0.001440016 -0.14741376 0.38593423 0.23852047
0 0.0092979474 0.00033235195 -0.14741376 0.38593423 0.23852047
0.03995733 0.079999998 0.030023988 -0.14741376 0.38593423 0.23852047
0.039197065 0.079999998 0.03018561 -0.14741376 0.38593423 0.23852047
0.03843835 0.079999998 0.030346891 -0.14741376 0.38593423 0.23852047
0.037681174 0.079999998 0.030507831 -0.14741376 0.38593423 0.23852047
0.036925536 0.079999998 0.030668434 -0.14741376 0.38593423 0.23852047
0.036171425 0.079999998 0.030828699 -0.14741376 0.38593423 0.23852047
0.035418831 0.079999998 0.03098863 -0.14741376 0.38593423 0.23852047
0.034667745 0.079999998 0.031148229 -0.14741376 0.38593423 0.23852047
0.033918161 0.079999998 0.031307496 -0.14741376 0.38593423 0.23852047
0.033170067 0.079999998 0.031466436 -0.14741376 0.38593423 0.23852047
0.032423463 0.079999998 0.031625044 -0.14741376 0.38593423 0.23852047
0.03167833 0.079999998 0.031783331 -0.14741376 0.38593423 0.23852047
0.030934669 0.079999998 0.031941291 -0.14741376 0.38593423 0.23852047
0.030192468 0.079999998 0.03209893 -0.14741376 0.38593423 0.23852047
0.02945172 0.079999998 0.032256249 -0.14741376 0.38593423 0.23852047
0.028712416 0.079999998 0.032413248 -0.14741376 0.38593423 0.23852047
0.027974548 0.079999998 0.03256993 -0.14741376 0.38593423 0.23852047
0.02723811 0.079999998 0.032726299 -0.14741376 0.38593423 0.23852047
0.026503092 0.079999998 0.032882351 -0.14741376 0.38593423 0.23852047
0.025769489 0.079999998 0.033038095 -0.14741376 0.38593423 0.23852047
0.025037289 0.079999998 0.033193525 -0.14741376 0.38593423 0.23852047
0.024306489 0.079999998 0.033348646 -0.14741376 0.38593423 0.23852047
0.023577077 0.079999998 0.033503462 -0.14741376 0.38593423 0.23852047
0.022849049 0.079999998 0.033657975 -0.14741376 0.38593423 0.23852047
0.022122398 0.079999998 0.03381218 -0.14741376 0.38593423 0.23852047
0.021397112 0.079999998 0.033966083 -0.14741376 0.38593423 0.23852047
0.020673187 0.079999998 0.034119688 -0.14741376 0.38593423 0.23852047
0.019950615 0.079999998 0.034272995 -0.14741376 0.38593423 0.23852047
0.019229388 0.079999998 0.034426004 -0.14741376 0.38593423 0.23852047
0.0185095 0.079999998 0.034578715 -0.14741376 0.38593423 0.23852047
0.017790942 0.079999998 0.034731135 -0.14741376 0.38593423 0.23852047
0.017073708 0.079999998 0.034883257 -0.14741376 0.38593423 0.23852047
0.016357789 0.079999998 0.035035092 -0.14741376 0.38593423 0.23852047
0.015643179 0.079999998 0.035186637 -0.14741376 0.38593423 0.23852047
0.014929873 0.079999998 0.035337895 -0.14741376 0.38593423 0.23852047
0.01421786 0.079999998 0.035488866 -0.14741376 0.38593423 0.23852047
0.013507136 0.079999998 0.035639554 -0.14741376 0.38593423 0.23852047
0.012797692 0.079999998 0.035789955 -0.14741376 0.38593423 0.23852047
0.012089523 0.079999998 0.035940077 -0.14741376 0.38593423 0.23852047
0.01138262 0.079999998 0.03608992 -0.14741376 0.38593423 0.23852047
0.010676976 0.079999998 0.036239482 -0.14741376 0.38593423 0.23852047
0.0099725863 0.079999998 0.036388766 -0.14741376 0.38593423 0.23852047
0.0092694433 0.079999998 0.036537778 -0.14741376 0.38593423 0.23852047
0.008567539 0.079999998 0.03668651 -0.14741376 0.38593423 0.23852047
0.0078668678 0.079999998 0.036834974 -0.14741376 0.38593423 0.23852047
0.0071674222 0.079999998 0.036983166 -0.14741376 0.38593423 0.23852047
0.0064691962 0.079999998 0.037131086 -0.14741376 0.38593423 0.23852047
0.0057721827 0.079999998 0.037278738 -0.14741376 0.38593423 0.23852047
0.0050763753 0.079999998 0.037426122 -0.14741376 0.38593423 0.23852047
0.0043817675 0.079999998 0.037573241 -0.14741376 0.38593423 0.23852047
0.0036883522 0.079999998 0.037720099 -0.14741376 0.38593423 0.23852047
0.0029961236 0.079999998 0.037866689 -0.14741376 0.38593423 0.23852047
0.0023050748 0.079999998 0.038013022 -0.14741376 0.38593423 0.23852047
0.0016151995 0.079999998 0.038159091 -0.14741376 0.38593423 0.23852047
0.00092649122 0.079999998 0.038304903 -0.14741376 0.38593423 0.23852047
0.00023894366 0.079999998 0.038450461 -0.14741376 0.38593423 0.23852047
0 0.079068556 0.037987072 -0.14741376 0.38593423 0.23852047
2.7755576e-17 0.077631064 0.037193853 -0.14741376 0.38593423 0.23852047
0 0.07618247 0.036394496 -0.14741376 0.38593423 0.23852047
0 0.074722633 0.035588924 -0.14741376 0.38593423 0.23852047
0 0.073251419 0.034777064 -0.14741376 0.38593423 0.23852047
2.7755576e-17 0.071768694 0.033958837 -0.14741376 0.38593423 0.23852047
0 0.070274301 0.033134162 -0.14741376 0.38593423 0.23852047
0 0.068768099 0.032302957 -0.14741376 0.38593423 0.23852047
2.7755576e-17 0.067249946 0.031465147 -0.14741376 0.38593423 0.23852047
0 0.065719686 0.030620642 -0.14741376 0.38593423 0.23852047
0 0.06417717 0.029769359 -0.14741376 0.38593423 0.23852047
0 0.062622234 0.028911214 -0.14741376 0.38593423 0.23852047
0 0.061054729 0.028046118 -0.14741376 0.38593423 0.23852047
0 0.059474491 0.027173981 -0.14741376 0.38593423 0.23852047
0 0.057881355 0.026294716 -0.14741376 0.38593423 0.23852047
0 0.056275155 0.025408227 -0.14741376 0.38593423 0.23852047
0 0.05465572 0.024514422 -0.14741376 0.38593423 0.23852047
0 0.05302288 0.023613205 -0.14741376 0.38593423 0.23852047
0 0.051376462 0.02270448 -0.14741376 0.38593423 0.23852047
2.7755576e-17 0.049716279 0.021788148 -0.14741376 0.38593423 0.23852047
0 0.04804216 0.02086411 -0.14741376 0.38593423 0.23852047
0 0.04635391 0.019932261 -0.14741376 0.38593423 0.23852047
0 0.044651348 0.0189925 -0.14741376 0.38593423 0.23852047
0 0.04293428 0.018044718 -0.14741376 0.38593423 0.23852047
0 0.041202512 0.01708881 -0.14741376 0.38593423 0.23852047
0 0.039455846 0.016124666 -0.14741376 0.38593423 0.23852047
0 0.037694078 0.015152172 -0.14741376 0.38593423 0.23852047
0 0.035917006 0.014171217 -0.14741376 0.38593423 0.23852047
0 0.034124415 0.013181685 -0.14741376 0.38593423 0.23852047
0 0.0323161 0.012183456 -0.14741376 0.38593423 0.23852047
0 0.030491836 0.011176413 -0.14741376 0.38593423 0.23852047
0 0.028651405 0.010160431 -0.14741376 0.38593423 0.23852047
0 0.026794584 0.0091353888 -0.14741376 0.38593423 0.23852047
0 0.024921142 0.0081011569 -0.14741376 0.38593423 0.23852047
0 0.023030844 0.0070576067 -0.14741376 0.38593423 0.23852047
0 0.021123454 0.0060046073 -0.14741376 0.38593423 0.23852047
0 0.019198727 0.0049420241 -0.14741376 0.38593423 0.23852047
0 0.017256418 0.0038697205 -0.14741376 0.38593423 0.23852047
0 0.015296277 0.0027875577 -0.14741376 0.38593423 0.23852047
0 0.013318043 0.0016953936 -0.14741376 0.38593423 0.23852047
0 0.011321457 0.00059308339 -0.14741376 0.38593423 0.23852047
0.039266482 0.079999998 0.029413799 -0.14741376 0.38593423 0.23852047
0.03850694 0.079999998 0.029576026 -0.14741376 0.38593423 0.23852047
0.037748944 0.079999998 0.02973791 -0.14741376 0.38593423 0.23852047
0.036992487 0.079999998 0.02989945 -0.14741376 0.38593423 0.23852047
0.03623756 0.079999998 0.030060651 -0.14741376 0.38593423 0.23852047
0.035484154 0.079999998 0.030221513 -0.14741376 0.38593423 0.23852047
0.03473226 0.079999998 0.030382037 -0.14741376 0.38593423 0.23852047
0.033981871 0.079999998 0.030542228 -0.14741376 0.38593423 0.23852047
0.033232979 0.079999998 0.030702084 -0.14741376 0.38593423 0.23852047
0.032485571 0.079999998 0.030861609 -0.14741376 0.38593423 0.23852047
0.031739648 0.079999998 0.031020803 -0.14741376 0.38593423 0.23852047
0.030995192 0.079999998 0.031179672 -0.14741376 0.38593423 0.23852047
0.030252203 0.079999998 0.031338211 -0.14741376 0.38593423 0.23852047
0.029510668 0.079999998 0.031496428 -0.14741376 0.38593423 0.23852047
0.028770581 0.079999998 0.031654324 -0.14741376 0.38593423 0.23852047
0.028031934 0.079999998 0.031811897 -0.14741376 0.38593423 0.23852047
0.027294718 0.079999998 0.031969149 -0.14741376 0.38593423 0.23852047
0.026558926 0.079999998 0.032126084 -0.14741376 0.38593423 0.23852047
0.025824552 0.079999998 0.032282706 -0.14741376 0.38593423 0.23852047
0.025091585 0.079999998 0.032439012 -0.14741376 0.38593423 0.23852047
0.02436002 0.079999998 0.032595005 -0.14741376 0.38593423 0.23852047
0.023629848 0.079999998 0.032750688 -0.14741376 0.38593423 0.23852047
0.02290106 0.079999998 0.032906063 -0.14741376 0.38593423 0.23852047
0.022173651 0.079999998 0.033061128 -0.14741376 0.38593423 0.23852047
0.021447614 0.079999998 0.033215888 -0.14741376 0.38593423 0.23852047
0.020722939 0.079999998 0.033370346 -0.14741376 0.38593423 0.23852047
0.019999618 0.079999998 0.033524498 -0.14741376 0.38593423 0.23852047
0.019277647 0.079999998 0.033678349 -0.14741376 0.38593423 0.23852047
0.018557016 0.079999998 0.033831906 -0.14741376 0.38593423 0.23852047
0.017837718 0.079999998 0.03398516 -0.14741376 0.38593423 0.23852047
0.017119749 0.079999998 0.034138117 -0.14741376 0.38593423 0.23852047
0.016403096 0.079999998 0.034290783 -0.14741376 0.38593423 0.23852047
0.015687756 0.079999998 0.034443155 -0.14741376 0.38593423 0.23852047
0.014973721 0.079999998 0.034595236 -0.14741376 0.38593423 0.23852047
0.014260983 0.079999998 0.034747023 -0.14741376 0.38593423 0.23852047
0.013549536 0.079999998 0.034898527 -0.14741376 0.38593423 0.23852047
0.012839372 0.079999998 0.03504974 -0.14741376 0.38593423 0.23852047
0.012130485 0.079999998 0.03520067 -0.14741376 0.38593423 0.23852047
0.011422867 0.079999998 0.035351317 -0.14741376 0.38593423 0.23852047
0.010716512 0.079999998 0.035501681 -0.14741376 0.38593423 0.23852047
0.010011412 0.079999998 0.035651762 -0.14741376 0.38593423 0.23852047
0.0093075614 0.079999998 0.035801567 -0.14741376 0.38593423 0.23852047
0.0086049521 0.079999998 0.035951089 -0.14741376 0.38593423 0.23852047
0.0079035787 0.079999998 0.036100339 -0.14741376 0.38593423 0.23852047
0.0072034332 0.079999998 0.036249314 -0.14741376 0.38593423 0.23852047
0.0065045101 0.079999998 0.036398016 -0.14741376 0.38593423 0.23852047
0.0058068018 0.079999998 0.036546443 -0.14741376 0.38593423 0.23852047
0.005110302 0.079999998 0.036694601 -0.14741376 0.38593423 0.23852047
0.004415004 0.079999998 0.036842491 -0.14741376 0.38593423 0.23852047
0.0037209012 0.079999998 0.036990114 -0.14741376 0.38593423 0.23852047
0.0030279874 0.079999998 0.037137467 -0.14741376 0.38593423 0.23852047
0.0023362557 0.079999998 0.037284561 -0.14741376 0.38593423 0.23852047
0.0016457001 0.079999998 0.037431389 -0.14741376 0.38593423 0.23852047
0.00095631363 0.079999998 0.037577953 -0.14741376 0.38593423 0.23852047
0.00026809025 0.079999998 0.037724257 -0.14741376 0.38593423 0.23852047
0 0.079127997 0.037298393 -0.14741376 0.38593423 0.23852047
2.7755576e-17 0.077689648 0.036501925 -0.14741376 0.38593423 0.23852047
0 0.076240182 0.035699286 -0.14741376 0.38593423 0.23852047
2.7755576e-17 0.074779458 0.034890402 -0.14741376 0.38593423 0.23852047
0 0.073307343 0.034075197 -0.14741376 0.38593423 0.23852047
2.7755576e-17 0.071823701 0.033253592 -0.14741376 0.38593423 0.23852047
0 0.070328377 0.032425504 -0.14741376 0.38593423 0.23852047
2.7755576e-17 0.068821222 0.031590857 -0.14741376 0.38593423 0.23852047
2.7755576e-17 0.067302108 0.030749567 -0.14741376 0.38593423 0.23852047
0 0.065770864 0.029901547 -0.14741376 0.38593423 0.23852047
0 0.064227343 0.029046716 -0.14741376 0.38593423 0.23852047
0 0.062671393 0.028184986 -0.14741376 0.38593423 0.23852047
2.7755576e-17 0.061102852 0.027316269 -0.14741376 0.38593423 0.23852047
0 0.059521556 0.026440475 -0.14741376 0.38593423 0.23852047
0 0.057927348 0.025557512 -0.14741376 0.38593423 0.23852047
0 0.056320053 0.024667291 -0.14741376 0.38593423 0.23852047
0 0.054699507 0.023769714 -0.14741376 0.38593423 0.23852047
0 0.053065535 0.022864686 -0.14741376 0.38593423 0.23852047
0 0.051417962 0.021952111 -0.14741376 0.38593423 0.23852047
0 0.049756609 0.021031888 -0.14741376 0.38593423 0.23852047
0 0.048081294 0.020103918 -0.14741376 0.38593423 0.23852047
0 0.04639183 0.019168098 -0.14741376 0.38593423 0.23852047
0 0.044688031 0.018224319 -0.14741376 0.38593423 0.23852047
0 0.0429697 0.01727248 -0.14741376 0.38593423 0.23852047
0 0.04123665 0.016312471 -0.14741376 0.38593423 0.23852047
0 0.039488677 0.015344179 -0.14741376 0.38593423 0.23852047
0 0.037725579 0.014367496 -0.14741376 0.38593423 0.23852047
0 0.035947151 0.013382304 -0.14741376 0.38593423 0.23852047
0 0.034153182 0.01238849 -0.14741376 0.38593423 0.23852047
0 0.032343462 0.011385933 -0.14741376 0.38593423 0.23852047
0 0.030517768 0.010374513 -0.14741376 0.38593423 0.23852047
0 0.02867588 0.0093541062 -0.14741376 0.38593423 0.23852047
0 0.026817575 0.0083245886 -0.14741376 0.38593423 0.23852047
0 0.02494262 0.0072858324 -0.14741376 0.38593423 0.23852047
0 0.023050783 0.0062377071 -0.14741376 0.38593423 0.23852047
0 0.021141823 0.0051800804 -0.14741376 0.38593423 0.23852047
0 0.0192155 0.0041128178 -0.14741376 0.38593423 0.23852047
0 0.017271563 0.0030357814 -0.14741376 0.38593423 0.23852047
