# .PCD v0.7 - Point Cloud Data file format
VERSION 0.7
FIELDS x y z vp_x vp_y vp_z
SIZE 4 4 4 4 4 4
TYPE F F F F F F
COUNT 1 1 1 1 1 1
WIDTH 720
HEIGHT 1
VIEWPOINT 0 0 0 1 0 0 0
POINTS 720
DATA ascii
0.003611275 0.071414925 0.041155852 -0.23852047 0.14741376 0.38593423
0.0032253398 0.070845716 0.041198041 -0.23852047 0.14741376 0.38593423
0.0028439993 0.070275523 0.041234013 -0.23852047 0.14741376 0.38593423
0.0025303701 0.069683962 0.041173462 -0.23852047 0.14741376 0.38593423
0.0022167717 0.069092453 0.041112904 -0.23852047 0.14741376 0.38593423
0.0019032024 0.068500996 0.041052334 -0.23852047 0.14741376 0.38593423
0.0016464819 0.067890778 0.040910125 -0.23852047 0.14741376 0.38593423
0.0014016647 0.067276314 0.040750574 -0.23852047 0.14741376 0.38593423
0.0011567262 0.066661552 0.040590931 -0.23852047 0.14741376 0.38593423
0.00094913458 0.066033743 0.040377121 -0.23852047 0.14741376 0.38593423
0.00077178475 0.065394998 0.040119171 -0.23852047 0.14741376 0.38593423
0.00049815216 0.064788774 0.039999999 -0.23852047 0.14741376 0.38593423
0.00014219264 0.064211063 0.039999999 -0.23852047 0.14741376 0.38593423
2.7755576e-17 0.063558482 0.03968988 -0.23852047 0.14741376 0.38593423
2.7755576e-17 0.062854506 0.039172307 -0.23852047 0.14741376 0.38593423
2.7755576e-17 0.062148705 0.03865337 -0.23852047 0.14741376 0.38593423
2.7755576e-17 0.061441064 0.038133066 -0.23852047 0.14741376 0.38593423
2.7755576e-17 0.060731571 0.037611388 -0.23852047 0.14741376 0.38593423
2.7755576e-17 0.06002022 0.037088323 -0.23852047 0.14741376 0.38593423
2.7755576e-17 0.059306994 0.036563866 -0.23852047 0.14741376 0.38593423
5.5511151e-17 0.058591884 0.036038008 -0.23852047 0.14741376 0.38593423
2.7755576e-17 0.057874881 0.035510741 -0.23852047 0.14741376 0.38593423
5.5511151e-17 0.05715597 0.034982055 -0.23852047 0.14741376 0.38593423
2.7755576e-17 0.056435145 0.034451947 -0.23852047 0.14741376 0.38593423
5.5511151e-17 0.055712391 0.033920404 -0.23852047 0.14741376 0.38593423
2.7755576e-17 0.054987699 0.033387419 -0.23852047 0.14741376 0.38593423
2.7755576e-17 0.054261055 0.032852981 -0.23852047 0.14741376 0.38593423
0 0.053532448 0.032317083 -0.23852047 0.14741376 0.38593423
0 0.052801866 0.031779721 -0.23852047 0.14741376 0.38593423
0 0.052069299 0.031240879 -0.23852047 0.14741376 0.38593423
2.7755576e-17 0.051334735 0.030700553 -0.23852047 0.14741376 0.38593423
0 0.050598159 0.030158732 -0.23852047 0.14741376 0.38593423
0 0.049859565 0.029615408 -0.23852047 0.14741376 0.38593423
0 0.049118936 0.029070571 -0.23852047 0.14741376 0.38593423
2.7755576e-17 0.048376262 0.028524214 -0.23852047 0.14741376 0.38593423
0 0.047631528 0.027976327 -0.23852047 0.14741376 0.38593423
2.7755576e-17 0.046884723 0.0274269 -0.23852047 0.14741376 0.38593423
0 0.046135839 0.026875924 -0.23852047 0.14741376 0.38593423
0 0.045384858 0.026323393 -0.23852047 0.14741376 0.38593423
0 0.044631768 0.025769291 -0.23852047 0.14741376 0.38593423
0 0.043876559 0.025213616 -0.23852047 0.14741376 0.38593423
0 0.043119218 0.024656354 -0.23852047 0.14741376 0.38593423
0 0.042359728 0.024097495 -0.23852047 0.14741376 0.38593423
0 0.041598082 0.023537032 -0.23852047 0.14741376 0.38593423
0 0.040834259 0.022974953 -0.23852047 0.14741376 0.38593423
2.7755576e-17 0.040068254 0.022411251 -0.23852047 0.14741376 0.38593423
0 0.039300051 0.021845914 -0.23852047 0.14741376 0.38593423
0 0.038529634 0.021278933 -0.23852047 0.14741376 0.38593423
0 0.037756994 0.020710297 -0.23852047 0.14741376 0.38593423
0 0.036982112 0.020139998 -0.23852047 0.14741376 0.38593423
0 0.036204979 0.019568022 -0.23852047 0.14741376 0.38593423
0 0.035425581 0.018994365 -0.23852047 0.14741376 0.38593423
0 0.034643903 0.018419011 -0.23852047 0.14741376 0.38593423
0 0.033859927 0.017841952 -0.23852047 0.14741376 0.38593423
0 0.033073645 0.017263176 -0.23852047 0.14741376 0.38593423
0 0.032285042 0.016682675 -0.23852047 0.14741376 0.38593423
0 0.0314941 0.016100438 -0.23852047 0.14741376 0.38593423
0 0.030700808 0.015516452 -0.23852047 0.14741376 0.38593423
0 0.029905152 0.014930709 -0.23852047 0.14741376 0.38593423
0 0.029107112 0.014343197 -0.23852047 0.14741376 0.38593423
2.7755576e-17 0.02830668 0.013753904 -0.23852047 0.14741376 0.38593423
0 0.027503837 0.013162821 -0.23852047 0.14741376 0.38593423
2.7755576e-17 0.026698571 0.012569935 -0.23852047 0.14741376 0.38593423
2.7755576e-17 0.025890863 0.011975236 -0.23852047 0.14741376 0.38593423
0 0.025080699 0.011378713 -0.23852047 0.14741376 0.38593423
2.7755576e-17 0.023452949 0.010180148 -0.23852047 0.14741376 0.38593423
0 0.02263533 0.0095780836 -0.23852047 0.14741376 0.38593423
0 0.021815194 0.008974148 -0.23852047 0.14741376 0.38593423
2.7755576e-17 0.020992525 0.008368331 -0.23852047 0.14741376 0.38593423
0 0.020167308 0.0077606197 -0.23852047 0.14741376 0.38593423
0 0.019339524 0.0071510025 -0.23852047 0.14741376 0.38593423
0 0.018509163 0.0065394682 -0.23852047 0.14741376 0.38593423
2.7755576e-17 0.017676203 0.0059260037 -0.23852047 0.14741376 0.38593423
0 0.016840629 0.0053105974 -0.23852047 0.14741376 0.38593423
0.0029362873 0.014384696 0 -0.23852047 0.14741376 0.38593423
0 0.013471868 0.0028293065 -0.23852047 0.14741376 0.38593423
0 0.012622977 0.0022040047 -0.23852047 0.14741376 0.38593423
0 0.011771371 0.0015766859 -0.23852047 0.14741376 0.38593423
0 0.010917032 0.00094733736 -0.23852047 0.14741376 0.38593423
0 0.010059945 0.00031594597 -0.23852047 0.14741376 0.38593423
0.037782229 0.079999998 0.005400192 -0.23852047 0.14741376 0.38593423
0.034764003 0.079999998 0.0090147667 -0.23852047 0.14741376 0.38593423
0.031804297 0.079999998 0.012559242 -0.23852047 0.14741376 0.38593423
0.028901404 0.079999998 0.016035652 -0.23852047 0.14741376 0.38593423
0.026053697 0.079999998 0.019445958 -0.23852047 0.14741376 0.38593423
0.023259601 0.079999998 0.022792041 -0.23852047 0.14741376 0.38593423
0.020517601 0.079999998 0.026075715 -0.23852047 0.14741376 0.38593423
0.017826241 0.079999998 0.029298728 -0.23852047 0.14741376 0.38593423
0.015184117 0.079999998 0.032462757 -0.23852047 0.14741376 0.38593423
0.012589879 0.079999998 0.035569426 -0.23852047 0.14741376 0.38593423
0.010042223 0.079999998 0.038620289 -0.23852047 0.14741376 0.38593423
0.0086953519 0.079683438 0.039999999 -0.23852047 0.14741376 0.38593423
0.0083360793 0.079099387 0.039999999 -0.23852047 0.14741376 0.38593423
0.0079769827 0.078515649 0.039999999 -0.23852047 0.14741376 0.38593423
0.0076180622 0.077932224 0.039999999 -0.23852047 0.14741376 0.38593423
0.0072593149 0.077349104 0.039999999 -0.23852047 0.14741376 0.38593423
0.0069007394 0.07676629 0.039999999 -0.23852047 0.14741376 0.38593423
0.0065423329 0.076183774 0.039999999 -0.23852047 0.14741376 0.38593423
0.0061840946 0.075601555 0.039999999 -0.23852047 0.14741376 0.38593423
0.0058260215 0.075019635 0.039999999 -0.23852047 0.14741376 0.38593423
0.0054681129 0.074438006 0.039999999 -0.23852047 0.14741376 0.38593423
0.0051103663 0.073856667 0.039999999 -0.23852047 0.14741376 0.38593423
0.0047527798 0.073275611 0.039999999 -0.23852047 0.14741376 0.38593423
0.0043953517 0.072694838 0.039999999 -0.23852047 0.14741376 0.38593423
0.0040380801 0.072114348 0.039999999 -0.23852047 0.14741376 0.38593423
0.0036809633 0.071534134 0.039999999 -0.23852047 0.14741376 0.38593423
0.0033033199 0.07096073 0.040029578 -0.23852047 0.14741376 0.38593423
0.0029167652 0.070390604 0.040072229 -0.23852047 0.14741376 0.38593423
0.0025923951 0.069800951 0.040026005 -0.23852047 0.14741376 0.38593423
0.0022540053 0.069215976 0.039999999 -0.23852047 0.14741376 0.38593423
0.001897634 0.068637095 0.039999999 -0.23852047 0.14741376 0.38593423
0.0015414064 0.068058476 0.039999999 -0.23852047 0.14741376 0.38593423
0.0011853206 0.06748011 0.039999999 -0.23852047 0.14741376 0.38593423
0.00082937459 0.066902004 0.039999999 -0.23852047 0.14741376 0.38593423
0.00047356679 0.066324137 0.039999999 -0.23852047 0.14741376 0.38593423
0.00011789529 0.065746523 0.039999999 -0.23852047 0.14741376 0.38593423
2.7755576e-17 0.065087125 0.039654996 -0.23852047 0.14741376 0.38593423
2.7755576e-17 0.064385585 0.03913774 -0.23852047 0.14741376 0.38593423
2.7755576e-17 0.063682221 0.038619131 -0.23852047 0.14741376 0.38593423
2.7755576e-17 0.062977038 0.038099155 -0.23852047 0.14741376 0.38593423
5.5511151e-17 0.062270019 0.037577808 -0.23852047 0.14741376 0.38593423
2.7755576e-17 0.061561156 0.037055079 -0.23852047 0.14741376 0.38593423
2.7755576e-17 0.06085043 0.036530964 -0.23852047 0.14741376 0.38593423
2.7755576e-17 0.060137842 0.036005449 -0.23852047 0.14741376 0.38593423
2.7755576e-17 0.059423372 0.035478532 -0.23852047 0.14741376 0.38593423
5.5511151e-17 0.05870701 0.034950204 -0.23852047 0.14741376 0.38593423
2.7755576e-17 0.057988748 0.034420453 -0.23852047 0.14741376 0.38593423
2.7755576e-17 0.057268575 0.033889275 -0.23852047 0.14741376 0.38593423
2.7755576e-17 0.056546479 0.033356655 -0.23852047 0.14741376 0.38593423
2.7755576e-17 0.055822447 0.03282259 -0.23852047 0.14741376 0.38593423
2.7755576e-17 0.05509647 0.032287072 -0.23852047 0.14741376 0.38593423
0 0.054368533 0.03175009 -0.23852047 0.14741376 0.38593423
0 0.053638626 0.031211637 -0.23852047 0.14741376 0.38593423
0 0.052906737 0.030671703 -0.23852047 0.14741376 0.38593423
0 0.052172858 0.030130278 -0.23852047 0.14741376 0.38593423
2.7755576e-17 0.051436972 0.029587356 -0.23852047 0.14741376 0.38593423
0 0.05069907 0.029042928 -0.23852047 0.14741376 0.38593423
2.7755576e-17 0.049959138 0.028496981 -0.23852047 0.14741376 0.38593423
0 0.049217165 0.02794951 -0.23852047 0.14741376 0.38593423
0 0.048473138 0.027400505 -0.23852047 0.14741376 0.38593423
0 0.047727045 0.026849957 -0.23852047 0.14741376 0.38593423
0 0.046978876 0.026297856 -0.23852047 0.14741376 0.38593423
0 0.046228617 0.025744192 -0.23852047 0.14741376 0.38593423
0 0.045476254 0.025188958 -0.23852047 0.14741376 0.38593423
0 0.044721775 0.024632143 -0.23852047 0.14741376 0.38593423
0 0.043965168 0.024073737 -0.23852047 0.14741376 0.38593423
0 0.04320642 0.023513732 -0.23852047 0.14741376 0.38593423
0 0.042445514 0.022952119 -0.23852047 0.14741376 0.38593423
0 0.041682445 0.022388885 -0.23852047 0.14741376 0.38593423
0 0.040917195 0.021824023 -0.23852047 0.14741376 0.38593423
0 0.040149752 0.021257522 -0.23852047 0.14741376 0.38593423
0 0.0393801 0.02068937 -0.23852047 0.14741376 0.38593423
2.7755576e-17 0.038608227 0.020119563 -0.23852047 0.14741376 0.38593423
0 0.037834123 0.019548085 -0.23852047 0.14741376 0.38593423
0 0.037057769 0.018974928 -0.23852047 0.14741376 0.38593423
0 0.036279153 0.018400084 -0.23852047 0.14741376 0.38593423
0 0.035498265 0.01782354 -0.23852047 0.14741376 0.38593423
0 0.034715086 0.017245285 -0.23852047 0.14741376 0.38593423
0 0.033929601 0.01666531 -0.23852047 0.14741376 0.38593423
0 0.033141803 0.016083604 -0.23852047 0.14741376 0.38593423
0 0.032351673 0.015500157 -0.23852047 0.14741376 0.38593423
0 0.031559195 0.014914959 -0.23852047 0.14741376 0.38593423
0 0.030764358 0.014327996 -0.23852047 0.14741376 0.38593423
0 0.029967146 0.013739261 -0.23852047 0.14741376 0.38593423
2.7755576e-17 0.029167544 0.013148741 -0.23852047 0.14741376 0.38593423
2.7755576e-17 0.028365538 0.012556425 -0.23852047 0.14741376 0.38593423
0 0.027561113 0.011962302 -0.23852047 0.14741376 0.38593423
0 0.026754253 0.011366362 -0.23852047 0.14741376 0.38593423
0.0068463879 0.022458354 5.5511151e-17 -0.23852047 0.14741376 0.38593423
0.0064548547 0.021824004 0 -0.23852047 0.14741376 0.38593423
0 0.024318913 0.0095675178 -0.23852047 0.14741376 0.38593423
2.7755576e-17 0.023502162 0.0089641912 -0.23852047 0.14741376 0.38593423
0.0048891418 0.01928756 0 -0.23852047 0.14741376 0.38593423
0 0.020209888 0.0065320148 -0.23852047 0.14741376 0.38593423
0 0.019380422 0.0059191938 -0.23852047 0.14741376 0.38593423
0 0.018548364 0.0053044376 -0.23852047 0.14741376 0.38593423
0.0029328025 0.016118931 0 -0.23852047 0.14741376 0.38593423
0.0025416224 0.015485431 5.5511151e-17 -0.23852047 0.14741376 0.38593423
0.0021504671 0.014851999 0 -0.23852047 0.14741376 0.38593423
0 0.01519389 0.0028258199 -0.23852047 0.14741376 0.38593423
0 0.014348627 0.0022012047 -0.23852047 0.14741376 0.38593423
0 0.013500673 0.0015745801 -0.23852047 0.14741376 0.38593423
0 0.012650009 0.0009459331 -0.23852047 0.14741376 0.38593423
0 0.01179662 0.00031525103 -0.23852047 0.14741376 0.38593423
0.038573336 0.079999998 0.0031592357 -0.23852047 0.14741376 0.38593423
0.03553319 0.079999998 0.0068127797 -0.23852047 0.14741376 0.38593423
0.032552265 0.079999998 0.010395134 -0.23852047 0.14741376 0.38593423
0.029628826 0.079999998 0.013908376 -0.23852047 0.14741376 0.38593423
0.039251953 0.076825835 0 -0.23852047 0.14741376 0.38593423
0.023947841 0.079999998 0.020735437 -0.23852047 0.14741376 0.38593423
0.021187156 0.079999998 0.024053024 -0.23852047 0.14741376 0.38593423
0.018477682 0.079999998 0.027309047 -0.23852047 0.14741376 0.38593423
0.015817996 0.079999998 0.030505218 -0.23852047 0.14741376 0.38593423
0.013206725 0.079999998 0.033643186 -0.23852047 0.14741376 0.38593423
0.010642544 0.079999998 0.036724545 -0.23852047 0.14741376 0.38593423
0.0081241801 0.079999998 0.039750822 -0.23852047 0.14741376 0.38593423
0.0075879865 0.079465047 0.039999999 -0.23852047 0.14741376 0.38593423
0.0072294986 0.078881882 0.039999999 -0.23852047 0.14741376 0.38593423
0.0068711829 0.078299031 0.039999999 -0.23852047 0.14741376 0.38593423
0.0065130391 0.077716485 0.039999999 -0.23852047 0.14741376 0.38593423
0.0061550639 0.077134244 0.039999999 -0.23852047 0.14741376 0.38593423
0.0057972558 0.076552309 0.039999999 -0.23852047 0.14741376 0.38593423
0.0054396135 0.075970665 0.039999999 -0.23852047 0.14741376 0.38593423
0.0050821346 0.075389326 0.039999999 -0.23852047 0.14741376 0.38593423
0.0047248174 0.07480827 0.039999999 -0.23852047 0.14741376 0.38593423
0.0043676598 0.074227504 0.039999999 -0.23852047 0.14741376 0.38593423
0.0040106601 0.07364703 0.039999999 -0.23852047 0.14741376 0.38593423
0.0036538169 0.073066831 0.039999999 -0.23852047 0.14741376 0.38593423
0.0032971278 0.072486915 0.039999999 -0.23852047 0.14741376 0.38593423
0.002940591 0.071907274 0.039999999 -0.23852047 0.14741376 0.38593423
0.0025842048 0.07132791 0.039999999 -0.23852047 0.14741376 0.38593423
0.0022279671 0.070748821 0.039999999 -0.23852047 0.14741376 0.38593423
0.0018718765 0.070169993 0.039999999 -0.23852047 0.14741376 0.38593423
0.001515931 0.069591433 0.039999999 -0.23852047 0.14741376 0.38593423
0.0011601286 0.069013134 0.039999999 -0.23852047 0.14741376 0.38593423
0.00080446771 0.068435095 0.039999999 -0.23852047 0.14741376 0.38593423
0.00044894635 0.06785731 0.039999999 -0.23852047 0.14741376 0.38593423
9.3562718e-05 0.067279778 0.039999999 -0.23852047 0.14741376 0.38593423
2.7755576e-17 0.066613846 0.039620053 -0.23852047 0.14741376 0.38593423
2.7755576e-17 0.065914713 0.039103117 -0.23852047 0.14741376 0.38593423
2.7755576e-17 0.06521377 0.038584828 -0.23852047 0.14741376 0.38593423
2.7755576e-17 0.064511023 0.03806518 -0.23852047 0.14741376 0.38593423
2.7755576e-17 0.063806459 0.037544165 -0.23852047 0.14741376 0.38593423
2.7755576e-17 0.063100055 0.037021775 -0.23852047 0.14741376 0.38593423
2.7755576e-17 0.062391814 0.036497999 -0.23852047 0.14741376 0.38593423
2.7755576e-17 0.061681721 0.035972834 -0.23852047 0.14741376 0.38593423
5.5511151e-17 0.060969763 0.035446264 -0.23852047 0.14741376 0.38593423
2.7755576e-17 0.06025593 0.03491829 -0.23852047 0.14741376 0.38593423
2.7755576e-17 0.059540212 0.0343889 -0.23852047 0.14741376 0.38593423
2.7755576e-17 0.058822595 0.033858083 -0.23852047 0.14741376 0.38593423
2.7755576e-17 0.058103073 0.033325832 -0.23852047 0.14741376 0.38593423
2.7755576e-17 0.05738163 0.03279214 -0.23852047 0.14741376 0.38593423
2.7755576e-17 0.056658257 0.032256998 -0.23852047 0.14741376 0.38593423
2.7755576e-17 0.055932943 0.0317204 -0.23852047 0.14741376 0.38593423
0 0.055205673 0.031182332 -0.23852047 0.14741376 0.38593423
0 0.05447644 0.030642789 -0.23852047 0.14741376 0.38593423
2.7755576e-17 0.053745229 0.030101761 -0.23852047 0.14741376 0.38593423
0 0.053012032 0.02955924 -0.23852047 0.14741376 0.38593423
0 0.052276831 0.029015215 -0.23852047 0.14741376 0.38593423
0 0.051539619 0.028469682 -0.23852047 0.14741376 0.38593423
0 0.050800383 0.027922627 -0.23852047 0.14741376 0.38593423
0 0.05005911 0.027374042 -0.23852047 0.14741376 0.38593423
0 0.049315788 0.026823919 -0.23852047 0.14741376 0.38593423
0 0.048570406 0.02627225 -0.23852047 0.14741376 0.38593423
2.7755576e-17 0.047822952 0.025719022 -0.23852047 0.14741376 0.38593423
0 0.047073413 0.02516423 -0.23852047 0.14741376 0.38593423
0 0.046321772 0.024607861 -0.23852047 0.14741376 0.38593423
0 0.045568023 0.024049908 -0.23852047 0.14741376 0.38593423
0 0.044812147 0.023490362 -0.23852047 0.14741376 0.38593423
0 0.044054136 0.02292921 -0.23852047 0.14741376 0.38593423
0 0.043293975 0.022366444 -0.23852047 0.14741376 0.38593423
2.7755576e-17 0.042531654 0.021802055 -0.23852047 0.14741376 0.38593423
0 0.041767158 0.021236034 -0.23852047 0.14741376 0.38593423
0 0.041000471 0.020668369 -0.23852047 0.14741376 0.38593423
0 0.040231582 0.020099051 -0.23852047 0.14741376 0.38593423
0 0.039460476 0.019528069 -0.23852047 0.14741376 0.38593423
0 0.038687143 0.018955415 -0.23852047 0.14741376 0.38593423
0 0.037911568 0.018381078 -0.23852047 0.14741376 0.38593423
0 0.037133735 0.017805045 -0.23852047 0.14741376 0.38593423
0 0.036353633 0.017227311 -0.23852047 0.14741376 0.38593423
0 0.035571247 0.016647862 -0.23852047 0.14741376 0.38593423
0 0.034786563 0.016066687 -0.23852047 0.14741376 0.38593423
0 0.033999566 0.015483778 -0.23852047 0.14741376 0.38593423
0 0.033210244 0.014899123 -0.23852047 0.14741376 0.38593423
0 0.032418583 0.014312711 -0.23852047 0.14741376 0.38593423
0 0.031624563 0.01372453 -0.23852047 0.14741376 0.38593423
0 0.030828174 0.013134573 -0.23852047 0.14741376 0.38593423
0 0.030029401 0.012542825 -0.23852047 0.14741376 0.38593423
2.7755576e-17 0.029228231 0.011949277 -0.23852047 0.14741376 0.38593423
0 0.028424645 0.011353917 -0.23852047 0.14741376 0.38593423
0.0068386337 0.024183976 5.5511151e-17 -0.23852047 0.14741376 0.38593423
0 0.026810169 0.010157718 -0.23852047 0.14741376 0.38593423
0 0.025999252 0.009556856 -0.23852047 0.14741376 0.38593423
0 0.025185857 0.0089541376 -0.23852047 0.14741376 0.38593423
0.0052744155 0.0216491 0 -0.23852047 0.14741376 0.38593423
0 0.023551585 0.007743082 -0.23852047 0.14741376 0.38593423
0 0.022730673 0.0071347221 -0.23852047 0.14741376 0.38593423
0.0041016783 0.019748971 0 -0.23852047 0.14741376 0.38593423
2.7755576e-17 0.020252651 0.0052981717 -0.23852047 0.14741376 0.38593423
0.0029292495 0.017849632 0 -0.23852047 0.14741376 0.38593423
0 0.018587735 0.004064125 -0.23852047 0.14741376 0.38593423
0 0.017751357 0.003444161 -0.23852047 0.14741376 0.38593423
0 0.016912343 0.0028222203 -0.23852047 0.14741376 0.38593423
2.7755576e-17 0.016070677 0.0021982901 -0.23852047 0.14741376 0.38593423
0 0.015226344 0.0015723577 -0.23852047 0.14741376 0.38593423
0.00058510969 0.014052981 5.5511151e-17 -0.23852047 0.14741376 0.38593423
2.7755576e-17 0.013529602 0.00031443601 -0.23852047 0.14741376 0.38593423
0.03937199 0.079999998 0.00089689146 -0.23852047 0.14741376 0.38593423
0.036309645 0.079999998 0.0045899837 -0.23852047 0.14741376 0.38593423
0.033307232 0.079999998 0.0082107745 -0.23852047 0.14741376 0.38593423
0.03036299 0.079999998 0.011761384 -0.23852047 0.14741376 0.38593423
0.027475236 0.079999998 0.01524385 -0.23852047 0.14741376 0.38593423
0.024642339 0.079999998 0.018660132 -0.23852047 0.14741376 0.38593423
0.021862742 0.079999998 0.022012115 -0.23852047 0.14741376 0.38593423
0.019134939 0.079999998 0.025301611 -0.23852047 0.14741376 0.38593423
0.016457481 0.079999998 0.02853037 -0.23852047 0.14741376 0.38593423
0.013828975 0.079999998 0.031700071 -0.23852047 0.14741376 0.38593423
0.011248078 0.079999998 0.034812339 -0.23852047 0.14741376 0.38593423
0.0087134941 0.079999998 0.037868731 -0.23852047 0.14741376 0.38593423
0.0068415818 0.079829879 0.039999999 -0.23852047 0.14741376 0.38593423
0.0064836992 0.079247296 0.039999999 -0.23852047 0.14741376 0.38593423
0.006125988 0.078665011 0.039999999 -0.23852047 0.14741376 0.38593423
0.0057684449 0.078083046 0.039999999 -0.23852047 0.14741376 0.38593423
0.0054110684 0.077501379 0.039999999 -0.23852047 0.14741376 0.38593423
0.0050538573 0.07692001 0.039999999 -0.23852047 0.14741376 0.38593423
0.0046968092 0.076338947 0.039999999 -0.23852047 0.14741376 0.38593423
0.0043399222 0.075758174 0.039999999 -0.23852047 0.14741376 0.38593423
0.0039831949 0.075177692 0.039999999 -0.23852047 0.14741376 0.38593423
0.0036266248 0.074597508 0.039999999 -0.23852047 0.14741376 0.38593423
0.0032702105 0.074017607 0.039999999 -0.23852047 0.14741376 0.38593423
0.00291395 0.073437981 0.039999999 -0.23852047 0.14741376 0.38593423
0.0025578416 0.072858647 0.039999999 -0.23852047 0.14741376 0.38593423
0.0022018831 0.07227958 0.039999999 -0.23852047 0.14741376 0.38593423
0.0018460731 0.071700796 0.039999999 -0.23852047 0.14741376 0.38593423
0.0014904096 0.071122274 0.039999999 -0.23852047 0.14741376 0.38593423
0.0011348907 0.070544027 0.039999999 -0.23852047 0.14741376 0.38593423
0.00077951461 0.069966048 0.039999999 -0.23852047 0.14741376 0.38593423
0.00042427954 0.069388323 0.039999999 -0.23852047 0.14741376 0.38593423
6.9183669e-05 0.068810865 0.039999999 -0.23852047 0.14741376 0.38593423
2.7755576e-17 0.068138674 0.039585032 -0.23852047 0.14741376 0.38593423
2.7755576e-17 0.067441925 0.039068416 -0.23852047 0.14741376 0.38593423
2.7755576e-17 0.066743389 0.038550451 -0.23852047 0.14741376 0.38593423
2.7755576e-17 0.066043057 0.038031131 -0.23852047 0.14741376 0.38593423
2.7755576e-17 0.065340914 0.037510451 -0.23852047 0.14741376 0.38593423
2.7755576e-17 0.064636961 0.036988392 -0.23852047 0.14741376 0.38593423
2.7755576e-17 0.063931175 0.036464959 -0.23852047 0.14741376 0.38593423
5.5511151e-17 0.063223556 0.035940137 -0.23852047 0.14741376 0.38593423
5.5511151e-17 0.062514089 0.035413921 -0.23852047 0.14741376 0.38593423
2.7755576e-17 0.061802763 0.034886297 -0.23852047 0.14741376 0.38593423
2.7755576e-17 0.061089564 0.034357265 -0.23852047 0.14741376 0.38593423
2.7755576e-17 0.060374487 0.033826813 -0.23852047 0.14741376 0.38593423
2.7755576e-17 0.059657514 0.033294927 -0.23852047 0.14741376 0.38593423
2.7755576e-17 0.058938641 0.032761611 -0.23852047 0.14741376 0.38593423
2.7755576e-17 0.05821785 0.032226846 -0.23852047 0.14741376 0.38593423
2.7755576e-17 0.057495136 0.031690627 -0.23852047 0.14741376 0.38593423
2.7755576e-17 0.056770481 0.031152945 -0.23852047 0.14741376 0.38593423
2.7755576e-17 0.056043878 0.030613793 -0.23852047 0.14741376 0.38593423
2.7755576e-17 0.055315316 0.03007316 -0.23852047 0.14741376 0.38593423
0 0.054584783 0.029531039 -0.23852047 0.14741376 0.38593423
0 0.05385226 0.028987423 -0.23852047 0.14741376 0.38593423
0 0.053117748 0.028442297 -0.23852047 0.14741376 0.38593423
0 0.052381225 0.027895659 -0.23852047 0.14741376 0.38593423
0 0.051642682 0.027347494 -0.23852047 0.14741376 0.38593423
2.7755576e-17 0.050902106 0.026797798 -0.23852047 0.14741376 0.38593423
0 0.050159488 0.026246559 -0.23852047 0.14741376 0.38593423
2.7755576e-17 0.049414814 0.025693767 -0.23852047 0.14741376 0.38593423
0 0.048668072 0.025139416 -0.23852047 0.14741376 0.38593423
2.7755576e-17 0.047919247 0.024583492 -0.23852047 0.14741376 0.38593423
0 0.047168329 0.024025992 -0.23852047 0.14741376 0.38593423
0 0.046415307 0.0234669 -0.23852047 0.14741376 0.38593423
0 0.045660164 0.02290621 -0.23852047 0.14741376 0.38593423
0 0.044902887 0.022343913 -0.23852047 0.14741376 0.38593423
0 0.044143468 0.021779997 -0.23852047 0.14741376 0.38593423
0 0.043381892 0.021214454 -0.23852047 0.14741376 0.38593423
0 0.042618148 0.020647272 -0.23852047 0.14741376 0.38593423
0 0.041852217 0.020078445 -0.23852047 0.14741376 0.38593423
2.7755576e-17 0.041084088 0.019507958 -0.23852047 0.14741376 0.38593423
0 0.040313751 0.018935805 -0.23852047 0.14741376 0.38593423
0 0.039541185 0.018361975 -0.23852047 0.14741376 0.38593423
0 0.038766388 0.017786456 -0.23852047 0.14741376 0.38593423
0 0.037989333 0.017209239 -0.23852047 0.14741376 0.38593423
0 0.037210017 0.016630314 -0.23852047 0.14741376 0.38593423
0 0.036428422 0.01604967 -0.23852047 0.14741376 0.38593423
0 0.035644535 0.015467296 -0.23852047 0.14741376 0.38593423
0 0.034858339 0.014883183 -0.23852047 0.14741376 0.38593423
0 0.034069825 0.01429732 -0.23852047 0.14741376 0.38593423
0 0.033278972 0.013709694 -0.23852047 0.14741376 0.38593423
0 0.032485768 0.013120297 -0.23852047 0.14741376 0.38593423
0 0.031690203 0.012529117 -0.23852047 0.14741376 0.38593423
0 0.030892259 0.011936142 -0.23852047 0.14741376 0.38593423
2.7755576e-17 0.030091919 0.011341362 -0.23852047 0.14741376 0.38593423
0 0.029289171 0.010744766 -0.23852047 0.14741376 0.38593423
0.006440097 0.025272872 0 -0.23852047 0.14741376 0.38593423
0 0.027676389 0.0095460797 -0.23852047 0.14741376 0.38593423
0 0.026866324 0.0089439675 -0.23852047 0.14741376 0.38593423
0 0.02605379 0.0083399927 -0.23852047 0.14741376 0.38593423
0 0.025238771 0.0077341441 -0.23852047 0.14741376 0.38593423
0 0.024421252 0.0071264105 -0.23852047 0.14741376 0.38593423
0 0.023601215 0.0065167802 -0.23852047 0.14741376 0.38593423
0 0.022778649 0.0059052408 -0.23852047 0.14741376 0.38593423
0.0033159677 0.020209357 0 -0.23852047 0.14741376 0.38593423
0 0.021125855 0.0046763876 -0.23852047 0.14741376 0.38593423
0 0.020295596 0.0040590498 -0.23852047 0.14741376 0.38593423
0 0.01946274 0.0034397545 -0.23852047 0.14741376 0.38593423
0.0017547372 0.017679822 0 -0.23852047 0.14741376 0.38593423
0 0.017789176 0.0021952423 -0.23852047 0.14741376 0.38593423
2.7755576e-17 0.016948432 0.0015700007 -0.23852047 0.14741376 0.38593423
0.00058407936 0.015783481 5.5511151e-17 -0.23852047 0.14741376 0.38593423
0.037093475 0.079999998 0.0023460709 -0.23852047 0.14741376 0.38593423
0.0340693 0.079999998 0.0060058669 -0.23852047 0.14741376 0.38593423
0.031103995 0.079999998 0.009594392 -0.23852047 0.14741376 0.38593423
0.028195839 0.079999998 0.013113723 -0.23852047 0.14741376 0.38593423
0.025343185 0.079999998 0.016565861 -0.23852047 0.14741376 0.38593423
0.022544445 0.079999998 0.019952727 -0.23852047 0.14741376 0.38593423
0.019798089 0.079999998 0.023276171 -0.23852047 0.14741376 0.38593423
0.017102648 0.079999998 0.026537973 -0.23852047 0.14741376 0.38593423
0.014456704 0.079999998 0.029739849 -0.23852047 0.14741376 0.38593423
0.011858894 0.079999998 0.03288345 -0.23852047 0.14741376 0.38593423
0.0093079042 0.079999998 0.035970367 -0.23852047 0.14741376 0.38593423
0.0068024667 0.079999998 0.039002132 -0.23852047 0.14741376 0.38593423
0.0057395766 0.079611883 0.039999999 -0.23852047 0.14741376 0.38593423
0.0053824666 0.079030171 0.039999999 -0.23852047 0.14741376 0.38593423
0.0050255232 0.078448772 0.039999999 -0.23852047 0.14741376 0.38593423
0.0046687443 0.077867679 0.039999999 -0.23852047 0.14741376 0.38593423
0.0043121278 0.077286892 0.039999999 -0.23852047 0.14741376 0.38593423
0.0039556725 0.076706395 0.039999999 -0.23852047 0.14741376 0.38593423
0.003599376 0.076126195 0.039999999 -0.23852047 0.14741376 0.38593423
0.0032432363 0.075546294 0.039999999 -0.23852047 0.14741376 0.38593423
0.002887252 0.074966677 0.039999999 -0.23852047 0.14741376 0.38593423
0.0025314211 0.074387349 0.039999999 -0.23852047 0.14741376 0.38593423
0.0021757418 0.073808305 0.039999999 -0.23852047 0.14741376 0.38593423
0.0018202123 0.073229536 0.039999999 -0.23852047 0.14741376 0.38593423
0.0014648308 0.072651051 0.039999999 -0.23852047 0.14741376 0.38593423
0.0011095952 0.072072841 0.039999999 -0.23852047 0.14741376 0.38593423
0.00075450394 0.0714949 0.039999999 -0.23852047 0.14741376 0.38593423
0.00039955511 0.070917226 0.039999999 -0.23852047 0.14741376 0.38593423
4.4746899e-05 0.070339821 0.039999999 -0.23852047 0.14741376 0.38593423
2.7755576e-17 0.069661647 0.039549924 -0.23852047 0.14741376 0.38593423
2.7755576e-17 0.06896726 0.039033625 -0.23852047 0.14741376 0.38593423
2.7755576e-17 0.068271101 0.038515985 -0.23852047 0.14741376 0.38593423
5.5511151e-17 0.067573167 0.037996992 -0.23852047 0.14741376 0.38593423
2.7755576e-17 0.066873431 0.03747664 -0.23852047 0.14741376 0.38593423
2.7755576e-17 0.066171899 0.036954921 -0.23852047 0.14741376 0.38593423
2.7755576e-17 0.065468557 0.036431827 -0.23852047 0.14741376 0.38593423
2.7755576e-17 0.06476339 0.03590735 -0.23852047 0.14741376 0.38593423
5.5511151e-17 0.064056396 0.035381481 -0.23852047 0.14741376 0.38593423
5.5511151e-17 0.063347548 0.034854211 -0.23852047 0.14741376 0.38593423
2.7755576e-17 0.062636852 0.034325536 -0.23852047 0.14741376 0.38593423
2.7755576e-17 0.061924286 0.033795446 -0.23852047 0.14741376 0.38593423
2.7755576e-17 0.061209846 0.033263929 -0.23852047 0.14741376 0.38593423
2.7755576e-17 0.060493514 0.032730982 -0.23852047 0.14741376 0.38593423
2.7755576e-17 0.059775285 0.032196596 -0.23852047 0.14741376 0.38593423
2.7755576e-17 0.05905515 0.031660758 -0.23852047 0.14741376 0.38593423
5.5511151e-17 0.058333088 0.031123461 -0.23852047 0.14741376 0.38593423
0 0.057609092 0.0305847 -0.23852047 0.14741376 0.38593423
0 0.056883156 0.030044463 -0.23852047 0.14741376 0.38593423
0 0.056155261 0.029502742 -0.23852047 0.14741376 0.38593423
0 0.055425398 0.028959529 -0.23852047 0.14741376 0.38593423
0 0.054693557 0.028414814 -0.23852047 0.14741376 0.38593423
0 0.053959727 0.027868589 -0.23852047 0.14741376 0.38593423
2.7755576e-17 0.053223889 0.027320845 -0.23852047 0.14741376 0.38593423
0 0.05248604 0.026771573 -0.23852047 0.14741376 0.38593423
0 0.05174616 0.026220763 -0.23852047 0.14741376 0.38593423
0 0.051004242 0.025668407 -0.23852047 0.14741376 0.38593423
0 0.050260276 0.025114495 -0.23852047 0.14741376 0.38593423
0 0.049514242 0.024559019 -0.23852047 0.14741376 0.38593423
0 0.048766132 0.024001967 -0.23852047 0.14741376 0.38593423
0 0.048015933 0.023443332 -0.23852047 0.14741376 0.38593423
0 0.047263637 0.022883104 -0.23852047 0.14741376 0.38593423
2.7755576e-17 0.046509221 0.022321273 -0.23852047 0.14741376 0.38593423
0 0.045752682 0.02175783 -0.23852047 0.14741376 0.38593423
0 0.044994004 0.021192763 -0.23852047 0.14741376 0.38593423
0 0.044233169 0.020626066 -0.23852047 0.14741376 0.38593423
0 0.04347017 0.020057727 -0.23852047 0.14741376 0.38593423
0 0.042704996 0.019487735 -0.23852047 0.14741376 0.38593423
2.7755576e-17 0.041937627 0.018916082 -0.23852047 0.14741376 0.38593423
0 0.041168049 0.018342756 -0.23852047 0.14741376 0.38593423
0 0.040396258 0.01776775 -0.23852047 0.14741376 0.38593423
0 0.039622229 0.017191051 -0.23852047 0.14741376 0.38593423
0 0.038845956 0.016612649 -0.23852047 0.14741376 0.38593423
0 0.038067427 0.016032534 -0.23852047 0.14741376 0.38593423
0 0.037286617 0.015450696 -0.23852047 0.14741376 0.38593423
0 0.036503524 0.014867123 -0.23852047 0.14741376 0.38593423
0 0.035718128 0.014281807 -0.23852047 0.14741376 0.38593423
0 0.034930415 0.013694735 -0.23852047 0.14741376 0.38593423
0 0.034140375 0.013105897 -0.23852047 0.14741376 0.38593423
0 0.033347987 0.012515283 -0.23852047 0.14741376 0.38593423
2.7755576e-17 0.032553241 0.011922881 -0.23852047 0.14741376 0.38593423
0 0.031756122 0.01132868 -0.23852047 0.14741376 0.38593423
0.0068228957 0.027625345 0 -0.23852047 0.14741376 0.38593423
0 0.030154699 0.010134837 -0.23852047 0.14741376 0.38593423
2.7755576e-17 0.029350368 0.009535172 -0.23852047 0.14741376 0.38593423
0 0.028543605 0.0089336634 -0.23852047 0.14741376 0.38593423
0.0052619874 0.025094151 0 -0.23852047 0.14741376 0.38593423
0.0048718737 0.024461638 0 -0.23852047 0.14741376 0.38593423
0 0.026108559 0.0071179611 -0.23852047 0.14741376 0.38593423
0.0040917695 0.023196934 0 -0.23852047 0.14741376 0.38593423
0 0.024472747 0.0058980617 -0.23852047 0.14741376 0.38593423
0 0.02365106 0.0052852472 -0.23852047 0.14741376 0.38593423
0.0029218923 0.021300631 0 -0.23852047 0.14741376 0.38593423
0 0.022000041 0.0040538288 -0.23852047 0.14741376 0.38593423
0.0021421376 0.020036899 0 -0.23852047 0.14741376 0.38593423
0 0.020338725 0.0028146093 -0.23852047 0.14741376 0.38593423
0 0.019504165 0.0021920437 -0.23852047 0.14741376 0.38593423
0 0.017827157 0.00094093801 -0.23852047 0.14741376 0.38593423
0.00019321335 0.016879022 0 -0.23852047 0.14741376 0.38593423
0.03788479 0.079999998 8.0728096e-05 -0.23852047 0.14741376 0.38593423
0.034838576 0.079999998 0.0037801086 -0.23852047 0.14741376 0.38593423
0.031851936 0.079999998 0.007407106 -0.23852047 0.14741376 0.38593423
0.028923128 0.079999998 0.01096384 -0.23852047 0.14741376 0.38593423
0.026050469 0.079999998 0.014452352 -0.23852047 0.14741376 0.38593423
0.02323235 0.079999998 0.0178746 -0.23852047 0.14741376 0.38593423
0.020467218 0.079999998 0.021232473 -0.23852047 0.14741376 0.38593423
0.017753575 0.079999998 0.024527783 -0.23852047 0.14741376 0.38593423
0.015089988 0.079999998 0.027762281 -0.23852047 0.14741376 0.38593423
0.012475067 0.079999998 0.030937647 -0.23852047 0.14741376 0.38593423
0.0099074794 0.079999998 0.034055505 -0.23852047 0.14741376 0.38593423
0.0073859384 0.079999998 0.037117418 -0.23852047 0.14741376 0.38593423
0.0049971207 0.07997565 0.039999999 -0.23852047 0.14741376 0.38593423
0.0046406109 0.079394519 0.039999999 -0.23852047 0.14741376 0.38593423
0.0042842655 0.078813687 0.039999999 -0.23852047 0.14741376 0.38593423
0.0039280816 0.078233168 0.039999999 -0.23852047 0.14741376 0.38593423
0.0035720584 0.077652946 0.039999999 -0.23852047 0.14741376 0.38593423
0.0032161938 0.077073023 0.039999999 -0.23852047 0.14741376 0.38593423
0.0028604856 0.076493397 0.039999999 -0.23852047 0.14741376 0.38593423
0.0025049325 0.07591407 0.039999999 -0.23852047 0.14741376 0.38593423
0.0021495323 0.075335026 0.039999999 -0.23852047 0.14741376 0.38593423
0.0017942832 0.074756272 0.039999999 -0.23852047 0.14741376 0.38593423
0.0014391834 0.074177794 0.039999999 -0.23852047 0.14741376 0.38593423
0.0010842311 0.073599607 0.039999999 -0.23852047 0.14741376 0.38593423
0.00072942459 0.073021695 0.039999999 -0.23852047 0.14741376 0.38593423
0.00037476188 0.072444059 0.039999999 -0.23852047 0.14741376 0.38593423
2.0241207e-05 0.071866691 0.039999999 -0.23852047 0.14741376 0.38593423
2.7755576e-17 0.071182802 0.039514706 -0.23852047 0.14741376 0.38593423
2.7755576e-17 0.070490755 0.038998727 -0.23852047 0.14741376 0.38593423
2.7755576e-17 0.069796957 0.038481407 -0.23852047 0.14741376 0.38593423
5.5511151e-17 0.069101393 0.037962742 -0.23852047 0.14741376 0.38593423
5.5511151e-17 0.068404049 0.037442721 -0.23852047 0.14741376 0.38593423
2.7755576e-17 0.067704923 0.036921337 -0.23852047 0.14741376 0.38593423
2.7755576e-17 0.067003995 0.036398586 -0.23852047 0.14741376 0.38593423
2.7755576e-17 0.066301264 0.035874452 -0.23852047 0.14741376 0.38593423
2.7755576e-17 0.065596707 0.035348929 -0.23852047 0.14741376 0.38593423
2.7755576e-17 0.064890325 0.034822017 -0.23852047 0.14741376 0.38593423
2.7755576e-17 0.064182103 0.0342937 -0.23852047 0.14741376 0.38593423
2.7755576e-17 0.063472033 0.033763967 -0.23852047 0.14741376 0.38593423
2.7755576e-17 0.0627601 0.033232819 -0.23852047 0.14741376 0.38593423
2.7755576e-17 0.062046297 0.032700244 -0.23852047 0.14741376 0.38593423
2.7755576e-17 0.061330605 0.032166231 -0.23852047 0.14741376 0.38593423
2.7755576e-17 0.060613021 0.031630773 -0.23852047 0.14741376 0.38593423
2.7755576e-17 0.05989353 0.031093864 -0.23852047 0.14741376 0.38593423
2.7755576e-17 0.059172124 0.03055549 -0.23852047 0.14741376 0.38593423
2.7755576e-17 0.058448788 0.030015649 -0.23852047 0.14741376 0.38593423
0 0.057723511 0.029474327 -0.23852047 0.14741376 0.38593423
0 0.056996286 0.028931519 -0.23852047 0.14741376 0.38593423
0 0.056267094 0.028387213 -0.23852047 0.14741376 0.38593423
0 0.055535927 0.027841402 -0.23852047 0.14741376 0.38593423
0 0.054802775 0.027294077 -0.23852047 0.14741376 0.38593423
0 0.054067627 0.02674523 -0.23852047 0.14741376 0.38593423
0 0.053330462 0.02619485 -0.23852047 0.14741376 0.38593423
2.7755576e-17 0.052591279 0.025642928 -0.23852047 0.14741376 0.38593423
0 0.051850062 0.025089456 -0.23852047 0.14741376 0.38593423
0 0.051106796 0.024534423 -0.23852047 0.14741376 0.38593423
0 0.050361473 0.023977822 -0.23852047 0.14741376 0.38593423
0 0.049614076 0.023419641 -0.23852047 0.14741376 0.38593423
2.7755576e-17 0.048864596 0.022859873 -0.23852047 0.14741376 0.38593423
0 0.048113018 0.022298509 -0.23852047 0.14741376 0.38593423
0 0.047359332 0.021735536 -0.23852047 0.14741376 0.38593423
0 0.046603523 0.021170948 -0.23852047 0.14741376 0.38593423
0 0.045845583 0.020604732 -0.23852047 0.14741376 0.38593423
0 0.04508549 0.02003688 -0.23852047 0.14741376 0.38593423
0 0.044323239 0.019467382 -0.23852047 0.14741376 0.38593423
0 0.043558814 0.018896228 -0.23852047 0.14741376 0.38593423
0 0.042792201 0.018323407 -0.23852047 0.14741376 0.38593423
2.7755576e-17 0.042023387 0.017748911 -0.23852047 0.14741376 0.38593423
0 0.04125236 0.017172728 -0.23852047 0.14741376 0.38593423
0 0.040479105 0.016594848 -0.23852047 0.14741376 0.38593423
0 0.039703611 0.016015261 -0.23852047 0.14741376 0.38593423
0 0.03892586 0.015433957 -0.23852047 0.14741376 0.38593423
0 0.03814584 0.014850925 -0.23852047 0.14741376 0.38593423
0 0.037363537 0.014266155 -0.23852047 0.14741376 0.38593423
0 0.036578938 0.013679635 -0.23852047 0.14741376 0.38593423
0 0.03579203 0.013091356 -0.23852047 0.14741376 0.38593423
0 0.035002794 0.012501306 -0.23852047 0.14741376 0.38593423
0 0.034211218 0.011909475 -0.23852047 0.14741376 0.38593423
2.7755576e-17 0.033417292 0.011315851 -0.23852047 0.14741376 0.38593423
0 0.032620996 0.010720423 -0.23852047 0.14741376 0.38593423
2.7755576e-17 0.031822313 0.010123181 -0.23852047 0.14741376 0.38593423
0 0.031021236 0.0095241135 -0.23852047 0.14741376 0.38593423
2.7755576e-17 0.030217744 0.0089232083 -0.23852047 0.14741376 0.38593423
0 0.029411824 0.0083204545 -0.23852047 0.14741376 0.38593423
0 0.028603463 0.0077158413 -0.23852047 0.14741376 0.38593423
0 0.027792642 0.0071093561 -0.23852047 0.14741376 0.38593423
0 0.026979348 0.0065009873 -0.23852047 0.14741376 0.38593423
0 0.026163563 0.0058907238 -0.23852047 0.14741376 0.38593423
0 0.025345273 0.0052785533 -0.23852047 0.14741376 0.38593423
0 0.024524463 0.0046644639 -0.23852047 0.14741376 0.38593423
0 0.022046749 0.0028105618 -0.23852047 0.14741376 0.38593423
0.0013603909 0.020495931 5.5511151e-17 -0.23852047 0.14741376 0.38593423
0 0.020382041 0.0015648098 -0.23852047 0.14741376 0.38593423
0 0.019545769 0.00093895145 -0.23852047 0.14741376 0.38593423
0 0.018706862 0.00031108799 -0.23852047 0.14741376 0.38593423
0.035615165 0.079999998 0.0015331911 -0.23852047 0.14741376 0.38593423
0.032606918 0.079999998 0.0051992298 -0.23852047 0.14741376 0.38593423
0.029657194 0.079999998 0.0087939156 -0.23852047 0.14741376 0.38593423
0.026764285 0.079999998 0.012319329 -0.23852047 0.14741376 0.38593423
0.023926547 0.079999998 0.015777469 -0.23852047 0.14741376 0.38593423
0.021142408 0.079999998 0.019170258 -0.23852047 0.14741376 0.38593423
0.018410347 0.079999998 0.02249955 -0.23852047 0.14741376 0.38593423
0.015728904 0.079999998 0.025767125 -0.23852047 0.14741376 0.38593423
0.01309667 0.079999998 0.028974697 -0.23852047 0.14741376 0.38593423
0.010512291 0.079999998 0.032123923 -0.23852047 0.14741376 0.38593423
0.0079744598 0.079999998 0.035216391 -0.23852047 0.14741376 0.38593423
0.0054819188 0.079999998 0.038253639 -0.23852047 0.14741376 0.38593423
0.0039004113 0.079758048 0.039999999 -0.23852047 0.14741376 0.38593423
0.0035446614 0.079177789 0.039999999 -0.23852047 0.14741376 0.38593423
0.0031890713 0.078597836 0.039999999 -0.23852047 0.14741376 0.38593423
0.0028336395 0.078018188 0.039999999 -0.23852047 0.14741376 0.38593423
0.0024783639 0.077438839 0.039999999 -0.23852047 0.14741376 0.38593423
0.0021232427 0.07685978 0.039999999 -0.23852047 0.14741376 0.38593423
0.001768274 0.076281019 0.039999999 -0.23852047 0.14741376 0.38593423
0.0014134562 0.075702548 0.039999999 -0.23852047 0.14741376 0.38593423
0.0010587871 0.075124368 0.039999999 -0.23852047 0.14741376 0.38593423
0.0007042652 0.074546471 0.039999999 -0.23852047 0.14741376 0.38593423
0.00034988858 0.07396885 0.039999999 -0.23852047 0.14741376 0.38593423
2.7755576e-17 0.073390163 0.0399937 -0.23852047 0.14741376 0.38593423
2.7755576e-17 0.072702169 0.039479364 -0.23852047 0.14741376 0.38593423
2.7755576e-17 0.072012454 0.038963705 -0.23852047 0.14741376 0.38593423
2.7755576e-17 0.071320988 0.03844671 -0.23852047 0.14741376 0.38593423
5.5511151e-17 0.070627779 0.037928369 -0.23852047 0.14741376 0.38593423
2.7755576e-17 0.069932804 0.03740868 -0.23852047 0.14741376 0.38593423
2.7755576e-17 0.069236055 0.036887631 -0.23852047 0.14741376 0.38593423
2.7755576e-17 0.068537526 0.036365215 -0.23852047 0.14741376 0.38593423
2.7755576e-17 0.067837201 0.035841428 -0.23852047 0.14741376 0.38593423
5.5511151e-17 0.067135073 0.035316255 -0.23852047 0.14741376 0.38593423
5.5511151e-17 0.066431135 0.034789693 -0.23852047 0.14741376 0.38593423
5.5511151e-17 0.065725371 0.03426173 -0.23852047 0.14741376 0.38593423
2.7755576e-17 0.065017767 0.033732362 -0.23852047 0.14741376 0.38593423
5.5511151e-17 0.064308323 0.033201583 -0.23852047 0.14741376 0.38593423
2.7755576e-17 0.063597016 0.032669377 -0.23852047 0.14741376 0.38593423
2.7755576e-17 0.062883846 0.032135736 -0.23852047 0.14741376 0.38593423
5.5511151e-17 0.062168792 0.031600662 -0.23852047 0.14741376 0.38593423
2.7755576e-17 0.061451849 0.031064134 -0.23852047 0.14741376 0.38593423
2.7755576e-17 0.060733005 0.030526152 -0.23852047 0.14741376 0.38593423
0 0.060012251 0.029986704 -0.23852047 0.14741376 0.38593423
0 0.059289571 0.02944578 -0.23852047 0.14741376 0.38593423
0 0.058564954 0.028903376 -0.23852047 0.14741376 0.38593423
0 0.057838392 0.028359478 -0.23852047 0.14741376 0.38593423
0 0.05710987 0.027814081 -0.23852047 0.14741376 0.38593423
0 0.056379378 0.027267175 -0.23852047 0.14741376 0.38593423
0 0.055646904 0.026718751 -0.23852047 0.14741376 0.38593423
0 0.054912437 0.026168799 -0.23852047 0.14741376 0.38593423
0 0.054175962 0.025617311 -0.23852047 0.14741376 0.38593423
0 0.053437471 0.025064277 -0.23852047 0.14741376 0.38593423
0 0.052696947 0.024509687 -0.23852047 0.14741376 0.38593423
0 0.051954385 0.023953535 -0.23852047 0.14741376 0.38593423
0 0.051209766 0.02339581 -0.23852047 0.14741376 0.38593423
0 0.05046308 0.022836501 -0.23852047 0.14741376 0.38593423
0 0.049714316 0.022275601 -0.23852047 0.14741376 0.38593423
0 0.048963461 0.021713099 -0.23852047 0.14741376 0.38593423
0 0.048210502 0.021148985 -0.23852047 0.14741376 0.38593423
2.7755576e-17 0.047455423 0.020583251 -0.23852047 0.14741376 0.38593423
0 0.046698216 0.020015886 -0.23852047 0.14741376 0.38593423
0 0.045938864 0.019446881 -0.23852047 0.14741376 0.38593423
0 0.045177359 0.018876225 -0.23852047 0.14741376 0.38593423
0 0.044413682 0.018303908 -0.23852047 0.14741376 0.38593423
0 0.043647826 0.017729921 -0.23852047 0.14741376 0.38593423
0 0.042879771 0.017154252 -0.23852047 0.14741376 0.38593423
0 0.042109508 0.016576894 -0.23852047 0.14741376 0.38593423
0 0.041337021 0.015997835 -0.23852047 0.14741376 0.38593423
0 0.040562302 0.015417064 -0.23852047 0.14741376 0.38593423
0 0.039785329 0.014834571 -0.23852047 0.14741376 0.38593423
0 0.039006095 0.014250345 -0.23852047 0.14741376 0.38593423
0 0.038224582 0.013664377 -0.23852047 0.14741376 0.38593423
0 0.037440781 0.013076655 -0.23852047 0.14741376 0.38593423
0 0.03665467 0.012487168 -0.23852047 0.14741376 0.38593423
0 0.035866242 0.011895906 -0.23852047 0.14741376 0.38593423
0 0.035075478 0.011302859 -0.23852047 0.14741376 0.38593423
0 0.034282364 0.010708014 -0.23852047 0.14741376 0.38593423
2.7755576e-17 0.033486888 0.01011136 -0.23852047 0.14741376 0.38593423
0 0.032689035 0.0095128873 -0.23852047 0.14741376 0.38593423
0 0.03188879 0.0089125847 -0.23852047 0.14741376 0.38593423
2.7755576e-17 0.031086134 0.0083104391 -0.23852047 0.14741376 0.38593423
0 0.029473543 0.007100577 -0.23852047 0.14741376 0.38593423
2.7755576e-17 0.028663576 0.0064928369 -0.23852047 0.14741376 0.38593423
2.7755576e-17 0.02785114 0.0058832085 -0.23852047 0.14741376 0.38593423
0 0.02703622 0.0052716807 -0.23852047 0.14741376 0.38593423
0 0.026218802 0.0046582404 -0.23852047 0.14741376 0.38593423
0 0.025398867 0.0040428764 -0.23852047 0.14741376 0.38593423
0 0.024576401 0.0034255767 -0.23852047 0.14741376 0.38593423
0 0.023751389 0.0028063287 -0.23852047 0.14741376 0.38593423
0 0.022923812 0.0021851207 -0.23852047 0.14741376 0.38593423
0.00096925464 0.021584405 5.5511151e-17 -0.23852047 0.14741376 0.38593423
0 0.021260908 0.0009367739 -0.23852047 0.14741376 0.38593423
0 0.020425545 0.00030961039 -0.23852047 0.14741376 0.38593423
0.033369049 0.079999998 0.0029704606 -0.23852047 0.14741376 0.38593423
0.030398142 0.079999998 0.0066036559 -0.23852047 0.14741376 0.38593423
0.027484724 0.079999998 0.010166508 -0.23852047 0.14741376 0.38593423
0.024627127 0.079999998 0.013661058 -0.23852047 0.14741376 0.38593423
0.021823747 0.079999998 0.017089266 -0.23852047 0.14741376 0.38593423
0.019073043 0.079999998 0.020453019 -0.23852047 0.14741376 0.38593423
0.016373528 0.079999998 0.023754137 -0.23852047 0.14741376 0.38593423
0.013723777 0.079999998 0.026994364 -0.23852047 0.14741376 0.38593423
0.011122409 0.079999998 0.03017539 -0.23852047 0.14741376 0.38593423
0.0085680997 0.079999998 0.033298831 -0.23852047 0.14741376 0.38593423
0.0060595702 0.079999998 0.036366258 -0.23852047 0.14741376 0.38593423
0.003595589 0.079999998 0.039379176 -0.23852047 0.14741376 0.38593423
0.0028067024 0.07954108 0.039999999 -0.23852047 0.14741376 0.38593423
0.0024517043 0.078961693 0.039999999 -0.23852047 0.14741376 0.38593423
0.0020968621 0.078382611 0.039999999 -0.23852047 0.14741376 0.38593423
0.0017421739 0.077803835 0.039999999 -0.23852047 0.14741376 0.38593423
0.0013876378 0.07722535 0.039999999 -0.23852047 0.14741376 0.38593423
0.001033252 0.076647162 0.039999999 -0.23852047 0.14741376 0.38593423
0.00067901472 0.076069258 0.039999999 -0.23852047 0.14741376 0.38593423
0.0003249241 0.075491644 0.039999999 -0.23852047 0.14741376 0.38593423
2.7755576e-17 0.0749055 0.039957903 -0.23852047 0.14741376 0.38593423
2.7755576e-17 0.074219801 0.039443884 -0.23852047 0.14741376 0.38593423
2.7755576e-17 0.07353238 0.038928542 -0.23852047 0.14741376 0.38593423
2.7755576e-17 0.072843239 0.038411867 -0.23852047 0.14741376 0.38593423
5.5511151e-17 0.072152354 0.037893854 -0.23852047 0.14741376 0.38593423
5.5511151e-17 0.071459725 0.037374493 -0.23852047 0.14741376 0.38593423
2.7755576e-17 0.070765339 0.036853779 -0.23852047 0.14741376 0.38593423
2.7755576e-17 0.070069186 0.036331706 -0.23852047 0.14741376 0.38593423
2.7755576e-17 0.069371253 0.035808258 -0.23852047 0.14741376 0.38593423
2.7755576e-17 0.068671525 0.035283435 -0.23852047 0.14741376 0.38593423
2.7755576e-17 0.067970008 0.034757223 -0.23852047 0.14741376 0.38593423
2.7755576e-17 0.067266673 0.034229621 -0.23852047 0.14741376 0.38593423
2.7755576e-17 0.06656152 0.033700615 -0.23852047 0.14741376 0.38593423
2.7755576e-17 0.065854542 0.033170197 -0.23852047 0.14741376 0.38593423
2.7755576e-17 0.065145716 0.03263836 -0.23852047 0.14741376 0.38593423
2.7755576e-17 0.064435042 0.032105099 -0.23852047 0.14741376 0.38593423
2.7755576e-17 0.063722499 0.031570401 -0.23852047 0.14741376 0.38593423
2.7755576e-17 0.063008085 0.031034257 -0.23852047 0.14741376 0.38593423
2.7755576e-17 0.062291779 0.030496662 -0.23852047 0.14741376 0.38593423
0 0.06157358 0.029957609 -0.23852047 0.14741376 0.38593423
0 0.060853474 0.029417085 -0.23852047 0.14741376 0.38593423
2.7755576e-17 0.060131446 0.028875083 -0.23852047 0.14741376 0.38593423
0 0.059407488 0.028331593 -0.23852047 0.14741376 0.38593423
0 0.058681589 0.027786609 -0.23852047 0.14741376 0.38593423
0 0.057953734 0.02724012 -0.23852047 0.14741376 0.38593423
2.7755576e-17 0.057223916 0.026692117 -0.23852047 0.14741376 0.38593423
