# .PCD v0.7 - Point Cloud Data file format
VERSION 0.7
FIELDS x y z vp_x vp_y vp_z
SIZE 4 4 4 4 4 4
TYPE F F F F F F
COUNT 1 1 1 1 1 1
WIDTH 1003
HEIGHT 1
VIEWPOINT 0 0 0 1 0 0 0
POINTS 1003
DATA ascii
0.016413415 0.04526135 0.07 0 0 0.47704095
0.016410569 0.044614181 0.07 0 0 0.47704095
0.016407765 0.043967232 0.07 0 0 0.47704095
0.016405001 0.043320503 0.07 0 0 0.47704095
0.01640228 0.04267399 0.07 0 0 0.47704095
0.0163996 0.04202769 0.07 0 0 0.47704095
0.01639696 0.041381598 0.07 0 0 0.47704095
0.016394362 0.040735714 0.07 0 0 0.47704095
0.016487638 0.040324412 0.067620285 0 0 0.47704095
0.016732484 0.040270526 0.061476517 0 0 0.47704095
0.016994653 0.040238451 0.054901596 0 0 0.47704095
0.017266715 0.040208854 0.048080031 0 0 0.47704095
0.017547671 0.040178288 0.041036531 0 0 0.47704095
0.017586863 0.039581574 0.039999999 0 0 0.47704095
0.017584383 0.038889538 0.039999999 0 0 0.47704095
0.017581947 0.038197696 0.039999999 0 0 0.47704095
0.017579556 0.037506044 0.039999999 0 0 0.47704095
0.017577209 0.036814578 0.039999999 0 0 0.47704095
0.017574904 0.036123298 0.039999999 0 0 0.47704095
0.017572645 0.035432193 0.039999999 0 0 0.47704095
0.017570429 0.034741268 0.039999999 0 0 0.47704095
0.017568257 0.034050513 0.039999999 0 0 0.47704095
0.017566128 0.033359926 0.039999999 0 0 0.47704095
0.017564043 0.032669507 0.039999999 0 0 0.47704095
0.017562004 0.031979248 0.039999999 0 0 0.47704095
0.017560007 0.031289149 0.039999999 0 0 0.47704095
0.017558055 0.030599205 0.039999999 0 0 0.47704095
0.017556146 0.029909413 0.039999999 0 0 0.47704095
0.017554279 0.029219769 0.039999999 0 0 0.47704095
0.017552458 0.02853027 0.039999999 0 0 0.47704095
0.017550681 0.027840912 0.039999999 0 0 0.47704095
0.017548945 0.027151693 0.039999999 0 0 0.47704095
0.017547255 0.026462607 0.039999999 0 0 0.47704095
0.017545607 0.025773652 0.039999999 0 0 0.47704095
0.017544005 0.025084825 0.039999999 0 0 0.47704095
0.017542444 0.024396123 0.039999999 0 0 0.47704095
0.017540928 0.023707543 0.039999999 0 0 0.47704095
0.017539455 0.023019077 0.039999999 0 0 0.47704095
0.017538026 0.022330727 0.039999999 0 0 0.47704095
0.01753664 0.021642487 0.039999999 0 0 0.47704095
0.017535297 0.020954354 0.039999999 0 0 0.47704095
0.017533999 0.020266326 0.039999999 0 0 0.47704095
0.017532744 0.019578397 0.039999999 0 0 0.47704095
0.017531531 0.018890565 0.039999999 0 0 0.47704095
0.017530363 0.018202826 0.039999999 0 0 0.47704095
0.017529238 0.017515177 0.039999999 0 0 0.47704095
0.017528156 0.016827615 0.039999999 0 0 0.47704095
0.017527116 0.016140135 0.039999999 0 0 0.47704095
0.017526122 0.015452736 0.039999999 0 0 0.47704095
0.01752517 0.014765413 0.039999999 0 0 0.47704095
0.017524261 0.014078164 0.039999999 0 0 0.47704095
0.017523397 0.013390983 0.039999999 0 0 0.47704095
0.017522575 0.012703869 0.039999999 0 0 0.47704095
0.017521797 0.012016817 0.039999999 0 0 0.47704095
0.017521061 0.011329825 0.039999999 0 0 0.47704095
0.01752037 0.010642889 0.039999999 0 0 0.47704095
0.017519722 0.009956005 0.039999999 0 0 0.47704095
0.017519116 0.0092691705 0.039999999 0 0 0.47704095
0.017518554 0.0085823815 0.039999999 0 0 0.47704095
0.017518034 0.0078956354 0.039999999 0 0 0.47704095
0.017517559 0.007208928 0.039999999 0 0 0.47704095
0.017517127 0.0065222559 0.039999999 0 0 0.47704095
0.017516738 0.0058356165 0.039999999 0 0 0.47704095
0.017516393 0.0051490054 0.039999999 0 0 0.47704095
0.01751609 0.00446242 0.039999999 0 0 0.47704095
0.017515831 0.0037758565 0.039999999 0 0 0.47704095
0.017515615 0.0030893118 0.039999999 0 0 0.47704095
0.017515441 0.0024027822 0.039999999 0 0 0.47704095
0.017515311 0.0017162645 0.039999999 0 0 0.47704095
0.017515225 0.0010297553 0.039999999 0 0 0.47704095
0.017515182 0.00034325122 0.039999999 0 0 0.47704095
0.015967201 0.079305075 0.07 0 0 0.47704095
0.015962336 0.078641631 0.07 0 0 0.47704095
0.015957514 0.077978581 0.07 0 0 0.47704095
0.015952732 0.077315941 0.07 0 0 0.47704095
0.015947994 0.076653689 0.07 0 0 0.47704095
0.015943298 0.075991832 0.07 0 0 0.47704095
0.015938643 0.075330362 0.07 0 0 0.47704095
0.015934031 0.074669272 0.07 0 0 0.47704095
0.015929461 0.074008569 0.07 0 0 0.47704095
0.015924932 0.073348239 0.07 0 0 0.47704095
0.015920445 0.072688289 0.07 0 0 0.47704095
0.015915999 0.072028704 0.07 0 0 0.47704095
0.015911596 0.071369484 0.07 0 0 0.47704095
0.015907235 0.070710637 0.07 0 0 0.47704095
0.015902916 0.070052139 0.07 0 0 0.47704095
0.015898637 0.069394 0.07 0 0 0.47704095
0.0158944 0.06873621 0.07 0 0 0.47704095
0.015890205 0.068078779 0.07 0 0 0.47704095
0.015886052 0.067421682 0.07 0 0 0.47704095
0.015881939 0.066764936 0.07 0 0 0.47704095
0.015877867 0.066108525 0.07 0 0 0.47704095
0.015873836 0.065452449 0.07 0 0 0.47704095
0.015869848 0.064796701 0.07 0 0 0.47704095
0.0158659 0.064141281 0.07 0 0 0.47704095
0.015861994 0.063486189 0.07 0 0 0.47704095
0.015858127 0.062831417 0.07 0 0 0.47704095
0.015854303 0.062176961 0.07 0 0 0.47704095
0.01585052 0.061522819 0.07 0 0 0.47704095
0.015846776 0.06086899 0.07 0 0 0.47704095
0.015843075 0.060215466 0.07 0 0 0.47704095
0.015839413 0.059562247 0.07 0 0 0.47704095
0.015835794 0.058909327 0.07 0 0 0.47704095
0.015832214 0.058256704 0.07 0 0 0.47704095
0.015828675 0.057604376 0.07 0 0 0.47704095
0.015825177 0.056952335 0.07 0 0 0.47704095
0.015821718 0.056300584 0.07 0 0 0.47704095
0.015818302 0.055649113 0.07 0 0 0.47704095
0.015814925 0.054997925 0.07 0 0 0.47704095
0.015811589 0.054347008 0.07 0 0 0.47704095
0.015808292 0.053696368 0.07 0 0 0.47704095
0.015805036 0.053045999 0.07 0 0 0.47704095
0.015801821 0.052395895 0.07 0 0 0.47704095
0.015798645 0.051746052 0.07 0 0 0.47704095
0.015795512 0.051096469 0.07 0 0 0.47704095
0.015792416 0.050447144 0.07 0 0 0.47704095
0.015789362 0.049798068 0.07 0 0 0.47704095
0.015786348 0.049149245 0.07 0 0 0.47704095
0.015783373 0.048500668 0.07 0 0 0.47704095
0.01578044 0.047852334 0.07 0 0 0.47704095
0.015777545 0.047204237 0.07 0 0 0.47704095
0.015774691 0.046556376 0.07 0 0 0.47704095
0.015771877 0.045908749 0.07 0 0 0.47704095
0.015769104 0.04526135 0.07 0 0 0.47704095
0.015766369 0.044614181 0.07 0 0 0.47704095
0.015763674 0.043967232 0.07 0 0 0.47704095
0.01576102 0.043320503 0.07 0 0 0.47704095
0.015758405 0.04267399 0.07 0 0 0.47704095
0.015755828 0.04202769 0.07 0 0 0.47704095
0.015753293 0.041381598 0.07 0 0 0.47704095
0.015750797 0.040735714 0.07 0 0 0.47704095
0.015891917 0.040455528 0.066289052 0 0 0.47704095
0.016128695 0.040403415 0.060105175 0 0 0.47704095
0.016372673 0.040349718 0.053734306 0 0 0.47704095
0.016624184 0.04029436 0.047167808 0 0 0.47704095
0.016888903 0.040249955 0.040258825 0 0 0.47704095
0.016896488 0.039581574 0.039999999 0 0 0.47704095
0.016894104 0.038889538 0.039999999 0 0 0.47704095
0.016891764 0.038197696 0.039999999 0 0 0.47704095
0.016889466 0.037506044 0.039999999 0 0 0.47704095
0.01688721 0.036814578 0.039999999 0 0 0.47704095
0.016884997 0.036123298 0.039999999 0 0 0.47704095
0.016882826 0.035432193 0.039999999 0 0 0.47704095
0.016880699 0.034741268 0.039999999 0 0 0.47704095
0.01687861 0.034050513 0.039999999 0 0 0.47704095
0.016876567 0.033359926 0.039999999 0 0 0.47704095
0.016874563 0.032669507 0.039999999 0 0 0.47704095
0.016872603 0.031979248 0.039999999 0 0 0.47704095
0.016870685 0.031289149 0.039999999 0 0 0.47704095
0.016868809 0.030599205 0.039999999 0 0 0.47704095
0.016866975 0.029909413 0.039999999 0 0 0.47704095
0.016865183 0.029219769 0.039999999 0 0 0.47704095
0.016863432 0.02853027 0.039999999 0 0 0.47704095
0.016861724 0.027840912 0.039999999 0 0 0.47704095
0.016860059 0.027151693 0.039999999 0 0 0.47704095
0.016858434 0.026462607 0.039999999 0 0 0.47704095
0.016856851 0.025773652 0.039999999 0 0 0.47704095
0.016855311 0.025084825 0.039999999 0 0 0.47704095
0.016853811 0.024396123 0.039999999 0 0 0.47704095
0.016852355 0.023707543 0.039999999 0 0 0.47704095
0.016850939 0.023019077 0.039999999 0 0 0.47704095
0.016849566 0.022330727 0.039999999 0 0 0.47704095
0.016848234 0.021642487 0.039999999 0 0 0.47704095
0.016846946 0.020954354 0.039999999 0 0 0.47704095
0.016845698 0.020266326 0.039999999 0 0 0.47704095
0.016844491 0.019578397 0.039999999 0 0 0.47704095
0.016843326 0.018890565 0.039999999 0 0 0.47704095
0.016842203 0.018202826 0.039999999 0 0 0.47704095
0.016841123 0.017515177 0.039999999 0 0 0.47704095
0.016840084 0.016827615 0.039999999 0 0 0.47704095
0.016839085 0.016140135 0.039999999 0 0 0.47704095
0.01683813 0.015452736 0.039999999 0 0 0.47704095
0.016837215 0.014765413 0.039999999 0 0 0.47704095
0.016836343 0.014078164 0.039999999 0 0 0.47704095
0.016835513 0.013390983 0.039999999 0 0 0.47704095
0.016834723 0.012703869 0.039999999 0 0 0.47704095
0.016833974 0.012016817 0.039999999 0 0 0.47704095
0.016833268 0.011329825 0.039999999 0 0 0.47704095
0.016832603 0.010642889 0.039999999 0 0 0.47704095
0.016831981 0.009956005 0.039999999 0 0 0.47704095
0.016831398 0.0092691705 0.039999999 0 0 0.47704095
0.01683086 0.0085823815 0.039999999 0 0 0.47704095
0.016830361 0.0078956354 0.039999999 0 0 0.47704095
0.016829904 0.007208928 0.039999999 0 0 0.47704095
0.016829489 0.0065222559 0.039999999 0 0 0.47704095
0.016829114 0.0058356165 0.039999999 0 0 0.47704095
0.016828783 0.0051490054 0.039999999 0 0 0.47704095
0.016828492 0.00446242 0.039999999 0 0 0.47704095
0.016828243 0.0037758565 0.039999999 0 0 0.47704095
0.016828036 0.0030893118 0.039999999 0 0 0.47704095
0.016827868 0.0024027822 0.039999999 0 0 0.47704095
0.016827744 0.0017162645 0.039999999 0 0 0.47704095
0.016827662 0.0010297553 0.039999999 0 0 0.47704095
0.016827621 0.00034325122 0.039999999 0 0 0.47704095
0.015314875 0.079305075 0.07 0 0 0.47704095
0.015310208 0.078641631 0.07 0 0 0.47704095
0.015305582 0.077978581 0.07 0 0 0.47704095
0.015300997 0.077315941 0.07 0 0 0.47704095
0.015296452 0.076653689 0.07 0 0 0.47704095
0.015291947 0.075991832 0.07 0 0 0.47704095
0.015287482 0.075330362 0.07 0 0 0.47704095
0.015283058 0.074669272 0.07 0 0 0.47704095
0.015278675 0.074008569 0.07 0 0 0.47704095
0.015274331 0.073348239 0.07 0 0 0.47704095
0.015270027 0.072688289 0.07 0 0 0.47704095
0.015265765 0.072028704 0.07 0 0 0.47704095
0.015261541 0.071369484 0.07 0 0 0.47704095
0.015257358 0.070710637 0.07 0 0 0.47704095
0.015253214 0.070052139 0.07 0 0 0.47704095
0.015249111 0.069394 0.07 0 0 0.47704095
0.015245046 0.06873621 0.07 0 0 0.47704095
0.015241023 0.068078779 0.07 0 0 0.47704095
0.015237039 0.067421682 0.07 0 0 0.47704095
0.015233094 0.066764936 0.07 0 0 0.47704095
0.015229189 0.066108525 0.07 0 0 0.47704095
0.015225324 0.065452449 0.07 0 0 0.47704095
0.015221498 0.064796701 0.07 0 0 0.47704095
0.015217711 0.064141281 0.07 0 0 0.47704095
0.015213964 0.063486189 0.07 0 0 0.47704095
0.015210256 0.062831417 0.07 0 0 0.47704095
0.015206588 0.062176961 0.07 0 0 0.47704095
0.015202959 0.061522819 0.07 0 0 0.47704095
0.015199369 0.06086899 0.07 0 0 0.47704095
0.015195819 0.060215466 0.07 0 0 0.47704095
0.015192307 0.059562247 0.07 0 0 0.47704095
0.015188835 0.058909327 0.07 0 0 0.47704095
0.015185401 0.058256704 0.07 0 0 0.47704095
0.015182006 0.057604376 0.07 0 0 0.47704095
0.015178651 0.056952335 0.07 0 0 0.47704095
0.015175334 0.056300584 0.07 0 0 0.47704095
0.015172057 0.055649113 0.07 0 0 0.47704095
0.015168818 0.054997925 0.07 0 0 0.47704095
0.015165618 0.054347008 0.07 0 0 0.47704095
0.015162457 0.053696368 0.07 0 0 0.47704095
0.015159334 0.053045999 0.07 0 0 0.47704095
0.01515625 0.052395895 0.07 0 0 0.47704095
0.015153205 0.051746052 0.07 0 0 0.47704095
0.015150198 0.051096469 0.07 0 0 0.47704095
0.01514723 0.050447144 0.07 0 0 0.47704095
0.015144301 0.049798068 0.07 0 0 0.47704095
0.015141409 0.049149245 0.07 0 0 0.47704095
0.015138556 0.048500668 0.07 0 0 0.47704095
0.015135743 0.047852334 0.07 0 0 0.47704095
0.015132966 0.047204237 0.07 0 0 0.47704095
0.015130229 0.046556376 0.07 0 0 0.47704095
0.015127529 0.045908749 0.07 0 0 0.47704095
0.015124869 0.04526135 0.07 0 0 0.47704095
0.015122246 0.044614181 0.07 0 0 0.47704095
0.015119662 0.043967232 0.07 0 0 0.47704095
0.015117115 0.043320503 0.07 0 0 0.47704095
0.015114607 0.04267399 0.07 0 0 0.47704095
0.015112137 0.04202769 0.07 0 0 0.47704095
0.015109705 0.041381598 0.07 0 0 0.47704095
0.015107311 0.040735714 0.07 0 0 0.47704095
0.015292383 0.040587485 0.064949296 0 0 0.47704095
0.015520982 0.040537171 0.058724917 0 0 0.47704095
0.015756557 0.040485322 0.052311692 0 0 0.47704095
0.015999429 0.040431868 0.045700856 0 0 0.47704095
0.01620852 0.040273808 0.039999999 0 0 0.47704095
0.016206194 0.039581574 0.039999999 0 0 0.47704095
0.01620391 0.038889538 0.039999999 0 0 0.47704095
0.016201664 0.038197696 0.039999999 0 0 0.47704095
0.01619946 0.037506044 0.039999999 0 0 0.47704095
0.016197298 0.036814578 0.039999999 0 0 0.47704095
0.016195174 0.036123298 0.039999999 0 0 0.47704095
0.016193092 0.035432193 0.039999999 0 0 0.47704095
0.01619105 0.034741268 0.039999999 0 0 0.47704095
0.016189048 0.034050513 0.039999999 0 0 0.47704095
0.016187087 0.033359926 0.039999999 0 0 0.47704095
0.016185166 0.032669507 0.039999999 0 0 0.47704095
0.016183287 0.031979248 0.039999999 0 0 0.47704095
0.016181447 0.031289149 0.039999999 0 0 0.47704095
0.016179647 0.030599205 0.039999999 0 0 0.47704095
0.016177887 0.029909413 0.039999999 0 0 0.47704095
0.016176168 0.029219769 0.039999999 0 0 0.47704095
0.01617449 0.02853027 0.039999999 0 0 0.47704095
0.016172852 0.027840912 0.039999999 0 0 0.47704095
0.016171254 0.027151693 0.039999999 0 0 0.47704095
0.016169695 0.026462607 0.039999999 0 0 0.47704095
0.016168177 0.025773652 0.039999999 0 0 0.47704095
0.0161667 0.025084825 0.039999999 0 0 0.47704095
0.016165262 0.024396123 0.039999999 0 0 0.47704095
0.016163865 0.023707543 0.039999999 0 0 0.47704095
0.016162507 0.023019077 0.039999999 0 0 0.47704095
0.01616119 0.022330727 0.039999999 0 0 0.47704095
0.016159914 0.021642487 0.039999999 0 0 0.47704095
0.016158676 0.020954354 0.039999999 0 0 0.47704095
0.01615748 0.020266326 0.039999999 0 0 0.47704095
0.016156323 0.019578397 0.039999999 0 0 0.47704095
0.016155206 0.018890565 0.039999999 0 0 0.47704095
0.016154129 0.018202826 0.039999999 0 0 0.47704095
0.016153092 0.017515177 0.039999999 0 0 0.47704095
0.016152095 0.016827615 0.039999999 0 0 0.47704095
0.016151138 0.016140135 0.039999999 0 0 0.47704095
0.016150221 0.015452736 0.039999999 0 0 0.47704095
0.016149344 0.014765413 0.039999999 0 0 0.47704095
0.016148508 0.014078164 0.039999999 0 0 0.47704095
0.01614771 0.013390983 0.039999999 0 0 0.47704095
0.016146952 0.012703869 0.039999999 0 0 0.47704095
0.016146235 0.012016817 0.039999999 0 0 0.47704095
0.016145559 0.011329825 0.039999999 0 0 0.47704095
0.01614492 0.010642889 0.039999999 0 0 0.47704095
0.016144322 0.009956005 0.039999999 0 0 0.47704095
0.016143765 0.0092691705 0.039999999 0 0 0.47704095
0.016143247 0.0085823815 0.039999999 0 0 0.47704095
0.016142769 0.0078956354 0.039999999 0 0 0.47704095
0.016142331 0.007208928 0.039999999 0 0 0.47704095
0.016141932 0.0065222559 0.039999999 0 0 0.47704095
0.016141575 0.0058356165 0.039999999 0 0 0.47704095
0.016141256 0.0051490054 0.039999999 0 0 0.47704095
0.016140977 0.00446242 0.039999999 0 0 0.47704095
0.016140739 0.0037758565 0.039999999 0 0 0.47704095
0.016140539 0.0030893118 0.039999999 0 0 0.47704095
0.016140379 0.0024027822 0.039999999 0 0 0.47704095
0.01614026 0.0017162645 0.039999999 0 0 0.47704095
0.01614018 0.0010297553 0.039999999 0 0 0.47704095
0.016140141 0.00034325122 0.039999999 0 0 0.47704095
0.014658155 0.078641631 0.07 0 0 0.47704095
0.014653726 0.077978581 0.07 0 0 0.47704095
0.014649335 0.077315941 0.07 0 0 0.47704095
0.014644984 0.076653689 0.07 0 0 0.47704095
0.014640671 0.075991832 0.07 0 0 0.47704095
0.014636397 0.075330362 0.07 0 0 0.47704095
0.014632162 0.074669272 0.07 0 0 0.47704095
0.014627964 0.074008569 0.07 0 0 0.47704095
0.014623806 0.073348239 0.07 0 0 0.47704095
0.014619686 0.072688289 0.07 0 0 0.47704095
0.014615604 0.072028704 0.07 0 0 0.47704095
0.014611561 0.071369484 0.07 0 0 0.47704095
0.014607555 0.070710637 0.07 0 0 0.47704095
0.014603589 0.070052139 0.07 0 0 0.47704095
0.014599659 0.069394 0.07 0 0 0.47704095
0.014595769 0.06873621 0.07 0 0 0.47704095
0.014591916 0.068078779 0.07 0 0 0.47704095
0.014588102 0.067421682 0.07 0 0 0.47704095
0.014584325 0.066764936 0.07 0 0 0.47704095
0.014580586 0.066108525 0.07 0 0 0.47704095
0.014576886 0.065452449 0.07 0 0 0.47704095
0.014573223 0.064796701 0.07 0 0 0.47704095
0.014569597 0.064141281 0.07 0 0 0.47704095
0.01456601 0.063486189 0.07 0 0 0.47704095
0.01456246 0.062831417 0.07 0 0 0.47704095
0.014558948 0.062176961 0.07 0 0 0.47704095
0.014555474 0.061522819 0.07 0 0 0.47704095
0.014552036 0.06086899 0.07 0 0 0.47704095
0.014548637 0.060215466 0.07 0 0 0.47704095
0.014545275 0.059562247 0.07 0 0 0.47704095
0.01454195 0.058909327 0.07 0 0 0.47704095
0.014538663 0.058256704 0.07 0 0 0.47704095
0.014535413 0.057604376 0.07 0 0 0.47704095
0.014532201 0.056952335 0.07 0 0 0.47704095
0.014529025 0.056300584 0.07 0 0 0.47704095
0.014525888 0.055649113 0.07 0 0 0.47704095
0.014522786 0.054997925 0.07 0 0 0.47704095
0.014519722 0.054347008 0.07 0 0 0.47704095
0.014516696 0.053696368 0.07 0 0 0.47704095
0.014513707 0.053045999 0.07 0 0 0.47704095
0.014510754 0.052395895 0.07 0 0 0.47704095
0.014507839 0.051746052 0.07 0 0 0.47704095
0.01450496 0.051096469 0.07 0 0 0.47704095
0.014502118 0.050447144 0.07 0 0 0.47704095
0.014499313 0.049798068 0.07 0 0 0.47704095
0.014496545 0.049149245 0.07 0 0 0.47704095
0.014493814 0.048500668 0.07 0 0 0.47704095
0.014491119 0.047852334 0.07 0 0 0.47704095
0.014488462 0.047204237 0.07 0 0 0.47704095
0.014485841 0.046556376 0.07 0 0 0.47704095
0.014483257 0.045908749 0.07 0 0 0.47704095
0.014480709 0.04526135 0.07 0 0 0.47704095
0.014478198 0.044614181 0.07 0 0 0.47704095
0.014475724 0.043967232 0.07 0 0 0.47704095
0.014473286 0.043320503 0.07 0 0 0.47704095
0.014470885 0.04267399 0.07 0 0 0.47704095
0.01446852 0.04202769 0.07 0 0 0.47704095
0.014466192 0.041381598 0.07 0 0 0.47704095
0.014481593 0.040785544 0.069502078 0 0 0.47704095
0.014688995 0.040720288 0.063600928 0 0 0.47704095
0.014909304 0.040671799 0.057335656 0 0 0.47704095
0.015136356 0.040621825 0.05087965 0 0 0.47704095
0.015370468 0.040570296 0.044224031 0 0 0.47704095
0.015518209 0.040273808 0.039999999 0 0 0.47704095
0.015515982 0.039581574 0.039999999 0 0 0.47704095
0.015513794 0.038889538 0.039999999 0 0 0.47704095
0.015511645 0.038197696 0.039999999 0 0 0.47704095
0.015509535 0.037506044 0.039999999 0 0 0.47704095
0.015507463 0.036814578 0.039999999 0 0 0.47704095
0.015505431 0.036123298 0.039999999 0 0 0.47704095
0.015503437 0.035432193 0.039999999 0 0 0.47704095
0.015501482 0.034741268 0.039999999 0 0 0.47704095
0.015499566 0.034050513 0.039999999 0 0 0.47704095
0.015497688 0.033359926 0.039999999 0 0 0.47704095
0.01549585 0.032669507 0.039999999 0 0 0.47704095
0.01549405 0.031979248 0.039999999 0 0 0.47704095
0.015492287 0.031289149 0.039999999 0 0 0.47704095
0.015490565 0.030599205 0.039999999 0 0 0.47704095
0.015488881 0.029909413 0.039999999 0 0 0.47704095
0.015487235 0.029219769 0.039999999 0 0 0.47704095
0.015485628 0.02853027 0.039999999 0 0 0.47704095
0.015484059 0.027840912 0.039999999 0 0 0.47704095
0.015482529 0.027151693 0.039999999 0 0 0.47704095
0.015481037 0.026462607 0.039999999 0 0 0.47704095
0.015479584 0.025773652 0.039999999 0 0 0.47704095
0.01547817 0.025084825 0.039999999 0 0 0.47704095
0.015476793 0.024396123 0.039999999 0 0 0.47704095
0.015475455 0.023707543 0.039999999 0 0 0.47704095
0.015474156 0.023019077 0.039999999 0 0 0.47704095
0.015472895 0.022330727 0.039999999 0 0 0.47704095
0.015471672 0.021642487 0.039999999 0 0 0.47704095
0.015470488 0.020954354 0.039999999 0 0 0.47704095
0.015469342 0.020266326 0.039999999 0 0 0.47704095
0.015468234 0.019578397 0.039999999 0 0 0.47704095
0.015467165 0.018890565 0.039999999 0 0 0.47704095
0.015466134 0.018202826 0.039999999 0 0 0.47704095
0.015465141 0.017515177 0.039999999 0 0 0.47704095
0.015464187 0.016827615 0.039999999 0 0 0.47704095
0.01546327 0.016140135 0.039999999 0 0 0.47704095
0.015462393 0.015452736 0.039999999 0 0 0.47704095
0.015461553 0.014765413 0.039999999 0 0 0.47704095
0.015460751 0.014078164 0.039999999 0 0 0.47704095
0.015459988 0.013390983 0.039999999 0 0 0.47704095
0.015459264 0.012703869 0.039999999 0 0 0.47704095
0.015458576 0.012016817 0.039999999 0 0 0.47704095
0.015457928 0.011329825 0.039999999 0 0 0.47704095
0.015457317 0.010642889 0.039999999 0 0 0.47704095
0.015456745 0.009956005 0.039999999 0 0 0.47704095
0.015456212 0.0092691705 0.039999999 0 0 0.47704095
0.015455715 0.0085823815 0.039999999 0 0 0.47704095
0.015455258 0.0078956354 0.039999999 0 0 0.47704095
0.015454838 0.007208928 0.039999999 0 0 0.47704095
0.015454457 0.0065222559 0.039999999 0 0 0.47704095
0.015454113 0.0058356165 0.039999999 0 0 0.47704095
0.015453809 0.0051490054 0.039999999 0 0 0.47704095
0.015453542 0.00446242 0.039999999 0 0 0.47704095
0.015453313 0.0037758565 0.039999999 0 0 0.47704095
0.015453123 0.0030893118 0.039999999 0 0 0.47704095
0.01545297 0.0024027822 0.039999999 0 0 0.47704095
0.015452855 0.0017162645 0.039999999 0 0 0.47704095
0.015452779 0.0010297553 0.039999999 0 0 0.47704095
0.015452741 0.00034325122 0.039999999 0 0 0.47704095
0.014006174 0.078641631 0.07 0 0 0.47704095
0.014001942 0.077978581 0.07 0 0 0.47704095
0.013997748 0.077315941 0.07 0 0 0.47704095
0.013993589 0.076653689 0.07 0 0 0.47704095
0.013989468 0.075991832 0.07 0 0 0.47704095
0.013985384 0.075330362 0.07 0 0 0.47704095
0.013981337 0.074669272 0.07 0 0 0.47704095
0.013977326 0.074008569 0.07 0 0 0.47704095
0.013973353 0.073348239 0.07 0 0 0.47704095
0.013969416 0.072688289 0.07 0 0 0.47704095
0.013965515 0.072028704 0.07 0 0 0.47704095
0.013961652 0.071369484 0.07 0 0 0.47704095
0.013957825 0.070710637 0.07 0 0 0.47704095
0.013954035 0.070052139 0.07 0 0 0.47704095
0.013950281 0.069394 0.07 0 0 0.47704095
0.013946563 0.06873621 0.07 0 0 0.47704095
0.013942881 0.068078779 0.07 0 0 0.47704095
0.013939237 0.067421682 0.07 0 0 0.47704095
0.013935628 0.066764936 0.07 0 0 0.47704095
0.013932056 0.066108525 0.07 0 0 0.47704095
0.01392852 0.065452449 0.07 0 0 0.47704095
0.01392502 0.064796701 0.07 0 0 0.47704095
0.013921555 0.064141281 0.07 0 0 0.47704095
0.013918128 0.063486189 0.07 0 0 0.47704095
0.013914736 0.062831417 0.07 0 0 0.47704095
0.01391138 0.062176961 0.07 0 0 0.47704095
0.01390806 0.061522819 0.07 0 0 0.47704095
0.013904775 0.06086899 0.07 0 0 0.47704095
0.013901527 0.060215466 0.07 0 0 0.47704095
0.013898315 0.059562247 0.07 0 0 0.47704095
0.013895138 0.058909327 0.07 0 0 0.47704095
0.013891997 0.058256704 0.07 0 0 0.47704095
0.013888892 0.057604376 0.07 0 0 0.47704095
0.013885822 0.056952335 0.07 0 0 0.47704095
0.013882788 0.056300584 0.07 0 0 0.47704095
0.01387979 0.055649113 0.07 0 0 0.47704095
0.013876827 0.054997925 0.07 0 0 0.47704095
0.013873899 0.054347008 0.07 0 0 0.47704095
0.013871008 0.053696368 0.07 0 0 0.47704095
0.01386815 0.053045999 0.07 0 0 0.47704095
0.013865329 0.052395895 0.07 0 0 0.47704095
0.013862544 0.051746052 0.07 0 0 0.47704095
0.013859793 0.051096469 0.07 0 0 0.47704095
0.013857078 0.050447144 0.07 0 0 0.47704095
0.013854397 0.049798068 0.07 0 0 0.47704095
0.013851753 0.049149245 0.07 0 0 0.47704095
0.013849143 0.048500668 0.07 0 0 0.47704095
0.013846569 0.047852334 0.07 0 0 0.47704095
0.013844029 0.047204237 0.07 0 0 0.47704095
0.013841525 0.046556376 0.07 0 0 0.47704095
0.013839056 0.045908749 0.07 0 0 0.47704095
0.013836621 0.04526135 0.07 0 0 0.47704095
0.013834222 0.044614181 0.07 0 0 0.47704095
0.013831858 0.043967232 0.07 0 0 0.47704095
0.013829528 0.043320503 0.07 0 0 0.47704095
0.013827234 0.04267399 0.07 0 0 0.47704095
0.013824974 0.04202769 0.07 0 0 0.47704095
0.013822749 0.041381598 0.07 0 0 0.47704095
0.013903547 0.04098032 0.067555837 0 0 0.47704095
0.0141022 0.040913384 0.061640386 0 0 0.47704095
0.014306643 0.040844496 0.055553537 0 0 0.47704095
0.014517133 0.040773571 0.049287703 0 0 0.47704095
0.014737256 0.040709663 0.042737219 0 0 0.47704095
0.014827973 0.040273808 0.039999999 0 0 0.47704095
0.014825846 0.039581574 0.039999999 0 0 0.47704095
0.014823755 0.038889538 0.039999999 0 0 0.47704095
0.014821702 0.038197696 0.039999999 0 0 0.47704095
0.014819685 0.037506044 0.039999999 0 0 0.47704095
0.014817706 0.036814578 0.039999999 0 0 0.47704095
0.014815765 0.036123298 0.039999999 0 0 0.47704095
0.014813859 0.035432193 0.039999999 0 0 0.47704095
0.014811991 0.034741268 0.039999999 0 0 0.47704095
0.01481016 0.034050513 0.039999999 0 0 0.47704095
0.014808366 0.033359926 0.039999999 0 0 0.47704095
0.014806609 0.032669507 0.039999999 0 0 0.47704095
0.014804889 0.031979248 0.039999999 0 0 0.47704095
0.014803206 0.031289149 0.039999999 0 0 0.47704095
0.014801559 0.030599205 0.039999999 0 0 0.47704095
0.01479995 0.029909413 0.039999999 0 0 0.47704095
0.014798378 0.029219769 0.039999999 0 0 0.47704095
0.014796842 0.02853027 0.039999999 0 0 0.47704095
0.014795342 0.027840912 0.039999999 0 0 0.47704095
0.01479388 0.027151693 0.039999999 0 0 0.47704095
0.014792455 0.026462607 0.039999999 0 0 0.47704095
0.014791067 0.025773652 0.039999999 0 0 0.47704095
0.014789715 0.025084825 0.039999999 0 0 0.47704095
0.0147884 0.024396123 0.039999999 0 0 0.47704095
0.014787122 0.023707543 0.039999999 0 0 0.47704095
0.01478588 0.023019077 0.039999999 0 0 0.47704095
0.014784675 0.022330727 0.039999999 0 0 0.47704095
0.014783507 0.021642487 0.039999999 0 0 0.47704095
0.014782375 0.020954354 0.039999999 0 0 0.47704095
0.01478128 0.020266326 0.039999999 0 0 0.47704095
0.014780222 0.019578397 0.039999999 0 0 0.47704095
0.0147792 0.018890565 0.039999999 0 0 0.47704095
0.014778215 0.018202826 0.039999999 0 0 0.47704095
0.014777266 0.017515177 0.039999999 0 0 0.47704095
0.014776355 0.016827615 0.039999999 0 0 0.47704095
0.014775479 0.016140135 0.039999999 0 0 0.47704095
0.01477464 0.015452736 0.039999999 0 0 0.47704095
0.014773838 0.014765413 0.039999999 0 0 0.47704095
0.014773072 0.014078164 0.039999999 0 0 0.47704095
0.014772343 0.013390983 0.039999999 0 0 0.47704095
0.01477165 0.012703869 0.039999999 0 0 0.47704095
0.014770994 0.012016817 0.039999999 0 0 0.47704095
0.014770374 0.011329825 0.039999999 0 0 0.47704095
0.014769791 0.010642889 0.039999999 0 0 0.47704095
0.014769244 0.009956005 0.039999999 0 0 0.47704095
0.014768734 0.0092691705 0.039999999 0 0 0.47704095
0.014768261 0.0085823815 0.039999999 0 0 0.47704095
0.014767823 0.0078956354 0.039999999 0 0 0.47704095
0.014767422 0.007208928 0.039999999 0 0 0.47704095
0.014767057 0.0065222559 0.039999999 0 0 0.47704095
0.014766729 0.0058356165 0.039999999 0 0 0.47704095
0.014766438 0.0051490054 0.039999999 0 0 0.47704095
0.014766183 0.00446242 0.039999999 0 0 0.47704095
0.014765965 0.0037758565 0.039999999 0 0 0.47704095
0.014765782 0.0030893118 0.039999999 0 0 0.47704095
0.014765637 0.0024027822 0.039999999 0 0 0.47704095
0.014765527 0.0017162645 0.039999999 0 0 0.47704095
0.014765454 0.0010297553 0.039999999 0 0 0.47704095
0.014765418 0.00034325122 0.039999999 0 0 0.47704095
0.013354262 0.078641631 0.07 0 0 0.47704095
0.013350228 0.077978581 0.07 0 0 0.47704095
0.013346228 0.077315941 0.07 0 0 0.47704095
0.013342263 0.076653689 0.07 0 0 0.47704095
0.013338334 0.075991832 0.07 0 0 0.47704095
0.01333444 0.075330362 0.07 0 0 0.47704095
0.013330582 0.074669272 0.07 0 0 0.47704095
0.013326758 0.074008569 0.07 0 0 0.47704095
0.013322969 0.073348239 0.07 0 0 0.47704095
0.013319216 0.072688289 0.07 0 0 0.47704095
0.013315497 0.072028704 0.07 0 0 0.47704095
0.013311813 0.071369484 0.07 0 0 0.47704095
0.013308164 0.070710637 0.07 0 0 0.47704095
0.01330455 0.070052139 0.07 0 0 0.47704095
0.013300971 0.069394 0.07 0 0 0.47704095
0.013297427 0.06873621 0.07 0 0 0.47704095
0.013293916 0.068078779 0.07 0 0 0.47704095
0.013290441 0.067421682 0.07 0 0 0.47704095
0.013287 0.066764936 0.07 0 0 0.47704095
0.013283595 0.066108525 0.07 0 0 0.47704095
0.013280222 0.065452449 0.07 0 0 0.47704095
0.013276885 0.064796701 0.07 0 0 0.47704095
0.013273583 0.064141281 0.07 0 0 0.47704095
0.013270314 0.063486189 0.07 0 0 0.47704095
0.01326708 0.062831417 0.07 0 0 0.47704095
0.01326388 0.062176961 0.07 0 0 0.47704095
0.013260715 0.061522819 0.07 0 0 0.47704095
0.013257584 0.06086899 0.07 0 0 0.47704095
0.013254487 0.060215466 0.07 0 0 0.47704095
0.013251424 0.059562247 0.07 0 0 0.47704095
0.013248395 0.058909327 0.07 0 0 0.47704095
0.0132454 0.058256704 0.07 0 0 0.47704095
0.013242439 0.057604376 0.07 0 0 0.47704095
0.013239512 0.056952335 0.07 0 0 0.47704095
0.01323662 0.056300584 0.07 0 0 0.47704095
0.01323376 0.055649113 0.07 0 0 0.47704095
0.013230936 0.054997925 0.07 0 0 0.47704095
0.013228144 0.054347008 0.07 0 0 0.47704095
0.013225387 0.053696368 0.07 0 0 0.47704095
0.013222664 0.053045999 0.07 0 0 0.47704095
0.013219973 0.052395895 0.07 0 0 0.47704095
0.013217317 0.051746052 0.07 0 0 0.47704095
0.013214694 0.051096469 0.07 0 0 0.47704095
0.013212105 0.050447144 0.07 0 0 0.47704095
0.013209551 0.049798068 0.07 0 0 0.47704095
0.013207029 0.049149245 0.07 0 0 0.47704095
0.01320454 0.048500668 0.07 0 0 0.47704095
0.013202086 0.047852334 0.07 0 0 0.47704095
0.013199665 0.047204237 0.07 0 0 0.47704095
0.013197277 0.046556376 0.07 0 0 0.47704095
0.013194922 0.045908749 0.07 0 0 0.47704095
0.013192602 0.04526135 0.07 0 0 0.47704095
0.013190314 0.044614181 0.07 0 0 0.47704095
0.013188059 0.043967232 0.07 0 0 0.47704095
0.013185838 0.043320503 0.07 0 0 0.47704095
0.013183651 0.04267399 0.07 0 0 0.47704095
0.013181496 0.04202769 0.07 0 0 0.47704095
0.013179375 0.041381598 0.07 0 0 0.47704095
0.013320017 0.041176945 0.065591127 0 0 0.47704095
0.013511258 0.041112505 0.059618674 0 0 0.47704095
0.013708102 0.041046176 0.053472318 0 0 0.47704095
0.013910796 0.040977877 0.047144316 0 0 0.47704095
0.014119607 0.040907517 0.040626463 0 0 0.47704095
0.014137812 0.040273808 0.039999999 0 0 0.47704095
0.014135783 0.039581574 0.039999999 0 0 0.47704095
0.01413379 0.038889538 0.039999999 0 0 0.47704095
0.014131832 0.038197696 0.039999999 0 0 0.47704095
0.01412991 0.037506044 0.039999999 0 0 0.47704095
0.014128022 0.036814578 0.039999999 0 0 0.47704095
0.01412617 0.036123298 0.039999999 0 0 0.47704095
0.014124354 0.035432193 0.039999999 0 0 0.47704095
0.014122573 0.034741268 0.039999999 0 0 0.47704095
0.014120827 0.034050513 0.039999999 0 0 0.47704095
0.014119117 0.033359926 0.039999999 0 0 0.47704095
0.014117441 0.032669507 0.039999999 0 0 0.47704095
0.014115801 0.031979248 0.039999999 0 0 0.47704095
0.014114196 0.031289149 0.039999999 0 0 0.47704095
0.014112627 0.030599205 0.039999999 0 0 0.47704095
0.014111092 0.029909413 0.039999999 0 0 0.47704095
0.014109593 0.029219769 0.039999999 0 0 0.47704095
0.014108129 0.02853027 0.039999999 0 0 0.47704095
0.0141067 0.027840912 0.039999999 0 0 0.47704095
0.014105306 0.027151693 0.039999999 0 0 0.47704095
0.014103947 0.026462607 0.039999999 0 0 0.47704095
0.014102623 0.025773652 0.039999999 0 0 0.47704095
0.014101334 0.025084825 0.039999999 0 0 0.47704095
0.01410008 0.024396123 0.039999999 0 0 0.47704095
0.014098861 0.023707543 0.039999999 0 0 0.47704095
0.014097678 0.023019077 0.039999999 0 0 0.47704095
0.014096528 0.022330727 0.039999999 0 0 0.47704095
0.014095414 0.021642487 0.039999999 0 0 0.47704095
0.014094336 0.020954354 0.039999999 0 0 0.47704095
0.014093292 0.020266326 0.039999999 0 0 0.47704095
0.014092282 0.019578397 0.039999999 0 0 0.47704095
0.014091308 0.018890565 0.039999999 0 0 0.47704095
0.014090369 0.018202826 0.039999999 0 0 0.47704095
0.014089464 0.017515177 0.039999999 0 0 0.47704095
0.014088595 0.016827615 0.039999999 0 0 0.47704095
0.014087761 0.016140135 0.039999999 0 0 0.47704095
0.014086961 0.015452736 0.039999999 0 0 0.47704095
0.014086195 0.014765413 0.039999999 0 0 0.47704095
0.014085465 0.014078164 0.039999999 0 0 0.47704095
0.01408477 0.013390983 0.039999999 0 0 0.47704095
0.01408411 0.012703869 0.039999999 0 0 0.47704095
0.014083484 0.012016817 0.039999999 0 0 0.47704095
0.014082893 0.011329825 0.039999999 0 0 0.47704095
0.014082337 0.010642889 0.039999999 0 0 0.47704095
0.014081816 0.009956005 0.039999999 0 0 0.47704095
0.014081329 0.0092691705 0.039999999 0 0 0.47704095
0.014080877 0.0085823815 0.039999999 0 0 0.47704095
0.014080461 0.0078956354 0.039999999 0 0 0.47704095
0.014080078 0.007208928 0.039999999 0 0 0.47704095
0.014079731 0.0065222559 0.039999999 0 0 0.47704095
0.014079418 0.0058356165 0.039999999 0 0 0.47704095
0.01407914 0.0051490054 0.039999999 0 0 0.47704095
0.014078897 0.00446242 0.039999999 0 0 0.47704095
0.014078689 0.0037758565 0.039999999 0 0 0.47704095
0.014078516 0.0030893118 0.039999999 0 0 0.47704095
0.014078376 0.0024027822 0.039999999 0 0 0.47704095
0.014078272 0.0017162645 0.039999999 0 0 0.47704095
0.014078203 0.0010297553 0.039999999 0 0 0.47704095
0.014078168 0.00034325122 0.039999999 0 0 0.47704095
0.012698579 0.077978581 0.07 0 0 0.47704095
0.012694774 0.077315941 0.07 0 0 0.47704095
0.012691003 0.076653689 0.07 0 0 0.47704095
0.012687266 0.075991832 0.07 0 0 0.47704095
0.012683562 0.075330362 0.07 0 0 0.47704095
0.012679892 0.074669272 0.07 0 0 0.47704095
0.012676255 0.074008569 0.07 0 0 0.47704095
0.012672651 0.073348239 0.07 0 0 0.47704095
0.012669081 0.072688289 0.07 0 0 0.47704095
0.012665544 0.072028704 0.07 0 0 0.47704095
0.012662039 0.071369484 0.07 0 0 0.47704095
0.012658569 0.070710637 0.07 0 0 0.47704095
0.012655132 0.070052139 0.07 0 0 0.47704095
0.012651727 0.069394 0.07 0 0 0.47704095
0.012648355 0.06873621 0.07 0 0 0.47704095
0.012645016 0.068078779 0.07 0 0 0.47704095
0.01264171 0.067421682 0.07 0 0 0.47704095
0.012638438 0.066764936 0.07 0 0 0.47704095
0.012635198 0.066108525 0.07 0 0 0.47704095
0.012631991 0.065452449 0.07 0 0 0.47704095
0.012628817 0.064796701 0.07 0 0 0.47704095
0.012625676 0.064141281 0.07 0 0 0.47704095
0.012622566 0.063486189 0.07 0 0 0.47704095
0.01261949 0.062831417 0.07 0 0 0.47704095
0.012616446 0.062176961 0.07 0 0 0.47704095
0.012613435 0.061522819 0.07 0 0 0.47704095
0.012610457 0.06086899 0.07 0 0 0.47704095
0.012607511 0.060215466 0.07 0 0 0.47704095
0.012604598 0.059562247 0.07 0 0 0.47704095
0.012601717 0.058909327 0.07 0 0 0.47704095
0.012598868 0.058256704 0.07 0 0 0.47704095
0.012596052 0.057604376 0.07 0 0 0.47704095
0.012593268 0.056952335 0.07 0 0 0.47704095
0.012590516 0.056300584 0.07 0 0 0.47704095
0.012587797 0.055649113 0.07 0 0 0.47704095
0.01258511 0.054997925 0.07 0 0 0.47704095
0.012582455 0.054347008 0.07 0 0 0.47704095
0.012579832 0.053696368 0.07 0 0 0.47704095
0.012577241 0.053045999 0.07 0 0 0.47704095
0.012574683 0.052395895 0.07 0 0 0.47704095
0.012572156 0.051746052 0.07 0 0 0.47704095
0.012569661 0.051096469 0.07 0 0 0.47704095
0.012567199 0.050447144 0.07 0 0 0.47704095
0.012564768 0.049798068 0.07 0 0 0.47704095
0.01256237 0.049149245 0.07 0 0 0.47704095
0.012560003 0.048500668 0.07 0 0 0.47704095
0.012557669 0.047852334 0.07 0 0 0.47704095
0.012555365 0.047204237 0.07 0 0 0.47704095
0.012553094 0.046556376 0.07 0 0 0.47704095
0.012550854 0.045908749 0.07 0 0 0.47704095
0.012548647 0.04526135 0.07 0 0 0.47704095
0.01254647 0.044614181 0.07 0 0 0.47704095
0.012544326 0.043967232 0.07 0 0 0.47704095
0.012542214 0.043320503 0.07 0 0 0.47704095
0.012540133 0.04267399 0.07 0 0 0.47704095
0.012538084 0.04202769 0.07 0 0 0.47704095
0.012553917 0.041440524 0.069420375 0 0 0.47704095
0.01273092 0.041375443 0.06360767 0 0 0.47704095
0.012914597 0.041313551 0.057577398 0 0 0.47704095
0.013103681 0.041249838 0.051370658 0 0 0.47704095
0.013298415 0.041184224 0.044979557 0 0 0.47704095
0.013449683 0.040966239 0.039999999 0 0 0.47704095
0.01344772 0.040273808 0.039999999 0 0 0.47704095
0.01344579 0.039581574 0.039999999 0 0 0.47704095
0.013443894 0.038889538 0.039999999 0 0 0.47704095
0.013442032 0.038197696 0.039999999 0 0 0.47704095
0.013440203 0.037506044 0.039999999 0 0 0.47704095
0.013438408 0.036814578 0.039999999 0 0 0.47704095
0.013436647 0.036123298 0.039999999 0 0 0.47704095
0.01343492 0.035432193 0.039999999 0 0 0.47704095
0.013433225 0.034741268 0.039999999 0 0 0.47704095
0.013431565 0.034050513 0.039999999 0 0 0.47704095
0.013429938 0.033359926 0.039999999 0 0 0.47704095
0.013428344 0.032669507 0.039999999 0 0 0.47704095
0.013426783 0.031979248 0.039999999 0 0 0.47704095
0.013425257 0.031289149 0.039999999 0 0 0.47704095
0.013423764 0.030599205 0.039999999 0 0 0.47704095
0.013422305 0.029909413 0.039999999 0 0 0.47704095
0.013420879 0.029219769 0.039999999 0 0 0.47704095
0.013419486 0.02853027 0.039999999 0 0 0.47704095
0.013418127 0.027840912 0.039999999 0 0 0.47704095
0.013416801 0.027151693 0.039999999 0 0 0.47704095
0.013415508 0.026462607 0.039999999 0 0 0.47704095
0.013414249 0.025773652 0.039999999 0 0 0.47704095
0.013413022 0.025084825 0.039999999 0 0 0.47704095
0.01341183 0.024396123 0.039999999 0 0 0.47704095
0.013410671 0.023707543 0.039999999 0 0 0.47704095
0.013409545 0.023019077 0.039999999 0 0 0.47704095
0.013408451 0.022330727 0.039999999 0 0 0.47704095
0.013407392 0.021642487 0.039999999 0 0 0.47704095
0.013406366 0.020954354 0.039999999 0 0 0.47704095
0.013405372 0.020266326 0.039999999 0 0 0.47704095
0.013404413 0.019578397 0.039999999 0 0 0.47704095
0.013403486 0.018890565 0.039999999 0 0 0.47704095
0.013402592 0.018202826 0.039999999 0 0 0.47704095
0.013401733 0.017515177 0.039999999 0 0 0.47704095
0.013400906 0.016827615 0.039999999 0 0 0.47704095
0.013400111 0.016140135 0.039999999 0 0 0.47704095
0.01339935 0.015452736 0.039999999 0 0 0.47704095
0.013398623 0.014765413 0.039999999 0 0 0.47704095
0.013397928 0.014078164 0.039999999 0 0 0.47704095
0.013397267 0.013390983 0.039999999 0 0 0.47704095
0.013396639 0.012703869 0.039999999 0 0 0.47704095
0.013396044 0.012016817 0.039999999 0 0 0.47704095
0.013395482 0.011329825 0.039999999 0 0 0.47704095
0.013394953 0.010642889 0.039999999 0 0 0.47704095
0.013394457 0.009956005 0.039999999 0 0 0.47704095
0.013393994 0.0092691705 0.039999999 0 0 0.47704095
0.013393565 0.0085823815 0.039999999 0 0 0.47704095
0.013393168 0.0078956354 0.039999999 0 0 0.47704095
0.013392804 0.007208928 0.039999999 0 0 0.47704095
0.013392475 0.0065222559 0.039999999 0 0 0.47704095
0.013392176 0.0058356165 0.039999999 0 0 0.47704095
0.013391912 0.0051490054 0.039999999 0 0 0.47704095
0.013391681 0.00446242 0.039999999 0 0 0.47704095
0.013391483 0.0037758565 0.039999999 0 0 0.47704095
0.013391318 0.0030893118 0.039999999 0 0 0.47704095
0.013391186 0.0024027822 0.039999999 0 0 0.47704095
0.013391086 0.0017162645 0.039999999 0 0 0.47704095
0.01339102 0.0010297553 0.039999999 0 0 0.47704095
0.013390987 0.00034325122 0.039999999 0 0 0.47704095
0.012046993 0.077978581 0.07 0 0 0.47704095
0.012043384 0.077315941 0.07 0 0 0.47704095
0.012039807 0.076653689 0.07 0 0 0.47704095
0.012036261 0.075991832 0.07 0 0 0.47704095
0.012032747 0.075330362 0.07 0 0 0.47704095
0.012029265 0.074669272 0.07 0 0 0.47704095
0.012025815 0.074008569 0.07 0 0 0.47704095
0.012022396 0.073348239 0.07 0 0 0.47704095
0.012019008 0.072688289 0.07 0 0 0.47704095
0.012015653 0.072028704 0.07 0 0 0.47704095
0.012012329 0.071369484 0.07 0 0 0.47704095
0.012009036 0.070710637 0.07 0 0 0.47704095
0.012005774 0.070052139 0.07 0 0 0.47704095
0.012002544 0.069394 0.07 0 0 0.47704095
0.011999346 0.06873621 0.07 0 0 0.47704095
0.011996179 0.068078779 0.07 0 0 0.47704095
0.011993043 0.067421682 0.07 0 0 0.47704095
0.011989938 0.066764936 0.07 0 0 0.47704095
0.011986865 0.066108525 0.07 0 0 0.47704095
0.011983822 0.065452449 0.07 0 0 0.47704095
0.01198081 0.064796701 0.07 0 0 0.47704095
0.01197783 0.064141281 0.07 0 0 0.47704095
0.01197488 0.063486189 0.07 0 0 0.47704095
0.011971963 0.062831417 0.07 0 0 0.47704095
0.011969076 0.062176961 0.07 0 0 0.47704095
0.011966218 0.061522819 0.07 0 0 0.47704095
0.011963394 0.06086899 0.07 0 0 0.47704095
0.011960599 0.060215466 0.07 0 0 0.47704095
0.011957834 0.059562247 0.07 0 0 0.47704095
0.011955101 0.058909327 0.07 0 0 0.47704095
0.011952398 0.058256704 0.07 0 0 0.47704095
0.011949727 0.057604376 0.07 0 0 0.47704095
0.011947086 0.056952335 0.07 0 0 0.47704095
0.011944476 0.056300584 0.07 0 0 0.47704095
0.011941896 0.055649113 0.07 0 0 0.47704095
0.011939347 0.054997925 0.07 0 0 0.47704095
0.011936828 0.054347008 0.07 0 0 0.47704095
0.011934339 0.053696368 0.07 0 0 0.47704095
0.011931881 0.053045999 0.07 0 0 0.47704095
0.011929454 0.052395895 0.07 0 0 0.47704095
0.011927057 0.051746052 0.07 0 0 0.47704095
0.011924691 0.051096469 0.07 0 0 0.47704095
0.011922355 0.050447144 0.07 0 0 0.47704095
0.011920049 0.049798068 0.07 0 0 0.47704095
0.011917773 0.049149245 0.07 0 0 0.47704095
0.011915528 0.048500668 0.07 0 0 0.47704095
0.011913313 0.047852334 0.07 0 0 0.47704095
0.011911128 0.047204237 0.07 0 0 0.47704095
0.011908974 0.046556376 0.07 0 0 0.47704095
0.011906848 0.045908749 0.07 0 0 0.47704095
0.011904754 0.04526135 0.07 0 0 0.47704095
0.01190269 0.044614181 0.07 0 0 0.47704095
0.011900656 0.043967232 0.07 0 0 0.47704095
0.011898652 0.043320503 0.07 0 0 0.47704095
0.011896677 0.04267399 0.07 0 0 0.47704095
0.011894733 0.04202769 0.07 0 0 0.47704095
0.011985353 0.041703574 0.06683296 0 0 0.47704095
0.012151076 0.0416269 0.061095044 0 0 0.47704095
0.012321474 0.041548066 0.055196337 0 0 0.47704095
0.012496746 0.041466977 0.049129955 0 0 0.47704095
0.012679894 0.041392636 0.042793099 0 0 0.47704095
0.012759557 0.040966239 0.039999999 0 0 0.47704095
0.012757694 0.040273808 0.039999999 0 0 0.47704095
0.012755863 0.039581574 0.039999999 0 0 0.47704095
0.012754065 0.038889538 0.039999999 0 0 0.47704095
0.012752298 0.038197696 0.039999999 0 0 0.47704095
0.012750563 0.037506044 0.039999999 0 0 0.47704095
0.012748861 0.036814578 0.039999999 0 0 0.47704095
0.01274719 0.036123298 0.039999999 0 0 0.47704095
0.012745551 0.035432193 0.039999999 0 0 0.47704095
0.012743943 0.034741268 0.039999999 0 0 0.47704095
0.012742368 0.034050513 0.039999999 0 0 0.47704095
0.012740824 0.033359926 0.039999999 0 0 0.47704095
0.012739313 0.032669507 0.039999999 0 0 0.47704095
0.012737833 0.031979248 0.039999999 0 0 0.47704095
0.012736385 0.031289149 0.039999999 0 0 0.47704095
0.012734968 0.030599205 0.039999999 0 0 0.47704095
0.012733583 0.029909413 0.039999999 0 0 0.47704095
0.01273223 0.029219769 0.039999999 0 0 0.47704095
0.012730909 0.02853027 0.039999999 0 0 0.47704095
0.01272962 0.027840912 0.039999999 0 0 0.47704095
0.012728361 0.027151693 0.039999999 0 0 0.47704095
0.012727135 0.026462607 0.039999999 0 0 0.47704095
0.01272594 0.025773652 0.039999999 0 0 0.47704095
0.012724778 0.025084825 0.039999999 0 0 0.47704095
0.012723646 0.024396123 0.039999999 0 0 0.47704095
0.012722546 0.023707543 0.039999999 0 0 0.47704095
0.012721478 0.023019077 0.039999999 0 0 0.47704095
0.012720441 0.022330727 0.039999999 0 0 0.47704095
0.012719436 0.021642487 0.039999999 0 0 0.47704095
0.012718462 0.020954354 0.039999999 0 0 0.47704095
0.01271752 0.020266326 0.039999999 0 0 0.47704095
0.01271661 0.019578397 0.039999999 0 0 0.47704095
0.012715731 0.018890565 0.039999999 0 0 0.47704095
0.012714882 0.018202826 0.039999999 0 0 0.47704095
0.012714067 0.017515177 0.039999999 0 0 0.47704095
0.012713282 0.016827615 0.039999999 0 0 0.47704095
0.012712529 0.016140135 0.039999999 0 0 0.47704095
0.012711807 0.015452736 0.039999999 0 0 0.47704095
0.012711117 0.014765413 0.039999999 0 0 0.47704095
0.012710458 0.014078164 0.039999999 0 0 0.47704095
0.012709831 0.013390983 0.039999999 0 0 0.47704095
0.012709235 0.012703869 0.039999999 0 0 0.47704095
0.01270867 0.012016817 0.039999999 0 0 0.47704095
0.012708137 0.011329825 0.039999999 0 0 0.47704095
0.012707635 0.010642889 0.039999999 0 0 0.47704095
0.012707165 0.009956005 0.039999999 0 0 0.47704095
0.012706726 0.0092691705 0.039999999 0 0 0.47704095
0.012706318 0.0085823815 0.039999999 0 0 0.47704095
0.012705942 0.0078956354 0.039999999 0 0 0.47704095
0.012705597 0.007208928 0.039999999 0 0 0.47704095
0.012705283 0.0065222559 0.039999999 0 0 0.47704095
0.012705001 0.0058356165 0.039999999 0 0 0.47704095
0.012704751 0.0051490054 0.039999999 0 0 0.47704095
0.012704531 0.00446242 0.039999999 0 0 0.47704095
0.012704343 0.0037758565 0.039999999 0 0 0.47704095
0.012704186 0.0030893118 0.039999999 0 0 0.47704095
0.01270406 0.0024027822 0.039999999 0 0 0.47704095
0.012703966 0.0017162645 0.039999999 0 0 0.47704095
0.012703904 0.0010297553 0.039999999 0 0 0.47704095
0.012703872 0.00034325122 0.039999999 0 0 0.47704095
0.011395467 0.077978581 0.07 0 0 0.47704095
0.011392052 0.077315941 0.07 0 0 0.47704095
0.011388669 0.076653689 0.07 0 0 0.47704095
0.011385315 0.075991832 0.07 0 0 0.47704095
0.011381991 0.075330362 0.07 0 0 0.47704095
0.011378697 0.074669272 0.07 0 0 0.47704095
0.011375434 0.074008569 0.07 0 0 0.47704095
0.011372199 0.073348239 0.07 0 0 0.47704095
0.011368996 0.072688289 0.07 0 0 0.47704095
0.011365822 0.072028704 0.07 0 0 0.47704095
0.011362677 0.071369484 0.07 0 0 0.47704095
0.011359562 0.070710637 0.07 0 0 0.47704095
0.011356478 0.070052139 0.07 0 0 0.47704095
0.011353422 0.069394 0.07 0 0 0.47704095
0.011350397 0.06873621 0.07 0 0 0.47704095
0.011347401 0.068078779 0.07 0 0 0.47704095
0.011344434 0.067421682 0.07 0 0 0.47704095
0.011341497 0.066764936 0.07 0 0 0.47704095
0.01133859 0.066108525 0.07 0 0 0.47704095
0.011335712 0.065452449 0.07 0 0 0.47704095
0.011332863 0.064796701 0.07 0 0 0.47704095
0.011330044 0.064141281 0.07 0 0 0.47704095
0.011327255 0.063486189 0.07 0 0 0.47704095
0.011324494 0.062831417 0.07 0 0 0.47704095
0.011321763 0.062176961 0.07 0 0 0.47704095
0.011319061 0.061522819 0.07 0 0 0.47704095
0.011316388 0.06086899 0.07 0 0 0.47704095
0.011313745 0.060215466 0.07 0 0 0.47704095
0.01131113 0.059562247 0.07 0 0 0.47704095
0.011308544 0.058909327 0.07 0 0 0.47704095
0.011305988 0.058256704 0.07 0 0 0.47704095
0.011303461 0.057604376 0.07 0 0 0.47704095
0.011300962 0.056952335 0.07 0 0 0.47704095
0.011298493 0.056300584 0.07 0 0 0.47704095
0.011296053 0.055649113 0.07 0 0 0.47704095
0.011293641 0.054997925 0.07 0 0 0.47704095
0.011291259 0.054347008 0.07 0 0 0.47704095
0.011288906 0.053696368 0.07 0 0 0.47704095
0.011286581 0.053045999 0.07 0 0 0.47704095
0.011284284 0.052395895 0.07 0 0 0.47704095
0.011282017 0.051746052 0.07 0 0 0.47704095
0.011279779 0.051096469 0.07 0 0 0.47704095
0.011277569 0.050447144 0.07 0 0 0.47704095
0.011275387 0.049798068 0.07 0 0 0.47704095
0.011273235 0.049149245 0.07 0 0 0.47704095
0.011271112 0.048500668 0.07 0 0 0.47704095
0.011269016 0.047852334 0.07 0 0 0.47704095
0.01126695 0.047204237 0.07 0 0 0.47704095
0.011264911 0.046556376 0.07 0 0 0.47704095
0.011262901 0.045908749 0.07 0 0 0.47704095
0.01126092 0.04526135 0.07 0 0 0.47704095
0.011258968 0.044614181 0.07 0 0 0.47704095
0.011257043 0.043967232 0.07 0 0 0.47704095
0.011255148 0.043320503 0.07 0 0 0.47704095
0.011253281 0.04267399 0.07 0 0 0.47704095
0.011255117 0.042041421 0.069867015 0 0 0.47704095
0.011409577 0.041969959 0.064212725 0 0 0.47704095
0.011568361 0.041896496 0.058401186 0 0 0.47704095
0.011731653 0.041820951 0.052425712 0 0 0.47704095
0.011899646 0.041743226 0.04627924 0 0 0.47704095
0.012071285 0.041658875 0.039999999 0 0 0.47704095
0.012069494 0.040966239 0.039999999 0 0 0.47704095
0.012067731 0.040273808 0.039999999 0 0 0.47704095
0.012066 0.039581574 0.039999999 0 0 0.47704095
0.012064299 0.038889538 0.039999999 0 0 0.47704095
0.012062628 0.038197696 0.039999999 0 0 0.47704095
0.012060987 0.037506044 0.039999999 0 0 0.47704095
0.012059376 0.036814578 0.039999999 0 0 0.47704095
0.012057795 0.036123298 0.039999999 0 0 0.47704095
0.012056245 0.035432193 0.039999999 0 0 0.47704095
0.012054725 0.034741268 0.039999999 0 0 0.47704095
0.012053235 0.034050513 0.039999999 0 0 0.47704095
0.012051774 0.033359926 0.039999999 0 0 0.47704095
0.012050345 0.032669507 0.039999999 0 0 0.47704095
0.012048944 0.031979248 0.039999999 0 0 0.47704095
0.012047574 0.031289149 0.039999999 0 0 0.47704095
0.012046235 0.030599205 0.039999999 0 0 0.47704095
0.012044924 0.029909413 0.039999999 0 0 0.47704095
