# .PCD v0.7 - Point Cloud Data file format
VERSION 0.7
FIELDS x y z vp_x vp_y vp_z
SIZE 4 4 4 4 4 4
TYPE F F F F F F
COUNT 1 1 1 1 1 1
WIDTH 735
HEIGHT 1
VIEWPOINT 0 0 0 1 0 0 0
POINTS 735
DATA ascii
0.0192231 2.7755576e-17 0.012541761 -0.23852047 -0.14741376 0.38593423
0.020737076 0 0.010922421 -0.23852047 -0.14741376 0.38593423
0.022264352 0 0.0092889396 -0.23852047 -0.14741376 0.38593423
0.02380511 0 0.0076411208 -0.23852047 -0.14741376 0.38593423
0.025359536 0 0.0059787678 -0.23852047 -0.14741376 0.38593423
0.026927819 0 0.0043016779 -0.23852047 -0.14741376 0.38593423
0.028510155 0 0.0026096455 -0.23852047 -0.14741376 0.38593423
0.030106738 0 0.00090246124 -0.23852047 -0.14741376 0.38593423
0 0.047755454 0.00038886309 -0.23852047 -0.14741376 0.38593423
2.7755576e-17 0.046762057 0.001043711 -0.23852047 -0.14741376 0.38593423
2.7755576e-17 0.045772281 0.0016962527 -0.23852047 -0.14741376 0.38593423
0 0.044786107 0.0023465035 -0.23852047 -0.14741376 0.38593423
2.7755576e-17 0.043803502 0.0029944794 -0.23852047 -0.14741376 0.38593423
0 0.042824451 0.0036401949 -0.23852047 -0.14741376 0.38593423
2.7755576e-17 0.04184892 0.0042836657 -0.23852047 -0.14741376 0.38593423
2.7755576e-17 0.040876899 0.0049249064 -0.23852047 -0.14741376 0.38593423
2.7755576e-17 0.039908353 0.005563932 -0.23852047 -0.14741376 0.38593423
2.7755576e-17 0.038943265 0.0062007578 -0.23852047 -0.14741376 0.38593423
5.5511151e-17 0.037981611 0.0068353973 -0.23852047 -0.14741376 0.38593423
2.7755576e-17 0.037023365 0.0074678659 -0.23852047 -0.14741376 0.38593423
0 0.03606851 0.0080981785 -0.23852047 -0.14741376 0.38593423
2.7755576e-17 0.035117023 0.0087263472 -0.23852047 -0.14741376 0.38593423
5.5511151e-17 0.034168877 0.0093523888 -0.23852047 -0.14741376 0.38593423
2.7755576e-17 0.033224054 0.0099763153 -0.23852047 -0.14741376 0.38593423
5.5511151e-17 0.032282535 0.010598142 -0.23852047 -0.14741376 0.38593423
0 0.031344291 0.011217882 -0.23852047 -0.14741376 0.38593423
2.7755576e-17 0.030409306 0.011835548 -0.23852047 -0.14741376 0.38593423
2.7755576e-17 0.029477559 0.012451156 -0.23852047 -0.14741376 0.38593423
2.7755576e-17 0.028549027 0.013064717 -0.23852047 -0.14741376 0.38593423
5.5511151e-17 0.027623689 0.013676247 -0.23852047 -0.14741376 0.38593423
2.7755576e-17 0.026701527 0.014285755 -0.23852047 -0.14741376 0.38593423
2.7755576e-17 0.025782518 0.014893259 -0.23852047 -0.14741376 0.38593423
0 0.024866642 0.015498769 -0.23852047 -0.14741376 0.38593423
0 0.023953881 0.016102299 -0.23852047 -0.14741376 0.38593423
2.7755576e-17 0.023044212 0.016703861 -0.23852047 -0.14741376 0.38593423
2.7755576e-17 0.022137616 0.017303469 -0.23852047 -0.14741376 0.38593423
2.7755576e-17 0.021234076 0.017901134 -0.23852047 -0.14741376 0.38593423
2.7755576e-17 0.020333569 0.018496869 -0.23852047 -0.14741376 0.38593423
2.7755576e-17 0.019436078 0.019090688 -0.23852047 -0.14741376 0.38593423
2.7755576e-17 0.018541582 0.019682601 -0.23852047 -0.14741376 0.38593423
0 0.017650064 0.02027262 -0.23852047 -0.14741376 0.38593423
2.7755576e-17 0.016761504 0.02086076 -0.23852047 -0.14741376 0.38593423
2.7755576e-17 0.015875883 0.021447031 -0.23852047 -0.14741376 0.38593423
0 0.014993183 0.022031445 -0.23852047 -0.14741376 0.38593423
2.7755576e-17 0.014113385 0.022614013 -0.23852047 -0.14741376 0.38593423
0 0.013236472 0.023194749 -0.23852047 -0.14741376 0.38593423
0 0.012362425 0.023773663 -0.23852047 -0.14741376 0.38593423
2.7755576e-17 0.011491226 0.024350766 -0.23852047 -0.14741376 0.38593423
2.7755576e-17 0.010622857 0.024926072 -0.23852047 -0.14741376 0.38593423
5.5511151e-17 0.0097573008 0.02549959 -0.23852047 -0.14741376 0.38593423
2.7755576e-17 0.0088945394 0.026071331 -0.23852047 -0.14741376 0.38593423
2.7755576e-17 0.0080345562 0.026641307 -0.23852047 -0.14741376 0.38593423
2.7755576e-17 0.0071773329 0.02720953 -0.23852047 -0.14741376 0.38593423
2.7755576e-17 0.0063228533 0.027776008 -0.23852047 -0.14741376 0.38593423
2.7755576e-17 0.0054710996 0.028340757 -0.23852047 -0.14741376 0.38593423
2.7755576e-17 0.0046220552 0.028903782 -0.23852047 -0.14741376 0.38593423
2.7755576e-17 0.0037757035 0.0294651 -0.23852047 -0.14741376 0.38593423
2.7755576e-17 0.0029320279 0.030024715 -0.23852047 -0.14741376 0.38593423
2.7755576e-17 0.0020910117 0.030582642 -0.23852047 -0.14741376 0.38593423
2.7755576e-17 0.0012526389 0.031138891 -0.23852047 -0.14741376 0.38593423
2.7755576e-17 0.0004168929 0.03169347 -0.23852047 -0.14741376 0.38593423
0.00067540107 0 0.031244881 -0.23852047 -0.14741376 0.38593423
0.0020345438 0 0.029785465 -0.23852047 -0.14741376 0.38593423
0.0034049274 0 0.028314056 -0.23852047 -0.14741376 0.38593423
0.0047866981 0 0.026830494 -0.23852047 -0.14741376 0.38593423
0.0061800051 0 0.025334625 -0.23852047 -0.14741376 0.38593423
0.0075849993 0 0.023826281 -0.23852047 -0.14741376 0.38593423
0.0090018352 0 0.022305302 -0.23852047 -0.14741376 0.38593423
0.01043067 0 0.02077152 -0.23852047 -0.14741376 0.38593423
0.011871663 0 0.019224765 -0.23852047 -0.14741376 0.38593423
0.013324976 0 0.017664861 -0.23852047 -0.14741376 0.38593423
0.014790775 0 0.016091634 -0.23852047 -0.14741376 0.38593423
0.016269229 0 0.014504904 -0.23852047 -0.14741376 0.38593423
0.017760508 0 0.012904488 -0.23852047 -0.14741376 0.38593423
0.019264787 0 0.011290198 -0.23852047 -0.14741376 0.38593423
0.020782245 0 0.0096618468 -0.23852047 -0.14741376 0.38593423
0.022313062 0 0.0080192396 -0.23852047 -0.14741376 0.38593423
0.02385742 0 0.0063621812 -0.23852047 -0.14741376 0.38593423
0.02541551 0 0.0046904706 -0.23852047 -0.14741376 0.38593423
0.026987521 0 0.0030039039 -0.23852047 -0.14741376 0.38593423
0.028573647 0 0.0013022735 -0.23852047 -0.14741376 0.38593423
0 0.045874611 0.00038180669 -0.23852047 -0.14741376 0.38593423
0 0.044886049 0.0010359058 -0.23852047 -0.14741376 0.38593423
2.7755576e-17 0.043901075 0.0016877075 -0.23852047 -0.14741376 0.38593423
0 0.042919666 0.0023372271 -0.23852047 -0.14741376 0.38593423
0 0.041941803 0.0029844802 -0.23852047 -0.14741376 0.38593423
0 0.040967457 0.0036294817 -0.23852047 -0.14741376 0.38593423
2.7755576e-17 0.039996609 0.0042722467 -0.23852047 -0.14741376 0.38593423
0 0.039029229 0.0049127904 -0.23852047 -0.14741376 0.38593423
0 0.038065303 0.0055511273 -0.23852047 -0.14741376 0.38593423
2.7755576e-17 0.037104804 0.0061872718 -0.23852047 -0.14741376 0.38593423
0 0.036147706 0.0068212389 -0.23852047 -0.14741376 0.38593423
0 0.035193991 0.007453043 -0.23852047 -0.14741376 0.38593423
2.7755576e-17 0.03424364 0.0080826981 -0.23852047 -0.14741376 0.38593423
0 0.033296622 0.0087102195 -0.23852047 -0.14741376 0.38593423
5.5511151e-17 0.032352921 0.0093356194 -0.23852047 -0.14741376 0.38593423
0 0.031412512 0.0099589126 -0.23852047 -0.14741376 0.38593423
2.7755576e-17 0.030475378 0.010580114 -0.23852047 -0.14741376 0.38593423
2.7755576e-17 0.029541494 0.011199236 -0.23852047 -0.14741376 0.38593423
2.7755576e-17 0.02861084 0.011816292 -0.23852047 -0.14741376 0.38593423
2.7755576e-17 0.027683398 0.012431297 -0.23852047 -0.14741376 0.38593423
0 0.026759142 0.013044262 -0.23852047 -0.14741376 0.38593423
2.7755576e-17 0.025838055 0.013655202 -0.23852047 -0.14741376 0.38593423
0 0.024920115 0.014264131 -0.23852047 -0.14741376 0.38593423
0 0.024005301 0.01487106 -0.23852047 -0.14741376 0.38593423
2.7755576e-17 0.023093596 0.015476003 -0.23852047 -0.14741376 0.38593423
2.7755576e-17 0.022184977 0.016078973 -0.23852047 -0.14741376 0.38593423
2.7755576e-17 0.021279428 0.016679982 -0.23852047 -0.14741376 0.38593423
0 0.020376924 0.017279044 -0.23852047 -0.14741376 0.38593423
2.7755576e-17 0.019477449 0.017876169 -0.23852047 -0.14741376 0.38593423
2.7755576e-17 0.018580984 0.018471373 -0.23852047 -0.14741376 0.38593423
0 0.017687509 0.019064665 -0.23852047 -0.14741376 0.38593423
5.5511151e-17 0.016797004 0.019656058 -0.23852047 -0.14741376 0.38593423
5.5511151e-17 0.015909452 0.020245565 -0.23852047 -0.14741376 0.38593423
0 0.015024833 0.020833198 -0.23852047 -0.14741376 0.38593423
0 0.01414313 0.02141897 -0.23852047 -0.14741376 0.38593423
5.5511151e-17 0.013264323 0.022002891 -0.23852047 -0.14741376 0.38593423
2.7755576e-17 0.012388393 0.022584971 -0.23852047 -0.14741376 0.38593423
2.7755576e-17 0.011515325 0.023165226 -0.23852047 -0.14741376 0.38593423
5.5511151e-17 0.010645099 0.023743665 -0.23852047 -0.14741376 0.38593423
0 0.0097776968 0.024320299 -0.23852047 -0.14741376 0.38593423
2.7755576e-17 0.0089131026 0.024895143 -0.23852047 -0.14741376 0.38593423
0 0.0080512967 0.025468202 -0.23852047 -0.14741376 0.38593423
0 0.0071922638 0.026039492 -0.23852047 -0.14741376 0.38593423
5.5511151e-17 0.0063359854 0.026609024 -0.23852047 -0.14741376 0.38593423
2.7755576e-17 0.0054824445 0.027176809 -0.23852047 -0.14741376 0.38593423
2.7755576e-17 0.0046316246 0.027742855 -0.23852047 -0.14741376 0.38593423
2.7755576e-17 0.003783508 0.028307175 -0.23852047 -0.14741376 0.38593423
2.7755576e-17 0.0029380789 0.02886978 -0.23852047 -0.14741376 0.38593423
2.7755576e-17 0.0020953203 0.029430678 -0.23852047 -0.14741376 0.38593423
2.7755576e-17 0.0012552158 0.029989883 -0.23852047 -0.14741376 0.38593423
2.7755576e-17 0.00041774922 0.030547407 -0.23852047 -0.14741376 0.38593423
0.00067679014 0 0.03009644 -0.23852047 -0.14741376 0.38593423
0.0020387454 0 0.028629271 -0.23852047 -0.14741376 0.38593423
0.003411988 0 0.027150018 -0.23852047 -0.14741376 0.38593423
0.0047966656 2.7755576e-17 0.02565852 -0.23852047 -0.14741376 0.38593423
0.0061929277 0 0.024154617 -0.23852047 -0.14741376 0.38593423
0.0076009263 0 0.022638146 -0.23852047 -0.14741376 0.38593423
0.0090208175 0 0.02110894 -0.23852047 -0.14741376 0.38593423
0.010452759 0 0.019566832 -0.23852047 -0.14741376 0.38593423
0.01189691 0 0.018011648 -0.23852047 -0.14741376 0.38593423
0.013353435 0 0.016443213 -0.23852047 -0.14741376 0.38593423
0.014822502 0 0.014861352 -0.23852047 -0.14741376 0.38593423
0.016304277 0 0.013265879 -0.23852047 -0.14741376 0.38593423
0.017798936 0 0.011656611 -0.23852047 -0.14741376 0.38593423
0.019306652 0 0.01003336 -0.23852047 -0.14741376 0.38593423
0.020827604 0 0.0083959345 -0.23852047 -0.14741376 0.38593423
0.022361977 2.7755576e-17 0.0067441398 -0.23852047 -0.14741376 0.38593423
0.023909954 0 0.005077777 -0.23852047 -0.14741376 0.38593423
0.025471723 0 0.0033966438 -0.23852047 -0.14741376 0.38593423
0.02704748 0 0.0017005339 -0.23852047 -0.14741376 0.38593423
2.7755576e-17 0.043999068 0.00037526662 -0.23852047 -0.14741376 0.38593423
0 0.043015298 0.0010286175 -0.23852047 -0.14741376 0.38593423
2.7755576e-17 0.042035084 0.0016796796 -0.23852047 -0.14741376 0.38593423
0 0.041058406 0.0023284685 -0.23852047 -0.14741376 0.38593423
2.7755576e-17 0.040085241 0.0029749994 -0.23852047 -0.14741376 0.38593423
2.7755576e-17 0.039115567 0.0036192872 -0.23852047 -0.14741376 0.38593423
5.5511151e-17 0.038149357 0.004261347 -0.23852047 -0.14741376 0.38593423
2.7755576e-17 0.037186589 0.0049011935 -0.23852047 -0.14741376 0.38593423
0 0.036227241 0.0055388417 -0.23852047 -0.14741376 0.38593423
0 0.035271291 0.0061743059 -0.23852047 -0.14741376 0.38593423
0 0.034318715 0.0068076011 -0.23852047 -0.14741376 0.38593423
2.7755576e-17 0.033369496 0.0074387407 -0.23852047 -0.14741376 0.38593423
2.7755576e-17 0.032423604 0.0080677392 -0.23852047 -0.14741376 0.38593423
2.7755576e-17 0.03148102 0.0086946115 -0.23852047 -0.14741376 0.38593423
5.5511151e-17 0.030541727 0.0093193715 -0.23852047 -0.14741376 0.38593423
2.7755576e-17 0.029605698 0.0099420315 -0.23852047 -0.14741376 0.38593423
2.7755576e-17 0.028672915 0.010562607 -0.23852047 -0.14741376 0.38593423
0 0.027743354 0.011181111 -0.23852047 -0.14741376 0.38593423
5.5511151e-17 0.026816998 0.011797557 -0.23852047 -0.14741376 0.38593423
5.5511151e-17 0.025893824 0.012411959 -0.23852047 -0.14741376 0.38593423
0 0.02497381 0.013024328 -0.23852047 -0.14741376 0.38593423
2.7755576e-17 0.024056938 0.01363468 -0.23852047 -0.14741376 0.38593423
2.7755576e-17 0.023143187 0.014243027 -0.23852047 -0.14741376 0.38593423
0 0.022232536 0.014849382 -0.23852047 -0.14741376 0.38593423
2.7755576e-17 0.021324968 0.015453759 -0.23852047 -0.14741376 0.38593423
2.7755576e-17 0.02042046 0.016056169 -0.23852047 -0.14741376 0.38593423
0 0.019518994 0.016656624 -0.23852047 -0.14741376 0.38593423
0 0.018620549 0.017255139 -0.23852047 -0.14741376 0.38593423
0 0.017725108 0.017851725 -0.23852047 -0.14741376 0.38593423
2.7755576e-17 0.016832652 0.018446395 -0.23852047 -0.14741376 0.38593423
2.7755576e-17 0.015943158 0.019039162 -0.23852047 -0.14741376 0.38593423
2.7755576e-17 0.015056614 0.019630035 -0.23852047 -0.14741376 0.38593423
5.5511151e-17 0.014172995 0.02021903 -0.23852047 -0.14741376 0.38593423
5.5511151e-17 0.013292287 0.020806156 -0.23852047 -0.14741376 0.38593423
2.7755576e-17 0.012414468 0.021391425 -0.23852047 -0.14741376 0.38593423
5.5511151e-17 0.011539523 0.021974852 -0.23852047 -0.14741376 0.38593423
2.7755576e-17 0.010667431 0.022556446 -0.23852047 -0.14741376 0.38593423
2.7755576e-17 0.0097981766 0.023136219 -0.23852047 -0.14741376 0.38593423
0 0.0089317402 0.023714183 -0.23852047 -0.14741376 0.38593423
5.5511151e-17 0.0080681061 0.024290347 -0.23852047 -0.14741376 0.38593423
2.7755576e-17 0.0072072549 0.024864728 -0.23852047 -0.14741376 0.38593423
2.7755576e-17 0.0063491706 0.025437331 -0.23852047 -0.14741376 0.38593423
2.7755576e-17 0.0054938351 0.02600817 -0.23852047 -0.14741376 0.38593423
2.7755576e-17 0.0046412321 0.026577257 -0.23852047 -0.14741376 0.38593423
2.7755576e-17 0.0037913439 0.0271446 -0.23852047 -0.14741376 0.38593423
2.7755576e-17 0.0029441542 0.027710212 -0.23852047 -0.14741376 0.38593423
2.7755576e-17 0.002099646 0.028274104 -0.23852047 -0.14741376 0.38593423
2.7755576e-17 0.0012578032 0.028836286 -0.23852047 -0.14741376 0.38593423
2.7755576e-17 0.00041860895 0.029396769 -0.23852047 -0.14741376 0.38593423
0.00067818473 0 0.028943408 -0.23852047 -0.14741376 0.38593423
0.0020429636 0 0.027468439 -0.23852047 -0.14741376 0.38593423
0.0034190773 0 0.02598129 -0.23852047 -0.14741376 0.38593423
0.0048066732 0 0.024481803 -0.23852047 -0.14741376 0.38593423
0.0062059024 0 0.022969814 -0.23852047 -0.14741376 0.38593423
0.0076169185 0 0.021445161 -0.23852047 -0.14741376 0.38593423
0.009039877 0 0.019907674 -0.23852047 -0.14741376 0.38593423
0.010474938 0 0.018357184 -0.23852047 -0.14741376 0.38593423
0.011922262 0 0.016793516 -0.23852047 -0.14741376 0.38593423
0.013382013 0 0.015216492 -0.23852047 -0.14741376 0.38593423
0.014854359 0 0.013625936 -0.23852047 -0.14741376 0.38593423
0.016339473 0 0.01202166 -0.23852047 -0.14741376 0.38593423
0.019348694 0 0.0087712072 -0.23852047 -0.14741376 0.38593423
0.020873157 0 0.0071246452 -0.23852047 -0.14741376 0.38593423
0.022411102 0 0.0054635988 -0.23852047 -0.14741376 0.38593423
0.023962712 0 0.0037878666 -0.23852047 -0.14741376 0.38593423
0.025528179 0 0.0020972446 -0.23852047 -0.14741376 0.38593423
0.027107697 0 0.00039152455 -0.23852047 -0.14741376 0.38593423
0 0.042128772 0.00036922115 -0.23852047 -0.14741376 0.38593423
2.7755576e-17 0.04114975 0.0010218243 -0.23852047 -0.14741376 0.38593423
2.7755576e-17 0.040174261 0.0016721477 -0.23852047 -0.14741376 0.38593423
2.7755576e-17 0.039202277 0.0023202063 -0.23852047 -0.14741376 0.38593423
0 0.038233772 0.0029660154 -0.23852047 -0.14741376 0.38593423
2.7755576e-17 0.037268728 0.00360959 -0.23852047 -0.14741376 0.38593423
0 0.036307119 0.0042509451 -0.23852047 -0.14741376 0.38593423
0 0.035348922 0.004890095 -0.23852047 -0.14741376 0.38593423
2.7755576e-17 0.034394115 0.0055270549 -0.23852047 -0.14741376 0.38593423
0 0.03344268 0.0061618392 -0.23852047 -0.14741376 0.38593423
2.7755576e-17 0.03249459 0.006794462 -0.23852047 -0.14741376 0.38593423
0 0.031549823 0.0074249376 -0.23852047 -0.14741376 0.38593423
0 0.030608358 0.0080532804 -0.23852047 -0.14741376 0.38593423
0 0.029670175 0.0086795045 -0.23852047 -0.14741376 0.38593423
2.7755576e-17 0.028735252 0.0093036229 -0.23852047 -0.14741376 0.38593423
2.7755576e-17 0.027803566 0.0099256504 -0.23852047 -0.14741376 0.38593423
2.7755576e-17 0.026875099 0.0105456 -0.23852047 -0.14741376 0.38593423
2.7755576e-17 0.025949826 0.011163486 -0.23852047 -0.14741376 0.38593423
0 0.025027731 0.011779322 -0.23852047 -0.14741376 0.38593423
2.7755576e-17 0.02410879 0.012393121 -0.23852047 -0.14741376 0.38593423
0 0.023192985 0.013004894 -0.23852047 -0.14741376 0.38593423
2.7755576e-17 0.022280294 0.013614658 -0.23852047 -0.14741376 0.38593423
2.7755576e-17 0.021370698 0.014222424 -0.23852047 -0.14741376 0.38593423
5.5511151e-17 0.020464176 0.014828205 -0.23852047 -0.14741376 0.38593423
5.5511151e-17 0.01956071 0.015432013 -0.23852047 -0.14741376 0.38593423
2.7755576e-17 0.018660279 0.016033864 -0.23852047 -0.14741376 0.38593423
5.5511151e-17 0.017762864 0.016633766 -0.23852047 -0.14741376 0.38593423
2.7755576e-17 0.016868446 0.017231734 -0.23852047 -0.14741376 0.38593423
0.011551796 0.023890192 5.5511151e-17 -0.23852047 -0.14741376 0.38593423
0 0.015088525 0.018421916 -0.23852047 -0.14741376 0.38593423
0.012360363 0.022578122 0 -0.23852047 -0.14741376 0.38593423
0.012764667 0.021922218 0 -0.23852047 -0.14741376 0.38593423
0 0.01244065 0.02019299 -0.23852047 -0.14741376 0.38593423
0 0.011563819 0.02077961 -0.23852047 -0.14741376 0.38593423
0.013977684 0.019954981 0 -0.23852047 -0.14741376 0.38593423
2.7755576e-17 0.0098187393 0.021947311 -0.23852047 -0.14741376 0.38593423
0 0.0089504542 0.022528417 -0.23852047 -0.14741376 0.38593423
0.0151909 0.017988393 0 -0.23852047 -0.14741376 0.38593423
0 0.0072223069 0.023685196 -0.23852047 -0.14741376 0.38593423
0.015999852 0.01667765 0 -0.23852047 -0.14741376 0.38593423
2.7755576e-17 0.0055052717 0.024834808 -0.23852047 -0.14741376 0.38593423
0 0.0046508783 0.025406953 -0.23852047 -0.14741376 0.38593423
0 0.0037992112 0.025977341 -0.23852047 -0.14741376 0.38593423
0 0.0029502539 0.026545981 -0.23852047 -0.14741376 0.38593423
0 0.0021039892 0.027112884 -0.23852047 -0.14741376 0.38593423
0 0.0012604009 0.027678061 -0.23852047 -0.14741376 0.38593423
0 0.00041947211 0.028241524 -0.23852047 -0.14741376 0.38593423
0.00067958492 0 0.027785758 -0.23852047 -0.14741376 0.38593423
0.0020471991 0 0.026302934 -0.23852047 -0.14741376 0.38593423
0.020046895 0.010126695 0 -0.23852047 -0.14741376 0.38593423
0.0048167217 0 0.023300309 -0.23852047 -0.14741376 0.38593423
0.0062189307 0 0.021780182 -0.23852047 -0.14741376 0.38593423
0.0076329764 0 0.02024729 -0.23852047 -0.14741376 0.38593423
0.0090590157 0 0.018701466 -0.23852047 -0.14741376 0.38593423
0.010497209 0 0.017142538 -0.23852047 -0.14741376 0.38593423
0.011947718 0 0.015570328 -0.23852047 -0.14741376 0.38593423
0.01341071 0 0.013984658 -0.23852047 -0.14741376 0.38593423
0.023288282 0.0048876354 0 -0.23852047 -0.14741376 0.38593423
0.016374815 0 0.010772211 -0.23852047 -0.14741376 0.38593423
0.017876277 0 0.0091450578 -0.23852047 -0.14741376 0.38593423
0.019390913 0 0.0075036986 -0.23852047 -0.14741376 0.38593423
0.020918906 0 0.0058479374 -0.23852047 -0.14741376 0.38593423
0.025316359 0.0016131534 0 -0.23852047 -0.14741376 0.38593423
0.024015699 0 0.002492408 -0.23852047 -0.14741376 0.38593423
0.02558488 0 0.00079223089 -0.23852047 -0.14741376 0.38593423
2.7755576e-17 0.040263664 0.00036364864 -0.23852047 -0.14741376 0.38593423
2.7755576e-17 0.039289359 0.0010155048 -0.23852047 -0.14741376 0.38593423
2.7755576e-17 0.038318552 0.0016650899 -0.23852047 -0.14741376 0.38593423
0 0.037351217 0.0023124188 -0.23852047 -0.14741376 0.38593423
2.7755576e-17 0.036387339 0.0029575068 -0.23852047 -0.14741376 0.38593423
2.7755576e-17 0.035426885 0.0036003687 -0.23852047 -0.14741376 0.38593423
2.7755576e-17 0.034469839 0.0042410195 -0.23852047 -0.14741376 0.38593423
0 0.03351618 0.0048794732 -0.23852047 -0.14741376 0.38593423
0 0.032565877 0.0055157454 -0.23852047 -0.14741376 0.38593423
0.0038623628 0.034517992 0 -0.23852047 -0.14741376 0.38593423
0.0042663538 0.033860706 0 -0.23852047 -0.14741376 0.38593423
0 0.029734926 0.0074116127 -0.23852047 -0.14741376 0.38593423
0 0.028797854 0.0080392994 -0.23852047 -0.14741376 0.38593423
0 0.027864033 0.0086648753 -0.23852047 -0.14741376 0.38593423
0 0.026933445 0.0092883538 -0.23852047 -0.14741376 0.38593423
0.0062859682 0.030576373 0 -0.23852047 -0.14741376 0.38593423
0 0.025081879 0.010529073 -0.23852047 -0.14741376 0.38593423
2.7755576e-17 0.024160862 0.011146341 -0.23852047 -0.14741376 0.38593423
0 0.023242991 0.011761567 -0.23852047 -0.14741376 0.38593423
0.007901377 0.027951229 0 -0.23852047 -0.14741376 0.38593423
0.0083052069 0.027295239 0 -0.23852047 -0.14741376 0.38593423
0.0087090321 0.026639359 5.5511151e-17 -0.23852047 -0.14741376 0.38593423
0.0095166778 0.025327917 5.5511151e-17 -0.23852047 -0.14741376 0.38593423
0 0.017800774 0.015410748 -0.23852047 -0.14741376 0.38593423
0 0.016904388 0.016012037 -0.23852047 -0.14741376 0.38593423
2.7755576e-17 0.016010992 0.016611386 -0.23852047 -0.14741376 0.38593423
0.011132005 0.022706218 0 -0.23852047 -0.14741376 0.38593423
0.011535855 0.02205102 0 -0.23852047 -0.14741376 0.38593423
0.011939718 0.021395907 0 -0.23852047 -0.14741376 0.38593423
0 0.012466938 0.01898963 -0.23852047 -0.14741376 0.38593423
2.7755576e-17 0.011588215 0.019579465 -0.23852047 -0.14741376 0.38593423
2.7755576e-17 0.010712369 0.020167431 -0.23852047 -0.14741376 0.38593423
0 0.0098393857 0.020753544 -0.23852047 -0.14741376 0.38593423
2.7755576e-17 0.0089692445 0.021337813 -0.23852047 -0.14741376 0.38593423
0 0.008101929 0.021920249 -0.23852047 -0.14741376 0.38593423
0 0.00723742 0.022500867 -0.23852047 -0.14741376 0.38593423
0.015171299 0.016157612 0 -0.23852047 -0.14741376 0.38593423
0.015575362 0.015503102 0 -0.23852047 -0.14741376 0.38593423
0 0.0046605635 0.024231913 -0.23852047 -0.14741376 0.38593423
2.7755576e-17 0.0038071105 0.024805363 -0.23852047 -0.14741376 0.38593423
0 0.002956378 0.025377052 -0.23852047 -0.14741376 0.38593423
0 0.0021083499 0.025946986 -0.23852047 -0.14741376 0.38593423
0 0.0012630089 0.02651518 -0.23852047 -0.14741376 0.38593423
0 0.00042033874 0.027081642 -0.23852047 -0.14741376 0.38593423
0.00068099069 0 0.026623452 -0.23852047 -0.14741376 0.38593423
0.0020514517 0 0.025132723 -0.23852047 -0.14741376 0.38593423
0.0034333416 0 0.023629626 -0.23852047 -0.14741376 0.38593423
0.0048268107 2.7755576e-17 0.022114001 -0.23852047 -0.14741376 0.38593423
0.0062320116 0 0.02058568 -0.23852047 -0.14741376 0.38593423
0.0076490999 0 0.019044498 -0.23852047 -0.14741376 0.38593423
0.0090782326 0 0.017490283 -0.23852047 -0.14741376 0.38593423
0.010519572 0 0.015922857 -0.23852047 -0.14741376 0.38593423
0.01197328 0 0.014342048 -0.23852047 -0.14741376 0.38593423
0.013439526 0 0.012747673 -0.23852047 -0.14741376 0.38593423
0.014918477 0 0.011139549 -0.23852047 -0.14741376 0.38593423
0.022856092 0.0037272754 0 -0.23852047 -0.14741376 0.38593423
0.017915193 0 0.0078813024 -0.23852047 -0.14741376 0.38593423
0.019433312 0 0.0062307948 -0.23852047 -0.14741376 0.38593423
0.020964848 0 0.0045657703 -0.23852047 -0.14741376 0.38593423
0.022509985 2.7755576e-17 0.0028860264 -0.23852047 -0.14741376 0.38593423
0.024068912 0 0.0011913591 -0.23852047 -0.14741376 0.38593423
0 0.037434068 0.0010096375 -0.23852047 -0.14741376 0.38593423
0 0.036467902 0.0016584849 -0.23852047 -0.14741376 0.38593423
0 0.035505187 0.0023050848 -0.23852047 -0.14741376 0.38593423
0 0.034545887 0.0029494523 -0.23852047 -0.14741376 0.38593423
0 0.033589993 0.0035916022 -0.23852047 -0.14741376 0.38593423
0 0.032637473 0.0042315489 -0.23852047 -0.14741376 0.38593423
0 0.031688306 0.0048693074 -0.23852047 -0.14741376 0.38593423
0 0.030742474 0.0055048922 -0.23852047 -0.14741376 0.38593423
0 0.029799953 0.0061383173 -0.23852047 -0.14741376 0.38593423
0 0.02886072 0.0067695966 -0.23852047 -0.14741376 0.38593423
0 0.027924756 0.0073987455 -0.23852047 -0.14741376 0.38593423
0 0.026062544 0.0086507043 -0.23852047 -0.14741376 0.38593423
0 0.025136257 0.009273543 -0.23852047 -0.14741376 0.38593423
0 0.024213152 0.0098943049 -0.23852047 -0.14741376 0.38593423
0 0.021462733 0.011744271 -0.23852047 -0.14741376 0.38593423
2.7755576e-17 0.020552156 0.012356863 -0.23852047 -0.14741376 0.38593423
0 0.019644665 0.012967446 -0.23852047 -0.14741376 0.38593423
0 0.018740233 0.013576033 -0.23852047 -0.14741376 0.38593423
0 0.017838845 0.014182636 -0.23852047 -0.14741376 0.38593423
2.7755576e-17 0.01694048 0.014787268 -0.23852047 -0.14741376 0.38593423
0 0.01604512 0.015389943 -0.23852047 -0.14741376 0.38593423
2.7755576e-17 0.015152744 0.015990671 -0.23852047 -0.14741376 0.38593423
0 0.014263334 0.016589466 -0.23852047 -0.14741376 0.38593423
0 0.01337687 0.017186342 -0.23852047 -0.14741376 0.38593423
2.7755576e-17 0.012493336 0.017781308 -0.23852047 -0.14741376 0.38593423
0 0.011612711 0.018374378 -0.23852047 -0.14741376 0.38593423
0 0.010734977 0.018965563 -0.23852047 -0.14741376 0.38593423
0 0.009860117 0.019554876 -0.23852047 -0.14741376 0.38593423
2.7755576e-17 0.0089881122 0.02014233 -0.23852047 -0.14741376 0.38593423
2.7755576e-17 0.0081189433 0.020727934 -0.23852047 -0.14741376 0.38593423
2.7755576e-17 0.0072525949 0.021311702 -0.23852047 -0.14741376 0.38593423
0 0.006389048 0.021893645 -0.23852047 -0.14741376 0.38593423
0 0.0055282847 0.022473773 -0.23852047 -0.14741376 0.38593423
0.01515202 0.014331433 0 -0.23852047 -0.14741376 0.38593423
0 0.0038150416 0.023628633 -0.23852047 -0.14741376 0.38593423
0 0.0029625271 0.02420339 -0.23852047 -0.14741376 0.38593423
2.7755576e-17 0.0021127281 0.024776375 -0.23852047 -0.14741376 0.38593423
0 0.0012656276 0.025347605 -0.23852047 -0.14741376 0.38593423
0 0.00042120885 0.025917087 -0.23852047 -0.14741376 0.38593423
0.00068240223 0 0.025456456 -0.23852047 -0.14741376 0.38593423
0.0020557214 0 0.02395777 -0.23852047 -0.14741376 0.38593423
0.0034405175 0 0.022446621 -0.23852047 -0.14741376 0.38593423
0.0048369416 0 0.020922847 -0.23852047 -0.14741376 0.38593423
0.006245147 0 0.019386278 -0.23852047 -0.14741376 0.38593423
0.00766529 0 0.01783675 -0.23852047 -0.14741376 0.38593423
0.0090975296 2.7755576e-17 0.016274083 -0.23852047 -0.14741376 0.38593423
0.010542029 0 0.014698106 -0.23852047 -0.14741376 0.38593423
0.011998951 0 0.013108639 -0.23852047 -0.14741376 0.38593423
0.021211615 0.0045297509 0 -0.23852047 -0.14741376 0.38593423
0.014950739 2.7755576e-17 0.0098885018 -0.23852047 -0.14741376 0.38593423
0.01644595 0 0.0082574571 -0.23852047 -0.14741376 0.38593423
0.017954275 0 0.0066121733 -0.23852047 -0.14741376 0.38593423
0.019475892 0 0.0049524549 -0.23852047 -0.14741376 0.38593423
0.023234317 0.0012628501 0 -0.23852047 -0.14741376 0.38593423
0.022559745 0 0.0015889116 -0.23852047 -0.14741376 0.38593423
0 0.036548819 0.00035383666 -0.23852047 -0.14741376 0.38593423
0 0.035583824 0.0010042011 -0.23852047 -0.14741376 0.38593423
0 0.034622267 0.0016523115 -0.23852047 -0.14741376 0.38593423
0 0.033664122 0.0022981833 -0.23852047 -0.14741376 0.38593423
0 0.032709375 0.0029418308 -0.23852047 -0.14741376 0.38593423
0.0022353365 0.033437133 0 -0.23852047 -0.14741376 0.38593423
0 0.030809963 0.0042225127 -0.23852047 -0.14741376 0.38593423
2.7755576e-17 0.029865257 0.004859576 -0.23852047 -0.14741376 0.38593423
0 0.028923856 0.005494474 -0.23852047 -0.14741376 0.38593423
0 0.027985739 0.0061272201 -0.23852047 -0.14741376 0.38593423
0 0.027050881 0.0067578289 -0.23852047 -0.14741376 0.38593423
0 0.026119262 0.0073863142 -0.23852047 -0.14741376 0.38593423
0.00505711 0.028850427 0 -0.23852047 -0.14741376 0.38593423
0 0.024265662 0.008636971 -0.23852047 -0.14741376 0.38593423
0.0058631473 0.02754108 0 -0.23852047 -0.14741376 0.38593423
0.006266146 0.026886582 0 -0.23852047 -0.14741376 0.38593423
0 0.02150904 0.010497374 -0.23852047 -0.14741376 0.38593423
0.0070721135 0.025577914 0 -0.23852047 -0.14741376 0.38593423
0 0.019686906 0.011727413 -0.23852047 -0.14741376 0.38593423
0.0078780539 0.024269663 0 -0.23852047 -0.14741376 0.38593423
0 0.017877074 0.01294939 -0.23852047 -0.14741376 0.38593423
0 0.016976723 0.013557389 -0.23852047 -0.14741376 0.38593423
0 0.016079389 0.014163411 -0.23852047 -0.14741376 0.38593423
0 0.015185053 0.014767469 -0.23852047 -0.14741376 0.38593423
0 0.014293696 0.015369575 -0.23852047 -0.14741376 0.38593423
0 0.013405299 0.015969744 -0.23852047 -0.14741376 0.38593423
0 0.012519842 0.016567986 -0.23852047 -0.14741376 0.38593423
0 0.011637309 0.017164314 -0.23852047 -0.14741376 0.38593423
0 0.010757678 0.01775874 -0.23852047 -0.14741376 0.38593423
0 0.0098809339 0.018351275 -0.23852047 -0.14741376 0.38593423
2.7755576e-17 0.0090070562 0.018941935 -0.23852047 -0.14741376 0.38593423
2.7755576e-17 0.0081360284 0.019530728 -0.23852047 -0.14741376 0.38593423
0 0.0072678318 0.020117667 -0.23852047 -0.14741376 0.38593423
0.013520284 0.01512136 0 -0.23852047 -0.14741376 0.38593423
0 0.0055398615 0.021286029 -0.23852047 -0.14741376 0.38593423
0 0.0046800529 0.021867476 -0.23852047 -0.14741376 0.38593423
0 0.0038230051 0.022447117 -0.23852047 -0.14741376 0.38593423
0 0.0029687013 0.023024959 -0.23852047 -0.14741376 0.38593423
0 0.0021171242 0.023601018 -0.23852047 -0.14741376 0.38593423
0 0.00042208249 0.024747824 -0.23852047 -0.14741376 0.38593423
0.00068381941 0 0.024284739 -0.23852047 -0.14741376 0.38593423
0.0020600085 0 0.022778042 -0.23852047 -0.14741376 0.38593423
0.0034477224 2.7755576e-17 0.021258786 -0.23852047 -0.14741376 0.38593423
0.0048471135 0 0.019726809 -0.23852047 -0.14741376 0.38593423
0.0062583359 0 0.018181939 -0.23852047 -0.14741376 0.38593423
0.0076815467 0 0.016624006 -0.23852047 -0.14741376 0.38593423
0.0091169067 0 0.015052833 -0.23852047 -0.14741376 0.38593423
0.010564578 0 0.013468245 -0.23852047 -0.14741376 0.38593423
0.0199752 0.0046778349 0 -0.23852047 -0.14741376 0.38593423
0.020379048 0.0040252348 0 -0.23852047 -0.14741376 0.38593423
0.014983137 0 0.0086321644 -0.23852047 -0.14741376 0.38593423
0.016481744 0 0.0069920742 -0.23852047 -0.14741376 0.38593423
0.017993523 0 0.0053376309 -0.23852047 -0.14741376 0.38593423
0.019518655 0 0.003668637 -0.23852047 -0.14741376 0.38593423
0.021057324 0 0.001984891 -0.23852047 -0.14741376 0.38593423
0.022803504 0.00010939519 5.5511151e-17 -0.23852047 -0.14741376 0.38593423
0.0002162325 0.034864068 0 -0.23852047 -0.14741376 0.38593423
0 0.032781586 0.0016465487 -0.23852047 -0.14741376 0.38593423
0 0.031827983 0.0022916929 -0.23852047 -0.14741376 0.38593423
0 0.030877741 0.0029346212 -0.23852047 -0.14741376 0.38593423
0.0022303492 0.03158915 0 -0.23852047 -0.14741376 0.38593423
0 0.028987262 0.0042138896 -0.23852047 -0.14741376 0.38593423
0 0.028046981 0.0048502586 -0.23852047 -0.14741376 0.38593423
0 0.027109973 0.0054844702 -0.23852047 -0.14741376 0.38593423
0 0.026176222 0.0061165378 -0.23852047 -0.14741376 0.38593423
0 0.025245704 0.0067464765 -0.23852047 -0.14741376 0.38593423
0 0.024318397 0.0073742992 -0.23852047 -0.14741376 0.38593423
0 0.023394281 0.0080000209 -0.23852047 -0.14741376 0.38593423
0.0054515251 0.026356207 0 -0.23852047 -0.14741376 0.38593423
0.005854093 0.025702618 5.5511151e-17 -0.23852047 -0.14741376 0.38593423
0.0062566507 0.025049135 5.5511151e-17 -0.23852047 -0.14741376 0.38593423
0 0.019729324 0.010482162 -0.23852047 -0.14741376 0.38593423
0 0.018820859 0.011097578 -0.23852047 -0.14741376 0.38593423
2.7755576e-17 0.017915463 0.011710973 -0.23852047 -0.14741376 0.38593423
0 0.017013118 0.012322362 -0.23852047 -0.14741376 0.38593423
2.7755576e-17 0.016113803 0.012931754 -0.23852047 -0.14741376 0.38593423
0.0086718863 0.021130281 0 -0.23852047 -0.14741376 0.38593423
2.7755576e-17 0.014324185 0.014144605 -0.23852047 -0.14741376 0.38593423
0.0094769727 0.019824695 0 -0.23852047 -0.14741376 0.38593423
0 0.012546459 0.015349628 -0.23852047 -0.14741376 0.38593423
0 0.011662008 0.015949236 -0.23852047 -0.14741376 0.38593423
0 0.010780473 0.016546926 -0.23852047 -0.14741376 0.38593423
0 0.0099018365 0.017142706 -0.23852047 -0.14741376 0.38593423
0.011489863 0.016562004 0 -0.23852047 -0.14741376 0.38593423
0.011892486 0.015909657 5.5511151e-17 -0.23852047 -0.14741376 0.38593423
2.7755576e-17 0.0072831316 0.018918727 -0.23852047 -0.14741376 0.38593423
2.7755576e-17 0.006415905 0.019506998 -0.23852047 -0.14741376 0.38593423
2.7755576e-17 0.0055514858 0.020093424 -0.23852047 -0.14741376 0.38593423
0.013503204 0.013300801 0 -0.23852047 -0.14741376 0.38593423
0 0.003831001 0.021260777 -0.23852047 -0.14741376 0.38593423
0.014308725 0.011996642 0 -0.23852047 -0.14741376 0.38593423
2.7755576e-17 0.0021215379 0.022420879 -0.23852047 -0.14741376 0.38593423
0.015114375 0.010692628 0 -0.23852047 -0.14741376 0.38593423
0.015517255 0.010040668 0 -0.23852047 -0.14741376 0.38593423
0.00068524235 0 0.023108263 -0.23852047 -0.14741376 0.38593423
0.002064313 0 0.021593504 -0.23852047 -0.14741376 0.38593423
0.0034549572 0 0.020066088 -0.23852047 -0.14741376 0.38593423
0.0048573273 2.7755576e-17 0.018525852 -0.23852047 -0.14741376 0.38593423
0.0062715793 0 0.016972624 -0.23852047 -0.14741376 0.38593423
0.0076978714 0 0.015406229 -0.23852047 -0.14741376 0.38593423
0.0091363639 0 0.013826493 -0.23852047 -0.14741376 0.38593423
0.010587223 0 0.012233237 -0.23852047 -0.14741376 0.38593423
0.012050613 0 0.010626277 -0.23852047 -0.14741376 0.38593423
0.013526705 0 0.0090054274 -0.23852047 -0.14741376 0.38593423
0.015015672 0 0.0073704994 -0.23852047 -0.14741376 0.38593423
0.020355409 0.0022182267 0 -0.23852047 -0.14741376 0.38593423
0.01803294 0 0.0040576337 -0.23852047 -0.14741376 0.38593423
0.019561602 0 0.0023792998 -0.23852047 -0.14741376 0.38593423
0.021103863 0 0.0006860951 -0.23852047 -0.14741376 0.38593423
0 0.03285411 0.00034566049 -0.23852047 -0.14741376 0.38593423
0.00061624532 0.032361545 0 -0.23852047 -0.14741376 0.38593423
0.0010186339 0.031707522 0 -0.23852047 -0.14741376 0.38593423
0 0.02999671 0.0022855927 -0.23852047 -0.14741376 0.38593423
0.0018233138 0.030399885 5.5511151e-17 -0.23852047 -0.14741376 0.38593423
0.002225609 0.029746264 0 -0.23852047 -0.14741376 0.38593423
0.0026278773 0.029092774 0 -0.23852047 -0.14741376 0.38593423
0 0.026233425 0.0048413347 -0.23852047 -0.14741376 0.38593423
0 0.025300777 0.0054748603 -0.23852047 -0.14741376 0.38593423
0.0038345403 0.027133035 0 -0.23852047 -0.14741376 0.38593423
0 0.02252211 0.00736268 -0.23852047 -0.14741376 0.38593423
0.005041034 0.025174329 0 -0.23852047 -0.14741376 0.38593423
0.0054431707 0.024521641 0 -0.23852047 -0.14741376 0.38593423
0 0.019771922 0.0092316531 -0.23852047 -0.14741376 0.38593423
0.0062474143 0.023216566 0 -0.23852047 -0.14741376 0.38593423
0 0.017954014 0.010467347 -0.23852047 -0.14741376 0.38593423
0 0.017049665 0.011082146 -0.23852047 -0.14741376 0.38593423
0.0074537359 0.021259656 0 -0.23852047 -0.14741376 0.38593423
0 0.015250077 0.012305718 -0.23852047 -0.14741376 0.38593423
0 0.014354802 0.012914515 -0.23852047 -0.14741376 0.38593423
2.7755576e-17 0.013462511 0.013521338 -0.23852047 -0.14741376 0.38593423
0.0090621691 0.018651612 0 -0.23852047 -0.14741376 0.38593423
0 0.01168681 0.014729108 -0.23852047 -0.14741376 0.38593423
0 0.010803362 0.01533008 -0.23852047 -0.14741376 0.38593423
2.7755576e-17 0.0099228257 0.015929127 -0.23852047 -0.14741376 0.38593423
0 0.0090451809 0.016526263 -0.23852047 -0.14741376 0.38593423
0 0.0081704101 0.017121498 -0.23852047 -0.14741376 0.38593423
0.011475096 0.014741621 0 -0.23852047 -0.14741376 0.38593423
2.7755576e-17 0.0064294161 0.018306313 -0.23852047 -0.14741376 0.38593423
0 0.0055631581 0.018895917 -0.23852047 -0.14741376 0.38593423
2.7755576e-17 0.0046997014 0.019483669 -0.23852047 -0.14741376 0.38593423
0 0.0038390297 0.020069579 -0.23852047 -0.14741376 0.38593423
2.7755576e-17 0.0029811249 0.020653659 -0.23852047 -0.14741376 0.38593423
0 0.0021259699 0.021235924 -0.23852047 -0.14741376 0.38593423
0 0.0012735474 0.02181638 -0.23852047 -0.14741376 0.38593423
0.014693535 0.0095310546 0 -0.23852047 -0.14741376 0.38593423
0.00068667112 0 0.021926994 -0.23852047 -0.14741376 0.38593423
0.0020686353 0 0.020404117 -0.23852047 -0.14741376 0.38593423
0.0034622212 0 0.018868489 -0.23852047 -0.14741376 0.38593423
0.0048675835 2.7755576e-17 0.01731994 -0.23852047 -0.14741376 0.38593423
0.0062848777 0 0.015758296 -0.23852047 -0.14741376 0.38593423
0.0077142636 0 0.014183384 -0.23852047 -0.14741376 0.38593423
0.009155903 2.7755576e-17 0.012595027 -0.23852047 -0.14741376 0.38593423
0.010609962 0 0.010993042 -0.23852047 -0.14741376 0.38593423
0.012076607 0 0.0093772458 -0.23852047 -0.14741376 0.38593423
0.01355601 0 0.0077474508 -0.23852047 -0.14741376 0.38593423
0.015048346 0 0.0061034649 -0.23852047 -0.14741376 0.38593423
0.016553791 0 0.0044450941 -0.23852047 -0.14741376 0.38593423
0.018072525 0 0.0027721403 -0.23852047 -0.14741376 0.38593423
0.019604733 0 0.0010844012 -0.23852047 -0.14741376 0.38593423
0 0.031014178 0.00034213325 -0.23852047 -0.14741376 0.38593423
0.00061359262 0.030519418 5.5511151e-17 -0.23852047 -0.14741376 0.38593423
0 0.029114895 0.001636171 -0.23852047 -0.14741376 0.38593423
0 0.027228922 0.0029213545 -0.23852047 -0.14741376 0.38593423
0 0.026290873 0.0035606625 -0.23852047 -0.14741376 0.38593423
0 0.025356086 0.0041978005 -0.23852047 -0.14741376 0.38593423
0 0.024424542 0.0048327828 -0.23852047 -0.14741376 0.38593423
0.0034264668 0.025951425 0 -0.23852047 -0.14741376 0.38593423
0 0.022571091 0.0060963365 -0.23852047 -0.14741376 0.38593423
0 0.021649143 0.0067249355 -0.23852047 -0.14741376 0.38593423
0 0.020730354 0.0073514353 -0.23852047 -0.14741376 0.38593423
0 0.0198147 0.0079758484 -0.23852047 -0.14741376 0.38593423
2.7755576e-17 0.018902166 0.0085981889 -0.23852047 -0.14741376 0.38593423
0 0.017992727 0.0092184702 -0.23852047 -0.14741376 0.38593423
0 0.017086366 0.0098367063 -0.23852047 -0.14741376 0.38593423
0 0.016183062 0.010452909 -0.23852047 -0.14741376 0.38593423
0 0.015282795 0.011067092 -0.23852047 -0.14741376 0.38593423
0.0074434415 0.019434772 0 -0.23852047 -0.14741376 0.38593423
0.0078451149 0.018783582 5.5511151e-17 -0.23852047 -0.14741376 0.38593423
0.0086484747 0.01748142 5.5511151e-17 -0.23852047 -0.14741376 0.38593423
0 0.0099439025 0.014710505 -0.23852047 -0.14741376 0.38593423
0 0.0090643615 0.015310911 -0.23852047 -0.14741376 0.38593423
0.010255305 0.014877869 0 -0.23852047 -0.14741376 0.38593423
0 0.0064429832 0.017100669 -0.23852047 -0.14741376 0.38593423
0.011460588 0.012925778 0 -0.23852047 -0.14741376 0.38593423
0 0.0047095865 0.01828441 -0.23852047 -0.14741376 0.38593423
0 0.0038470915 0.018873489 -0.23852047 -0.14741376 0.38593423
2.7755576e-17 0.002987375 0.019460719 -0.23852047 -0.14741376 0.38593423
0 0.0021304199 0.020046115 -0.23852047 -0.14741376 0.38593423
2.7755576e-17 0.0012762089 0.020629689 -0.23852047 -0.14741376 0.38593423
0 0.00042472477 0.021211449 -0.23852047 -0.14741376 0.38593423
0.00068810571 0 0.020740898 -0.23852047 -0.14741376 0.38593423
0.002072975 2.7755576e-17 0.019209851 -0.23852047 -0.14741376 0.38593423
0.0034695156 0 0.017665954 -0.23852047 -0.14741376 0.38593423
0.0048778816 0 0.016109034 -0.23852047 -0.14741376 0.38593423
0.0062982314 0 0.01453892 -0.23852047 -0.14741376 0.38593423
0.0077307243 0 0.012955433 -0.23852047 -0.14741376 0.38593423
0.0091755241 2.7755576e-17 0.011358395 -0.23852047 -0.14741376 0.38593423
0.010632797 0 0.0097476235 -0.23852047 -0.14741376 0.38593423
0.012102712 0 0.0081229303 -0.23852047 -0.14741376 0.38593423
0.013585441 0 0.0064841271 -0.23852047 -0.14741376 0.38593423
0.015081159 0 0.0048310212 -0.23852047 -0.14741376 0.38593423
0.016590046 0 0.003163415 -0.23852047 -0.14741376 0.38593423
0.018112281 0 0.0014811088 -0.23852047 -0.14741376 0.38593423
0 0.029179124 0.00033895217 -0.23852047 -0.14741376 0.38593423
2.7755576e-17 0.028232291 0.00098634325 -0.23852047 -0.14741376 0.38593423
0 0.02728878 0.0016315144 -0.23852047 -0.14741376 0.38593423
0 0.026348568 0.0022744806 -0.23852047 -0.14741376 0.38593423
2.7755576e-17 0.025411634 0.0029152562 -0.23852047 -0.14741376 0.38593423
0.0022168169 0.026075521 0 -0.23852047 -0.14741376 0.38593423
0 0.02354751 0.0041902931 -0.23852047 -0.14741376 0.38593423
0.0034208174 0.024121586 0 -0.23852047 -0.14741376 0.38593423
0 0.019857662 0.0067147063 -0.23852047 -0.14741376 0.38593423
0 0.018943077 0.0073405453 -0.23852047 -0.14741376 0.38593423
0 0.018031605 0.0079643056 -0.23852047 -0.14741376 0.38593423
0.0054271803 0.020867018 0 -0.23852047 -0.14741376 0.38593423
2.7755576e-17 0.01621791 0.009205644 -0.23852047 -0.14741376 0.38593423
0 0.01531565 0.0098232487 -0.23852047 -0.14741376 0.38593423
0 0.01441642 0.010438829 -0.23852047 -0.14741376 0.38593423
0 0.013520203 0.011052396 -0.23852047 -0.14741376 0.38593423
0 0.012626978 0.011663964 -0.23852047 -0.14741376 0.38593423
0.0078346273 0.016964305 0 -0.23852047 -0.14741376 0.38593423
0 0.010849428 0.012881154 -0.23852047 -0.14741376 0.38593423
0 0.0099650668 0.013486802 -0.23852047 -0.14741376 0.38593423
0 0.0090836221 0.014090501 -0.23852047 -0.14741376 0.38593423
0.0094396807 0.014363844 0 -0.23852047 -0.14741376 0.38593423
0.0098409746 0.013713867 0 -0.23852047 -0.14741376 0.38593423
0 0.0064566066 0.01589003 -0.23852047 -0.14741376 0.38593423
0.010643611 0.012414056 0 -0.23852047 -0.14741376 0.38593423
2.7755576e-17 0.0047195125 0.017080201 -0.23852047 -0.14741376 0.38593423
0 0.0038551865 0.017672466 -0.23852047 -0.14741376 0.38593423
0 0.002993651 0.018262869 -0.23852047 -0.14741376 0.38593423
0.012249142 0.0098149115 0 -0.23852047 -0.14741376 0.38593423
0 0.0012788813 0.019438129 -0.23852047 -0.14741376 0.38593423
0 0.00042561273 0.020023013 -0.23852047 -0.14741376 0.38593423
0.00068954617 0 0.019549938 -0.23852047 -0.14741376 0.38593423
0.0020773329 0 0.018010667 -0.23852047 -0.14741376 0.38593423
0.00347684 0 0.016458444 -0.23852047 -0.14741376 0.38593423
0.004888223 0 0.0148931 -0.23852047 -0.14741376 0.38593423
0.0063116406 0 0.013314457 -0.23852047 -0.14741376 0.38593423
0.0077472543 0 0.011722337 -0.23852047 -0.14741376 0.38593423
0.0091952281 0 0.010116559 -0.23852047 -0.14741376 0.38593423
0.010655729 0 0.0084969392 -0.23852047 -0.14741376 0.38593423
0.012128927 0 0.006863289 -0.23852047 -0.14741376 0.38593423
0.013614996 0 0.0052154162 -0.23852047 -0.14741376 0.38593423
0.015114113 0 0.0035531265 -0.23852047 -0.14741376 0.38593423
0.016626457 0 0.0018762208 -0.23852047 -0.14741376 0.38593423
0.018152209 0 0.00018449704 -0.23852047 -0.14741376 0.38593423
0 0.027348898 0.00033609656 -0.23852047 -0.14741376 0.38593423
0 0.026406512 0.0009827466 -0.23852047 -0.14741376 0.38593423
0.0010099139 0.026199412 0 -0.23852047 -0.14741376 0.38593423
0.0014108797 0.025548676 0 -0.23852047 -0.14741376 0.38593423
0 0.023599025 0.0029094869 -0.23852047 -0.14741376 0.38593423
0 0.02266968 0.0035473786 -0.23852047 -0.14741376 0.38593423
0 0.021743542 0.0041831168 -0.23852047 -0.14741376 0.38593423
0 0.02082059 0.0048167151 -0.23852047 -0.14741376 0.38593423
0.0034153797 0.022296585 0 -0.23852047 -0.14741376 0.38593423
0 0.018984163 0.0060775485 -0.23852047 -0.14741376 0.38593423
0.004217064 0.020996427 5.5511151e-17 -0.23852047 -0.14741376 0.38593423
0.0046178894 0.020346479 5.5511151e-17 -0.23852047 -0.14741376 0.38593423
0.0050187069 0.019696616 0 -0.23852047 -0.14741376 0.38593423
0 0.015348643 0.0085741468 -0.23852047 -0.14741376 0.38593423
2.7755576e-17 0.014447425 0.0091931531 -0.23852047 -0.14741376 0.38593423
0.0062211286 0.017747493 0 -0.23852047 -0.14741376 0.38593423
0.0066219326 0.017097929 5.5511151e-17 -0.23852047 -0.14741376 0.38593423
0.007022738 0.016448434 5.5511151e-17 -0.23852047 -0.14741376 0.38593423
0 0.010872606 0.011648998 -0.23852047 -0.14741376 0.38593423
0 0.0099863196 0.012257978 -0.23852047 -0.14741376 0.38593423
0.0082251867 0.014500317 0 -0.23852047 -0.14741376 0.38593423
0 0.0082225185 0.013470053 -0.23852047 -0.14741376 0.38593423
0 0.0073449654 0.014073172 -0.23852047 -0.14741376 0.38593423
0 0.0064702868 0.014674362 -0.23852047 -0.14741376 0.38593423
0 0.005598464 0.015273634 -0.23852047 -0.14741376 0.38593423
0.010229493 0.011254488 0 -0.23852047 -0.14741376 0.38593423
0 0.0038633149 0.016466478 -0.23852047 -0.14741376 0.38593423
0.011031341 0.0099564418 5.5511151e-17 -0.23852047 -0.14741376 0.38593423
0 0.0021393751 0.017651798 -0.23852047 -0.14741376 0.38593423
0 0.0012815647 0.018241668 -0.23852047 -0.14741376 0.38593423
2.7755576e-17 0.00042650435 0.018829692 -0.23852047 -0.14741376 0.38593423
0.00069099257 0 0.018354081 -0.23852047 -0.14741376 0.38593423
0.0020817087 0 0.016806528 -0.23852047 -0.14741376 0.38593423
0.0034841946 0 0.015245926 -0.23852047 -0.14741376 0.38593423
0.0048986073 0 0.013672098 -0.23852047 -0.14741376 0.38593423
0.0063251061 0 0.012084869 -0.23852047 -0.14741376 0.38593423
0.0077638533 0 0.010484057 -0.23852047 -0.14741376 0.38593423
0.009215015 0 0.0088694803 -0.23852047 -0.14741376 0.38593423
0.010678758 0 0.0072409525 -0.23852047 -0.14741376 0.38593423
0.012155254 0 0.0055982824 -0.23852047 -0.14741376 0.38593423
0.013644679 0 0.003941277 -0.23852047 -0.14741376 0.38593423
0.015147208 0 0.0022697398 -0.23852047 -0.14741376 0.38593423
0.016663024 0 0.00058346952 -0.23852047 -0.14741376 0.38593423
0 0.025523447 0.00033354588 -0.23852047 -0.14741376 0.38593423
0.00060687726 0.025023095 0 -0.23852047 -0.14741376 0.38593423
0.001007407 0.024373263 0 -0.23852047 -0.14741376 0.38593423
0.0014079121 0.023723535 5.5511151e-17 -0.23852047 -0.14741376 0.38593423
0 0.021791045 0.0029040268 -0.23852047 -0.14741376 0.38593423
0 0.020865999 0.0035412116 -0.23852047 -0.14741376 0.38593423
0.0026093007 0.02177495 0 -0.23852047 -0.14741376 0.38593423
0 0.019025424 0.0048091584 -0.23852047 -0.14741376 0.38593423
0 0.018109856 0.0054399483 -0.23852047 -0.14741376 0.38593423
0.003810541 0.019827191 5.5511151e-17 -0.23852047 -0.14741376 0.38593423
0 0.016288051 0.0066952296 -0.23852047 -0.14741376 0.38593423
2.7755576e-17 0.015381777 0.0073197484 -0.23852047 -0.14741376 0.38593423
0 0.01447856 0.0079422044 -0.23852047 -0.14741376 0.38593423
0 0.013578381 0.0085626096 -0.23852047 -0.14741376 0.38593423
0 0.012681222 0.0091809789 -0.23852047 -0.14741376 0.38593423
0 0.011787061 0.0097973244 -0.23852047 -0.14741376 0.38593423
0 0.010895881 0.010411659 -0.23852047 -0.14741376 0.38593423
0 0.010007662 0.011023996 -0.23852047 -0.14741376 0.38593423
0 0.0091223856 0.011634349 -0.23852047 -0.14741376 0.38593423
0 0.0082400329 0.012242729 -0.23852047 -0.14741376 0.38593423
2.7755576e-17 0.007360585 0.012849149 -0.23852047 -0.14741376 0.38593423
0 0.0064840238 0.013453623 -0.23852047 -0.14741376 0.38593423
0 0.0056103305 0.014056163 -0.23852047 -0.14741376 0.38593423
0.0094159823 0.010745985 0 -0.23852047 -0.14741376 0.38593423
0 0.003871477 0.015255487 -0.23852047 -0.14741376 0.38593423
2.7755576e-17 0.0030062804 0.015852295 -0.23852047 -0.14741376 0.38593423
0 0.0021438804 0.016447218 -0.23852047 -0.14741376 0.38593423
0 0.0012842593 0.017040268 -0.23852047 -0.14741376 0.38593423
0.011418493 0.0075048772 0 -0.23852047 -0.14741376 0.38593423
0.00069244497 0 0.017153285 -0.23852047 -0.14741376 0.38593423
0.0020861027 0 0.015597399 -0.23852047 -0.14741376 0.38593423
0.0034915803 2.7755576e-17 0.014028359 -0.23852047 -0.14741376 0.38593423
0.0049090353 2.7755576e-17 0.012445992 -0.23852047 -0.14741376 0.38593423
0.0063386285 0 0.010850118 -0.23852047 -0.14741376 0.38593423
0.0077805226 0 0.0092405556 -0.23852047 -0.14741376 0.38593423
0.0092348848 0 0.0076171192 -0.23852047 -0.14741376 0.38593423
0.010701885 0 0.0059796213 -0.23852047 -0.14741376 0.38593423
0.015024954 0.0016718472 0 -0.23852047 -0.14741376 0.38593423
0.013674488 0 0.0026616682 -0.23852047 -0.14741376 0.38593423
0.015180446 0 0.00098081899 -0.23852047 -0.14741376 0.38593423
0.00020491802 0.023849729 0 -0.23852047 -0.14741376 0.38593423
0 0.02276912 0.00097645097 -0.23852047 -0.14741376 0.38593423
0 0.021838754 0.0016194277 -0.23852047 -0.14741376 0.38593423
0 0.020911602 0.0022602242 -0.23852047 -0.14741376 0.38593423
0 0.019987646 0.0028988549 -0.23852047 -0.14741376 0.38593423
0 0.019066863 0.003535334 -0.23852047 -0.14741376 0.38593423
