# .PCD v0.7 - Point Cloud Data file format
VERSION 0.7
FIELDS x y z vp_x vp_y vp_z
SIZE 4 4 4 4 4 4
TYPE F F F F F F
COUNT 1 1 1 1 1 1
WIDTH 895
HEIGHT 1
VIEWPOINT 0 0 0 1 0 0 0
POINTS 895
DATA ascii
0.029492427 0.067393035 0.07 0 -0.25019264 0.4048202
0.030205641 0.067406222 0.07 0 -0.25019264 0.4048202
0.03091904 0.067419715 0.07 0 -0.25019264 0.4048202
0.031632625 0.067433536 0.07 0 -0.25019264 0.4048202
0.033123311 0.075076856 0.061958175 0 -0.25019264 0.4048202
0.033060376 0.067462116 0.07 0 -0.25019264 0.4048202
0.033774551 0.067476884 0.07 0 -0.25019264 0.4048202
0.034488928 0.067491971 0.07 0 -0.25019264 0.4048202
0.035203516 0.067507371 0.07 0 -0.25019264 0.4048202
0.035918318 0.067523092 0.07 0 -0.25019264 0.4048202
0.036633339 0.067539133 0.07 0 -0.25019264 0.4048202
0.03734858 0.067555495 0.07 0 -0.25019264 0.4048202
0.038064048 0.067572169 0.07 0 -0.25019264 0.4048202
0.0010639285 0.066428639 0.069680579 0 -0.25019264 0.4048202
0.00178333 0.06823425 0.067770019 0 -0.25019264 0.4048202
0.0024801586 0.066128418 0.07 0 -0.25019264 0.4048202
0.003188801 0.066129655 0.07 0 -0.25019264 0.4048202
0.0038974625 0.066131197 0.07 0 -0.25019264 0.4048202
0.0046061473 0.06613306 0.07 0 -0.25019264 0.4048202
0.00531486 0.06613522 0.07 0 -0.25019264 0.4048202
0.0060236049 0.066137694 0.07 0 -0.25019264 0.4048202
0.0067323856 0.06614048 0.07 0 -0.25019264 0.4048202
0.0074412068 0.06614358 0.07 0 -0.25019264 0.4048202
0.0081500737 0.066146977 0.07 0 -0.25019264 0.4048202
0.0088589881 0.066150695 0.07 0 -0.25019264 0.4048202
0.0095679574 0.066154718 0.07 0 -0.25019264 0.4048202
0.010651226 0.077679187 0.057807319 0 -0.25019264 0.4048202
0.010986071 0.066163689 0.07 0 -0.25019264 0.4048202
0.011695226 0.066168644 0.07 0 -0.25019264 0.4048202
0.01240445 0.066173904 0.07 0 -0.25019264 0.4048202
0.013642333 0.078931667 0.056504216 0 -0.25019264 0.4048202
0.013823127 0.066185363 0.07 0 -0.25019264 0.4048202
0.014532589 0.066191554 0.07 0 -0.25019264 0.4048202
0.015242138 0.066198058 0.07 0 -0.25019264 0.4048202
0.015951779 0.066204868 0.07 0 -0.25019264 0.4048202
0.017377213 0.079803169 0.055617787 0 -0.25019264 0.4048202
0.017371353 0.066219427 0.07 0 -0.25019264 0.4048202
0.018081296 0.066227175 0.07 0 -0.25019264 0.4048202
0.018791346 0.066235229 0.07 0 -0.25019264 0.4048202
0.020348368 0.079984903 0.055460371 0 -0.25019264 0.4048202
0.020211793 0.066252276 0.07 0 -0.25019264 0.4048202
0.020922197 0.066261269 0.07 0 -0.25019264 0.4048202
0.021632727 0.066270567 0.07 0 -0.25019264 0.4048202
0.022343388 0.066280179 0.07 0 -0.25019264 0.4048202
0.023054183 0.066290103 0.07 0 -0.25019264 0.4048202
0.023765117 0.06630034 0.07 0 -0.25019264 0.4048202
0.024476195 0.066310883 0.07 0 -0.25019264 0.4048202
0.025187422 0.066321746 0.07 0 -0.25019264 0.4048202
0.025898799 0.066332914 0.07 0 -0.25019264 0.4048202
0.026610333 0.066344395 0.07 0 -0.25019264 0.4048202
0.027322028 0.066356197 0.07 0 -0.25019264 0.4048202
0.028033888 0.066368304 0.07 0 -0.25019264 0.4048202
0.028745918 0.066380724 0.07 0 -0.25019264 0.4048202
0.030447017 0.077021107 0.058760241 0 -0.25019264 0.4048202
0.030170502 0.066406503 0.07 0 -0.25019264 0.4048202
0.030883066 0.06641987 0.07 0 -0.25019264 0.4048202
0.031595819 0.066433541 0.07 0 -0.25019264 0.4048202
0.032308757 0.066447534 0.07 0 -0.25019264 0.4048202
0.033021897 0.066461831 0.07 0 -0.25019264 0.4048202
0.033735234 0.066476449 0.07 0 -0.25019264 0.4048202
0.034448776 0.06649138 0.07 0 -0.25019264 0.4048202
0.035162527 0.066506632 0.07 0 -0.25019264 0.4048202
0.03587649 0.066522188 0.07 0 -0.25019264 0.4048202
0.036590669 0.066538066 0.07 0 -0.25019264 0.4048202
0.037305072 0.066554256 0.07 0 -0.25019264 0.4048202
0.038019702 0.066570766 0.07 0 -0.25019264 0.4048202
0.038734563 0.06658759 0.07 0 -0.25019264 0.4048202
0.0010616833 0.06513299 0.07 0 -0.25019264 0.4048202
0.0017694792 0.065133601 0.07 0 -0.25019264 0.4048202
0.0024772859 0.065134518 0.07 0 -0.25019264 0.4048202
0.003243047 0.07087183 0.063909337 0 -0.25019264 0.4048202
0.0038929479 0.065137275 0.07 0 -0.25019264 0.4048202
0.0046008117 0.065139115 0.07 0 -0.25019264 0.4048202
0.005453167 0.073722303 0.060888682 0 -0.25019264 0.4048202
0.006016627 0.065143704 0.07 0 -0.25019264 0.4048202
0.0067245867 0.065146461 0.07 0 -0.25019264 0.4048202
0.007432587 0.065149523 0.07 0 -0.25019264 0.4048202
0.008140632 0.065152891 0.07 0 -0.25019264 0.4048202
0.0088487249 0.065156572 0.07 0 -0.25019264 0.4048202
0.0095568718 0.06516055 0.07 0 -0.25019264 0.4048202
0.010265077 0.065164842 0.07 0 -0.25019264 0.4048202
0.010973342 0.065169431 0.07 0 -0.25019264 0.4048202
0.011681674 0.065174334 0.07 0 -0.25019264 0.4048202
0.012390076 0.065179542 0.07 0 -0.25019264 0.4048202
0.013098553 0.065185063 0.07 0 -0.25019264 0.4048202
0.013807108 0.065190881 0.07 0 -0.25019264 0.4048202
0.01516876 0.07938531 0.054937586 0 -0.25019264 0.4048202
0.015916994 0.079549991 0.054769903 0 -0.25019264 0.4048202
0.016666025 0.07971485 0.054602381 0 -0.25019264 0.4048202
0.016642202 0.065217242 0.07 0 -0.25019264 0.4048202
0.017351216 0.065224603 0.07 0 -0.25019264 0.4048202
0.018060334 0.065232269 0.07 0 -0.25019264 0.4048202
0.01876956 0.065240242 0.07 0 -0.25019264 0.4048202
0.019478898 0.065248519 0.07 0 -0.25019264 0.4048202
0.021129679 0.079965599 0.054388322 0 -0.25019264 0.4048202
0.020897934 0.065266006 0.07 0 -0.25019264 0.4048202
0.021607637 0.065275215 0.07 0 -0.25019264 0.4048202
0.022317471 0.065284729 0.07 0 -0.25019264 0.4048202
0.023027441 0.065294549 0.07 0 -0.25019264 0.4048202
0.023737548 0.065304682 0.07 0 -0.25019264 0.4048202
0.024447797 0.06531512 0.07 0 -0.25019264 0.4048202
0.025158195 0.065325864 0.07 0 -0.25019264 0.4048202
0.025868744 0.06533692 0.07 0 -0.25019264 0.4048202
0.026579449 0.06534829 0.07 0 -0.25019264 0.4048202
0.027290316 0.065359965 0.07 0 -0.25019264 0.4048202
0.029103488 0.077792674 0.056821372 0 -0.25019264 0.4048202
0.028712545 0.065384246 0.07 0 -0.25019264 0.4048202
0.029423917 0.065396845 0.07 0 -0.25019264 0.4048202
0.031200873 0.076567531 0.058162805 0 -0.25019264 0.4048202
0.030847199 0.065422989 0.07 0 -0.25019264 0.4048202
0.031559117 0.06543652 0.07 0 -0.25019264 0.4048202
0.032271229 0.06545037 0.07 0 -0.25019264 0.4048202
0.03298353 0.065464526 0.07 0 -0.25019264 0.4048202
0.033696033 0.065478995 0.07 0 -0.25019264 0.4048202
0.034408741 0.06549377 0.07 0 -0.25019264 0.4048202
0.035121657 0.065508857 0.07 0 -0.25019264 0.4048202
0.035834786 0.065524265 0.07 0 -0.25019264 0.4048202
0.03654813 0.065539978 0.07 0 -0.25019264 0.4048202
0.037261695 0.065556005 0.07 0 -0.25019264 0.4048202
0.037975486 0.065572336 0.07 0 -0.25019264 0.4048202
0.038826182 0.066704527 0.068817206 0 -0.25019264 0.4048202
0.0010604558 0.064142041 0.07 0 -0.25019264 0.4048202
0.0017674334 0.064142652 0.07 0 -0.25019264 0.4048202
0.0024744216 0.064143561 0.07 0 -0.25019264 0.4048202
0.0031814247 0.064144768 0.07 0 -0.25019264 0.4048202
0.0038884468 0.064146288 0.07 0 -0.25019264 0.4048202
0.004595492 0.064148106 0.07 0 -0.25019264 0.4048202
0.0053025652 0.064150229 0.07 0 -0.25019264 0.4048202
0.00600967 0.064152651 0.07 0 -0.25019264 0.4048202
0.0067168106 0.064155377 0.07 0 -0.25019264 0.4048202
0.0074239918 0.06415841 0.07 0 -0.25019264 0.4048202
0.0084452461 0.076302156 0.057069194 0 -0.25019264 0.4048202
0.0088384924 0.064165384 0.07 0 -0.25019264 0.4048202
0.0095458198 0.064169325 0.07 0 -0.25019264 0.4048202
0.010253204 0.064173564 0.07 0 -0.25019264 0.4048202
0.010960651 0.064178117 0.07 0 -0.25019264 0.4048202
0.011668162 0.064182967 0.07 0 -0.25019264 0.4048202
0.012375745 0.064188123 0.07 0 -0.25019264 0.4048202
0.013083401 0.064193577 0.07 0 -0.25019264 0.4048202
0.013791136 0.064199343 0.07 0 -0.25019264 0.4048202
0.014498954 0.064205408 0.07 0 -0.25019264 0.4048202
0.015206859 0.064211778 0.07 0 -0.25019264 0.4048202
0.015914854 0.064218454 0.07 0 -0.25019264 0.4048202
0.016622946 0.064225428 0.07 0 -0.25019264 0.4048202
0.017331138 0.064232714 0.07 0 -0.25019264 0.4048202
0.018039433 0.064240299 0.07 0 -0.25019264 0.4048202
0.018747836 0.064248189 0.07 0 -0.25019264 0.4048202
0.019456353 0.064256392 0.07 0 -0.25019264 0.4048202
0.020164987 0.064264886 0.07 0 -0.25019264 0.4048202
0.020873742 0.064273693 0.07 0 -0.25019264 0.4048202
0.021582622 0.064282805 0.07 0 -0.25019264 0.4048202
0.022291632 0.064292222 0.07 0 -0.25019264 0.4048202
0.023000777 0.064301945 0.07 0 -0.25019264 0.4048202
0.023710059 0.064311966 0.07 0 -0.25019264 0.4048202
0.024419485 0.0643223 0.07 0 -0.25019264 0.4048202
0.026297055 0.078952089 0.054437555 0 -0.25019264 0.4048202
0.027018845 0.07870888 0.054708641 0 -0.25019264 0.4048202
0.026548658 0.064355128 0.07 0 -0.25019264 0.4048202
0.027258696 0.064366683 0.07 0 -0.25019264 0.4048202
0.0279689 0.064378545 0.07 0 -0.25019264 0.4048202
0.02867927 0.064390711 0.07 0 -0.25019264 0.4048202
0.029389815 0.064403191 0.07 0 -0.25019264 0.4048202
0.030100536 0.064415969 0.07 0 -0.25019264 0.4048202
0.030811438 0.06442906 0.07 0 -0.25019264 0.4048202
0.031522527 0.064442456 0.07 0 -0.25019264 0.4048202
0.032233804 0.064456157 0.07 0 -0.25019264 0.4048202
0.032945279 0.064470164 0.07 0 -0.25019264 0.4048202
0.033656951 0.064484484 0.07 0 -0.25019264 0.4048202
0.034368824 0.06449911 0.07 0 -0.25019264 0.4048202
0.035926212 0.072097145 0.061932251 0 -0.25019264 0.4048202
0.035793204 0.064529292 0.07 0 -0.25019264 0.4048202
0.036505714 0.064544842 0.07 0 -0.25019264 0.4048202
0.037218444 0.064560704 0.07 0 -0.25019264 0.4048202
0.037931401 0.064576872 0.07 0 -0.25019264 0.4048202
0.038644586 0.064593352 0.07 0 -0.25019264 0.4048202
0.039358005 0.064610139 0.07 0 -0.25019264 0.4048202
0.00035307658 0.063153714 0.07 0 -0.25019264 0.4048202
0.0010592319 0.063154019 0.07 0 -0.25019264 0.4048202
0.0017653935 0.063154615 0.07 0 -0.25019264 0.4048202
0.0024715657 0.063155517 0.07 0 -0.25019264 0.4048202
0.0031777527 0.063156717 0.07 0 -0.25019264 0.4048202
0.0038839588 0.063158214 0.07 0 -0.25019264 0.4048202
0.0047324826 0.072873846 0.059620678 0 -0.25019264 0.4048202
0.005296445 0.063162111 0.07 0 -0.25019264 0.4048202
0.0060027335 0.063164517 0.07 0 -0.25019264 0.4048202
0.0067090578 0.063167214 0.07 0 -0.25019264 0.4048202
0.0074154222 0.06317021 0.07 0 -0.25019264 0.4048202
0.0081218313 0.06317351 0.07 0 -0.25019264 0.4048202
0.0088282889 0.063177116 0.07 0 -0.25019264 0.4048202
0.0095347995 0.063181013 0.07 0 -0.25019264 0.4048202
0.010241367 0.063185215 0.07 0 -0.25019264 0.4048202
0.010947997 0.063189715 0.07 0 -0.25019264 0.4048202
0.011654691 0.063194513 0.07 0 -0.25019264 0.4048202
0.012361456 0.063199617 0.07 0 -0.25019264 0.4048202
0.013068294 0.063205019 0.07 0 -0.25019264 0.4048202
0.013775211 0.063210726 0.07 0 -0.25019264 0.4048202
0.01448221 0.063216724 0.07 0 -0.25019264 0.4048202
0.015189297 0.063223034 0.07 0 -0.25019264 0.4048202
0.015896473 0.063229635 0.07 0 -0.25019264 0.4048202
0.016603746 0.063236542 0.07 0 -0.25019264 0.4048202
0.017311119 0.063243747 0.07 0 -0.25019264 0.4048202
0.018018594 0.063251257 0.07 0 -0.25019264 0.4048202
0.018726178 0.063259065 0.07 0 -0.25019264 0.4048202
0.019433875 0.063267179 0.07 0 -0.25019264 0.4048202
0.020141687 0.063275591 0.07 0 -0.25019264 0.4048202
0.020849621 0.063284308 0.07 0 -0.25019264 0.4048202
0.021557681 0.063293323 0.07 0 -0.25019264 0.4048202
0.022265868 0.063302644 0.07 0 -0.25019264 0.4048202
0.024162833 0.079532422 0.052677024 0 -0.25019264 0.4048202
0.023682652 0.063322186 0.07 0 -0.25019264 0.4048202
0.024391254 0.063332409 0.07 0 -0.25019264 0.4048202
0.025100002 0.063342936 0.07 0 -0.25019264 0.4048202
0.025808902 0.063353769 0.07 0 -0.25019264 0.4048202
0.026517957 0.063364901 0.07 0 -0.25019264 0.4048202
0.027227171 0.063376337 0.07 0 -0.25019264 0.4048202
0.02793655 0.063388072 0.07 0 -0.25019264 0.4048202
0.028646095 0.063400112 0.07 0 -0.25019264 0.4048202
0.030619945 0.07691706 0.055581827 0 -0.25019264 0.4048202
0.030065708 0.063425109 0.07 0 -0.25019264 0.4048202
0.030775784 0.063438065 0.07 0 -0.25019264 0.4048202
0.031486046 0.06345132 0.07 0 -0.25019264 0.4048202
0.033364955 0.074847974 0.057848886 0 -0.25019264 0.4048202
0.03290714 0.063478746 0.07 0 -0.25019264 0.4048202
0.033617985 0.063492917 0.07 0 -0.25019264 0.4048202
0.034329027 0.063507393 0.07 0 -0.25019264 0.4048202
0.035040282 0.063522175 0.07 0 -0.25019264 0.4048202
0.035751745 0.063537255 0.07 0 -0.25019264 0.4048202
0.036463425 0.063552648 0.07 0 -0.25019264 0.4048202
0.037175324 0.063568346 0.07 0 -0.25019264 0.4048202
0.037887447 0.063584343 0.07 0 -0.25019264 0.4048202
0.0385998 0.063600652 0.07 0 -0.25019264 0.4048202
0.039312385 0.063617267 0.07 0 -0.25019264 0.4048202
0.00035266983 0.062168594 0.07 0 -0.25019264 0.4048202
0.0010580115 0.062168892 0.07 0 -0.25019264 0.4048202
0.0017633596 0.062169485 0.07 0 -0.25019264 0.4048202
0.0024687182 0.062170375 0.07 0 -0.25019264 0.4048202
0.0031740917 0.062171564 0.07 0 -0.25019264 0.4048202
0.003879484 0.062173046 0.07 0 -0.25019264 0.4048202
0.0045848996 0.062174827 0.07 0 -0.25019264 0.4048202
0.0052903425 0.062176906 0.07 0 -0.25019264 0.4048202
0.005995817 0.062179279 0.07 0 -0.25019264 0.4048202
0.0069800615 0.075174801 0.05607355 0 -0.25019264 0.4048202
0.0074068783 0.062184919 0.07 0 -0.25019264 0.4048202
0.0081124725 0.062188186 0.07 0 -0.25019264 0.4048202
0.008818116 0.062191747 0.07 0 -0.25019264 0.4048202
0.0095238127 0.062195607 0.07 0 -0.25019264 0.4048202
0.010229565 0.062199764 0.07 0 -0.25019264 0.4048202
0.010935379 0.062204216 0.07 0 -0.25019264 0.4048202
0.011641259 0.062208969 0.07 0 -0.25019264 0.4048202
0.012347208 0.062214017 0.07 0 -0.25019264 0.4048202
0.013053231 0.062219363 0.07 0 -0.25019264 0.4048202
0.013759333 0.062225007 0.07 0 -0.25019264 0.4048202
0.014465516 0.062230948 0.07 0 -0.25019264 0.4048202
0.015171786 0.062237188 0.07 0 -0.25019264 0.4048202
0.015878147 0.062243722 0.07 0 -0.25019264 0.4048202
0.016584603 0.062250558 0.07 0 -0.25019264 0.4048202
0.018267494 0.079900019 0.051094566 0 -0.25019264 0.4048202
0.017997816 0.06226512 0.07 0 -0.25019264 0.4048202
0.018704584 0.06227285 0.07 0 -0.25019264 0.4048202
0.02051135 0.079986162 0.051028512 0 -0.25019264 0.4048202
0.020118456 0.062289201 0.07 0 -0.25019264 0.4048202
0.021996735 0.079871275 0.051170796 0 -0.25019264 0.4048202
0.021532813 0.062306747 0.07 0 -0.25019264 0.4048202
0.022240182 0.062315971 0.07 0 -0.25019264 0.4048202
0.022947684 0.062325489 0.07 0 -0.25019264 0.4048202
0.023655323 0.062335309 0.07 0 -0.25019264 0.4048202
0.025674002 0.079162031 0.05198447 0 -0.25019264 0.4048202
0.025071034 0.062355846 0.07 0 -0.25019264 0.4048202
0.025779113 0.062366564 0.07 0 -0.25019264 0.4048202
0.026487347 0.06237758 0.07 0 -0.25019264 0.4048202
0.027195739 0.062388897 0.07 0 -0.25019264 0.4048202
0.027904294 0.062400512 0.07 0 -0.25019264 0.4048202
0.028613016 0.06241243 0.07 0 -0.25019264 0.4048202
0.029321911 0.062424645 0.07 0 -0.25019264 0.4048202
0.030030983 0.062437166 0.07 0 -0.25019264 0.4048202
0.030740233 0.062449981 0.07 0 -0.25019264 0.4048202
0.031449668 0.062463101 0.07 0 -0.25019264 0.4048202
0.032159295 0.062476519 0.07 0 -0.25019264 0.4048202
0.032869112 0.062490243 0.07 0 -0.25019264 0.4048202
0.03357913 0.062504262 0.07 0 -0.25019264 0.4048202
0.034289349 0.062518589 0.07 0 -0.25019264 0.4048202
0.034999773 0.062533215 0.07 0 -0.25019264 0.4048202
0.035710409 0.062548146 0.07 0 -0.25019264 0.4048202
0.036421258 0.062563375 0.07 0 -0.25019264 0.4048202
0.037132327 0.062578909 0.07 0 -0.25019264 0.4048202
0.037843622 0.062594742 0.07 0 -0.25019264 0.4048202
0.038555145 0.06261088 0.07 0 -0.25019264 0.4048202
0.039266899 0.062627323 0.07 0 -0.25019264 0.4048202
0.00035226427 0.061186355 0.07 0 -0.25019264 0.4048202
0.0010567949 0.061186649 0.07 0 -0.25019264 0.4048202
0.0017613318 0.061187234 0.07 0 -0.25019264 0.4048202
0.0024658793 0.061188117 0.07 0 -0.25019264 0.4048202
0.0031704414 0.06118929 0.07 0 -0.25019264 0.4048202
0.0038750225 0.061190758 0.07 0 -0.25019264 0.4048202
0.0045796265 0.06119252 0.07 0 -0.25019264 0.4048202
0.0052842582 0.061194576 0.07 0 -0.25019264 0.4048202
0.005988921 0.061196927 0.07 0 -0.25019264 0.4048202
0.0066936202 0.061199572 0.07 0 -0.25019264 0.4048202
0.007398359 0.061202507 0.07 0 -0.25019264 0.4048202
0.0081031416 0.061205741 0.07 0 -0.25019264 0.4048202
0.008807973 0.061209265 0.07 0 -0.25019264 0.4048202
0.0095128566 0.061213084 0.07 0 -0.25019264 0.4048202
0.010217798 0.061217196 0.07 0 -0.25019264 0.4048202
0.010922799 0.061221603 0.07 0 -0.25019264 0.4048202
0.011627866 0.061226305 0.07 0 -0.25019264 0.4048202
0.012333003 0.061231304 0.07 0 -0.25019264 0.4048202
0.013038212 0.061236594 0.07 0 -0.25019264 0.4048202
0.0137435 0.061242178 0.07 0 -0.25019264 0.4048202
0.014448871 0.061248057 0.07 0 -0.25019264 0.4048202
0.015154327 0.061254229 0.07 0 -0.25019264 0.4048202
0.015859874 0.061260697 0.07 0 -0.25019264 0.4048202
0.016565515 0.061267462 0.07 0 -0.25019264 0.4048202
0.017271256 0.061274517 0.07 0 -0.25019264 0.4048202
0.0179771 0.061281871 0.07 0 -0.25019264 0.4048202
0.018683052 0.061289519 0.07 0 -0.25019264 0.4048202
0.019389115 0.061297461 0.07 0 -0.25019264 0.4048202
0.020095294 0.061305702 0.07 0 -0.25019264 0.4048202
0.020801593 0.061314236 0.07 0 -0.25019264 0.4048202
0.022782739 0.079785764 0.050156102 0 -0.25019264 0.4048202
0.023522463 0.079673365 0.050287299 0 -0.25019264 0.4048202
0.022921255 0.06134161 0.07 0 -0.25019264 0.4048202
0.024993107 0.079349689 0.050656937 0 -0.25019264 0.4048202
0.024335042 0.061361339 0.07 0 -0.25019264 0.4048202
0.025042152 0.061371647 0.07 0 -0.25019264 0.4048202
0.025749411 0.061382253 0.07 0 -0.25019264 0.4048202
0.026456825 0.061393153 0.07 0 -0.25019264 0.4048202
0.028612886 0.078019649 0.052146371 0 -0.25019264 0.4048202
0.027872132 0.061415847 0.07 0 -0.25019264 0.4048202
0.028580036 0.061427638 0.07 0 -0.25019264 0.4048202
0.029288109 0.06143973 0.07 0 -0.25019264 0.4048202
0.029996358 0.061452117 0.07 0 -0.25019264 0.4048202
0.030704787 0.061464798 0.07 0 -0.25019264 0.4048202
0.031413402 0.06147778 0.07 0 -0.25019264 0.4048202
0.032122202 0.061491061 0.07 0 -0.25019264 0.4048202
0.032831199 0.06150464 0.07 0 -0.25019264 0.4048202
0.03354039 0.061518516 0.07 0 -0.25019264 0.4048202
0.034249783 0.061532687 0.07 0 -0.25019264 0.4048202
0.034959383 0.061547164 0.07 0 -0.25019264 0.4048202
0.035669193 0.061561935 0.07 0 -0.25019264 0.4048202
0.036379218 0.061577007 0.07 0 -0.25019264 0.4048202
0.03708946 0.061592378 0.07 0 -0.25019264 0.4048202
0.037799925 0.061608046 0.07 0 -0.25019264 0.4048202
0.038510617 0.061624017 0.07 0 -0.25019264 0.4048202
0.039221544 0.061640285 0.07 0 -0.25019264 0.4048202
0.00035185987 0.06020698 0.07 0 -0.25019264 0.4048202
0.0010555817 0.06020727 0.07 0 -0.25019264 0.4048202
0.0017593098 0.060207851 0.07 0 -0.25019264 0.4048202
0.0024630483 0.060208723 0.07 0 -0.25019264 0.4048202
0.0031668018 0.060209885 0.07 0 -0.25019264 0.4048202
0.0038705738 0.060211338 0.07 0 -0.25019264 0.4048202
0.0045743692 0.060213082 0.07 0 -0.25019264 0.4048202
0.0052781915 0.060215116 0.07 0 -0.25019264 0.4048202
0.0059820455 0.06021744 0.07 0 -0.25019264 0.4048202
0.006685935 0.060220059 0.07 0 -0.25019264 0.4048202
0.0073898644 0.060222965 0.07 0 -0.25019264 0.4048202
0.0080938376 0.060226161 0.07 0 -0.25019264 0.4048202
0.0087978598 0.060229648 0.07 0 -0.25019264 0.4048202
0.0095019331 0.060233429 0.07 0 -0.25019264 0.4048202
0.010206064 0.060237497 0.07 0 -0.25019264 0.4048202
0.010910256 0.060241859 0.07 0 -0.25019264 0.4048202
0.011614513 0.060246512 0.07 0 -0.25019264 0.4048202
0.012318838 0.060251456 0.07 0 -0.25019264 0.4048202
0.013023238 0.06025669 0.07 0 -0.25019264 0.4048202
0.013727715 0.060262214 0.07 0 -0.25019264 0.4048202
0.014432274 0.060268033 0.07 0 -0.25019264 0.4048202
0.015136919 0.060274143 0.07 0 -0.25019264 0.4048202
0.015841654 0.060280543 0.07 0 -0.25019264 0.4048202
0.016546484 0.060287233 0.07 0 -0.25019264 0.4048202
0.017251413 0.060294218 0.07 0 -0.25019264 0.4048202
0.017956443 0.060301494 0.07 0 -0.25019264 0.4048202
0.018661583 0.06030906 0.07 0 -0.25019264 0.4048202
0.019366832 0.06031692 0.07 0 -0.25019264 0.4048202
0.020072199 0.060325071 0.07 0 -0.25019264 0.4048202
0.020777684 0.060333516 0.07 0 -0.25019264 0.4048202
0.021483295 0.060342252 0.07 0 -0.25019264 0.4048202
0.022189032 0.060351282 0.07 0 -0.25019264 0.4048202
0.022894902 0.060360603 0.07 0 -0.25019264 0.4048202
0.02360091 0.060370218 0.07 0 -0.25019264 0.4048202
0.024307059 0.060380124 0.07 0 -0.25019264 0.4048202
0.025013352 0.060390323 0.07 0 -0.25019264 0.4048202
0.025719795 0.060400818 0.07 0 -0.25019264 0.4048202
0.026426394 0.060411606 0.07 0 -0.25019264 0.4048202
0.027133148 0.060422685 0.07 0 -0.25019264 0.4048202
0.027840067 0.060434058 0.07 0 -0.25019264 0.4048202
0.028547151 0.060445726 0.07 0 -0.25019264 0.4048202
0.029254405 0.060457692 0.07 0 -0.25019264 0.4048202
0.029961836 0.060469948 0.07 0 -0.25019264 0.4048202
0.030669445 0.060482498 0.07 0 -0.25019264 0.4048202
0.031377237 0.060495343 0.07 0 -0.25019264 0.4048202
0.032085221 0.060508482 0.07 0 -0.25019264 0.4048202
0.032793395 0.060521916 0.07 0 -0.25019264 0.4048202
0.033501763 0.060535647 0.07 0 -0.25019264 0.4048202
0.034210335 0.060549673 0.07 0 -0.25019264 0.4048202
0.034919113 0.060563993 0.07 0 -0.25019264 0.4048202
0.035628099 0.060578611 0.07 0 -0.25019264 0.4048202
0.036337297 0.060593523 0.07 0 -0.25019264 0.4048202
0.038007524 0.068669356 0.061316445 0 -0.25019264 0.4048202
0.038572345 0.067341588 0.062763892 0 -0.25019264 0.4048202
0.038466223 0.060640037 0.07 0 -0.25019264 0.4048202
0.039176323 0.060656138 0.07 0 -0.25019264 0.4048202
0.039940715 0.061093844 0.069546223 0 -0.25019264 0.4048202
0.00035145663 0.059230454 0.07 0 -0.25019264 0.4048202
0.0010543721 0.059230741 0.07 0 -0.25019264 0.4048202
0.0017572937 0.059231315 0.07 0 -0.25019264 0.4048202
0.0024602257 0.059232179 0.07 0 -0.25019264 0.4048202
0.0031631726 0.05923333 0.07 0 -0.25019264 0.4048202
0.0038661382 0.059234768 0.07 0 -0.25019264 0.4048202
0.0045691268 0.059236493 0.07 0 -0.25019264 0.4048202
0.0052721426 0.059238505 0.07 0 -0.25019264 0.4048202
0.0059751896 0.059240807 0.07 0 -0.25019264 0.4048202
0.006678272 0.059243392 0.07 0 -0.25019264 0.4048202
0.0073813945 0.059246268 0.07 0 -0.25019264 0.4048202
0.0080845607 0.059249431 0.07 0 -0.25019264 0.4048202
0.0087877754 0.059252884 0.07 0 -0.25019264 0.4048202
0.0094910422 0.059256624 0.07 0 -0.25019264 0.4048202
0.010194365 0.059260651 0.07 0 -0.25019264 0.4048202
0.010897749 0.059264965 0.07 0 -0.25019264 0.4048202
0.011601198 0.05926957 0.07 0 -0.25019264 0.4048202
0.012304716 0.059274457 0.07 0 -0.25019264 0.4048202
0.013008307 0.059279639 0.07 0 -0.25019264 0.4048202
0.013711975 0.059285104 0.07 0 -0.25019264 0.4048202
0.014415725 0.05929086 0.07 0 -0.25019264 0.4048202
0.015119561 0.059296906 0.07 0 -0.25019264 0.4048202
0.015823487 0.059303239 0.07 0 -0.25019264 0.4048202
0.016527507 0.059309859 0.07 0 -0.25019264 0.4048202
0.017231626 0.059316769 0.07 0 -0.25019264 0.4048202
0.017935848 0.059323967 0.07 0 -0.25019264 0.4048202
0.018640175 0.059331454 0.07 0 -0.25019264 0.4048202
0.019344615 0.059339233 0.07 0 -0.25019264 0.4048202
0.02004917 0.059347298 0.07 0 -0.25019264 0.4048202
0.020753846 0.05935565 0.07 0 -0.25019264 0.4048202
0.021458643 0.059364296 0.07 0 -0.25019264 0.4048202
0.022163568 0.05937323 0.07 0 -0.25019264 0.4048202
0.022868628 0.059382454 0.07 0 -0.25019264 0.4048202
0.023573821 0.059391964 0.07 0 -0.25019264 0.4048202
0.024279157 0.059401765 0.07 0 -0.25019264 0.4048202
0.024984637 0.059411861 0.07 0 -0.25019264 0.4048202
0.025690267 0.059422243 0.07 0 -0.25019264 0.4048202
0.026396049 0.059432916 0.07 0 -0.25019264 0.4048202
0.02710199 0.05944388 0.07 0 -0.25019264 0.4048202
0.027808093 0.059455134 0.07 0 -0.25019264 0.4048202
0.028514361 0.059466679 0.07 0 -0.25019264 0.4048202
0.029220801 0.059478514 0.07 0 -0.25019264 0.4048202
0.029927414 0.05949064 0.07 0 -0.25019264 0.4048202
0.030634206 0.059503056 0.07 0 -0.25019264 0.4048202
0.03134118 0.059515767 0.07 0 -0.25019264 0.4048202
0.032048345 0.059528768 0.07 0 -0.25019264 0.4048202
0.032755699 0.05954206 0.07 0 -0.25019264 0.4048202
0.033463251 0.059555646 0.07 0 -0.25019264 0.4048202
0.034171004 0.059569523 0.07 0 -0.25019264 0.4048202
0.034878958 0.05958369 0.07 0 -0.25019264 0.4048202
0.035587125 0.059598152 0.07 0 -0.25019264 0.4048202
0.036295503 0.059612907 0.07 0 -0.25019264 0.4048202
0.037004098 0.059627954 0.07 0 -0.25019264 0.4048202
0.037712917 0.059643298 0.07 0 -0.25019264 0.4048202
0.038421959 0.05965893 0.07 0 -0.25019264 0.4048202
0.039131235 0.059674859 0.07 0 -0.25019264 0.4048202
0.039840743 0.059691083 0.07 0 -0.25019264 0.4048202
0.00035105459 0.05825676 0.07 0 -0.25019264 0.4048202
0.0010531659 0.058257043 0.07 0 -0.25019264 0.4048202
0.0017552834 0.058257613 0.07 0 -0.25019264 0.4048202
0.0024574115 0.058258466 0.07 0 -0.25019264 0.4048202
0.003159554 0.058259603 0.07 0 -0.25019264 0.4048202
0.0038617153 0.058261026 0.07 0 -0.25019264 0.4048202
0.0045638997 0.058262732 0.07 0 -0.25019264 0.4048202
0.0052661109 0.058264725 0.07 0 -0.25019264 0.4048202
0.0059683537 0.058267001 0.07 0 -0.25019264 0.4048202
0.0066706315 0.05826956 0.07 0 -0.25019264 0.4048202
0.0073729493 0.058272406 0.07 0 -0.25019264 0.4048202
0.0080753108 0.058275536 0.07 0 -0.25019264 0.4048202
0.0087777199 0.058278952 0.07 0 -0.25019264 0.4048202
0.0094801821 0.058282651 0.07 0 -0.25019264 0.4048202
0.0101827 0.058286633 0.07 0 -0.25019264 0.4048202
0.010885279 0.058290903 0.07 0 -0.25019264 0.4048202
0.011587922 0.058295459 0.07 0 -0.25019264 0.4048202
0.012290633 0.058300298 0.07 0 -0.25019264 0.4048202
0.012993419 0.05830542 0.07 0 -0.25019264 0.4048202
0.013696281 0.058310829 0.07 0 -0.25019264 0.4048202
0.014399225 0.058316525 0.07 0 -0.25019264 0.4048202
0.015102254 0.058322504 0.07 0 -0.25019264 0.4048202
0.015805373 0.05832877 0.07 0 -0.25019264 0.4048202
0.016508587 0.058335319 0.07 0 -0.25019264 0.4048202
0.017211897 0.058342155 0.07 0 -0.25019264 0.4048202
0.017915312 0.058349278 0.07 0 -0.25019264 0.4048202
0.018618831 0.058356687 0.07 0 -0.25019264 0.4048202
0.019322462 0.05836438 0.07 0 -0.25019264 0.4048202
0.020026209 0.05837236 0.07 0 -0.25019264 0.4048202
0.020730074 0.058380626 0.07 0 -0.25019264 0.4048202
0.021434063 0.058389176 0.07 0 -0.25019264 0.4048202
0.02213818 0.058398016 0.07 0 -0.25019264 0.4048202
0.022842428 0.058407139 0.07 0 -0.25019264 0.4048202
0.023546813 0.058416553 0.07 0 -0.25019264 0.4048202
0.024251336 0.05842625 0.07 0 -0.25019264 0.4048202
0.024956007 0.058436234 0.07 0 -0.25019264 0.4048202
0.025660824 0.058446508 0.07 0 -0.25019264 0.4048202
0.026365794 0.058457065 0.07 0 -0.25019264 0.4048202
0.027070923 0.058467913 0.07 0 -0.25019264 0.4048202
0.027776212 0.058479048 0.07 0 -0.25019264 0.4048202
0.028481668 0.05849047 0.07 0 -0.25019264 0.4048202
0.029187292 0.058502179 0.07 0 -0.25019264 0.4048202
0.029893091 0.058514178 0.07 0 -0.25019264 0.4048202
0.030599069 0.058526464 0.07 0 -0.25019264 0.4048202
0.031305231 0.058539037 0.07 0 -0.25019264 0.4048202
0.032011576 0.0585519 0.07 0 -0.25019264 0.4048202
0.032718115 0.05856505 0.07 0 -0.25019264 0.4048202
0.033424851 0.058578491 0.07 0 -0.25019264 0.4048202
0.034131784 0.058592219 0.07 0 -0.25019264 0.4048202
0.034838922 0.058606237 0.07 0 -0.25019264 0.4048202
0.035546269 0.058620546 0.07 0 -0.25019264 0.4048202
0.036253829 0.058635145 0.07 0 -0.25019264 0.4048202
0.036961604 0.058650032 0.07 0 -0.25019264 0.4048202
0.037669599 0.058665209 0.07 0 -0.25019264 0.4048202
0.038377825 0.05868068 0.07 0 -0.25019264 0.4048202
0.039086275 0.058696438 0.07 0 -0.25019264 0.4048202
0.039794963 0.058712486 0.07 0 -0.25019264 0.4048202
0.00035065372 0.057285879 0.07 0 -0.25019264 0.4048202
0.0010519632 0.057286158 0.07 0 -0.25019264 0.4048202
0.001753279 0.057286721 0.07 0 -0.25019264 0.4048202
0.0024546052 0.057287566 0.07 0 -0.25019264 0.4048202
0.0031559458 0.057288691 0.07 0 -0.25019264 0.4048202
0.0038573053 0.0572901 0.07 0 -0.25019264 0.4048202
0.0045586876 0.057291787 0.07 0 -0.25019264 0.4048202
0.0052600969 0.057293758 0.07 0 -0.25019264 0.4048202
0.0059615374 0.057296008 0.07 0 -0.25019264 0.4048202
0.0066630132 0.057298541 0.07 0 -0.25019264 0.4048202
0.0073645287 0.057301357 0.07 0 -0.25019264 0.4048202
0.008066088 0.057304453 0.07 0 -0.25019264 0.4048202
0.0087676942 0.057307832 0.07 0 -0.25019264 0.4048202
0.0094693536 0.05731149 0.07 0 -0.25019264 0.4048202
0.010171069 0.057315435 0.07 0 -0.25019264 0.4048202
0.010872844 0.057319656 0.07 0 -0.25019264 0.4048202
0.011574684 0.057324164 0.07 0 -0.25019264 0.4048202
0.012276593 0.057328951 0.07 0 -0.25019264 0.4048202
0.012978574 0.057334021 0.07 0 -0.25019264 0.4048202
0.013680632 0.05733937 0.07 0 -0.25019264 0.4048202
0.014382772 0.057345003 0.07 0 -0.25019264 0.4048202
0.015084997 0.057350919 0.07 0 -0.25019264 0.4048202
0.015787311 0.057357118 0.07 0 -0.25019264 0.4048202
0.01648972 0.0573636 0.07 0 -0.25019264 0.4048202
0.017192226 0.057370361 0.07 0 -0.25019264 0.4048202
0.017894834 0.057377409 0.07 0 -0.25019264 0.4048202
0.018597549 0.057384737 0.07 0 -0.25019264 0.4048202
0.019300375 0.057392348 0.07 0 -0.25019264 0.4048202
0.020003315 0.057400241 0.07 0 -0.25019264 0.4048202
0.020706372 0.057408419 0.07 0 -0.25019264 0.4048202
0.021409554 0.057416879 0.07 0 -0.25019264 0.4048202
0.022112863 0.057425626 0.07 0 -0.25019264 0.4048202
0.022816304 0.057434652 0.07 0 -0.25019264 0.4048202
0.023519881 0.057443962 0.07 0 -0.25019264 0.4048202
0.024223598 0.057453558 0.07 0 -0.25019264 0.4048202
0.024927458 0.057463434 0.07 0 -0.25019264 0.4048202
0.025631465 0.057473596 0.07 0 -0.25019264 0.4048202
0.026335627 0.057484042 0.07 0 -0.25019264 0.4048202
0.027039945 0.057494774 0.07 0 -0.25019264 0.4048202
0.027744424 0.05750579 0.07 0 -0.25019264 0.4048202
0.028449068 0.057517089 0.07 0 -0.25019264 0.4048202
0.029153882 0.057528671 0.07 0 -0.25019264 0.4048202
0.029858869 0.057540543 0.07 0 -0.25019264 0.4048202
0.030564034 0.057552695 0.07 0 -0.25019264 0.4048202
0.031269383 0.057565134 0.07 0 -0.25019264 0.4048202
0.031974915 0.05757786 0.07 0 -0.25019264 0.4048202
0.032680642 0.057590872 0.07 0 -0.25019264 0.4048202
0.033386558 0.057604168 0.07 0 -0.25019264 0.4048202
0.03409268 0.05761775 0.07 0 -0.25019264 0.4048202
0.034799002 0.057631619 0.07 0 -0.25019264 0.4048202
0.035505529 0.057645775 0.07 0 -0.25019264 0.4048202
0.036212273 0.057660215 0.07 0 -0.25019264 0.4048202
0.036919232 0.057674944 0.07 0 -0.25019264 0.4048202
0.037626412 0.057689957 0.07 0 -0.25019264 0.4048202
0.038333815 0.057705261 0.07 0 -0.25019264 0.4048202
0.039041448 0.057720851 0.07 0 -0.25019264 0.4048202
0.039749317 0.057736728 0.07 0 -0.25019264 0.4048202
0.00035036576 0.056415621 0.069893137 0 -0.25019264 0.4048202
0.001050764 0.056318071 0.07 0 -0.25019264 0.4048202
0.0017512803 0.05631863 0.07 0 -0.25019264 0.4048202
0.002451807 0.056319464 0.07 0 -0.25019264 0.4048202
0.0031523481 0.056320578 0.07 0 -0.25019264 0.4048202
0.0038529078 0.056321971 0.07 0 -0.25019264 0.4048202
0.0045534903 0.05632364 0.07 0 -0.25019264 0.4048202
0.0052541001 0.056325588 0.07 0 -0.25019264 0.4048202
0.0059547406 0.056327816 0.07 0 -0.25019264 0.4048202
0.0066554169 0.056330323 0.07 0 -0.25019264 0.4048202
0.0073561319 0.056333106 0.07 0 -0.25019264 0.4048202
0.0080568912 0.056336172 0.07 0 -0.25019264 0.4048202
0.0087576974 0.056339514 0.07 0 -0.25019264 0.4048202
0.0094585558 0.056343131 0.07 0 -0.25019264 0.4048202
0.01015947 0.056347031 0.07 0 -0.25019264 0.4048202
0.010860445 0.056351211 0.07 0 -0.25019264 0.4048202
0.011561484 0.056355666 0.07 0 -0.25019264 0.4048202
0.012262592 0.056360401 0.07 0 -0.25019264 0.4048202
0.012963772 0.056365415 0.07 0 -0.25019264 0.4048202
0.013665029 0.056370713 0.07 0 -0.25019264 0.4048202
0.014366367 0.056376286 0.07 0 -0.25019264 0.4048202
0.01506779 0.056382135 0.07 0 -0.25019264 0.4048202
0.015769303 0.056388266 0.07 0 -0.25019264 0.4048202
0.016470907 0.056394678 0.07 0 -0.25019264 0.4048202
0.017172612 0.056401368 0.07 0 -0.25019264 0.4048202
0.017874416 0.056408338 0.07 0 -0.25019264 0.4048202
0.018576328 0.056415588 0.07 0 -0.25019264 0.4048202
0.019278349 0.056423116 0.07 0 -0.25019264 0.4048202
0.019980486 0.056430928 0.07 0 -0.25019264 0.4048202
0.020682739 0.056439016 0.07 0 -0.25019264 0.4048202
0.021385117 0.056447387 0.07 0 -0.25019264 0.4048202
0.022087621 0.056456037 0.07 0 -0.25019264 0.4048202
0.022790257 0.056464966 0.07 0 -0.25019264 0.4048202
0.023493027 0.056474175 0.07 0 -0.25019264 0.4048202
0.024195937 0.056483667 0.07 0 -0.25019264 0.4048202
0.024898991 0.056493439 0.07 0 -0.25019264 0.4048202
0.025602192 0.056503493 0.07 0 -0.25019264 0.4048202
0.026305547 0.056513827 0.07 0 -0.25019264 0.4048202
0.027009057 0.056524441 0.07 0 -0.25019264 0.4048202
0.027712727 0.056535337 0.07 0 -0.25019264 0.4048202
0.028416563 0.056546517 0.07 0 -0.25019264 0.4048202
0.029120566 0.056557976 0.07 0 -0.25019264 0.4048202
0.029824745 0.056569718 0.07 0 -0.25019264 0.4048202
0.0305291 0.056581743 0.07 0 -0.25019264 0.4048202
0.031233637 0.056594048 0.07 0 -0.25019264 0.4048202
0.031938359 0.056606635 0.07 0 -0.25019264 0.4048202
0.032643273 0.056619506 0.07 0 -0.25019264 0.4048202
0.033348382 0.05663266 0.07 0 -0.25019264 0.4048202
0.034053687 0.056646094 0.07 0 -0.25019264 0.4048202
0.034759194 0.056659814 0.07 0 -0.25019264 0.4048202
0.035464913 0.056673817 0.07 0 -0.25019264 0.4048202
0.03617084 0.056688104 0.07 0 -0.25019264 0.4048202
0.036876984 0.056702673 0.07 0 -0.25019264 0.4048202
0.037583347 0.056717526 0.07 0 -0.25019264 0.4048202
0.038289934 0.056732666 0.07 0 -0.25019264 0.4048202
0.038996752 0.056748085 0.07 0 -0.25019264 0.4048202
0.039703801 0.056763794 0.07 0 -0.25019264 0.4048202
0.00035106781 0.056411341 0.068839699 0 -0.25019264 0.4048202
0.0010495683 0.055352766 0.07 0 -0.25019264 0.4048202
0.0017492874 0.055353317 0.07 0 -0.25019264 0.4048202
0.0024490168 0.055354141 0.07 0 -0.25019264 0.4048202
0.0031487606 0.055355243 0.07 0 -0.25019264 0.4048202
0.0038485231 0.055356622 0.07 0 -0.25019264 0.4048202
0.0045483084 0.055358272 0.07 0 -0.25019264 0.4048202
0.0052481205 0.055360202 0.07 0 -0.25019264 0.4048202
0.0059479638 0.055362403 0.07 0 -0.25019264 0.4048202
0.006647842 0.055364884 0.07 0 -0.25019264 0.4048202
0.0073477598 0.055367637 0.07 0 -0.25019264 0.4048202
0.0080477204 0.055370666 0.07 0 -0.25019264 0.4048202
0.0087477295 0.055373974 0.07 0 -0.25019264 0.4048202
0.0094477898 0.055377554 0.07 0 -0.25019264 0.4048202
0.010147906 0.05538141 0.07 0 -0.25019264 0.4048202
0.010848082 0.055385545 0.07 0 -0.25019264 0.4048202
0.011548323 0.055389952 0.07 0 -0.25019264 0.4048202
0.012248632 0.055394638 0.07 0 -0.25019264 0.4048202
0.012949012 0.055399597 0.07 0 -0.25019264 0.4048202
0.01364947 0.055404834 0.07 0 -0.25019264 0.4048202
0.014350008 0.055410348 0.07 0 -0.25019264 0.4048202
0.015050632 0.055416137 0.07 0 -0.25019264 0.4048202
0.015751345 0.055422202 0.07 0 -0.25019264 0.4048202
0.01645215 0.055428542 0.07 0 -0.25019264 0.4048202
0.017153053 0.055435162 0.07 0 -0.25019264 0.4048202
0.017854057 0.055442054 0.07 0 -0.25019264 0.4048202
0.018555168 0.055449225 0.07 0 -0.25019264 0.4048202
0.019256389 0.055456676 0.07 0 -0.25019264 0.4048202
0.019957723 0.055464398 0.07 0 -0.25019264 0.4048202
0.020659175 0.0554724 0.07 0 -0.25019264 0.4048202
0.021360749 0.055480681 0.07 0 -0.25019264 0.4048202
0.022062451 0.055489235 0.07 0 -0.25019264 0.4048202
0.022764284 0.055498071 0.07 0 -0.25019264 0.4048202
0.02346625 0.055507179 0.07 0 -0.25019264 0.4048202
0.024168357 0.055516571 0.07 0 -0.25019264 0.4048202
0.024870606 0.055526234 0.07 0 -0.25019264 0.4048202
0.025573004 0.055536181 0.07 0 -0.25019264 0.4048202
0.026275553 0.055546403 0.07 0 -0.25019264 0.4048202
0.026978256 0.055556901 0.07 0 -0.25019264 0.4048202
0.027681122 0.055567682 0.07 0 -0.25019264 0.4048202
0.028384151 0.055578738 0.07 0 -0.25019264 0.4048202
0.029087348 0.055590075 0.07 0 -0.25019264 0.4048202
0.02979072 0.055601686 0.07 0 -0.25019264 0.4048202
0.030494267 0.055613581 0.07 0 -0.25019264 0.4048202
0.031197995 0.055625752 0.07 0 -0.25019264 0.4048202
0.031901911 0.055638205 0.07 0 -0.25019264 0.4048202
0.032606013 0.055650935 0.07 0 -0.25019264 0.4048202
0.033310309 0.055663947 0.07 0 -0.25019264 0.4048202
0.034014806 0.055677239 0.07 0 -0.25019264 0.4048202
0.034719504 0.05569081 0.07 0 -0.25019264 0.4048202
0.035424408 0.055704661 0.07 0 -0.25019264 0.4048202
0.036129523 0.055718791 0.07 0 -0.25019264 0.4048202
0.036834855 0.055733204 0.07 0 -0.25019264 0.4048202
0.037540406 0.055747896 0.07 0 -0.25019264 0.4048202
0.038246181 0.055762868 0.07 0 -0.25019264 0.4048202
0.038952183 0.055778123 0.07 0 -0.25019264 0.4048202
0.00035177224 0.056407042 0.067782663 0 -0.25019264 0.4048202
0.001048376 0.054390222 0.07 0 -0.25019264 0.4048202
0.0017473001 0.054390766 0.07 0 -0.25019264 0.4048202
0.0024462347 0.054391585 0.07 0 -0.25019264 0.4048202
0.0031451834 0.054392673 0.07 0 -0.25019264 0.4048202
0.003844151 0.054394037 0.07 0 -0.25019264 0.4048202
0.004543141 0.054395668 0.07 0 -0.25019264 0.4048202
0.0052421582 0.054397576 0.07 0 -0.25019264 0.4048202
0.0059412061 0.054399755 0.07 0 -0.25019264 0.4048202
0.006640289 0.05440221 0.07 0 -0.25019264 0.4048202
0.0073394109 0.054404933 0.07 0 -0.25019264 0.4048202
0.0080385767 0.054407928 0.07 0 -0.25019264 0.4048202
0.0087377895 0.054411199 0.07 0 -0.25019264 0.4048202
0.0094370544 0.054414742 0.07 0 -0.25019264 0.4048202
0.010136374 0.054418556 0.07 0 -0.25019264 0.4048202
0.010835755 0.054422643 0.07 0 -0.25019264 0.4048202
0.011535198 0.054427005 0.07 0 -0.25019264 0.4048202
0.01223471 0.05443164 0.07 0 -0.25019264 0.4048202
0.012934295 0.054436546 0.07 0 -0.25019264 0.4048202
0.013633956 0.054441724 0.07 0 -0.25019264 0.4048202
0.014333697 0.054447178 0.07 0 -0.25019264 0.4048202
0.015033523 0.054452904 0.07 0 -0.25019264 0.4048202
0.015733438 0.054458901 0.07 0 -0.25019264 0.4048202
0.016433446 0.054465175 0.07 0 -0.25019264 0.4048202
0.017133551 0.05447172 0.07 0 -0.25019264 0.4048202
0.017833756 0.054478541 0.07 0 -0.25019264 0.4048202
0.018534068 0.054485634 0.07 0 -0.25019264 0.4048202
0.01923449 0.054492999 0.07 0 -0.25019264 0.4048202
0.019935025 0.054500639 0.07 0 -0.25019264 0.4048202
0.020635678 0.054508556 0.07 0 -0.25019264 0.4048202
0.021336451 0.054516744 0.07 0 -0.25019264 0.4048202
0.022037353 0.054525208 0.07 0 -0.25019264 0.4048202
0.022738384 0.054533944 0.07 0 -0.25019264 0.4048202
0.023439551 0.054542955 0.07 0 -0.25019264 0.4048202
0.024140855 0.054552242 0.07 0 -0.25019264 0.4048202
0.024842303 0.054561805 0.07 0 -0.25019264 0.4048202
0.025543898 0.05457164 0.07 0 -0.25019264 0.4048202
0.026245644 0.05458175 0.07 0 -0.25019264 0.4048202
0.026947545 0.054592136 0.07 0 -0.25019264 0.4048202
0.027649608 0.054602798 0.07 0 -0.25019264 0.4048202
0.028351832 0.054613732 0.07 0 -0.25019264 0.4048202
0.029054226 0.054624945 0.07 0 -0.25019264 0.4048202
0.029756792 0.054636434 0.07 0 -0.25019264 0.4048202
0.030459533 0.054648198 0.07 0 -0.25019264 0.4048202
0.031162456 0.054660238 0.07 0 -0.25019264 0.4048202
0.031865563 0.054672554 0.07 0 -0.25019264 0.4048202
0.032568861 0.054685146 0.07 0 -0.25019264 0.4048202
0.033272348 0.054698016 0.07 0 -0.25019264 0.4048202
0.033976037 0.054711159 0.07 0 -0.25019264 0.4048202
0.034679927 0.054724585 0.07 0 -0.25019264 0.4048202
0.035384022 0.054738283 0.07 0 -0.25019264 0.4048202
0.036088329 0.05475226 0.07 0 -0.25019264 0.4048202
0.036792848 0.054766517 0.07 0 -0.25019264 0.4048202
0.037497588 0.054781049 0.07 0 -0.25019264 0.4048202
0.03820255 0.054795861 0.07 0 -0.25019264 0.4048202
0.03890774 0.054810949 0.07 0 -0.25019264 0.4048202
0.00035247908 0.056402732 0.066721991 0 -0.25019264 0.4048202
0.0010478126 0.053611811 0.069799975 0 -0.25019264 0.4048202
0.0017453185 0.053430963 0.07 0 -0.25019264 0.4048202
0.0024434603 0.053431772 0.07 0 -0.25019264 0.4048202
0.0031416167 0.053432852 0.07 0 -0.25019264 0.4048202
0.0038397913 0.053434197 0.07 0 -0.25019264 0.4048202
0.0045379885 0.053435814 0.07 0 -0.25019264 0.4048202
0.0052362126 0.053437699 0.07 0 -0.25019264 0.4048202
0.0059344675 0.053439856 0.07 0 -0.25019264 0.4048202
0.0066327574 0.053442281 0.07 0 -0.25019264 0.4048202
0.0073310868 0.053444974 0.07 0 -0.25019264 0.4048202
0.008029459 0.053447939 0.07 0 -0.25019264 0.4048202
0.0087278783 0.053451173 0.07 0 -0.25019264 0.4048202
0.0094263488 0.053454675 0.07 0 -0.25019264 0.4048202
0.010124875 0.053458448 0.07 0 -0.25019264 0.4048202
0.010823462 0.053462494 0.07 0 -0.25019264 0.4048202
0.011522111 0.053466804 0.07 0 -0.25019264 0.4048202
0.01222083 0.05347139 0.07 0 -0.25019264 0.4048202
0.01291962 0.05347624 0.07 0 -0.25019264 0.4048202
0.013618486 0.053481363 0.07 0 -0.25019264 0.4048202
0.014317432 0.053486757 0.07 0 -0.25019264 0.4048202
0.015016464 0.053492419 0.07 0 -0.25019264 0.4048202
0.015715582 0.053498354 0.07 0 -0.25019264 0.4048202
0.016414795 0.053504556 0.07 0 -0.25019264 0.4048202
0.017114105 0.053511031 0.07 0 -0.25019264 0.4048202
0.017813513 0.053517777 0.07 0 -0.25019264 0.4048202
0.018513029 0.053524792 0.07 0 -0.25019264 0.4048202
0.019212654 0.053532079 0.07 0 -0.25019264 0.4048202
0.019912392 0.053539634 0.07 0 -0.25019264 0.4048202
0.020612247 0.053547464 0.07 0 -0.25019264 0.4048202
0.021312224 0.053555563 0.07 0 -0.25019264 0.4048202
0.022012327 0.053563934 0.07 0 -0.25019264 0.4048202
0.02271256 0.053572573 0.07 0 -0.25019264 0.4048202
0.023412928 0.053581487 0.07 0 -0.25019264 0.4048202
0.024113433 0.05359067 0.07 0 -0.25019264 0.4048202
0.02481408 0.053600129 0.07 0 -0.25019264 0.4048202
0.025514876 0.053609855 0.07 0 -0.25019264 0.4048202
0.026215822 0.053619854 0.07 0 -0.25019264 0.4048202
0.026916923 0.053630129 0.07 0 -0.25019264 0.4048202
0.027618183 0.053640671 0.07 0 -0.25019264 0.4048202
0.028319607 0.053651489 0.07 0 -0.25019264 0.4048202
0.029021198 0.05366258 0.07 0 -0.25019264 0.4048202
0.029722961 0.053673942 0.07 0 -0.25019264 0.4048202
0.030424898 0.053685576 0.07 0 -0.25019264 0.4048202
0.031127017 0.053697482 0.07 0 -0.25019264 0.4048202
0.03182932 0.053709663 0.07 0 -0.25019264 0.4048202
0.032531813 0.053722117 0.07 0 -0.25019264 0.4048202
0.033234499 0.053734846 0.07 0 -0.25019264 0.4048202
0.03393738 0.053747848 0.07 0 -0.25019264 0.4048202
0.034640465 0.053761125 0.07 0 -0.25019264 0.4048202
0.035343751 0.053774673 0.07 0 -0.25019264 0.4048202
0.03604725 0.053788498 0.07 0 -0.25019264 0.4048202
0.036750965 0.053802598 0.07 0 -0.25019264 0.4048202
0.037454896 0.05381697 0.07 0 -0.25019264 0.4048202
0.038159046 0.053831618 0.07 0 -0.25019264 0.4048202
0.038863428 0.053846542 0.07 0 -0.25019264 0.4048202
0.00035318837 0.056398403 0.065657675 0 -0.25019264 0.4048202
0.0010499177 0.053606529 0.068746448 0 -0.25019264 0.4048202
0.0017433426 0.052473892 0.07 0 -0.25019264 0.4048202
0.002440694 0.052474692 0.07 0 -0.25019264 0.4048202
0.0031380598 0.052475758 0.07 0 -0.25019264 0.4048202
0.0038354441 0.052477092 0.07 0 -0.25019264 0.4048202
0.0045328508 0.05247869 0.07 0 -0.25019264 0.4048202
0.0052302843 0.052480552 0.07 0 -0.25019264 0.4048202
0.0059277485 0.052482687 0.07 0 -0.25019264 0.4048202
0.0066252477 0.052485082 0.07 0 -0.25019264 0.4048202
0.0073227854 0.05248775 0.07 0 -0.25019264 0.4048202
0.0080203665 0.052490681 0.07 0 -0.25019264 0.4048202
0.0087179951 0.052493878 0.07 0 -0.25019264 0.4048202
0.009415675 0.052497342 0.07 0 -0.25019264 0.4048202
0.01011341 0.052501075 0.07 0 -0.25019264 0.4048202
0.010811204 0.052505072 0.07 0 -0.25019264 0.4048202
0.011509063 0.052509338 0.07 0 -0.25019264 0.4048202
0.012206988 0.052513871 0.07 0 -0.25019264 0.4048202
0.012904986 0.05251867 0.07 0 -0.25019264 0.4048202
0.01360306 0.052523736 0.07 0 -0.25019264 0.4048202
0.014301213 0.052529071 0.07 0 -0.25019264 0.4048202
0.014999452 0.05253467 0.07 0 -0.25019264 0.4048202
0.015697777 0.052540541 0.07 0 -0.25019264 0.4048202
0.016396197 0.052546676 0.07 0 -0.25019264 0.4048202
0.017094713 0.052553076 0.07 0 -0.25019264 0.4048202
0.017793329 0.052559748 0.07 0 -0.25019264 0.4048202
0.01849205 0.052566685 0.07 0 -0.25019264 0.4048202
0.01919088 0.052573893 0.07 0 -0.25019264 0.4048202
0.019889822 0.052581366 0.07 0 -0.25019264 0.4048202
0.020588882 0.052589107 0.07 0 -0.25019264 0.4048202
0.021288065 0.052597117 0.07 0 -0.25019264 0.4048202
0.021987371 0.052605394 0.07 0 -0.25019264 0.4048202
0.022686809 0.05261394 0.07 0 -0.25019264 0.4048202
0.02338638 0.052622758 0.07 0 -0.25019264 0.4048202
0.024086088 0.05263184 0.07 0 -0.25019264 0.4048202
0.02478594 0.052641191 0.07 0 -0.25019264 0.4048202
0.025485937 0.052650813 0.07 0 -0.25019264 0.4048202
0.026186084 0.052660704 0.07 0 -0.25019264 0.4048202
0.026886387 0.052670863 0.07 0 -0.25019264 0.4048202
0.027586848 0.05268129 0.07 0 -0.25019264 0.4048202
0.028287472 0.052691985 0.07 0 -0.25019264 0.4048202
0.028988263 0.052702952 0.07 0 -0.25019264 0.4048202
0.029689224 0.052714191 0.07 0 -0.25019264 0.4048202
0.030390363 0.052725695 0.07 0 -0.25019264 0.4048202
0.031091681 0.052737474 0.07 0 -0.25019264 0.4048202
0.031793185 0.052749522 0.07 0 -0.25019264 0.4048202
0.032494873 0.052761838 0.07 0 -0.25019264 0.4048202
0.033196755 0.052774426 0.07 0 -0.25019264 0.4048202
0.033898834 0.052787285 0.07 0 -0.25019264 0.4048202
0.034601111 0.052800413 0.07 0 -0.25019264 0.4048202
0.035303596 0.052813813 0.07 0 -0.25019264 0.4048202
0.03600629 0.052827485 0.07 0 -0.25019264 0.4048202
0.036709197 0.052841429 0.07 0 -0.25019264 0.4048202
0.037412319 0.052855644 0.07 0 -0.25019264 0.4048202
0.038115669 0.052870132 0.07 0 -0.25019264 0.4048202
0.038893454 0.053464305 0.069359899 0 -0.25019264 0.4048202
0.0003539001 0.056394063 0.064589679 0 -0.25019264 0.4048202
0.00105203 0.053601228 0.067689285 0 -0.25019264 0.4048202
0.0017433722 0.051866032 0.069615476 0 -0.25019264 0.4048202
0.0024379357 0.051520325 0.07 0 -0.25019264 0.4048202
0.003134513 0.05152138 0.07 0 -0.25019264 0.4048202
0.003831109 0.051522698 0.07 0 -0.25019264 0.4048202
0.0045277276 0.051524278 0.07 0 -0.25019264 0.4048202
0.0052243727 0.051526122 0.07 0 -0.25019264 0.4048202
0.0059210486 0.05152823 0.07 0 -0.25019264 0.4048202
0.0066177589 0.051530603 0.07 0 -0.25019264 0.4048202
0.0073145083 0.051533237 0.07 0 -0.25019264 0.4048202
0.008011301 0.051536135 0.07 0 -0.25019264 0.4048202
0.0087081399 0.051539298 0.07 0 -0.25019264 0.4048202
0.0094050309 0.051542725 0.07 0 -0.25019264 0.4048202
0.010101977 0.051546417 0.07 0 -0.25019264 0.4048202
0.010798981 0.05155037 0.07 0 -0.25019264 0.4048202
0.01149605 0.051554587 0.07 0 -0.25019264 0.4048202
0.012193186 0.051559068 0.07 0 -0.25019264 0.4048202
0.012890394 0.051563814 0.07 0 -0.25019264 0.4048202
0.013587678 0.051568825 0.07 0 -0.25019264 0.4048202
0.014285041 0.0515741 0.07 0 -0.25019264 0.4048202
0.014982489 0.051579639 0.07 0 -0.25019264 0.4048202
0.015680024 0.051585443 0.07 0 -0.25019264 0.4048202
0.016377652 0.051591508 0.07 0 -0.25019264 0.4048202
0.017075377 0.051597841 0.07 0 -0.25019264 0.4048202
0.0177732 0.051604439 0.07 0 -0.25019264 0.4048202
0.018471129 0.051611301 0.07 0 -0.25019264 0.4048202
0.019169167 0.051618427 0.07 0 -0.25019264 0.4048202
0.019867318 0.051625814 0.07 0 -0.25019264 0.4048202
0.020565586 0.051633473 0.07 0 -0.25019264 0.4048202
0.021263974 0.051641393 0.07 0 -0.25019264 0.4048202
0.021962488 0.051649578 0.07 0 -0.25019264 0.4048202
0.022661131 0.051658031 0.07 0 -0.25019264 0.4048202
0.023359908 0.051666748 0.07 0 -0.25019264 0.4048202
0.024058821 0.051675729 0.07 0 -0.25019264 0.4048202
0.024757877 0.051684979 0.07 0 -0.25019264 0.4048202
0.025457079 0.051694494 0.07 0 -0.25019264 0.4048202
0.026156431 0.051704273 0.07 0 -0.25019264 0.4048202
0.026855936 0.05171432 0.07 0 -0.25019264 0.4048202
0.027555602 0.051724631 0.07 0 -0.25019264 0.4048202
0.028255429 0.051735211 0.07 0 -0.25019264 0.4048202
0.028955422 0.051746055 0.07 0 -0.25019264 0.4048202
