# .PCD v0.7 - Point Cloud Data file format
VERSION 0.7
FIELDS x y z vp_x vp_y vp_z
SIZE 4 4 4 4 4 4
TYPE F F F F F F
COUNT 1 1 1 1 1 1
WIDTH 693
HEIGHT 1
VIEWPOINT 0 0 0 1 0 0 0
POINTS 693
DATA ascii
0.039999999 0.001790876 0.0064424598 0.23852047 0.14741376 0.38593423
0.039999999 0.0026672943 0.0071578994 0.23852047 0.14741376 0.38593423
0.039999999 0.0035403001 0.0078704432 0.23852047 0.14741376 0.38593423
0.039999999 0.0044099181 0.008580111 0.23852047 0.14741376 0.38593423
0.039999999 0.0052761734 0.0092869233 0.23852047 0.14741376 0.38593423
0.039999999 0.0061390894 0.0099909026 0.23852047 0.14741376 0.38593423
0.039999999 0.0069986903 0.010692067 0.23852047 0.14741376 0.38593423
0.039999999 0.007855 0.011390436 0.23852047 0.14741376 0.38593423
0.039999999 0.0087080421 0.012086032 0.23852047 0.14741376 0.38593423
0.039999999 0.0095578404 0.012778874 0.23852047 0.14741376 0.38593423
0.039999999 0.010404417 0.013468979 0.23852047 0.14741376 0.38593423
0.039999999 0.011247796 0.014156369 0.23852047 0.14741376 0.38593423
0.039999999 0.012088 0.014841062 0.23852047 0.14741376 0.38593423
0.039999999 0.01292505 0.015523077 0.23852047 0.14741376 0.38593423
0.039999999 0.013758969 0.016202433 0.23852047 0.14741376 0.38593423
0.039999999 0.014589781 0.016879151 0.23852047 0.14741376 0.38593423
0.039999999 0.015417506 0.017553244 0.23852047 0.14741376 0.38593423
0.039999999 0.016242165 0.018224735 0.23852047 0.14741376 0.38593423
0.039999999 0.017063783 0.01889364 0.23852047 0.14741376 0.38593423
0.039999999 0.017882377 0.019559978 0.23852047 0.14741376 0.38593423
0.039999999 0.018697971 0.020223765 0.23852047 0.14741376 0.38593423
0.039999999 0.019510586 0.020885022 0.23852047 0.14741376 0.38593423
0.039999999 0.02032024 0.021543764 0.23852047 0.14741376 0.38593423
0.039999999 0.021126958 0.022200007 0.23852047 0.14741376 0.38593423
0.039999999 0.021930756 0.022853771 0.23852047 0.14741376 0.38593423
0.039999999 0.022731656 0.023505071 0.23852047 0.14741376 0.38593423
0.039999999 0.023529679 0.024153927 0.23852047 0.14741376 0.38593423
0.039999999 0.024324844 0.024800353 0.23852047 0.14741376 0.38593423
0.039999999 0.02511717 0.025444364 0.23852047 0.14741376 0.38593423
0.039999999 0.025906678 0.02608598 0.23852047 0.14741376 0.38593423
0.039999999 0.026693387 0.026725218 0.23852047 0.14741376 0.38593423
0.039999999 0.027477315 0.02736209 0.23852047 0.14741376 0.38593423
0.039999999 0.028258482 0.027996615 0.23852047 0.14741376 0.38593423
0.039999999 0.029036907 0.028628806 0.23852047 0.14741376 0.38593423
0.039999999 0.029812608 0.029258681 0.23852047 0.14741376 0.38593423
0.039999999 0.030585604 0.029886257 0.23852047 0.14741376 0.38593423
0.039999999 0.031355914 0.030511547 0.23852047 0.14741376 0.38593423
0.039999999 0.032123554 0.031134566 0.23852047 0.14741376 0.38593423
0.039999999 0.032888547 0.031755332 0.23852047 0.14741376 0.38593423
0.039999999 0.033650905 0.032373857 0.23852047 0.14741376 0.38593423
0.039999999 0.034410648 0.032990158 0.23852047 0.14741376 0.38593423
0.039999999 0.035167795 0.033604249 0.23852047 0.14741376 0.38593423
0.039999999 0.03592236 0.034216147 0.23852047 0.14741376 0.38593423
0.039999999 0.036674365 0.034825861 0.23852047 0.14741376 0.38593423
0.039999999 0.037423827 0.035433412 0.23852047 0.14741376 0.38593423
0.039999999 0.038170759 0.036038809 0.23852047 0.14741376 0.38593423
0.039999999 0.038915176 0.036642067 0.23852047 0.14741376 0.38593423
0.039999999 0.039657101 0.037243202 0.23852047 0.14741376 0.38593423
0.039999999 0.040396549 0.037842229 0.23852047 0.14741376 0.38593423
0.039999999 0.041133538 0.038439162 0.23852047 0.14741376 0.38593423
0.039999999 0.041868076 0.039034009 0.23852047 0.14741376 0.38593423
0.039999999 0.042600188 0.039626788 0.23852047 0.14741376 0.38593423
0.039875094 0.043264404 0.039999999 0.23852047 0.14741376 0.38593423
0.039536268 0.043815758 0.039999999 0.23852047 0.14741376 0.38593423
0.039197452 0.044367209 0.039999999 0.23852047 0.14741376 0.38593423
0.038858652 0.044918768 0.039999999 0.23852047 0.14741376 0.38593423
0.038519867 0.045470428 0.039999999 0.23852047 0.14741376 0.38593423
0.038181093 0.046022199 0.039999999 0.23852047 0.14741376 0.38593423
0.037842322 0.046574079 0.039999999 0.23852047 0.14741376 0.38593423
0.037503563 0.04712607 0.039999999 0.23852047 0.14741376 0.38593423
0.037164811 0.047678176 0.039999999 0.23852047 0.14741376 0.38593423
0.036826063 0.048230406 0.039999999 0.23852047 0.14741376 0.38593423
0.036540285 0.048808612 0.040090695 0.23852047 0.14741376 0.38593423
0.037226576 0.049857672 0.04184274 0.23852047 0.14741376 0.38593423
0.037733156 0.050813146 0.043282241 0.23852047 0.14741376 0.38593423
0.038209796 0.051748507 0.044665933 0.23852047 0.14741376 0.38593423
0.038555544 0.052616242 0.045822393 0.23852047 0.14741376 0.38593423
0.038899019 0.053478274 0.046971165 0.23852047 0.14741376 0.38593423
0.039140206 0.054287948 0.047942724 0.23852047 0.14741376 0.38593423
0.039361347 0.055084474 0.048877154 0.23852047 0.14741376 0.38593423
0.039559651 0.055866804 0.049769927 0.23852047 0.14741376 0.38593423
0.03968164 0.056610774 0.05053103 0.23852047 0.14741376 0.38593423
0.039803103 0.057351541 0.051288761 0.23852047 0.14741376 0.38593423
0.039895743 0.0580764 0.051995564 0.23852047 0.14741376 0.38593423
0.039933555 0.058774062 0.052608039 0.23852047 0.14741376 0.38593423
0.039971236 0.059469327 0.053218316 0.23852047 0.14741376 0.38593423
0.039991617 0.060154665 0.053797673 0.23852047 0.14741376 0.38593423
0.039955918 0.060813356 0.054281503 0.23852047 0.14741376 0.38593423
0.039920311 0.061470293 0.054763947 0.23852047 0.14741376 0.38593423
0.039884802 0.062125485 0.055245012 0.23852047 0.14741376 0.38593423
0.039786126 0.062751994 0.055619564 0.23852047 0.14741376 0.38593423
0.039683867 0.063375652 0.055986993 0.23852047 0.14741376 0.38593423
0.039581805 0.063998081 0.056353606 0.23852047 0.14741376 0.38593423
0.039447349 0.064605743 0.056665495 0.23852047 0.14741376 0.38593423
0.039282434 0.065199763 0.05692612 0.23852047 0.14741376 0.38593423
0.039117731 0.065793015 0.057186313 0.23852047 0.14741376 0.38593423
0.038953241 0.066385493 0.05744607 0.23852047 0.14741376 0.38593423
0.03872741 0.066952415 0.057604246 0.23852047 0.14741376 0.38593423
0.03850168 0.067518942 0.057762131 0.23852047 0.14741376 0.38593423
0.038276095 0.068085097 0.057919815 0.23852047 0.14741376 0.38593423
0.03802307 0.068640038 0.058032174 0.23852047 0.14741376 0.38593423
0.03773601 0.069181472 0.058088671 0.23852047 0.14741376 0.38593423
0.037448958 0.069722891 0.058145069 0.23852047 0.14741376 0.38593423
0.037161913 0.070264295 0.058201373 0.23852047 0.14741376 0.38593423
0.03681675 0.070783608 0.058163121 0.23852047 0.14741376 0.38593423
0.03646588 0.07130114 0.05811581 0.23852047 0.14741376 0.38593423
0.03611479 0.071818992 0.058068376 0.23852047 0.14741376 0.38593423
0.035732999 0.072325885 0.057971515 0.23852047 0.14741376 0.38593423
0.035313625 0.072819591 0.057814367 0.23852047 0.14741376 0.38593423
0.034893706 0.073313937 0.05765691 0.23852047 0.14741376 0.38593423
0.034465022 0.07380598 0.057485942 0.23852047 0.14741376 0.38593423
0.033969741 0.074275114 0.057208579 0.23852047 0.14741376 0.38593423
0.033473443 0.074745208 0.056930546 0.23852047 0.14741376 0.38593423
0.032976121 0.075216278 0.056651842 0.23852047 0.14741376 0.38593423
0.032398477 0.07566072 0.056245644 0.23852047 0.14741376 0.38593423
0.031814367 0.076104768 0.05583049 0.23852047 0.14741376 0.38593423
0.031228555 0.076550104 0.055414028 0.23852047 0.14741376 0.38593423
0.03054281 0.076963469 0.054839879 0.23852047 0.14741376 0.38593423
0.029853577 0.077378161 0.054262098 0.23852047 0.14741376 0.38593423
0.029125551 0.077782467 0.05362466 0.23852047 0.14741376 0.38593423
0.028308874 0.078160301 0.052848853 0.23852047 0.14741376 0.38593423
0.027488036 0.078540064 0.052068997 0.23852047 0.14741376 0.38593423
0.026522163 0.078876235 0.051062588 0.23852047 0.14741376 0.38593423
0.025533631 0.079209328 0.050023686 0.23852047 0.14741376 0.38593423
0.024361882 0.079488613 0.048699617 0.23852047 0.14741376 0.38593423
0.023114806 0.079749644 0.047261346 0.23852047 0.14741376 0.38593423
0.021555243 0.079919308 0.0453371 0.23852047 0.14741376 0.38593423
0.01965116 0.079990558 0.042878933 0.23852047 0.14741376 0.38593423
0.01747328 0.079988077 0.039999999 0.23852047 0.14741376 0.38593423
0.015305374 0.079999998 0.037145663 0.23852047 0.14741376 0.38593423
0.013059827 0.079999998 0.034179121 0.23852047 0.14741376 0.38593423
0.010774693 0.079999998 0.031160176 0.23852047 0.14741376 0.38593423
0.0084489025 0.079999998 0.028087413 0.23852047 0.14741376 0.38593423
0.0060813474 0.079999998 0.024959367 0.23852047 0.14741376 0.38593423
0.0036708794 0.079999998 0.021774514 0.23852047 0.14741376 0.38593423
0.0012163076 0.079999998 0.018531282 0.23852047 0.14741376 0.38593423
0.039999999 0.00085201749 0.0043617561 0.23852047 0.14741376 0.38593423
0.039999999 0.0017341648 0.0050845607 0.23852047 0.14741376 0.38593423
0.039999999 0.0026128571 0.0058044195 0.23852047 0.14741376 0.38593423
0.039999999 0.0034881197 0.0065213544 0.23852047 0.14741376 0.38593423
0.039999999 0.0043599773 0.0072353859 0.23852047 0.14741376 0.38593423
0.039999999 0.0052284547 0.007946535 0.23852047 0.14741376 0.38593423
0.039999999 0.0060935761 0.0086548226 0.23852047 0.14741376 0.38593423
0.039999999 0.0069553661 0.0093602687 0.23852047 0.14741376 0.38593423
0.039999999 0.0078138486 0.010062894 0.23852047 0.14741376 0.38593423
0.039999999 0.0086690467 0.010762719 0.23852047 0.14741376 0.38593423
0.039999999 0.0095209843 0.011459761 0.23852047 0.14741376 0.38593423
0.039999999 0.010369685 0.012154043 0.23852047 0.14741376 0.38593423
0.039999999 0.011215171 0.012845583 0.23852047 0.14741376 0.38593423
0.039999999 0.012057466 0.013534401 0.23852047 0.14741376 0.38593423
0.039999999 0.012896594 0.014220515 0.23852047 0.14741376 0.38593423
0.039999999 0.013732575 0.014903946 0.23852047 0.14741376 0.38593423
0.039999999 0.014565432 0.01558471 0.23852047 0.14741376 0.38593423
0.039999999 0.015395188 0.016262829 0.23852047 0.14741376 0.38593423
0.039999999 0.016221864 0.016938319 0.23852047 0.14741376 0.38593423
0.039999999 0.017045481 0.017611198 0.23852047 0.14741376 0.38593423
0.039999999 0.017866062 0.018281488 0.23852047 0.14741376 0.38593423
0.039999999 0.018683629 0.018949201 0.23852047 0.14741376 0.38593423
0.039999999 0.019498201 0.019614361 0.23852047 0.14741376 0.38593423
0.039999999 0.020309798 0.02027698 0.23852047 0.14741376 0.38593423
0.039999999 0.021118445 0.020937081 0.23852047 0.14741376 0.38593423
0.039999999 0.021924159 0.021594677 0.23852047 0.14741376 0.38593423
0.039999999 0.02272696 0.022249788 0.23852047 0.14741376 0.38593423
0.039999999 0.023526872 0.022902431 0.23852047 0.14741376 0.38593423
0.039999999 0.02432391 0.023552621 0.23852047 0.14741376 0.38593423
0.039999999 0.0251181 0.024200374 0.23852047 0.14741376 0.38593423
0.039999999 0.025909455 0.02484571 0.23852047 0.14741376 0.38593423
0.039999999 0.026697999 0.025488643 0.23852047 0.14741376 0.38593423
0.039999999 0.027483748 0.026129192 0.23852047 0.14741376 0.38593423
0.039999999 0.028266724 0.026767369 0.23852047 0.14741376 0.38593423
0.039999999 0.029046945 0.027403194 0.23852047 0.14741376 0.38593423
0.039999999 0.02982443 0.02803668 0.23852047 0.14741376 0.38593423
0.039999999 0.030599197 0.028667845 0.23852047 0.14741376 0.38593423
0.039999999 0.031371266 0.029296704 0.23852047 0.14741376 0.38593423
0.039999999 0.032140654 0.029923271 0.23852047 0.14741376 0.38593423
0.039999999 0.032907382 0.030547563 0.23852047 0.14741376 0.38593423
0.039999999 0.033671461 0.031169595 0.23852047 0.14741376 0.38593423
0.039999999 0.034432914 0.031789381 0.23852047 0.14741376 0.38593423
0.039999999 0.035191759 0.032406941 0.23852047 0.14741376 0.38593423
0.039999999 0.035948016 0.033022281 0.23852047 0.14741376 0.38593423
0.039999999 0.036701694 0.033635423 0.23852047 0.14741376 0.38593423
0.039999999 0.037452821 0.034246378 0.23852047 0.14741376 0.38593423
0.039999999 0.038201403 0.034855161 0.23852047 0.14741376 0.38593423
0.039999999 0.038947467 0.035461787 0.23852047 0.14741376 0.38593423
0.039999999 0.03969102 0.036066271 0.23852047 0.14741376 0.38593423
0.039999999 0.040432088 0.036668628 0.23852047 0.14741376 0.38593423
0.039999999 0.041170683 0.037268866 0.23852047 0.14741376 0.38593423
0.039999999 0.041906822 0.037867006 0.23852047 0.14741376 0.38593423
0.039999999 0.042640522 0.03846306 0.23852047 0.14741376 0.38593423
0.039999999 0.0433718 0.039057039 0.23852047 0.14741376 0.38593423
0.039999999 0.044100668 0.039648958 0.23852047 0.14741376 0.38593423
0.039862849 0.044756271 0.039999999 0.23852047 0.14741376 0.38593423
0.039524462 0.045307245 0.039999999 0.23852047 0.14741376 0.38593423
0.039186094 0.045858324 0.039999999 0.23852047 0.14741376 0.38593423
0.038847737 0.046409514 0.039999999 0.23852047 0.14741376 0.38593423
0.038509391 0.046960812 0.039999999 0.23852047 0.14741376 0.38593423
0.038171053 0.047512226 0.039999999 0.23852047 0.14741376 0.38593423
0.037832722 0.048063755 0.039999999 0.23852047 0.14741376 0.38593423
0.037494399 0.048615403 0.039999999 0.23852047 0.14741376 0.38593423
0.037156083 0.049167171 0.039999999 0.23852047 0.14741376 0.38593423
0.037268952 0.049937598 0.040773816 0.23852047 0.14741376 0.38593423
0.037776366 0.050894652 0.042220578 0.23852047 0.14741376 0.38593423
0.038240321 0.051825121 0.04358821 0.23852047 0.14741376 0.38593423
0.038586676 0.052694377 0.044750601 0.23852047 0.14741376 0.38593423
0.038930751 0.05355791 0.04590524 0.23852047 0.14741376 0.38593423
0.039161276 0.054363843 0.046862923 0.23852047 0.14741376 0.38593423
0.039382823 0.055161826 0.047802184 0.23852047 0.14741376 0.38593423
0.039571844 0.055941153 0.048683211 0.23852047 0.14741376 0.38593423
0.039694063 0.056686539 0.049448289 0.23852047 0.14741376 0.38593423
0.039815757 0.057428714 0.050209962 0.23852047 0.14741376 0.38593423
0.039899789 0.058151003 0.050905615 0.23852047 0.14741376 0.38593423
0.039937675 0.058850039 0.051521294 0.23852047 0.14741376 0.38593423
0.039975431 0.059546668 0.052134752 0.23852047 0.14741376 0.38593423
0.039987549 0.060229708 0.052703198 0.23852047 0.14741376 0.38593423
0.039951779 0.06088974 0.053189557 0.23852047 0.14741376 0.38593423
0.039916102 0.061548006 0.053674515 0.23852047 0.14741376 0.38593423
0.0398762 0.06220267 0.054150868 0.23852047 0.14741376 0.38593423
0.039773524 0.062828861 0.054521024 0.23852047 0.14741376 0.38593423
0.039671049 0.063453823 0.054890353 0.23852047 0.14741376 0.38593423
0.039568774 0.064077556 0.055258859 0.23852047 0.14741376 0.38593423
0.039425872 0.06468311 0.05555879 0.23852047 0.14741376 0.38593423
0.039260596 0.065278418 0.055820737 0.23852047 0.14741376 0.38593423
0.039095536 0.065872945 0.056082238 0.23852047 0.14741376 0.38593423
0.038922299 0.066463299 0.05632944 0.23852047 0.14741376 0.38593423
0.038695909 0.06703148 0.056488272 0.23852047 0.14741376 0.38593423
0.038469668 0.067599274 0.056646895 0.23852047 0.14741376 0.38593423
0.038243581 0.068166696 0.056805316 0.23852047 0.14741376 0.38593423
0.037981007 0.068719365 0.056903426 0.23852047 0.14741376 0.38593423
0.037693281 0.069262065 0.05696008 0.23852047 0.14741376 0.38593423
0.037405558 0.069804743 0.057016633 0.23852047 0.14741376 0.38593423
0.037113585 0.070345782 0.057066124 0.23852047 0.14741376 0.38593423
0.036762081 0.070864245 0.057018481 0.23852047 0.14741376 0.38593423
0.036410358 0.071383037 0.056970712 0.23852047 0.14741376 0.38593423
0.036058411 0.071902148 0.056922808 0.23852047 0.14741376 0.38593423
0.035664741 0.07240624 0.056807432 0.23852047 0.14741376 0.38593423
0.035244301 0.072901204 0.056649145 0.23852047 0.14741376 0.38593423
0.034823306 0.073396817 0.056490548 0.23852047 0.14741376 0.38593423
0.034380972 0.07388559 0.056298077 0.23852047 0.14741376 0.38593423
0.033884365 0.074355982 0.056018803 0.23852047 0.14741376 0.38593423
0.033386733 0.074827343 0.055738855 0.23852047 0.14741376 0.38593423
0.032878034 0.075296156 0.055442091 0.23852047 0.14741376 0.38593423
0.032293953 0.075740181 0.055025406 0.23852047 0.14741376 0.38593423
0.031708173 0.076185495 0.05460741 0.23852047 0.14741376 0.38593423
0.031103371 0.076626197 0.05416039 0.23852047 0.14741376 0.38593423
0.030414715 0.077040546 0.053580966 0.23852047 0.14741376 0.38593423
0.029723378 0.077456497 0.05299918 0.23852047 0.14741376 0.38593423
0.028970053 0.077854402 0.052320637 0.23852047 0.14741376 0.38593423
0.02815068 0.078233488 0.051539335 0.23852047 0.14741376 0.38593423
0.027312767 0.078609839 0.05073116 0.23852047 0.14741376 0.38593423
0.026327183 0.078941934 0.049691617 0.23852047 0.14741376 0.38593423
0.025331682 0.079275168 0.048639733 0.23852047 0.14741376 0.38593423
0.024115412 0.07954286 0.047242496 0.23852047 0.14741376 0.38593423
0.022797003 0.079784214 0.045688625 0.23852047 0.14741376 0.38593423
0.021230025 0.079954684 0.043748248 0.23852047 0.14741376 0.38593423
0.019156389 0.079977177 0.041017365 0.23852047 0.14741376 0.38593423
0.017048324 0.079999998 0.038241003 0.23852047 0.14741376 0.38593423
0.014828072 0.079999998 0.035297498 0.23852047 0.14741376 0.38593423
0.01256887 0.079999998 0.032302245 0.23852047 0.14741376 0.38593423
0.010269668 0.079999998 0.029253853 0.23852047 0.14741376 0.38593423
0.0079293838 0.079999998 0.026150882 0.23852047 0.14741376 0.38593423
0.0055468907 0.079999998 0.022991836 0.23852047 0.14741376 0.38593423
0.0031210242 0.079999998 0.019775167 0.23852047 0.14741376 0.38593423
0.00065057509 0.079999998 0.01649927 0.23852047 0.14741376 0.38593423
0.039999999 0.00079271087 0.0029924 0.23852047 0.14741376 0.38593423
0.039999999 0.0016771621 0.0037196884 0.23852047 0.14741376 0.38593423
0.039999999 0.0025581408 0.0044440026 0.23852047 0.14741376 0.38593423
0.039999999 0.003435672 0.0051653646 0.23852047 0.14741376 0.38593423
0.039999999 0.0043097814 0.0058837947 0.23852047 0.14741376 0.38593423
0.039999999 0.005180493 0.006599315 0.23852047 0.14741376 0.38593423
0.039999999 0.0060478314 0.0073119462 0.23852047 0.14741376 0.38593423
0.039999999 0.0069118217 0.0080217086 0.23852047 0.14741376 0.38593423
0.039999999 0.0077724876 0.0087286225 0.23852047 0.14741376 0.38593423
0.039999999 0.0086298529 0.0094327098 0.23852047 0.14741376 0.38593423
0.039999999 0.0094839418 0.010133988 0.23852047 0.14741376 0.38593423
0.039999999 0.010334777 0.010832479 0.23852047 0.14741376 0.38593423
0.039999999 0.011182382 0.011528202 0.23852047 0.14741376 0.38593423
0.039999999 0.01202678 0.012221177 0.23852047 0.14741376 0.38593423
0.039999999 0.012867995 0.012911423 0.23852047 0.14741376 0.38593423
0.039999999 0.013706048 0.01359896 0.23852047 0.14741376 0.38593423
0.039999999 0.014540961 0.014283805 0.23852047 0.14741376 0.38593423
0.039999999 0.015372758 0.014965979 0.23852047 0.14741376 0.38593423
0.039999999 0.016201461 0.0156455 0.23852047 0.14741376 0.38593423
0.039999999 0.017027089 0.016322386 0.23852047 0.14741376 0.38593423
0.039999999 0.017849667 0.016996656 0.23852047 0.14741376 0.38593423
0.039999999 0.018669214 0.017668327 0.23852047 0.14741376 0.38593423
0.039999999 0.019485755 0.018337421 0.23852047 0.14741376 0.38593423
0.039999999 0.020299306 0.01900395 0.23852047 0.14741376 0.38593423
0.039999999 0.02110989 0.019667936 0.23852047 0.14741376 0.38593423
0.039999999 0.021917529 0.020329395 0.23852047 0.14741376 0.38593423
0.039999999 0.022722242 0.020988345 0.23852047 0.14741376 0.38593423
0.039999999 0.023524052 0.021644803 0.23852047 0.14741376 0.38593423
0.039999999 0.024322974 0.022298787 0.23852047 0.14741376 0.38593423
0.039999999 0.025119033 0.022950312 0.23852047 0.14741376 0.38593423
0.039999999 0.025912246 0.023599396 0.23852047 0.14741376 0.38593423
0.039999999 0.026702633 0.024246056 0.23852047 0.14741376 0.38593423
0.039999999 0.027490214 0.024890305 0.23852047 0.14741376 0.38593423
0.039999999 0.028275007 0.025532166 0.23852047 0.14741376 0.38593423
0.039999999 0.029057033 0.026171651 0.23852047 0.14741376 0.38593423
0.039999999 0.02983631 0.026808774 0.23852047 0.14741376 0.38593423
0.039999999 0.030612858 0.027443556 0.23852047 0.14741376 0.38593423
0.039999999 0.031386692 0.02807601 0.23852047 0.14741376 0.38593423
0.039999999 0.032157835 0.028706152 0.23852047 0.14741376 0.38593423
0.039999999 0.032926306 0.029333999 0.23852047 0.14741376 0.38593423
0.039999999 0.033692118 0.029959563 0.23852047 0.14741376 0.38593423
0.039999999 0.034455288 0.030582862 0.23852047 0.14741376 0.38593423
0.039999999 0.03521584 0.031203911 0.23852047 0.14741376 0.38593423
0.039999999 0.035973791 0.031822726 0.23852047 0.14741376 0.38593423
0.039999999 0.036729153 0.032439318 0.23852047 0.14741376 0.38593423
0.039999999 0.037481949 0.033053704 0.23852047 0.14741376 0.38593423
0.039999999 0.038232196 0.033665899 0.23852047 0.14741376 0.38593423
0.039999999 0.038979907 0.034275919 0.23852047 0.14741376 0.38593423
0.039999999 0.039725099 0.034883775 0.23852047 0.14741376 0.38593423
0.039999999 0.040467795 0.035489485 0.23852047 0.14741376 0.38593423
0.039999999 0.041208006 0.036093056 0.23852047 0.14741376 0.38593423
0.039999999 0.041945752 0.036694512 0.23852047 0.14741376 0.38593423
0.039999999 0.042681046 0.037293863 0.23852047 0.14741376 0.38593423
0.039999999 0.043413904 0.037891116 0.23852047 0.14741376 0.38593423
0.039999999 0.044144347 0.038486294 0.23852047 0.14741376 0.38593423
0.039999999 0.044872388 0.039079409 0.23852047 0.14741376 0.38593423
0.039999999 0.045598041 0.039670471 0.23852047 0.14741376 0.38593423
0.039850973 0.046245433 0.039999999 0.23852047 0.14741376 0.38593423
0.039513033 0.046796042 0.039999999 0.23852047 0.14741376 0.38593423
0.039175104 0.047346763 0.039999999 0.23852047 0.14741376 0.38593423
0.038837191 0.0478976 0.039999999 0.23852047 0.14741376 0.38593423
0.038499285 0.048448548 0.039999999 0.23852047 0.14741376 0.38593423
0.038161382 0.048999619 0.039999999 0.23852047 0.14741376 0.38593423
0.037823491 0.049550813 0.039999999 0.23852047 0.14741376 0.38593423
0.037485603 0.05010213 0.039999999 0.23852047 0.14741376 0.38593423
0.037819758 0.050976492 0.041154485 0.23852047 0.14741376 0.38593423
0.03827098 0.051902063 0.042505864 0.23852047 0.14741376 0.38593423
0.038617942 0.052772846 0.043674223 0.23852047 0.14741376 0.38593423
0.038959298 0.053636327 0.0448291 0.23852047 0.14741376 0.38593423
0.039182439 0.054440074 0.045778412 0.23852047 0.14741376 0.38593423
0.039404392 0.055239517 0.046722535 0.23852047 0.14741376 0.38593423
0.039584089 0.056015834 0.047591675 0.23852047 0.14741376 0.38593423
0.039706543 0.056762643 0.04836075 0.23852047 0.14741376 0.38593423
0.039828464 0.057506226 0.049126394 0.23852047 0.14741376 0.38593423
0.039903849 0.058225941 0.04981076 0.23852047 0.14741376 0.38593423
0.03994181 0.058926355 0.050429665 0.23852047 0.14741376 0.38593423
0.03997964 0.059624355 0.05104633 0.23852047 0.14741376 0.38593423
0.039983463 0.060305092 0.051603727 0.23852047 0.14741376 0.38593423
0.039947618 0.060966466 0.05209263 0.23852047 0.14741376 0.38593423
0.03991187 0.061626073 0.052580122 0.23852047 0.14741376 0.38593423
0.03986375 0.062278576 0.053045325 0.23852047 0.14741376 0.38593423
0.039760862 0.062906086 0.053417407 0.23852047 0.14741376 0.38593423
0.03965817 0.06353236 0.053788651 0.23852047 0.14741376 0.38593423
0.039555684 0.064157404 0.05415906 0.23852047 0.14741376 0.38593423
0.039404292 0.064760841 0.054446895 0.23852047 0.14741376 0.38593423
0.039238658 0.065357439 0.054710165 0.23852047 0.14741376 0.38593423
0.03907324 0.065953255 0.054972988 0.23852047 0.14741376 0.38593423
0.038891155 0.066541463 0.055207394 0.23852047 0.14741376 0.38593423
0.038664255 0.067110918 0.055366974 0.23852047 0.14741376 0.38593423
0.038437508 0.067679986 0.055526346 0.23852047 0.14741376 0.38593423
0.038210914 0.068248682 0.055685505 0.23852047 0.14741376 0.38593423
0.037938744 0.068799086 0.055769198 0.23852047 0.14741376 0.38593423
0.037650343 0.069343045 0.055826008 0.23852047 0.14741376 0.38593423
0.03736195 0.069886997 0.055882715 0.23852047 0.14741376 0.38593423
0.037059501 0.070425555 0.05591628 0.23852047 0.14741376 0.38593423
0.036707137 0.070945285 0.055868171 0.23852047 0.14741376 0.38593423
0.036354557 0.071465336 0.055819936 0.23852047 0.14741376 0.38593423
0.036001757 0.071985714 0.055771563 0.23852047 0.14741376 0.38593423
0.035596136 0.072487004 0.055637453 0.23852047 0.14741376 0.38593423
0.035174623 0.072983228 0.055478018 0.23852047 0.14741376 0.38593423
0.034752551 0.073480107 0.05531827 0.23852047 0.14741376 0.38593423
0.034296487 0.073965617 0.055104036 0.23852047 0.14741376 0.38593423
0.033798542 0.074437276 0.054822836 0.23852047 0.14741376 0.38593423
0.033299569 0.074909903 0.054540955 0.23852047 0.14741376 0.38593423
0.032774612 0.075374782 0.054218154 0.23852047 0.14741376 0.38593423
0.032188866 0.075820073 0.05379862 0.23852047 0.14741376 0.38593423
0.03160141 0.076266661 0.053377755 0.23852047 0.14741376 0.38593423
0.030976666 0.076702431 0.052898474 0.23852047 0.14741376 0.38593423
0.03028591 0.077118039 0.052315038 0.23852047 0.14741376 0.38593423
0.029592453 0.077535272 0.051729213 0.23852047 0.14741376 0.38593423
0.028813651 0.077926762 0.051009029 0.23852047 0.14741376 0.38593423
0.027991563 0.078307107 0.050222181 0.23852047 0.14741376 0.38593423
0.027120169 0.078674734 0.0493594 0.23852047 0.14741376 0.38593423
0.026131002 0.079008043 0.04831221 0.23852047 0.14741376 0.38593423
0.025088554 0.079328679 0.04718383 0.23852047 0.14741376 0.38593423
0.023867311 0.079597466 0.045775745 0.23852047 0.14741376 0.38593423
0.022476893 0.079819039 0.044104487 0.23852047 0.14741376 0.38593423
0.020858672 0.079976767 0.042078666 0.23852047 0.14741376 0.38593423
0.018775664 0.079999998 0.039326135 0.23852047 0.14741376 0.38593423
0.016580336 0.079999998 0.036405362 0.23852047 0.14741376 0.38593423
0.014346677 0.079999998 0.033433486 0.23852047 0.14741376 0.38593423
0.012073665 0.079999998 0.030409135 0.23852047 0.14741376 0.38593423
0.0097602373 0.079999998 0.027330898 0.23852047 0.14741376 0.38593423
0.0074052918 0.079999998 0.024197305 0.23852047 0.14741376 0.38593423
0.005007688 0.079999998 0.021006834 0.23852047 0.14741376 0.38593423
0.0025662426 0.079999998 0.017757908 0.23852047 0.14741376 0.38593423
7.972787e-05 0.079999998 0.014448889 0.23852047 0.14741376 0.38593423
0.039999999 0.00073309796 0.0016159734 0.23852047 0.14741376 0.38593423
0.039999999 0.0016198658 0.002347782 0.23852047 0.14741376 0.38593423
0.039999999 0.0025031432 0.003076588 0.23852047 0.14741376 0.38593423
0.039999999 0.0033829554 0.0038024127 0.23852047 0.14741376 0.38593423
0.039999999 0.0042593279 0.0045252778 0.23852047 0.14741376 0.38593423
0.039999999 0.0051322854 0.0052452045 0.23852047 0.14741376 0.38593423
0.039999999 0.0060018534 0.005962214 0.23852047 0.14741376 0.38593423
0.039999999 0.0068680556 0.0066763274 0.23852047 0.14741376 0.38593423
0.039999999 0.0077309166 0.0073875654 0.23852047 0.14741376 0.38593423
0.039999999 0.0085904608 0.008095948 0.23852047 0.14741376 0.38593423
0.039999999 0.0094467113 0.0088014966 0.23852047 0.14741376 0.38593423
0.039999999 0.010299693 0.0095042307 0.23852047 0.14741376 0.38593423
0.039999999 0.011149428 0.010204171 0.23852047 0.14741376 0.38593423
0.039999999 0.01199594 0.010901336 0.23852047 0.14741376 0.38593423
0.039999999 0.012839252 0.011595747 0.23852047 0.14741376 0.38593423
0.039999999 0.013679387 0.012287421 0.23852047 0.14741376 0.38593423
0.039999999 0.014516368 0.01297638 0.23852047 0.14741376 0.38593423
0.039999999 0.015350216 0.013662641 0.23852047 0.14741376 0.38593423
0.039999999 0.016180955 0.014346224 0.23852047 0.14741376 0.38593423
0.039999999 0.017008606 0.015027149 0.23852047 0.14741376 0.38593423
0.039999999 0.01783319 0.015705431 0.23852047 0.14741376 0.38593423
0.039999999 0.01865473 0.016381092 0.23852047 0.14741376 0.38593423
0.039999999 0.019473245 0.017054148 0.23852047 0.14741376 0.38593423
0.039999999 0.020288762 0.017724618 0.23852047 0.14741376 0.38593423
0.039999999 0.021101294 0.01839252 0.23852047 0.14741376 0.38593423
0.039999999 0.021910869 0.019057872 0.23852047 0.14741376 0.38593423
0.039999999 0.022717502 0.019720692 0.23852047 0.14741376 0.38593423
0.039999999 0.023521217 0.020380994 0.23852047 0.14741376 0.38593423
0.039999999 0.024322033 0.0210388 0.23852047 0.14741376 0.38593423
0.039999999 0.02511997 0.021694126 0.23852047 0.14741376 0.38593423
0.039999999 0.025915049 0.022346986 0.23852047 0.14741376 0.38593423
0.039999999 0.02670729 0.0229974 0.23852047 0.14741376 0.38593423
0.039999999 0.02749671 0.023645382 0.23852047 0.14741376 0.38593423
0.039999999 0.02828333 0.024290953 0.23852047 0.14741376 0.38593423
0.039999999 0.02906717 0.024934124 0.23852047 0.14741376 0.38593423
0.039999999 0.029848248 0.025574915 0.23852047 0.14741376 0.38593423
0.039999999 0.030626584 0.026213342 0.23852047 0.14741376 0.38593423
0.039999999 0.031402197 0.026849419 0.23852047 0.14741376 0.38593423
0.039999999 0.032175101 0.027483163 0.23852047 0.14741376 0.38593423
0.039999999 0.03294532 0.028114589 0.23852047 0.14741376 0.38593423
0.039999999 0.033712871 0.028743714 0.23852047 0.14741376 0.38593423
0.039999999 0.03447777 0.029370552 0.23852047 0.14741376 0.38593423
0.039999999 0.035240036 0.029995119 0.23852047 0.14741376 0.38593423
0.039999999 0.035999689 0.030617429 0.23852047 0.14741376 0.38593423
0.039999999 0.036756746 0.0312375 0.23852047 0.14741376 0.38593423
0.039999999 0.037511218 0.031855345 0.23852047 0.14741376 0.38593423
0.039999999 0.038263135 0.032470975 0.23852047 0.14741376 0.38593423
0.039999999 0.039012503 0.033084411 0.23852047 0.14741376 0.38593423
0.039999999 0.039759342 0.033695668 0.23852047 0.14741376 0.38593423
0.039999999 0.04050367 0.034304753 0.23852047 0.14741376 0.38593423
0.039999999 0.041245505 0.034911688 0.23852047 0.14741376 0.38593423
0.039999999 0.041984864 0.035516482 0.23852047 0.14741376 0.38593423
0.039999999 0.042721756 0.036119152 0.23852047 0.14741376 0.38593423
0.039999999 0.043456208 0.03671971 0.23852047 0.14741376 0.38593423
0.039999999 0.044188231 0.03731817 0.23852047 0.14741376 0.38593423
0.039999999 0.044917841 0.037914548 0.23852047 0.14741376 0.38593423
0.039999999 0.045645054 0.038508855 0.23852047 0.14741376 0.38593423
0.039999999 0.046369888 0.039101105 0.23852047 0.14741376 0.38593423
0.039999999 0.047092356 0.039691314 0.23852047 0.14741376 0.38593423
0.039839476 0.047731936 0.039999999 0.23852047 0.14741376 0.38593423
0.03950198 0.048282195 0.039999999 0.23852047 0.14741376 0.38593423
0.039164495 0.048832569 0.039999999 0.23852047 0.14741376 0.38593423
0.038827021 0.049383063 0.039999999 0.23852047 0.14741376 0.38593423
0.038489554 0.049933679 0.039999999 0.23852047 0.14741376 0.38593423
0.038152091 0.050484423 0.039999999 0.23852047 0.14741376 0.38593423
0.037863333 0.05105868 0.040083934 0.23852047 0.14741376 0.38593423
0.03830177 0.051979337 0.041418862 0.23852047 0.14741376 0.38593423
0.038649343 0.052851651 0.042593226 0.23852047 0.14741376 0.38593423
0.038980141 0.053711403 0.043734897 0.23852047 0.14741376 0.38593423
0.039203696 0.054516636 0.044689149 0.23852047 0.14741376 0.38593423
0.039426055 0.055317547 0.045638174 0.23852047 0.14741376 0.38593423
0.03959639 0.056090847 0.046495277 0.23852047 0.14741376 0.38593423
0.039719075 0.056839082 0.047268376 0.23852047 0.14741376 0.38593423
0.039841231 0.057584081 0.048038017 0.23852047 0.14741376 0.38593423
0.039907929 0.058301218 0.048710961 0.23852047 0.14741376 0.38593423
0.039945964 0.059003018 0.04933311 0.23852047 0.14741376 0.38593423
0.039983869 0.059702389 0.04995301 0.23852047 0.14741376 0.38593423
0.039979361 0.06038082 0.050499227 0.23852047 0.14741376 0.38593423
0.039943442 0.061043546 0.050990693 0.23852047 0.14741376 0.38593423
0.039907619 0.061704494 0.051480733 0.23852047 0.14741376 0.38593423
0.039851248 0.062354837 0.051934652 0.23852047 0.14741376 0.38593423
0.03974814 0.062983669 0.052308671 0.23852047 0.14741376 0.38593423
0.039645232 0.063611262 0.052681841 0.23852047 0.14741376 0.38593423
0.03954253 0.064237617 0.053054169 0.23852047 0.14741376 0.38593423
0.03938261 0.064838931 0.053329758 0.23852047 0.14741376 0.38593423
0.039216615 0.065436833 0.053594366 0.23852047 0.14741376 0.38593423
0.03905084 0.066033944 0.053858522 0.23852047 0.14741376 0.38593423
0.038859863 0.066619992 0.05407998 0.23852047 0.14741376 0.38593423
0.038632452 0.067190737 0.054240316 0.23852047 0.14741376 0.38593423
0.038405195 0.067761086 0.054400433 0.23852047 0.14741376 0.38593423
0.03817809 0.068331063 0.054560341 0.23852047 0.14741376 0.38593423
0.037896272 0.068879187 0.054629445 0.23852047 0.14741376 0.38593423
0.037607197 0.069424428 0.054686416 0.23852047 0.14741376 0.38593423
0.037318129 0.069969654 0.054743279 0.23852047 0.14741376 0.38593423
0.037005145 0.070505731 0.054760717 0.23852047 0.14741376 0.38593423
0.036651924 0.071026728 0.054712147 0.23852047 0.14741376 0.38593423
0.03629848 0.071548052 0.054663438 0.23852047 0.14741376 0.38593423
0.035944816 0.072069705 0.054614596 0.23852047 0.14741376 0.38593423
0.035527181 0.072568178 0.054461524 0.23852047 0.14741376 0.38593423
0.035104588 0.073065676 0.05430093 0.23852047 0.14741376 0.38593423
0.034681439 0.073563829 0.05414002 0.23852047 0.14741376 0.38593423
0.034211557 0.07404606 0.053903759 0.23852047 0.14741376 0.38593423
0.033712272 0.074518986 0.053620622 0.23852047 0.14741376 0.38593423
0.03321195 0.074992895 0.053336788 0.23852047 0.14741376 0.38593423
0.032670632 0.075453825 0.052987635 0.23852047 0.14741376 0.38593423
0.032083213 0.075900391 0.052565221 0.23852047 0.14741376 0.38593423
0.031494074 0.07634826 0.052141465 0.23852047 0.14741376 0.38593423
0.030849256 0.07677909 0.051629514 0.23852047 0.14741376 0.38593423
0.030156383 0.077195972 0.051042028 0.23852047 0.14741376 0.38593423
0.029460793 0.077614494 0.050452136 0.23852047 0.14741376 0.38593423
0.028656336 0.077999547 0.049689766 0.23852047 0.14741376 0.38593423
0.027831515 0.078381151 0.048897319 0.23852047 0.14741376 0.38593423
0.026926387 0.078740031 0.047979195 0.23852047 0.14741376 0.38593423
0.02593361 0.079074554 0.046924278 0.23852047 0.14741376 0.38593423
0.024843821 0.079382539 0.045718305 0.23852047 0.14741376 0.38593423
0.023617564 0.079652436 0.04429926 0.23852047 0.14741376 0.38593423
0.022154449 0.079854116 0.042508803 0.23852047 0.14741376 0.38593423
0.020448379 0.079987869 0.040339008 0.23852047 0.14741376 0.38593423
0.018316839 0.079999998 0.037502848 0.23852047 0.14741376 0.38593423
0.016108347 0.079999998 0.034554034 0.23852047 0.14741376 0.38593423
0.013861133 0.079999998 0.031553406 0.23852047 0.14741376 0.38593423
0.011574157 0.079999998 0.028499568 0.23852047 0.14741376 0.38593423
0.0092463391 0.079999998 0.025391079 0.23852047 0.14741376 0.38593423
0.0068765641 0.079999998 0.022226445 0.23852047 0.14741376 0.38593423
0.0044636731 0.079999998 0.019004114 0.23852047 0.14741376 0.38593423
0.0020064651 0.079999998 0.015722482 0.23852047 0.14741376 0.38593423
0.039999999 0.0006731762 0.00023241466 0.23852047 0.14741376 0.38593423
0.039999999 0.0015622731 0.00096878072 0.23852047 0.14741376 0.38593423
0.039999999 0.0024478615 0.0017021147 0.23852047 0.14741376 0.38593423
0.039999999 0.0033299671 0.0024324385 0.23852047 0.14741376 0.38593423
0.039999999 0.004208615 0.0031597742 0.23852047 0.14741376 0.38593423
0.039999999 0.005083831 0.0038841432 0.23852047 0.14741376 0.38593423
0.039999999 0.0059556398 0.0046055671 0.23852047 0.14741376 0.38593423
0.039999999 0.0068240655 0.0053240666 0.23852047 0.14741376 0.38593423
0.039999999 0.0076891338 0.0060396628 0.23852047 0.14741376 0.38593423
0.039999999 0.0085508674 0.0067523769 0.23852047 0.14741376 0.38593423
0.039999999 0.0094092917 0.0074622296 0.23852047 0.14741376 0.38593423
0.039999999 0.01026443 0.0081692403 0.23852047 0.14741376 0.38593423
0.039999999 0.011116306 0.008873431 0.23852047 0.14741376 0.38593423
0.039999999 0.011964943 0.0095748194 0.23852047 0.14741376 0.38593423
0.039999999 0.012810364 0.010273428 0.23852047 0.14741376 0.38593423
0.039999999 0.013652593 0.010969274 0.23852047 0.14741376 0.38593423
0.039999999 0.014491651 0.011662378 0.23852047 0.14741376 0.38593423
0.039999999 0.015327562 0.012352759 0.23852047 0.14741376 0.38593423
0.039999999 0.016160347 0.013040437 0.23852047 0.14741376 0.38593423
0.039999999 0.016990028 0.013725431 0.23852047 0.14741376 0.38593423
0.039999999 0.017816631 0.014407759 0.23852047 0.14741376 0.38593423
0.039999999 0.018640172 0.015087439 0.23852047 0.14741376 0.38593423
0.039999999 0.019460676 0.01576449 0.23852047 0.14741376 0.38593423
0.039999999 0.020278163 0.016438931 0.23852047 0.14741376 0.38593423
0.039999999 0.021092655 0.01711078 0.23852047 0.14741376 0.38593423
0.039999999 0.021904172 0.017780054 0.23852047 0.14741376 0.38593423
0.039999999 0.022712737 0.018446773 0.23852047 0.14741376 0.38593423
0.039999999 0.023518369 0.019110952 0.23852047 0.14741376 0.38593423
0.039999999 0.024321087 0.01977261 0.23852047 0.14741376 0.38593423
0.039999999 0.025120914 0.020431764 0.23852047 0.14741376 0.38593423
0.039999999 0.025917867 0.021088431 0.23852047 0.14741376 0.38593423
0.039999999 0.026711969 0.021742629 0.23852047 0.14741376 0.38593423
0.039999999 0.027503237 0.022394372 0.23852047 0.14741376 0.38593423
0.039999999 0.028291693 0.023043681 0.23852047 0.14741376 0.38593423
0.039999999 0.029077357 0.023690568 0.23852047 0.14741376 0.38593423
0.039999999 0.029860243 0.024335055 0.23852047 0.14741376 0.38593423
0.039999999 0.030640377 0.024977153 0.23852047 0.14741376 0.38593423
0.039999999 0.031417772 0.025616881 0.23852047 0.14741376 0.38593423
0.039999999 0.03219245 0.026254253 0.23852047 0.14741376 0.38593423
0.039999999 0.032964427 0.026889287 0.23852047 0.14741376 0.38593423
0.039999999 0.033733726 0.027521998 0.23852047 0.14741376 0.38593423
0.039999999 0.03450036 0.028152402 0.23852047 0.14741376 0.38593423
0.039999999 0.03526435 0.028780513 0.23852047 0.14741376 0.38593423
0.039999999 0.036025714 0.029406348 0.23852047 0.14741376 0.38593423
0.039999999 0.036784466 0.030029923 0.23852047 0.14741376 0.38593423
0.039999999 0.03754063 0.030651249 0.23852047 0.14741376 0.38593423
0.039999999 0.038294218 0.031270344 0.23852047 0.14741376 0.38593423
0.039999999 0.039045252 0.031887226 0.23852047 0.14741376 0.38593423
0.039999999 0.039793745 0.032501902 0.23852047 0.14741376 0.38593423
0.039999999 0.040539715 0.033114392 0.23852047 0.14741376 0.38593423
0.039999999 0.041283183 0.03372471 0.23852047 0.14741376 0.38593423
0.039999999 0.042024158 0.034332868 0.23852047 0.14741376 0.38593423
0.039999999 0.042762663 0.034938883 0.23852047 0.14741376 0.38593423
0.039999999 0.043498714 0.035542767 0.23852047 0.14741376 0.38593423
0.039999999 0.044232324 0.036144536 0.23852047 0.14741376 0.38593423
0.039999999 0.044963509 0.036744203 0.23852047 0.14741376 0.38593423
0.039999999 0.045692287 0.037341781 0.23852047 0.14741376 0.38593423
0.039999999 0.046418678 0.037937284 0.23852047 0.14741376 0.38593423
0.039999999 0.047142692 0.038530722 0.23852047 0.14741376 0.38593423
0.039999999 0.047864344 0.039122116 0.23852047 0.14741376 0.38593423
0.039999999 0.048583653 0.039711475 0.23852047 0.14741376 0.38593423
0.039828371 0.049215812 0.039999999 0.23852047 0.14741376 0.38593423
0.039491318 0.049765732 0.039999999 0.23852047 0.14741376 0.38593423
0.039154276 0.050315779 0.039999999 0.23852047 0.14741376 0.38593423
0.038817242 0.050865948 0.039999999 0.23852047 0.14741376 0.38593423
0.038480211 0.051416244 0.039999999 0.23852047 0.14741376 0.38593423
0.03833269 0.052056942 0.040327162 0.23852047 0.14741376 0.38593423
0.038680878 0.052930795 0.041507576 0.23852047 0.14741376 0.38593423
0.039001077 0.053786814 0.04263588 0.23852047 0.14741376 0.38593423
0.039225046 0.054593533 0.043595105 0.23852047 0.14741376 0.38593423
0.039447814 0.05539592 0.044549063 0.23852047 0.14741376 0.38593423
0.039608743 0.056166191 0.045393981 0.23852047 0.14741376 0.38593423
0.039731666 0.056915864 0.046171132 0.23852047 0.14741376 0.38593423
0.039854053 0.057662286 0.046944801 0.23852047 0.14741376 0.38593423
0.039912026 0.058376838 0.047606178 0.23852047 0.14741376 0.38593423
0.03995014 0.059080023 0.048231602 0.23852047 0.14741376 0.38593423
0.039988119 0.05978078 0.04885475 0.23852047 0.14741376 0.38593423
0.039975237 0.060456898 0.049389649 0.23852047 0.14741376 0.38593423
0.039939243 0.061120979 0.049883697 0.23852047 0.14741376 0.38593423
0.03990335 0.061783276 0.050376307 0.23852047 0.14741376 0.38593423
0.039838687 0.062431451 0.050818805 0.23852047 0.14741376 0.38593423
0.039735358 0.063061617 0.051194772 0.23852047 0.14741376 0.38593423
0.039632235 0.063690528 0.051569883 0.23852047 0.14741376 0.38593423
0.039527401 0.064317405 0.051940933 0.23852047 0.14741376 0.38593423
0.039360825 0.064917393 0.052207347 0.23852047 0.14741376 0.38593423
0.039194472 0.065516599 0.052473299 0.23852047 0.14741376 0.38593423
0.039028332 0.066115014 0.052738793 0.23852047 0.14741376 0.38593423
0.038828421 0.066698909 0.052947152 0.23852047 0.14741376 0.38593423
0.038600497 0.067270935 0.053108245 0.23852047 0.14741376 0.38593423
0.038372725 0.06784258 0.053269122 0.23852047 0.14741376 0.38593423
0.038143359 0.068413153 0.05342688 0.23852047 0.14741376 0.38593423
0.037853595 0.068959691 0.053484119 0.23852047 0.14741376 0.38593423
0.037563838 0.069506206 0.053541251 0.23852047 0.14741376 0.38593423
0.037274092 0.070052706 0.05359827 0.23852047 0.14741376 0.38593423
0.036950517 0.070586301 0.053599395 0.23852047 0.14741376 0.38593423
0.036596432 0.071108572 0.053550355 0.23852047 0.14741376 0.38593423
0.036242124 0.071631178 0.053501174 0.23852047 0.14741376 0.38593423
0.035880998 0.072151653 0.053441029 0.23852047 0.14741376 0.38593423
0.035457876 0.072649769 0.053279594 0.23852047 0.14741376 0.38593423
0.035034198 0.073148541 0.053117834 0.23852047 0.14741376 0.38593423
0.034609959 0.073647976 0.05295575 0.23852047 0.14741376 0.38593423
0.034126185 0.074126929 0.0526972 0.23852047 0.14741376 0.38593423
0.033625547 0.074601136 0.0524121 0.23852047 0.14741376 0.38593423
0.033123869 0.075076327 0.052126303 0.23852047 0.14741376 0.38593423
0.032566093 0.075533301 0.051750466 0.23852047 0.14741376 0.38593423
0.031976987 0.07598114 0.051325154 0.23852047 0.14741376 0.38593423
0.031386152 0.076430298 0.050898481 0.23852047 0.14741376 0.38593423
0.030721132 0.076856181 0.050353445 0.23852047 0.14741376 0.38593423
0.030026129 0.077274345 0.04976188 0.23852047 0.14741376 0.38593423
0.029321441 0.077691831 0.049156684 0.23852047 0.14741376 0.38593423
0.028498098 0.078072757 0.048362777 0.23852047 0.14741376 0.38593423
0.027670529 0.078455634 0.047564678 0.23852047 0.14741376 0.38593423
0.026731407 0.07880573 0.046590455 0.23852047 0.14741376 0.38593423
0.025734993 0.079141483 0.045527738 0.23852047 0.14741376 0.38593423
0.024597464 0.079436764 0.044243053 0.23852047 0.14741376 0.38593423
0.023366153 0.079707764 0.042812936 0.23852047 0.14741376 0.38593423
0.021829642 0.079889454 0.040901434 0.23852047 0.14741376 0.38593423
0.020037808 0.079999998 0.038590088 0.23852047 0.14741376 0.38593423
0.017854109 0.079999998 0.035664037 0.23852047 0.14741376 0.38593423
0.015632307 0.079999998 0.032686811 0.23852047 0.14741376 0.38593423
0.013371384 0.079999998 0.029657045 0.23852047 0.14741376 0.38593423
0.011070284 0.079999998 0.026573321 0.23852047 0.14741376 0.38593423
0.0087279119 0.079999998 0.023434168 0.23852047 0.14741376 0.38593423
0.0063431356 0.079999998 0.020238064 0.23852047 0.14741376 0.38593423
0.0039147786 0.079999998 0.016983433 0.23852047 0.14741376 0.38593423
0.001441621 0.079999998 0.013668632 0.23852047 0.14741376 0.38593423
0.039999999 0.0023922937 0.00032052118 0.23852047 0.14741376 0.38593423
0.039999999 0.0032767048 0.0010553811 0.23852047 0.14741376 0.38593423
0.039999999 0.0041576405 0.0017872239 0.23852047 0.14741376 0.38593423
0.039999999 0.005035127 0.0025160711 0.23852047 0.14741376 0.38593423
0.039999999 0.0059091882 0.0032419448 0.23852047 0.14741376 0.38593423
0.039999999 0.00677985 0.003964866 0.23852047 0.14741376 0.38593423
0.039999999 0.0076471362 0.0046848562 0.23852047 0.14741376 0.38593423
0.039999999 0.008511072 0.0054019364 0.23852047 0.14741376 0.38593423
0.039999999 0.0093716811 0.0061161276 0.23852047 0.14741376 0.38593423
0.039999999 0.010228988 0.0068274499 0.23852047 0.14741376 0.38593423
0.039999999 0.011083016 0.0075359242 0.23852047 0.14741376 0.38593423
0.039999999 0.01193379 0.0082415706 0.23852047 0.14741376 0.38593423
0.039999999 0.01278133 0.0089444099 0.23852047 0.14741376 0.38593423
0.039999999 0.013625663 0.0096444609 0.23852047 0.14741376 0.38593423
0.039999999 0.014466809 0.010341744 0.23852047 0.14741376 0.38593423
0.039999999 0.015304793 0.011036278 0.23852047 0.14741376 0.38593423
0.039999999 0.016139636 0.011728083 0.23852047 0.14741376 0.38593423
0.039999999 0.016971359 0.012417179 0.23852047 0.14741376 0.38593423
0.039999999 0.017799988 0.013103582 0.23852047 0.14741376 0.38593423
0.039999999 0.018625543 0.013787314 0.23852047 0.14741376 0.38593423
0.039999999 0.019448044 0.014468392 0.23852047 0.14741376 0.38593423
0.039999999 0.020267513 0.015146836 0.23852047 0.14741376 0.38593423
0.039999999 0.021083973 0.015822662 0.23852047 0.14741376 0.38593423
0.039999999 0.021897445 0.016495891 0.23852047 0.14741376 0.38593423
0.039999999 0.022707948 0.017166538 0.23852047 0.14741376 0.38593423
0.039999999 0.023515506 0.017834624 0.23852047 0.14741376 0.38593423
0.039999999 0.024320137 0.018500164 0.23852047 0.14741376 0.38593423
0.039999999 0.02512186 0.019163176 0.23852047 0.14741376 0.38593423
0.039999999 0.025920698 0.01982368 0.23852047 0.14741376 0.38593423
0.039999999 0.026716672 0.020481689 0.23852047 0.14741376 0.38593423
0.039999999 0.027509797 0.021137223 0.23852047 0.14741376 0.38593423
0.039999999 0.028300099 0.021790298 0.23852047 0.14741376 0.38593423
0.039999999 0.029087592 0.022440931 0.23852047 0.14741376 0.38593423
0.039999999 0.029872298 0.023089139 0.23852047 0.14741376 0.38593423
0.039999999 0.030654235 0.023734938 0.23852047 0.14741376 0.38593423
0.039999999 0.031433422 0.024378344 0.23852047 0.14741376 0.38593423
0.039999999 0.032209881 0.025019374 0.23852047 0.14741376 0.38593423
0.039999999 0.032983627 0.025658043 0.23852047 0.14741376 0.38593423
0.039999999 0.03375468 0.026294367 0.23852047 0.14741376 0.38593423
0.039999999 0.034523059 0.026928365 0.23852047 0.14741376 0.38593423
0.039999999 0.035288781 0.027560048 0.23852047 0.14741376 0.38593423
0.039999999 0.036051862 0.028189434 0.23852047 0.14741376 0.38593423
0.039999999 0.036812324 0.028816538 0.23852047 0.14741376 0.38593423
0.039999999 0.037570182 0.029441373 0.23852047 0.14741376 0.38593423
0.039999999 0.038325455 0.030063959 0.23852047 0.14741376 0.38593423
0.039999999 0.039078161 0.030684307 0.23852047 0.14741376 0.38593423
0.039999999 0.039828315 0.031302433 0.23852047 0.14741376 0.38593423
0.039999999 0.040575933 0.031918354 0.23852047 0.14741376 0.38593423
0.039999999 0.041321039 0.032532081 0.23852047 0.14741376 0.38593423
0.039999999 0.042063642 0.033143628 0.23852047 0.14741376 0.38593423
0.039999999 0.042803764 0.033753015 0.23852047 0.14741376 0.38593423
0.039999999 0.043541417 0.034360249 0.23852047 0.14741376 0.38593423
0.039999999 0.044276621 0.034965351 0.23852047 0.14741376 0.38593423
0.039999999 0.045009393 0.03556833 0.23852047 0.14741376 0.38593423
0.039999999 0.045739748 0.036169201 0.23852047 0.14741376 0.38593423
0.039999999 0.046467699 0.036767978 0.23852047 0.14741376 0.38593423
0.039999999 0.047193263 0.037364677 0.23852047 0.14741376 0.38593423
0.039999999 0.047916461 0.037959307 0.23852047 0.14741376 0.38593423
0.039999999 0.048637301 0.038551886 0.23852047 0.14741376 0.38593423
0.039999999 0.049355805 0.039142426 0.23852047 0.14741376 0.38593423
0.039999999 0.050071985 0.039730936 0.23852047 0.14741376 0.38593423
