# .PCD v0.7 - Point Cloud Data file format
VERSION 0.7
FIELDS x y z vp_x vp_y vp_z
SIZE 4 4 4 4 4 4
TYPE F F F F F F
COUNT 1 1 1 1 1 1
WIDTH 697
HEIGHT 1
VIEWPOINT 0 0 0 1 0 0 0
POINTS 697
DATA ascii
0.039999999 0.042943068 0.035403218 0.23852047 -0.14741376 0.38593423
0.039999999 0.043900348 0.034751195 0.23852047 -0.14741376 0.38593423
0.039999999 0.044861596 0.034096517 0.23852047 -0.14741376 0.38593423
0.039999999 0.045826837 0.033439167 0.23852047 -0.14741376 0.38593423
0.039999999 0.04679611 0.03277912 0.23852047 -0.14741376 0.38593423
0.039999999 0.047769435 0.032116357 0.23852047 -0.14741376 0.38593423
0.039999999 0.04874685 0.03145086 0.23852047 -0.14741376 0.38593423
0.039999999 0.049728379 0.030782608 0.23852047 -0.14741376 0.38593423
0.039999999 0.050714057 0.030111581 0.23852047 -0.14741376 0.38593423
0.039999999 0.051703915 0.029437754 0.23852047 -0.14741376 0.38593423
0.039999999 0.052697979 0.028761111 0.23852047 -0.14741376 0.38593423
0.039999999 0.053696286 0.028081629 0.23852047 -0.14741376 0.38593423
0.039999999 0.05469887 0.027399287 0.23852047 -0.14741376 0.38593423
0.039999999 0.055705752 0.02671406 0.23852047 -0.14741376 0.38593423
0.039999999 0.056716979 0.026025932 0.23852047 -0.14741376 0.38593423
0.039999999 0.057732575 0.025334876 0.23852047 -0.14741376 0.38593423
0.039999999 0.058752574 0.024640873 0.23852047 -0.14741376 0.38593423
0.039999999 0.05977701 0.023943899 0.23852047 -0.14741376 0.38593423
0.039999999 0.060805917 0.023243932 0.23852047 -0.14741376 0.38593423
0.039999999 0.061839331 0.022540947 0.23852047 -0.14741376 0.38593423
0.039999999 0.062877283 0.021834923 0.23852047 -0.14741376 0.38593423
0.028503796 0.076158017 0 0.23852047 -0.14741376 0.38593423
0.039999999 0.064966954 0.020413663 0.23852047 -0.14741376 0.38593423
0.039999999 0.066018738 0.01969838 0.23852047 -0.14741376 0.38593423
0.039999999 0.067075208 0.018979961 0.23852047 -0.14741376 0.38593423
0.039999999 0.068136394 0.018258383 0.23852047 -0.14741376 0.38593423
0.039999999 0.069202334 0.017533623 0.23852047 -0.14741376 0.38593423
0.031129478 0.079999998 0.00031182179 0.23852047 -0.14741376 0.38593423
0.039999999 0.071348622 0.016074449 0.23852047 -0.14741376 0.38593423
0.039999999 0.072429053 0.015339987 0.23852047 -0.14741376 0.38593423
0.039999999 0.073514387 0.01460224 0.23852047 -0.14741376 0.38593423
0.035175696 0.079999998 0.004819327 0.23852047 -0.14741376 0.38593423
0.039999999 0.075699925 0.013116789 0.23852047 -0.14741376 0.38593423
0.039999999 0.076800205 0.012369032 0.23852047 -0.14741376 0.38593423
0.039999999 0.077905551 0.011617885 0.23852047 -0.14741376 0.38593423
0.039999999 0.079016 0.010863321 0.23852047 -0.14741376 0.38593423
0.00068810763 0 0.019888751 0.23852047 -0.14741376 0.38593423
0.0020557432 0 0.021410711 0.23852047 -0.14741376 0.38593423
0.003412063 0 0.022920122 0.23852047 -0.14741376 0.38593423
0.0047572129 0 0.024417147 0.23852047 -0.14741376 0.38593423
0.0060913367 0 0.025901947 0.23852047 -0.14741376 0.38593423
0.0074145761 0 0.027374677 0.23852047 -0.14741376 0.38593423
0.008727069 0 0.028835492 0.23852047 -0.14741376 0.38593423
0.010028953 0 0.030284541 0.23852047 -0.14741376 0.38593423
0.01132036 0 0.031721976 0.23852047 -0.14741376 0.38593423
0.012601425 0 0.033147942 0.23852047 -0.14741376 0.38593423
0.013872275 0 0.03456258 0.23852047 -0.14741376 0.38593423
0.01513304 0 0.035966039 0.23852047 -0.14741376 0.38593423
0.016383843 0 0.037358448 0.23852047 -0.14741376 0.38593423
0.017624808 0 0.038739953 0.23852047 -0.14741376 0.38593423
0.018785754 4.7180845e-05 0.039999999 0.23852047 -0.14741376 0.38593423
0.019145017 0.00062941981 0.039999999 0.23852047 -0.14741376 0.38593423
0.019504281 0.0012117218 0.039999999 0.23852047 -0.14741376 0.38593423
0.019863546 0.0017940898 0.039999999 0.23852047 -0.14741376 0.38593423
0.020222815 0.0023765268 0.039999999 0.23852047 -0.14741376 0.38593423
0.020582089 0.0029590358 0.039999999 0.23852047 -0.14741376 0.38593423
0.020941371 0.0035416195 0.039999999 0.23852047 -0.14741376 0.38593423
0.021300662 0.0041242815 0.039999999 0.23852047 -0.14741376 0.38593423
0.021659965 0.004707024 0.039999999 0.23852047 -0.14741376 0.38593423
0.02201928 0.0052898503 0.039999999 0.23852047 -0.14741376 0.38593423
0.02237861 0.0058727632 0.039999999 0.23852047 -0.14741376 0.38593423
0.022737958 0.006455766 0.039999999 0.23852047 -0.14741376 0.38593423
0.023097323 0.0070388615 0.039999999 0.23852047 -0.14741376 0.38593423
0.023456709 0.0076220529 0.039999999 0.23852047 -0.14741376 0.38593423
0.023816118 0.008205343 0.039999999 0.23852047 -0.14741376 0.38593423
0.024175549 0.0087887347 0.039999999 0.23852047 -0.14741376 0.38593423
0.024535006 0.0093722306 0.039999999 0.23852047 -0.14741376 0.38593423
0.024894493 0.0099558346 0.039999999 0.23852047 -0.14741376 0.38593423
0.025254006 0.010539548 0.039999999 0.23852047 -0.14741376 0.38593423
0.025613552 0.011123376 0.039999999 0.23852047 -0.14741376 0.38593423
0.02597313 0.011707321 0.039999999 0.23852047 -0.14741376 0.38593423
0.026332745 0.012291385 0.039999999 0.23852047 -0.14741376 0.38593423
0.026692396 0.012875571 0.039999999 0.23852047 -0.14741376 0.38593423
0.027052084 0.013459884 0.039999999 0.23852047 -0.14741376 0.38593423
0.027411813 0.014044324 0.039999999 0.23852047 -0.14741376 0.38593423
0.027771585 0.014628896 0.039999999 0.23852047 -0.14741376 0.38593423
0.028131401 0.015213602 0.039999999 0.23852047 -0.14741376 0.38593423
0.028491262 0.015798448 0.039999999 0.23852047 -0.14741376 0.38593423
0.028851172 0.016383432 0.039999999 0.23852047 -0.14741376 0.38593423
0.029211132 0.016968559 0.039999999 0.23852047 -0.14741376 0.38593423
0.029571142 0.017553834 0.039999999 0.23852047 -0.14741376 0.38593423
0.029931204 0.018139258 0.039999999 0.23852047 -0.14741376 0.38593423
0.030291324 0.018724836 0.039999999 0.23852047 -0.14741376 0.38593423
0.0306515 0.019310569 0.039999999 0.23852047 -0.14741376 0.38593423
0.031011734 0.019896461 0.039999999 0.23852047 -0.14741376 0.38593423
0.031372029 0.020482512 0.039999999 0.23852047 -0.14741376 0.38593423
0.031732388 0.021068729 0.039999999 0.23852047 -0.14741376 0.38593423
0.03209281 0.021655116 0.039999999 0.23852047 -0.14741376 0.38593423
0.032453299 0.022241673 0.039999999 0.23852047 -0.14741376 0.38593423
0.032813855 0.022828402 0.039999999 0.23852047 -0.14741376 0.38593423
0.033174481 0.023415308 0.039999999 0.23852047 -0.14741376 0.38593423
0.033535179 0.024002396 0.039999999 0.23852047 -0.14741376 0.38593423
0.033895951 0.024589665 0.039999999 0.23852047 -0.14741376 0.38593423
0.034256797 0.025177121 0.039999999 0.23852047 -0.14741376 0.38593423
0.034617722 0.025764765 0.039999999 0.23852047 -0.14741376 0.38593423
0.034978725 0.026352603 0.039999999 0.23852047 -0.14741376 0.38593423
0.03533981 0.026940634 0.039999999 0.23852047 -0.14741376 0.38593423
0.035700977 0.027528865 0.039999999 0.23852047 -0.14741376 0.38593423
0.036062229 0.028117297 0.039999999 0.23852047 -0.14741376 0.38593423
0.036423568 0.028705932 0.039999999 0.23852047 -0.14741376 0.38593423
0.036784995 0.029294776 0.039999999 0.23852047 -0.14741376 0.38593423
0.037146516 0.02988383 0.039999999 0.23852047 -0.14741376 0.38593423
0.037508126 0.030473098 0.039999999 0.23852047 -0.14741376 0.38593423
0.03786983 0.031062583 0.039999999 0.23852047 -0.14741376 0.38593423
0.03823163 0.031652287 0.039999999 0.23852047 -0.14741376 0.38593423
0.038593531 0.032242216 0.039999999 0.23852047 -0.14741376 0.38593423
0.038955528 0.032832369 0.039999999 0.23852047 -0.14741376 0.38593423
0.039317627 0.033422749 0.039999999 0.23852047 -0.14741376 0.38593423
0.039679833 0.034013364 0.039999999 0.23852047 -0.14741376 0.38593423
0.039999999 0.034642864 0.039926548 0.23852047 -0.14741376 0.38593423
0.039999999 0.0355682 0.039293591 0.23852047 -0.14741376 0.38593423
0.039999999 0.036497269 0.03865812 0.23852047 -0.14741376 0.38593423
0.039999999 0.037430104 0.038020123 0.23852047 -0.14741376 0.38593423
0.039999999 0.038366731 0.037379574 0.23852047 -0.14741376 0.38593423
0.039999999 0.039307173 0.036736459 0.23852047 -0.14741376 0.38593423
0.039999999 0.04025146 0.036090754 0.23852047 -0.14741376 0.38593423
0.039999999 0.041199621 0.035442449 0.23852047 -0.14741376 0.38593423
0.039999999 0.042151686 0.034791518 0.23852047 -0.14741376 0.38593423
0.039999999 0.043107681 0.034137946 0.23852047 -0.14741376 0.38593423
0.039999999 0.044067636 0.033481706 0.23852047 -0.14741376 0.38593423
0.039999999 0.045031581 0.032822788 0.23852047 -0.14741376 0.38593423
0.039999999 0.045999542 0.032161165 0.23852047 -0.14741376 0.38593423
0.039999999 0.046971552 0.031496823 0.23852047 -0.14741376 0.38593423
0.039999999 0.047947641 0.030829735 0.23852047 -0.14741376 0.38593423
0.039999999 0.04892784 0.030159885 0.23852047 -0.14741376 0.38593423
0.039999999 0.049912177 0.02948725 0.23852047 -0.14741376 0.38593423
0.039999999 0.050900683 0.028811812 0.23852047 -0.14741376 0.38593423
0.039999999 0.051893391 0.028133547 0.23852047 -0.14741376 0.38593423
0.039999999 0.052890331 0.027452435 0.23852047 -0.14741376 0.38593423
0.039999999 0.053891536 0.026768457 0.23852047 -0.14741376 0.38593423
0.039999999 0.054897036 0.026081586 0.23852047 -0.14741376 0.38593423
0.039999999 0.055906869 0.025391804 0.23852047 -0.14741376 0.38593423
0.039999999 0.056921065 0.024699088 0.23852047 -0.14741376 0.38593423
0.039999999 0.057939652 0.024003416 0.23852047 -0.14741376 0.38593423
0.039999999 0.058962669 0.023304764 0.23852047 -0.14741376 0.38593423
0.039999999 0.059990149 0.022603111 0.23852047 -0.14741376 0.38593423
0.039999999 0.061022125 0.021898434 0.23852047 -0.14741376 0.38593423
0.039999999 0.062058635 0.021190707 0.23852047 -0.14741376 0.38593423
0.039999999 0.063099705 0.02047991 0.23852047 -0.14741376 0.38593423
0.039999999 0.064145386 0.019766018 0.23852047 -0.14741376 0.38593423
0.039999999 0.065195695 0.019049006 0.23852047 -0.14741376 0.38593423
0.039999999 0.066250674 0.018328851 0.23852047 -0.14741376 0.38593423
0.039999999 0.068374805 0.016879013 0.23852047 -0.14741376 0.38593423
0.039999999 0.069444031 0.016149281 0.23852047 -0.14741376 0.38593423
0.039999999 0.070518069 0.015416306 0.23852047 -0.14741376 0.38593423
0.032383136 0.079999998 0.00043573146 0.23852047 -0.14741376 0.38593423
0.039999999 0.072680756 0.013940526 0.23852047 -0.14741376 0.38593423
0.039999999 0.07376948 0.01319767 0.23852047 -0.14741376 0.38593423
0.039999999 0.074863181 0.012451468 0.23852047 -0.14741376 0.38593423
0.037404988 0.079999998 0.0060472023 0.23852047 -0.14741376 0.38593423
0.039999999 0.078174509 0.010192521 0.23852047 -0.14741376 0.38593423
0.039376948 0.079999998 0.00825103 0.23852047 -0.14741376 0.38593423
0.00068954792 0 0.018696195 0.23852047 -0.14741376 0.38593423
0.0020600283 0 0.02022629 0.23852047 -0.14741376 0.38593423
0.0034191455 0 0.021743745 0.23852047 -0.14741376 0.38593423
0.0047670468 0 0.023248717 0.23852047 -0.14741376 0.38593423
0.006103877 0 0.02474137 0.23852047 -0.14741376 0.38593423
0.0074297776 0 0.026221862 0.23852047 -0.14741376 0.38593423
0.0087448889 0 0.027690347 0.23852047 -0.14741376 0.38593423
0.010049348 0 0.02914698 0.23852047 -0.14741376 0.38593423
0.011343289 0 0.030591911 0.23852047 -0.14741376 0.38593423
0.012626845 0 0.032025285 0.23852047 -0.14741376 0.38593423
0.013900149 0 0.033447251 0.23852047 -0.14741376 0.38593423
0.015163325 0 0.034857951 0.23852047 -0.14741376 0.38593423
0.016416501 0 0.03625752 0.23852047 -0.14741376 0.38593423
0.017659804 0 0.037646104 0.23852047 -0.14741376 0.38593423
0.018893352 0 0.039023831 0.23852047 -0.14741376 0.38593423
0.019870231 0.00016673973 0.039999999 0.23852047 -0.14741376 0.38593423
0.020229105 0.00074834679 0.039999999 0.23852047 -0.14741376 0.38593423
0.020587984 0.0013300186 0.039999999 0.23852047 -0.14741376 0.38593423
0.020946868 0.0019117581 0.039999999 0.23852047 -0.14741376 0.38593423
0.02130576 0.0024935682 0.039999999 0.23852047 -0.14741376 0.38593423
0.02166466 0.0030754518 0.039999999 0.23852047 -0.14741376 0.38593423
0.022023574 0.003657412 0.039999999 0.23852047 -0.14741376 0.38593423
0.022382498 0.0042394516 0.039999999 0.23852047 -0.14741376 0.38593423
0.022741439 0.0048215738 0.039999999 0.23852047 -0.14741376 0.38593423
0.023100395 0.0054037813 0.039999999 0.23852047 -0.14741376 0.38593423
0.023459369 0.0059860772 0.039999999 0.23852047 -0.14741376 0.38593423
0.023818364 0.0065684645 0.039999999 0.23852047 -0.14741376 0.38593423
0.024177382 0.0071509462 0.039999999 0.23852047 -0.14741376 0.38593423
0.024536422 0.0077335252 0.039999999 0.23852047 -0.14741376 0.38593423
0.024895489 0.008316204 0.039999999 0.23852047 -0.14741376 0.38593423
0.025254583 0.0088989865 0.039999999 0.23852047 -0.14741376 0.38593423
0.025613707 0.0094818743 0.039999999 0.23852047 -0.14741376 0.38593423
0.02597286 0.010064872 0.039999999 0.23852047 -0.14741376 0.38593423
0.026332047 0.010647982 0.039999999 0.23852047 -0.14741376 0.38593423
0.026691269 0.011231207 0.039999999 0.23852047 -0.14741376 0.38593423
0.027050529 0.01181455 0.039999999 0.23852047 -0.14741376 0.38593423
0.027409825 0.012398014 0.039999999 0.23852047 -0.14741376 0.38593423
0.027769163 0.012981602 0.039999999 0.23852047 -0.14741376 0.38593423
0.028128542 0.013565317 0.039999999 0.23852047 -0.14741376 0.38593423
0.028487965 0.014149162 0.039999999 0.23852047 -0.14741376 0.38593423
0.028847434 0.01473314 0.039999999 0.23852047 -0.14741376 0.38593423
0.02920695 0.015317254 0.039999999 0.23852047 -0.14741376 0.38593423
0.029566517 0.015901508 0.039999999 0.23852047 -0.14741376 0.38593423
0.029926134 0.016485902 0.039999999 0.23852047 -0.14741376 0.38593423
0.030285805 0.017070442 0.039999999 0.23852047 -0.14741376 0.38593423
0.030645531 0.01765513 0.039999999 0.23852047 -0.14741376 0.38593423
0.031005312 0.018239969 0.039999999 0.23852047 -0.14741376 0.38593423
0.031365152 0.018824963 0.039999999 0.23852047 -0.14741376 0.38593423
0.031725053 0.019410113 0.039999999 0.23852047 -0.14741376 0.38593423
0.032085016 0.019995425 0.039999999 0.23852047 -0.14741376 0.38593423
0.032445043 0.020580897 0.039999999 0.23852047 -0.14741376 0.38593423
0.032805137 0.021166537 0.039999999 0.23852047 -0.14741376 0.38593423
0.033165298 0.021752346 0.039999999 0.23852047 -0.14741376 0.38593423
0.03352553 0.022338327 0.039999999 0.23852047 -0.14741376 0.38593423
0.033885833 0.022924483 0.039999999 0.23852047 -0.14741376 0.38593423
0.03424621 0.023510817 0.039999999 0.23852047 -0.14741376 0.38593423
0.034606662 0.024097335 0.039999999 0.23852047 -0.14741376 0.38593423
0.034967188 0.024684034 0.039999999 0.23852047 -0.14741376 0.38593423
0.035327796 0.025270922 0.039999999 0.23852047 -0.14741376 0.38593423
0.035688486 0.025858 0.039999999 0.23852047 -0.14741376 0.38593423
0.036049254 0.026445271 0.039999999 0.23852047 -0.14741376 0.38593423
0.036410112 0.027032739 0.039999999 0.23852047 -0.14741376 0.38593423
0.036771052 0.027620407 0.039999999 0.23852047 -0.14741376 0.38593423
0.037132081 0.028208276 0.039999999 0.23852047 -0.14741376 0.38593423
0.037493203 0.028796352 0.039999999 0.23852047 -0.14741376 0.38593423
0.037854414 0.029384637 0.039999999 0.23852047 -0.14741376 0.38593423
0.038215719 0.029973134 0.039999999 0.23852047 -0.14741376 0.38593423
0.038577121 0.030561848 0.039999999 0.23852047 -0.14741376 0.38593423
0.038938619 0.031150777 0.039999999 0.23852047 -0.14741376 0.38593423
0.039300218 0.031739928 0.039999999 0.23852047 -0.14741376 0.38593423
0.039661922 0.032329302 0.039999999 0.23852047 -0.14741376 0.38593423
0.039999999 0.032940459 0.039958652 0.23852047 -0.14741376 0.38593423
0.039999999 0.033860873 0.039326701 0.23852047 -0.14741376 0.38593423
0.039999999 0.034784988 0.038692251 0.23852047 -0.14741376 0.38593423
0.039999999 0.035712827 0.038055278 0.23852047 -0.14741376 0.38593423
0.039999999 0.036644425 0.037415769 0.23852047 -0.14741376 0.38593423
0.039999999 0.037579808 0.036773708 0.23852047 -0.14741376 0.38593423
0.039999999 0.038518999 0.036129069 0.23852047 -0.14741376 0.38593423
0.039999999 0.039462026 0.035481837 0.23852047 -0.14741376 0.38593423
0.039999999 0.04040892 0.034831993 0.23852047 -0.14741376 0.38593423
0.039999999 0.041359711 0.03417952 0.23852047 -0.14741376 0.38593423
0.039999999 0.042314421 0.033524394 0.23852047 -0.14741376 0.38593423
0.039999999 0.043273088 0.032866597 0.23852047 -0.14741376 0.38593423
0.039999999 0.044235732 0.032206111 0.23852047 -0.14741376 0.38593423
0.039999999 0.045202386 0.031542916 0.23852047 -0.14741376 0.38593423
0.039999999 0.046173081 0.03087699 0.23852047 -0.14741376 0.38593423
0.039999999 0.047147848 0.030208316 0.23852047 -0.14741376 0.38593423
0.039999999 0.048126712 0.029536869 0.23852047 -0.14741376 0.38593423
0.039999999 0.049109709 0.028862631 0.23852047 -0.14741376 0.38593423
0.039999999 0.050096866 0.02818558 0.23852047 -0.14741376 0.38593423
0.039999999 0.051088218 0.027505696 0.23852047 -0.14741376 0.38593423
0.039999999 0.052083794 0.026822958 0.23852047 -0.14741376 0.38593423
0.039999999 0.053083625 0.026137343 0.23852047 -0.14741376 0.38593423
0.039999999 0.054087743 0.025448829 0.23852047 -0.14741376 0.38593423
0.039999999 0.055096183 0.024757396 0.23852047 -0.14741376 0.38593423
0.039999999 0.056108978 0.024063021 0.23852047 -0.14741376 0.38593423
0.039999999 0.057126157 0.02336568 0.23852047 -0.14741376 0.38593423
0.039999999 0.058147758 0.022665353 0.23852047 -0.14741376 0.38593423
0.039999999 0.059173811 0.021962017 0.23852047 -0.14741376 0.38593423
0.039999999 0.060204353 0.021255646 0.23852047 -0.14741376 0.38593423
0.039999999 0.061239414 0.020546218 0.23852047 -0.14741376 0.38593423
0.039999999 0.062279034 0.019833712 0.23852047 -0.14741376 0.38593423
0.039999999 0.063323244 0.019118102 0.23852047 -0.14741376 0.38593423
0.039999999 0.064372085 0.018399363 0.23852047 -0.14741376 0.38593423
0.039999999 0.06542559 0.017677475 0.23852047 -0.14741376 0.38593423
0.030879224 0.076311044 5.5511151e-17 0.23852047 -0.14741376 0.38593423
0.039999999 0.067546725 0.01622414 0.23852047 -0.14741376 0.38593423
0.031697456 0.077649191 0 0.23852047 -0.14741376 0.38593423
0.039999999 0.069686949 0.014757902 0.23852047 -0.14741376 0.38593423
0.039999999 0.070764318 0.01401988 0.23852047 -0.14741376 0.38593423
0.039999999 0.071846575 0.013278556 0.23852047 -0.14741376 0.38593423
0.033633713 0.079999998 0.00055945496 0.23852047 -0.14741376 0.38593423
0.039999999 0.074025892 0.011785895 0.23852047 -0.14741376 0.38593423
0.039999999 0.075123027 0.011034505 0.23852047 -0.14741376 0.38593423
0.039999999 0.076225214 0.010279707 0.23852047 -0.14741376 0.38593423
0.039999999 0.077332482 0.0095214732 0.23852047 -0.14741376 0.38593423
0.039999999 0.078444868 0.0087597771 0.23852047 -0.14741376 0.38593423
0.039999999 0.079562418 0.0079945894 0.23852047 -0.14741376 0.38593423
0.00069099409 0 0.017498719 0.23852047 -0.14741376 0.38593423
0.0020643307 0 0.019037008 0.23852047 -0.14741376 0.38593423
0.0034262568 0 0.020562558 0.23852047 -0.14741376 0.38593423
0.0047769207 0 0.022075528 0.23852047 -0.14741376 0.38593423
0.006116468 0 0.023576088 0.23852047 -0.14741376 0.38593423
0.0074450406 0 0.025064394 0.23852047 -0.14741376 0.38593423
0.0087627806 0 0.026540602 0.23852047 -0.14741376 0.38593423
0.010069825 0 0.028004866 0.23852047 -0.14741376 0.38593423
0.01136631 0 0.029457342 0.23852047 -0.14741376 0.38593423
0.012652368 0 0.030898174 0.23852047 -0.14741376 0.38593423
0.013928132 0 0.03232751 0.23852047 -0.14741376 0.38593423
0.01519373 0 0.033745497 0.23852047 -0.14741376 0.38593423
0.016449289 0 0.035152275 0.23852047 -0.14741376 0.38593423
0.017694935 0 0.036547981 0.23852047 -0.14741376 0.38593423
0.018930789 0 0.037932754 0.23852047 -0.14741376 0.38593423
0.020156972 0 0.03930673 0.23852047 -0.14741376 0.38593423
0.020952197 0.00028608003 0.039999999 0.23852047 -0.14741376 0.38593423
0.021310689 0.0008670573 0.039999999 0.23852047 -0.14741376 0.38593423
0.02166919 0.001448101 0.039999999 0.23852047 -0.14741376 0.38593423
0.022027701 0.0020292141 0.039999999 0.23852047 -0.14741376 0.38593423
0.022386221 0.0026103992 0.039999999 0.23852047 -0.14741376 0.38593423
0.022744754 0.0031916597 0.039999999 0.23852047 -0.14741376 0.38593423
0.023103302 0.0037729982 0.039999999 0.23852047 -0.14741376 0.38593423
0.023461869 0.0043544178 0.039999999 0.23852047 -0.14741376 0.38593423
0.023820451 0.0049359216 0.039999999 0.23852047 -0.14741376 0.38593423
0.024179054 0.0055175126 0.039999999 0.23852047 -0.14741376 0.38593423
0.024537679 0.0060991934 0.039999999 0.23852047 -0.14741376 0.38593423
0.024896329 0.0066809668 0.039999999 0.23852047 -0.14741376 0.38593423
0.025255004 0.0072628367 0.039999999 0.23852047 -0.14741376 0.38593423
0.025613705 0.0078448048 0.039999999 0.23852047 -0.14741376 0.38593423
0.025972435 0.0084268749 0.039999999 0.23852047 -0.14741376 0.38593423
0.026331197 0.0090090502 0.039999999 0.23852047 -0.14741376 0.38593423
0.026689993 0.0095913326 0.039999999 0.23852047 -0.14741376 0.38593423
0.027048822 0.010173726 0.039999999 0.23852047 -0.14741376 0.38593423
0.027407689 0.010756233 0.039999999 0.23852047 -0.14741376 0.38593423
0.027766593 0.011338856 0.039999999 0.23852047 -0.14741376 0.38593423
0.028125538 0.0119216 0.039999999 0.23852047 -0.14741376 0.38593423
0.028484523 0.012504466 0.039999999 0.23852047 -0.14741376 0.38593423
0.028843554 0.013087457 0.039999999 0.23852047 -0.14741376 0.38593423
0.029202629 0.013670577 0.039999999 0.23852047 -0.14741376 0.38593423
0.029561752 0.014253829 0.039999999 0.23852047 -0.14741376 0.38593423
0.029920924 0.014837215 0.039999999 0.23852047 -0.14741376 0.38593423
0.030280149 0.015420738 0.039999999 0.23852047 -0.14741376 0.38593423
0.030639425 0.016004402 0.039999999 0.23852047 -0.14741376 0.38593423
0.030998755 0.016588209 0.039999999 0.23852047 -0.14741376 0.38593423
0.031358141 0.017172163 0.039999999 0.23852047 -0.14741376 0.38593423
0.031717591 0.017756267 0.039999999 0.23852047 -0.14741376 0.38593423
0.032077096 0.018340522 0.039999999 0.23852047 -0.14741376 0.38593423
0.032436665 0.018924933 0.039999999 0.23852047 -0.14741376 0.38593423
0.032796297 0.019509504 0.039999999 0.23852047 -0.14741376 0.38593423
0.033155993 0.020094234 0.039999999 0.23852047 -0.14741376 0.38593423
0.033515759 0.020679131 0.039999999 0.23852047 -0.14741376 0.38593423
0.033875596 0.021264194 0.039999999 0.23852047 -0.14741376 0.38593423
0.0342355 0.021849429 0.039999999 0.23852047 -0.14741376 0.38593423
0.034595482 0.022434836 0.039999999 0.23852047 -0.14741376 0.38593423
0.034955535 0.02302042 0.039999999 0.23852047 -0.14741376 0.38593423
0.035315666 0.023606185 0.039999999 0.23852047 -0.14741376 0.38593423
0.035675876 0.02419213 0.039999999 0.23852047 -0.14741376 0.38593423
0.036036167 0.024778264 0.039999999 0.23852047 -0.14741376 0.38593423
0.036396541 0.025364583 0.039999999 0.23852047 -0.14741376 0.38593423
0.036756996 0.025951097 0.039999999 0.23852047 -0.14741376 0.38593423
0.037117541 0.026537806 0.039999999 0.23852047 -0.14741376 0.38593423
0.037478171 0.02712471 0.039999999 0.23852047 -0.14741376 0.38593423
0.037838891 0.027711818 0.039999999 0.23852047 -0.14741376 0.38593423
0.038199704 0.028299129 0.039999999 0.23852047 -0.14741376 0.38593423
0.038560614 0.028886646 0.039999999 0.23852047 -0.14741376 0.38593423
0.038921613 0.029474374 0.039999999 0.23852047 -0.14741376 0.38593423
0.039282713 0.030062314 0.039999999 0.23852047 -0.14741376 0.38593423
0.03964391 0.030650472 0.039999999 0.23852047 -0.14741376 0.38593423
0.039999999 0.03124354 0.039990917 0.23852047 -0.14741376 0.38593423
0.039999999 0.032159071 0.039359968 0.23852047 -0.14741376 0.38593423
0.039999999 0.033078272 0.038726531 0.23852047 -0.14741376 0.38593423
0.039999999 0.034001164 0.038090587 0.23852047 -0.14741376 0.38593423
0.039999999 0.034927782 0.037452117 0.23852047 -0.14741376 0.38593423
0.039999999 0.035858143 0.036811102 0.23852047 -0.14741376 0.38593423
0.039999999 0.036792282 0.036167521 0.23852047 -0.14741376 0.38593423
0.039999999 0.037730221 0.035521362 0.23852047 -0.14741376 0.38593423
0.039999999 0.038671993 0.034872603 0.23852047 -0.14741376 0.38593423
0.039999999 0.03961762 0.034221224 0.23852047 -0.14741376 0.38593423
0.039999999 0.040567137 0.033567205 0.23852047 -0.14741376 0.38593423
0.039999999 0.041520566 0.03291053 0.23852047 -0.14741376 0.38593423
0.039999999 0.042477939 0.032251179 0.23852047 -0.14741376 0.38593423
0.039999999 0.043439288 0.031589128 0.23852047 -0.14741376 0.38593423
0.039999999 0.044404637 0.030924359 0.23852047 -0.14741376 0.38593423
0.039999999 0.045374017 0.030256854 0.23852047 -0.14741376 0.38593423
0.039999999 0.046347462 0.029586591 0.23852047 -0.14741376 0.38593423
0.039999999 0.047324996 0.02891355 0.23852047 -0.14741376 0.38593423
0.039999999 0.048306655 0.02823771 0.23852047 -0.14741376 0.38593423
0.039999999 0.049292464 0.027559048 0.23852047 -0.14741376 0.38593423
0.039999999 0.05028246 0.026877547 0.23852047 -0.14741376 0.38593423
0.039999999 0.051276673 0.026193181 0.23852047 -0.14741376 0.38593423
0.039999999 0.052275132 0.025505932 0.23852047 -0.14741376 0.38593423
0.039999999 0.053277869 0.024815777 0.23852047 -0.14741376 0.38593423
0.039999999 0.054284919 0.024122695 0.23852047 -0.14741376 0.38593423
0.039999999 0.055296317 0.023426659 0.23852047 -0.14741376 0.38593423
0.039999999 0.056312088 0.022727653 0.23852047 -0.14741376 0.38593423
0.0279845 0.069724575 0 0.23852047 -0.14741376 0.38593423
0.039999999 0.0583569 0.021320634 0.23852047 -0.14741376 0.38593423
0.039999999 0.059386007 0.020612571 0.23852047 -0.14741376 0.38593423
0.039999999 0.060419627 0.019901445 0.23852047 -0.14741376 0.38593423
0.039999999 0.061457794 0.019187231 0.23852047 -0.14741376 0.38593423
0.039999999 0.062500544 0.018469905 0.23852047 -0.14741376 0.38593423
0.039999999 0.063547909 0.017749442 0.23852047 -0.14741376 0.38593423
0.039999999 0.064599931 0.017025819 0.23852047 -0.14741376 0.38593423
0.031246267 0.075051948 0 0.23852047 -0.14741376 0.38593423
0.039999999 0.066718079 0.015568993 0.23852047 -0.14741376 0.38593423
0.032063566 0.076387443 0 0.23852047 -0.14741376 0.38593423
0.039999999 0.068855278 0.014099226 0.23852047 -0.14741376 0.38593423
0.039999999 0.06993112 0.013359427 0.23852047 -0.14741376 0.38593423
0.039999999 0.071011834 0.012616316 0.23852047 -0.14741376 0.38593423
0.039999999 0.072097458 0.011869867 0.23852047 -0.14741376 0.38593423
0.039999999 0.073188044 0.011120055 0.23852047 -0.14741376 0.38593423
0.039999999 0.074283615 0.010366851 0.23852047 -0.14741376 0.38593423
0.039999999 0.075384222 0.0096102301 0.23852047 -0.14741376 0.38593423
0.039999999 0.076489896 0.0088501638 0.23852047 -0.14741376 0.38593423
0.039999999 0.07760068 0.0080866255 0.23852047 -0.14741376 0.38593423
0.039999999 0.078716628 0.0073195868 0.23852047 -0.14741376 0.38593423
0.039999999 0.079837762 0.0065490198 0.23852047 -0.14741376 0.38593423
0.00069244625 0 0.016296292 0.23852047 -0.14741376 0.38593423
0.0020686509 0 0.017842827 0.23852047 -0.14741376 0.38593423
0.0034333975 0 0.019376526 0.23852047 -0.14741376 0.38593423
0.0047868351 2.7755576e-17 0.020897551 0.23852047 -0.14741376 0.38593423
0.0061291098 0 0.022406068 0.23852047 -0.14741376 0.38593423
0.0074603655 0 0.023902236 0.23852047 -0.14741376 0.38593423
0.0087807439 0 0.025386216 0.23852047 -0.14741376 0.38593423
0.010090384 0 0.026858164 0.23852047 -0.14741376 0.38593423
0.011389421 0 0.028318232 0.23852047 -0.14741376 0.38593423
0.012677992 0 0.029766571 0.23852047 -0.14741376 0.38593423
0.013956226 0 0.031203328 0.23852047 -0.14741376 0.38593423
0.015224255 0 0.032628648 0.23852047 -0.14741376 0.38593423
0.016482206 0 0.034042675 0.23852047 -0.14741376 0.38593423
0.017730203 0 0.035445552 0.23852047 -0.14741376 0.38593423
0.018968372 0 0.036837414 0.23852047 -0.14741376 0.38593423
0.020196835 0 0.038218401 0.23852047 -0.14741376 0.38593423
0.021415707 0 0.039588641 0.23852047 -0.14741376 0.38593423
0.022031672 0.00040519974 0.039999999 0.23852047 -0.14741376 0.38593423
0.02238979 0.0009855493 0.039999999 0.23852047 -0.14741376 0.38593423
0.022747919 0.0015659669 0.039999999 0.23852047 -0.14741376 0.38593423
0.023106061 0.0021464555 0.039999999 0.23852047 -0.14741376 0.38593423
0.023464216 0.0027270177 0.039999999 0.23852047 -0.14741376 0.38593423
0.02382239 0.0033076571 0.039999999 0.23852047 -0.14741376 0.38593423
0.02418058 0.0038883761 0.039999999 0.23852047 -0.14741376 0.38593423
0.024538791 0.0044691777 0.039999999 0.23852047 -0.14741376 0.38593423
0.024897024 0.005050065 0.039999999 0.23852047 -0.14741376 0.38593423
0.02525528 0.0056310412 0.039999999 0.23852047 -0.14741376 0.38593423
0.025613561 0.0062121088 0.039999999 0.23852047 -0.14741376 0.38593423
0.025971871 0.0067932708 0.039999999 0.23852047 -0.14741376 0.38593423
0.026330208 0.0073745302 0.039999999 0.23852047 -0.14741376 0.38593423
0.026688578 0.0079558901 0.039999999 0.23852047 -0.14741376 0.38593423
0.027046978 0.008537353 0.039999999 0.23852047 -0.14741376 0.38593423
0.027405415 0.009118923 0.039999999 0.23852047 -0.14741376 0.38593423
0.027763886 0.0097006019 0.039999999 0.23852047 -0.14741376 0.38593423
0.028122397 0.010282393 0.039999999 0.23852047 -0.14741376 0.38593423
0.028480949 0.010864299 0.039999999 0.23852047 -0.14741376 0.38593423
0.028839542 0.011446323 0.039999999 0.23852047 -0.14741376 0.38593423
0.029198177 0.012028469 0.039999999 0.23852047 -0.14741376 0.38593423
0.029556857 0.012610738 0.039999999 0.23852047 -0.14741376 0.38593423
0.029915586 0.013193134 0.039999999 0.23852047 -0.14741376 0.38593423
0.030274365 0.013775662 0.039999999 0.23852047 -0.14741376 0.38593423
0.030633193 0.014358321 0.039999999 0.23852047 -0.14741376 0.38593423
0.030992074 0.014941117 0.039999999 0.23852047 -0.14741376 0.38593423
0.031351011 0.015524051 0.039999999 0.23852047 -0.14741376 0.38593423
0.031710003 0.016107127 0.039999999 0.23852047 -0.14741376 0.38593423
0.032069054 0.016690349 0.039999999 0.23852047 -0.14741376 0.38593423
0.032428164 0.017273718 0.039999999 0.23852047 -0.14741376 0.38593423
0.032787338 0.017857239 0.039999999 0.23852047 -0.14741376 0.38593423
0.033146571 0.018440913 0.039999999 0.23852047 -0.14741376 0.38593423
0.033505876 0.019024745 0.039999999 0.23852047 -0.14741376 0.38593423
0.033865243 0.019608736 0.039999999 0.23852047 -0.14741376 0.38593423
0.034224682 0.020192889 0.039999999 0.23852047 -0.14741376 0.38593423
0.034584191 0.020777211 0.039999999 0.23852047 -0.14741376 0.38593423
0.034943774 0.021361699 0.039999999 0.23852047 -0.14741376 0.38593423
0.035303429 0.021946359 0.039999999 0.23852047 -0.14741376 0.38593423
0.035663165 0.022531196 0.039999999 0.23852047 -0.14741376 0.38593423
0.036022976 0.02311621 0.039999999 0.23852047 -0.14741376 0.38593423
0.036382869 0.023701405 0.039999999 0.23852047 -0.14741376 0.38593423
0.036742844 0.024286784 0.039999999 0.23852047 -0.14741376 0.38593423
0.0371029 0.02487235 0.039999999 0.23852047 -0.14741376 0.38593423
0.037463047 0.025458107 0.039999999 0.23852047 -0.14741376 0.38593423
0.037823278 0.026044056 0.039999999 0.23852047 -0.14741376 0.38593423
0.0381836 0.0266302 0.039999999 0.23852047 -0.14741376 0.38593423
0.03854401 0.027216546 0.039999999 0.23852047 -0.14741376 0.38593423
0.038904518 0.027803093 0.039999999 0.23852047 -0.14741376 0.38593423
0.039265119 0.028389847 0.039999999 0.23852047 -0.14741376 0.38593423
0.039625816 0.028976807 0.039999999 0.23852047 -0.14741376 0.38593423
0.039986614 0.02956398 0.039999999 0.23852047 -0.14741376 0.38593423
0.039999999 0.030462742 0.039393377 0.23852047 -0.14741376 0.38593423
0.039999999 0.03137707 0.038760949 0.23852047 -0.14741376 0.38593423
0.039999999 0.032295059 0.038126025 0.23852047 -0.14741376 0.38593423
0.039999999 0.033216733 0.037488591 0.23852047 -0.14741376 0.38593423
0.039999999 0.034142122 0.03684862 0.23852047 -0.14741376 0.38593423
0.039999999 0.03507125 0.0362061 0.23852047 -0.14741376 0.38593423
0.039999999 0.036004148 0.035561007 0.23852047 -0.14741376 0.38593423
0.039999999 0.036940839 0.034913328 0.23852047 -0.14741376 0.38593423
0.039999999 0.037881352 0.034263041 0.23852047 -0.14741376 0.38593423
0.039999999 0.038825717 0.033610128 0.23852047 -0.14741376 0.38593423
0.039999999 0.03977396 0.03295457 0.23852047 -0.14741376 0.38593423
0.039999999 0.04072611 0.032296345 0.23852047 -0.14741376 0.38593423
0.039999999 0.041682195 0.031635437 0.23852047 -0.14741376 0.38593423
0.039999999 0.042642247 0.030971821 0.23852047 -0.14741376 0.38593423
0.039999999 0.043606292 0.030305482 0.23852047 -0.14741376 0.38593423
0.039999999 0.044574361 0.0296364 0.23852047 -0.14741376 0.38593423
0.039999999 0.045546483 0.028964549 0.23852047 -0.14741376 0.38593423
0.039999999 0.046522688 0.028289914 0.23852047 -0.14741376 0.38593423
0.039999999 0.047503009 0.027612472 0.23852047 -0.14741376 0.38593423
0.039999999 0.048487477 0.026932202 0.23852047 -0.14741376 0.38593423
0.039999999 0.049476117 0.026249083 0.23852047 -0.14741376 0.38593423
0.039999999 0.050468966 0.025563093 0.23852047 -0.14741376 0.38593423
0.039999999 0.051466055 0.024874212 0.23852047 -0.14741376 0.38593423
0.039999999 0.052467413 0.024182416 0.23852047 -0.14741376 0.38593423
0.039999999 0.053473074 0.023487685 0.23852047 -0.14741376 0.38593423
0.039999999 0.054483071 0.022789994 0.23852047 -0.14741376 0.38593423
0.039999999 0.055497438 0.022089323 0.23852047 -0.14741376 0.38593423
0.039999999 0.056516208 0.021385649 0.23852047 -0.14741376 0.38593423
0.039999999 0.057539411 0.020678949 0.23852047 -0.14741376 0.38593423
0.029167559 0.069806606 5.5511151e-17 0.23852047 -0.14741376 0.38593423
0.039999999 0.059599262 0.019256374 0.23852047 -0.14741376 0.38593423
0.039999999 0.060635976 0.018540453 0.23852047 -0.14741376 0.38593423
0.030389046 0.071799971 0 0.23852047 -0.14741376 0.38593423
0.039999999 0.062723167 0.017099226 0.23852047 -0.14741376 0.38593423
0.039999999 0.063773707 0.016373871 0.23852047 -0.14741376 0.38593423
0.039999999 0.064828932 0.015645323 0.23852047 -0.14741376 0.38593423
0.039999999 0.065888867 0.014913555 0.23852047 -0.14741376 0.38593423
0.039999999 0.066953562 0.014178544 0.23852047 -0.14741376 0.38593423
0.032837018 0.075796396 5.5511151e-17 0.23852047 -0.14741376 0.38593423
0.033245686 0.076463766 0 0.23852047 -0.14741376 0.38593423
0.039999999 0.070176534 0.011953793 0.23852047 -0.14741376 0.38593423
0.039999999 0.071260616 0.011205551 0.23852047 -0.14741376 0.38593423
0.03447289 0.078468181 0 0.23852047 -0.14741376 0.38593423
0.039999999 0.073443644 0.009698919 0.23852047 -0.14741376 0.38593423
0.039999999 0.074542671 0.0089404769 0.23852047 -0.14741376 0.38593423
0.039999999 0.075646758 0.0081785796 0.23852047 -0.14741376 0.38593423
0.039999999 0.076755948 0.0074132006 0.23852047 -0.14741376 0.38593423
0.039999999 0.077870287 0.0066443123 0.23852047 -0.14741376 0.38593423
0.039999999 0.078989804 0.0058718864 0.23852047 -0.14741376 0.38593423
0.00069390447 0 0.015088874 0.23852047 -0.14741376 0.38593423
0.0020729888 0 0.016643712 0.23852047 -0.14741376 0.38593423
0.0034405673 0 0.018185614 0.23852047 -0.14741376 0.38593423
0.00479679 2.7755576e-17 0.019714745 0.23852047 -0.14741376 0.38593423
0.0061418037 0 0.021231271 0.23852047 -0.14741376 0.38593423
0.0074757528 0 0.022735357 0.23852047 -0.14741376 0.38593423
0.0087987809 0 0.024227161 0.23852047 -0.14741376 0.38593423
0.010111026 0 0.025706843 0.23852047 -0.14741376 0.38593423
0.011412627 0 0.027174553 0.23852047 -0.14741376 0.38593423
0.012703718 0 0.028630445 0.23852047 -0.14741376 0.38593423
0.013984432 0 0.030074669 0.23852047 -0.14741376 0.38593423
0.015254901 0 0.031507373 0.23852047 -0.14741376 0.38593423
0.016515251 0 0.032928698 0.23852047 -0.14741376 0.38593423
0.017765611 0 0.034338791 0.23852047 -0.14741376 0.38593423
0.019006103 0 0.035737786 0.23852047 -0.14741376 0.38593423
0.02023685 0 0.037125826 0.23852047 -0.14741376 0.38593423
0.021457972 0 0.03850304 0.23852047 -0.14741376 0.38593423
0.022669589 0 0.039869566 0.23852047 -0.14741376 0.38593423
0.023108678 0.00052409677 0.039999999 0.23852047 -0.14741376 0.38593423
0.023466427 0.0011038206 0.039999999 0.23852047 -0.14741376 0.38593423
0.023824189 0.0016836142 0.039999999 0.23852047 -0.14741376 0.38593423
0.024181969 0.0022634803 0.039999999 0.23852047 -0.14741376 0.38593423
0.024539767 0.0028434219 0.039999999 0.23852047 -0.14741376 0.38593423
0.024897583 0.0034234419 0.039999999 0.23852047 -0.14741376 0.38593423
0.025255423 0.0040035434 0.039999999 0.23852047 -0.14741376 0.38593423
0.025613286 0.004583729 0.039999999 0.23852047 -0.14741376 0.38593423
0.025971172 0.0051640021 0.039999999 0.23852047 -0.14741376 0.38593423
0.026329089 0.005744365 0.039999999 0.23852047 -0.14741376 0.38593423
0.026687032 0.0063248212 0.039999999 0.23852047 -0.14741376 0.38593423
0.027045008 0.0069053737 0.039999999 0.23852047 -0.14741376 0.38593423
0.027403016 0.0074860249 0.039999999 0.23852047 -0.14741376 0.38593423
0.027761057 0.0080667781 0.039999999 0.23852047 -0.14741376 0.38593423
0.028119136 0.0086476365 0.039999999 0.23852047 -0.14741376 0.38593423
0.028477252 0.0092286021 0.039999999 0.23852047 -0.14741376 0.38593423
0.028835407 0.0098096794 0.039999999 0.23852047 -0.14741376 0.38593423
0.029193604 0.010390869 0.039999999 0.23852047 -0.14741376 0.38593423
0.029551845 0.010972177 0.039999999 0.23852047 -0.14741376 0.38593423
0.029910132 0.011553604 0.039999999 0.23852047 -0.14741376 0.38593423
0.030268466 0.012135154 0.039999999 0.23852047 -0.14741376 0.38593423
0.030626848 0.012716829 0.039999999 0.23852047 -0.14741376 0.38593423
0.030985281 0.013298633 0.039999999 0.23852047 -0.14741376 0.38593423
0.031343766 0.013880568 0.039999999 0.23852047 -0.14741376 0.38593423
0.031702306 0.014462637 0.039999999 0.23852047 -0.14741376 0.38593423
0.032060903 0.015044844 0.039999999 0.23852047 -0.14741376 0.38593423
0.032419559 0.015627192 0.039999999 0.23852047 -0.14741376 0.38593423
0.032778271 0.016209682 0.039999999 0.23852047 -0.14741376 0.38593423
0.033137046 0.01679232 0.039999999 0.23852047 -0.14741376 0.38593423
0.033495884 0.017375106 0.039999999 0.23852047 -0.14741376 0.38593423
0.03385479 0.017958047 0.039999999 0.23852047 -0.14741376 0.38593423
0.034213763 0.01854114 0.039999999 0.23852047 -0.14741376 0.38593423
0.034572802 0.019124392 0.039999999 0.23852047 -0.14741376 0.38593423
0.034931913 0.019707808 0.039999999 0.23852047 -0.14741376 0.38593423
0.035291098 0.020291386 0.039999999 0.23852047 -0.14741376 0.38593423
0.035650358 0.020875132 0.039999999 0.23852047 -0.14741376 0.38593423
0.036009692 0.021459049 0.039999999 0.23852047 -0.14741376 0.38593423
0.036369104 0.022043137 0.039999999 0.23852047 -0.14741376 0.38593423
0.036728598 0.022627404 0.039999999 0.23852047 -0.14741376 0.38593423
0.037088174 0.02321185 0.039999999 0.23852047 -0.14741376 0.38593423
0.037447833 0.023796476 0.039999999 0.23852047 -0.14741376 0.38593423
0.037807576 0.024381289 0.039999999 0.23852047 -0.14741376 0.38593423
0.03816741 0.024966292 0.039999999 0.23852047 -0.14741376 0.38593423
0.038527329 0.025551485 0.039999999 0.23852047 -0.14741376 0.38593423
0.038887341 0.026136871 0.039999999 0.23852047 -0.14741376 0.38593423
0.039247446 0.026722457 0.039999999 0.23852047 -0.14741376 0.38593423
0.039607648 0.027308242 0.039999999 0.23852047 -0.14741376 0.38593423
0.039967943 0.027894232 0.039999999 0.23852047 -0.14741376 0.38593423
0.039999999 0.028771827 0.0394269 0.23852047 -0.14741376 0.38593423
0.039999999 0.029681327 0.038795482 0.23852047 -0.14741376 0.38593423
0.039999999 0.030594453 0.03816158 0.23852047 -0.14741376 0.38593423
0.039999999 0.031511232 0.037525173 0.23852047 -0.14741376 0.38593423
0.039999999 0.032431688 0.036886245 0.23852047 -0.14741376 0.38593423
0.039999999 0.033355854 0.03624478 0.23852047 -0.14741376 0.38593423
0.039999999 0.03428375 0.035600752 0.23852047 -0.14741376 0.38593423
0.039999999 0.035215408 0.034954149 0.23852047 -0.14741376 0.38593423
0.039999999 0.03615085 0.034304954 0.23852047 -0.14741376 0.38593423
0.039999999 0.037090108 0.03365314 0.23852047 -0.14741376 0.38593423
0.039999999 0.03803321 0.032998692 0.23852047 -0.14741376 0.38593423
0.039999999 0.038980182 0.032341596 0.23852047 -0.14741376 0.38593423
0.039999999 0.039931051 0.031681821 0.23852047 -0.14741376 0.38593423
0.039999999 0.040885851 0.031019358 0.23852047 -0.14741376 0.38593423
0.039999999 0.041844606 0.030354181 0.23852047 -0.14741376 0.38593423
0.039999999 0.042807348 0.029686274 0.23852047 -0.14741376 0.38593423
0.039999999 0.043774106 0.029015612 0.23852047 -0.14741376 0.38593423
0.039999999 0.044744909 0.028342178 0.23852047 -0.14741376 0.38593423
0.039999999 0.045719787 0.02766595 0.23852047 -0.14741376 0.38593423
0.039999999 0.046698775 0.026986908 0.23852047 -0.14741376 0.38593423
0.039999999 0.047681894 0.026305031 0.23852047 -0.14741376 0.38593423
0.039999999 0.048669182 0.025620295 0.23852047 -0.14741376 0.38593423
0.039999999 0.049660672 0.024932683 0.23852047 -0.14741376 0.38593423
0.039999999 0.050656389 0.02424217 0.23852047 -0.14741376 0.38593423
0.039999999 0.051656369 0.023548735 0.23852047 -0.14741376 0.38593423
0.039999999 0.052660644 0.022852356 0.23852047 -0.14741376 0.38593423
0.039999999 0.053669248 0.022153011 0.23852047 -0.14741376 0.38593423
0.039999999 0.054682206 0.021450676 0.23852047 -0.14741376 0.38593423
0.039999999 0.055699565 0.020745331 0.23852047 -0.14741376 0.38593423
0.039999999 0.056721345 0.020036951 0.23852047 -0.14741376 0.38593423
0.039999999 0.057747588 0.019325512 0.23852047 -0.14741376 0.38593423
0.039999999 0.058778323 0.018610992 0.23852047 -0.14741376 0.38593423
0.039999999 0.059813589 0.017893367 0.23852047 -0.14741376 0.38593423
0.039999999 0.060853418 0.017172612 0.23852047 -0.14741376 0.38593423
0.039999999 0.061897848 0.016448705 0.23852047 -0.14741376 0.38593423
0.039999999 0.062946916 0.015721619 0.23852047 -0.14741376 0.38593423
0.039999999 0.064000651 0.014991331 0.23852047 -0.14741376 0.38593423
0.032384589 0.073209725 0 0.23852047 -0.14741376 0.38593423
0.039999999 0.066122279 0.013521047 0.23852047 -0.14741376 0.38593423
0.039999999 0.067190245 0.012781003 0.23852047 -0.14741376 0.38593423
0.039999999 0.068263032 0.012037653 0.23852047 -0.14741376 0.38593423
0.039999999 0.069340669 0.011290974 0.23852047 -0.14741376 0.38593423
0.039999999 0.070423208 0.010540939 0.23852047 -0.14741376 0.38593423
0.039999999 0.071510673 0.0097875213 0.23852047 -0.14741376 0.38593423
0.035243403 0.077874772 0 0.23852047 -0.14741376 0.38593423
0.039999999 0.07370057 0.0082704322 0.23852047 -0.14741376 0.38593423
0.036062032 0.079211093 5.5511151e-17 0.23852047 -0.14741376 0.38593423
0.039999999 0.075910665 0.0067394888 0.23852047 -0.14741376 0.38593423
0.039999999 0.077023394 0.0059687523 0.23852047 -0.14741376 0.38593423
0.039999999 0.078141294 0.0051944684 0.23852047 -0.14741376 0.38593423
0.039999999 0.07926441 0.0044166087 0.23852047 -0.14741376 0.38593423
0.00069536874 0 0.013876429 0.23852047 -0.14741376 0.38593423
0.0020773448 0 0.015439626 0.23852047 -0.14741376 0.38593423
0.0034477669 0 0.016989786 0.23852047 -0.14741376 0.38593423
0.0048067858 0 0.018527078 0.23852047 -0.14741376 0.38593423
0.0061545488 0 0.020051667 0.23852047 -0.14741376 0.38593423
0.007491203 0 0.021563722 0.23852047 -0.14741376 0.38593423
0.0088168904 0 0.023063401 0.23852047 -0.14741376 0.38593423
0.010131751 0 0.024550864 0.23852047 -0.14741376 0.38593423
0.011435925 0 0.026026268 0.23852047 -0.14741376 0.38593423
0.012729547 0 0.027489765 0.23852047 -0.14741376 0.38593423
0.014012751 0 0.028941505 0.23852047 -0.14741376 0.38593423
0.015285669 0 0.030381639 0.23852047 -0.14741376 0.38593423
0.016548429 0 0.03181031 0.23852047 -0.14741376 0.38593423
0.017801158 0 0.033227663 0.23852047 -0.14741376 0.38593423
0.019043982 0 0.034633838 0.23852047 -0.14741376 0.38593423
0.020277023 0 0.036028974 0.23852047 -0.14741376 0.38593423
0.021500403 0 0.03741321 0.23852047 -0.14741376 0.38593423
0.02271424 0 0.038786676 0.23852047 -0.14741376 0.38593423
0.023825863 6.3737185e-05 0.039999999 0.23852047 -0.14741376 0.38593423
0.024183232 0.00064276904 0.039999999 0.23852047 -0.14741376 0.38593423
0.024540618 0.0012218693 0.039999999 0.23852047 -0.14741376 0.38593423
0.024898021 0.0018010407 0.039999999 0.23852047 -0.14741376 0.38593423
0.025255444 0.0023802863 0.039999999 0.23852047 -0.14741376 0.38593423
0.025612889 0.0029596093 0.039999999 0.23852047 -0.14741376 0.38593423
0.025970357 0.003539012 0.039999999 0.23852047 -0.14741376 0.38593423
0.02632785 0.0041184979 0.039999999 0.23852047 -0.14741376 0.38593423
0.02668537 0.0046980693 0.039999999 0.23852047 -0.14741376 0.38593423
0.02704292 0.0052777301 0.039999999 0.23852047 -0.14741376 0.38593423
0.027400499 0.0058574821 0.039999999 0.23852047 -0.14741376 0.38593423
0.027758112 0.0064373291 0.039999999 0.23852047 -0.14741376 0.38593423
0.028115759 0.0070172735 0.039999999 0.23852047 -0.14741376 0.38593423
0.028473442 0.0075973189 0.039999999 0.23852047 -0.14741376 0.38593423
0.028831163 0.0081774676 0.039999999 0.23852047 -0.14741376 0.38593423
0.029188924 0.0087577226 0.039999999 0.23852047 -0.14741376 0.38593423
0.029546726 0.0093380865 0.039999999 0.23852047 -0.14741376 0.38593423
0.02990457 0.0099185631 0.039999999 0.23852047 -0.14741376 0.38593423
0.030262461 0.010499155 0.039999999 0.23852047 -0.14741376 0.38593423
0.030620398 0.011079866 0.039999999 0.23852047 -0.14741376 0.38593423
0.030978385 0.011660697 0.039999999 0.23852047 -0.14741376 0.38593423
0.031336423 0.012241652 0.039999999 0.23852047 -0.14741376 0.38593423
0.031694509 0.012822735 0.039999999 0.23852047 -0.14741376 0.38593423
0.032052655 0.013403947 0.039999999 0.23852047 -0.14741376 0.38593423
0.032410853 0.013985293 0.039999999 0.23852047 -0.14741376 0.38593423
0.03276911 0.014566774 0.039999999 0.23852047 -0.14741376 0.38593423
0.033127427 0.015148395 0.039999999 0.23852047 -0.14741376 0.38593423
0.033485804 0.015730157 0.039999999 0.23852047 -0.14741376 0.38593423
0.033844247 0.016312065 0.039999999 0.23852047 -0.14741376 0.38593423
0.034202754 0.016894119 0.039999999 0.23852047 -0.14741376 0.38593423
0.034561329 0.017476326 0.039999999 0.23852047 -0.14741376 0.38593423
0.03491997 0.018058686 0.039999999 0.23852047 -0.14741376 0.38593423
0.035278682 0.018641202 0.039999999 0.23852047 -0.14741376 0.38593423
0.035637468 0.019223878 0.039999999 0.23852047 -0.14741376 0.38593423
0.035996329 0.019806717 0.039999999 0.23852047 -0.14741376 0.38593423
0.036355264 0.020389721 0.039999999 0.23852047 -0.14741376 0.38593423
0.036714278 0.020972895 0.039999999 0.23852047 -0.14741376 0.38593423
0.03707337 0.02155624 0.039999999 0.23852047 -0.14741376 0.38593423
0.037432544 0.02213976 0.039999999 0.23852047 -0.14741376 0.38593423
0.037791803 0.022723457 0.039999999 0.23852047 -0.14741376 0.38593423
0.038151145 0.023307335 0.039999999 0.23852047 -0.14741376 0.38593423
0.038510576 0.023891397 0.039999999 0.23852047 -0.14741376 0.38593423
0.038870096 0.024475647 0.039999999 0.23852047 -0.14741376 0.38593423
0.039229706 0.025060086 0.039999999 0.23852047 -0.14741376 0.38593423
0.039589413 0.025644718 0.039999999 0.23852047 -0.14741376 0.38593423
0.039949208 0.026229544 0.039999999 0.23852047 -0.14741376 0.38593423
0.039999999 0.027086273 0.039460529 0.23852047 -0.14741376 0.38593423
0.039999999 0.027990986 0.038830116 0.23852047 -0.14741376 0.38593423
0.039999999 0.02889929 0.038197231 0.23852047 -0.14741376 0.38593423
0.039999999 0.029811215 0.037561852 0.23852047 -0.14741376 0.38593423
0.039999999 0.030726785 0.036923964 0.23852047 -0.14741376 0.38593423
0.039999999 0.031646028 0.036283545 0.23852047 -0.14741376 0.38593423
0.039999999 0.032568969 0.035640582 0.23852047 -0.14741376 0.38593423
0.039999999 0.033495635 0.034995053 0.23852047 -0.14741376 0.38593423
0.039999999 0.034426052 0.034346938 0.23852047 -0.14741376 0.38593423
0.039999999 0.035360251 0.033696223 0.23852047 -0.14741376 0.38593423
0.039999999 0.036298253 0.033042885 0.23852047 -0.14741376 0.38593423
