# .PCD v0.7 - Point Cloud Data file format
VERSION 0.7
FIELDS x y z vp_x vp_y vp_z
SIZE 4 4 4 4 4 4
TYPE F F F F F F
COUNT 1 1 1 1 1 1
WIDTH 779
HEIGHT 1
VIEWPOINT 0 0 0 1 0 0 0
POINTS 779
DATA ascii
0.010444353 0.061420411 0 0.23852047 0.14741376 -0.38593423
0.010071984 0.062035069 0 0.23852047 0.14741376 -0.38593423
0.009699584 0.062649965 0 0.23852047 0.14741376 -0.38593423
0.0093271518 0.0632651 0 0.23852047 0.14741376 -0.38593423
0.0089546833 0.063880481 0 0.23852047 0.14741376 -0.38593423
0.0085821794 0.0644961 0 0.23852047 0.14741376 -0.38593423
0.0082096374 0.06511198 0 0.23852047 0.14741376 -0.38593423
0.0078370553 0.065728106 0 0.23852047 0.14741376 -0.38593423
0.0074644317 0.066344492 0 0.23852047 0.14741376 -0.38593423
0.0070917648 0.066961132 0 0.23852047 0.14741376 -0.38593423
0.0067190528 0.067578033 0 0.23852047 0.14741376 -0.38593423
0.0063462942 0.068195201 0 0.23852047 0.14741376 -0.38593423
0.0059734872 0.068812639 0 0.23852047 0.14741376 -0.38593423
0.0056006303 0.069430344 0 0.23852047 0.14741376 -0.38593423
0.0052277213 0.070048317 0 0.23852047 0.14741376 -0.38593423
0.0048547583 0.070666574 0 0.23852047 0.14741376 -0.38593423
0.0044817403 0.071285106 0 0.23852047 0.14741376 -0.38593423
0.004108665 0.071903922 0 0.23852047 0.14741376 -0.38593423
2.7755576e-17 0.071331479 0.0061403825 0.23852047 0.14741376 -0.38593423
0.0033623367 0.073142409 5.5511151e-17 0.23852047 0.14741376 -0.38593423
0.00298908 0.073762089 0 0.23852047 0.14741376 -0.38593423
0.0026157591 0.074382067 0 0.23852047 0.14741376 -0.38593423
0.0022423726 0.075002335 0 0.23852047 0.14741376 -0.38593423
0.0018689184 0.075622909 0 0.23852047 0.14741376 -0.38593423
0.001495395 0.076243781 0 0.23852047 0.14741376 -0.38593423
0.0011218006 0.076864958 0 0.23852047 0.14741376 -0.38593423
0.00074813352 0.077486448 0 0.23852047 0.14741376 -0.38593423
0.00037439185 0.078108251 0 0.23852047 0.14741376 -0.38593423
5.7393976e-07 0.078730367 0 0.23852047 0.14741376 -0.38593423
0.039999999 0.00024484351 0.0096575366 0.23852047 0.14741376 -0.38593423
0.038438302 0 0.011994141 0.23852047 0.14741376 -0.38593423
0.039999999 0.0020527293 0.0081221061 0.23852047 0.14741376 -0.38593423
0.039999999 0.0029512413 0.0073592351 0.23852047 0.14741376 -0.38593423
0.039999999 0.0038461683 0.0065995613 0.23852047 0.14741376 -0.38593423
0.039999999 0.0047375369 0.0058430615 0.23852047 0.14741376 -0.38593423
0.039999999 0.0056253732 0.0050897128 0.23852047 0.14741376 -0.38593423
0.039999999 0.0065097036 0.0043394919 0.23852047 0.14741376 -0.38593423
0.029521907 0 0.024151949 0.23852047 0.14741376 -0.38593423
0.039999999 0.0082679493 0.0028483437 0.23852047 0.14741376 -0.38593423
0.039999999 0.0091419145 0.0021073709 0.23852047 0.14741376 -0.38593423
0.039999999 0.010012476 0.0013694363 0.23852047 0.14741376 -0.38593423
0.039999999 0.010879658 0.00063451793 0.23852047 0.14741376 -0.38593423
0.039949883 0.011709234 0 0.23852047 0.14741376 -0.38593423
0.03957402 0.012314708 0 0.23852047 0.14741376 -0.38593423
0.039198257 0.012920192 0 0.23852047 0.14741376 -0.38593423
0.038822602 0.013525688 0 0.23852047 0.14741376 -0.38593423
0.038447049 0.014131199 0 0.23852047 0.14741376 -0.38593423
0.038071595 0.014736727 0 0.23852047 0.14741376 -0.38593423
0.037696239 0.015342277 0 0.23852047 0.14741376 -0.38593423
0.037320979 0.015947849 0 0.23852047 0.14741376 -0.38593423
0.036945812 0.016553447 0 0.23852047 0.14741376 -0.38593423
0.036570739 0.017159073 0 0.23852047 0.14741376 -0.38593423
0.036195759 0.017764732 0 0.23852047 0.14741376 -0.38593423
0.035820868 0.018370423 0 0.23852047 0.14741376 -0.38593423
0.035446063 0.018976154 0 0.23852047 0.14741376 -0.38593423
0.035071343 0.019581923 0 0.23852047 0.14741376 -0.38593423
0.034696709 0.020187736 0 0.23852047 0.14741376 -0.38593423
0.034322161 0.020793593 0 0.23852047 0.14741376 -0.38593423
0.033947691 0.021399498 0 0.23852047 0.14741376 -0.38593423
0.0335733 0.022005454 0 0.23852047 0.14741376 -0.38593423
0.033198986 0.022611463 0 0.23852047 0.14741376 -0.38593423
0.032824747 0.023217529 0 0.23852047 0.14741376 -0.38593423
0.032450583 0.023823654 0 0.23852047 0.14741376 -0.38593423
0.032076493 0.024429843 0 0.23852047 0.14741376 -0.38593423
0.031702474 0.025036095 0 0.23852047 0.14741376 -0.38593423
0.031328522 0.025642414 0 0.23852047 0.14741376 -0.38593423
0.030954637 0.026248803 0 0.23852047 0.14741376 -0.38593423
0.030580817 0.026855268 0 0.23852047 0.14741376 -0.38593423
0.030207062 0.027461806 0 0.23852047 0.14741376 -0.38593423
0.029833371 0.028068423 0 0.23852047 0.14741376 -0.38593423
0.029459737 0.028675122 0 0.23852047 0.14741376 -0.38593423
0.029086163 0.029281905 0 0.23852047 0.14741376 -0.38593423
0.028712647 0.029888773 0 0.23852047 0.14741376 -0.38593423
0.028339187 0.030495733 0 0.23852047 0.14741376 -0.38593423
0.027965778 0.031102786 0 0.23852047 0.14741376 -0.38593423
0.027592422 0.031709932 0 0.23852047 0.14741376 -0.38593423
0.027219117 0.032317176 0 0.23852047 0.14741376 -0.38593423
0.026845861 0.032924525 0 0.23852047 0.14741376 -0.38593423
0.02647265 0.033531975 0 0.23852047 0.14741376 -0.38593423
0.026099486 0.034139529 0 0.23852047 0.14741376 -0.38593423
0.025726365 0.034747194 0 0.23852047 0.14741376 -0.38593423
0.025353285 0.035354972 0 0.23852047 0.14741376 -0.38593423
0.024980245 0.035962865 0 0.23852047 0.14741376 -0.38593423
0.024607243 0.036570873 0 0.23852047 0.14741376 -0.38593423
0.024234278 0.037179004 0 0.23852047 0.14741376 -0.38593423
0.023861349 0.037787259 0 0.23852047 0.14741376 -0.38593423
0.023488453 0.038395636 0 0.23852047 0.14741376 -0.38593423
0.023115586 0.039004147 0 0.23852047 0.14741376 -0.38593423
0.022742752 0.039612785 0 0.23852047 0.14741376 -0.38593423
0.022369945 0.040221561 0 0.23852047 0.14741376 -0.38593423
0.021997165 0.040830471 0 0.23852047 0.14741376 -0.38593423
0.021624409 0.041439522 0 0.23852047 0.14741376 -0.38593423
0.021251677 0.042048715 0 0.23852047 0.14741376 -0.38593423
0.020878965 0.042658057 0 0.23852047 0.14741376 -0.38593423
0.020506274 0.043267544 0 0.23852047 0.14741376 -0.38593423
0.0201336 0.043877184 0 0.23852047 0.14741376 -0.38593423
0.019760942 0.044486977 0 0.23852047 0.14741376 -0.38593423
0.019388299 0.04509693 0 0.23852047 0.14741376 -0.38593423
0.01901567 0.04570704 0 0.23852047 0.14741376 -0.38593423
0.018643051 0.046317313 0 0.23852047 0.14741376 -0.38593423
0.018270442 0.046927754 0 0.23852047 0.14741376 -0.38593423
0.017897841 0.047538359 0 0.23852047 0.14741376 -0.38593423
0.017525246 0.048149139 0 0.23852047 0.14741376 -0.38593423
0.017152654 0.04876009 0 0.23852047 0.14741376 -0.38593423
0.016780067 0.04937122 0 0.23852047 0.14741376 -0.38593423
0.016407479 0.049982529 0 0.23852047 0.14741376 -0.38593423
0.016034892 0.050594021 0 0.23852047 0.14741376 -0.38593423
0.015662301 0.051205698 0 0.23852047 0.14741376 -0.38593423
0.015289706 0.051817562 0 0.23852047 0.14741376 -0.38593423
0.014917105 0.052429616 0 0.23852047 0.14741376 -0.38593423
0.014544498 0.053041868 0 0.23852047 0.14741376 -0.38593423
0.014171881 0.053654317 0 0.23852047 0.14741376 -0.38593423
0.013799253 0.054266963 0 0.23852047 0.14741376 -0.38593423
0.013426612 0.054879811 0 0.23852047 0.14741376 -0.38593423
0.013053956 0.055492867 0 0.23852047 0.14741376 -0.38593423
0.012681286 0.056106128 0 0.23852047 0.14741376 -0.38593423
0.012308597 0.056719605 0 0.23852047 0.14741376 -0.38593423
0.011935889 0.057333291 0 0.23852047 0.14741376 -0.38593423
0.011563159 0.057947196 0 0.23852047 0.14741376 -0.38593423
0.011190406 0.058561321 0 0.23852047 0.14741376 -0.38593423
0.010817629 0.05917567 0 0.23852047 0.14741376 -0.38593423
0.010444826 0.059790246 0 0.23852047 0.14741376 -0.38593423
0.010071994 0.060405046 0 0.23852047 0.14741376 -0.38593423
0.0096991332 0.06102008 0 0.23852047 0.14741376 -0.38593423
0.00932624 0.061635349 0 0.23852047 0.14741376 -0.38593423
0.0089533143 0.062250856 0 0.23852047 0.14741376 -0.38593423
0.0085803531 0.062866606 0 0.23852047 0.14741376 -0.38593423
0.0082073556 0.06348259 0 0.23852047 0.14741376 -0.38593423
0.00783432 0.064098828 0 0.23852047 0.14741376 -0.38593423
0.0074612438 0.064715311 0 0.23852047 0.14741376 -0.38593423
0.0070881261 0.065332048 0 0.23852047 0.14741376 -0.38593423
0.0067149648 0.065949038 0 0.23852047 0.14741376 -0.38593423
0.0063417582 0.066566288 0 0.23852047 0.14741376 -0.38593423
0.0059685046 0.0671838 0 0.23852047 0.14741376 -0.38593423
0.0055952026 0.06780158 0 0.23852047 0.14741376 -0.38593423
0.0052218498 0.06841962 0 0.23852047 0.14741376 -0.38593423
0.0048484448 0.069037929 0 0.23852047 0.14741376 -0.38593423
0.0044749859 0.069656514 0 0.23852047 0.14741376 -0.38593423
0.0041014715 0.070275374 0 0.23852047 0.14741376 -0.38593423
0.0037278996 0.07089451 0 0.23852047 0.14741376 -0.38593423
0.0033542686 0.071513928 0 0.23852047 0.14741376 -0.38593423
0.0029805768 0.072133638 5.5511151e-17 0.23852047 0.14741376 -0.38593423
0.0026068224 0.072753631 0 0.23852047 0.14741376 -0.38593423
0.0022330035 0.073373914 0 0.23852047 0.14741376 -0.38593423
0.0018591186 0.073994488 0 0.23852047 0.14741376 -0.38593423
0.0014851659 0.074615359 0 0.23852047 0.14741376 -0.38593423
0.0011111435 0.075236537 0 0.23852047 0.14741376 -0.38593423
0.00073704979 0.075858012 0 0.23852047 0.14741376 -0.38593423
0.00036288294 0.076479793 0 0.23852047 0.14741376 -0.38593423
0.039999999 0.00030700507 0.0082222624 0.23852047 0.14741376 -0.38593423
0.038356546 0 0.010714454 0.23852047 0.14741376 -0.38593423
0.039999999 0.0021100694 0.006696457 0.23852047 0.14741376 -0.38593423
0.039999999 0.0030061987 0.0059383512 0.23852047 0.14741376 -0.38593423
0.039999999 0.0038987619 0.0051834118 0.23852047 0.14741376 -0.38593423
0.033335902 0 0.017535735 0.23852047 0.14741376 -0.38593423
0.039999999 0.0056732944 0.003682941 0.23852047 0.14741376 -0.38593423
0.039999999 0.0065553156 0.0029373637 0.23852047 0.14741376 -0.38593423
0.029457225 0 0.022807131 0.23852047 0.14741376 -0.38593423
0.039999999 0.0083089964 0.0014554131 0.23852047 0.14741376 -0.38593423
0.039999999 0.009180706 0.00071899529 0.23852047 0.14741376 -0.38593423
0.039992586 0.010043899 0 0.23852047 0.14741376 -0.38593423
0.039616123 0.010650042 0 0.23852047 0.14741376 -0.38593423
0.039239768 0.011256187 0 0.23852047 0.14741376 -0.38593423
0.038863521 0.011862339 0 0.23852047 0.14741376 -0.38593423
0.038487375 0.012468498 0 0.23852047 0.14741376 -0.38593423
0.038111329 0.013074669 0 0.23852047 0.14741376 -0.38593423
0.037735384 0.013680854 0 0.23852047 0.14741376 -0.38593423
0.037359539 0.014287055 0 0.23852047 0.14741376 -0.38593423
0.036983788 0.014893276 0 0.23852047 0.14741376 -0.38593423
0.036608133 0.015499518 0 0.23852047 0.14741376 -0.38593423
0.036232572 0.016105786 0 0.23852047 0.14741376 -0.38593423
0.035857104 0.016712081 0 0.23852047 0.14741376 -0.38593423
0.035481721 0.017318407 0 0.23852047 0.14741376 -0.38593423
0.035106428 0.017924765 0 0.23852047 0.14741376 -0.38593423
0.034731224 0.01853116 0 0.23852047 0.14741376 -0.38593423
0.034356102 0.019137593 0 0.23852047 0.14741376 -0.38593423
0.033981062 0.019744068 0 0.23852047 0.14741376 -0.38593423
0.033606105 0.020350588 0 0.23852047 0.14741376 -0.38593423
0.033231225 0.020957155 0 0.23852047 0.14741376 -0.38593423
0.032856423 0.021563772 0 0.23852047 0.14741376 -0.38593423
0.0324817 0.022170441 0 0.23852047 0.14741376 -0.38593423
0.032107048 0.022777166 0 0.23852047 0.14741376 -0.38593423
0.03173247 0.023383949 0 0.23852047 0.14741376 -0.38593423
0.031357963 0.023990791 0 0.23852047 0.14741376 -0.38593423
0.030983523 0.024597701 0 0.23852047 0.14741376 -0.38593423
0.030609151 0.025204673 0 0.23852047 0.14741376 -0.38593423
0.030234845 0.025811717 0 0.23852047 0.14741376 -0.38593423
0.029860603 0.026418833 0 0.23852047 0.14741376 -0.38593423
0.029486423 0.027026024 0 0.23852047 0.14741376 -0.38593423
0.029112304 0.027633293 0 0.23852047 0.14741376 -0.38593423
0.028738244 0.02824064 0 0.23852047 0.14741376 -0.38593423
0.028364239 0.028848073 0 0.23852047 0.14741376 -0.38593423
0.027990291 0.029455591 0 0.23852047 0.14741376 -0.38593423
0.027616397 0.030063197 0 0.23852047 0.14741376 -0.38593423
0.027242554 0.030670896 0 0.23852047 0.14741376 -0.38593423
0.026868762 0.031278688 0 0.23852047 0.14741376 -0.38593423
0.026495019 0.031886578 0 0.23852047 0.14741376 -0.38593423
0.026121322 0.032494567 0 0.23852047 0.14741376 -0.38593423
0.02574767 0.033102661 0 0.23852047 0.14741376 -0.38593423
0.025374062 0.03371086 0 0.23852047 0.14741376 -0.38593423
0.025000496 0.034319166 0 0.23852047 0.14741376 -0.38593423
0.024626968 0.034927584 0 0.23852047 0.14741376 -0.38593423
0.02425348 0.035536118 0 0.23852047 0.14741376 -0.38593423
0.023880029 0.036144767 0 0.23852047 0.14741376 -0.38593423
0.023506613 0.036753535 0 0.23852047 0.14741376 -0.38593423
0.023133229 0.037362427 0 0.23852047 0.14741376 -0.38593423
0.022759877 0.037971441 0 0.23852047 0.14741376 -0.38593423
0.022386556 0.038580585 0 0.23852047 0.14741376 -0.38593423
0.022013262 0.03918986 0 0.23852047 0.14741376 -0.38593423
0.021639995 0.039799269 0 0.23852047 0.14741376 -0.38593423
0.021266751 0.040408812 0 0.23852047 0.14741376 -0.38593423
0.020893533 0.041018497 0 0.23852047 0.14741376 -0.38593423
0.020520333 0.041628323 0 0.23852047 0.14741376 -0.38593423
0.020147154 0.042238295 0 0.23852047 0.14741376 -0.38593423
0.019773994 0.042848416 0 0.23852047 0.14741376 -0.38593423
0.01940085 0.043458685 0 0.23852047 0.14741376 -0.38593423
0.019027719 0.044069108 0 0.23852047 0.14741376 -0.38593423
0.018654602 0.044679686 0 0.23852047 0.14741376 -0.38593423
0.018281495 0.045290425 0 0.23852047 0.14741376 -0.38593423
0.017908398 0.045901328 0 0.23852047 0.14741376 -0.38593423
0.017535308 0.046512391 0 0.23852047 0.14741376 -0.38593423
0.017162226 0.047123626 0 0.23852047 0.14741376 -0.38593423
0.016789146 0.047735028 0 0.23852047 0.14741376 -0.38593423
0.016416071 0.048346605 0 0.23852047 0.14741376 -0.38593423
0.016042994 0.048958361 0 0.23852047 0.14741376 -0.38593423
0.015669918 0.049570292 0 0.23852047 0.14741376 -0.38593423
0.015296839 0.050182406 0 0.23852047 0.14741376 -0.38593423
0.014923756 0.050794706 0 0.23852047 0.14741376 -0.38593423
0.014550666 0.051407192 0 0.23852047 0.14741376 -0.38593423
0.014177569 0.052019868 0 0.23852047 0.14741376 -0.38593423
0.013804463 0.052632738 0 0.23852047 0.14741376 -0.38593423
0.013431345 0.053245805 0 0.23852047 0.14741376 -0.38593423
0.013058215 0.05385907 0 0.23852047 0.14741376 -0.38593423
0.01268507 0.05447254 0 0.23852047 0.14741376 -0.38593423
0.012311909 0.05508621 0 0.23852047 0.14741376 -0.38593423
0.01193873 0.055700094 0 0.23852047 0.14741376 -0.38593423
0.011565532 0.056314185 0 0.23852047 0.14741376 -0.38593423
0.011192312 0.056928489 0 0.23852047 0.14741376 -0.38593423
0.010819068 0.05754301 0 0.23852047 0.14741376 -0.38593423
0.0104458 0.058157749 0 0.23852047 0.14741376 -0.38593423
0.010072505 0.058772713 0 0.23852047 0.14741376 -0.38593423
0.0096991826 0.0593879 0 0.23852047 0.14741376 -0.38593423
0.0093258293 0.060003318 0 0.23852047 0.14741376 -0.38593423
0.0089524454 0.060618967 0 0.23852047 0.14741376 -0.38593423
0.0085790269 0.061234847 0 0.23852047 0.14741376 -0.38593423
0.008205574 0.061850965 0 0.23852047 0.14741376 -0.38593423
0.0078320839 0.062467322 0 0.23852047 0.14741376 -0.38593423
0.0074585555 0.063083924 0 0.23852047 0.14741376 -0.38593423
0.0070849862 0.063700773 0 0.23852047 0.14741376 -0.38593423
0.0067113754 0.064317867 0 0.23852047 0.14741376 -0.38593423
0.0063377204 0.064935215 5.5511151e-17 0.23852047 0.14741376 -0.38593423
0.0059640203 0.065552816 0 0.23852047 0.14741376 -0.38593423
0.0055902726 0.06617067 0 0.23852047 0.14741376 -0.38593423
0.005216476 0.066788793 0 0.23852047 0.14741376 -0.38593423
2.7755576e-17 0.065749153 0.0079979179 0.23852047 0.14741376 -0.38593423
0.0044687288 0.06802582 0 0.23852047 0.14741376 -0.38593423
0.0040947748 0.06864474 0 0.23852047 0.14741376 -0.38593423
0.003720765 0.069263928 0 0.23852047 0.14741376 -0.38593423
0 0.068780079 0.0054921303 0.23852047 0.14741376 -0.38593423
0.0029725702 0.070503145 0 0.23852047 0.14741376 -0.38593423
0.0025983821 0.071123168 5.5511151e-17 0.23852047 0.14741376 -0.38593423
0.0022241308 0.071743481 0 0.23852047 0.14741376 -0.38593423
0.0018498149 0.072364077 5.5511151e-17 0.23852047 0.14741376 -0.38593423
0.0014754327 0.072984964 0 0.23852047 0.14741376 -0.38593423
0.0011009822 0.073606141 0 0.23852047 0.14741376 -0.38593423
0.00072646182 0.074227624 0 0.23852047 0.14741376 -0.38593423
0.0003518697 0.074849397 0 0.23852047 0.14741376 -0.38593423
0.039999999 0.00036883814 0.0067945733 0.23852047 0.14741376 -0.38593423
0.039999999 0.0012697731 0.0060348515 0.23852047 0.14741376 -0.38593423
0.039999999 0.0021671073 0.0052783126 0.23852047 0.14741376 -0.38593423
0.039999999 0.0030608673 0.0045249327 0.23852047 0.14741376 -0.38593423
0.039999999 0.0039510797 0.003774689 0.23852047 0.14741376 -0.38593423
0.039999999 0.0048377705 0.0030275588 0.23852047 0.14741376 -0.38593423
0.031984568 0 0.017958134 0.23852047 0.14741376 -0.38593423
0.039999999 0.0066006901 0.0015425471 0.23852047 0.14741376 -0.38593423
0.039999999 0.0074769701 0.00080462138 0.23852047 0.14741376 -0.38593423
0.039999999 0.0083498312 6.9719426e-05 0.23852047 0.14741376 -0.38593423
0.039658796 0.0089817774 0 0.23852047 0.14741376 -0.38593423
0.039281845 0.009588602 0 0.23852047 0.14741376 -0.38593423
0.038904998 0.010195426 0 0.23852047 0.14741376 -0.38593423
0.03852826 0.010802251 0 0.23852047 0.14741376 -0.38593423
0.038151626 0.011409081 0 0.23852047 0.14741376 -0.38593423
0.037775092 0.012015917 0 0.23852047 0.14741376 -0.38593423
0.037398659 0.012622764 0 0.23852047 0.14741376 -0.38593423
0.037022322 0.013229623 0 0.23852047 0.14741376 -0.38593423
0.036646083 0.013836498 0 0.23852047 0.14741376 -0.38593423
0.03626994 0.014443392 0 0.23852047 0.14741376 -0.38593423
0.035893891 0.015050307 0 0.23852047 0.14741376 -0.38593423
0.035517935 0.015657244 0 0.23852047 0.14741376 -0.38593423
0.035142064 0.01626421 0 0.23852047 0.14741376 -0.38593423
0.034766283 0.016871205 0 0.23852047 0.14741376 -0.38593423
0.034390591 0.017478231 0 0.23852047 0.14741376 -0.38593423
0.034014981 0.018085292 0 0.23852047 0.14741376 -0.38593423
0.033639453 0.018692391 0 0.23852047 0.14741376 -0.38593423
0.033264007 0.019299531 0 0.23852047 0.14741376 -0.38593423
0.032888643 0.019906715 0 0.23852047 0.14741376 -0.38593423
0.032513354 0.020513944 0 0.23852047 0.14741376 -0.38593423
0.032138143 0.021121223 0 0.23852047 0.14741376 -0.38593423
0.031763002 0.021728551 0 0.23852047 0.14741376 -0.38593423
0.031387936 0.022335935 0 0.23852047 0.14741376 -0.38593423
0.031012943 0.022943377 0 0.23852047 0.14741376 -0.38593423
0.030638017 0.023550879 0 0.23852047 0.14741376 -0.38593423
0.030263159 0.024158444 0 0.23852047 0.14741376 -0.38593423
0.029888367 0.024766074 0 0.23852047 0.14741376 -0.38593423
0.029513638 0.025373772 0 0.23852047 0.14741376 -0.38593423
0.029138973 0.025981542 0 0.23852047 0.14741376 -0.38593423
0.028764367 0.026589386 0 0.23852047 0.14741376 -0.38593423
0.028389819 0.027197305 0 0.23852047 0.14741376 -0.38593423
0.02801533 0.027805306 0 0.23852047 0.14741376 -0.38593423
0.027640896 0.028413389 0 0.23852047 0.14741376 -0.38593423
0.027266515 0.029021556 0 0.23852047 0.14741376 -0.38593423
0.026892187 0.029629812 0 0.23852047 0.14741376 -0.38593423
0.026517909 0.030238157 0 0.23852047 0.14741376 -0.38593423
0.026143679 0.030846598 0 0.23852047 0.14741376 -0.38593423
0.025769496 0.031455133 0 0.23852047 0.14741376 -0.38593423
0.025395358 0.032063767 0 0.23852047 0.14741376 -0.38593423
0.025021264 0.032672506 0 0.23852047 0.14741376 -0.38593423
0.024647212 0.033281349 0 0.23852047 0.14741376 -0.38593423
0.0242732 0.033890296 0 0.23852047 0.14741376 -0.38593423
0.023899226 0.034499358 0 0.23852047 0.14741376 -0.38593423
0.023525288 0.035108529 0 0.23852047 0.14741376 -0.38593423
0.023151387 0.035717819 0 0.23852047 0.14741376 -0.38593423
0.022777516 0.036327228 0 0.23852047 0.14741376 -0.38593423
0.022403678 0.036936756 0 0.23852047 0.14741376 -0.38593423
0.022029871 0.037546411 0 0.23852047 0.14741376 -0.38593423
0.02165609 0.038156193 0 0.23852047 0.14741376 -0.38593423
0.021282338 0.038766105 0 0.23852047 0.14741376 -0.38593423
0.020908607 0.039376147 0 0.23852047 0.14741376 -0.38593423
0.020534901 0.039986327 0 0.23852047 0.14741376 -0.38593423
0.020161217 0.040596645 0 0.23852047 0.14741376 -0.38593423
0.019787552 0.041207105 0 0.23852047 0.14741376 -0.38593423
0.019413905 0.04181771 0 0.23852047 0.14741376 -0.38593423
0.019040274 0.04242846 0 0.23852047 0.14741376 -0.38593423
0.018666657 0.043039363 0 0.23852047 0.14741376 -0.38593423
0.018293053 0.043650415 0 0.23852047 0.14741376 -0.38593423
0.017919458 0.044261627 0 0.23852047 0.14741376 -0.38593423
0.017545875 0.044872992 0 0.23852047 0.14741376 -0.38593423
0.017172299 0.04548452 0 0.23852047 0.14741376 -0.38593423
0.016798727 0.046096217 0 0.23852047 0.14741376 -0.38593423
0.016425163 0.046708077 0 0.23852047 0.14741376 -0.38593423
0.016051598 0.047320105 0 0.23852047 0.14741376 -0.38593423
0.015678035 0.047932308 0 0.23852047 0.14741376 -0.38593423
0.01530447 0.048544686 0 0.23852047 0.14741376 -0.38593423
0.014930904 0.049157243 0 0.23852047 0.14741376 -0.38593423
0.014557333 0.049769983 0 0.23852047 0.14741376 -0.38593423
0.014183755 0.050382905 0 0.23852047 0.14741376 -0.38593423
0.01381017 0.050996013 0 0.23852047 0.14741376 -0.38593423
0.013436574 0.051609311 0 0.23852047 0.14741376 -0.38593423
0.013062969 0.052222803 0 0.23852047 0.14741376 -0.38593423
0.01268935 0.052836489 0 0.23852047 0.14741376 -0.38593423
0.012315716 0.053450376 0 0.23852047 0.14741376 -0.38593423
0.011942066 0.054064464 0 0.23852047 0.14741376 -0.38593423
0.011568397 0.054678757 0 0.23852047 0.14741376 -0.38593423
0.01119471 0.055293255 0 0.23852047 0.14741376 -0.38593423
0.010821 0.055907965 0 0.23852047 0.14741376 -0.38593423
0.010447267 0.056522887 0 0.23852047 0.14741376 -0.38593423
0.010073508 0.057138026 0 0.23852047 0.14741376 -0.38593423
0.0096997237 0.05775338 0 0.23852047 0.14741376 -0.38593423
0.0093259104 0.058368959 0 0.23852047 0.14741376 -0.38593423
0.0089520663 0.058984764 0 0.23852047 0.14741376 -0.38593423
0.0085781915 0.059600793 0 0.23852047 0.14741376 -0.38593423
0.0082042823 0.060217056 0 0.23852047 0.14741376 -0.38593423
0.0078303376 0.060833551 0 0.23852047 0.14741376 -0.38593423
0.0074563562 0.061450284 0 0.23852047 0.14741376 -0.38593423
0.0070823357 0.062067252 0 0.23852047 0.14741376 -0.38593423
0.0067082746 0.062684469 0 0.23852047 0.14741376 -0.38593423
0.0063341712 0.063301921 5.5511151e-17 0.23852047 0.14741376 -0.38593423
0.005960024 0.063919634 0 0.23852047 0.14741376 -0.38593423
0.0055858307 0.064537585 5.5511151e-17 0.23852047 0.14741376 -0.38593423
0.0052115899 0.065155797 5.5511151e-17 0.23852047 0.14741376 -0.38593423
0.0048372997 0.065774269 5.5511151e-17 0.23852047 0.14741376 -0.38593423
0.0044629588 0.066392995 0 0.23852047 0.14741376 -0.38593423
0.0040885652 0.06701199 5.5511151e-17 0.23852047 0.14741376 -0.38593423
0.0037141168 0.067631245 0 0.23852047 0.14741376 -0.38593423
0.0033396124 0.068250775 0 0.23852047 0.14741376 -0.38593423
0 0.067881912 0.0048579406 0.23852047 0.14741376 -0.38593423
0.0025904276 0.069490649 5.5511151e-17 0.23852047 0.14741376 -0.38593423
0.002215744 0.070110999 0 0.23852047 0.14741376 -0.38593423
0.001466185 0.071352549 0 0.23852047 0.14741376 -0.38593423
0.0010913063 0.071973749 0 0.23852047 0.14741376 -0.38593423
0.00071635912 0.072595246 0 0.23852047 0.14741376 -0.38593423
2.7755576e-17 0.0731107 0.00055309391 0.23852047 0.14741376 -0.38593423
0.039418761 0 0.0065200957 0.23852047 0.14741376 -0.38593423
0.038194124 0 0.0081721693 0.23852047 0.14741376 -0.38593423
0.039999999 0.0022238463 0.0038676076 0.23852047 0.14741376 -0.38593423
0.039999999 0.0031152498 0.003118915 0.23852047 0.14741376 -0.38593423
0.039999999 0.0040031243 0.0023733282 0.23852047 0.14741376 -0.38593423
0.033192359 0 0.014921162 0.23852047 0.14741376 -0.38593423
0.039999999 0.005768388 0.00089138246 0.23852047 0.14741376 -0.38593423
0.039999999 0.0066458285 0.00015497871 0.23852047 0.14741376 -0.38593423
0.039702024 0.0073098652 0 0.23852047 0.14741376 -0.38593423
0.039324474 0.0079173865 0 0.23852047 0.14741376 -0.38593423
0.038947035 0.0085248994 0 0.23852047 0.14741376 -0.38593423
0.0385697 0.0091324067 0 0.23852047 0.14741376 -0.38593423
0.038192473 0.009739913 0 0.23852047 0.14741376 -0.38593423
0.037815347 0.010347418 0 0.23852047 0.14741376 -0.38593423
0.037438326 0.010954929 0 0.23852047 0.14741376 -0.38593423
0.037061404 0.011562443 0 0.23852047 0.14741376 -0.38593423
0.03668458 0.012169968 0 0.23852047 0.14741376 -0.38593423
0.036307853 0.012777504 0 0.23852047 0.14741376 -0.38593423
0.035931222 0.013385055 0 0.23852047 0.14741376 -0.38593423
0.035554685 0.013992622 0 0.23852047 0.14741376 -0.38593423
0.03517824 0.01460021 0 0.23852047 0.14741376 -0.38593423
0.034801885 0.01520782 0 0.23852047 0.14741376 -0.38593423
0.034425616 0.015815455 0 0.23852047 0.14741376 -0.38593423
0.034049436 0.016423121 0 0.23852047 0.14741376 -0.38593423
0.033673339 0.017030817 0 0.23852047 0.14741376 -0.38593423
0.033297323 0.017638545 0 0.23852047 0.14741376 -0.38593423
0.032921392 0.018246312 0 0.23852047 0.14741376 -0.38593423
0.03254554 0.018854117 0 0.23852047 0.14741376 -0.38593423
0.032169767 0.019461965 0 0.23852047 0.14741376 -0.38593423
0.031794067 0.020069858 0 0.23852047 0.14741376 -0.38593423
0.031418443 0.020677799 0 0.23852047 0.14741376 -0.38593423
0.031042891 0.021285791 0 0.23852047 0.14741376 -0.38593423
0.030667409 0.021893837 0 0.23852047 0.14741376 -0.38593423
0.030291999 0.022501938 0 0.23852047 0.14741376 -0.38593423
0.029916653 0.023110099 0 0.23852047 0.14741376 -0.38593423
0.029541377 0.023718322 0 0.23852047 0.14741376 -0.38593423
0.029166162 0.024326609 0 0.23852047 0.14741376 -0.38593423
0.02879101 0.024934964 0 0.23852047 0.14741376 -0.38593423
0.028415918 0.025543388 0 0.23852047 0.14741376 -0.38593423
0.028040886 0.026151886 0 0.23852047 0.14741376 -0.38593423
0.027665911 0.026760461 0 0.23852047 0.14741376 -0.38593423
0.027290992 0.027369112 0 0.23852047 0.14741376 -0.38593423
0.026916126 0.027977847 0 0.23852047 0.14741376 -0.38593423
0.026541313 0.028586665 0 0.23852047 0.14741376 -0.38593423
0.026166549 0.029195569 0 0.23852047 0.14741376 -0.38593423
0.025791835 0.029804565 0 0.23852047 0.14741376 -0.38593423
0.025417166 0.030413654 0 0.23852047 0.14741376 -0.38593423
0.025042543 0.031022837 0 0.23852047 0.14741376 -0.38593423
0.024667963 0.031632118 0 0.23852047 0.14741376 -0.38593423
0.024293426 0.032241501 0 0.23852047 0.14741376 -0.38593423
0.023918929 0.032850988 0 0.23852047 0.14741376 -0.38593423
0.02354447 0.03346058 0 0.23852047 0.14741376 -0.38593423
0.023170047 0.034070283 0 0.23852047 0.14741376 -0.38593423
0.022795659 0.034680098 0 0.23852047 0.14741376 -0.38593423
0.022421304 0.035290029 0 0.23852047 0.14741376 -0.38593423
0.022046981 0.035900079 0 0.23852047 0.14741376 -0.38593423
0.021672688 0.036510248 0 0.23852047 0.14741376 -0.38593423
0.021298422 0.03712054 0 0.23852047 0.14741376 -0.38593423
0.020924183 0.037730962 0 0.23852047 0.14741376 -0.38593423
0.02054997 0.038341511 0 0.23852047 0.14741376 -0.38593423
0.020175777 0.03895219 0 0.23852047 0.14741376 -0.38593423
0.019801607 0.039563008 0 0.23852047 0.14741376 -0.38593423
0.019427456 0.040173959 0 0.23852047 0.14741376 -0.38593423
0.019053323 0.040785056 0 0.23852047 0.14741376 -0.38593423
0.018679205 0.041396294 0 0.23852047 0.14741376 -0.38593423
0.018305102 0.042007677 0 0.23852047 0.14741376 -0.38593423
0.017931012 0.04261921 0 0.23852047 0.14741376 -0.38593423
0.017556934 0.043230895 0 0.23852047 0.14741376 -0.38593423
0.017182864 0.043842737 0 0.23852047 0.14741376 -0.38593423
0.0168088 0.044454735 0 0.23852047 0.14741376 -0.38593423
0.016434744 0.045066893 0 0.23852047 0.14741376 -0.38593423
0.016060691 0.045679215 0 0.23852047 0.14741376 -0.38593423
0.015686641 0.046291705 0 0.23852047 0.14741376 -0.38593423
0.015312591 0.046904363 0 0.23852047 0.14741376 -0.38593423
0.01493854 0.047517192 0 0.23852047 0.14741376 -0.38593423
0.014564486 0.048130196 0 0.23852047 0.14741376 -0.38593423
0.014190428 0.048743378 0 0.23852047 0.14741376 -0.38593423
0.013816363 0.04935674 0 0.23852047 0.14741376 -0.38593423
0.013442291 0.049970288 0 0.23852047 0.14741376 -0.38593423
0.013068208 0.050584018 0 0.23852047 0.14741376 -0.38593423
0.012694115 0.051197942 0 0.23852047 0.14741376 -0.38593423
0.012320007 0.051812056 0 0.23852047 0.14741376 -0.38593423
0.011945886 0.052426364 0 0.23852047 0.14741376 -0.38593423
0.011571747 0.053040873 0 0.23852047 0.14741376 -0.38593423
0.01119759 0.05365558 0 0.23852047 0.14741376 -0.38593423
0.010823414 0.054270491 0 0.23852047 0.14741376 -0.38593423
0.010449216 0.054885611 0 0.23852047 0.14741376 -0.38593423
0.010074994 0.055500939 0 0.23852047 0.14741376 -0.38593423
0.0097007463 0.05611648 0 0.23852047 0.14741376 -0.38593423
0.0093264719 0.056732237 5.5511151e-17 0.23852047 0.14741376 -0.38593423
0.0089521687 0.05734821 5.5511151e-17 0.23852047 0.14741376 -0.38593423
0.0085778357 0.057964407 0 0.23852047 0.14741376 -0.38593423
0.0082034701 0.058580827 0 0.23852047 0.14741376 -0.38593423
0.007829071 0.059197474 0 0.23852047 0.14741376 -0.38593423
0.007454636 0.059814349 0 0.23852047 0.14741376 -0.38593423
0.0070801638 0.060431458 0 0.23852047 0.14741376 -0.38593423
0.0067056525 0.061048806 5.5511151e-17 0.23852047 0.14741376 -0.38593423
0.0063311001 0.061666388 0 0.23852047 0.14741376 -0.38593423
0.0059565054 0.062284216 0 0.23852047 0.14741376 -0.38593423
0.005581866 0.062902287 0 0.23852047 0.14741376 -0.38593423
0.005207181 0.063520603 0 0.23852047 0.14741376 -0.38593423
0.004832448 0.064139172 0 0.23852047 0.14741376 -0.38593423
0 0.063183844 0.0073500173 0.23852047 0.14741376 -0.38593423
0.0040828316 0.065377079 0 0.23852047 0.14741376 -0.38593423
2.7755576e-17 0.064710751 0.0060943207 0.23852047 0.14741376 -0.38593423
0.0033330035 0.066616021 0 0.23852047 0.14741376 -0.38593423
0.0029580053 0.067235887 0 0.23852047 0.14741376 -0.38593423
0.0025829489 0.067856021 0 0.23852047 0.14741376 -0.38593423
0.0018326542 0.069097117 0 0.23852047 0.14741376 -0.38593423
0.0014574125 0.06971807 5.5511151e-17 0.23852047 0.14741376 -0.38593423
0.0010821053 0.070339315 0 0.23852047 0.14741376 -0.38593423
0.00070673123 0.070960835 0 0.23852047 0.14741376 -0.38593423
0.00033128823 0.071582645 0 0.23852047 0.14741376 -0.38593423
0.039999999 0.00049153029 0.0039616828 0.23852047 0.14741376 -0.38593423
0.039999999 0.0013876911 0.0032114191 0.23852047 0.14741376 -0.38593423
0.039999999 0.0022802884 0.0024642765 0.23852047 0.14741376 -0.38593423
0.039999999 0.0031693485 0.0017202327 0.23852047 0.14741376 -0.38593423
0.034384858 0 0.011923091 0.23852047 0.14741376 -0.38593423
0.039999999 0.004936961 0.00024135076 0.23852047 0.14741376 -0.38593423
0.039745808 0.0056342571 0 0.23852047 0.14741376 -0.38593423
0.039367657 0.0062424913 0 0.23852047 0.14741376 -0.38593423
0.038989618 0.0068507106 0 0.23852047 0.14741376 -0.38593423
0.038611688 0.0074589183 0 0.23852047 0.14741376 -0.38593423
0.038233865 0.0080671171 0 0.23852047 0.14741376 -0.38593423
0.037856147 0.0086753098 0 0.23852047 0.14741376 -0.38593423
0.037478536 0.0092834989 0 0.23852047 0.14741376 -0.38593423
0.037101027 0.009891687 0 0.23852047 0.14741376 -0.38593423
0.036723614 0.010499877 0 0.23852047 0.14741376 -0.38593423
0.036346305 0.011108072 0 0.23852047 0.14741376 -0.38593423
0.03596909 0.011716275 0 0.23852047 0.14741376 -0.38593423
0.035591971 0.01232449 0 0.23852047 0.14741376 -0.38593423
0.035214949 0.012932717 0 0.23852047 0.14741376 -0.38593423
0.034838013 0.01354096 0 0.23852047 0.14741376 -0.38593423
0.03446117 0.014149222 0 0.23852047 0.14741376 -0.38593423
0.034084417 0.014757506 0 0.23852047 0.14741376 -0.38593423
0.033707749 0.015365814 0 0.23852047 0.14741376 -0.38593423
0.033331167 0.015974149 0 0.23852047 0.14741376 -0.38593423
0.032954667 0.016582515 0 0.23852047 0.14741376 -0.38593423
0.032578249 0.017190915 0 0.23852047 0.14741376 -0.38593423
0.032201912 0.01779935 0 0.23852047 0.14741376 -0.38593423
0.03182565 0.018407822 0 0.23852047 0.14741376 -0.38593423
0.031449467 0.019016337 0 0.23852047 0.14741376 -0.38593423
0.031073356 0.019624894 0 0.23852047 0.14741376 -0.38593423
0.03069732 0.020233501 0 0.23852047 0.14741376 -0.38593423
0.030321352 0.020842155 0 0.23852047 0.14741376 -0.38593423
0.029945455 0.021450862 0 0.23852047 0.14741376 -0.38593423
0.029569628 0.022059625 0 0.23852047 0.14741376 -0.38593423
0.029193863 0.022668447 0 0.23852047 0.14741376 -0.38593423
0.028818164 0.023277329 0 0.23852047 0.14741376 -0.38593423
0.028442528 0.023886275 0 0.23852047 0.14741376 -0.38593423
0.028066952 0.024495287 0 0.23852047 0.14741376 -0.38593423
0.027691435 0.025104368 0 0.23852047 0.14741376 -0.38593423
0.027315976 0.025713522 0 0.23852047 0.14741376 -0.38593423
0.026940571 0.02632275 0 0.23852047 0.14741376 -0.38593423
0.02656522 0.026932057 0 0.23852047 0.14741376 -0.38593423
0.026189923 0.027541444 0 0.23852047 0.14741376 -0.38593423
0.025814675 0.028150914 0 0.23852047 0.14741376 -0.38593423
0.025439475 0.02876047 0 0.23852047 0.14741376 -0.38593423
0.025064323 0.029370116 0 0.23852047 0.14741376 -0.38593423
0.024689214 0.029979853 0 0.23852047 0.14741376 -0.38593423
0.024314152 0.030589685 0 0.23852047 0.14741376 -0.38593423
0.023939129 0.031199614 0 0.23852047 0.14741376 -0.38593423
0.023564147 0.031809643 0 0.23852047 0.14741376 -0.38593423
0.023189204 0.032419775 0 0.23852047 0.14741376 -0.38593423
0.022814296 0.033030014 0 0.23852047 0.14741376 -0.38593423
0.022439424 0.033640362 0 0.23852047 0.14741376 -0.38593423
0.022064585 0.034250822 0 0.23852047 0.14741376 -0.38593423
0.021689778 0.034861393 0 0.23852047 0.14741376 -0.38593423
0.021314999 0.035472084 0 0.23852047 0.14741376 -0.38593423
0.02094025 0.036082894 0 0.23852047 0.14741376 -0.38593423
0.020565527 0.03669383 0 0.23852047 0.14741376 -0.38593423
0.020190826 0.037304886 0 0.23852047 0.14741376 -0.38593423
0.019816151 0.037916075 0 0.23852047 0.14741376 -0.38593423
0.019441495 0.038527396 0 0.23852047 0.14741376 -0.38593423
0.019066859 0.039138846 0 0.23852047 0.14741376 -0.38593423
0.018692242 0.039750438 0 0.23852047 0.14741376 -0.38593423
0.01831764 0.040362168 0 0.23852047 0.14741376 -0.38593423
0.017943051 0.04097404 0 0.23852047 0.14741376 -0.38593423
0.017568476 0.04158606 0 0.23852047 0.14741376 -0.38593423
0.017193912 0.042198226 0 0.23852047 0.14741376 -0.38593423
0.016819356 0.042810544 0 0.23852047 0.14741376 -0.38593423
0.016444808 0.043423016 0 0.23852047 0.14741376 -0.38593423
0.016070265 0.044035647 0 0.23852047 0.14741376 -0.38593423
0.015695728 0.044648435 0 0.23852047 0.14741376 -0.38593423
0.015321191 0.045261387 0 0.23852047 0.14741376 -0.38593423
0.014946655 0.045874506 0 0.23852047 0.14741376 -0.38593423
0.014572118 0.046487793 0 0.23852047 0.14741376 -0.38593423
0.014197579 0.047101248 0 0.23852047 0.14741376 -0.38593423
0.013823034 0.047714882 0 0.23852047 0.14741376 -0.38593423
0.013448483 0.04832869 0 0.23852047 0.14741376 -0.38593423
0.013073924 0.048942678 0 0.23852047 0.14741376 -0.38593423
0.012699354 0.049556851 0 0.23852047 0.14741376 -0.38593423
0.012324774 0.050171208 0 0.23852047 0.14741376 -0.38593423
0 0.045689225 0.020355642 0.23852047 0.14741376 -0.38593423
0.011575571 0.051400494 0 0.23852047 0.14741376 -0.38593423
0 0.047314767 0.019016529 0.23852047 0.14741376 -0.38593423
0.010826301 0.052630555 5.5511151e-17 0.23852047 0.14741376 -0.38593423
0.010451637 0.053245887 0 0.23852047 0.14741376 -0.38593423
0.01007695 0.053861421 0 0.23852047 0.14741376 -0.38593423
0.0097022401 0.054477159 0 0.23852047 0.14741376 -0.38593423
0.0093275048 0.055093106 0 0.23852047 0.14741376 -0.38593423
0.0089527424 0.055709265 0 0.23852047 0.14741376 -0.38593423
0.0085779503 0.056325641 0 0.23852047 0.14741376 -0.38593423
0.0082031284 0.056942236 0 0.23852047 0.14741376 -0.38593423
0.0078282738 0.057559047 0 0.23852047 0.14741376 -0.38593423
0.0074533848 0.058176085 0 0.23852047 0.14741376 -0.38593423
0.0070784604 0.058793347 0 0.23852047 0.14741376 -0.38593423
0.0067034983 0.059410844 0 0.23852047 0.14741376 -0.38593423
0.0063284971 0.060028568 0 0.23852047 0.14741376 -0.38593423
0.0059534544 0.06064653 0 0.23852047 0.14741376 -0.38593423
0.0055783689 0.061264727 0 0.23852047 0.14741376 -0.38593423
0.0052032392 0.06188317 0 0.23852047 0.14741376 -0.38593423
0 0.060747582 0.0079733646 0.23852047 0.14741376 -0.38593423
0.0044528386 0.06312079 0 0.23852047 0.14741376 -0.38593423
0.0040775649 0.06373997 5.5511151e-17 0.23852047 0.14741376 -0.38593423
0.0037022391 0.064359404 0 0.23852047 0.14741376 -0.38593423
0.0033268603 0.064979099 0 0.23852047 0.14741376 -0.38593423
0.0029514262 0.065599047 0 0.23852047 0.14741376 -0.38593423
0.0025759353 0.066219263 0 0.23852047 0.14741376 -0.38593423
0.002200386 0.06683974 0 0.23852047 0.14741376 -0.38593423
0 0.066844098 0.0029753125 0.23852047 0.14741376 -0.38593423
0.0014491046 0.068081506 0 0.23852047 0.14741376 -0.38593423
0.0010733689 0.068702795 0 0.23852047 0.14741376 -0.38593423
0.00069756765 0.069324367 0 0.23852047 0.14741376 -0.38593423
2.7755576e-17 0.069841594 0.00052122289 0.23852047 0.14741376 -0.38593423
0.039999999 0.00055239513 0.0025563498 0.23852047 0.14741376 -0.38593423
0.039999999 0.0014461884 0.0018107567 0.23852047 0.14741376 -0.38593423
0.039999999 0.0023364366 0.0010682548 0.23852047 0.14741376 -0.38593423
0.039999999 0.0032231661 0.00032882177 0.23852047 0.14741376 -0.38593423
0.039790131 0.0039549028 0 0.23852047 0.14741376 -0.38593423
0.039411377 0.0045638676 0 0.23852047 0.14741376 -0.38593423
0.039032739 0.005172811 0 0.23852047 0.14741376 -0.38593423
0.038654212 0.0057817353 0 0.23852047 0.14741376 -0.38593423
0.038275793 0.0063906442 0 0.23852047 0.14741376 -0.38593423
0.037897483 0.0069995401 0 0.23852047 0.14741376 -0.38593423
0.03751928 0.0076084258 0 0.23852047 0.14741376 -0.38593423
0.037141178 0.008217304 0 0.23852047 0.14741376 -0.38593423
0.03676318 0.0088261776 0 0.23852047 0.14741376 -0.38593423
0.036385283 0.0094350493 0 0.23852047 0.14741376 -0.38593423
0.036007486 0.010043923 0 0.23852047 0.14741376 -0.38593423
0.035629787 0.010652799 0 0.23852047 0.14741376 -0.38593423
0.03525218 0.011261683 0 0.23852047 0.14741376 -0.38593423
0.03487467 0.011870575 0 0.23852047 0.14741376 -0.38593423
0.03449725 0.01247948 0 0.23852047 0.14741376 -0.38593423
0.034119923 0.0130884 0 0.23852047 0.14741376 -0.38593423
0.033742681 0.013697339 0 0.23852047 0.14741376 -0.38593423
0.033365529 0.014306298 0 0.23852047 0.14741376 -0.38593423
0.032988459 0.01491528 0 0.23852047 0.14741376 -0.38593423
0.032611474 0.015524288 0 0.23852047 0.14741376 -0.38593423
0.032234572 0.016133325 0 0.23852047 0.14741376 -0.38593423
0.031857748 0.016742395 0 0.23852047 0.14741376 -0.38593423
0.031481002 0.017351499 0 0.23852047 0.14741376 -0.38593423
0.031104332 0.017960642 0 0.23852047 0.14741376 -0.38593423
0.030727737 0.018569823 0 0.23852047 0.14741376 -0.38593423
0.030351214 0.019179048 0 0.23852047 0.14741376 -0.38593423
0.029974764 0.019788319 0 0.23852047 0.14741376 -0.38593423
0.029598383 0.020397639 0 0.23852047 0.14741376 -0.38593423
0.029222069 0.021007009 0 0.23852047 0.14741376 -0.38593423
0.028845822 0.021616435 0 0.23852047 0.14741376 -0.38593423
0.028469639 0.022225918 0 0.23852047 0.14741376 -0.38593423
0.028093519 0.02283546 0 0.23852047 0.14741376 -0.38593423
0.027717458 0.023445066 0 0.23852047 0.14741376 -0.38593423
0.027341457 0.024054736 0 0.23852047 0.14741376 -0.38593423
0.026965514 0.024664477 0 0.23852047 0.14741376 -0.38593423
0.026589625 0.025274286 0 0.23852047 0.14741376 -0.38593423
0.026213791 0.02588417 0 0.23852047 0.14741376 -0.38593423
0.025838008 0.026494132 0 0.23852047 0.14741376 -0.38593423
0.025462277 0.027104173 0 0.23852047 0.14741376 -0.38593423
0.025086593 0.027714297 0 0.23852047 0.14741376 -0.38593423
0.024710957 0.028324505 0 0.23852047 0.14741376 -0.38593423
0.024335366 0.028934803 0 0.23852047 0.14741376 -0.38593423
0.023959819 0.02954519 0 0.23852047 0.14741376 -0.38593423
0.023584312 0.030155672 0 0.23852047 0.14741376 -0.38593423
0.023208847 0.030766251 0 0.23852047 0.14741376 -0.38593423
0.02283342 0.031376928 0 0.23852047 0.14741376 -0.38593423
0.022458028 0.031987708 0 0.23852047 0.14741376 -0.38593423
0.022082673 0.032598592 0 0.23852047 0.14741376 -0.38593423
0.02170735 0.033209585 0 0.23852047 0.14741376 -0.38593423
0.021332059 0.033820689 0 0.23852047 0.14741376 -0.38593423
0.020956798 0.034431905 0 0.23852047 0.14741376 -0.38593423
0.020581562 0.03504324 0 0.23852047 0.14741376 -0.38593423
0.020206355 0.035654694 0 0.23852047 0.14741376 -0.38593423
0.019831173 0.036266267 0 0.23852047 0.14741376 -0.38593423
0.019456012 0.036877967 0 0.23852047 0.14741376 -0.38593423
0.019080874 0.037489794 0 0.23852047 0.14741376 -0.38593423
0.018705754 0.038101751 0 0.23852047 0.14741376 -0.38593423
0.01833065 0.038713846 0 0.23852047 0.14741376 -0.38593423
0.017955566 0.039326072 0 0.23852047 0.14741376 -0.38593423
0.017580492 0.039938439 0 0.23852047 0.14741376 -0.38593423
0.017205434 0.040550947 0 0.23852047 0.14741376 -0.38593423
0.016830385 0.041163601 0 0.23852047 0.14741376 -0.38593423
0.016455345 0.041776404 0 0.23852047 0.14741376 -0.38593423
0.016080312 0.042389356 0 0.23852047 0.14741376 -0.38593423
0.015705286 0.043002464 0 0.23852047 0.14741376 -0.38593423
0.015330262 0.043615725 0 0.23852047 0.14741376 -0.38593423
0.01495524 0.044229146 0 0.23852047 0.14741376 -0.38593423
2.7755576e-17 0.038164571 0.025127264 0.23852047 0.14741376 -0.38593423
2.7755576e-17 0.038999837 0.02444003 0.23852047 0.14741376 -0.38593423
0.013830172 0.046070393 5.5511151e-17 0.23852047 0.14741376 -0.38593423
0.013455142 0.046684481 5.5511151e-17 0.23852047 0.14741376 -0.38593423
0.013080105 0.047298741 5.5511151e-17 0.23852047 0.14741376 -0.38593423
0.012705061 0.047913179 0 0.23852047 0.14741376 -0.38593423
0.012330006 0.048527796 0 0.23852047 0.14741376 -0.38593423
0.011954939 0.049142592 0 0.23852047 0.14741376 -0.38593423
0.011579859 0.049757577 5.5511151e-17 0.23852047 0.14741376 -0.38593423
0.011204763 0.05037275 0 0.23852047 0.14741376 -0.38593423
0 0.046401821 0.018356178 0.23852047 0.14741376 -0.38593423
0.010454521 0.051603667 0 0.23852047 0.14741376 -0.38593423
0.010079369 0.052219421 0 0.23852047 0.14741376 -0.38593423
0.0097041959 0.052835375 0 0.23852047 0.14741376 -0.38593423
0.0093289986 0.053451531 0 0.23852047 0.14741376 -0.38593423
0.0085785249 0.05468446 0 0.23852047 0.14741376 -0.38593423
0.0082032457 0.055301242 0 0.23852047 0.14741376 -0.38593423
0.0078279357 0.055918235 0 0.23852047 0.14741376 -0.38593423
0.0074525927 0.056535449 0 0.23852047 0.14741376 -0.38593423
0.0070772157 0.057152882 5.5511151e-17 0.23852047 0.14741376 -0.38593423
0.0067018028 0.057770535 5.5511151e-17 0.23852047 0.14741376 -0.38593423
0.0063263518 0.058388419 0 0.23852047 0.14741376 -0.38593423
0.0059508611 0.059006531 0 0.23852047 0.14741376 -0.38593423
0.0055753291 0.059624873 0 0.23852047 0.14741376 -0.38593423
0.0051997541 0.06024345 0 0.23852047 0.14741376 -0.38593423
0.0048241345 0.060862266 0 0.23852047 0.14741376 -0.38593423
0 0.059848201 0.0073345643 0.23852047 0.14741376 -0.38593423
0.0040727537 0.062100623 5.5511151e-17 0.23852047 0.14741376 -0.38593423
0.0036969888 0.062720172 0 0.23852047 0.14741376 -0.38593423
0 0.062152788 0.0054496508 0.23852047 0.14741376 -0.38593423
0.0029453023 0.063960016 0 0.23852047 0.14741376 -0.38593423
0.002569377 0.064580321 0 0.23852047 0.14741376 -0.38593423
0.0021933943 0.065200888 5.5511151e-17 0.23852047 0.14741376 -0.38593423
0.001817353 0.065821707 0 0.23852047 0.14741376 -0.38593423
2.7755576e-17 0.065950565 0.0023461697 0.23852047 0.14741376 -0.38593423
0.0010650865 0.067064159 0 0.23852047 0.14741376 -0.38593423
0.00068885792 0.06768579 0 0.23852047 0.14741376 -0.38593423
0.00031256341 0.06830769 5.5511151e-17 0.23852047 0.14741376 -0.38593423
0.039999999 0.00061294279 0.0011583387 0.23852047 0.14741376 -0.38593423
0.039999999 0.0015043815 0.000417378 0.23852047 0.14741376 -0.38593423
0.039834991 0.0022717521 0 0.23852047 0.14741376 -0.38593423
0.039455634 0.0028814648 0 0.23852047 0.14741376 -0.38593423
0.039076392 0.0034911491 0 0.23852047 0.14741376 -0.38593423
0.038697265 0.0041008079 0 0.23852047 0.14741376 -0.38593423
0.03831825 0.0047104442 0 0.23852047 0.14741376 -0.38593423
0.037939344 0.005320061 0 0.23852047 0.14741376 -0.38593423
0.037560545 0.0059296605 0 0.23852047 0.14741376 -0.38593423
0.037181854 0.0065392461 0 0.23852047 0.14741376 -0.38593423
0.036803268 0.00714882 0 0.23852047 0.14741376 -0.38593423
0.036424782 0.0077583855 0 0.23852047 0.14741376 -0.38593423
0.036046401 0.0083679454 0 0.23852047 0.14741376 -0.38593423
0.035668116 0.0089775026 0 0.23852047 0.14741376 -0.38593423
0.035289928 0.0095870588 0 0.23852047 0.14741376 -0.38593423
0.034911837 0.010196619 0 0.23852047 0.14741376 -0.38593423
0.03453384 0.010806183 0 0.23852047 0.14741376 -0.38593423
0.034155935 0.011415757 0 0.23852047 0.14741376 -0.38593423
0.033778124 0.012025341 0 0.23852047 0.14741376 -0.38593423
0.033400398 0.01263494 0 0.23852047 0.14741376 -0.38593423
0.033022758 0.013244555 0 0.23852047 0.14741376 -0.38593423
0.032645203 0.013854191 0 0.23852047 0.14741376 -0.38593423
0.032267734 0.014463848 0 0.23852047 0.14741376 -0.38593423
0.031890348 0.01507353 0 0.23852047 0.14741376 -0.38593423
0.031513039 0.015683241 0 0.23852047 0.14741376 -0.38593423
0.031135809 0.016292982 0 0.23852047 0.14741376 -0.38593423
0.030758655 0.016902758 0 0.23852047 0.14741376 -0.38593423
0.030381575 0.017512569 0 0.23852047 0.14741376 -0.38593423
0.03000457 0.01812242 0 0.23852047 0.14741376 -0.38593423
0.029627636 0.018732313 0 0.23852047 0.14741376 -0.38593423
0.029250771 0.019342249 0 0.23852047 0.14741376 -0.38593423
0.028873973 0.019952236 0 0.23852047 0.14741376 -0.38593423
0.028497241 0.020562271 0 0.23852047 0.14741376 -0.38593423
0.028120575 0.021172361 0 0.23852047 0.14741376 -0.38593423
0.027743971 0.021782506 0 0.23852047 0.14741376 -0.38593423
0.027367428 0.022392711 0 0.23852047 0.14741376 -0.38593423
0.026990943 0.023002978 0 0.23852047 0.14741376 -0.38593423
0.026614515 0.023613309 0 0.23852047 0.14741376 -0.38593423
0.026238143 0.024223708 0 0.23852047 0.14741376 -0.38593423
0.025861828 0.024834177 0 0.23852047 0.14741376 -0.38593423
0.025485562 0.025444718 0 0.23852047 0.14741376 -0.38593423
0.025109347 0.026055336 0 0.23852047 0.14741376 -0.38593423
0.02473318 0.026666032 0 0.23852047 0.14741376 -0.38593423
0.024357062 0.02727681 0 0.23852047 0.14741376 -0.38593423
0.023980986 0.027887672 0 0.23852047 0.14741376 -0.38593423
0.023604957 0.028498622 0 0.23852047 0.14741376 -0.38593423
0.023228968 0.029109662 0 0.23852047 0.14741376 -0.38593423
0.022853019 0.029720794 0 0.23852047 0.14741376 -0.38593423
0.022477109 0.030332023 0 0.23852047 0.14741376 -0.38593423
0.022101235 0.030943351 0 0.23852047 0.14741376 -0.38593423
0.021725396 0.031554777 0 0.23852047 0.14741376 -0.38593423
0.02134959 0.03216631 0 0.23852047 0.14741376 -0.38593423
0.020973817 0.03277795 0 0.23852047 0.14741376 -0.38593423
0.020598071 0.033389699 0 0.23852047 0.14741376 -0.38593423
0.020222355 0.034001563 0 0.23852047 0.14741376 -0.38593423
0.019846665 0.034613539 0 0.23852047 0.14741376 -0.38593423
0.019470997 0.035225637 0 0.23852047 0.14741376 -0.38593423
0.019095354 0.035837855 0 0.23852047 0.14741376 -0.38593423
0.018719733 0.036450196 0 0.23852047 0.14741376 -0.38593423
2.7755576e-17 0.027868694 0.032154351 0.23852047 0.14741376 -0.38593423
0.017968543 0.037675261 0 0.23852047 0.14741376 -0.38593423
0.017592974 0.038287994 5.5511151e-17 0.23852047 0.14741376 -0.38593423
0.017217418 0.03890086 5.5511151e-17 0.23852047 0.14741376 -0.38593423
