# .PCD v0.7 - Point Cloud Data file format
VERSION 0.7
FIELDS x y z vp_x vp_y vp_z
SIZE 4 4 4 4 4 4
TYPE F F F F F F
COUNT 1 1 1 1 1 1
WIDTH 1017
HEIGHT 1
VIEWPOINT 0 0 0 1 0 0 0
POINTS 1017
DATA ascii
0.036490686 0.031141492 5.5511151e-17 0 0 -0.47704095
0.039554544 0.034568425 0.039999999 0 0 -0.47704095
0.036498353 0.032646861 0 0 0 -0.47704095
0.03650232 0.033399787 0 0 0 -0.47704095
0.036506381 0.034152877 5.5511151e-17 0 0 -0.47704095
0.039571948 0.037833024 0.039999999 0 0 -0.47704095
0.036514774 0.03565957 0 0 0 -0.47704095
0.036519106 0.036413182 0 0 0 -0.47704095
0.036523532 0.037166972 0 0 0 -0.47704095
0.036528047 0.037920948 5.5511151e-17 0 0 -0.47704095
0.036532652 0.038675111 5.5511151e-17 0 0 -0.47704095
0.036537349 0.039429467 0 0 0 -0.47704095
0.039606206 0.04355346 0.039999999 0 0 -0.47704095
0.0396115 0.044371497 0.039999999 0 0 -0.47704095
0.036551993 0.041693725 0 0 0 -0.47704095
0.036557056 0.042448889 0 0 0 -0.47704095
0.036562212 0.043204263 5.5511151e-17 0 0 -0.47704095
0.03963365 0.047645897 0.039999999 0 0 -0.47704095
0.036572799 0.044715658 5.5511151e-17 0 0 -0.47704095
0.036578231 0.045471687 0 0 0 -0.47704095
0.036583751 0.046227943 0 0 0 -0.47704095
0.036589369 0.04698443 0 0 0 -0.47704095
0.036595076 0.047741152 0 0 0 -0.47704095
0.039669868 0.052564688 0.039999999 0 0 -0.47704095
0.036606766 0.049255311 0 0 0 -0.47704095
0.036612749 0.050012756 5.5511151e-17 0 0 -0.47704095
0.039689321 0.055027567 0.039999999 0 0 -0.47704095
0.039696004 0.055849072 0.039999999 0 0 -0.47704095
0.036631253 0.05228661 0 0 0 -0.47704095
0.039862584 0.057714302 0.041990928 0 0 -0.47704095
0.039925292 0.058621597 0.042715982 0 0 -0.47704095
0.039973419 0.059509609 0.043249693 0 0 -0.47704095
0.036657222 0.055322085 0 0 0 -0.47704095
0.036663946 0.056081634 0 0 0 -0.47704095
0.036670763 0.056841467 0 0 0 -0.47704095
0.036677673 0.057601582 0 0 0 -0.47704095
0.039760694 0.063255653 0.039999999 0 0 -0.47704095
0.03669177 0.059122682 5.5511151e-17 0 0 -0.47704095
0.03669896 0.059883676 0 0 0 -0.47704095
0.03978407 0.065730065 0.039999999 0 0 -0.47704095
0.036713623 0.061406568 0 0 0 -0.47704095
0.036721092 0.062168472 0 0 0 -0.47704095
0.036728654 0.062930688 0 0 0 -0.47704095
0.039816663 0.069033913 0.039999999 0 0 -0.47704095
0.036744066 0.064456075 0 0 0 -0.47704095
0.036751911 0.065219253 5.5511151e-17 0 0 -0.47704095
0.03675985 0.065982759 0 0 0 -0.47704095
0.036767885 0.066746593 0 0 0 -0.47704095
0.03677601 0.067510769 0 0 0 -0.47704095
0.036784235 0.06827528 0 0 0 -0.47704095
0.03679255 0.069040135 5.5511151e-17 0 0 -0.47704095
0.039886732 0.07565853 0.039999999 0 0 -0.47704095
0.036809471 0.070570894 0 0 0 -0.47704095
0.036818068 0.071336806 0 0 0 -0.47704095
0.036826767 0.072103076 0 0 0 -0.47704095
0.036835555 0.072869711 0 0 0 -0.47704095
0.036844444 0.073636718 0 0 0 -0.47704095
0.039625157 0.079999998 0.035878088 0 0 -0.47704095
0.0368625 0.075171843 5.5511151e-17 0 0 -0.47704095
0.036871672 0.075939976 5.5511151e-17 0 0 -0.47704095
0.03688094 0.076708488 5.5511151e-17 0 0 -0.47704095
0.036890306 0.077477396 0 0 0 -0.47704095
0.036899764 0.07824669 0 0 0 -0.47704095
0.036909319 0.079016387 0 0 0 -0.47704095
0.036918972 0.079786479 0 0 0 -0.47704095
0.035659581 0.00037466714 0 0 0 -0.47704095
0.038649742 0.0012182513 0.039999999 0 0 -0.47704095
0.035659846 0.001873345 5.5511151e-17 0 0 -0.47704095
0.038650218 0.0028426095 0.039999999 0 0 -0.47704095
0.035660461 0.0033720599 0 0 0 -0.47704095
0.0356609 0.0041214405 0 0 0 -0.47704095
0.035661429 0.0048708413 0 0 0 -0.47704095
0.035662044 0.0056202663 0 0 0 -0.47704095
0.035662748 0.0063697188 0 0 0 -0.47704095
0.038653936 0.0077161496 0.039999999 0 0 -0.47704095
0.035664421 0.0078687221 0 0 0 -0.47704095
0.035665389 0.0086182803 0 0 0 -0.47704095
0.038657084 0.01015338 0.039999999 0 0 -0.47704095
0.035667591 0.010117528 0 0 0 -0.47704095
0.03566882 0.010867224 0 0 0 -0.47704095
0.038661093 0.012591061 0.039999999 0 0 -0.47704095
0.03866262 0.013403741 0.039999999 0 0 -0.47704095
0.035673048 0.013116651 0 0 0 -0.47704095
0.038665958 0.015029302 0.039999999 0 0 -0.47704095
0.035676304 0.014616587 0 0 0 -0.47704095
0.035678066 0.015366661 0 0 0 -0.47704095
0.038671684 0.01746821 0.039999999 0 0 -0.47704095
0.035681851 0.016867042 0 0 0 -0.47704095
0.035683878 0.017617356 5.5511151e-17 0 0 -0.47704095
0.035685994 0.018367756 5.5511151e-17 0 0 -0.47704095
0.038680658 0.020721316 0.039999999 0 0 -0.47704095
0.035690486 0.019868832 0 0 0 -0.47704095
0.03868572 0.022348467 0.039999999 0 0 -0.47704095
0.035695333 0.021370301 5.5511151e-17 0 0 -0.47704095
0.035697889 0.022121193 5.5511151e-17 0 0 -0.47704095
0.035700534 0.022872193 5.5511151e-17 0 0 -0.47704095
0.035703268 0.023623308 0 0 0 -0.47704095
0.038700052 0.026418349 0.039999999 0 0 -0.47704095
0.035708997 0.025125889 0 0 0 -0.47704095
0.038706455 0.028047189 0.039999999 0 0 -0.47704095
0.038709804 0.028861815 0.039999999 0 0 -0.47704095
0.035718258 0.027380705 0 0 0 -0.47704095
0.035721526 0.028132576 0 0 0 -0.47704095
0.038720418 0.031306565 0.039999999 0 0 -0.47704095
0.03572832 0.029636741 0 0 0 -0.47704095
0.035731852 0.030389041 0 0 0 -0.47704095
0.035735473 0.031141492 0 0 0 -0.47704095
0.03573918 0.031894095 0 0 0 -0.47704095
0.038740035 0.035384309 0.039999999 0 0 -0.47704095
0.038744248 0.036200367 0.039999999 0 0 -0.47704095
0.03575084 0.034152877 5.5511151e-17 0 0 -0.47704095
0.035754908 0.034906138 5.5511151e-17 0 0 -0.47704095
0.035759062 0.03565957 5.5511151e-17 0 0 -0.47704095
0.035763305 0.036413182 0 0 0 -0.47704095
0.035767637 0.037166972 5.5511151e-17 0 0 -0.47704095
0.035772059 0.037920948 5.5511151e-17 0 0 -0.47704095
0.03577657 0.038675111 5.5511151e-17 0 0 -0.47704095
0.035781171 0.039429467 0 0 0 -0.47704095
0.035785861 0.040184017 0 0 0 -0.47704095
0.035790641 0.040938772 0 0 0 -0.47704095
0.03579551 0.041693725 5.5511151e-17 0 0 -0.47704095
0.038802348 0.046008237 0.039999999 0 0 -0.47704095
0.03580552 0.043204263 5.5511151e-17 0 0 -0.47704095
0.035810657 0.043959852 0 0 0 -0.47704095
0.035815887 0.044715658 0 0 0 -0.47704095
0.035821203 0.045471687 0 0 0 -0.47704095
0.035826612 0.046227943 5.5511151e-17 0 0 -0.47704095
0.038836643 0.050924089 0.039999999 0 0 -0.47704095
0.035837699 0.047741152 0 0 0 -0.47704095
0.038848855 0.052564688 0.039999999 0 0 -0.47704095
0.035849147 0.049255311 0 0 0 -0.47704095
0.035855006 0.050012756 0 0 0 -0.47704095
0.035860956 0.050770454 0 0 0 -0.47704095
0.035866998 0.051528402 0 0 0 -0.47704095
0.039900061 0.058156032 0.053550143 0 0 -0.47704095
0.03994916 0.059062004 0.054110978 0 0 -0.47704095
0.035885662 0.053803809 5.5511151e-17 0 0 -0.47704095
0.035892066 0.054562811 0 0 0 -0.47704095
0.035898559 0.055322085 5.5511151e-17 0 0 -0.47704095
0.035905145 0.056081634 0 0 0 -0.47704095
0.035911821 0.056841467 5.5511151e-17 0 0 -0.47704095
0.035918586 0.057601582 5.5511151e-17 0 0 -0.47704095
0.035925444 0.058361985 0 0 0 -0.47704095
0.035932396 0.059122682 5.5511151e-17 0 0 -0.47704095
0.035939436 0.059883676 0 0 0 -0.47704095
0.03594657 0.060644969 0 0 0 -0.47704095
0.035953794 0.061406568 0 0 0 -0.47704095
0.03596111 0.062168472 0 0 0 -0.47704095
0.035968516 0.062930688 0 0 0 -0.47704095
0.035976015 0.063693218 0 0 0 -0.47704095
0.035983607 0.064456075 0 0 0 -0.47704095
0.035991289 0.065219253 5.5511151e-17 0 0 -0.47704095
0.035999063 0.065982759 5.5511151e-17 0 0 -0.47704095
0.036006931 0.066746593 0 0 0 -0.47704095
0.03903475 0.073171563 0.039999999 0 0 -0.47704095
0.036022946 0.06827528 0 0 0 -0.47704095
0.03603109 0.069040135 0 0 0 -0.47704095
0.039061233 0.07565853 0.039999999 0 0 -0.47704095
0.036047656 0.070570894 0 0 0 -0.47704095
0.036056079 0.071336806 0 0 0 -0.47704095
0.036064595 0.072103076 0 0 0 -0.47704095
0.036073204 0.072869711 0 0 0 -0.47704095
0.036081906 0.073636718 0 0 0 -0.47704095
0.036090702 0.074404091 0 0 0 -0.47704095
0.038418204 0.079999998 0.030639498 0 0 -0.47704095
0.036108572 0.075939976 0 0 0 -0.47704095
0.036117651 0.076708488 0 0 0 -0.47704095
0.037303079 0.079999998 0.015532074 0 0 -0.47704095
0.036136083 0.07824669 0 0 0 -0.47704095
0.036145441 0.079016387 0 0 0 -0.47704095
0.036154892 0.079786479 0 0 0 -0.47704095
0.034906149 0.00037466714 5.5511151e-17 0 0 -0.47704095
0.037833128 0.0012182513 0.039999999 0 0 -0.47704095
0.037833314 0.0020304255 0.039999999 0 0 -0.47704095
0.034906663 0.0026226959 0 0 0 -0.47704095
0.034907009 0.0033720599 0 0 0 -0.47704095
0.037834436 0.004467024 0.039999999 0 0 -0.47704095
0.034907956 0.0048708413 0 0 0 -0.47704095
0.034908559 0.0056202663 0 0 0 -0.47704095
0.034909248 0.0063697188 0 0 0 -0.47704095
0.034910023 0.007119203 0 0 0 -0.47704095
0.034910884 0.0078687221 5.5511151e-17 0 0 -0.47704095
0.037839197 0.0093409251 0.039999999 0 0 -0.47704095
0.034912866 0.0093678804 5.5511151e-17 0 0 -0.47704095
0.034913987 0.010117528 0 0 0 -0.47704095
0.034915194 0.010867224 0 0 0 -0.47704095
0.037844241 0.012591061 0.039999999 0 0 -0.47704095
0.034917865 0.012366783 0 0 0 -0.47704095
0.037847321 0.014216486 0.039999999 0 0 -0.47704095
0.034920879 0.013866586 5.5511151e-17 0 0 -0.47704095
0.034922518 0.014616587 0 0 0 -0.47704095
0.034924243 0.015366661 0 0 0 -0.47704095
0.034926053 0.016116813 5.5511151e-17 0 0 -0.47704095
0.034927949 0.016867042 0 0 0 -0.47704095
0.034929931 0.017617356 5.5511151e-17 0 0 -0.47704095
0.034932002 0.018367756 0 0 0 -0.47704095
0.037863396 0.020721316 0.039999999 0 0 -0.47704095
0.034936398 0.019868832 5.5511151e-17 0 0 -0.47704095
0.037868351 0.022348467 0.039999999 0 0 -0.47704095
0.034941144 0.021370301 0 0 0 -0.47704095
0.034943648 0.022121193 0 0 0 -0.47704095
0.037876487 0.024790032 0.039999999 0 0 -0.47704095
0.034948912 0.023623308 0 0 0 -0.47704095
0.034951672 0.024374539 0 0 0 -0.47704095
0.037885465 0.027232701 0.039999999 0 0 -0.47704095
0.034957457 0.025877366 0 0 0 -0.47704095
0.034960479 0.026628969 0 0 0 -0.47704095
0.034963585 0.027380705 0 0 0 -0.47704095
0.034966782 0.028132576 0 0 0 -0.47704095
0.034970064 0.028884586 0 0 0 -0.47704095
0.037905965 0.032121789 0.039999999 0 0 -0.47704095
0.037909713 0.032937169 0.039999999 0 0 -0.47704095
0.034980435 0.031141492 0 0 0 -0.47704095
0.037917487 0.034568425 0.039999999 0 0 -0.47704095
0.034987781 0.032646861 0 0 0 -0.47704095
0.037925642 0.036200367 0.039999999 0 0 -0.47704095
0.037929859 0.037016604 0.039999999 0 0 -0.47704095
0.03499946 0.034906138 0 0 0 -0.47704095
0.035003524 0.03565957 5.5511151e-17 0 0 -0.47704095
0.03794308 0.039466433 0.039999999 0 0 -0.47704095
0.037947677 0.04028343 0.039999999 0 0 -0.47704095
0.03501625 0.037920948 0 0 0 -0.47704095
0.035020664 0.038675111 0 0 0 -0.47704095
0.035025168 0.039429467 0 0 0 -0.47704095
0.035029758 0.040184017 0 0 0 -0.47704095
0.035034437 0.040938772 0 0 0 -0.47704095
0.035039205 0.041693725 5.5511151e-17 0 0 -0.47704095
0.037982512 0.046008237 0.039999999 0 0 -0.47704095
0.037987869 0.046826951 0.039999999 0 0 -0.47704095
0.035054032 0.043959852 0 0 0 -0.47704095
0.03505915 0.044715658 0 0 0 -0.47704095
0.035064355 0.045471687 0 0 0 -0.47704095
0.035069648 0.046227943 5.5511151e-17 0 0 -0.47704095
0.035075031 0.04698443 5.5511151e-17 0 0 -0.47704095
0.038428545 0.052297514 0.045528237 0 0 -0.47704095
0.035086062 0.048498109 0 0 0 -0.47704095
0.035091709 0.049255311 0 0 0 -0.47704095
0.035097446 0.050012756 5.5511151e-17 0 0 -0.47704095
0.039849609 0.057635166 0.064501062 0 0 -0.47704095
0.035109181 0.051528402 5.5511151e-17 0 0 -0.47704095
0.035115182 0.05228661 0 0 0 -0.47704095
0.035121273 0.053045075 5.5511151e-17 0 0 -0.47704095
0.035127454 0.053803809 0 0 0 -0.47704095
0.035133719 0.054562811 5.5511151e-17 0 0 -0.47704095
0.035140075 0.055322085 0 0 0 -0.47704095
0.035146523 0.056081634 0 0 0 -0.47704095
0.039581217 0.064001672 0.060091902 0 0 -0.47704095
0.039443482 0.064619668 0.058121942 0 0 -0.47704095
0.035166394 0.058361985 0 0 0 -0.47704095
0.035173196 0.059122682 0 0 0 -0.47704095
0.035180088 0.059883676 0 0 0 -0.47704095
0.035187073 0.060644969 5.5511151e-17 0 0 -0.47704095
0.035194144 0.061406568 5.5511151e-17 0 0 -0.47704095
0.035201304 0.062168472 0 0 0 -0.47704095
0.035208553 0.062930688 0 0 0 -0.47704095
0.035215896 0.063693218 0 0 0 -0.47704095
0.035223328 0.064456075 0 0 0 -0.47704095
0.035230849 0.065219253 0 0 0 -0.47704095
0.03523846 0.065982759 5.5511151e-17 0 0 -0.47704095
0.03524616 0.066746593 0 0 0 -0.47704095
0.035253949 0.067510769 0 0 0 -0.47704095
0.035261832 0.06827528 5.5511151e-17 0 0 -0.47704095
0.035269804 0.069040135 0 0 0 -0.47704095
0.03527787 0.069805339 5.5511151e-17 0 0 -0.47704095
0.035286024 0.070570894 0 0 0 -0.47704095
0.035294268 0.071336806 0 0 0 -0.47704095
0.035302605 0.072103076 5.5511151e-17 0 0 -0.47704095
0.035311032 0.072869711 0 0 0 -0.47704095
0.035319552 0.073636718 5.5511151e-17 0 0 -0.47704095
0.035328161 0.074404091 0 0 0 -0.47704095
0.03533686 0.075171843 0 0 0 -0.47704095
0.035345655 0.075939976 0 0 0 -0.47704095
0.035354536 0.076708488 0 0 0 -0.47704095
0.035363514 0.077477396 0 0 0 -0.47704095
0.036165189 0.079999998 0.010689252 0 0 -0.47704095
0.035381742 0.079016387 0 0 0 -0.47704095
0.035390992 0.079786479 5.5511151e-17 0 0 -0.47704095
0.034152888 0.00037466714 0 0 0 -0.47704095
0.03415297 0.0011240033 0 0 0 -0.47704095
0.037016887 0.0020304255 0.039999999 0 0 -0.47704095
0.037017163 0.0028426095 0.039999999 0 0 -0.47704095
0.037017528 0.0036548078 0.039999999 0 0 -0.47704095
0.037017986 0.004467024 0.039999999 0 0 -0.47704095
0.034154657 0.0048708413 0 0 0 -0.47704095
0.034155246 0.0056202663 5.5511151e-17 0 0 -0.47704095
0.03415592 0.0063697188 0 0 0 -0.47704095
0.03415668 0.007119203 0 0 0 -0.47704095
0.034157522 0.0078687221 0 0 0 -0.47704095
0.03415845 0.0086182803 0 0 0 -0.47704095
0.034159459 0.0093678804 0 0 0 -0.47704095
0.034160558 0.010117528 0 0 0 -0.47704095
0.034161735 0.010867224 5.5511151e-17 0 0 -0.47704095
0.034163002 0.011616975 0 0 0 -0.47704095
0.03416435 0.012366783 5.5511151e-17 0 0 -0.47704095
0.034165785 0.013116651 0 0 0 -0.47704095
0.034167301 0.013866586 0 0 0 -0.47704095
0.034168903 0.014616587 0 0 0 -0.47704095
0.03417059 0.015366661 0 0 0 -0.47704095
0.034172364 0.016116813 0 0 0 -0.47704095
0.034174219 0.016867042 0 0 0 -0.47704095
0.03417616 0.017617356 0 0 0 -0.47704095
0.034178182 0.018367756 5.5511151e-17 0 0 -0.47704095
0.034180291 0.019118246 0 0 0 -0.47704095
0.037048697 0.021534838 0.039999999 0 0 -0.47704095
0.034184765 0.020619515 5.5511151e-17 0 0 -0.47704095
0.037053727 0.023162207 0.039999999 0 0 -0.47704095
0.034189578 0.022121193 5.5511151e-17 0 0 -0.47704095
0.034192108 0.022872193 0 0 0 -0.47704095
0.034194726 0.023623308 0 0 0 -0.47704095
0.034197427 0.024374539 0 0 0 -0.47704095
0.034200218 0.025125889 0 0 0 -0.47704095
0.037071027 0.028047189 0.039999999 0 0 -0.47704095
0.034206044 0.026628969 0 0 0 -0.47704095
0.034209087 0.027380705 5.5511151e-17 0 0 -0.47704095
0.034212213 0.028132576 0 0 0 -0.47704095
0.034215424 0.028884586 0 0 0 -0.47704095
0.034218721 0.029636741 5.5511151e-17 0 0 -0.47704095
0.034222104 0.030389041 0 0 0 -0.47704095
0.037095394 0.033752713 0.039999999 0 0 -0.47704095
0.034229122 0.031894095 0 0 0 -0.47704095
0.034232762 0.032646861 0 0 0 -0.47704095
0.034236483 0.033399787 0 0 0 -0.47704095
0.034240291 0.034152877 0 0 0 -0.47704095
0.037115566 0.037833024 0.039999999 0 0 -0.47704095
0.034248162 0.03565957 5.5511151e-17 0 0 -0.47704095
0.034252226 0.036413182 5.5511151e-17 0 0 -0.47704095
0.034256376 0.037166972 0 0 0 -0.47704095
0.034260612 0.037920948 0 0 0 -0.47704095
0.034264933 0.038675111 5.5511151e-17 0 0 -0.47704095
0.03426934 0.039429467 5.5511151e-17 0 0 -0.47704095
0.037147701 0.04355346 0.039999999 0 0 -0.47704095
0.034278408 0.040938772 0 0 0 -0.47704095
0.034283072 0.041693725 0 0 0 -0.47704095
0.034287822 0.042448889 0 0 0 -0.47704095
0.034292657 0.043204263 0 0 0 -0.47704095
0.034297578 0.043959852 5.5511151e-17 0 0 -0.47704095
0.034302589 0.044715658 5.5511151e-17 0 0 -0.47704095
0.034307681 0.045471687 5.5511151e-17 0 0 -0.47704095
0.037775435 0.050892889 0.048139073 0 0 -0.47704095
0.038704205 0.052989345 0.060968913 0 0 -0.47704095
0.03432348 0.047741152 0 0 0 -0.47704095
0.034328919 0.048498109 5.5511151e-17 0 0 -0.47704095
0.034334444 0.049255311 0 0 0 -0.47704095
0.03436337 0.053045075 0 0 0 -0.47704095
0.034369417 0.053803809 0 0 0 -0.47704095
0.034375548 0.054562811 0 0 0 -0.47704095
0.03438177 0.055322085 0 0 0 -0.47704095
0.034388073 0.056081634 5.5511151e-17 0 0 -0.47704095
0.039335772 0.065007634 0.068534411 0 0 -0.47704095
0.034400951 0.057601582 0 0 0 -0.47704095
0.034407519 0.058361985 0 0 0 -0.47704095
0.034414176 0.059122682 0 0 0 -0.47704095
0.034420919 0.059883676 5.5511151e-17 0 0 -0.47704095
0.034427747 0.060644969 5.5511151e-17 0 0 -0.47704095
0.034434669 0.061406568 0 0 0 -0.47704095
0.034441672 0.062168472 0 0 0 -0.47704095
0.034448769 0.062930688 0 0 0 -0.47704095
0.034455951 0.063693218 0 0 0 -0.47704095
0.034463223 0.064456075 0 0 0 -0.47704095
0.034470581 0.065219253 5.5511151e-17 0 0 -0.47704095
0.034478027 0.065982759 0 0 0 -0.47704095
0.03448556 0.066746593 0 0 0 -0.47704095
0.037385449 0.073171563 0.039999999 0 0 -0.47704095
0.034500897 0.06827528 0 0 0 -0.47704095
0.034508698 0.069040135 5.5511151e-17 0 0 -0.47704095
0.037410811 0.07565853 0.039999999 0 0 -0.47704095
0.037419461 0.076488279 0.039999999 0 0 -0.47704095
0.034532633 0.071336806 0 0 0 -0.47704095
0.034540787 0.072103076 5.5511151e-17 0 0 -0.47704095
0.034549035 0.072869711 0 0 0 -0.47704095
0.034557369 0.073636718 0 0 0 -0.47704095
0.034565791 0.074404091 5.5511151e-17 0 0 -0.47704095
0.034574308 0.075171843 5.5511151e-17 0 0 -0.47704095
0.036431834 0.079999998 0.025504317 0 0 -0.47704095
0.0345916 0.076708488 5.5511151e-17 0 0 -0.47704095
0.034600385 0.077477396 0 0 0 -0.47704095
0.034609254 0.07824669 0 0 0 -0.47704095
0.034618217 0.079016387 5.5511151e-17 0 0 -0.47704095
0.03462727 0.079786479 5.5511151e-17 0 0 -0.47704095
0.036200378 0.00040608307 0.039999999 0 0 -0.47704095
0.033399876 0.0011240033 5.5511151e-17 0 0 -0.47704095
0.036200646 0.0020304255 0.039999999 0 0 -0.47704095
0.03340029 0.0026226959 0 0 0 -0.47704095
0.033400621 0.0033720599 0 0 0 -0.47704095
0.036201715 0.004467024 0.039999999 0 0 -0.47704095
0.033401527 0.0048708413 5.5511151e-17 0 0 -0.47704095
0.036202878 0.0060915267 0.039999999 0 0 -0.47704095
0.033402763 0.0063697188 0 0 0 -0.47704095
0.033403505 0.007119203 0 0 0 -0.47704095
0.033404328 0.0078687221 0 0 0 -0.47704095
0.033405237 0.0086182803 0 0 0 -0.47704095
0.033406224 0.0093678804 5.5511151e-17 0 0 -0.47704095
0.033407297 0.010117528 0 0 0 -0.47704095
0.033408452 0.010867224 0 0 0 -0.47704095
0.033409689 0.011616975 5.5511151e-17 0 0 -0.47704095
0.036212526 0.013403741 0.039999999 0 0 -0.47704095
0.036214046 0.014216486 0.039999999 0 0 -0.47704095
0.033413894 0.013866586 0 0 0 -0.47704095
0.033415459 0.014616587 5.5511151e-17 0 0 -0.47704095
0.033417109 0.015366661 0 0 0 -0.47704095
0.033418842 0.016116813 0 0 0 -0.47704095
0.033420656 0.016867042 0 0 0 -0.47704095
0.033422552 0.017617356 5.5511151e-17 0 0 -0.47704095
0.036227189 0.019907895 0.039999999 0 0 -0.47704095
0.033426598 0.019118246 0 0 0 -0.47704095
0.036231752 0.021534838 0.039999999 0 0 -0.47704095
0.036234166 0.022348467 0.039999999 0 0 -0.47704095
0.033433281 0.021370301 5.5511151e-17 0 0 -0.47704095
0.033435676 0.022121193 5.5511151e-17 0 0 -0.47704095
0.033438154 0.022872193 0 0 0 -0.47704095
0.033440713 0.023623308 0 0 0 -0.47704095
0.033443354 0.024374539 0 0 0 -0.47704095
0.033446081 0.025125889 0 0 0 -0.47704095
0.03344889 0.025877366 5.5511151e-17 0 0 -0.47704095
0.033451781 0.026628969 5.5511151e-17 0 0 -0.47704095
0.036259945 0.029676585 0.039999999 0 0 -0.47704095
0.036263261 0.030491499 0.039999999 0 0 -0.47704095
0.033460956 0.028884586 0 0 0 -0.47704095
0.033464178 0.029636741 5.5511151e-17 0 0 -0.47704095
0.036273744 0.032937169 0.039999999 0 0 -0.47704095
0.033470877 0.031141492 0 0 0 -0.47704095
0.036281183 0.034568425 0.039999999 0 0 -0.47704095
0.033477906 0.032646861 5.5511151e-17 0 0 -0.47704095
0.036288984 0.036200367 0.039999999 0 0 -0.47704095
0.033485271 0.034152877 0 0 0 -0.47704095
0.036297146 0.037833024 0.039999999 0 0 -0.47704095
0.036301363 0.038649634 0.039999999 0 0 -0.47704095
0.033496946 0.036413182 0 0 0 -0.47704095
0.033501003 0.037166972 0 0 0 -0.47704095
0.036314558 0.041100629 0.039999999 0 0 -0.47704095
0.03350937 0.038675111 0 0 0 -0.47704095
0.03351368 0.039429467 0 0 0 -0.47704095
0.033518072 0.040184017 0 0 0 -0.47704095
0.03352255 0.040938772 0 0 0 -0.47704095
0.036338367 0.045189753 0.039999999 0 0 -0.47704095
0.036343403 0.046008237 0.039999999 0 0 -0.47704095
0.036348529 0.046826951 0.039999999 0 0 -0.47704095
0.033541299 0.043959852 0 0 0 -0.47704095
0.033546194 0.044715658 5.5511151e-17 0 0 -0.47704095
0.033551175 0.045471687 0 0 0 -0.47704095
0.033556242 0.046227943 5.5511151e-17 0 0 -0.47704095
0.033561394 0.04698443 5.5511151e-17 0 0 -0.47704095
0.033566628 0.047741152 5.5511151e-17 0 0 -0.47704095
0.033571947 0.048498109 0 0 0 -0.47704095
0.033577349 0.049255311 5.5511151e-17 0 0 -0.47704095
0.033582836 0.050012756 5.5511151e-17 0 0 -0.47704095
0.033588409 0.050770454 0 0 0 -0.47704095
0.033594068 0.051528402 5.5511151e-17 0 0 -0.47704095
0.033599809 0.05228661 5.5511151e-17 0 0 -0.47704095
0.033605639 0.053045075 0 0 0 -0.47704095
0.033611551 0.053803809 5.5511151e-17 0 0 -0.47704095
0.033629797 0.056081634 0 0 0 -0.47704095
0.033636052 0.056841467 0 0 0 -0.47704095
0.033642389 0.057601582 0 0 0 -0.47704095
0.033648811 0.058361985 0 0 0 -0.47704095
0.033655323 0.059122682 5.5511151e-17 0 0 -0.47704095
0.033661917 0.059883676 0 0 0 -0.47704095
0.033668596 0.060644969 0 0 0 -0.47704095
0.033675361 0.061406568 0 0 0 -0.47704095
0.033682216 0.062168472 5.5511151e-17 0 0 -0.47704095
0.033689152 0.062930688 0 0 0 -0.47704095
0.033696178 0.063693218 0 0 0 -0.47704095
0.033703286 0.064456075 5.5511151e-17 0 0 -0.47704095
0.033710483 0.065219253 0 0 0 -0.47704095
0.036545008 0.071515426 0.039999999 0 0 -0.47704095
0.033725135 0.066746593 0 0 0 -0.47704095
0.033732589 0.067510769 5.5511151e-17 0 0 -0.47704095
0.033740133 0.06827528 0 0 0 -0.47704095
0.033747762 0.069040135 5.5511151e-17 0 0 -0.47704095
0.033755478 0.069805339 5.5511151e-17 0 0 -0.47704095
0.033763278 0.070570894 0 0 0 -0.47704095
0.033771168 0.071336806 0 0 0 -0.47704095
0.033779144 0.072103076 5.5511151e-17 0 0 -0.47704095
0.03378721 0.072869711 5.5511151e-17 0 0 -0.47704095
0.033795357 0.073636718 0 0 0 -0.47704095
0.033803597 0.074404091 5.5511151e-17 0 0 -0.47704095
0.033811923 0.075171843 0 0 0 -0.47704095
0.033820335 0.075939976 0 0 0 -0.47704095
0.033828836 0.076708488 0 0 0 -0.47704095
0.033837426 0.077477396 0 0 0 -0.47704095
0.033846103 0.07824669 0 0 0 -0.47704095
0.034276299 0.079999998 0.0059383046 0 0 -0.47704095
0.03386372 0.079786479 0 0 0 -0.47704095
0.032646868 0.00037466714 0 0 0 -0.47704095
0.03264695 0.0011240033 5.5511151e-17 0 0 -0.47704095
0.032647111 0.001873345 0 0 0 -0.47704095
0.032647353 0.0026226959 0 0 0 -0.47704095
0.032647677 0.0033720599 0 0 0 -0.47704095
0.035385627 0.004467024 0.039999999 0 0 -0.47704095
0.035386153 0.0052792626 0.039999999 0 0 -0.47704095
0.032649126 0.0056202663 0 0 0 -0.47704095
0.03264977 0.0063697188 0 0 0 -0.47704095
0.032650497 0.007119203 0 0 0 -0.47704095
0.032651301 0.0078687221 5.5511151e-17 0 0 -0.47704095
0.032652188 0.0086182803 5.5511151e-17 0 0 -0.47704095
0.032653153 0.0093678804 5.5511151e-17 0 0 -0.47704095
0.032654203 0.010117528 5.5511151e-17 0 0 -0.47704095
0.032655329 0.010867224 5.5511151e-17 0 0 -0.47704095
0.032656539 0.011616975 5.5511151e-17 0 0 -0.47704095
0.032657828 0.012366783 5.5511151e-17 0 0 -0.47704095
0.032659199 0.013116651 5.5511151e-17 0 0 -0.47704095
0.035399254 0.015029302 0.039999999 0 0 -0.47704095
0.032662179 0.014616587 5.5511151e-17 0 0 -0.47704095
0.032663792 0.015366661 0 0 0 -0.47704095
0.032665487 0.016116813 0 0 0 -0.47704095
0.032667261 0.016867042 0 0 0 -0.47704095
0.032669116 0.017617356 0 0 0 -0.47704095
0.032671049 0.018367756 5.5511151e-17 0 0 -0.47704095
0.032673068 0.019118246 0 0 0 -0.47704095
0.032675166 0.019868832 5.5511151e-17 0 0 -0.47704095
0.032677341 0.020619515 0 0 0 -0.47704095
0.032679603 0.021370301 0 0 0 -0.47704095
0.032681942 0.022121193 0 0 0 -0.47704095
0.032684363 0.022872193 0 0 0 -0.47704095
0.032686867 0.023623308 0 0 0 -0.47704095
0.032689448 0.024374539 0 0 0 -0.47704095
0.032692112 0.025125889 0 0 0 -0.47704095
0.032694858 0.025877366 0 0 0 -0.47704095
0.032697685 0.026628969 5.5511151e-17 0 0 -0.47704095
0.035442546 0.029676585 0.039999999 0 0 -0.47704095
0.032703582 0.028132576 5.5511151e-17 0 0 -0.47704095
0.032706652 0.028884586 0 0 0 -0.47704095
0.032709803 0.029636741 0 0 0 -0.47704095
0.032713033 0.030389041 0 0 0 -0.47704095
0.035459623 0.033752713 0.039999999 0 0 -0.47704095
0.035463303 0.034568425 0.039999999 0 0 -0.47704095
0.032723222 0.032646861 0 0 0 -0.47704095
0.03272678 0.033399787 5.5511151e-17 0 0 -0.47704095
0.032730419 0.034152877 0 0 0 -0.47704095
0.032734141 0.034906138 0 0 0 -0.47704095
0.032737944 0.03565957 0 0 0 -0.47704095
0.03274183 0.036413182 5.5511151e-17 0 0 -0.47704095
0.035491541 0.04028343 0.039999999 0 0 -0.47704095
0.032749847 0.037920948 5.5511151e-17 0 0 -0.47704095
0.035500403 0.041918028 0.039999999 0 0 -0.47704095
0.032758188 0.039429467 0 0 0 -0.47704095
0.032762483 0.040184017 0 0 0 -0.47704095
0.035514366 0.044371497 0.039999999 0 0 -0.47704095
0.035519198 0.045189753 0.039999999 0 0 -0.47704095
0.032775857 0.042448889 0 0 0 -0.47704095
0.035529129 0.046826951 0.039999999 0 0 -0.47704095
0.032785181 0.043959852 5.5511151e-17 0 0 -0.47704095
0.032789968 0.044715658 0 0 0 -0.47704095
0.032799792 0.046227943 5.5511151e-17 0 0 -0.47704095
0.032804824 0.04698443 5.5511151e-17 0 0 -0.47704095
0.032809939 0.047741152 0 0 0 -0.47704095
0.03281514 0.048498109 0 0 0 -0.47704095
0.032820422 0.049255311 0 0 0 -0.47704095
0.032825787 0.050012756 5.5511151e-17 0 0 -0.47704095
0.032836761 0.051528402 0 0 0 -0.47704095
0.032842375 0.05228661 0 0 0 -0.47704095
0.032853849 0.053803809 5.5511151e-17 0 0 -0.47704095
0.032859713 0.054562811 0 0 0 -0.47704095
0.032865658 0.055322085 0 0 0 -0.47704095
0.032871686 0.056081634 0 0 0 -0.47704095
0.032896634 0.059122682 5.5511151e-17 0 0 -0.47704095
0.032903083 0.059883676 5.5511151e-17 0 0 -0.47704095
0.032909613 0.060644969 0 0 0 -0.47704095
0.037411727 0.069793113 0.065151416 0 0 -0.47704095
0.037186109 0.07021866 0.061771978 0 0 -0.47704095
0.036942128 0.070598677 0.058126565 0 0 -0.47704095
0.032936569 0.063693218 0 0 0 -0.47704095
0.032943521 0.064456075 0 0 0 -0.47704095
0.032950554 0.065219253 0 0 0 -0.47704095
0.03597546 0.072024502 0.043680508 0 0 -0.47704095
0.032964874 0.066746593 5.5511151e-17 0 0 -0.47704095
0.032972164 0.067510769 0 0 0 -0.47704095
0.032979533 0.06827528 5.5511151e-17 0 0 -0.47704095
0.032986991 0.069040135 0 0 0 -0.47704095
0.032994535 0.069805339 0 0 0 -0.47704095
0.03300216 0.070570894 0 0 0 -0.47704095
0.033009872 0.071336806 0 0 0 -0.47704095
0.033017669 0.072103076 5.5511151e-17 0 0 -0.47704095
0.033025548 0.072869711 5.5511151e-17 0 0 -0.47704095
0.033033516 0.073636718 0 0 0 -0.47704095
0.035526615 0.079999998 0.035878088 0 0 -0.47704095
0.035172429 0.079999998 0.030639498 0 0 -0.47704095
0.033057928 0.075939976 0 0 0 -0.47704095
0.033066239 0.076708488 0 0 0 -0.47704095
0.033074632 0.077477396 5.5511151e-17 0 0 -0.47704095
0.033083115 0.07824669 0 0 0 -0.47704095
0.033091683 0.079016387 5.5511151e-17 0 0 -0.47704095
0.033100333 0.079786479 0 0 0 -0.47704095
0.031894106 0.00037466714 5.5511151e-17 0 0 -0.47704095
0.031894185 0.0011240033 5.5511151e-17 0 0 -0.47704095
0.031894341 0.001873345 0 0 0 -0.47704095
0.03189458 0.0026226959 5.5511151e-17 0 0 -0.47704095
0.031894892 0.0033720599 5.5511151e-17 0 0 -0.47704095
0.031895287 0.0041214405 0 0 0 -0.47704095
0.03189576 0.0048708413 0 0 0 -0.47704095
0.031896312 0.0056202663 5.5511151e-17 0 0 -0.47704095
0.034571506 0.0069038211 0.039999999 0 0 -0.47704095
0.034572273 0.0077161496 0.039999999 0 0 -0.47704095
0.031898435 0.0078687221 0 0 0 -0.47704095
0.031899299 0.0086182803 5.5511151e-17 0 0 -0.47704095
0.031900246 0.0093678804 5.5511151e-17 0 0 -0.47704095
0.03190127 0.010117528 5.5511151e-17 0 0 -0.47704095
0.031902373 0.010867224 5.5511151e-17 0 0 -0.47704095
0.031903554 0.011616975 5.5511151e-17 0 0 -0.47704095
0.031904813 0.012366783 5.5511151e-17 0 0 -0.47704095
0.03190615 0.013116651 0 0 0 -0.47704095
0.03190757 0.013866586 0 0 0 -0.47704095
0.031909063 0.014616587 0 0 0 -0.47704095
0.031910639 0.015366661 5.5511151e-17 0 0 -0.47704095
0.031912293 0.016116813 0 0 0 -0.47704095
0.031914026 0.016867042 0 0 0 -0.47704095
0.03191584 0.017617356 0 0 0 -0.47704095
0.03459404 0.019907895 0.039999999 0 0 -0.47704095
0.031919699 0.019118246 5.5511151e-17 0 0 -0.47704095
0.031921748 0.019868832 0 0 0 -0.47704095
0.031923875 0.020619515 5.5511151e-17 0 0 -0.47704095
0.034603093 0.023162207 0.039999999 0 0 -0.47704095
0.03460557 0.02397606 0.039999999 0 0 -0.47704095
0.031930733 0.022872193 5.5511151e-17 0 0 -0.47704095
0.034610786 0.025604127 0.039999999 0 0 -0.47704095
0.031935703 0.024374539 0 0 0 -0.47704095
0.03461634 0.027232701 0.039999999 0 0 -0.47704095
0.031940989 0.025877366 0 0 0 -0.47704095
0.03194375 0.026628969 0 0 0 -0.47704095
0.031946588 0.027380705 0 0 0 -0.47704095
0.031949509 0.028132576 0 0 0 -0.47704095
0.034631733 0.031306565 0.039999999 0 0 -0.47704095
0.031955589 0.029636741 5.5511151e-17 0 0 -0.47704095
0.034638494 0.032937169 0.039999999 0 0 -0.47704095
0.031961985 0.031141492 0 0 0 -0.47704095
0.0319653 0.031894095 0 0 0 -0.47704095
0.034649279 0.035384309 0.039999999 0 0 -0.47704095
0.034653049 0.036200367 0.039999999 0 0 -0.47704095
0.031975731 0.034152877 0 0 0 -0.47704095
0.034660842 0.037833024 0.039999999 0 0 -0.47704095
0.031983081 0.03565957 5.5511151e-17 0 0 -0.47704095
0.034668986 0.039466433 0.039999999 0 0 -0.47704095
0.031990752 0.037166972 5.5511151e-17 0 0 -0.47704095
0.031994708 0.037920948 0 0 0 -0.47704095
0.034681845 0.041918028 0.039999999 0 0 -0.47704095
0.032002859 0.039429467 0 0 0 -0.47704095
0.032007053 0.040184017 5.5511151e-17 0 0 -0.47704095
0.032011326 0.040938772 0 0 0 -0.47704095
0.032015681 0.041693725 0 0 0 -0.47704095
0.032020118 0.042448889 0 0 0 -0.47704095
0.03202923 0.043959852 0 0 0 -0.47704095
0.032033905 0.044715658 5.5511151e-17 0 0 -0.47704095
0.032038663 0.045471687 0 0 0 -0.47704095
0.032043502 0.046227943 0 0 0 -0.47704095
0.032048419 0.04698443 0 0 0 -0.47704095
0.032058496 0.048498109 0 0 0 -0.47704095
0.032063656 0.049255311 0 0 0 -0.47704095
0.032068897 0.050012756 0 0 0 -0.47704095
0.032079622 0.051528402 0 0 0 -0.47704095
0.032090668 0.053045075 5.5511151e-17 0 0 -0.47704095
0.032096315 0.053803809 0 0 0 -0.47704095
0.032107849 0.055322085 0 0 0 -0.47704095
0.032113738 0.056081634 5.5511151e-17 0 0 -0.47704095
0.03215079 0.060644969 5.5511151e-17 0 0 -0.47704095
0.03215725 0.061406568 5.5511151e-17 0 0 -0.47704095
0.036705706 0.070947401 0.067363858 0 0 -0.47704095
0.032170419 0.062930688 0 0 0 -0.47704095
0.032177128 0.063693218 0 0 0 -0.47704095
0.032183915 0.064456075 5.5511151e-17 0 0 -0.47704095
0.035711158 0.072351597 0.052168965 0 0 -0.47704095
0.032197744 0.065982759 5.5511151e-17 0 0 -0.47704095
0.032204781 0.066746593 0 0 0 -0.47704095
0.0322119 0.067510769 5.5511151e-17 0 0 -0.47704095
0.032219101 0.06827528 5.5511151e-17 0 0 -0.47704095
0.032226384 0.069040135 5.5511151e-17 0 0 -0.47704095
0.032233752 0.069805339 0 0 0 -0.47704095
0.034944635 0.076488279 0.039999999 0 0 -0.47704095
0.032248735 0.071336806 5.5511151e-17 0 0 -0.47704095
0.032256354 0.072103076 5.5511151e-17 0 0 -0.47704095
0.032264054 0.072869711 0 0 0 -0.47704095
0.032271836 0.073636718 0 0 0 -0.47704095
0.032279704 0.074404091 0 0 0 -0.47704095
0.032287654 0.075171843 5.5511151e-17 0 0 -0.47704095
0.032295689 0.075939976 0 0 0 -0.47704095
0.032303806 0.076708488 5.5511151e-17 0 0 -0.47704095
0.032312006 0.077477396 0 0 0 -0.47704095
0.032328662 0.079016387 5.5511151e-17 0 0 -0.47704095
0.032337114 0.079786479 0 0 0 -0.47704095
0.031141501 0.00037466714 5.5511151e-17 0 0 -0.47704095
0.031141577 0.0011240033 0 0 0 -0.47704095
0.031141732 0.001873345 5.5511151e-17 0 0 -0.47704095
0.031141963 0.0026226959 5.5511151e-17 0 0 -0.47704095
0.03114227 0.0033720599 5.5511151e-17 0 0 -0.47704095
0.031142654 0.0041214405 0 0 0 -0.47704095
0.033754472 0.0052792626 0.039999999 0 0 -0.47704095
0.033755057 0.0060915267 0.039999999 0 0 -0.47704095
0.031144267 0.0063697188 5.5511151e-17 0 0 -0.47704095
0.03114496 0.007119203 0 0 0 -0.47704095
0.031145727 0.0078687221 5.5511151e-17 0 0 -0.47704095
0.031146573 0.0086182803 0 0 0 -0.47704095
0.033759221 0.01015338 0.039999999 0 0 -0.47704095
0.031148495 0.010117528 5.5511151e-17 0 0 -0.47704095
0.03114957 0.010867224 0 0 0 -0.47704095
0.033762719 0.012591061 0.039999999 0 0 -0.47704095
0.033764053 0.013403741 0.039999999 0 0 -0.47704095
0.033765469 0.014216486 0.039999999 0 0 -0.47704095
0.031154646 0.013866586 0 0 0 -0.47704095
0.031156106 0.014616587 0 0 0 -0.47704095
0.031157644 0.015366661 5.5511151e-17 0 0 -0.47704095
0.031159259 0.016116813 5.5511151e-17 0 0 -0.47704095
0.031160951 0.016867042 0 0 0 -0.47704095
0.03116272 0.017617356 0 0 0 -0.47704095
0.031164566 0.018367756 5.5511151e-17 0 0 -0.47704095
0.03116649 0.019118246 0 0 0 -0.47704095
0.031168491 0.019868832 0 0 0 -0.47704095
0.031170569 0.020619515 0 0 0 -0.47704095
0.031172723 0.021370301 0 0 0 -0.47704095
0.031174956 0.022121193 0 0 0 -0.47704095
0.031177266 0.022872193 0 0 0 -0.47704095
0.033794072 0.025604127 0.039999999 0 0 -0.47704095
0.033796743 0.026418349 0.039999999 0 0 -0.47704095
0.033799499 0.027232701 0.039999999 0 0 -0.47704095
0.031187275 0.025877366 0 0 0 -0.47704095
0.033805259 0.028861815 0.039999999 0 0 -0.47704095
0.031192746 0.027380705 0 0 0 -0.47704095
0.033811357 0.030491499 0.039999999 0 0 -0.47704095
0.033814531 0.031306565 0.039999999 0 0 -0.47704095
0.033817787 0.032121789 0.039999999 0 0 -0.47704095
0.031204615 0.030389041 0 0 0 -0.47704095
0.031207776 0.031141492 0 0 0 -0.47704095
0.031211015 0.031894095 0 0 0 -0.47704095
0.03383166 0.035384309 0.039999999 0 0 -0.47704095
0.031217726 0.033399787 5.5511151e-17 0 0 -0.47704095
0.031221198 0.034152877 0 0 0 -0.47704095
0.031224748 0.034906138 0 0 0 -0.47704095
0.031228377 0.03565957 0 0 0 -0.47704095
0.031232081 0.036413182 5.5511151e-17 0 0 -0.47704095
0.031235866 0.037166972 0 0 0 -0.47704095
0.033859186 0.041100629 0.039999999 0 0 -0.47704095
0.031243667 0.038675111 0 0 0 -0.47704095
0.031247685 0.039429467 0 0 0 -0.47704095
0.031251781 0.040184017 0 0 0 -0.47704095
0.031255957 0.040938772 0 0 0 -0.47704095
0.031260207 0.041693725 0 0 0 -0.47704095
0.03126454 0.042448889 0 0 0 -0.47704095
0.031268947 0.043204263 5.5511151e-17 0 0 -0.47704095
0.031273436 0.043959852 0 0 0 -0.47704095
0.031282648 0.045471687 0 0 0 -0.47704095
0.031287368 0.046227943 0 0 0 -0.47704095
0.03129217 0.04698443 0 0 0 -0.47704095
0.031297054 0.047741152 0 0 0 -0.47704095
0.031302013 0.048498109 0 0 0 -0.47704095
0.031307049 0.049255311 0 0 0 -0.47704095
0.031317364 0.050770454 0 0 0 -0.47704095
0.031322639 0.051528402 0 0 0 -0.47704095
0.031327993 0.05228661 5.5511151e-17 0 0 -0.47704095
0.031333424 0.053045075 0 0 0 -0.47704095
0.031338938 0.053803809 0 0 0 -0.47704095
0.031344529 0.054562811 0 0 0 -0.47704095
0.031350199 0.055322085 0 0 0 -0.47704095
0.031355951 0.056081634 0 0 0 -0.47704095
0.031361781 0.056841467 5.5511151e-17 0 0 -0.47704095
0.03137368 0.058361985 0 0 0 -0.47704095
0.031379748 0.059122682 0 0 0 -0.47704095
0.031385899 0.059883676 0 0 0 -0.47704095
0.031392127 0.060644969 5.5511151e-17 0 0 -0.47704095
0.031398438 0.061406568 5.5511151e-17 0 0 -0.47704095
0.031404823 0.062168472 0 0 0 -0.47704095
0.031411294 0.062930688 5.5511151e-17 0 0 -0.47704095
0.031417843 0.063693218 5.5511151e-17 0 0 -0.47704095
0.035433285 0.072678722 0.060856 0 0 -0.47704095
0.035173513 0.072984539 0.05679854 0 0 -0.47704095
0.031437971 0.065982759 0 0 0 -0.47704095
0.031444844 0.066746593 0 0 0 -0.47704095
0.031451795 0.067510769 0 0 0 -0.47704095
0.031458825 0.06827528 0 0 0 -0.47704095
0.03146594 0.069040135 5.5511151e-17 0 0 -0.47704095
0.031473134 0.069805339 0 0 0 -0.47704095
0.034120049 0.076488279 0.039999999 0 0 -0.47704095
0.031487763 0.071336806 0 0 0 -0.47704095
0.031495202 0.072103076 5.5511151e-17 0 0 -0.47704095
0.03150272 0.072869711 0 0 0 -0.47704095
0.03151032 0.073636718 0 0 0 -0.47704095
0.031518001 0.074404091 0 0 0 -0.47704095
0.033550605 0.079999998 0.030639498 0 0 -0.47704095
0.031533606 0.075939976 5.5511151e-17 0 0 -0.47704095
0.031541534 0.076708488 0 0 0 -0.47704095
0.031549539 0.077477396 0 0 0 -0.47704095
0.031557631 0.07824669 5.5511151e-17 0 0 -0.47704095
0.0315658 0.079016387 0 0 0 -0.47704095
0.031574056 0.079786479 0 0 0 -0.47704095
0.03038905 0.00037466714 0 0 0 -0.47704095
0.030389125 0.0011240033 0 0 0 -0.47704095
0.030389275 0.001873345 0 0 0 -0.47704095
0.032937668 0.0028426095 0.039999999 0 0 -0.47704095
0.030389799 0.0033720599 5.5511151e-17 0 0 -0.47704095
0.030390175 0.0041214405 0 0 0 -0.47704095
0.030390624 0.0048708413 0 0 0 -0.47704095
0.032939456 0.0060915267 0.039999999 0 0 -0.47704095
0.030391749 0.0063697188 0 0 0 -0.47704095
0.032940835 0.0077161496 0.039999999 0 0 -0.47704095
0.030393174 0.0078687221 0 0 0 -0.47704095
0.030393999 0.0086182803 5.5511151e-17 0 0 -0.47704095
0.030394899 0.0093678804 0 0 0 -0.47704095
0.030395875 0.010117528 0 0 0 -0.47704095
0.030396925 0.010867224 0 0 0 -0.47704095
0.032946933 0.012591061 0.039999999 0 0 -0.47704095
0.03039925 0.012366783 0 0 0 -0.47704095
0.030400526 0.013116651 5.5511151e-17 0 0 -0.47704095
0.032951079 0.015029302 0.039999999 0 0 -0.47704095
0.030403301 0.014616587 5.5511151e-17 0 0 -0.47704095
0.030404802 0.015366661 5.5511151e-17 0 0 -0.47704095
0.030406378 0.016116813 0 0 0 -0.47704095
0.032957751 0.018281348 0.039999999 0 0 -0.47704095
0.030409757 0.017617356 0 0 0 -0.47704095
0.030411558 0.018367756 0 0 0 -0.47704095
0.032963607 0.020721316 0.039999999 0 0 -0.47704095
0.032965723 0.021534838 0.039999999 0 0 -0.47704095
0.030417414 0.020619515 5.5511151e-17 0 0 -0.47704095
0.030419517 0.021370301 5.5511151e-17 0 0 -0.47704095
0.030421697 0.022121193 0 0 0 -0.47704095
0.03042395 0.022872193 5.5511151e-17 0 0 -0.47704095
0.030426279 0.023623308 5.5511151e-17 0 0 -0.47704095
0.030428683 0.024374539 0 0 0 -0.47704095
0.030431163 0.025125889 5.5511151e-17 0 0 -0.47704095
0.030433718 0.025877366 5.5511151e-17 0 0 -0.47704095
0.03043635 0.026628969 0 0 0 -0.47704095
0.030439056 0.027380705 5.5511151e-17 0 0 -0.47704095
0.030441839 0.028132576 0 0 0 -0.47704095
0.030444697 0.028884586 0 0 0 -0.47704095
0.03044763 0.029636741 5.5511151e-17 0 0 -0.47704095
0.030450638 0.030389041 0 0 0 -0.47704095
0.030453723 0.031141492 0 0 0 -0.47704095
0.033010703 0.034568425 0.039999999 0 0 -0.47704095
0.030460121 0.032646861 0 0 0 -0.47704095
0.033017799 0.036200367 0.039999999 0 0 -0.47704095
0.030466821 0.034152877 0 0 0 -0.47704095
0.030470286 0.034906138 0 0 0 -0.47704095
0.030473826 0.03565957 0 0 0 -0.47704095
0.033032984 0.039466433 0.039999999 0 0 -0.47704095
0.033036985 0.04028343 0.039999999 0 0 -0.47704095
0.033041071 0.041100629 0.039999999 0 0 -0.47704095
0.030488748 0.038675111 5.5511151e-17 0 0 -0.47704095
0.030492669 0.039429467 5.5511151e-17 0 0 -0.47704095
0.030496666 0.040184017 0 0 0 -0.47704095
0.033058234 0.044371497 0.039999999 0 0 -0.47704095
0.030504888 0.041693725 0 0 0 -0.47704095
0.030513417 0.043204263 0 0 0 -0.47704095
0.030517796 0.043959852 5.5511151e-17 0 0 -0.47704095
0.030531393 0.046227943 5.5511151e-17 0 0 -0.47704095
0.03053608 0.04698443 0 0 0 -0.47704095
0.030540843 0.047741152 0 0 0 -0.47704095
0.030545682 0.048498109 5.5511151e-17 0 0 -0.47704095
0.030550599 0.049255311 5.5511151e-17 0 0 -0.47704095
0.030555593 0.050012756 0 0 0 -0.47704095
0.030565809 0.051528402 5.5511151e-17 0 0 -0.47704095
0.030571034 0.05228661 0 0 0 -0.47704095
0.030576337 0.053045075 5.5511151e-17 0 0 -0.47704095
0.030587172 0.054562811 5.5511151e-17 0 0 -0.47704095
0.030592708 0.055322085 0 0 0 -0.47704095
0.030598318 0.056081634 0 0 0 -0.47704095
0.030604009 0.056841467 0 0 0 -0.47704095
0.030609775 0.057601582 5.5511151e-17 0 0 -0.47704095
0.03061562 0.058361985 0 0 0 -0.47704095
0.030621542 0.059122682 5.5511151e-17 0 0 -0.47704095
0.030627543 0.059883676 0 0 0 -0.47704095
0.030633621 0.060644969 5.5511151e-17 0 0 -0.47704095
0.030639777 0.061406568 0 0 0 -0.47704095
0.030646011 0.062168472 5.5511151e-17 0 0 -0.47704095
0.030652324 0.062930688 0 0 0 -0.47704095
0.03514643 0.07301642 0.069827616 0 0 -0.47704095
0.030665183 0.064456075 0 0 0 -0.47704095
0.030671731 0.065219253 0 0 0 -0.47704095
0.030678358 0.065982759 0 0 0 -0.47704095
0.030685062 0.066746593 0 0 0 -0.47704095
0.030691845 0.067510769 0 0 0 -0.47704095
0.030698707 0.06827528 0 0 0 -0.47704095
0.030705649 0.069040135 5.5511151e-17 0 0 -0.47704095
0.03071267 0.069805339 5.5511151e-17 0 0 -0.47704095
0.030719768 0.070570894 0 0 0 -0.47704095
0.030726945 0.071336806 5.5511151e-17 0 0 -0.47704095
0.033311274 0.078148939 0.039999999 0 0 -0.47704095
0.030741539 0.072869711 0 0 0 -0.47704095
0.030748956 0.073636718 5.5511151e-17 0 0 -0.47704095
0.030756451 0.074404091 0 0 0 -0.47704095
0.030764027 0.075171843 5.5511151e-17 0 0 -0.47704095
0.03077168 0.075939976 5.5511151e-17 0 0 -0.47704095
0.030779416 0.076708488 0 0 0 -0.47704095
0.03078723 0.077477396 5.5511151e-17 0 0 -0.47704095
0.031485163 0.079999998 0.010689252 0 0 -0.47704095
0.030803099 0.079016387 0 0 0 -0.47704095
0.030811153 0.079786479 0 0 0 -0.47704095
0.02963675 0.00037466714 0 0 0 -0.47704095
0.029636823 0.0011240033 0 0 0 -0.47704095
0.029636968 0.001873345 0 0 0 -0.47704095
0.029637188 0.0026226959 0 0 0 -0.47704095
0.03212259 0.0036548078 0.039999999 0 0 -0.47704095
0.029637845 0.0041214405 0 0 0 -0.47704095
0.029638285 0.0048708413 0 0 0 -0.47704095
0.032124016 0.0060915267 0.039999999 0 0 -0.47704095
0.029639382 0.0063697188 5.5511151e-17 0 0 -0.47704095
0.029640039 0.007119203 5.5511151e-17 0 0 -0.47704095
0.029640771 0.0078687221 5.5511151e-17 0 0 -0.47704095
0.029641576 0.0086182803 0 0 0 -0.47704095
0.03212798 0.01015338 0.039999999 0 0 -0.47704095
0.029643405 0.010117528 0 0 0 -0.47704095
0.02964443 0.010867224 0 0 0 -0.47704095
0.029645527 0.011616975 0 0 0 -0.47704095
0.029646697 0.012366783 0 0 0 -0.47704095
0.032133929 0.014216486 0.039999999 0 0 -0.47704095
0.029649258 0.013866586 0 0 0 -0.47704095
0.029650649 0.014616587 5.5511151e-17 0 0 -0.47704095
0.029652113 0.015366661 0 0 0 -0.47704095
0.02965365 0.016116813 0 0 0 -0.47704095
0.029655259 0.016867042 0 0 0 -0.47704095
0.029656943 0.017617356 5.5511151e-17 0 0 -0.47704095
0.029658701 0.018367756 5.5511151e-17 0 0 -0.47704095
0.02966053 0.019118246 5.5511151e-17 0 0 -0.47704095
0.029662434 0.019868832 5.5511151e-17 0 0 -0.47704095
0.029664412 0.020619515 0 0 0 -0.47704095
0.029666463 0.021370301 0 0 0 -0.47704095
0.029668588 0.022121193 0 0 0 -0.47704095
0.029670786 0.022872193 0 0 0 -0.47704095
0.03216115 0.025604127 0.039999999 0 0 -0.47704095
0.032163691 0.026418349 0.039999999 0 0 -0.47704095
0.029677819 0.025125889 0 0 0 -0.47704095
0.029680312 0.025877366 5.5511151e-17 0 0 -0.47704095
0.029682878 0.026628969 0 0 0 -0.47704095
0.029685518 0.027380705 0 0 0 -0.47704095
0.029688232 0.028132576 0 0 0 -0.47704095
0.029691018 0.028884586 0 0 0 -0.47704095
0.029693879 0.029636741 5.5511151e-17 0 0 -0.47704095
0.029696813 0.030389041 5.5511151e-17 0 0 -0.47704095
0.029699823 0.031141492 0 0 0 -0.47704095
0.029702904 0.031894095 5.5511151e-17 0 0 -0.47704095
0.029706061 0.032646861 0 0 0 -0.47704095
0.029709291 0.033399787 0 0 0 -0.47704095
0.029712595 0.034152877 0 0 0 -0.47704095
0.029715974 0.034906138 0 0 0 -0.47704095
0.029719427 0.03565957 0 0 0 -0.47704095
0.029722953 0.036413182 0 0 0 -0.47704095
0.029726554 0.037166972 5.5511151e-17 0 0 -0.47704095
0.029730229 0.037920948 0 0 0 -0.47704095
0.029733978 0.038675111 0 0 0 -0.47704095
0.029737802 0.039429467 5.5511151e-17 0 0 -0.47704095
0.029741701 0.040184017 5.5511151e-17 0 0 -0.47704095
0.029745674 0.040938772 0 0 0 -0.47704095
0.029753841 0.042448889 5.5511151e-17 0 0 -0.47704095
0.029758038 0.043204263 5.5511151e-17 0 0 -0.47704095
0.029762309 0.043959852 0 0 0 -0.47704095
0.029766655 0.044715658 0 0 0 -0.47704095
0.029771075 0.045471687 5.5511151e-17 0 0 -0.47704095
0.029775569 0.046227943 0 0 0 -0.47704095
0.029784784 0.047741152 0 0 0 -0.47704095
0.029789504 0.048498109 5.5511151e-17 0 0 -0.47704095
0.029794298 0.049255311 0 0 0 -0.47704095
0.029799169 0.050012756 5.5511151e-17 0 0 -0.47704095
0.029804114 0.050770454 0 0 0 -0.47704095
0.029809134 0.051528402 0 0 0 -0.47704095
0.029814228 0.05228661 0 0 0 -0.47704095
0.029819399 0.053045075 0 0 0 -0.47704095
0.029829968 0.054562811 0 0 0 -0.47704095
0.029835366 0.055322085 0 0 0 -0.47704095
0.029840838 0.056081634 0 0 0 -0.47704095
0.029846385 0.056841467 5.5511151e-17 0 0 -0.47704095
0.02985201 0.057601582 0 0 0 -0.47704095
0.02985771 0.058361985 0 0 0 -0.47704095
0.029869338 0.059883676 5.5511151e-17 0 0 -0.47704095
0.029881269 0.061406568 0 0 0 -0.47704095
0.02988735 0.062168472 0 0 0 -0.47704095
0.029893506 0.062930688 0 0 0 -0.47704095
0.029899739 0.063693218 5.5511151e-17 0 0 -0.47704095
0.029912433 0.065219253 0 0 0 -0.47704095
0.029918894 0.065982759 0 0 0 -0.47704095
0.029925434 0.066746593 0 0 0 -0.47704095
0.03323831 0.074967928 0.052693412 0 0 -0.47704095
0.029938741 0.06827528 0 0 0 -0.47704095
0.029945511 0.069040135 0 0 0 -0.47704095
0.029952357 0.069805339 5.5511151e-17 0 0 -0.47704095
0.02995928 0.070570894 5.5511151e-17 0 0 -0.47704095
0.032478962 0.077318415 0.039999999 0 0 -0.47704095
0.032486632 0.078148939 0.039999999 0 0 -0.47704095
0.032494385 0.078979857 0.039999999 0 0 -0.47704095
0.029987745 0.073636718 5.5511151e-17 0 0 -0.47704095
0.029995056 0.074404091 0 0 0 -0.47704095
0.030002443 0.075171843 0 0 0 -0.47704095
0.030009909 0.075939976 0 0 0 -0.47704095
0.03001745 0.076708488 0 0 0 -0.47704095
0.030025072 0.077477396 0 0 0 -0.47704095
0.030032771 0.07824669 5.5511151e-17 0 0 -0.47704095
0.030040547 0.079016387 0 0 0 -0.47704095
0.030048404 0.079786479 0 0 0 -0.47704095
0.028884595 0.00037466714 0 0 0 -0.47704095
0.028884666 0.0011240033 5.5511151e-17 0 0 -0.47704095
0.028884809 0.001873345 0 0 0 -0.47704095
0.028885024 0.0026226959 0 0 0 -0.47704095
0.028885309 0.0033720599 0 0 0 -0.47704095
0.028885664 0.0041214405 0 0 0 -0.47704095
0.028886093 0.0048708413 5.5511151e-17 0 0 -0.47704095
0.028886592 0.0056202663 5.5511151e-17 0 0 -0.47704095
0.028887162 0.0063697188 0 0 0 -0.47704095
0.031310052 0.0077161496 0.039999999 0 0 -0.47704095
0.028888516 0.0078687221 0 0 0 -0.47704095
0.0288893 0.0086182803 0 0 0 -0.47704095
0.028890155 0.0093678804 0 0 0 -0.47704095
0.031313606 0.010965885 0.039999999 0 0 -0.47704095
0.028892081 0.010867224 0 0 0 -0.47704095
0.02889315 0.011616975 5.5511151e-17 0 0 -0.47704095
0.02889429 0.012366783 0 0 0 -0.47704095
0.028895503 0.013116651 0 0 0 -0.47704095
0.028896786 0.013866586 5.5511151e-17 0 0 -0.47704095
0.031321257 0.015842192 0.039999999 0 0 -0.47704095
0.028899569 0.015366661 0 0 0 -0.47704095
0.028901067 0.016116813 0 0 0 -0.47704095
0.028902637 0.016867042 5.5511151e-17 0 0 -0.47704095
0.031327907 0.019094575 0.039999999 0 0 -0.47704095
0.031329762 0.019907895 0.039999999 0 0 -0.47704095
0.031331699 0.020721316 0.039999999 0 0 -0.47704095
0.028909629 0.019868832 0 0 0 -0.47704095
0.028911557 0.020619515 0 0 0 -0.47704095
0.028913556 0.021370301 0 0 0 -0.47704095
0.031340208 0.02397606 0.039999999 0 0 -0.47704095
0.028917767 0.022872193 0 0 0 -0.47704095
0.028919982 0.023623308 5.5511151e-17 0 0 -0.47704095
0.028922267 0.024374539 0 0 0 -0.47704095
0.028924624 0.025125889 0 0 0 -0.47704095
0.028927052 0.025877366 0 0 0 -0.47704095
