# .PCD v0.7 - Point Cloud Data file format
VERSION 0.7
FIELDS x y z vp_x vp_y vp_z
SIZE 4 4 4 4 4 4
TYPE F F F F F F
COUNT 1 1 1 1 1 1
WIDTH 697
HEIGHT 1
VIEWPOINT 0 0 0 1 0 0 0
POINTS 697
DATA ascii
0.020131482 0.015980911 0.039999999 0.23852047 -0.14741376 -0.38593423
0.039999999 0.0020154261 0.0019950988 0.23852047 -0.14741376 -0.38593423
0.020971101 0.017328735 0.039999999 0.23852047 -0.14741376 -0.38593423
0.039999999 0.0038258515 0.0034956809 0.23852047 -0.14741376 -0.38593423
0.039999999 0.0047365525 0.0042507132 0.23852047 -0.14741376 -0.38593423
0.039999999 0.0056509483 0.0050089373 0.23852047 -0.14741376 -0.38593423
0.039999999 0.006569067 0.0057703773 0.23852047 -0.14741376 -0.38593423
0.039999999 0.0074909367 0.006535057 0.23852047 -0.14741376 -0.38593423
0.039999999 0.0084165847 0.0073030009 0.23852047 -0.14741376 -0.38593423
0.039999999 0.0093460409 0.0080742333 0.23852047 -0.14741376 -0.38593423
0.039999999 0.010279333 0.008848778 0.23852047 -0.14741376 -0.38593423
0.039999999 0.011216491 0.0096266614 0.23852047 -0.14741376 -0.38593423
0.025177866 0.024071615 0.039999999 0.23852047 -0.14741376 -0.38593423
0.039999999 0.013102521 0.011192543 0.23852047 -0.14741376 -0.38593423
0.039999999 0.014051452 0.011980592 0.23852047 -0.14741376 -0.38593423
0.039999999 0.015004368 0.012772081 0.23852047 -0.14741376 -0.38593423
0.039999999 0.015961299 0.013567037 0.23852047 -0.14741376 -0.38593423
0.039999999 0.016922275 0.014365486 0.23852047 -0.14741376 -0.38593423
0.039999999 0.017887328 0.015167453 0.23852047 -0.14741376 -0.38593423
0.039999999 0.01885649 0.015972968 0.23852047 -0.14741376 -0.38593423
0.039999999 0.019829793 0.016782057 0.23852047 -0.14741376 -0.38593423
0.039999999 0.020807268 0.017594745 0.23852047 -0.14741376 -0.38593423
0.029400529 0.030823072 0.039999999 0.23852047 -0.14741376 -0.38593423
0.039999999 0.022774864 0.01923104 0.23852047 -0.14741376 -0.38593423
0.030247146 0.032174669 0.039999999 0.23852047 -0.14741376 -0.38593423
0.039999999 0.024759542 0.020882076 0.23852047 -0.14741376 -0.38593423
0.039999999 0.025758371 0.021713194 0.23852047 -0.14741376 -0.38593423
0.039999999 0.026761571 0.022548083 0.23852047 -0.14741376 -0.38593423
0.039999999 0.027769176 0.023386775 0.23852047 -0.14741376 -0.38593423
0.039999999 0.028781224 0.024229299 0.23852047 -0.14741376 -0.38593423
0.039999999 0.029797748 0.025075683 0.23852047 -0.14741376 -0.38593423
0.039999999 0.030818783 0.02592596 0.23852047 -0.14741376 -0.38593423
0.039999999 0.031844366 0.026780162 0.23852047 -0.14741376 -0.38593423
0.039999999 0.032874532 0.027638316 0.23852047 -0.14741376 -0.38593423
0.039999999 0.033909317 0.028500455 0.23852047 -0.14741376 -0.38593423
0.039999999 0.034948759 0.029366612 0.23852047 -0.14741376 -0.38593423
0.039999999 0.035992898 0.030236818 0.23852047 -0.14741376 -0.38593423
0.03576874 0.040973246 0.039999999 0.23852047 -0.14741376 -0.38593423
0.039999999 0.038095407 0.031989507 0.23852047 -0.14741376 -0.38593423
0.039999999 0.039153859 0.032872058 0.23852047 -0.14741376 -0.38593423
0.039999999 0.040217154 0.033758789 0.23852047 -0.14741376 -0.38593423
0.039999999 0.04128534 0.034649733 0.23852047 -0.14741376 -0.38593423
0.039999999 0.042358451 0.035544928 0.23852047 -0.14741376 -0.38593423
0.039999999 0.043436531 0.036444403 0.23852047 -0.14741376 -0.38593423
0.039999999 0.044519618 0.0373482 0.23852047 -0.14741376 -0.38593423
0.039183974 0.04640118 0.039999999 0.23852047 -0.14741376 -0.38593423
0.039611876 0.047080494 0.039999999 0.23852047 -0.14741376 -0.38593423
0.037459683 0.050297339 0.045537304 0.23852047 -0.14741376 -0.38593423
0.037848428 0.051030565 0.045634478 0.23852047 -0.14741376 -0.38593423
0.038222197 0.051779632 0.045764863 0.23852047 -0.14741376 -0.38593423
0.038542438 0.052583352 0.046011943 0.23852047 -0.14741376 -0.38593423
0.038863175 0.053388312 0.046259549 0.23852047 -0.14741376 -0.38593423
0.039129648 0.054249913 0.046626482 0.23852047 -0.14741376 -0.38593423
0.039375376 0.055135004 0.04704066 0.23852047 -0.14741376 -0.38593423
0.039590377 0.056054175 0.04752415 0.23852047 -0.14741376 -0.38593423
0.039750792 0.057032518 0.048129514 0.23852047 -0.14741376 -0.38593423
0.039893392 0.058032982 0.048777107 0.23852047 -0.14741376 -0.38593423
0.039952531 0.059124187 0.049611188 0.23852047 -0.14741376 -0.38593423
0.03998664 0.060246512 0.050504573 0.23852047 -0.14741376 -0.38593423
0.039919768 0.061480325 0.051624987 0.23852047 -0.14741376 -0.38593423
0.039778333 0.062799513 0.05291564 0.23852047 -0.14741376 -0.38593423
0.039544731 0.064224184 0.054416645 0.23852047 -0.14741376 -0.38593423
0.039089572 0.06589444 0.05641643 0.23852047 -0.14741376 -0.38593423
0.038362343 0.067868643 0.059030659 0.23852047 -0.14741376 -0.38593423
0.036920879 0.070630021 0.063248709 0.23852047 -0.14741376 -0.38593423
0.0097840987 0 0.039091416 0.23852047 -0.14741376 -0.38593423
0.011238167 0 0.037160113 0.23852047 -0.14741376 -0.38593423
0.012679135 0 0.035246346 0.23852047 -0.14741376 -0.38593423
0.014107186 0 0.033349864 0.23852047 -0.14741376 -0.38593423
0.015522501 0 0.031470433 0.23852047 -0.14741376 -0.38593423
0.016925259 0 0.02960781 0.23852047 -0.14741376 -0.38593423
0.01831563 0 0.027761765 0.23852047 -0.14741376 -0.38593423
0.019693788 0 0.025932066 0.23852047 -0.14741376 -0.38593423
0.021059902 0 0.024118491 0.23852047 -0.14741376 -0.38593423
0.022414133 0 0.02232082 0.23852047 -0.14741376 -0.38593423
0.023756647 0 0.020538833 0.23852047 -0.14741376 -0.38593423
0.025087599 0 0.018772321 0.23852047 -0.14741376 -0.38593423
0.026407149 0 0.017021075 0.23852047 -0.14741376 -0.38593423
0.027715446 0 0.015284888 0.23852047 -0.14741376 -0.38593423
0.029012643 0 0.013563558 0.23852047 -0.14741376 -0.38593423
0.030298887 0 0.011856891 0.23852047 -0.14741376 -0.38593423
0.031574324 0 0.010164689 0.23852047 -0.14741376 -0.38593423
0.016405677 0.011777985 0.039999999 0.23852047 -0.14741376 -0.38593423
0.016824929 0.01245237 0.039999999 0.23852047 -0.14741376 -0.38593423
0.035337206 0 0.0051729926 0.23852047 -0.14741376 -0.38593423
0.036570817 0 0.0035367813 0.23852047 -0.14741376 -0.38593423
0.037794307 0 0.0019141147 0.23852047 -0.14741376 -0.38593423
0.039007809 0 0.00030481778 0.23852047 -0.14741376 -0.38593423
0.018923054 0.015824813 0.039999999 0.23852047 -0.14741376 -0.38593423
0.039926279 0.001106143 0 0.23852047 -0.14741376 -0.38593423
0.039999999 0.0019484069 0.00059769081 0.23852047 -0.14741376 -0.38593423
0.020183491 0.017848812 0.039999999 0.23852047 -0.14741376 -0.38593423
0.039999999 0.0037540074 0.0020888895 0.23852047 -0.14741376 -0.38593423
0.021024467 0.01919842 0.039999999 0.23852047 -0.14741376 -0.38593423
0.039999999 0.0055742022 0.0035926395 0.23852047 -0.14741376 -0.38593423
0.039999999 0.0064898403 0.0043492792 0.23852047 -0.14741376 -0.38593423
0.039999999 0.0074092099 0.0051091276 0.23852047 -0.14741376 -0.38593423
0.039999999 0.0083323382 0.0058722077 0.23852047 -0.14741376 -0.38593423
0.039999999 0.0092592537 0.0066385441 0.23852047 -0.14741376 -0.38593423
0.039999999 0.010189986 0.0074081612 0.23852047 -0.14741376 -0.38593423
0.039999999 0.011124562 0.0081810839 0.23852047 -0.14741376 -0.38593423
0.039999999 0.012063012 0.0089573357 0.23852047 -0.14741376 -0.38593423
0.024816088 0.025275081 0.039999999 0.23852047 -0.14741376 -0.38593423
0.039999999 0.013951652 0.010519932 0.23852047 -0.14741376 -0.38593423
0.039999999 0.014901901 0.011306327 0.23852047 -0.14741376 -0.38593423
0.039999999 0.015856143 0.012096153 0.23852047 -0.14741376 -0.38593423
0.039999999 0.016814409 0.012889437 0.23852047 -0.14741376 -0.38593423
0.039999999 0.01777673 0.013686207 0.23852047 -0.14741376 -0.38593423
0.039999999 0.018743137 0.014486487 0.23852047 -0.14741376 -0.38593423
0.039999999 0.019713661 0.015290306 0.23852047 -0.14741376 -0.38593423
0.02819721 0.030682636 0.039999999 0.23852047 -0.14741376 -0.38593423
0.039999999 0.02166719 0.016908666 0.23852047 -0.14741376 -0.38593423
0.039999999 0.022650259 0.017723262 0.23852047 -0.14741376 -0.38593423
0.039999999 0.023637572 0.018541509 0.23852047 -0.14741376 -0.38593423
0.039999999 0.024629168 0.019363431 0.23852047 -0.14741376 -0.38593423
0.039999999 0.025625076 0.020189058 0.23852047 -0.14741376 -0.38593423
0.039999999 0.026625331 0.021018419 0.23852047 -0.14741376 -0.38593423
0.039999999 0.027629968 0.021851545 0.23852047 -0.14741376 -0.38593423
0.039999999 0.02863902 0.022688463 0.23852047 -0.14741376 -0.38593423
0.039999999 0.029652523 0.023529204 0.23852047 -0.14741376 -0.38593423
0.039999999 0.030670511 0.024373798 0.23852047 -0.14741376 -0.38593423
0.039999999 0.031693019 0.025222274 0.23852047 -0.14741376 -0.38593423
0.039999999 0.032720089 0.026074663 0.23852047 -0.14741376 -0.38593423
0.039999999 0.033751749 0.026930997 0.23852047 -0.14741376 -0.38593423
0.034141827 0.040164661 0.039999999 0.23852047 -0.14741376 -0.38593423
0.039999999 0.035828996 0.028655628 0.23852047 -0.14741376 -0.38593423
0.039999999 0.036874659 0.029523985 0.23852047 -0.14741376 -0.38593423
0.039999999 0.037925065 0.030396417 0.23852047 -0.14741376 -0.38593423
0.035847392 0.042879201 0.039999999 0.23852047 -0.14741376 -0.38593423
0.039999999 0.040040258 0.032153625 0.23852047 -0.14741376 -0.38593423
0.039999999 0.041105121 0.033038467 0.23852047 -0.14741376 -0.38593423
0.039999999 0.042174883 0.033927515 0.23852047 -0.14741376 -0.38593423
0.039999999 0.043249585 0.034820806 0.23852047 -0.14741376 -0.38593423
0.039999999 0.044329263 0.035718367 0.23852047 -0.14741376 -0.38593423
0.039999999 0.04541396 0.036620233 0.23852047 -0.14741376 -0.38593423
0.038840387 0.047636442 0.039999999 0.23852047 -0.14741376 -0.38593423
0.039999999 0.047598578 0.038437039 0.23852047 -0.14741376 -0.38593423
0.039999999 0.048698582 0.039352044 0.23852047 -0.14741376 -0.38593423
0.038162328 0.051629379 0.044216815 0.23852047 -0.14741376 -0.38593423
0.038481727 0.052430987 0.044462107 0.23852047 -0.14741376 -0.38593423
0.038801622 0.053233832 0.044707913 0.23852047 -0.14741376 -0.38593423
0.039082009 0.054078329 0.045040671 0.23852047 -0.14741376 -0.38593423
0.039327051 0.054960951 0.045451961 0.23852047 -0.14741376 -0.38593423
0.039558545 0.055860054 0.045894992 0.23852047 -0.14741376 -0.38593423
0.039718486 0.056835487 0.046496149 0.23852047 -0.14741376 -0.38593423
0.039878942 0.057814054 0.047099378 0.23852047 -0.14741376 -0.38593423
0.039940339 0.058899235 0.047922239 0.23852047 -0.14741376 -0.38593423
0.039999545 0.059991587 0.048754111 0.23852047 -0.14741376 -0.38593423
0.039933875 0.061220076 0.049864285 0.23852047 -0.14741376 -0.38593423
0.039827827 0.062497683 0.051068783 0.23852047 -0.14741376 -0.38593423
0.039595131 0.063916817 0.052558411 0.23852047 -0.14741376 -0.38593423
0.039191574 0.065527037 0.054432787 0.23852047 -0.14741376 -0.38593423
0.038545877 0.067408018 0.05685233 0.23852047 -0.14741376 -0.38593423
0.037365604 0.069880106 0.060469721 0.23852047 -0.14741376 -0.38593423
0.0082976436 0 0.039592292 0.23852047 -0.14741376 -0.38593423
0.0097617339 0 0.037654236 0.23852047 -0.14741376 -0.38593423
0.011212596 2.7755576e-17 0.035733819 0.23852047 -0.14741376 -0.38593423
0.012650414 0 0.033830795 0.23852047 -0.14741376 -0.38593423
0.014075373 0 0.031944923 0.23852047 -0.14741376 -0.38593423
0.015487652 2.7755576e-17 0.03007596 0.23852047 -0.14741376 -0.38593423
0.016887428 0 0.028223673 0.23852047 -0.14741376 -0.38593423
0.018274873 0 0.026387831 0.23852047 -0.14741376 -0.38593423
0.019650156 0 0.024568208 0.23852047 -0.14741376 -0.38593423
0.021013446 0 0.02276458 0.23852047 -0.14741376 -0.38593423
0.022364905 0 0.020976732 0.23852047 -0.14741376 -0.38593423
0.023704695 0 0.019204447 0.23852047 -0.14741376 -0.38593423
0.025032973 0 0.017447514 0.23852047 -0.14741376 -0.38593423
0.026349895 0 0.015705727 0.23852047 -0.14741376 -0.38593423
0.027655611 0 0.013978885 0.23852047 -0.14741376 -0.38593423
0.028950272 0 0.012266787 0.23852047 -0.14741376 -0.38593423
0.030234028 0 0.010569237 0.23852047 -0.14741376 -0.38593423
0.031507015 0 0.0088860421 0.23852047 -0.14741376 -0.38593423
0.032769386 0 0.0072170142 0.23852047 -0.14741376 -0.38593423
0.03402127 0 0.0055619674 0.23852047 -0.14741376 -0.38593423
0.035262812 2.7755576e-17 0.003920719 0.23852047 -0.14741376 -0.38593423
0.03649414 0 0.0022930896 0.23852047 -0.14741376 -0.38593423
0.03771539 0 0.00067890296 0.23852047 -0.14741376 -0.38593423
0.038448714 0.00035302149 0 0.23852047 -0.14741376 -0.38593423
0.018132642 0.016343599 0.039999999 0.23852047 -0.14741376 -0.38593423
0.039210465 0.0015769136 5.5511151e-17 0.23852047 -0.14741376 -0.38593423
0.039591521 0.0021889275 0 0.23852047 -0.14741376 -0.38593423
0.039972696 0.0028009904 5.5511151e-17 0.23852047 -0.14741376 -0.38593423
0.019815112 0.019045496 0.039999999 0.23852047 -0.14741376 -0.38593423
0.039999999 0.0045883688 0.0014350154 0.23852047 -0.14741376 -0.38593423
0.020657165 0.020396795 0.039999999 0.23852047 -0.14741376 -0.38593423
0.039999999 0.006411029 0.0029356207 0.23852047 -0.14741376 -0.38593423
0.039999999 0.0073279119 0.0036906772 0.23852047 -0.14741376 -0.38593423
0.039999999 0.0082485341 0.004448934 0.23852047 -0.14741376 -0.38593423
0.039999999 0.0091729239 0.0052104155 0.23852047 -0.14741376 -0.38593423
0.039999999 0.010101109 0.0059751454 0.23852047 -0.14741376 -0.38593423
0.039999999 0.011033119 0.0067431484 0.23852047 -0.14741376 -0.38593423
0.039999999 0.011968981 0.0075144484 0.23852047 -0.14741376 -0.38593423
0.039999999 0.012908725 0.0082890708 0.23852047 -0.14741376 -0.38593423
0.039999999 0.013852382 0.0090670409 0.23852047 -0.14741376 -0.38593423
0.024876259 0.027157791 0.039999999 0.23852047 -0.14741376 -0.38593423
0.039999999 0.01575155 0.010633123 0.23852047 -0.14741376 -0.38593423
0.039999999 0.01670712 0.011421287 0.23852047 -0.14741376 -0.38593423
0.039999999 0.017666725 0.012212902 0.23852047 -0.14741376 -0.38593423
0.039999999 0.018630393 0.013007993 0.23852047 -0.14741376 -0.38593423
0.026991749 0.030541776 0.039999999 0.23852047 -0.14741376 -0.38593423
0.039999999 0.020570043 0.01460871 0.23852047 -0.14741376 -0.38593423
0.039999999 0.02154609 0.01541439 0.23852047 -0.14741376 -0.38593423
0.028263088 0.03257351 0.039999999 0.23852047 -0.14741376 -0.38593423
0.028687222 0.033250999 0.039999999 0.23852047 -0.14741376 -0.38593423
0.039999999 0.024499504 0.017853048 0.23852047 -0.14741376 -0.38593423
0.039999999 0.025492508 0.018673232 0.23852047 -0.14741376 -0.38593423
0.039999999 0.026489837 0.019497113 0.23852047 -0.14741376 -0.38593423
0.039999999 0.027491521 0.02032472 0.23852047 -0.14741376 -0.38593423
0.039999999 0.028497595 0.02115608 0.23852047 -0.14741376 -0.38593423
0.039999999 0.029508097 0.021991225 0.23852047 -0.14741376 -0.38593423
0.039999999 0.030523056 0.022830183 0.23852047 -0.14741376 -0.38593423
0.039999999 0.031542514 0.023672985 0.23852047 -0.14741376 -0.38593423
0.032512765 0.039354485 0.039999999 0.23852047 -0.14741376 -0.38593423
0.039999999 0.033595055 0.025370242 0.23852047 -0.14741376 -0.38593423
0.039999999 0.034628212 0.026224758 0.23852047 -0.14741376 -0.38593423
0.033791445 0.041391667 0.039999999 0.23852047 -0.14741376 -0.38593423
0.039999999 0.036708485 0.027945722 0.23852047 -0.14741376 -0.38593423
0.039999999 0.037755676 0.028812233 0.23852047 -0.14741376 -0.38593423
0.039999999 0.038807619 0.029682808 0.23852047 -0.14741376 -0.38593423
0.039999999 0.039864354 0.030557476 0.23852047 -0.14741376 -0.38593423
0.039999999 0.040925916 0.031436272 0.23852047 -0.14741376 -0.38593423
0.039999999 0.041992351 0.032319233 0.23852047 -0.14741376 -0.38593423
0.039999999 0.043063693 0.033206385 0.23852047 -0.14741376 -0.38593423
0.039999999 0.044139985 0.034097768 0.23852047 -0.14741376 -0.38593423
0.037638761 0.047512498 0.039999999 0.23852047 -0.14741376 -0.38593423
0.039999999 0.046307575 0.035893358 0.23852047 -0.14741376 -0.38593423
0.039999999 0.047398955 0.036797635 0.23852047 -0.14741376 -0.38593423
0.039999999 0.048495449 0.037706282 0.23852047 -0.14741376 -0.38593423
0.039354403 0.050237786 0.039999999 0.23852047 -0.14741376 -0.38593423
0.039999999 0.050703943 0.039536823 0.23852047 -0.14741376 -0.38593423
0.038740385 0.053080145 0.043164261 0.23852047 -0.14741376 -0.38593423
0.039034627 0.053907655 0.04346326 0.23852047 -0.14741376 -0.38593423
0.039278988 0.054787822 0.043871686 0.23852047 -0.14741376 -0.38593423
0.039523914 0.055670034 0.044281192 0.23852047 -0.14741376 -0.38593423
0.039686356 0.056639537 0.044871744 0.23852047 -0.14741376 -0.38593423
0.039846335 0.057615194 0.045470778 0.23852047 -0.14741376 -0.38593423
0.039928216 0.058675565 0.046242941 0.23852047 -0.14741376 -0.38593423
0.039987233 0.059764415 0.04706895 0.23852047 -0.14741376 -0.38593423
0.039947893 0.060961388 0.048114151 0.23852047 -0.14741376 -0.38593423
0.039877001 0.062197771 0.04923369 0.23852047 -0.14741376 -0.38593423
0.039645206 0.063611418 0.05071206 0.23852047 -0.14741376 -0.38593423
0.039292868 0.065162174 0.052462872 0.23852047 -0.14741376 -0.38593423
0.038727991 0.066950962 0.054690856 0.23852047 -0.14741376 -0.38593423
0.037696756 0.069255508 0.057960268 0.23852047 -0.14741376 -0.38593423
0.0082786381 0 0.038150977 0.23852047 -0.14741376 -0.38593423
0.0097394753 0 0.036223866 0.23852047 -0.14741376 -0.38593423
0.011187144 0 0.034314252 0.23852047 -0.14741376 -0.38593423
0.012621827 0 0.032421898 0.23852047 -0.14741376 -0.38593423
0.014043709 0 0.030546552 0.23852047 -0.14741376 -0.38593423
0.0093670804 0.0040218462 0.039999999 0.23852047 -0.14741376 -0.38593423
0.016849773 0 0.026845956 0.23852047 -0.14741376 -0.38593423
0.018234303 0 0.025020245 0.23852047 -0.14741376 -0.38593423
0.019606724 0 0.023210624 0.23852047 -0.14741376 -0.38593423
0.020967204 0 0.021416873 0.23852047 -0.14741376 -0.38593423
0.022315903 0 0.019638777 0.23852047 -0.14741376 -0.38593423
0.02365298 0 0.017876122 0.23852047 -0.14741376 -0.38593423
0.024978593 0 0.0161287 0.23852047 -0.14741376 -0.38593423
0.026292898 0 0.014396309 0.23852047 -0.14741376 -0.38593423
0.027596045 0 0.012678744 0.23852047 -0.14741376 -0.38593423
0.028888181 0 0.010975812 0.23852047 -0.14741376 -0.38593423
0.030169455 0 0.0092873145 0.23852047 -0.14741376 -0.38593423
0.031440008 0 0.0076130638 0.23852047 -0.14741376 -0.38593423
0.03269998 0 0.0059528719 0.23852047 -0.14741376 -0.38593423
0.033949513 0 0.0043065543 0.23852047 -0.14741376 -0.38593423
0.035188742 2.7755576e-17 0.0026739314 0.23852047 -0.14741376 -0.38593423
0.036417801 0 0.0010548249 0.23852047 -0.14741376 -0.38593423
0.016499367 0.015511224 0.039999999 0.23852047 -0.14741376 -0.38593423
0.037730712 0.00082333025 0 0.23852047 -0.14741376 -0.38593423
0.038111899 0.001435961 0 0.23852047 -0.14741376 -0.38593423
0.017761458 0.017539607 0.039999999 0.23852047 -0.14741376 -0.38593423
0.038874626 0.002661359 0 0.23852047 -0.14741376 -0.38593423
0.039256167 0.003274132 5.5511151e-17 0.23852047 -0.14741376 -0.38593423
0.03963783 0.0038869584 0 0.23852047 -0.14741376 -0.38593423
0.039999999 0.0045148544 3.8143091e-05 0.23852047 -0.14741376 -0.38593423
0.039999999 0.005421909 0.00078217837 0.23852047 -0.14741376 -0.38593423
0.039999999 0.006332628 0.0015293364 0.23852047 -0.14741376 -0.38593423
0.039999999 0.0072470391 0.0022796406 0.23852047 -0.14741376 -0.38593423
0.039999999 0.0081651695 0.0030331141 0.23852047 -0.14741376 -0.38593423
0.039999999 0.0090870466 0.0037897807 0.23852047 -0.14741376 -0.38593423
0.039999999 0.0100127 0.004549664 0.23852047 -0.14741376 -0.38593423
0.022399554 0.024981689 0.039999999 0.23852047 -0.14741376 -0.38593423
0.039999999 0.011875446 0.0060791769 0.23852047 -0.14741376 -0.38593423
0.039999999 0.012812597 0.0068488559 0.23852047 -0.14741376 -0.38593423
0.039999999 0.013753639 0.007621849 0.23852047 -0.14741376 -0.38593423
0.039999999 0.0146986 0.0083981818 0.23852047 -0.14741376 -0.38593423
0.039999999 0.015647512 0.0091778785 0.23852047 -0.14741376 -0.38593423
0.039999999 0.016600404 0.0099609653 0.23852047 -0.14741376 -0.38593423
0.039999999 0.017557306 0.010747469 0.23852047 -0.14741376 -0.38593423
0.039999999 0.01851825 0.011537413 0.23852047 -0.14741376 -0.38593423
0.039999999 0.019483266 0.012330826 0.23852047 -0.14741376 -0.38593423
0.026631912 0.031756256 0.039999999 0.23852047 -0.14741376 -0.38593423
0.039999999 0.021425642 0.013928163 0.23852047 -0.14741376 -0.38593423
0.039999999 0.022403065 0.01473214 0.23852047 -0.14741376 -0.38593423
0.039999999 0.023384687 0.015539694 0.23852047 -0.14741376 -0.38593423
0.039999999 0.024370542 0.01635085 0.23852047 -0.14741376 -0.38593423
0.039999999 0.025360661 0.017165639 0.23852047 -0.14741376 -0.38593423
0.029179471 0.035826501 0.039999999 0.23852047 -0.14741376 -0.38593423
0.039999999 0.027353829 0.018806221 0.23852047 -0.14741376 -0.38593423
0.039999999 0.028356945 0.019632073 0.23852047 -0.14741376 -0.38593423
0.039999999 0.029364461 0.020461669 0.23852047 -0.14741376 -0.38593423
0.039999999 0.030376412 0.021295043 0.23852047 -0.14741376 -0.38593423
0.039999999 0.031392831 0.02213222 0.23852047 -0.14741376 -0.38593423
0.039999999 0.032413758 0.022973232 0.23852047 -0.14741376 -0.38593423
0.039999999 0.033439226 0.023818107 0.23852047 -0.14741376 -0.38593423
0.039999999 0.034469269 0.024666879 0.23852047 -0.14741376 -0.38593423
0.039999999 0.035503928 0.025519578 0.23852047 -0.14741376 -0.38593423
0.039999999 0.036543235 0.026376234 0.23852047 -0.14741376 -0.38593423
0.039999999 0.037587229 0.027236879 0.23852047 -0.14741376 -0.38593423
0.039999999 0.038635951 0.028101543 0.23852047 -0.14741376 -0.38593423
0.039999999 0.039689433 0.028970262 0.23852047 -0.14741376 -0.38593423
0.039999999 0.040747717 0.029843066 0.23852047 -0.14741376 -0.38593423
0.035578415 0.046025384 0.039999999 0.23852047 -0.14741376 -0.38593423
0.039999999 0.042878851 0.031601064 0.23852047 -0.14741376 -0.38593423
0.039999999 0.043951776 0.03248632 0.23852047 -0.14741376 -0.38593423
0.039999999 0.045029659 0.0333758 0.23852047 -0.14741376 -0.38593423
0.039999999 0.046112541 0.03426953 0.23852047 -0.14741376 -0.38593423
0.039999999 0.047200467 0.035167549 0.23852047 -0.14741376 -0.38593423
0.039999999 0.048293471 0.036069892 0.23852047 -0.14741376 -0.38593423
0.039999999 0.049391601 0.036976594 0.23852047 -0.14741376 -0.38593423
0.039999999 0.050494898 0.037887689 0.23852047 -0.14741376 -0.38593423
0.039999999 0.051603403 0.038803216 0.23852047 -0.14741376 -0.38593423
0.039999999 0.05271716 0.03972321 0.23852047 -0.14741376 -0.38593423
0.039231174 0.054615609 0.042299759 0.23852047 -0.14741376 -0.38593423
0.039475422 0.055495366 0.042706411 0.23852047 -0.14741376 -0.38593423
0.039654404 0.056444656 0.043256223 0.23852047 -0.14741376 -0.38593423
0.039813906 0.057417419 0.0438511 0.23852047 -0.14741376 -0.38593423
0.039916165 0.058453172 0.04457321 0.23852047 -0.14741376 -0.38593423
0.039974988 0.059538543 0.045393404 0.23852047 -0.14741376 -0.38593423
0.03996183 0.06070425 0.046374492 0.23852047 -0.14741376 -0.38593423
0.039895289 0.06193199 0.047476966 0.23852047 -0.14741376 -0.38593423
0.039694965 0.063307963 0.04887747 0.23852047 -0.14741376 -0.38593423
0.039393466 0.06479983 0.050506532 0.23852047 -0.14741376 -0.38593423
0.038908701 0.066497423 0.052546028 0.23852047 -0.14741376 -0.38593423
0.038024869 0.068636641 0.055473827 0.23852047 -0.14741376 -0.38593423
0.035817202 0.072226755 0.061336454 0.23852047 -0.14741376 -0.38593423
0.0067888228 0 0.038650349 0.23852047 -0.14741376 -0.38593423
0.008259722 0 0.036716498 0.23852047 -0.14741376 -0.38593423
0.0097173229 0 0.034800254 0.23852047 -0.14741376 -0.38593423
0.011161813 0 0.032901369 0.23852047 -0.14741376 -0.38593423
0.012593376 0 0.031019598 0.23852047 -0.14741376 -0.38593423
0.0081463205 0.0038515741 0.039999999 0.23852047 -0.14741376 -0.38593423
0.01541844 2.7755576e-17 0.027306452 0.23852047 -0.14741376 -0.38593423
0.016812293 0 0.025474612 0.23852047 -0.14741376 -0.38593423
0.018193921 0 0.023658955 0.23852047 -0.14741376 -0.38593423
0.0098231696 0.0065577161 0.039999999 0.23852047 -0.14741376 -0.38593423
0.020921173 0 0.020075319 0.23852047 -0.14741376 -0.38593423
0.02226712 0 0.018306904 0.23852047 -0.14741376 -0.38593423
0.023601498 2.7755576e-17 0.016553812 0.23852047 -0.14741376 -0.38593423
0.024924459 0 0.014815834 0.23852047 -0.14741376 -0.38593423
0.026236158 0 0.01309277 0.23852047 -0.14741376 -0.38593423
0.027536744 0 0.011384419 0.23852047 -0.14741376 -0.38593423
0.028826367 0 0.0096905865 0.23852047 -0.14741376 -0.38593423
0.03010517 0 0.0080110794 0.23852047 -0.14741376 -0.38593423
0.031373296 0 0.0063457103 0.23852047 -0.14741376 -0.38593423
0.032630883 0 0.0046942928 0.23852047 -0.14741376 -0.38593423
0.033878073 0 0.0030566449 0.23852047 -0.14741376 -0.38593423
0.035114996 2.7755576e-17 0.0014325879 0.23852047 -0.14741376 -0.38593423
0.036248472 6.8042114e-05 5.5511151e-17 0.23852047 -0.14741376 -0.38593423
0.036629807 0.00068129768 5.5511151e-17 0.23852047 -0.14741376 -0.38593423
0.037011255 0.0012945933 0 0.23852047 -0.14741376 -0.38593423
0.016547015 0.01738432 0.039999999 0.23852047 -0.14741376 -0.38593423
0.037774485 0.0025213165 0 0.23852047 -0.14741376 -0.38593423
0.038156275 0.0031347496 0 0.23852047 -0.14741376 -0.38593423
0.038538184 0.0037482344 0 0.23852047 -0.14741376 -0.38593423
0.038920213 0.0043617734 0 0.23852047 -0.14741376 -0.38593423
0.018654479 0.020769682 0.039999999 0.23852047 -0.14741376 -0.38593423
0.039684635 0.0055890265 0 0.23852047 -0.14741376 -0.38593423
0.039999999 0.0062546353 0.00013036201 0.23852047 -0.14741376 -0.38593423
0.039999999 0.0071665873 0.00087595289 0.23852047 -0.14741376 -0.38593423
0.020342894 0.023479147 0.039999999 0.23852047 -0.14741376 -0.38593423
0.020765355 0.024156703 0.039999999 0.23852047 -0.14741376 -0.38593423
0.039999999 0.0099247536 0.0031316502 0.23852047 -0.14741376 -0.38593423
0.039999999 0.010851673 0.0038899358 0.23852047 -0.14741376 -0.38593423
0.039999999 0.011782403 0.0046514547 0.23852047 -0.14741376 -0.38593423
0.022456679 0.026867781 0.039999999 0.23852047 -0.14741376 -0.38593423
0.039999999 0.013655417 0.0061842888 0.23852047 -0.14741376 -0.38593423
0.023303261 0.028223878 0.039999999 0.23852047 -0.14741376 -0.38593423
0.039999999 0.015544026 0.007730349 0.23852047 -0.14741376 -0.38593423
0.039999999 0.016494254 0.0085084019 0.23852047 -0.14741376 -0.38593423
0.039999999 0.017448472 0.0092898356 0.23852047 -0.14741376 -0.38593423
0.039999999 0.018406708 0.010074678 0.23852047 -0.14741376 -0.38593423
0.039999999 0.019368993 0.010862954 0.23852047 -0.14741376 -0.38593423
0.039999999 0.020335361 0.01165469 0.23852047 -0.14741376 -0.38593423
0.039999999 0.021305842 0.012449912 0.23852047 -0.14741376 -0.38593423
0.039999999 0.022280466 0.013248648 0.23852047 -0.14741376 -0.38593423
0.039999999 0.023259267 0.014050922 0.23852047 -0.14741376 -0.38593423
0.039999999 0.024242276 0.014856765 0.23852047 -0.14741376 -0.38593423
0.039999999 0.025229527 0.015666204 0.23852047 -0.14741376 -0.38593423
0.028396642 0.036369864 0.039999999 0.23852047 -0.14741376 -0.38593423
0.039999999 0.027216885 0.017295973 0.23852047 -0.14741376 -0.38593423
0.039999999 0.028217059 0.018116364 0.23852047 -0.14741376 -0.38593423
0.039999999 0.029221609 0.018940462 0.23852047 -0.14741376 -0.38593423
0.039999999 0.030230569 0.019768298 0.23852047 -0.14741376 -0.38593423
0.039999999 0.031243972 0.020599898 0.23852047 -0.14741376 -0.38593423
0.039999999 0.032261856 0.021435294 0.23852047 -0.14741376 -0.38593423
0.031379726 0.041130632 0.039999999 0.23852047 -0.14741376 -0.38593423
0.039999999 0.034311201 0.023117594 0.23852047 -0.14741376 -0.38593423
0.039999999 0.035342738 0.023964558 0.23852047 -0.14741376 -0.38593423
0.039999999 0.036378898 0.02481544 0.23852047 -0.14741376 -0.38593423
0.033088643 0.043854572 0.039999999 0.23852047 -0.14741376 -0.38593423
0.039999999 0.038465235 0.026529077 0.23852047 -0.14741376 -0.38593423
0.039999999 0.039515488 0.027391898 0.23852047 -0.14741376 -0.38593423
0.039999999 0.040570516 0.028258761 0.23852047 -0.14741376 -0.38593423
0.039999999 0.041630354 0.029129701 0.23852047 -0.14741376 -0.38593423
0.039999999 0.042695042 0.030004749 0.23852047 -0.14741376 -0.38593423
0.02136996 0.061705649 0.07 0.23852047 -0.14741376 -0.38593423
0.039999999 0.045918614 0.032654878 0.23852047 -0.14741376 -0.38593423
0.039999999 0.047003102 0.033546697 0.23852047 -0.14741376 -0.38593423
0.039999999 0.048092645 0.034442794 0.23852047 -0.14741376 -0.38593423
0.02366852 0.065360852 0.07 0.23852047 -0.14741376 -0.38593423
0.039999999 0.050287049 0.036247961 0.23852047 -0.14741376 -0.38593423
0.039999999 0.051391996 0.0371571 0.23852047 -0.14741376 -0.38593423
0.039999999 0.052502163 0.038070664 0.23852047 -0.14741376 -0.38593423
0.039999999 0.053617593 0.03898868 0.23852047 -0.14741376 -0.38593423
0.039999999 0.054738332 0.039911192 0.23852047 -0.14741376 -0.38593423
0.039622623 0.05625084 0.041649505 0.23852047 -0.14741376 -0.38593423
0.039781652 0.057220727 0.042240262 0.23852047 -0.14741376 -0.38593423
0.039904181 0.058232039 0.042912953 0.23852047 -0.14741376 -0.38593423
0.039962817 0.059313953 0.043727383 0.23852047 -0.14741376 -0.38593423
0.039975684 0.060448643 0.044645201 0.23852047 -0.14741376 -0.38593423
0.039909374 0.061672118 0.045739707 0.23852047 -0.14741376 -0.38593423
0.039744407 0.063006431 0.047054518 0.23852047 -0.14741376 -0.38593423
0.039493375 0.064439967 0.048563622 0.23852047 -0.14741376 -0.38593423
0.039029818 0.066109672 0.050545014 0.23852047 -0.14741376 -0.38593423
0.038263641 0.068116352 0.053199422 0.23852047 -0.14741376 -0.38593423
0.03658485 0.071125656 0.057872016 0.23852047 -0.14741376 -0.38593423
0.0052922331 0 0.039152361 0.23852047 -0.14741376 -0.38593423
0.0052462057 0.00097136683 0.039999999 0.23852047 -0.14741376 -0.38593423
0.0082408953 0 0.035288803 0.23852047 -0.14741376 -0.38593423
0.0096952738 0 0.033383343 0.23852047 -0.14741376 -0.38593423
0.0111366 0 0.031495105 0.23852047 -0.14741376 -0.38593423
0.012565056 0 0.029623844 0.23852047 -0.14741376 -0.38593423
0.013980822 0 0.027769325 0.23852047 -0.14741376 -0.38593423
0.0077620824 0.0050354246 0.039999999 0.23852047 -0.14741376 -0.38593423
0.016774984 0 0.024109585 0.23852047 -0.14741376 -0.38593423
0.018153723 0 0.022303915 0.23852047 -0.14741376 -0.38593423
0.019520458 0 0.02051408 0.23852047 -0.14741376 -0.38593423
0.02087535 0 0.01873987 0.23852047 -0.14741376 -0.38593423
0.022218561 0 0.016981067 0.23852047 -0.14741376 -0.38593423
0.02355025 0 0.015237469 0.23852047 -0.14741376 -0.38593423
0.024870569 0 0.013508869 0.23852047 -0.14741376 -0.38593423
0.026179673 0 0.011795066 0.23852047 -0.14741376 -0.38593423
0.02747771 0 0.010095864 0.23852047 -0.14741376 -0.38593423
0.028764827 0 0.0084110675 0.23852047 -0.14741376 -0.38593423
0.030041168 0 0.0067404881 0.23852047 -0.14741376 -0.38593423
0.031306874 0 0.0050839381 0.23852047 -0.14741376 -0.38593423
0.032562088 0 0.0034412346 0.23852047 -0.14741376 -0.38593423
0.033806942 0 0.0018121965 0.23852047 -0.14741376 -0.38593423
0.035041574 0 0.00019664659 0.23852047 -0.14741376 -0.38593423
0.014487604 0.015873339 0.039999999 0.23852047 -0.14741376 -0.38593423
0.035908513 0.0011528123 0 0.23852047 -0.14741376 -0.38593423
0.036290329 0.001766816 5.5511151e-17 0.23852047 -0.14741376 -0.38593423
0.036672261 0.002380864 5.5511151e-17 0.23852047 -0.14741376 -0.38593423
0.037054304 0.0029949592 0 0.23852047 -0.14741376 -0.38593423
0.037436459 0.0036091043 5.5511151e-17 0.23852047 -0.14741376 -0.38593423
0.037818737 0.004223302 0 0.23852047 -0.14741376 -0.38593423
0.01743911 0.020617584 0.039999999 0.23852047 -0.14741376 -0.38593423
0.017861269 0.021295566 0.039999999 0.23852047 -0.14741376 -0.38593423
0.038966279 0.0060662418 0 0.23852047 -0.14741376 -0.38593423
0.039349038 0.00668068 0 0.23852047 -0.14741376 -0.38593423
0.039731923 0.0072951852 0 0.23852047 -0.14741376 -0.38593423
0.039999999 0.0079997405 0.00022357411 0.23852047 -0.14741376 -0.38593423
0.039999999 0.008916636 0.00097072939 0.23852047 -0.14741376 -0.38593423
0.020397125 0.025364997 0.039999999 0.23852047 -0.14741376 -0.38593423
0.039999999 0.010761661 0.0024745262 0.23852047 -0.14741376 -0.38593423
0.039999999 0.011689848 0.0032312151 0.23852047 -0.14741376 -0.38593423
0.021667009 0.027400842 0.039999999 0.23852047 -0.14741376 -0.38593423
0.039999999 0.013557711 0.0047542928 0.23852047 -0.14741376 -0.38593423
0.039999999 0.014497445 0.0055207307 0.23852047 -0.14741376 -0.38593423
0.039999999 0.015441087 0.006290467 0.23852047 -0.14741376 -0.38593423
0.023362337 0.03011667 0.039999999 0.23852047 -0.14741376 -0.38593423
0.039999999 0.017340213 0.0078399349 0.23852047 -0.14741376 -0.38593423
0.039999999 0.018295757 0.0086197173 0.23852047 -0.14741376 -0.38593423
0.039999999 0.019255329 0.0094029 0.23852047 -0.14741376 -0.38593423
0.039999999 0.020218961 0.010189507 0.23852047 -0.14741376 -0.38593423
0.039999999 0.021186681 0.010979567 0.23852047 -0.14741376 -0.38593423
0.025910201 0.034193754 0.039999999 0.23852047 -0.14741376 -0.38593423
0.039999999 0.02313452 0.012570146 0.23852047 -0.14741376 -0.38593423
0.039999999 0.024114702 0.01337072 0.23852047 -0.14741376 -0.38593423
0.039999999 0.025099101 0.014174853 0.23852047 -0.14741376 -0.38593423
0.039999999 0.02608775 0.014982572 0.23852047 -0.14741376 -0.38593423
0.039999999 0.027080683 0.015793905 0.23852047 -0.14741376 -0.38593423
0.039999999 0.028077934 0.016608881 0.23852047 -0.14741376 -0.38593423
0.039999999 0.029079534 0.017427526 0.23852047 -0.14741376 -0.38593423
0.039999999 0.030085521 0.018249871 0.23852047 -0.14741376 -0.38593423
0.039999999 0.031095926 0.019075943 0.23852047 -0.14741376 -0.38593423
0.039999999 0.032110784 0.019905774 0.23852047 -0.14741376 -0.38593423
0.030597802 0.041680936 0.039999999 0.23852047 -0.14741376 -0.38593423
0.039999999 0.034154005 0.021576824 0.23852047 -0.14741376 -0.38593423
0.039999999 0.035182439 0.022418104 0.23852047 -0.14741376 -0.38593423
0.039999999 0.036215469 0.023263261 0.23852047 -0.14741376 -0.38593423
0.039999999 0.03829547 0.024965329 0.23852047 -0.14741376 -0.38593423
0.039999999 0.039342511 0.025822302 0.23852047 -0.14741376 -0.38593423
0.039999999 0.040394299 0.026683278 0.23852047 -0.14741376 -0.38593423
0.039999999 0.041450869 0.027548287 0.23852047 -0.14741376 -0.38593423
0.039999999 0.042512264 0.028417364 0.23852047 -0.14741376 -0.38593423
0.039999999 0.04357852 0.029290538 0.23852047 -0.14741376 -0.38593423
0.039999999 0.044649675 0.030167844 0.23852047 -0.14741376 -0.38593423
0.039999999 0.045725774 0.031049317 0.23852047 -0.14741376 -0.38593423
0.039999999 0.046806853 0.031934988 0.23852047 -0.14741376 -0.38593423
0.039999999 0.04789295 0.032824896 0.23852047 -0.14741376 -0.38593423
0.039999999 0.048984114 0.033719067 0.23852047 -0.14741376 -0.38593423
0.039999999 0.050080378 0.034617543 0.23852047 -0.14741376 -0.38593423
0.039999999 0.051181789 0.03552036 0.23852047 -0.14741376 -0.38593423
0.039999999 0.052288391 0.036427546 0.23852047 -0.14741376 -0.38593423
0.039999999 0.053400222 0.037339143 0.23852047 -0.14741376 -0.38593423
0.039999999 0.054517329 0.038255189 0.23852047 -0.14741376 -0.38593423
0.039999999 0.055639751 0.039175715 0.23852047 -0.14741376 -0.38593423
0.039749578 0.057025101 0.040638179 0.23852047 -0.14741376 -0.38593423
0.039892264 0.058012158 0.041262079 0.23852047 -0.14741376 -0.38593423
0.039950714 0.059090637 0.042070799 0.23852047 -0.14741376 -0.38593423
0.039989453 0.060194556 0.042926177 0.23852047 -0.14741376 -0.38593423
0.039923374 0.061413795 0.044012792 0.23852047 -0.14741376 -0.38593423
0.039793536 0.062706806 0.045243088 0.23852047 -0.14741376 -0.38593423
0.039562751 0.064114302 0.046698894 0.23852047 -0.14741376 -0.38593423
0.039131068 0.065744974 0.048599545 0.23852047 -0.14741376 -0.38593423
0.038445868 0.067659013 0.051062949 0.23852047 -0.14741376 -0.38593423
0.037199304 0.070193775 0.054766778 0.23852047 -0.14741376 -0.38593423
0.0037888126 0 0.03965703 0.23852047 -0.14741376 -0.38593423
0.00528009 0 0.037709557 0.23852047 -0.14741376 -0.38593423
0.0067578079 0 0.035779912 0.23852047 -0.14741376 -0.38593423
0.0082221571 0 0.033867836 0.23852047 -0.14741376 -0.38593423
0.0096733281 0 0.031973083 0.23852047 -0.14741376 -0.38593423
0.011111504 0 0.030095411 0.23852047 -0.14741376 -0.38593423
0.012536868 0 0.028234582 0.23852047 -0.14741376 -0.38593423
0.013949597 0 0.026390363 0.23852047 -0.14741376 -0.38593423
0.015349867 0 0.024562519 0.23852047 -0.14741376 -0.38593423
0.016737849 0 0.022750828 0.23852047 -0.14741376 -0.38593423
0.01811371 0 0.020955069 0.23852047 -0.14741376 -0.38593423
0.019477619 0 0.019175023 0.23852047 -0.14741376 -0.38593423
0.020829735 0 0.017410476 0.23852047 -0.14741376 -0.38593423
0.02217022 0 0.015661219 0.23852047 -0.14741376 -0.38593423
0.02349923 0 0.013927048 0.23852047 -0.14741376 -0.38593423
0.024816919 2.7755576e-17 0.012207758 0.23852047 -0.14741376 -0.38593423
0.026123438 2.7755576e-17 0.010503151 0.23852047 -0.14741376 -0.38593423
0.027418936 0 0.0088130329 0.23852047 -0.14741376 -0.38593423
0.028703559 0 0.0071372101 0.23852047 -0.14741376 -0.38593423
0.029977448 0 0.0054754959 0.23852047 -0.14741376 -0.38593423
0.031240748 0 0.003827705 0.23852047 -0.14741376 -0.38593423
0.032493595 0 0.0021936549 0.23852047 -0.14741376 -0.38593423
0.033736121 0 0.00057316723 0.23852047 -0.14741376 -0.38593423
0.034421679 0.00039598841 0 0.23852047 -0.14741376 -0.38593423
0.034803659 0.0010106195 0 0.23852047 -0.14741376 -0.38593423
0.035185743 0.0016252903 0 0.23852047 -0.14741376 -0.38593423
0.035567936 0.0022400036 0 0.23852047 -0.14741376 -0.38593423
0.035950236 0.0028547626 0 0.23852047 -0.14741376 -0.38593423
0.036332648 0.0034695698 5.5511151e-17 0.23852047 -0.14741376 -0.38593423
0.036715176 0.0040844283 0 0.23852047 -0.14741376 -0.38593423
0.037097819 0.004699341 0 0.23852047 -0.14741376 -0.38593423
0.037480578 0.0053143105 0 0.23852047 -0.14741376 -0.38593423
0.037863456 0.0059293401 0 0.23852047 -0.14741376 -0.38593423
0.038246453 0.0065444326 5.5511151e-17 0.23852047 -0.14741376 -0.38593423
0.038629577 0.0071595907 0 0.23852047 -0.14741376 -0.38593423
0.018334929 0.023859276 0.039999999 0.23852047 -0.14741376 -0.38593423
0.039396193 0.0083901156 5.5511151e-17 0.23852047 -0.14741376 -0.38593423
0.039779689 0.0090054879 0 0.23852047 -0.14741376 -0.38593423
0.039999999 0.0097502349 0.0003177654 0.23852047 -0.14741376 -0.38593423
0.039999999 0.010672119 0.0010664938 0.23852047 -0.14741376 -0.38593423
0.039999999 0.011597776 0.0018183923 0.23852047 -0.14741376 -0.38593423
0.039999999 0.012527233 0.0025734848 0.23852047 -0.14741376 -0.38593423
0.039999999 0.013460518 0.0033317946 0.23852047 -0.14741376 -0.38593423
0.039999999 0.014397661 0.0040933467 0.23852047 -0.14741376 -0.38593423
0.039999999 0.01533869 0.0048581646 0.23852047 -0.14741376 -0.38593423
0.022572583 0.030654058 0.039999999 0.23852047 -0.14741376 -0.38593423
0.039999999 0.017232528 0.0063976976 0.23852047 -0.14741376 -0.38593423
0.039999999 0.018185394 0.007172463 0.23852047 -0.14741376 -0.38593423
0.039999999 0.019142268 0.0079505937 0.23852047 -0.14741376 -0.38593423
0.024271993 0.033374894 0.039999999 0.23852047 -0.14741376 -0.38593423
0.039999999 0.021068156 0.0095170559 0.23852047 -0.14741376 -0.38593423
0.039999999 0.022037234 0.01030544 0.23852047 -0.14741376 -0.38593423
0.039999999 0.02301044 0.011097293 0.23852047 -0.14741376 -0.38593423
0.039999999 0.023987811 0.011892643 0.23852047 -0.14741376 -0.38593423
0.039999999 0.024969375 0.012691515 0.23852047 -0.14741376 -0.38593423
0.039999999 0.025955165 0.013493938 0.23852047 -0.14741376 -0.38593423
0.039999999 0.026945217 0.014299939 0.23852047 -0.14741376 -0.38593423
0.039999999 0.02793956 0.015109546 0.23852047 -0.14741376 -0.38593423
0.039999999 0.028938228 0.015922787 0.23852047 -0.14741376 -0.38593423
0.039999999 0.029941259 0.016739689 0.23852047 -0.14741376 -0.38593423
0.039999999 0.030948684 0.017560281 0.23852047 -0.14741376 -0.38593423
0.039999999 0.031960536 0.018384593 0.23852047 -0.14741376 -0.38593423
0.039999999 0.032976855 0.019212652 0.23852047 -0.14741376 -0.38593423
0.039999999 0.03399767 0.020044489 0.23852047 -0.14741376 -0.38593423
0.039999999 0.035023019 0.020880135 0.23852047 -0.14741376 -0.38593423
0.039999999 0.036052942 0.021719618 0.23852047 -0.14741376 -0.38593423
0.039999999 0.037087467 0.022562968 0.23852047 -0.14741376 -0.38593423
0.039999999 0.03812664 0.023410216 0.23852047 -0.14741376 -0.38593423
0.039999999 0.039170492 0.024261395 0.23852047 -0.14741376 -0.38593423
0.018323146 0.06070707 0.07 0.23852047 -0.14741376 -0.38593423
0.018782418 0.061438888 0.07 0.23852047 -0.14741376 -0.38593423
0.039999999 0.042330507 0.026838822 0.23852047 -0.14741376 -0.38593423
0.039999999 0.043393459 0.027706034 0.23852047 -0.14741376 -0.38593423
0.039999999 0.044461284 0.028577337 0.23852047 -0.14741376 -0.38593423
0.039999999 0.045534018 0.029452762 0.23852047 -0.14741376 -0.38593423
0.039999999 0.046611704 0.030332342 0.23852047 -0.14741376 -0.38593423
0.039999999 0.047694381 0.031216111 0.23852047 -0.14741376 -0.38593423
0.039999999 0.048782092 0.032104105 0.23852047 -0.14741376 -0.38593423
0.039999999 0.049874876 0.032996356 0.23852047 -0.14741376 -0.38593423
0.039999999 0.050972775 0.0338929 0.23852047 -0.14741376 -0.38593423
0.039999999 0.052075833 0.034793772 0.23852047 -0.14741376 -0.38593423
0.039999999 0.053184088 0.035699006 0.23852047 -0.14741376 -0.38593423
0.039999999 0.054297585 0.03660864 0.23852047 -0.14741376 -0.38593423
0.039999999 0.055416372 0.037522711 0.23852047 -0.14741376 -0.38593423
0.039999999 0.056540485 0.038441256 0.23852047 -0.14741376 -0.38593423
0.039999999 0.057669975 0.039364308 0.23852047 -0.14741376 -0.38593423
0.039938677 0.058868583 0.040423561 0.23852047 -0.14741376 -0.38593423
0.03999719 0.059948187 0.041230131 0.23852047 -0.14741376 -0.38593423
0.039937291 0.061156999 0.042296119 0.23852047 -0.14741376 -0.38593423
0.039842356 0.062409066 0.043443061 0.23852047 -0.14741376 -0.38593423
0.039612457 0.063811168 0.044887934 0.23852047 -0.14741376 -0.38593423
0.039231624 0.065382771 0.046667382 0.23852047 -0.14741376 -0.38593423
0.038626697 0.067205176 0.048942816 0.23852047 -0.14741376 -0.38593423
0.037528284 0.069573268 0.052304927 0.23852047 -0.14741376 -0.38593423
0.0037801007 0 0.038210005 0.23852047 -0.14741376 -0.38593423
0.0052680047 0 0.036273587 0.23852047 -0.14741376 -0.38593423
0.0067424099 0 0.034354851 0.23852047 -0.14741376 -0.38593423
0.0082035074 0 0.032453541 0.23852047 -0.14741376 -0.38593423
0.0044693751 0.00333778 0.039999999 0.23852047 -0.14741376 -0.38593423
0.011086526 0 0.028702237 0.23852047 -0.14741376 -0.38593423
0.01250881 0 0.026851762 0.23852047 -0.14741376 -0.38593423
0.013918516 0 0.025017764 0.23852047 -0.14741376 -0.38593423
0.015315816 0 0.023200015 0.23852047 -0.14741376 -0.38593423
0.016700881 0 0.021398291 0.23852047 -0.14741376 -0.38593423
0.018073879 0 0.019612372 0.23852047 -0.14741376 -0.38593423
0.019434974 0 0.017842041 0.23852047 -0.14741376 -0.38593423
0.020784328 0 0.016087092 0.23852047 -0.14741376 -0.38593423
0.0082538594 0.0094472487 0.039999999 0.23852047 -0.14741376 -0.38593423
0.023448441 0 0.012622501 0.23852047 -0.14741376 -0.38593423
0.02476351 0 0.010912456 0.23852047 -0.14741376 -0.38593423
0.026067454 0 0.0092169801 0.23852047 -0.14741376 -0.38593423
0.027360424 2.7755576e-17 0.0075358823 0.23852047 -0.14741376 -0.38593423
0.010359533 0.012841608 0.039999999 0.23852047 -0.14741376 -0.38593423
0.02991401 0 0.004216061 0.23852047 -0.14741376 -0.38593423
0.031174909 0 0.0025769679 0.23852047 -0.14741376 -0.38593423
0.032425396 0 0.0009515119 0.23852047 -0.14741376 -0.38593423
0.033314422 0.00025271496 5.5511151e-17 0.23852047 -0.14741376 -0.38593423
0.033696674 0.0008680165 0 0.23852047 -0.14741376 -0.38593423
0.03407903 0.0014833561 5.5511151e-17 0.23852047 -0.14741376 -0.38593423
0.013311879 0.0175949 0.039999999 0.23852047 -0.14741376 -0.38593423
0.034844056 0.0027141613 0 0.23852047 -0.14741376 -0.38593423
0.014156433 0.018953372 0.039999999 0.23852047 -0.14741376 -0.38593423
0.035609517 0.0039451537 5.5511151e-17 0.23852047 -0.14741376 -0.38593423
0.015001472 0.020312063 0.039999999 0.23852047 -0.14741376 -0.38593423
0.036375422 0.0051763561 0 0.23852047 -0.14741376 -0.38593423
0.03675855 0.0057920436 0 0.23852047 -0.14741376 -0.38593423
0.037141792 0.0064077917 0 0.23852047 -0.14741376 -0.38593423
0.037525151 0.0070236046 0 0.23852047 -0.14741376 -0.38593423
0.037908636 0.0076394845 0 0.23852047 -0.14741376 -0.38593423
0.03829224 0.0082554342 0 0.23852047 -0.14741376 -0.38593423
0.038675971 0.0088714566 0 0.23852047 -0.14741376 -0.38593423
0.039059829 0.0094875544 0 0.23852047 -0.14741376 -0.38593423
0.018810593 0.026429569 0.039999999 0.23852047 -0.14741376 -0.38593423
0.039827928 0.010719989 5.5511151e-17 0.23852047 -0.14741376 -0.38593423
0.01965859 0.027789922 0.039999999 0.23852047 -0.14741376 -0.38593423
0.039999999 0.012433104 0.001163232 0.23852047 -0.14741376 -0.38593423
0.039999999 0.013363833 0.0019167284 0.23852047 -0.14741376 -0.38593423
0.039999999 0.014298399 0.002673435 0.23852047 -0.14741376 -0.38593423
0.039999999 0.01523683 0.0034333754 0.23852047 -0.14741376 -0.38593423
0.039999999 0.016179157 0.0041965744 0.23852047 -0.14741376 -0.38593423
0.039999999 0.017125409 0.0049630562 0.23852047 -0.14741376 -0.38593423
0.039999999 0.018075615 0.0057328455 0.23852047 -0.14741376 -0.38593423
0.039999999 0.019029805 0.0065059676 0.23852047 -0.14741376 -0.38593423
0.039999999 0.01998801 0.0072824475 0.23852047 -0.14741376 -0.38593423
0.039999999 0.020950262 0.0080623114 0.23852047 -0.14741376 -0.38593423
0.039999999 0.021916587 0.0088455835 0.23852047 -0.14741376 -0.38593423
0.039999999 0.022887023 0.0096322922 0.23852047 -0.14741376 -0.38593423
0.039999999 0.023861596 0.010422462 0.23852047 -0.14741376 -0.38593423
0.039999999 0.024840342 0.011216119 0.23852047 -0.14741376 -0.38593423
0.039999999 0.025823291 0.012013292 0.23852047 -0.14741376 -0.38593423
0.026465204 0.038688798 0.039999999 0.23852047 -0.14741376 -0.38593423
0.039999999 0.027801931 0.013618289 0.23852047 -0.14741376 -0.38593423
0.039999999 0.028797686 0.014426171 0.23852047 -0.14741376 -0.38593423
0.039999999 0.029797779 0.015237676 0.23852047 -0.14741376 -0.38593423
0.039999999 0.030802241 0.016052835 0.23852047 -0.14741376 -0.38593423
0.039999999 0.031811107 0.016871676 0.23852047 -0.14741376 -0.38593423
0.039999999 0.032824408 0.017694226 0.23852047 -0.14741376 -0.38593423
0.039999999 0.033842187 0.018520515 0.23852047 -0.14741376 -0.38593423
0.039999999 0.03486447 0.019350575 0.23852047 -0.14741376 -0.38593423
0.039999999 0.035891302 0.020184431 0.23852047 -0.14741376 -0.38593423
0.016107725 0.059107918 0.07 0.23852047 -0.14741376 -0.38593423
0.039999999 0.037958737 0.021863662 0.23852047 -0.14741376 -0.38593423
0.017025899 0.060572386 0.07 0.23852047 -0.14741376 -0.38593423
0.039999999 0.040044788 0.023558449 0.23852047 -0.14741376 -0.38593423
0.039999999 0.041094888 0.024411755 0.23852047 -0.14741376 -0.38593423
0.039999999 0.042149756 0.025269043 0.23852047 -0.14741376 -0.38593423
0.039999999 0.043209426 0.026130347 0.23852047 -0.14741376 -0.38593423
0.039999999 0.044273939 0.026995698 0.23852047 -0.14741376 -0.38593423
0.019785771 0.064970709 0.07 0.23852047 -0.14741376 -0.38593423
0.039999999 0.04641765 0.02873867 0.23852047 -0.14741376 -0.38593423
0.039999999 0.04749693 0.02961636 0.23852047 -0.14741376 -0.38593423
0.039999999 0.048581209 0.030498227 0.23852047 -0.14741376 -0.38593423
0.039999999 0.049670536 0.031384308 0.23852047 -0.14741376 -0.38593423
0.039999999 0.050764944 0.032274641 0.23852047 -0.14741376 -0.38593423
0.039999999 0.051864479 0.033169251 0.23852047 -0.14741376 -0.38593423
0.023016283 0.070112236 0.07 0.23852047 -0.14741376 -0.38593423
0.039999999 0.054079097 0.034971464 0.23852047 -0.14741376 -0.38593423
0.039999999 0.055194266 0.035879139 0.23852047 -0.14741376 -0.38593423
0.039999999 0.056314729 0.036791235 0.23852047 -0.14741376 -0.38593423
