# .PCD v0.7 - Point Cloud Data file format
VERSION 0.7
FIELDS x y z vp_x vp_y vp_z
SIZE 4 4 4 4 4 4
TYPE F F F F F F
COUNT 1 1 1 1 1 1
WIDTH 734
HEIGHT 1
VIEWPOINT 0 0 0 1 0 0 0
POINTS 734
DATA ascii
0 0.02500009 0.0066808406 -0.23852047 0.14741376 -0.38593423
2.7755576e-17 0.024161501 0.0073267226 -0.23852047 0.14741376 -0.38593423
0 0.023320261 0.0079747085 -0.23852047 0.14741376 -0.38593423
0 0.022476356 0.0086248126 -0.23852047 0.14741376 -0.38593423
2.7755576e-17 0.021629767 0.0092770485 -0.23852047 0.14741376 -0.38593423
0 0.020780478 0.0099314284 -0.23852047 0.14741376 -0.38593423
0 0.01992847 0.010587968 -0.23852047 0.14741376 -0.38593423
0 0.019073727 0.01124668 -0.23852047 0.14741376 -0.38593423
0 0.01821623 0.011907579 -0.23852047 0.14741376 -0.38593423
0 0.017355962 0.012570678 -0.23852047 0.14741376 -0.38593423
0 0.016492903 0.013235993 -0.23852047 0.14741376 -0.38593423
0 0.015627038 0.013903537 -0.23852047 0.14741376 -0.38593423
0 0.014758347 0.014573324 -0.23852047 0.14741376 -0.38593423
2.7755576e-17 0.013886811 0.015245369 -0.23852047 0.14741376 -0.38593423
0 0.013012413 0.015919687 -0.23852047 0.14741376 -0.38593423
2.7755576e-17 0.012135133 0.016596293 -0.23852047 0.14741376 -0.38593423
2.7755576e-17 0.011254952 0.017275201 -0.23852047 0.14741376 -0.38593423
0 0.010371853 0.017956428 -0.23852047 0.14741376 -0.38593423
2.7755576e-17 0.0094858129 0.018639985 -0.23852047 0.14741376 -0.38593423
0 0.0085968161 0.019325893 -0.23852047 0.14741376 -0.38593423
2.7755576e-17 0.007704841 0.020014163 -0.23852047 0.14741376 -0.38593423
2.7755576e-17 0.0068098688 0.020704811 -0.23852047 0.14741376 -0.38593423
2.7755576e-17 0.0059118792 0.021397855 -0.23852047 0.14741376 -0.38593423
2.7755576e-17 0.0050108521 0.022093309 -0.23852047 0.14741376 -0.38593423
0 0.0041067675 0.02279119 -0.23852047 0.14741376 -0.38593423
0 0.0031996053 0.023491513 -0.23852047 0.14741376 -0.38593423
0 0.0022893443 0.024194293 -0.23852047 0.14741376 -0.38593423
0 0.0013759643 0.02489955 -0.23852047 0.14741376 -0.38593423
0 0.00045944416 0.025607297 -0.23852047 0.14741376 -0.38593423
0.038097918 0.079999998 0.010858666 -0.23852047 0.14741376 -0.38593423
0.034994073 0.079999998 0.0069820508 -0.23852047 0.14741376 -0.38593423
0.031952012 0.079999998 0.0031826594 -0.23852047 0.14741376 -0.38593423
0.029345943 0.079905227 5.5511151e-17 -0.23852047 0.14741376 -0.38593423
0.028952299 0.079259433 0 -0.23852047 0.14741376 -0.38593423
0.028558832 0.078614011 5.5511151e-17 -0.23852047 0.14741376 -0.38593423
0.02816554 0.077968955 0 -0.23852047 0.14741376 -0.38593423
0.027772421 0.077324256 5.5511151e-17 -0.23852047 0.14741376 -0.38593423
0.027379472 0.076679923 0 -0.23852047 0.14741376 -0.38593423
0.026594078 0.075392321 0 -0.23852047 0.14741376 -0.38593423
0.026201632 0.074749045 5.5511151e-17 -0.23852047 0.14741376 -0.38593423
0.025809346 0.074106112 0 -0.23852047 0.14741376 -0.38593423
0.025417222 0.073463522 0 -0.23852047 0.14741376 -0.38593423
0.025025256 0.072821274 5.5511151e-17 -0.23852047 0.14741376 -0.38593423
0.024633447 0.072179362 0 -0.23852047 0.14741376 -0.38593423
0.024241794 0.071537778 0 -0.23852047 0.14741376 -0.38593423
0.023850294 0.070896529 0 -0.23852047 0.14741376 -0.38593423
0.023458943 0.0702556 0 -0.23852047 0.14741376 -0.38593423
0.023067743 0.069614999 0 -0.23852047 0.14741376 -0.38593423
0.022676688 0.068974718 0 -0.23852047 0.14741376 -0.38593423
0.021895012 0.067695089 0 -0.23852047 0.14741376 -0.38593423
0.021504387 0.067055747 0 -0.23852047 0.14741376 -0.38593423
0.021113902 0.066416711 0 -0.23852047 0.14741376 -0.38593423
0.020723553 0.065777972 5.5511151e-17 -0.23852047 0.14741376 -0.38593423
0.020333339 0.065139532 0 -0.23852047 0.14741376 -0.38593423
0.01994326 0.064501397 0 -0.23852047 0.14741376 -0.38593423
0.019163489 0.063225992 0 -0.23852047 0.14741376 -0.38593423
0.018773798 0.062588722 0 -0.23852047 0.14741376 -0.38593423
0.017994788 0.06131503 5.5511151e-17 -0.23852047 0.14741376 -0.38593423
0.017605465 0.060678598 0 -0.23852047 0.14741376 -0.38593423
0.016438209 0.058770943 0 -0.23852047 0.14741376 -0.38593423
0.016049353 0.058135591 0 -0.23852047 0.14741376 -0.38593423
0.01566061 0.0575005 0 -0.23852047 0.14741376 -0.38593423
0.014883452 0.056231085 0 -0.23852047 0.14741376 -0.38593423
0.014106718 0.05496268 0 -0.23852047 0.14741376 -0.38593423
0.013718505 0.054328848 5.5511151e-17 -0.23852047 0.14741376 -0.38593423
0.039433375 0.043981839 0.039999999 -0.23852047 0.14741376 -0.38593423
0.01294238 0.053061903 0 -0.23852047 0.14741376 -0.38593423
0.012554463 0.052428786 5.5511151e-17 -0.23852047 0.14741376 -0.38593423
0.012166641 0.051795904 0 -0.23852047 0.14741376 -0.38593423
0.011778912 0.051163249 5.5511151e-17 -0.23852047 0.14741376 -0.38593423
0.011391273 0.050530817 5.5511151e-17 -0.23852047 0.14741376 -0.38593423
0.011003723 0.049898613 0 -0.23852047 0.14741376 -0.38593423
0.010616261 0.049266629 0 -0.23852047 0.14741376 -0.38593423
0.010228883 0.048634861 0 -0.23852047 0.14741376 -0.38593423
0.0098415893 0.048003308 0 -0.23852047 0.14741376 -0.38593423
0.009454377 0.047371965 0 -0.23852047 0.14741376 -0.38593423
0.0090672439 0.04674083 0 -0.23852047 0.14741376 -0.38593423
0.008680189 0.046109896 0 -0.23852047 0.14741376 -0.38593423
0.0082932096 0.045479167 0 -0.23852047 0.14741376 -0.38593423
0.0079063037 0.044848636 0 -0.23852047 0.14741376 -0.38593423
0.0075194701 0.044218298 5.5511151e-17 -0.23852047 0.14741376 -0.38593423
0.0071327067 0.043588154 0 -0.23852047 0.14741376 -0.38593423
0.0067460113 0.0429582 0 -0.23852047 0.14741376 -0.38593423
0.0063593825 0.042328432 0 -0.23852047 0.14741376 -0.38593423
0.005972818 0.041698847 0 -0.23852047 0.14741376 -0.38593423
0.0055863163 0.041069441 0 -0.23852047 0.14741376 -0.38593423
0.030460173 0.029352978 0.039999999 -0.23852047 0.14741376 -0.38593423
0.0048134932 0.039811153 5.5511151e-17 -0.23852047 0.14741376 -0.38593423
0.0044271685 0.039182268 0 -0.23852047 0.14741376 -0.38593423
0.0040408988 0.038553551 0 -0.23852047 0.14741376 -0.38593423
0.028754828 0.026577076 0.039999999 -0.23852047 0.14741376 -0.38593423
0.0032685169 0.037296604 5.5511151e-17 -0.23852047 0.14741376 -0.38593423
0.0028824012 0.036668368 0 -0.23852047 0.14741376 -0.38593423
0.0024963333 0.036040291 0 -0.23852047 0.14741376 -0.38593423
0.0021103113 0.035412364 5.5511151e-17 -0.23852047 0.14741376 -0.38593423
0.026624409 0.023111179 0.039999999 -0.23852047 0.14741376 -0.38593423
0.0013383973 0.034156956 0 -0.23852047 0.14741376 -0.38593423
0.00095250155 0.033529468 0 -0.23852047 0.14741376 -0.38593423
0.025346734 0.021033606 0.039999999 -0.23852047 0.14741376 -0.38593423
0.0001808235 0.032274906 0 -0.23852047 0.14741376 -0.38593423
0 0.031548265 0.00033192159 -0.23852047 0.14741376 -0.38593423
2.7755576e-17 0.030731911 0.00095817115 -0.23852047 0.14741376 -0.38593423
2.7755576e-17 0.029913049 0.001586404 -0.23852047 0.14741376 -0.38593423
0.023218051 0.017573958 0.039999999 -0.23852047 0.14741376 -0.38593423
0 0.028267737 0.0028488701 -0.23852047 0.14741376 -0.38593423
2.7755576e-17 0.027441258 0.0034831285 -0.23852047 0.14741376 -0.38593423
0 0.026612204 0.0041194209 -0.23852047 0.14741376 -0.38593423
0 0.025780562 0.0047577596 -0.23852047 0.14741376 -0.38593423
2.7755576e-17 0.024946317 0.005398158 -0.23852047 0.14741376 -0.38593423
2.7755576e-17 0.024109449 0.0060406295 -0.23852047 0.14741376 -0.38593423
2.7755576e-17 0.023269944 0.0066851866 -0.23852047 0.14741376 -0.38593423
0 0.022427782 0.007331843 -0.23852047 0.14741376 -0.38593423
0 0.021582948 0.0079806121 -0.23852047 0.14741376 -0.38593423
0 0.020735426 0.0086315069 -0.23852047 0.14741376 -0.38593423
2.7755576e-17 0.019885195 0.0092845419 -0.23852047 0.14741376 -0.38593423
2.7755576e-17 0.019032242 0.0099397302 -0.23852047 0.14741376 -0.38593423
2.7755576e-17 0.018176546 0.010597085 -0.23852047 0.14741376 -0.38593423
0.017260931 0.0079035005 0.039999999 -0.23852047 0.14741376 -0.38593423
2.7755576e-17 0.016456857 0.011918353 -0.23852047 0.14741376 -0.38593423
0 0.015592829 0.012582294 -0.23852047 0.14741376 -0.38593423
0.015984636 0.0058338111 0.039999999 -0.23852047 0.14741376 -0.38593423
0 0.013856312 0.01391686 -0.23852047 0.14741376 -0.38593423
0 0.012983788 0.014587515 -0.23852047 0.14741376 -0.38593423
2.7755576e-17 0.012108394 0.015260438 -0.23852047 0.14741376 -0.38593423
2.7755576e-17 0.011230111 0.015935641 -0.23852047 0.14741376 -0.38593423
0 0.010348923 0.016613141 -0.23852047 0.14741376 -0.38593423
0 0.0094648078 0.017292954 -0.23852047 0.14741376 -0.38593423
0 0.0085777473 0.017975092 -0.23852047 0.14741376 -0.38593423
0 0.0076877223 0.018659575 -0.23852047 0.14741376 -0.38593423
2.7755576e-17 0.006794713 0.019346412 -0.23852047 0.14741376 -0.38593423
2.7755576e-17 0.0058986996 0.020035625 -0.23852047 0.14741376 -0.38593423
0 0.0049996627 0.020727225 -0.23852047 0.14741376 -0.38593423
2.7755576e-17 0.0040975814 0.021421229 -0.23852047 0.14741376 -0.38593423
0 0.003192436 0.022117654 -0.23852047 0.14741376 -0.38593423
2.7755576e-17 0.002284206 0.022816515 -0.23852047 0.14741376 -0.38593423
0 0.0013728706 0.023517827 -0.23852047 0.14741376 -0.38593423
2.7755576e-17 0.0004584094 0.024221608 -0.23852047 0.14741376 -0.38593423
0.037290629 0.079999998 0.0084978249 -0.23852047 0.14741376 -0.38593423
0.034209665 0.079999998 0.00466331 -0.23852047 0.14741376 -0.38593423
0.031189732 0.079999998 0.00090481533 -0.23852047 0.14741376 -0.38593423
0.030164383 0.07951089 0 -0.23852047 0.14741376 -0.38593423
0.029770069 0.07886447 0 -0.23852047 0.14741376 -0.38593423
0.029375933 0.078218423 5.5511151e-17 -0.23852047 0.14741376 -0.38593423
0.028588191 0.076927416 0 -0.23852047 0.14741376 -0.38593423
0.02819458 0.076282457 0 -0.23852047 0.14741376 -0.38593423
0.027801141 0.075637847 0 -0.23852047 0.14741376 -0.38593423
0.027407873 0.074993595 0 -0.23852047 0.14741376 -0.38593423
0.027014771 0.074349694 5.5511151e-17 -0.23852047 0.14741376 -0.38593423
0.026621833 0.073706135 0 -0.23852047 0.14741376 -0.38593423
0.026229061 0.073062919 0 -0.23852047 0.14741376 -0.38593423
0.025836449 0.072420038 5.5511151e-17 -0.23852047 0.14741376 -0.38593423
0.025443997 0.071777493 0 -0.23852047 0.14741376 -0.38593423
0.025051702 0.071135283 0 -0.23852047 0.14741376 -0.38593423
0.024659561 0.070493408 0 -0.23852047 0.14741376 -0.38593423
0.024267575 0.069851846 0 -0.23852047 0.14741376 -0.38593423
0.023484053 0.068569705 0 -0.23852047 0.14741376 -0.38593423
0.023092516 0.067929104 0 -0.23852047 0.14741376 -0.38593423
0.022701122 0.067288816 5.5511151e-17 -0.23852047 0.14741376 -0.38593423
0.022309873 0.066648841 0 -0.23852047 0.14741376 -0.38593423
0.021918764 0.066009171 0 -0.23852047 0.14741376 -0.38593423
0.021527795 0.0653698 5.5511151e-17 -0.23852047 0.14741376 -0.38593423
0.02074627 0.064091958 0 -0.23852047 0.14741376 -0.38593423
0.020355707 0.063453481 0 -0.23852047 0.14741376 -0.38593423
0.019184804 0.061539762 0 -0.23852047 0.14741376 -0.38593423
0.018794756 0.06090242 0 -0.23852047 0.14741376 -0.38593423
0.018404834 0.060265359 0 -0.23852047 0.14741376 -0.38593423
0.018015033 0.059628569 0 -0.23852047 0.14741376 -0.38593423
0.017625351 0.058992047 0 -0.23852047 0.14741376 -0.38593423
0.016846342 0.057719804 0 -0.23852047 0.14741376 -0.38593423
0.016457008 0.057084072 0 -0.23852047 0.14741376 -0.38593423
0.016067788 0.056448601 0 -0.23852047 0.14741376 -0.38593423
0.015678678 0.055813387 5.5511151e-17 -0.23852047 0.14741376 -0.38593423
0.015289675 0.055178419 5.5511151e-17 -0.23852047 0.14741376 -0.38593423
0.01490078 0.0545437 5.5511151e-17 -0.23852047 0.14741376 -0.38593423
0.014511989 0.053909227 0 -0.23852047 0.14741376 -0.38593423
0.014123302 0.053274997 0 -0.23852047 0.14741376 -0.38593423
0.013734714 0.052641001 0 -0.23852047 0.14741376 -0.38593423
0.013346226 0.052007243 0 -0.23852047 0.14741376 -0.38593423
0.012957834 0.051373716 0 -0.23852047 0.14741376 -0.38593423
0.012569537 0.050740421 0 -0.23852047 0.14741376 -0.38593423
0.012181334 0.050107349 0 -0.23852047 0.14741376 -0.38593423
0.011793221 0.0494745 0 -0.23852047 0.14741376 -0.38593423
0.011405198 0.048841871 0 -0.23852047 0.14741376 -0.38593423
0.011017263 0.048209459 0 -0.23852047 0.14741376 -0.38593423
0.036452454 0.037229743 0.039999999 -0.23852047 0.14741376 -0.38593423
0.010241645 0.04694527 0 -0.23852047 0.14741376 -0.38593423
0.0098539609 0.046313487 0 -0.23852047 0.14741376 -0.38593423
0.0094663557 0.045681909 0 -0.23852047 0.14741376 -0.38593423
0.0090788286 0.045050532 0 -0.23852047 0.14741376 -0.38593423
0.0086913779 0.044419348 0 -0.23852047 0.14741376 -0.38593423
0.0083040008 0.043788366 5.5511151e-17 -0.23852047 0.14741376 -0.38593423
0.0079166954 0.04315757 0 -0.23852047 0.14741376 -0.38593423
0.0075294613 0.042526964 0 -0.23852047 0.14741376 -0.38593423
0.0071422956 0.041896544 0 -0.23852047 0.14741376 -0.38593423
0.0067551965 0.041266307 0 -0.23852047 0.14741376 -0.38593423
0.0063681616 0.040636249 5.5511151e-17 -0.23852047 0.14741376 -0.38593423
0.0059811901 0.040006366 0 -0.23852047 0.14741376 -0.38593423
0.0055942796 0.039376654 0 -0.23852047 0.14741376 -0.38593423
0.0052074278 0.038747113 0 -0.23852047 0.14741376 -0.38593423
0.0048206337 0.03811774 0 -0.23852047 0.14741376 -0.38593423
0.0044338945 0.037488531 0 -0.23852047 0.14741376 -0.38593423
0.0040472089 0.036859483 0 -0.23852047 0.14741376 -0.38593423
0.003660575 0.03623059 0 -0.23852047 0.14741376 -0.38593423
0.0032739909 0.035601854 0 -0.23852047 0.14741376 -0.38593423
0.0028874546 0.034973267 0 -0.23852047 0.14741376 -0.38593423
0.0025009643 0.03434483 0 -0.23852047 0.14741376 -0.38593423
0.0021145183 0.033716537 0 -0.23852047 0.14741376 -0.38593423
0.0017281144 0.03308839 5.5511151e-17 -0.23852047 0.14741376 -0.38593423
0.0013417511 0.03246038 0 -0.23852047 0.14741376 -0.38593423
0.00095542625 0.031832505 0 -0.23852047 0.14741376 -0.38593423
0.025349485 0.019160328 0.039999999 -0.23852047 0.14741376 -0.38593423
0.00018288479 0.030577153 0 -0.23852047 0.14741376 -0.38593423
0 0.029849447 0.00032928452 -0.23852047 0.14741376 -0.38593423
2.7755576e-17 0.029029712 0.00095623446 -0.23852047 0.14741376 -0.38593423
2.7755576e-17 0.028207449 0.0015851752 -0.23852047 0.14741376 -0.38593423
2.7755576e-17 0.02738264 0.0022161193 -0.23852047 0.14741376 -0.38593423
2.7755576e-17 0.02655527 0.0028490792 -0.23852047 0.14741376 -0.38593423
0 0.025725322 0.003484068 -0.23852047 0.14741376 -0.38593423
2.7755576e-17 0.024892779 0.0041210982 -0.23852047 0.14741376 -0.38593423
0 0.024057627 0.0047601829 -0.23852047 0.14741376 -0.38593423
0.021088013 0.012239643 0.039999999 -0.23852047 0.14741376 -0.38593423
0 0.022379421 0.0060445676 -0.23852047 0.14741376 -0.38593423
0 0.021536335 0.006689894 -0.23852047 0.14741376 -0.38593423
0.019810015 0.010165738 0.039999999 -0.23852047 0.14741376 -0.38593423
0 0.019842112 0.0079868827 -0.23852047 0.14741376 -0.38593423
0.018958081 0.0087836403 0.039999999 -0.23852047 0.14741376 -0.38593423
2.7755576e-17 0.018137038 0.0092924079 -0.23852047 0.14741376 -0.38593423
0 0.017280389 0.0099484054 -0.23852047 0.14741376 -0.38593423
2.7755576e-17 0.016420972 0.010606579 -0.23852047 0.14741376 -0.38593423
2.7755576e-17 0.015558773 0.011266943 -0.23852047 0.14741376 -0.38593423
0 0.014693771 0.01192951 -0.23852047 0.14741376 -0.38593423
2.7755576e-17 0.01382595 0.012594295 -0.23852047 0.14741376 -0.38593423
2.7755576e-17 0.01295529 0.013261313 -0.23852047 0.14741376 -0.38593423
2.7755576e-17 0.012081774 0.013930577 -0.23852047 0.14741376 -0.38593423
2.7755576e-17 0.011205383 0.014602102 -0.23852047 0.14741376 -0.38593423
0 0.010326096 0.015275904 -0.23852047 0.14741376 -0.38593423
2.7755576e-17 0.0094438968 0.015951997 -0.23852047 0.14741376 -0.38593423
0 0.0085587641 0.016630394 -0.23852047 0.14741376 -0.38593423
0 0.007670681 0.017311115 -0.23852047 0.14741376 -0.38593423
2.7755576e-17 0.006779626 0.017994169 -0.23852047 0.14741376 -0.38593423
0 0.0058855801 0.018679576 -0.23852047 0.14741376 -0.38593423
0 0.0049885237 0.01936735 -0.23852047 0.14741376 -0.38593423
2.7755576e-17 0.0040884367 0.020057507 -0.23852047 0.14741376 -0.38593423
0 0.0031852995 0.020750061 -0.23852047 0.14741376 -0.38593423
0 0.0022790909 0.02144503 -0.23852047 0.14741376 -0.38593423
0 0.0013697912 0.022142429 -0.23852047 0.14741376 -0.38593423
0 0.00045737938 0.022842275 -0.23852047 0.14741376 -0.38593423
0.039611686 0.079999998 0.010030009 -0.23852047 0.14741376 -0.38593423
0.036491148 0.079999998 0.0061598266 -0.23852047 0.14741376 -0.38593423
0.033432767 0.079999998 0.0023667843 -0.23852047 0.14741376 -0.38593423
0.031379789 0.079763107 0 -0.23852047 0.14741376 -0.38593423
0.030984618 0.079115689 0 -0.23852047 0.14741376 -0.38593423
0.030589629 0.078468643 0 -0.23852047 0.14741376 -0.38593423
0.030194821 0.07782197 0 -0.23852047 0.14741376 -0.38593423
0.029800193 0.077175654 0 -0.23852047 0.14741376 -0.38593423
0.029405745 0.076529711 0 -0.23852047 0.14741376 -0.38593423
0.029011471 0.075884119 0 -0.23852047 0.14741376 -0.38593423
0.028617373 0.075238883 0 -0.23852047 0.14741376 -0.38593423
0.027829688 0.073949471 5.5511151e-17 -0.23852047 0.14741376 -0.38593423
0.027436098 0.073305279 0 -0.23852047 0.14741376 -0.38593423
0.027042674 0.072661437 5.5511151e-17 -0.23852047 0.14741376 -0.38593423
0.026649414 0.072017923 5.5511151e-17 -0.23852047 0.14741376 -0.38593423
0.026256315 0.071374752 0 -0.23852047 0.14741376 -0.38593423
0.025863377 0.070731916 5.5511151e-17 -0.23852047 0.14741376 -0.38593423
0.025077971 0.069447212 0 -0.23852047 0.14741376 -0.38593423
0.0246855 0.068805352 0 -0.23852047 0.14741376 -0.38593423
0.024293181 0.068163805 0 -0.23852047 0.14741376 -0.38593423
0.02390101 0.06752257 0 -0.23852047 0.14741376 -0.38593423
0.023508988 0.066881657 0 -0.23852047 0.14741376 -0.38593423
0.023117112 0.066241048 0 -0.23852047 0.14741376 -0.38593423
0.022725381 0.065600745 0 -0.23852047 0.14741376 -0.38593423
0.02233379 0.064960741 0 -0.23852047 0.14741376 -0.38593423
0.02194234 0.064321041 0 -0.23852047 0.14741376 -0.38593423
0.021551028 0.063681632 0 -0.23852047 0.14741376 -0.38593423
0.021159852 0.063042514 0 -0.23852047 0.14741376 -0.38593423
0.020768808 0.06240369 0 -0.23852047 0.14741376 -0.38593423
0.020377899 0.061765153 0 -0.23852047 0.14741376 -0.38593423
0.019987119 0.061126895 0 -0.23852047 0.14741376 -0.38593423
0.019596467 0.060488917 0 -0.23852047 0.14741376 -0.38593423
0.019205941 0.059851218 0 -0.23852047 0.14741376 -0.38593423
0.01881554 0.059213791 0 -0.23852047 0.14741376 -0.38593423
0.01842526 0.058576632 5.5511151e-17 -0.23852047 0.14741376 -0.38593423
0.018035101 0.057939742 0 -0.23852047 0.14741376 -0.38593423
0.017645061 0.057303112 0 -0.23852047 0.14741376 -0.38593423
0.017255137 0.056666747 0 -0.23852047 0.14741376 -0.38593423
0.016865326 0.056030635 0 -0.23852047 0.14741376 -0.38593423
0.016475629 0.055394776 0 -0.23852047 0.14741376 -0.38593423
0.016086044 0.054759171 0 -0.23852047 0.14741376 -0.38593423
0.015307195 0.053488698 0 -0.23852047 0.14741376 -0.38593423
0.01491793 0.052853823 0 -0.23852047 0.14741376 -0.38593423
0.014528767 0.052219186 5.5511151e-17 -0.23852047 0.14741376 -0.38593423
0.014139705 0.051584788 5.5511151e-17 -0.23852047 0.14741376 -0.38593423
0.013750743 0.050950617 0 -0.23852047 0.14741376 -0.38593423
0.039468125 0.040253088 0.039999999 -0.23852047 0.14741376 -0.38593423
0.012973107 0.04968296 5.5511151e-17 -0.23852047 0.14741376 -0.38593423
0.01258443 0.049049467 0 -0.23852047 0.14741376 -0.38593423
0.012195845 0.04841619 0 -0.23852047 0.14741376 -0.38593423
0.01180735 0.047783133 0 -0.23852047 0.14741376 -0.38593423
0.011418941 0.047150288 0 -0.23852047 0.14741376 -0.38593423
0.01103062 0.046517648 5.5511151e-17 -0.23852047 0.14741376 -0.38593423
0.010642381 0.04588522 0 -0.23852047 0.14741376 -0.38593423
0.03603838 0.034664579 0.039999999 -0.23852047 0.14741376 -0.38593423
0.0098661492 0.044620965 0 -0.23852047 0.14741376 -0.38593423
0.0094781509 0.043989133 5.5511151e-17 -0.23852047 0.14741376 -0.38593423
0.0090902289 0.043357499 0 -0.23852047 0.14741376 -0.38593423
0.0087023815 0.042726055 0 -0.23852047 0.14741376 -0.38593423
0.0083146067 0.042094797 0 -0.23852047 0.14741376 -0.38593423
0.0079269027 0.041463725 5.5511151e-17 -0.23852047 0.14741376 -0.38593423
0.0075392667 0.040832832 0 -0.23852047 0.14741376 -0.38593423
0.0071516982 0.040202118 5.5511151e-17 -0.23852047 0.14741376 -0.38593423
0.0067641945 0.039571583 0 -0.23852047 0.14741376 -0.38593423
0.0063767536 0.038941216 0 -0.23852047 0.14741376 -0.38593423
0.0059893741 0.03831102 5.5511151e-17 -0.23852047 0.14741376 -0.38593423
0.0056020538 0.037680991 0 -0.23852047 0.14741376 -0.38593423
0.0052147913 0.037051123 0 -0.23852047 0.14741376 -0.38593423
0.0048275841 0.036421414 0 -0.23852047 0.14741376 -0.38593423
0.029622016 0.024222858 0.039999999 -0.23852047 0.14741376 -0.38593423
0.0040533287 0.035162468 0 -0.23852047 0.14741376 -0.38593423
0.003666277 0.034533221 0 -0.23852047 0.14741376 -0.38593423
0.0032792734 0.033904124 0 -0.23852047 0.14741376 -0.38593423
0.027913447 0.021445323 0.039999999 -0.23852047 0.14741376 -0.38593423
0.0025054025 0.032646358 0 -0.23852047 0.14741376 -0.38593423
0.0021185318 0.032017685 0 -0.23852047 0.14741376 -0.38593423
0.0017317015 0.031389147 0 -0.23852047 0.14741376 -0.38593423
0.00134491 0.030760741 5.5511151e-17 -0.23852047 0.14741376 -0.38593423
0.00095815543 0.030132463 0 -0.23852047 0.14741376 -0.38593423
0.025352022 0.017283635 0.039999999 -0.23852047 0.14741376 -0.38593423
0.00018474922 0.028876286 0 -0.23852047 0.14741376 -0.38593423
2.7755576e-17 0.028147422 0.00032696765 -0.23852047 0.14741376 -0.38593423
0 0.027324276 0.00095462013 -0.23852047 0.14741376 -0.38593423
0.023645163 0.014511942 0.039999999 -0.23852047 0.14741376 -0.38593423
0 0.02567032 0.0022159324 -0.23852047 0.14741376 -0.38593423
2.7755576e-17 0.024839474 0.0028496175 -0.23852047 0.14741376 -0.38593423
0 0.02400603 0.0034853388 -0.23852047 0.14741376 -0.38593423
0 0.023169968 0.0041231094 -0.23852047 0.14741376 -0.38593423
0.02151221 0.011050058 0.039999999 -0.23852047 0.14741376 -0.38593423
0 0.021489928 0.00540485 -0.23852047 0.14741376 -0.38593423
0 0.020645916 0.0060488465 -0.23852047 0.14741376 -0.38593423
0 0.019799219 0.006694945 -0.23852047 0.14741376 -0.38593423
0 0.018949822 0.0073431586 -0.23852047 0.14741376 -0.38593423
2.7755576e-17 0.018097706 0.0079935007 -0.23852047 0.14741376 -0.38593423
2.7755576e-17 0.017242853 0.0086459862 -0.23852047 0.14741376 -0.38593423
0 0.016385246 0.0093006268 -0.23852047 0.14741376 -0.38593423
0 0.015524868 0.0099574383 -0.23852047 0.14741376 -0.38593423
2.7755576e-17 0.0146617 0.010616434 -0.23852047 0.14741376 -0.38593423
2.7755576e-17 0.013795723 0.011277626 -0.23852047 0.14741376 -0.38593423
0.016820945 0.0034426369 0.039999999 -0.23852047 0.14741376 -0.38593423
0 0.012055274 0.012606665 -0.23852047 0.14741376 -0.38593423
2.7755576e-17 0.011180764 0.013274537 -0.23852047 0.14741376 -0.38593423
2.7755576e-17 0.010303372 0.013944667 -0.23852047 0.14741376 -0.38593423
0 0.0094230799 0.014617066 -0.23852047 0.14741376 -0.38593423
0 0.0085398676 0.01529175 -0.23852047 0.14741376 -0.38593423
2.7755576e-17 0.007653716 0.015968734 -0.23852047 0.14741376 -0.38593423
0 0.006764607 0.016648034 -0.23852047 0.14741376 -0.38593423
0 0.0058725197 0.017329663 -0.23852047 0.14741376 -0.38593423
0 0.0049774353 0.018013639 -0.23852047 0.14741376 -0.38593423
2.7755576e-17 0.004079334 0.018699976 -0.23852047 0.14741376 -0.38593423
2.7755576e-17 0.0031781953 0.019388689 -0.23852047 0.14741376 -0.38593423
2.7755576e-17 0.0022739994 0.020079793 -0.23852047 0.14741376 -0.38593423
0 0.0013667258 0.020773306 -0.23852047 0.14741376 -0.38593423
2.7755576e-17 0.00045635409 0.021469243 -0.23852047 0.14741376 -0.38593423
0.038796857 0.079999998 0.0076724524 -0.23852047 0.14741376 -0.38593423
0.035699368 0.079999998 0.0038443301 -0.23852047 0.14741376 -0.38593423
0.032663275 0.079999998 9.2143971e-05 -0.23852047 0.14741376 -0.38593423
0.031806652 0.078719623 0 -0.23852047 0.14741376 -0.38593423
0.031410988 0.078071952 5.5511151e-17 -0.23852047 0.14741376 -0.38593423
0.031015508 0.077424645 0 -0.23852047 0.14741376 -0.38593423
0.030620212 0.076777704 0 -0.23852047 0.14741376 -0.38593423
0.029830156 0.075484909 0 -0.23852047 0.14741376 -0.38593423
0.029435394 0.074839041 0 -0.23852047 0.14741376 -0.38593423
0.029040806 0.07419353 0 -0.23852047 0.14741376 -0.38593423
0.028646391 0.073548369 0 -0.23852047 0.14741376 -0.38593423
0.028252147 0.072903551 0 -0.23852047 0.14741376 -0.38593423
0.027858069 0.072259068 5.5511151e-17 -0.23852047 0.14741376 -0.38593423
0.027070414 0.070971131 0 -0.23852047 0.14741376 -0.38593423
0.02667683 0.070327654 0 -0.23852047 0.14741376 -0.38593423
0.026283406 0.069684513 0 -0.23852047 0.14741376 -0.38593423
0.02589014 0.069041692 5.5511151e-17 -0.23852047 0.14741376 -0.38593423
0.025497032 0.068399198 0 -0.23852047 0.14741376 -0.38593423
0.025104078 0.067757018 5.5511151e-17 -0.23852047 0.14741376 -0.38593423
0.024711274 0.067115158 0 -0.23852047 0.14741376 -0.38593423
0.024318622 0.066473603 0 -0.23852047 0.14741376 -0.38593423
0.023926118 0.065832362 0 -0.23852047 0.14741376 -0.38593423
0.023141546 0.064550787 0 -0.23852047 0.14741376 -0.38593423
0.022749474 0.063910447 0 -0.23852047 0.14741376 -0.38593423
0.022357544 0.063270405 0 -0.23852047 0.14741376 -0.38593423
0.021965751 0.062630661 0 -0.23852047 0.14741376 -0.38593423
0.021574095 0.061991196 5.5511151e-17 -0.23852047 0.14741376 -0.38593423
0.021182574 0.061352022 0 -0.23852047 0.14741376 -0.38593423
0.020791184 0.060713127 5.5511151e-17 -0.23852047 0.14741376 -0.38593423
0.019226912 0.058160312 0 -0.23852047 0.14741376 -0.38593423
0.018836156 0.057522781 0 -0.23852047 0.14741376 -0.38593423
0.01844552 0.056885514 0 -0.23852047 0.14741376 -0.38593423
0.018055003 0.056248508 0 -0.23852047 0.14741376 -0.38593423
0.017664604 0.055611756 5.5511151e-17 -0.23852047 0.14741376 -0.38593423
0.017274318 0.054975256 0 -0.23852047 0.14741376 -0.38593423
0.016884146 0.05433901 0 -0.23852047 0.14741376 -0.38593423
0.016494084 0.05370301 0 -0.23852047 0.14741376 -0.38593423
0.015714288 0.052431736 0 -0.23852047 0.14741376 -0.38593423
0.015324548 0.051796455 0 -0.23852047 0.14741376 -0.38593423
0.014545376 0.050526597 0 -0.23852047 0.14741376 -0.38593423
0.014155941 0.049892012 0 -0.23852047 0.14741376 -0.38593423
0.013766603 0.049257647 0 -0.23852047 0.14741376 -0.38593423
0.01337736 0.04862351 0 -0.23852047 0.14741376 -0.38593423
0.012988212 0.047989588 0 -0.23852047 0.14741376 -0.38593423
0.012599154 0.047355879 5.5511151e-17 -0.23852047 0.14741376 -0.38593423
0.012210188 0.046722386 0 -0.23852047 0.14741376 -0.38593423
0.011821308 0.046089102 0 -0.23852047 0.14741376 -0.38593423
0.011432515 0.045456022 5.5511151e-17 -0.23852047 0.14741376 -0.38593423
0.011043806 0.044823144 0 -0.23852047 0.14741376 -0.38593423
0.010655179 0.044190466 0 -0.23852047 0.14741376 -0.38593423
0.010266633 0.043557987 0 -0.23852047 0.14741376 -0.38593423
0.0098781642 0.042925697 0 -0.23852047 0.14741376 -0.38593423
0.0094897728 0.042293601 5.5511151e-17 -0.23852047 0.14741376 -0.38593423
0.034766134 0.030701058 0.039999999 -0.23852047 0.14741376 -0.38593423
0.0087132119 0.041029964 0 -0.23852047 0.14741376 -0.38593423
0.0083250385 0.040398419 5.5511151e-17 -0.23852047 0.14741376 -0.38593423
0.0079369349 0.039767049 5.5511151e-17 -0.23852047 0.14741376 -0.38593423
0.0075488975 0.039135855 0 -0.23852047 0.14741376 -0.38593423
0.0071609253 0.038504835 5.5511151e-17 -0.23852047 0.14741376 -0.38593423
0.0067730164 0.03787398 0 -0.23852047 0.14741376 -0.38593423
0.0063851695 0.037243292 5.5511151e-17 -0.23852047 0.14741376 -0.38593423
0.0059973812 0.036612768 0 -0.23852047 0.14741376 -0.38593423
0.0056096511 0.0359824 0 -0.23852047 0.14741376 -0.38593423
0.0052219769 0.035352189 0 -0.23852047 0.14741376 -0.38593423
0.0048343563 0.034722131 0 -0.23852047 0.14741376 -0.38593423
0.0044467878 0.034092225 0 -0.23852047 0.14741376 -0.38593423
0.0040592691 0.033462465 0 -0.23852047 0.14741376 -0.38593423
0.0036717989 0.032832846 0 -0.23852047 0.14741376 -0.38593423
0.003284375 0.032203369 5.5511151e-17 -0.23852047 0.14741376 -0.38593423
0.0028969955 0.031574033 0 -0.23852047 0.14741376 -0.38593423
0.0025096587 0.030944828 0 -0.23852047 0.14741376 -0.38593423
0.0021223626 0.030315755 5.5511151e-17 -0.23852047 0.14741376 -0.38593423
0.026636299 0.017485049 0.039999999 -0.23852047 0.14741376 -0.38593423
0.0013478851 0.029057993 0 -0.23852047 0.14741376 -0.38593423
0.00096070004 0.028429298 0 -0.23852047 0.14741376 -0.38593423
0.0005735482 0.02780072 0 -0.23852047 0.14741376 -0.38593423
0.024927109 0.014709877 0.039999999 -0.23852047 0.14741376 -0.38593423
0 0.02644214 0.00032495323 -0.23852047 0.14741376 -0.38593423
2.7755576e-17 0.025615558 0.00095331046 -0.23852047 0.14741376 -0.38593423
2.7755576e-17 0.024786403 0.0015836733 -0.23852047 0.14741376 -0.38593423
0 0.023954658 0.0022160544 -0.23852047 0.14741376 -0.38593423
0 0.023120308 0.0028504666 -0.23852047 0.14741376 -0.38593423
0 0.022283334 0.0034869229 -0.23852047 0.14741376 -0.38593423
0 0.021443723 0.0041254363 -0.23852047 0.14741376 -0.38593423
0 0.020601455 0.0047660195 -0.23852047 0.14741376 -0.38593423
0 0.019756515 0.0054086857 -0.23852047 0.14741376 -0.38593423
0 0.018908884 0.0060534487 -0.23852047 0.14741376 -0.38593423
0 0.018058546 0.0067003216 -0.23852047 0.14741376 -0.38593423
2.7755576e-17 0.017205484 0.0073493174 -0.23852047 0.14741376 -0.38593423
2.7755576e-17 0.016349679 0.0080004502 -0.23852047 0.14741376 -0.38593423
0 0.015491113 0.0086537339 -0.23852047 0.14741376 -0.38593423
2.7755576e-17 0.01462977 0.0093091829 -0.23852047 0.14741376 -0.38593423
2.7755576e-17 0.01376563 0.0099668093 -0.23852047 0.14741376 -0.38593423
2.7755576e-17 0.012898677 0.010626629 -0.23852047 0.14741376 -0.38593423
0 0.012028892 0.011288654 -0.23852047 0.14741376 -0.38593423
2.7755576e-17 0.011156255 0.011952901 -0.23852047 0.14741376 -0.38593423
0 0.01028075 0.012619384 -0.23852047 0.14741376 -0.38593423
0 0.0094023561 0.013288116 -0.23852047 0.14741376 -0.38593423
2.7755576e-17 0.0085210549 0.013959113 -0.23852047 0.14741376 -0.38593423
0 0.0076368279 0.014632389 -0.23852047 0.14741376 -0.38593423
0.011445215 0 0.034561247 -0.23852047 0.14741376 -0.38593423
2.7755576e-17 0.0058595184 0.015985839 -0.23852047 0.14741376 -0.38593423
2.7755576e-17 0.0049663973 0.016666042 -0.23852047 0.14741376 -0.38593423
0 0.0040702722 0.017348586 -0.23852047 0.14741376 -0.38593423
0 0.0031711233 0.018033484 -0.23852047 0.14741376 -0.38593423
2.7755576e-17 0.0022689309 0.018720752 -0.23852047 0.14741376 -0.38593423
0 0.0013636743 0.019410407 -0.23852047 0.14741376 -0.38593423
2.7755576e-17 0.00045533344 0.020102464 -0.23852047 0.14741376 -0.38593423
0.037989907 0.079999998 0.0053376914 -0.23852047 0.14741376 -0.38593423
0.03491516 0.079999998 0.001551001 -0.23852047 0.14741376 -0.38593423
0.033423755 0.079620406 0 -0.23852047 0.14741376 -0.38593423
0.033027034 0.078971356 0 -0.23852047 0.14741376 -0.38593423
0.032630503 0.078322679 5.5511151e-17 -0.23852047 0.14741376 -0.38593423
0.032234158 0.077674381 0 -0.23852047 0.14741376 -0.38593423
0.031838004 0.077026442 0 -0.23852047 0.14741376 -0.38593423
0.031442035 0.076378874 0 -0.23852047 0.14741376 -0.38593423
0.031046249 0.075731665 5.5511151e-17 -0.23852047 0.14741376 -0.38593423
0.030650644 0.075084813 0 -0.23852047 0.14741376 -0.38593423
0.029859968 0.073792174 0 -0.23852047 0.14741376 -0.38593423
0.029464891 0.07314638 0 -0.23852047 0.14741376 -0.38593423
0.02906999 0.072500929 5.5511151e-17 -0.23852047 0.14741376 -0.38593423
0.028280696 0.071211055 0 -0.23852047 0.14741376 -0.38593423
0.027886301 0.070566617 0 -0.23852047 0.14741376 -0.38593423
0.027492071 0.069922514 0 -0.23852047 0.14741376 -0.38593423
0.027098002 0.069278739 0 -0.23852047 0.14741376 -0.38593423
0.026310345 0.067992151 0 -0.23852047 0.14741376 -0.38593423
0.025916753 0.067349344 0 -0.23852047 0.14741376 -0.38593423
0.025523316 0.066706844 0 -0.23852047 0.14741376 -0.38593423
0.025130032 0.066064656 0 -0.23852047 0.14741376 -0.38593423
0.024736896 0.065422781 5.5511151e-17 -0.23852047 0.14741376 -0.38593423
0.024343912 0.064781204 0 -0.23852047 0.14741376 -0.38593423
0.023558378 0.063498959 0 -0.23852047 0.14741376 -0.38593423
0.023165828 0.062858284 0 -0.23852047 0.14741376 -0.38593423
0.022381146 0.061577797 0 -0.23852047 0.14741376 -0.38593423
0.02198901 0.060937986 0 -0.23852047 0.14741376 -0.38593423
0.021597011 0.060298454 5.5511151e-17 -0.23852047 0.14741376 -0.38593423
0.021205144 0.059659202 5.5511151e-17 -0.23852047 0.14741376 -0.38593423
0.020813407 0.059020225 0 -0.23852047 0.14741376 -0.38593423
0.020421799 0.058381516 0 -0.23852047 0.14741376 -0.38593423
0.019638963 0.057104912 0 -0.23852047 0.14741376 -0.38593423
0.018465627 0.05519196 5.5511151e-17 -0.23852047 0.14741376 -0.38593423
0.018074753 0.05455482 0 -0.23852047 0.14741376 -0.38593423
0.017683992 0.05391793 0 -0.23852047 0.14741376 -0.38593423
0.017293345 0.053281285 0 -0.23852047 0.14741376 -0.38593423
0.01690281 0.052644886 0 -0.23852047 0.14741376 -0.38593423
0.015731854 0.050737109 5.5511151e-17 -0.23852047 0.14741376 -0.38593423
0.014951738 0.049466416 0 -0.23852047 0.14741376 -0.38593423
0.01456183 0.048831411 5.5511151e-17 -0.23852047 0.14741376 -0.38593423
0.014172019 0.048196621 0 -0.23852047 0.14741376 -0.38593423
0.013782306 0.047562052 0 -0.23852047 0.14741376 -0.38593423
0.013392686 0.046927698 0 -0.23852047 0.14741376 -0.38593423
0.013003158 0.046293553 0 -0.23852047 0.14741376 -0.38593423
0.01261372 0.045659617 5.5511151e-17 -0.23852047 0.14741376 -0.38593423
0.012224371 0.045025889 0 -0.23852047 0.14741376 -0.38593423
0.011835108 0.044392359 0 -0.23852047 0.14741376 -0.38593423
0.011445929 0.043759029 0 -0.23852047 0.14741376 -0.38593423
0.036924172 0.03231702 0.039999999 -0.23852047 0.14741376 -0.38593423
0.010667817 0.042492956 0 -0.23852047 0.14741376 -0.38593423
0.01027888 0.041860204 0 -0.23852047 0.14741376 -0.38593423
0.0098900199 0.041227639 0 -0.23852047 0.14741376 -0.38593423
0.0095012346 0.04059526 0 -0.23852047 0.14741376 -0.38593423
0.009112522 0.039963055 5.5511151e-17 -0.23852047 0.14741376 -0.38593423
0.0087238811 0.03933103 5.5511151e-17 -0.23852047 0.14741376 -0.38593423
0.0083353091 0.03869918 0 -0.23852047 0.14741376 -0.38593423
0.0079468042 0.038067501 0 -0.23852047 0.14741376 -0.38593423
0.0075583644 0.03743599 5.5511151e-17 -0.23852047 0.14741376 -0.38593423
0.0071699885 0.036804643 0 -0.23852047 0.14741376 -0.38593423
0.0067816745 0.036173455 0 -0.23852047 0.14741376 -0.38593423
0.00639342 0.035542428 5.5511151e-17 -0.23852047 0.14741376 -0.38593423
0.0060052229 0.034911558 0 -0.23852047 0.14741376 -0.38593423
0.030920621 0.022555221 0.039999999 -0.23852047 0.14741376 -0.38593423
0.0052289958 0.033650268 0 -0.23852047 0.14741376 -0.38593423
0.0048409612 0.033019841 0 -0.23852047 0.14741376 -0.38593423
0.029635863 0.020467924 0.039999999 -0.23852047 0.14741376 -0.38593423
0.004065041 0.031759419 0 -0.23852047 0.14741376 -0.38593423
0.0036771516 0.031129414 0 -0.23852047 0.14741376 -0.38593423
0.003289307 0.030499544 0 -0.23852047 0.14741376 -0.38593423
0.02792359 0.017687006 0.039999999 -0.23852047 0.14741376 -0.38593423
0.0025137439 0.029240191 0 -0.23852047 0.14741376 -0.38593423
0.002126022 0.028610703 0 -0.23852047 0.14741376 -0.38593423
0.0017383371 0.027981337 0 -0.23852047 0.14741376 -0.38593423
0.0013506875 0.027352089 5.5511151e-17 -0.23852047 0.14741376 -0.38593423
0.00096307124 0.026722956 0 -0.23852047 0.14741376 -0.38593423
0.025356492 0.013519791 0.039999999 -0.23852047 0.14741376 -0.38593423
0.024928769 0.012825697 0.039999999 -0.23852047 0.14741376 -0.38593423
0 0.024733562 0.0003232235 -0.23852047 0.14741376 -0.38593423
2.7755576e-17 0.02390351 0.00095228746 -0.23852047 0.14741376 -0.38593423
0 0.023070864 0.0015833647 -0.23852047 0.14741376 -0.38593423
2.7755576e-17 0.022235606 0.0022164676 -0.23852047 0.14741376 -0.38593423
0 0.021397721 0.0028516094 -0.23852047 0.14741376 -0.38593423
0 0.020557189 0.0034888028 -0.23852047 0.14741376 -0.38593423
2.7755576e-17 0.019713998 0.0041280608 -0.23852047 0.14741376 -0.38593423
2.7755576e-17 0.018868126 0.004769397 -0.23852047 0.14741376 -0.38593423
2.7755576e-17 0.018019559 0.005412824 -0.23852047 0.14741376 -0.38593423
0 0.017168278 0.0060583558 -0.23852047 0.14741376 -0.38593423
0 0.016314266 0.0067060054 -0.23852047 0.14741376 -0.38593423
0 0.015457507 0.0073557864 -0.23852047 0.14741376 -0.38593423
0 0.014597981 0.0080077127 -0.23852047 0.14741376 -0.38593423
0 0.013735672 0.0086617973 -0.23852047 0.14741376 -0.38593423
2.7755576e-17 0.012870559 0.0093180556 -0.23852047 0.14741376 -0.38593423
0 0.012002626 0.0099765006 -0.23852047 0.14741376 -0.38593423
0 0.011131856 0.010637147 -0.23852047 0.14741376 -0.38593423
0 0.010258228 0.011300009 -0.23852047 0.14741376 -0.38593423
2.7755576e-17 0.0093817245 0.0119651 -0.23852047 0.14741376 -0.38593423
0 0.008502326 0.012632434 -0.23852047 0.14741376 -0.38593423
2.7755576e-17 0.0076200152 0.013302029 -0.23852047 0.14741376 -0.38593423
2.7755576e-17 0.0067347712 0.013973896 -0.23852047 0.14741376 -0.38593423
2.7755576e-17 0.0058465754 0.014648052 -0.23852047 0.14741376 -0.38593423
0 0.0049554086 0.015324512 -0.23852047 0.14741376 -0.38593423
2.7755576e-17 0.0040612514 0.016003288 -0.23852047 0.14741376 -0.38593423
0 0.0031640835 0.0166844 -0.23852047 0.14741376 -0.38593423
2.7755576e-17 0.0022638852 0.01736786 -0.23852047 0.14741376 -0.38593423
0 0.0013606367 0.018053684 -0.23852047 0.14741376 -0.38593423
0 0.00045431746 0.018741889 -0.23852047 0.14741376 -0.38593423
0.03719072 0.079999998 0.0030253851 -0.23852047 0.14741376 -0.38593423
0.034648396 0.079873912 0 -0.23852047 0.14741376 -0.38593423
0.034250792 0.079223849 0 -0.23852047 0.14741376 -0.38593423
0.033853386 0.078574166 0 -0.23852047 0.14741376 -0.38593423
0.033456173 0.077924863 0 -0.23852047 0.14741376 -0.38593423
0.03305915 0.077275932 0 -0.23852047 0.14741376 -0.38593423
0.032662321 0.076627359 0 -0.23852047 0.14741376 -0.38593423
0.032265674 0.075979158 0 -0.23852047 0.14741376 -0.38593423
0.031869218 0.075331323 0 -0.23852047 0.14741376 -0.38593423
0.031472944 0.074683838 0 -0.23852047 0.14741376 -0.38593423
0.031076849 0.074036717 5.5511151e-17 -0.23852047 0.14741376 -0.38593423
0.030680936 0.07338994 0 -0.23852047 0.14741376 -0.38593423
0.030285198 0.072743513 0 -0.23852047 0.14741376 -0.38593423
0.02949425 0.071451686 0 -0.23852047 0.14741376 -0.38593423
0.029099034 0.07080628 0 -0.23852047 0.14741376 -0.38593423
0.028703988 0.070161216 5.5511151e-17 -0.23852047 0.14741376 -0.38593423
0.028309107 0.069516473 0 -0.23852047 0.14741376 -0.38593423
0.027914392 0.068872064 0 -0.23852047 0.14741376 -0.38593423
0.027519841 0.068227977 0 -0.23852047 0.14741376 -0.38593423
0.02712545 0.067584217 0 -0.23852047 0.14741376 -0.38593423
0.026731219 0.06694077 0 -0.23852047 0.14741376 -0.38593423
0.026337145 0.066297635 0 -0.23852047 0.14741376 -0.38593423
0.025943227 0.065654814 0 -0.23852047 0.14741376 -0.38593423
0.02554946 0.065012299 0 -0.23852047 0.14741376 -0.38593423
0.025155846 0.064370088 5.5511151e-17 -0.23852047 0.14741376 -0.38593423
0.024762381 0.063728176 0 -0.23852047 0.14741376 -0.38593423
0.024369063 0.063086569 0 -0.23852047 0.14741376 -0.38593423
0.023582859 0.061804228 0 -0.23852047 0.14741376 -0.38593423
0.023189969 0.061163493 5.5511151e-17 -0.23852047 0.14741376 -0.38593423
0.022797219 0.060523037 0 -0.23852047 0.14741376 -0.38593423
0.022404607 0.059882868 5.5511151e-17 -0.23852047 0.14741376 -0.38593423
0.022012129 0.059242975 0 -0.23852047 0.14741376 -0.38593423
0.021619786 0.058603358 0 -0.23852047 0.14741376 -0.38593423
0.021227572 0.057964012 0 -0.23852047 0.14741376 -0.38593423
0.020835489 0.057324935 0 -0.23852047 0.14741376 -0.38593423
0.020443533 0.056686122 0 -0.23852047 0.14741376 -0.38593423
0.019659994 0.055409282 0 -0.23852047 0.14741376 -0.38593423
0.019268408 0.054771245 5.5511151e-17 -0.23852047 0.14741376 -0.38593423
0.018485593 0.053495929 0 -0.23852047 0.14741376 -0.38593423
0.018094359 0.05285864 5.5511151e-17 -0.23852047 0.14741376 -0.38593423
0.017703239 0.052221593 0 -0.23852047 0.14741376 -0.38593423
0.017312231 0.051584788 0 -0.23852047 0.14741376 -0.38593423
0.016921332 0.050948218 0 -0.23852047 0.14741376 -0.38593423
0.016139857 0.049675774 0 -0.23852047 0.14741376 -0.38593423
0.015749276 0.049039893 0 -0.23852047 0.14741376 -0.38593423
0.015358798 0.048404235 0 -0.23852047 0.14741376 -0.38593423
0.014968419 0.047768801 5.5511151e-17 -0.23852047 0.14741376 -0.38593423
0.014578138 0.04713358 5.5511151e-17 -0.23852047 0.14741376 -0.38593423
0.039949298 0.035338674 0.039999999 -0.23852047 0.14741376 -0.38593423
0.013407866 0.045229197 0 -0.23852047 0.14741376 -0.38593423
0.039088558 0.033938184 0.039999999 -0.23852047 0.14741376 -0.38593423
0.01262814 0.043960631 0 -0.23852047 0.14741376 -0.38593423
0.012238408 0.04332665 0 -0.23852047 0.14741376 -0.38593423
0.01184876 0.042692862 0 -0.23852047 0.14741376 -0.38593423
0.011459195 0.042059269 0 -0.23852047 0.14741376 -0.38593423
0.011069711 0.041425861 0 -0.23852047 0.14741376 -0.38593423
0.010680307 0.04079264 0 -0.23852047 0.14741376 -0.38593423
0.010290978 0.040159602 5.5511151e-17 -0.23852047 0.14741376 -0.38593423
0.0099017257 0.039526746 0 -0.23852047 0.14741376 -0.38593423
0.0095125465 0.038894061 0 -0.23852047 0.14741376 -0.38593423
0.009123438 0.038261551 0 -0.23852047 0.14741376 -0.38593423
0.0087343985 0.037629213 0 -0.23852047 0.14741376 -0.38593423
0.0083454279 0.036997043 0 -0.23852047 0.14741376 -0.38593423
0.0079565216 0.036365036 0 -0.23852047 0.14741376 -0.38593423
0.033073388 0.024158098 0.039999999 -0.23852047 0.14741376 -0.38593423
0.0071788994 0.035101499 0 -0.23852047 0.14741376 -0.38593423
0.0067901793 0.034469962 5.5511151e-17 -0.23852047 0.14741376 -0.38593423
0.006401517 0.033838581 0 -0.23852047 0.14741376 -0.38593423
0.0060129105 0.033207346 0 -0.23852047 0.14741376 -0.38593423
0.030928653 0.020673968 0.039999999 -0.23852047 0.14741376 -0.38593423
0.0052358592 0.031945307 0 -0.23852047 0.14741376 -0.38593423
0.0048474101 0.0313145 0 -0.23852047 0.14741376 -0.38593423
0.0044590095 0.030683827 0 -0.23852047 0.14741376 -0.38593423
0.0040706559 0.030053288 0 -0.23852047 0.14741376 -0.38593423
0.0036823468 0.029422879 5.5511151e-17 -0.23852047 0.14741376 -0.38593423
0.0032940807 0.028792597 0 -0.23852047 0.14741376 -0.38593423
0.0029058557 0.028162438 0 -0.23852047 0.14741376 -0.38593423
0.0025176697 0.027532401 5.5511151e-17 -0.23852047 0.14741376 -0.38593423
0.002129521 0.02690248 5.5511151e-17 -0.23852047 0.14741376 -0.38593423
0.0017414078 0.026272673 0 -0.23852047 0.14741376 -0.38593423
0.001353328 0.02564298 0 -0.23852047 0.14741376 -0.38593423
0.00096527993 0.025013393 0 -0.23852047 0.14741376 -0.38593423
0.00057726161 0.024383914 5.5511151e-17 -0.23852047 0.14741376 -0.38593423
0.00018927116 0.023754535 0 -0.23852047 0.14741376 -0.38593423
0 0.023021635 0.00032176054 -0.23852047 0.14741376 -0.38593423
2.7755576e-17 0.022188084 0.00095153344 -0.23852047 0.14741376 -0.38593423
0 0.021351919 0.001583327 -0.23852047 0.14741376 -0.38593423
0 0.020513117 0.002217154 -0.23852047 0.14741376 -0.38593423
0 0.019671666 0.0028530275 -0.23852047 0.14741376 -0.38593423
0 0.018827546 0.0034909602 -0.23852047 0.14741376 -0.38593423
0 0.017980741 0.0041309656 -0.23852047 0.14741376 -0.38593423
0 0.017131235 0.0047730571 -0.23852047 0.14741376 -0.38593423
0 0.016279012 0.0054172468 -0.23852047 0.14741376 -0.38593423
2.7755576e-17 0.015424049 0.0060635498 -0.23852047 0.14741376 -0.38593423
0 0.014566333 0.0067119785 -0.23852047 0.14741376 -0.38593423
0 0.013705844 0.0073625469 -0.23852047 0.14741376 -0.38593423
0.01936546 0.0019167394 0.039999999 -0.23852047 0.14741376 -0.38593423
2.7755576e-17 0.011976478 0.0086701578 -0.23852047 0.14741376 -0.38593423
0 0.011107565 0.0093272291 -0.23852047 0.14741376 -0.38593423
2.7755576e-17 0.010235807 0.0099864947 -0.23852047 0.14741376 -0.38593423
0.016173797 0 0.037539747 -0.23852047 0.14741376 -0.38593423
2.7755576e-17 0.0076032775 0.011977608 -0.23852047 0.14741376 -0.38593423
0 0.0067199534 0.012645799 -0.23852047 0.14741376 -0.38593423
2.7755576e-17 0.0058336905 0.013316258 -0.23852047 0.14741376 -0.38593423
2.7755576e-17 0.0049444693 0.013988999 -0.23852047 0.14741376 -0.38593423
2.7755576e-17 0.0040522711 0.014664037 -0.23852047 0.14741376 -0.38593423
0 0.003157075 0.015341389 -0.23852047 0.14741376 -0.38593423
0 0.0022588624 0.016021067 -0.23852047 0.14741376 -0.38593423
2.7755576e-17 0.0013576127 0.01670309 -0.23852047 0.14741376 -0.38593423
2.7755576e-17 0.00045330604 0.01738747 -0.23852047 0.14741376 -0.38593423
0.039490331 0.079999998 0.0045155338 -0.23852047 0.14741376 -0.38593423
0.036399174 0.079999998 0.00073519989 -0.23852047 0.14741376 -0.38593423
0.035477959 0.079477102 5.5511151e-17 -0.23852047 0.14741376 -0.38593423
0.035079669 0.078826413 0 -0.23852047 0.14741376 -0.38593423
0.034681574 0.078176096 0 -0.23852047 0.14741376 -0.38593423
0.034283675 0.07752616 0 -0.23852047 0.14741376 -0.38593423
0.033885974 0.076876596 0 -0.23852047 0.14741376 -0.38593423
0.032694012 0.074930094 0 -0.23852047 0.14741376 -0.38593423
0.032297064 0.074281976 5.5511151e-17 -0.23852047 0.14741376 -0.38593423
0.031900302 0.073634215 0 -0.23852047 0.14741376 -0.38593423
0.031107323 0.072339751 0 -0.23852047 0.14741376 -0.38593423
0.030711101 0.071693033 5.5511151e-17 -0.23852047 0.14741376 -0.38593423
0.030315055 0.071046658 5.5511151e-17 -0.23852047 0.14741376 -0.38593423
0.029919183 0.070400618 0 -0.23852047 0.14741376 -0.38593423
0.029523483 0.069754913 0 -0.23852047 0.14741376 -0.38593423
0.029127952 0.069109537 0 -0.23852047 0.14741376 -0.38593423
0.028732589 0.068464495 5.5511151e-17 -0.23852047 0.14741376 -0.38593423
0.028337391 0.067819774 0 -0.23852047 0.14741376 -0.38593423
0.027547486 0.066531286 0 -0.23852047 0.14741376 -0.38593423
0.027152773 0.065887518 0 -0.23852047 0.14741376 -0.38593423
0.026758218 0.065244056 5.5511151e-17 -0.23852047 0.14741376 -0.38593423
0.026363818 0.064600907 0 -0.23852047 0.14741376 -0.38593423
0.025969572 0.063958064 0 -0.23852047 0.14741376 -0.38593423
0.025575479 0.063315511 0 -0.23852047 0.14741376 -0.38593423
0.025181534 0.062673263 0 -0.23852047 0.14741376 -0.38593423
0.024787737 0.06203131 5.5511151e-17 -0.23852047 0.14741376 -0.38593423
0.024000578 0.060748272 0 -0.23852047 0.14741376 -0.38593423
0.023607211 0.060107179 0 -0.23852047 0.14741376 -0.38593423
0.023213984 0.059466366 5.5511151e-17 -0.23852047 0.14741376 -0.38593423
0.022820896 0.058825832 5.5511151e-17 -0.23852047 0.14741376 -0.38593423
0.022427941 0.058185574 0 -0.23852047 0.14741376 -0.38593423
0.02203512 0.057545587 0 -0.23852047 0.14741376 -0.38593423
0.021642432 0.056905869 0 -0.23852047 0.14741376 -0.38593423
0.021249874 0.056266412 5.5511151e-17 -0.23852047 0.14741376 -0.38593423
0.020857442 0.055627219 0 -0.23852047 0.14741376 -0.38593423
0.020465137 0.054988284 0 -0.23852047 0.14741376 -0.38593423
0.020072956 0.054349605 0 -0.23852047 0.14741376 -0.38593423
0.019680897 0.053711176 0 -0.23852047 0.14741376 -0.38593423
0.018897135 0.052435063 0 -0.23852047 0.14741376 -0.38593423
0.017722355 0.0505227 5.5511151e-17 -0.23852047 0.14741376 -0.38593423
0.017330986 0.049885716 0 -0.23852047 0.14741376 -0.38593423
0.016939724 0.04924896 0 -0.23852047 0.14741376 -0.38593423
0.016548568 0.048612431 0 -0.23852047 0.14741376 -0.38593423
0.015375718 0.046704169 0 -0.23852047 0.14741376 -0.38593423
0.014984968 0.046068512 5.5511151e-17 -0.23852047 0.14741376 -0.38593423
0.014594315 0.045433067 5.5511151e-17 -0.23852047 0.14741376 -0.38593423
0.013813289 0.044162791 5.5511151e-17 -0.23852047 0.14741376 -0.38593423
0.013422913 0.043527957 0 -0.23852047 0.14741376 -0.38593423
0.013032625 0.04289332 5.5511151e-17 -0.23852047 0.14741376 -0.38593423
