# .PCD v0.7 - Point Cloud Data file format
VERSION 0.7
FIELDS x y z vp_x vp_y vp_z
SIZE 4 4 4 4 4 4
TYPE F F F F F F
COUNT 1 1 1 1 1 1
WIDTH 741
HEIGHT 1
VIEWPOINT 0 0 0 1 0 0 0
POINTS 741
DATA ascii
0.025989056 0.038785391 0 -0.23852047 -0.14741376 -0.38593423
0.026401998 0.038112193 5.5511151e-17 -0.23852047 -0.14741376 -0.38593423
0.026814984 0.037439141 0 -0.23852047 -0.14741376 -0.38593423
0.027228013 0.036766227 0 -0.23852047 -0.14741376 -0.38593423
0.02764109 0.036093447 0 -0.23852047 -0.14741376 -0.38593423
0.028467391 0.034748275 0 -0.23852047 -0.14741376 -0.38593423
0.02888062 0.034075879 0 -0.23852047 -0.14741376 -0.38593423
0.029707247 0.032731444 0 -0.23852047 -0.14741376 -0.38593423
0.030120648 0.032059398 5.5511151e-17 -0.23852047 -0.14741376 -0.38593423
0.030947641 0.030715633 0 -0.23852047 -0.14741376 -0.38593423
0.031774897 0.029372279 0 -0.23852047 -0.14741376 -0.38593423
0.032188632 0.028700747 5.5511151e-17 -0.23852047 -0.14741376 -0.38593423
0.032602437 0.028029306 0 -0.23852047 -0.14741376 -0.38593423
0.033016317 0.027357955 0 -0.23852047 -0.14741376 -0.38593423
0.033430275 0.026686687 0 -0.23852047 -0.14741376 -0.38593423
0.034258433 0.025344392 0 -0.23852047 -0.14741376 -0.38593423
0.034672637 0.024673358 0 -0.23852047 -0.14741376 -0.38593423
0.035086926 0.024002394 0 -0.23852047 -0.14741376 -0.38593423
0.035501305 0.023331497 0 -0.23852047 -0.14741376 -0.38593423
0.035915773 0.022660663 0 -0.23852047 -0.14741376 -0.38593423
0.036330335 0.021989889 0 -0.23852047 -0.14741376 -0.38593423
0.036744989 0.021319171 5.5511151e-17 -0.23852047 -0.14741376 -0.38593423
0.037159745 0.020648507 0 -0.23852047 -0.14741376 -0.38593423
0.037574597 0.01997789 0 -0.23852047 -0.14741376 -0.38593423
0.037989549 0.019307319 0 -0.23852047 -0.14741376 -0.38593423
0.038404606 0.018636791 0 -0.23852047 -0.14741376 -0.38593423
0.038819771 0.0179663 0 -0.23852047 -0.14741376 -0.38593423
0.039235044 0.017295845 0 -0.23852047 -0.14741376 -0.38593423
0.039650425 0.016625421 0 -0.23852047 -0.14741376 -0.38593423
0.0024647117 0.079503864 0 -0.23852047 -0.14741376 -0.38593423
0.002879384 0.078814782 0 -0.23852047 -0.14741376 -0.38593423
0.0053031174 0.079999998 0.0032065858 -0.23852047 -0.14741376 -0.38593423
0.0064687757 0.079999998 0.0043978877 -0.23852047 -0.14741376 -0.38593423
0.0041228915 0.07674972 0 -0.23852047 -0.14741376 -0.38593423
0.0045372318 0.076062083 0 -0.23852047 -0.14741376 -0.38593423
0.0049514947 0.07537479 0 -0.23852047 -0.14741376 -0.38593423
0.0053656823 0.074687839 0 -0.23852047 -0.14741376 -0.38593423
0.0057797967 0.07400123 0 -0.23852047 -0.14741376 -0.38593423
0.0061938413 0.073314965 5.5511151e-17 -0.23852047 -0.14741376 -0.38593423
0.006607817 0.072629027 0 -0.23852047 -0.14741376 -0.38593423
0.0070217266 0.071943425 0 -0.23852047 -0.14741376 -0.38593423
0.0074355723 0.071258143 0 -0.23852047 -0.14741376 -0.38593423
0.0078493562 0.070573181 5.5511151e-17 -0.23852047 -0.14741376 -0.38593423
0.0082630813 0.069888547 0 -0.23852047 -0.14741376 -0.38593423
0.0086767487 0.069204219 0 -0.23852047 -0.14741376 -0.38593423
0.0090903612 0.068520203 0 -0.23852047 -0.14741376 -0.38593423
0.0095039215 0.067836501 0 -0.23852047 -0.14741376 -0.38593423
0.0099174306 0.067153096 0 -0.23852047 -0.14741376 -0.38593423
0.010330892 0.06646999 0 -0.23852047 -0.14741376 -0.38593423
0.010744307 0.065787181 5.5511151e-17 -0.23852047 -0.14741376 -0.38593423
0.011157678 0.065104663 0 -0.23852047 -0.14741376 -0.38593423
0.011571009 0.064422429 5.5511151e-17 -0.23852047 -0.14741376 -0.38593423
0.011984299 0.063740484 0 -0.23852047 -0.14741376 -0.38593423
0.012397553 0.063058823 0 -0.23852047 -0.14741376 -0.38593423
0.012810771 0.06237743 0 -0.23852047 -0.14741376 -0.38593423
0.013223957 0.061696313 0 -0.23852047 -0.14741376 -0.38593423
0.013637113 0.061015468 0 -0.23852047 -0.14741376 -0.38593423
0.037958127 0.079999998 0.036531836 -0.23852047 -0.14741376 -0.38593423
0.014463342 0.059654567 0 -0.23852047 -0.14741376 -0.38593423
0.01487642 0.058974504 0 -0.23852047 -0.14741376 -0.38593423
0.015289475 0.058294695 0 -0.23852047 -0.14741376 -0.38593423
0.015702512 0.057615139 0 -0.23852047 -0.14741376 -0.38593423
0.016115531 0.056935824 0 -0.23852047 -0.14741376 -0.38593423
0.016528536 0.056256756 0 -0.23852047 -0.14741376 -0.38593423
0.016941527 0.055577926 0 -0.23852047 -0.14741376 -0.38593423
0.017354509 0.054899335 0 -0.23852047 -0.14741376 -0.38593423
0.017767482 0.054220971 0 -0.23852047 -0.14741376 -0.38593423
0.018180449 0.053542838 0 -0.23852047 -0.14741376 -0.38593423
0.01859341 0.052864928 0 -0.23852047 -0.14741376 -0.38593423
0.019006371 0.052187238 0 -0.23852047 -0.14741376 -0.38593423
0.019419333 0.051509768 0 -0.23852047 -0.14741376 -0.38593423
0.019832298 0.050832506 0 -0.23852047 -0.14741376 -0.38593423
0.020245267 0.050155457 0 -0.23852047 -0.14741376 -0.38593423
0.020658243 0.049478617 0 -0.23852047 -0.14741376 -0.38593423
0.021071229 0.048801973 5.5511151e-17 -0.23852047 -0.14741376 -0.38593423
0.021484226 0.048125532 0 -0.23852047 -0.14741376 -0.38593423
0.021897236 0.047449287 0 -0.23852047 -0.14741376 -0.38593423
0.022310263 0.046773229 0 -0.23852047 -0.14741376 -0.38593423
0.022723308 0.046097361 5.5511151e-17 -0.23852047 -0.14741376 -0.38593423
0.023136372 0.045421675 0 -0.23852047 -0.14741376 -0.38593423
0.02354946 0.044746172 0 -0.23852047 -0.14741376 -0.38593423
0.023962572 0.044070844 5.5511151e-17 -0.23852047 -0.14741376 -0.38593423
0.024375711 0.043395691 0 -0.23852047 -0.14741376 -0.38593423
0.024788879 0.042720705 0 -0.23852047 -0.14741376 -0.38593423
0.025202079 0.042045888 5.5511151e-17 -0.23852047 -0.14741376 -0.38593423
0.02561531 0.04137123 5.5511151e-17 -0.23852047 -0.14741376 -0.38593423
0.026028579 0.040696729 0 -0.23852047 -0.14741376 -0.38593423
0.026441885 0.040022384 5.5511151e-17 -0.23852047 -0.14741376 -0.38593423
0.02726862 0.03867415 0 -0.23852047 -0.14741376 -0.38593423
0.027682053 0.038000248 0 -0.23852047 -0.14741376 -0.38593423
0.028095532 0.037326485 5.5511151e-17 -0.23852047 -0.14741376 -0.38593423
0.02892264 0.035979372 0 -0.23852047 -0.14741376 -0.38593423
0.029336274 0.03530601 0 -0.23852047 -0.14741376 -0.38593423
0.029749962 0.034632772 0 -0.23852047 -0.14741376 -0.38593423
0.030163707 0.033959661 0 -0.23852047 -0.14741376 -0.38593423
0.030577512 0.033286665 0 -0.23852047 -0.14741376 -0.38593423
0.030991379 0.032613788 0 -0.23852047 -0.14741376 -0.38593423
0.031405311 0.031941019 0 -0.23852047 -0.14741376 -0.38593423
0.032233376 0.030595804 0 -0.23852047 -0.14741376 -0.38593423
0.032647513 0.029923348 0 -0.23852047 -0.14741376 -0.38593423
0.033061724 0.029250991 0 -0.23852047 -0.14741376 -0.38593423
0.033890374 0.02790655 0 -0.23852047 -0.14741376 -0.38593423
0.034304816 0.027234463 0 -0.23852047 -0.14741376 -0.38593423
0.034719341 0.026562456 0 -0.23852047 -0.14741376 -0.38593423
0.03513395 0.025890531 0 -0.23852047 -0.14741376 -0.38593423
0.035548646 0.025218681 5.5511151e-17 -0.23852047 -0.14741376 -0.38593423
0.035963427 0.024546901 0 -0.23852047 -0.14741376 -0.38593423
0.036378302 0.02387519 0 -0.23852047 -0.14741376 -0.38593423
0.036793269 0.023203544 5.5511151e-17 -0.23852047 -0.14741376 -0.38593423
0.03720833 0.02253196 5.5511151e-17 -0.23852047 -0.14741376 -0.38593423
0.037623491 0.021860434 0 -0.23852047 -0.14741376 -0.38593423
0.038038749 0.021188961 0 -0.23852047 -0.14741376 -0.38593423
0.038454108 0.020517539 5.5511151e-17 -0.23852047 -0.14741376 -0.38593423
0.038869575 0.019846164 0 -0.23852047 -0.14741376 -0.38593423
0.039285146 0.019174833 0 -0.23852047 -0.14741376 -0.38593423
0.039700825 0.018503541 0 -0.23852047 -0.14741376 -0.38593423
0.0037256482 0.079431839 0 -0.23852047 -0.14741376 -0.38593423
0.0041405582 0.078742154 0 -0.23852047 -0.14741376 -0.38593423
0.0045553865 0.078052834 0 -0.23852047 -0.14741376 -0.38593423
0.0049701342 0.077363871 0 -0.23852047 -0.14741376 -0.38593423
0.0053848047 0.076675259 5.5511151e-17 -0.23852047 -0.14741376 -0.38593423
0.0057993997 0.075987004 0 -0.23852047 -0.14741376 -0.38593423
0.0062139216 0.075299092 0 -0.23852047 -0.14741376 -0.38593423
0.0066283722 0.07461153 0 -0.23852047 -0.14741376 -0.38593423
0.0070427549 0.073924303 0 -0.23852047 -0.14741376 -0.38593423
0.0074570705 0.073237412 0 -0.23852047 -0.14741376 -0.38593423
0.0078713223 0.072550856 0 -0.23852047 -0.14741376 -0.38593423
0.0082855122 0.071864627 5.5511151e-17 -0.23852047 -0.14741376 -0.38593423
0.0086996425 0.071178727 0 -0.23852047 -0.14741376 -0.38593423
0.009113715 0.070493139 0 -0.23852047 -0.14741376 -0.38593423
0.0095277335 0.069807872 0 -0.23852047 -0.14741376 -0.38593423
0.0099416981 0.069122918 0 -0.23852047 -0.14741376 -0.38593423
0.010355612 0.068438277 0 -0.23852047 -0.14741376 -0.38593423
0.010769478 0.067753933 0 -0.23852047 -0.14741376 -0.38593423
0.011597073 0.066386156 0 -0.23852047 -0.14741376 -0.38593423
0.012010807 0.065702714 0 -0.23852047 -0.14741376 -0.38593423
0.012424502 0.065019555 5.5511151e-17 -0.23852047 -0.14741376 -0.38593423
0.031431314 0.079999998 0.028547797 -0.23852047 -0.14741376 -0.38593423
0.013251781 0.063654095 0 -0.23852047 -0.14741376 -0.38593423
0.01366537 0.062971786 5.5511151e-17 -0.23852047 -0.14741376 -0.38593423
0.014078928 0.062289756 0 -0.23852047 -0.14741376 -0.38593423
0.014492459 0.06160799 5.5511151e-17 -0.23852047 -0.14741376 -0.38593423
0.038107093 0.079999998 0.035332188 -0.23852047 -0.14741376 -0.38593423
0.015319443 0.060245264 0 -0.23852047 -0.14741376 -0.38593423
0.015732901 0.059564292 0 -0.23852047 -0.14741376 -0.38593423
0.016146341 0.058883578 0 -0.23852047 -0.14741376 -0.38593423
0.016559763 0.058203116 0 -0.23852047 -0.14741376 -0.38593423
0.01697317 0.0575229 0 -0.23852047 -0.14741376 -0.38593423
0.017386563 0.056842931 0 -0.23852047 -0.14741376 -0.38593423
0.017799946 0.056163203 5.5511151e-17 -0.23852047 -0.14741376 -0.38593423
0.018213321 0.055483714 5.5511151e-17 -0.23852047 -0.14741376 -0.38593423
0.01862669 0.054804455 0 -0.23852047 -0.14741376 -0.38593423
0.019040054 0.054125428 0 -0.23852047 -0.14741376 -0.38593423
0.019453418 0.053446628 0 -0.23852047 -0.14741376 -0.38593423
0.019866781 0.052768052 0 -0.23852047 -0.14741376 -0.38593423
0.020280147 0.052089691 0 -0.23852047 -0.14741376 -0.38593423
0.020693518 0.051411547 0 -0.23852047 -0.14741376 -0.38593423
0.021106895 0.050733618 5.5511151e-17 -0.23852047 -0.14741376 -0.38593423
0.02193368 0.049378373 0 -0.23852047 -0.14741376 -0.38593423
0.022347093 0.048701055 0 -0.23852047 -0.14741376 -0.38593423
0.022760522 0.048023932 0 -0.23852047 -0.14741376 -0.38593423
0.023173967 0.047347002 0 -0.23852047 -0.14741376 -0.38593423
0.023587434 0.046670262 0 -0.23852047 -0.14741376 -0.38593423
0.024414437 0.045317337 0 -0.23852047 -0.14741376 -0.38593423
0.024827976 0.044641145 0 -0.23852047 -0.14741376 -0.38593423
0.025241546 0.043965124 0 -0.23852047 -0.14741376 -0.38593423
0.025655147 0.043289278 5.5511151e-17 -0.23852047 -0.14741376 -0.38593423
0.026068781 0.042613599 0 -0.23852047 -0.14741376 -0.38593423
0.026482452 0.041938081 0 -0.23852047 -0.14741376 -0.38593423
0.027309908 0.04058753 0 -0.23852047 -0.14741376 -0.38593423
0.027723698 0.039912481 0 -0.23852047 -0.14741376 -0.38593423
0.028137531 0.039237585 5.5511151e-17 -0.23852047 -0.14741376 -0.38593423
0.028551413 0.038562834 5.5511151e-17 -0.23852047 -0.14741376 -0.38593423
0.028965345 0.037888225 0 -0.23852047 -0.14741376 -0.38593423
0.029379325 0.037213754 0 -0.23852047 -0.14741376 -0.38593423
0.029793359 0.03653942 0 -0.23852047 -0.14741376 -0.38593423
0.03020745 0.035865217 0 -0.23852047 -0.14741376 -0.38593423
0.030621598 0.035191141 0 -0.23852047 -0.14741376 -0.38593423
0.031035805 0.034517188 0 -0.23852047 -0.14741376 -0.38593423
0.031864408 0.033169638 5.5511151e-17 -0.23852047 -0.14741376 -0.38593423
0.03227881 0.032496035 0 -0.23852047 -0.14741376 -0.38593423
0.032693282 0.031822544 0 -0.23852047 -0.14741376 -0.38593423
0.033937123 0.029802686 0 -0.23852047 -0.14741376 -0.38593423
0.034351889 0.029129595 0 -0.23852047 -0.14741376 -0.38593423
0.034766737 0.028456597 0 -0.23852047 -0.14741376 -0.38593423
0.035181664 0.027783684 0 -0.23852047 -0.14741376 -0.38593423
0.035596676 0.027110858 0 -0.23852047 -0.14741376 -0.38593423
0.036011778 0.026438111 0 -0.23852047 -0.14741376 -0.38593423
0.036426965 0.025765441 0 -0.23852047 -0.14741376 -0.38593423
0.036842242 0.025092846 0 -0.23852047 -0.14741376 -0.38593423
0.037257612 0.024420319 0 -0.23852047 -0.14741376 -0.38593423
0.038504306 0.022403125 0 -0.23852047 -0.14741376 -0.38593423
0.038920075 0.021730844 0 -0.23852047 -0.14741376 -0.38593423
0.039335944 0.021058613 0 -0.23852047 -0.14741376 -0.38593423
0.039751921 0.020386431 0 -0.23852047 -0.14741376 -0.38593423
0.0049894066 0.079359882 0 -0.23852047 -0.14741376 -0.38593423
0.0068399641 0.079999998 0.0022710706 -0.23852047 -0.14741376 -0.38593423
0.0058196383 0.077979654 0 -0.23852047 -0.14741376 -0.38593423
0.0062346393 0.077290073 0 -0.23852047 -0.14741376 -0.38593423
0.0066495668 0.07660085 0 -0.23852047 -0.14741376 -0.38593423
0.0070644231 0.075911976 0 -0.23852047 -0.14741376 -0.38593423
0.0074792108 0.075223453 0 -0.23852047 -0.14741376 -0.38593423
0.0078939311 0.074535266 0 -0.23852047 -0.14741376 -0.38593423
0.0083085885 0.073847421 0 -0.23852047 -0.14741376 -0.38593423
0.0087231826 0.073159911 0 -0.23852047 -0.14741376 -0.38593423
0.0091377171 0.072472729 5.5511151e-17 -0.23852047 -0.14741376 -0.38593423
0.0095521938 0.071785875 0 -0.23852047 -0.14741376 -0.38593423
0.0099666156 0.071099348 0 -0.23852047 -0.14741376 -0.38593423
0.010380984 0.070413135 0 -0.23852047 -0.14741376 -0.38593423
0.022590222 0.079999998 0.018258225 -0.23852047 -0.14741376 -0.38593423
0.011209571 0.069041654 0 -0.23852047 -0.14741376 -0.38593423
0.011623793 0.068356372 0 -0.23852047 -0.14741376 -0.38593423
0.012037972 0.067671403 0 -0.23852047 -0.14741376 -0.38593423
0.012452108 0.066986732 0 -0.23852047 -0.14741376 -0.38593423
0.012866205 0.066302352 0 -0.23852047 -0.14741376 -0.38593423
0.013280264 0.065618262 0 -0.23852047 -0.14741376 -0.38593423
0.013694288 0.06493447 0 -0.23852047 -0.14741376 -0.38593423
0.01410828 0.064250953 0 -0.23852047 -0.14741376 -0.38593423
0.01452224 0.063567728 0 -0.23852047 -0.14741376 -0.38593423
0.014936172 0.06288477 0 -0.23852047 -0.14741376 -0.38593423
0.036905531 0.079999998 0.032768618 -0.23852047 -0.14741376 -0.38593423
0.015763961 0.061519679 0 -0.23852047 -0.14741376 -0.38593423
0.01617782 0.060837533 0 -0.23852047 -0.14741376 -0.38593423
0.016591661 0.060155649 0 -0.23852047 -0.14741376 -0.38593423
0.017005483 0.059474025 0 -0.23852047 -0.14741376 -0.38593423
0.017419292 0.058792654 5.5511151e-17 -0.23852047 -0.14741376 -0.38593423
0.017833086 0.058111534 0 -0.23852047 -0.14741376 -0.38593423
0.01824687 0.057430662 0 -0.23852047 -0.14741376 -0.38593423
0.01948818 0.05538949 0 -0.23852047 -0.14741376 -0.38593423
0.019901942 0.054709569 0 -0.23852047 -0.14741376 -0.38593423
0.020315707 0.054029875 0 -0.23852047 -0.14741376 -0.38593423
0.020729473 0.053350404 0 -0.23852047 -0.14741376 -0.38593423
0.021143245 0.052671157 0 -0.23852047 -0.14741376 -0.38593423
0.021557022 0.051992126 0 -0.23852047 -0.14741376 -0.38593423
0.02197081 0.051313307 0 -0.23852047 -0.14741376 -0.38593423
0.022384608 0.050634701 0 -0.23852047 -0.14741376 -0.38593423
0.022798421 0.049956299 0 -0.23852047 -0.14741376 -0.38593423
0.02321225 0.049278103 0 -0.23852047 -0.14741376 -0.38593423
0.023626097 0.0486001 0 -0.23852047 -0.14741376 -0.38593423
0.024039963 0.047922295 0 -0.23852047 -0.14741376 -0.38593423
0.024453852 0.047244683 0 -0.23852047 -0.14741376 -0.38593423
0.024867766 0.046567257 0 -0.23852047 -0.14741376 -0.38593423
0.025281707 0.045890015 0 -0.23852047 -0.14741376 -0.38593423
0.025695676 0.045212954 0 -0.23852047 -0.14741376 -0.38593423
0.026109677 0.044536069 5.5511151e-17 -0.23852047 -0.14741376 -0.38593423
0.026523711 0.043859359 0 -0.23852047 -0.14741376 -0.38593423
0.026937783 0.043182816 5.5511151e-17 -0.23852047 -0.14741376 -0.38593423
0.02735189 0.042506438 0 -0.23852047 -0.14741376 -0.38593423
0.027766038 0.041830223 0 -0.23852047 -0.14741376 -0.38593423
0.028180229 0.041154169 0 -0.23852047 -0.14741376 -0.38593423
0.028594464 0.040478267 0 -0.23852047 -0.14741376 -0.38593423
0.029008746 0.039802518 0 -0.23852047 -0.14741376 -0.38593423
0.029423077 0.039126914 0 -0.23852047 -0.14741376 -0.38593423
0.029837459 0.038451456 0 -0.23852047 -0.14741376 -0.38593423
0.030251896 0.037776135 0 -0.23852047 -0.14741376 -0.38593423
0.030666387 0.037100952 0 -0.23852047 -0.14741376 -0.38593423
0.031080935 0.036425903 0 -0.23852047 -0.14741376 -0.38593423
0.031495545 0.035750985 0 -0.23852047 -0.14741376 -0.38593423
0.031910215 0.03507619 0 -0.23852047 -0.14741376 -0.38593423
0.032324951 0.034401517 5.5511151e-17 -0.23852047 -0.14741376 -0.38593423
0.032739755 0.033726964 5.5511151e-17 -0.23852047 -0.14741376 -0.38593423
0.033154625 0.033052526 0 -0.23852047 -0.14741376 -0.38593423
0.033569567 0.032378197 0 -0.23852047 -0.14741376 -0.38593423
0.034399673 0.03102986 0 -0.23852047 -0.14741376 -0.38593423
0.035645422 0.029008098 0 -0.23852047 -0.14741376 -0.38593423
0.036060836 0.028334361 0 -0.23852047 -0.14741376 -0.38593423
0.036476336 0.027660711 0 -0.23852047 -0.14741376 -0.38593423
0.036891926 0.026987141 0 -0.23852047 -0.14741376 -0.38593423
0.037307609 0.026313651 5.5511151e-17 -0.23852047 -0.14741376 -0.38593423
0.037723385 0.025640236 5.5511151e-17 -0.23852047 -0.14741376 -0.38593423
0.038555223 0.024293616 0 -0.23852047 -0.14741376 -0.38593423
0.03897129 0.023620404 5.5511151e-17 -0.23852047 -0.14741376 -0.38593423
0.039803732 0.022274161 5.5511151e-17 -0.23852047 -0.14741376 -0.38593423
0.0058405283 0.079979263 0 -0.23852047 -0.14741376 -0.38593423
0.0070247822 0.079999998 0.0012121076 -0.23852047 -0.14741376 -0.38593423
0.0066714161 0.078597084 0 -0.23852047 -0.14741376 -0.38593423
0.0070867483 0.077906534 5.5511151e-17 -0.23852047 -0.14741376 -0.38593423
0.0075020087 0.077216342 0 -0.23852047 -0.14741376 -0.38593423
0.0079172002 0.076526508 5.5511151e-17 -0.23852047 -0.14741376 -0.38593423
0.012935418 0.079999998 0.0071965605 -0.23852047 -0.14741376 -0.38593423
0.014138142 0.079999998 0.0084138615 -0.23852047 -0.14741376 -0.38593423
0.0091623832 0.074459061 0 -0.23852047 -0.14741376 -0.38593423
0.00957732 0.073770598 0 -0.23852047 -0.14741376 -0.38593423
0.0099921999 0.073082462 5.5511151e-17 -0.23852047 -0.14741376 -0.38593423
0.010407024 0.072394654 0 -0.23852047 -0.14741376 -0.38593423
0.010821795 0.071707174 0 -0.23852047 -0.14741376 -0.38593423
0.011236515 0.071020015 0 -0.23852047 -0.14741376 -0.38593423
0.011651185 0.070333175 5.5511151e-17 -0.23852047 -0.14741376 -0.38593423
0.024018282 0.079999998 0.018408302 -0.23852047 -0.14741376 -0.38593423
0.01248039 0.068960428 0 -0.23852047 -0.14741376 -0.38593423
0.02656265 0.079999998 0.020980584 -0.23852047 -0.14741376 -0.38593423
0.013309426 0.067588903 0 -0.23852047 -0.14741376 -0.38593423
0.013723887 0.066903591 0 -0.23852047 -0.14741376 -0.38593423
0.014138311 0.066218577 0 -0.23852047 -0.14741376 -0.38593423
0.014552703 0.065533847 0 -0.23852047 -0.14741376 -0.38593423
0.014967064 0.064849406 0 -0.23852047 -0.14741376 -0.38593423
0.015381397 0.064165249 0 -0.23852047 -0.14741376 -0.38593423
0.016209986 0.06279777 0 -0.23852047 -0.14741376 -0.38593423
0.016624246 0.062114444 5.5511151e-17 -0.23852047 -0.14741376 -0.38593423
0.017038485 0.061431382 0 -0.23852047 -0.14741376 -0.38593423
0.017452708 0.060748585 0 -0.23852047 -0.14741376 -0.38593423
0.01828111 0.059383765 0 -0.23852047 -0.14741376 -0.38593423
0.018695293 0.058701739 0 -0.23852047 -0.14741376 -0.38593423
0.019523637 0.057338428 0 -0.23852047 -0.14741376 -0.38593423
0.020351965 0.055976082 0 -0.23852047 -0.14741376 -0.38593423
0.020766128 0.055295262 0 -0.23852047 -0.14741376 -0.38593423
0.021180293 0.054614671 0 -0.23852047 -0.14741376 -0.38593423
0.021594463 0.05393431 0 -0.23852047 -0.14741376 -0.38593423
0.022008641 0.053254168 5.5511151e-17 -0.23852047 -0.14741376 -0.38593423
0.022422828 0.052574247 0 -0.23852047 -0.14741376 -0.38593423
0.022837024 0.051894546 5.5511151e-17 -0.23852047 -0.14741376 -0.38593423
0.023251235 0.051215049 0 -0.23852047 -0.14741376 -0.38593423
0.023665464 0.050535765 5.5511151e-17 -0.23852047 -0.14741376 -0.38593423
0.024079708 0.049856685 0 -0.23852047 -0.14741376 -0.38593423
0.024493974 0.049177803 0 -0.23852047 -0.14741376 -0.38593423
0.024908263 0.048499122 0 -0.23852047 -0.14741376 -0.38593423
0.025322575 0.047820631 5.5511151e-17 -0.23852047 -0.14741376 -0.38593423
0.025736915 0.047142331 0 -0.23852047 -0.14741376 -0.38593423
0.026151283 0.046464216 0 -0.23852047 -0.14741376 -0.38593423
0.026565684 0.045786284 5.5511151e-17 -0.23852047 -0.14741376 -0.38593423
0.026980117 0.045108531 5.5511151e-17 -0.23852047 -0.14741376 -0.38593423
0.027394587 0.044430953 5.5511151e-17 -0.23852047 -0.14741376 -0.38593423
0.027809095 0.043753546 0 -0.23852047 -0.14741376 -0.38593423
0.028223641 0.043076307 0 -0.23852047 -0.14741376 -0.38593423
0.028638231 0.042399231 0 -0.23852047 -0.14741376 -0.38593423
0.029052867 0.041722316 0 -0.23852047 -0.14741376 -0.38593423
0.029467547 0.041045554 0 -0.23852047 -0.14741376 -0.38593423
0.029882278 0.040368948 0 -0.23852047 -0.14741376 -0.38593423
0.03029706 0.039692491 5.5511151e-17 -0.23852047 -0.14741376 -0.38593423
0.030711895 0.03901618 0 -0.23852047 -0.14741376 -0.38593423
0.031126784 0.03834001 0 -0.23852047 -0.14741376 -0.38593423
0.031541735 0.037663981 5.5511151e-17 -0.23852047 -0.14741376 -0.38593423
0.031956743 0.036988083 0 -0.23852047 -0.14741376 -0.38593423
0.032371815 0.036312316 0 -0.23852047 -0.14741376 -0.38593423
0.033202153 0.034961164 0 -0.23852047 -0.14741376 -0.38593423
0.033617422 0.034285769 5.5511151e-17 -0.23852047 -0.14741376 -0.38593423
0.034032766 0.033610493 0 -0.23852047 -0.14741376 -0.38593423
0.03444818 0.032935325 0 -0.23852047 -0.14741376 -0.38593423
0.034863673 0.032260269 0 -0.23852047 -0.14741376 -0.38593423
0.035694893 0.030910471 5.5511151e-17 -0.23852047 -0.14741376 -0.38593423
0.036110625 0.030235721 0 -0.23852047 -0.14741376 -0.38593423
0.036526442 0.029561065 0 -0.23852047 -0.14741376 -0.38593423
0.036942344 0.028886501 0 -0.23852047 -0.14741376 -0.38593423
0.037358336 0.028212024 0 -0.23852047 -0.14741376 -0.38593423
0.037774418 0.027537631 0 -0.23852047 -0.14741376 -0.38593423
0.038190596 0.026863318 0 -0.23852047 -0.14741376 -0.38593423
0.038606867 0.026189081 0 -0.23852047 -0.14741376 -0.38593423
0.039439708 0.024840822 0 -0.23852047 -0.14741376 -0.38593423
0.039856281 0.024166794 0 -0.23852047 -0.14741376 -0.38593423
0.0071097463 0.079908058 5.5511151e-17 -0.23852047 -0.14741376 -0.38593423
0.0075254817 0.079216175 0 -0.23852047 -0.14741376 -0.38593423
0.0095505035 0.079999998 0.0025200939 -0.23852047 -0.14741376 -0.38593423
0.0083567398 0.077833489 0 -0.23852047 -0.14741376 -0.38593423
0.008772267 0.077142678 5.5511151e-17 -0.23852047 -0.14741376 -0.38593423
0.01311335 0.079999998 0.0061161942 -0.23852047 -0.14741376 -0.38593423
0.0096031288 0.075762115 0 -0.23852047 -0.14741376 -0.38593423
0.010018468 0.075072348 0 -0.23852047 -0.14741376 -0.38593423
0.010433749 0.074382916 0 -0.23852047 -0.14741376 -0.38593423
0.010848975 0.073693827 0 -0.23852047 -0.14741376 -0.38593423
0.011264146 0.073005065 0 -0.23852047 -0.14741376 -0.38593423
0.011679267 0.072316632 0 -0.23852047 -0.14741376 -0.38593423
0.012094338 0.071628518 0 -0.23852047 -0.14741376 -0.38593423
0.012509364 0.070940733 5.5511151e-17 -0.23852047 -0.14741376 -0.38593423
0.012924343 0.070253253 0 -0.23852047 -0.14741376 -0.38593423
0.025450455 0.079999998 0.018558409 -0.23852047 -0.14741376 -0.38593423
0.01375418 0.068879239 5.5511151e-17 -0.23852047 -0.14741376 -0.38593423
0.01416904 0.068192691 0 -0.23852047 -0.14741376 -0.38593423
0.014583865 0.06750644 0 -0.23852047 -0.14741376 -0.38593423
0.014998656 0.066820487 0 -0.23852047 -0.14741376 -0.38593423
0.015413417 0.066134833 5.5511151e-17 -0.23852047 -0.14741376 -0.38593423
0.015828148 0.065449461 0 -0.23852047 -0.14741376 -0.38593423
0.016242854 0.06476438 0 -0.23852047 -0.14741376 -0.38593423
0.016657535 0.064079575 0 -0.23852047 -0.14741376 -0.38593423
0.017072193 0.063395053 0 -0.23852047 -0.14741376 -0.38593423
0.017486831 0.062710799 0 -0.23852047 -0.14741376 -0.38593423
0.017901452 0.062026817 0 -0.23852047 -0.14741376 -0.38593423
0.018316058 0.061343104 0 -0.23852047 -0.14741376 -0.38593423
0.018730652 0.060659651 0 -0.23852047 -0.14741376 -0.38593423
0.019145234 0.059976459 5.5511151e-17 -0.23852047 -0.14741376 -0.38593423
0.019559806 0.05929352 0 -0.23852047 -0.14741376 -0.38593423
0.019974373 0.058610834 0 -0.23852047 -0.14741376 -0.38593423
0.020388937 0.057928391 5.5511151e-17 -0.23852047 -0.14741376 -0.38593423
0.020803496 0.057246197 0 -0.23852047 -0.14741376 -0.38593423
0.021218058 0.056564242 0 -0.23852047 -0.14741376 -0.38593423
0.02204719 0.055201031 0 -0.23852047 -0.14741376 -0.38593423
0.022461765 0.054519773 5.5511151e-17 -0.23852047 -0.14741376 -0.38593423
0.022876348 0.053838741 5.5511151e-17 -0.23852047 -0.14741376 -0.38593423
0.023290943 0.053157926 5.5511151e-17 -0.23852047 -0.14741376 -0.38593423
0.023705553 0.05247733 0 -0.23852047 -0.14741376 -0.38593423
0.024120178 0.05179695 5.5511151e-17 -0.23852047 -0.14741376 -0.38593423
0.024949484 0.050436813 5.5511151e-17 -0.23852047 -0.14741376 -0.38593423
0.02536417 0.049757052 0 -0.23852047 -0.14741376 -0.38593423
0.02577888 0.049077488 0 -0.23852047 -0.14741376 -0.38593423
0.026608383 0.047718942 0 -0.23852047 -0.14741376 -0.38593423
0.027023181 0.047039952 0 -0.23852047 -0.14741376 -0.38593423
0.027438013 0.046361148 0 -0.23852047 -0.14741376 -0.38593423
0.02785288 0.045682523 0 -0.23852047 -0.14741376 -0.38593423
0.028267784 0.045004074 5.5511151e-17 -0.23852047 -0.14741376 -0.38593423
0.028682731 0.044325799 0 -0.23852047 -0.14741376 -0.38593423
0.029097717 0.043647695 0 -0.23852047 -0.14741376 -0.38593423
0.02951275 0.042969756 0 -0.23852047 -0.14741376 -0.38593423
0.029927829 0.042291977 5.5511151e-17 -0.23852047 -0.14741376 -0.38593423
0.030342959 0.041614357 0 -0.23852047 -0.14741376 -0.38593423
0.030758139 0.040936895 0 -0.23852047 -0.14741376 -0.38593423
0.031588662 0.039582413 0 -0.23852047 -0.14741376 -0.38593423
0.032004006 0.03890539 0 -0.23852047 -0.14741376 -0.38593423
0.032419413 0.038228508 0 -0.23852047 -0.14741376 -0.38593423
0.032834884 0.037551761 0 -0.23852047 -0.14741376 -0.38593423
0.033250418 0.036875147 0 -0.23852047 -0.14741376 -0.38593423
0.033666022 0.036198661 0 -0.23852047 -0.14741376 -0.38593423
0.034913249 0.034169946 0 -0.23852047 -0.14741376 -0.38593423
0.035329137 0.03349394 0 -0.23852047 -0.14741376 -0.38593423
0.035745107 0.032818049 0 -0.23852047 -0.14741376 -0.38593423
0.036161158 0.032142259 0 -0.23852047 -0.14741376 -0.38593423
0.036577288 0.031466577 0 -0.23852047 -0.14741376 -0.38593423
0.036993504 0.030790994 0 -0.23852047 -0.14741376 -0.38593423
0.037409808 0.030115508 0 -0.23852047 -0.14741376 -0.38593423
0.038242683 0.028764807 0 -0.23852047 -0.14741376 -0.38593423
0.03865926 0.028089587 5.5511151e-17 -0.23852047 -0.14741376 -0.38593423
0.039075933 0.027414449 5.5511151e-17 -0.23852047 -0.14741376 -0.38593423
0.039492704 0.026739389 5.5511151e-17 -0.23852047 -0.14741376 -0.38593423
0.039909575 0.026064403 0 -0.23852047 -0.14741376 -0.38593423
0.0083818482 0.079836935 0 -0.23852047 -0.14741376 -0.38593423
0.0087978439 0.079144433 5.5511151e-17 -0.23852047 -0.14741376 -0.38593423
0.0092137726 0.078452297 0 -0.23852047 -0.14741376 -0.38593423
0.012097625 0.079999998 0.0038383296 -0.23852047 -0.14741376 -0.38593423
0.010045435 0.077069089 0 -0.23852047 -0.14741376 -0.38593423
0.010461176 0.07637801 0 -0.23852047 -0.14741376 -0.38593423
0.010876857 0.075687274 0 -0.23852047 -0.14741376 -0.38593423
0.011292483 0.074996889 0 -0.23852047 -0.14741376 -0.38593423
0.011708054 0.074306831 5.5511151e-17 -0.23852047 -0.14741376 -0.38593423
0.012123575 0.073617116 0 -0.23852047 -0.14741376 -0.38593423
0.012539045 0.072927721 5.5511151e-17 -0.23852047 -0.14741376 -0.38593423
0.012954469 0.072238661 0 -0.23852047 -0.14741376 -0.38593423
0.013369848 0.071549922 0 -0.23852047 -0.14741376 -0.38593423
0.024348432 0.079999998 0.016157856 -0.23852047 -0.14741376 -0.38593423
0.014200482 0.07017339 0 -0.23852047 -0.14741376 -0.38593423
0.014615741 0.06948559 0 -0.23852047 -0.14741376 -0.38593423
0.015030963 0.068798102 5.5511151e-17 -0.23852047 -0.14741376 -0.38593423
0.015446153 0.068110913 0 -0.23852047 -0.14741376 -0.38593423
0.015861312 0.067424022 0 -0.23852047 -0.14741376 -0.38593423
0.016276442 0.066737428 0 -0.23852047 -0.14741376 -0.38593423
0.016691545 0.066051126 0 -0.23852047 -0.14741376 -0.38593423
0.017106622 0.065365113 5.5511151e-17 -0.23852047 -0.14741376 -0.38593423
0.017521679 0.064679384 0 -0.23852047 -0.14741376 -0.38593423
0.03735356 0.079999998 0.029219793 -0.23852047 -0.14741376 -0.38593423
0.018351734 0.063308753 0 -0.23852047 -0.14741376 -0.38593423
0.018766737 0.062623851 0 -0.23852047 -0.14741376 -0.38593423
0.019181727 0.061939217 0 -0.23852047 -0.14741376 -0.38593423
0.019596705 0.061254848 0 -0.23852047 -0.14741376 -0.38593423
0.020011675 0.060570739 0 -0.23852047 -0.14741376 -0.38593423
0.020426638 0.059886888 5.5511151e-17 -0.23852047 -0.14741376 -0.38593423
0.020841599 0.059203289 0 -0.23852047 -0.14741376 -0.38593423
0.021256555 0.058519941 0 -0.23852047 -0.14741376 -0.38593423
0.021671513 0.057836838 5.5511151e-17 -0.23852047 -0.14741376 -0.38593423
0.022086473 0.057153977 0 -0.23852047 -0.14741376 -0.38593423
0.022501437 0.056471352 0 -0.23852047 -0.14741376 -0.38593423
0.022916408 0.055788964 0 -0.23852047 -0.14741376 -0.38593423
0.023331389 0.055106808 0 -0.23852047 -0.14741376 -0.38593423
0.024161387 0.053743169 0 -0.23852047 -0.14741376 -0.38593423
0.024576409 0.053061679 5.5511151e-17 -0.23852047 -0.14741376 -0.38593423
0.024991447 0.052380409 5.5511151e-17 -0.23852047 -0.14741376 -0.38593423
0.025406506 0.051699348 0 -0.23852047 -0.14741376 -0.38593423
0.026236696 0.050337847 0 -0.23852047 -0.14741376 -0.38593423
0.026651829 0.049657401 0 -0.23852047 -0.14741376 -0.38593423
0.027066993 0.048977152 0 -0.23852047 -0.14741376 -0.38593423
0.027482186 0.048297096 0 -0.23852047 -0.14741376 -0.38593423
0.028312678 0.046937548 5.5511151e-17 -0.23852047 -0.14741376 -0.38593423
0.028727978 0.046258051 0 -0.23852047 -0.14741376 -0.38593423
0.02914332 0.045578729 0 -0.23852047 -0.14741376 -0.38593423
0.029558705 0.044899587 5.5511151e-17 -0.23852047 -0.14741376 -0.38593423
0.029974135 0.044220611 0 -0.23852047 -0.14741376 -0.38593423
0.030389611 0.043541808 5.5511151e-17 -0.23852047 -0.14741376 -0.38593423
0.030805135 0.042863164 0 -0.23852047 -0.14741376 -0.38593423
0.031636342 0.041506357 0 -0.23852047 -0.14741376 -0.38593423
0.032052029 0.040828183 0 -0.23852047 -0.14741376 -0.38593423
0.032467771 0.040150158 0 -0.23852047 -0.14741376 -0.38593423
0.033299446 0.038794544 0 -0.23852047 -0.14741376 -0.38593423
0.034131374 0.037439484 0 -0.23852047 -0.14741376 -0.38593423
0.034547444 0.036762148 0 -0.23852047 -0.14741376 -0.38593423
0.034963582 0.036084943 0 -0.23852047 -0.14741376 -0.38593423
0.035379797 0.03540786 0 -0.23852047 -0.14741376 -0.38593423
0.035796084 0.034730896 0 -0.23852047 -0.14741376 -0.38593423
0.036212452 0.034054052 0 -0.23852047 -0.14741376 -0.38593423
0.036628898 0.033377316 5.5511151e-17 -0.23852047 -0.14741376 -0.38593423
0.03704543 0.032700691 0 -0.23852047 -0.14741376 -0.38593423
0.037462045 0.032024171 0 -0.23852047 -0.14741376 -0.38593423
0.037878744 0.031347752 0 -0.23852047 -0.14741376 -0.38593423
0.038295537 0.030671431 0 -0.23852047 -0.14741376 -0.38593423
0.03871242 0.029995205 0 -0.23852047 -0.14741376 -0.38593423
0.039129395 0.029319068 0 -0.23852047 -0.14741376 -0.38593423
0.039546471 0.028643019 0 -0.23852047 -0.14741376 -0.38593423
0.03996364 0.027967054 0 -0.23852047 -0.14741376 -0.38593423
0.0096568577 0.079765894 0 -0.23852047 -0.14741376 -0.38593423
0.010073121 0.079072773 0 -0.23852047 -0.14741376 -0.38593423
0.01048932 0.078380018 0 -0.23852047 -0.14741376 -0.38593423
0.010905459 0.077687621 0 -0.23852047 -0.14741376 -0.38593423
0.011321539 0.076995566 0 -0.23852047 -0.14741376 -0.38593423
0.015872177 0.079999998 0.0063761752 -0.23852047 -0.14741376 -0.38593423
0.012153533 0.075612515 0 -0.23852047 -0.14741376 -0.38593423
0.012985321 0.074230812 0 -0.23852047 -0.14741376 -0.38593423
0.020765996 0.079999998 0.01128267 -0.23852047 -0.14741376 -0.38593423
0.01381692 0.072850451 0 -0.23852047 -0.14741376 -0.38593423
0.014232654 0.072160751 0 -0.23852047 -0.14741376 -0.38593423
0.014648348 0.071471378 0 -0.23852047 -0.14741376 -0.38593423
0.015064004 0.070782326 0 -0.23852047 -0.14741376 -0.38593423
0.015479624 0.07009358 0 -0.23852047 -0.14741376 -0.38593423
0.028327232 0.079999998 0.018858675 -0.23852047 -0.14741376 -0.38593423
0.016310766 0.06871701 0 -0.23852047 -0.14741376 -0.38593423
0.016726293 0.068029188 0 -0.23852047 -0.14741376 -0.38593423
0.017141791 0.067341655 0 -0.23852047 -0.14741376 -0.38593423
0.017557265 0.066654414 0 -0.23852047 -0.14741376 -0.38593423
0.017972719 0.065967463 0 -0.23852047 -0.14741376 -0.38593423
0.01838815 0.065280803 0 -0.23852047 -0.14741376 -0.38593423
0.018803565 0.064594425 0 -0.23852047 -0.14741376 -0.38593423
0.038845211 0.079999998 0.029387977 -0.23852047 -0.14741376 -0.38593423
0.019634349 0.063222498 5.5511151e-17 -0.23852047 -0.14741376 -0.38593423
0.020049725 0.06253694 0 -0.23852047 -0.14741376 -0.38593423
0.020465089 0.061851647 5.5511151e-17 -0.23852047 -0.14741376 -0.38593423
0.021295803 0.060481854 0 -0.23852047 -0.14741376 -0.38593423
0.021711156 0.059797343 0 -0.23852047 -0.14741376 -0.38593423
0.022541864 0.058429066 0 -0.23852047 -0.14741376 -0.38593423
0.022957224 0.0577453 0 -0.23852047 -0.14741376 -0.38593423
0.023787966 0.056378476 0 -0.23852047 -0.14741376 -0.38593423
0.024203353 0.055695418 0 -0.23852047 -0.14741376 -0.38593423
0.024618754 0.055012587 0 -0.23852047 -0.14741376 -0.38593423
0.025034169 0.054329984 5.5511151e-17 -0.23852047 -0.14741376 -0.38593423
0.025449604 0.0536476 0 -0.23852047 -0.14741376 -0.38593423
0.025865057 0.052965432 0 -0.23852047 -0.14741376 -0.38593423
0.026280535 0.052283481 0 -0.23852047 -0.14741376 -0.38593423
0.027111566 0.050920207 0 -0.23852047 -0.14741376 -0.38593423
0.027527124 0.050238874 5.5511151e-17 -0.23852047 -0.14741376 -0.38593423
0.027942713 0.049557738 0 -0.23852047 -0.14741376 -0.38593423
0.028358335 0.048876803 0 -0.23852047 -0.14741376 -0.38593423
0.028773993 0.048196055 0 -0.23852047 -0.14741376 -0.38593423
0.029189691 0.047515497 0 -0.23852047 -0.14741376 -0.38593423
0.029605428 0.046835124 0 -0.23852047 -0.14741376 -0.38593423
0.030021207 0.046154927 5.5511151e-17 -0.23852047 -0.14741376 -0.38593423
0.030437032 0.045474913 0 -0.23852047 -0.14741376 -0.38593423
0.030852903 0.044795066 0 -0.23852047 -0.14741376 -0.38593423
0.031268824 0.044115394 0 -0.23852047 -0.14741376 -0.38593423
0.031684797 0.043435883 0 -0.23852047 -0.14741376 -0.38593423
0.032100823 0.042756535 0 -0.23852047 -0.14741376 -0.38593423
0.032516904 0.042077348 0 -0.23852047 -0.14741376 -0.38593423
0.032933045 0.041398313 0 -0.23852047 -0.14741376 -0.38593423
0.033349246 0.040719431 5.5511151e-17 -0.23852047 -0.14741376 -0.38593423
0.033765506 0.040040694 0 -0.23852047 -0.14741376 -0.38593423
0.034598231 0.038683649 0 -0.23852047 -0.14741376 -0.38593423
0.035014696 0.038005333 0 -0.23852047 -0.14741376 -0.38593423
0.035431232 0.037327148 0 -0.23852047 -0.14741376 -0.38593423
0.035847839 0.036649093 0 -0.23852047 -0.14741376 -0.38593423
0.036264528 0.035971161 0 -0.23852047 -0.14741376 -0.38593423
0.037098136 0.034615662 5.5511151e-17 -0.23852047 -0.14741376 -0.38593423
0.037515063 0.033938084 0 -0.23852047 -0.14741376 -0.38593423
0.037932076 0.033260621 0 -0.23852047 -0.14741376 -0.38593423
0.038766362 0.031906005 0 -0.23852047 -0.14741376 -0.38593423
0.039183643 0.031228846 0 -0.23852047 -0.14741376 -0.38593423
0.039601017 0.030551786 0 -0.23852047 -0.14741376 -0.38593423
0.010934798 0.079694934 0 -0.23852047 -0.14741376 -0.38593423
0.011351335 0.079001203 0 -0.23852047 -0.14741376 -0.38593423
0.011767812 0.078307822 0 -0.23852047 -0.14741376 -0.38593423
0.012184234 0.077614799 0 -0.23852047 -0.14741376 -0.38593423
0.012600602 0.076922134 0 -0.23852047 -0.14741376 -0.38593423
0.013016917 0.076229803 5.5511151e-17 -0.23852047 -0.14741376 -0.38593423
0.013433183 0.075537823 0 -0.23852047 -0.14741376 -0.38593423
0.013849401 0.074846178 0 -0.23852047 -0.14741376 -0.38593423
0.020934237 0.079999998 0.010181202 -0.23852047 -0.14741376 -0.38593423
0.014681704 0.073463894 0 -0.23852047 -0.14741376 -0.38593423
0.015097795 0.072773241 0 -0.23852047 -0.14741376 -0.38593423
0.015513847 0.072082914 0 -0.23852047 -0.14741376 -0.38593423
0.015929863 0.071392901 0 -0.23852047 -0.14741376 -0.38593423
0.016345844 0.070703208 0 -0.23852047 -0.14741376 -0.38593423
0.028486583 0.079999998 0.017725466 -0.23852047 -0.14741376 -0.38593423
0.017177716 0.069324754 0 -0.23852047 -0.14741376 -0.38593423
0.017593611 0.068635978 0 -0.23852047 -0.14741376 -0.38593423
0.01800948 0.067947507 5.5511151e-17 -0.23852047 -0.14741376 -0.38593423
0.018425327 0.067259334 0 -0.23852047 -0.14741376 -0.38593423
0.018841155 0.066571444 0 -0.23852047 -0.14741376 -0.38593423
0.036316808 0.079999998 0.025541328 -0.23852047 -0.14741376 -0.38593423
0.019672757 0.065196536 0 -0.23852047 -0.14741376 -0.38593423
0.020088537 0.064509511 0 -0.23852047 -0.14741376 -0.38593423
0.020504305 0.063822754 0 -0.23852047 -0.14741376 -0.38593423
0.021335818 0.062450059 5.5511151e-17 -0.23852047 -0.14741376 -0.38593423
0.022167314 0.061078425 5.5511151e-17 -0.23852047 -0.14741376 -0.38593423
0.02258306 0.060392994 0 -0.23852047 -0.14741376 -0.38593423
0.02299881 0.05970782 5.5511151e-17 -0.23852047 -0.14741376 -0.38593423
0.023414563 0.059022896 0 -0.23852047 -0.14741376 -0.38593423
0.023830324 0.058338217 0 -0.23852047 -0.14741376 -0.38593423
0.024661874 0.056969583 0 -0.23852047 -0.14741376 -0.38593423
0.025077667 0.05628562 5.5511151e-17 -0.23852047 -0.14741376 -0.38593423
0.025493478 0.055601887 0 -0.23852047 -0.14741376 -0.38593423
0.025909306 0.054918382 0 -0.23852047 -0.14741376 -0.38593423
0.026325153 0.054235101 0 -0.23852047 -0.14741376 -0.38593423
0.026741024 0.053552039 0 -0.23852047 -0.14741376 -0.38593423
0.027572842 0.052186556 0 -0.23852047 -0.14741376 -0.38593423
0.027988793 0.051504131 0 -0.23852047 -0.14741376 -0.38593423
0.028404776 0.050821912 5.5511151e-17 -0.23852047 -0.14741376 -0.38593423
0.028820794 0.050139893 0 -0.23852047 -0.14741376 -0.38593423
0.029236846 0.049458072 0 -0.23852047 -0.14741376 -0.38593423
0.029652936 0.04877644 5.5511151e-17 -0.23852047 -0.14741376 -0.38593423
0.030069068 0.048095003 0 -0.23852047 -0.14741376 -0.38593423
0.030485241 0.047413751 0 -0.23852047 -0.14741376 -0.38593423
0.03090146 0.046732679 0 -0.23852047 -0.14741376 -0.38593423
0.031317726 0.046051789 0 -0.23852047 -0.14741376 -0.38593423
0.031734038 0.045371071 5.5511151e-17 -0.23852047 -0.14741376 -0.38593423
0.032150406 0.044690523 0 -0.23852047 -0.14741376 -0.38593423
0.032566827 0.044010147 0 -0.23852047 -0.14741376 -0.38593423
0.032983303 0.043329932 0 -0.23852047 -0.14741376 -0.38593423
0.033399835 0.042649876 0 -0.23852047 -0.14741376 -0.38593423
0.033816431 0.041969981 5.5511151e-17 -0.23852047 -0.14741376 -0.38593423
0.03423309 0.041290235 0 -0.23852047 -0.14741376 -0.38593423
0.034649812 0.040610638 5.5511151e-17 -0.23852047 -0.14741376 -0.38593423
0.035066601 0.039931186 0 -0.23852047 -0.14741376 -0.38593423
0.035483461 0.039251875 0 -0.23852047 -0.14741376 -0.38593423
0.035900392 0.038572706 5.5511151e-17 -0.23852047 -0.14741376 -0.38593423
0.036317397 0.037893668 5.5511151e-17 -0.23852047 -0.14741376 -0.38593423
0.03673448 0.03721476 5.5511151e-17 -0.23852047 -0.14741376 -0.38593423
0.037151638 0.036535982 0 -0.23852047 -0.14741376 -0.38593423
0.037568878 0.035857324 0 -0.23852047 -0.14741376 -0.38593423
0.0379862 0.035178784 0 -0.23852047 -0.14741376 -0.38593423
0.038821105 0.033822056 5.5511151e-17 -0.23852047 -0.14741376 -0.38593423
0.039656367 0.032465756 0 -0.23852047 -0.14741376 -0.38593423
0.012215693 0.079624072 0 -0.23852047 -0.14741376 -0.38593423
0.01263251 0.078929715 5.5511151e-17 -0.23852047 -0.14741376 -0.38593423
0.013049273 0.078235716 5.5511151e-17 -0.23852047 -0.14741376 -0.38593423
0.013465984 0.077542074 0 -0.23852047 -0.14741376 -0.38593423
0.013882645 0.076848775 0 -0.23852047 -0.14741376 -0.38593423
0.014299259 0.076155826 0 -0.23852047 -0.14741376 -0.38593423
0.014715827 0.075463213 0 -0.23852047 -0.14741376 -0.38593423
0.021102004 0.079999998 0.0090828585 -0.23852047 -0.14741376 -0.38593423
0.015548837 0.074078999 0 -0.23852047 -0.14741376 -0.38593423
0.015965283 0.073387392 0 -0.23852047 -0.14741376 -0.38593423
0.016381694 0.072696105 5.5511151e-17 -0.23852047 -0.14741376 -0.38593423
0.01679807 0.072005138 0 -0.23852047 -0.14741376 -0.38593423
0.027369419 0.079999998 0.015325105 -0.23852047 -0.14741376 -0.38593423
0.028645473 0.079999998 0.016595537 -0.23852047 -0.14741376 -0.38593423
0.018047018 0.069934137 0 -0.23852047 -0.14741376 -0.38593423
0.01846328 0.069244422 0 -0.23852047 -0.14741376 -0.38593423
0.018879522 0.068555005 0 -0.23852047 -0.14741376 -0.38593423
0.019295741 0.067865886 0 -0.23852047 -0.14741376 -0.38593423
0.019711943 0.067177065 0 -0.23852047 -0.14741376 -0.38593423
0.020128131 0.066488534 0 -0.23852047 -0.14741376 -0.38593423
0.020544304 0.065800287 0 -0.23852047 -0.14741376 -0.38593423
0.020960465 0.065112323 0 -0.23852047 -0.14741376 -0.38593423
0.021376619 0.064424641 0 -0.23852047 -0.14741376 -0.38593423
0.021792764 0.063737229 0 -0.23852047 -0.14741376 -0.38593423
0.022208907 0.063050091 0 -0.23852047 -0.14741376 -0.38593423
0.022625046 0.062363219 0 -0.23852047 -0.14741376 -0.38593423
0.023041185 0.06167661 0 -0.23852047 -0.14741376 -0.38593423
0.023457326 0.060990263 0 -0.23852047 -0.14741376 -0.38593423
0.023873473 0.060304172 0 -0.23852047 -0.14741376 -0.38593423
0.024705786 0.05893274 0 -0.23852047 -0.14741376 -0.38593423
0.025121959 0.058247391 0 -0.23852047 -0.14741376 -0.38593423
0.025538146 0.057562284 0 -0.23852047 -0.14741376 -0.38593423
0.025954349 0.056877416 0 -0.23852047 -0.14741376 -0.38593423
0.026370568 0.056192778 0 -0.23852047 -0.14741376 -0.38593423
0.02678681 0.055508371 0 -0.23852047 -0.14741376 -0.38593423
0.027203072 0.054824188 0 -0.23852047 -0.14741376 -0.38593423
0.02761936 0.054140229 5.5511151e-17 -0.23852047 -0.14741376 -0.38593423
0.028035674 0.053456485 0 -0.23852047 -0.14741376 -0.38593423
0.028452018 0.052772958 5.5511151e-17 -0.23852047 -0.14741376 -0.38593423
0.028868394 0.052089639 0 -0.23852047 -0.14741376 -0.38593423
0.029284803 0.051406529 0 -0.23852047 -0.14741376 -0.38593423
0.029701248 0.05072362 5.5511151e-17 -0.23852047 -0.14741376 -0.38593423
0.030117732 0.050040912 0 -0.23852047 -0.14741376 -0.38593423
0.030534254 0.049358398 0 -0.23852047 -0.14741376 -0.38593423
0.03095082 0.048676074 5.5511151e-17 -0.23852047 -0.14741376 -0.38593423
0.032200798 0.046630222 0 -0.23852047 -0.14741376 -0.38593423
0.032617558 0.045948628 0 -0.23852047 -0.14741376 -0.38593423
0.033034369 0.045267209 0 -0.23852047 -0.14741376 -0.38593423
0.033451241 0.044585962 0 -0.23852047 -0.14741376 -0.38593423
0.033868168 0.043904874 0 -0.23852047 -0.14741376 -0.38593423
0.034285154 0.043223955 5.5511151e-17 -0.23852047 -0.14741376 -0.38593423
0.034702208 0.042543188 5.5511151e-17 -0.23852047 -0.14741376 -0.38593423
0.035119321 0.041862581 5.5511151e-17 -0.23852047 -0.14741376 -0.38593423
0.035536505 0.041182119 0 -0.23852047 -0.14741376 -0.38593423
0.03595376 0.040501807 0 -0.23852047 -0.14741376 -0.38593423
0.036371082 0.03982164 0 -0.23852047 -0.14741376 -0.38593423
0.036788482 0.03914161 5.5511151e-17 -0.23852047 -0.14741376 -0.38593423
0.03762351 0.037781958 0 -0.23852047 -0.14741376 -0.38593423
0.038041145 0.037102323 0 -0.23852047 -0.14741376 -0.38593423
0.038458865 0.036422815 0 -0.23852047 -0.14741376 -0.38593423
0.038876668 0.03574343 0 -0.23852047 -0.14741376 -0.38593423
0.039294556 0.035064161 0 -0.23852047 -0.14741376 -0.38593423
0.039712537 0.034385007 0 -0.23852047 -0.14741376 -0.38593423
0.013499565 0.079553306 0 -0.23852047 -0.14741376 -0.38593423
0.01391667 0.078858323 0 -0.23852047 -0.14741376 -0.38593423
0.014333726 0.078163706 0 -0.23852047 -0.14741376 -0.38593423
0.014750733 0.077469431 5.5511151e-17 -0.23852047 -0.14741376 -0.38593423
0.015167695 0.076775514 0 -0.23852047 -0.14741376 -0.38593423
0.015584614 0.076081932 0 -0.23852047 -0.14741376 -0.38593423
0.016001493 0.075388692 0 -0.23852047 -0.14741376 -0.38593423
0.01641833 0.074695788 0 -0.23852047 -0.14741376 -0.38593423
0.016835134 0.074003212 0 -0.23852047 -0.14741376 -0.38593423
0.017251903 0.073310964 0 -0.23852047 -0.14741376 -0.38593423
0.01766864 0.072619043 0 -0.23852047 -0.14741376 -0.38593423
0.018085347 0.071927443 0 -0.23852047 -0.14741376 -0.38593423
0.018918684 0.070545182 0 -0.23852047 -0.14741376 -0.38593423
0.019335316 0.06985452 0 -0.23852047 -0.14741376 -0.38593423
0.019751929 0.069164157 5.5511151e-17 -0.23852047 -0.14741376 -0.38593423
0.020168524 0.068474092 0 -0.23852047 -0.14741376 -0.38593423
0.020585101 0.067784332 0 -0.23852047 -0.14741376 -0.38593423
0.021001667 0.067094855 0 -0.23852047 -0.14741376 -0.38593423
0.037944738 0.079999998 0.024537127 -0.23852047 -0.14741376 -0.38593423
0.021834765 0.065716773 5.5511151e-17 -0.23852047 -0.14741376 -0.38593423
0.022251302 0.065028161 5.5511151e-17 -0.23852047 -0.14741376 -0.38593423
0.023500895 0.062963955 0 -0.23852047 -0.14741376 -0.38593423
0.024333965 0.061589152 0 -0.23852047 -0.14741376 -0.38593423
0.025167063 0.060215384 5.5511151e-17 -0.23852047 -0.14741376 -0.38593423
0.025583627 0.059528876 5.5511151e-17 -0.23852047 -0.14741376 -0.38593423
0.026000204 0.058842614 0 -0.23852047 -0.14741376 -0.38593423
0.026416797 0.058156595 0 -0.23852047 -0.14741376 -0.38593423
0.026833409 0.057470817 0 -0.23852047 -0.14741376 -0.38593423
0.02725004 0.056785274 0 -0.23852047 -0.14741376 -0.38593423
0.027666694 0.056099959 0 -0.23852047 -0.14741376 -0.38593423
0.028083373 0.055414874 0 -0.23852047 -0.14741376 -0.38593423
0.028500078 0.054730013 0 -0.23852047 -0.14741376 -0.38593423
0.028916813 0.054045372 0 -0.23852047 -0.14741376 -0.38593423
0.02933358 0.053360946 0 -0.23852047 -0.14741376 -0.38593423
0.029750381 0.052676734 0 -0.23852047 -0.14741376 -0.38593423
0.030167216 0.051992729 0 -0.23852047 -0.14741376 -0.38593423
0.030584089 0.05130893 0 -0.23852047 -0.14741376 -0.38593423
0.031001005 0.050625332 0 -0.23852047 -0.14741376 -0.38593423
0.031417962 0.049941931 0 -0.23852047 -0.14741376 -0.38593423
0.032252014 0.048575707 5.5511151e-17 -0.23852047 -0.14741376 -0.38593423
0.032669112 0.047892876 0 -0.23852047 -0.14741376 -0.38593423
0.033086263 0.047210224 0 -0.23852047 -0.14741376 -0.38593423
0.033503469 0.046527755 5.5511151e-17 -0.23852047 -0.14741376 -0.38593423
0.033920731 0.04584546 0 -0.23852047 -0.14741376 -0.38593423
0.03433805 0.045163337 0 -0.23852047 -0.14741376 -0.38593423
0.034755431 0.044481378 0 -0.23852047 -0.14741376 -0.38593423
0.035172872 0.043799587 0 -0.23852047 -0.14741376 -0.38593423
0.03559038 0.043117952 0 -0.23852047 -0.14741376 -0.38593423
0.036007956 0.042436477 5.5511151e-17 -0.23852047 -0.14741376 -0.38593423
0.036425602 0.041755151 0 -0.23852047 -0.14741376 -0.38593423
0.036843318 0.041073974 0 -0.23852047 -0.14741376 -0.38593423
0.03726111 0.040392946 0 -0.23852047 -0.14741376 -0.38593423
0.037678979 0.039712057 0 -0.23852047 -0.14741376 -0.38593423
0.038096923 0.039031304 0 -0.23852047 -0.14741376 -0.38593423
0.038514953 0.038350686 0 -0.23852047 -0.14741376 -0.38593423
0.01520384 0.078787036 5.5511151e-17 -0.23852047 -0.14741376 -0.38593423
