# .PCD v0.7 - Point Cloud Data file format
VERSION 0.7
FIELDS x y z vp_x vp_y vp_z
SIZE 4 4 4 4 4 4
TYPE F F F F F F
COUNT 1 1 1 1 1 1
WIDTH 750
HEIGHT 1
VIEWPOINT 0 0 0 1 0 0 0
POINTS 750
DATA ascii
2.7755576e-17 0.033642448 0.022618644 -0.14741376 -0.38593423 0.23852047
2.7755576e-17 0.03131748 0.023672007 -0.14741376 -0.38593423 0.23852047
2.7755576e-17 0.029015277 0.024715154 -0.14741376 -0.38593423 0.23852047
2.7755576e-17 0.02673549 0.025748236 -0.14741376 -0.38593423 0.23852047
2.7755576e-17 0.024477785 0.026771408 -0.14741376 -0.38593423 0.23852047
2.7755576e-17 0.022241833 0.027784817 -0.14741376 -0.38593423 0.23852047
2.7755576e-17 0.02002731 0.028788606 -0.14741376 -0.38593423 0.23852047
2.7755576e-17 0.0178339 0.029782919 -0.14741376 -0.38593423 0.23852047
2.7755576e-17 0.01566129 0.030767895 -0.14741376 -0.38593423 0.23852047
2.7755576e-17 0.013509179 0.031743672 -0.14741376 -0.38593423 0.23852047
2.7755576e-17 0.011377268 0.032710381 -0.14741376 -0.38593423 0.23852047
5.5511151e-17 0.0092652608 0.033668153 -0.14741376 -0.38593423 0.23852047
2.7755576e-17 0.0071728742 0.034617122 -0.14741376 -0.38593423 0.23852047
2.7755576e-17 0.0050998242 0.035557412 -0.14741376 -0.38593423 0.23852047
2.7755576e-17 0.0030458355 0.036489148 -0.14741376 -0.38593423 0.23852047
2.7755576e-17 0.0010106366 0.037412446 -0.14741376 -0.38593423 0.23852047
0.00038527686 0 0.037804216 -0.14741376 -0.38593423 0.23852047
0.0011566021 5.5511151e-17 0.037670631 -0.14741376 -0.38593423 0.23852047
0.0019289608 0 0.03753696 -0.14741376 -0.38593423 0.23852047
0.0027023584 0 0.0374032 -0.14741376 -0.38593423 0.23852047
0.0034768011 5.5511151e-17 0.037269346 -0.14741376 -0.38593423 0.23852047
0.0050288434 0 0.037001368 -0.14741376 -0.38593423 0.23852047
0.0058064549 0 0.036867239 -0.14741376 -0.38593423 0.23852047
0.0065851342 0 0.036733016 -0.14741376 -0.38593423 0.23852047
0.0073648868 5.5511151e-17 0.036598697 -0.14741376 -0.38593423 0.23852047
0.0081457198 0 0.036464285 -0.14741376 -0.38593423 0.23852047
0.0089276368 0 0.036329776 -0.14741376 -0.38593423 0.23852047
0.0097106462 5.5511151e-17 0.03619517 -0.14741376 -0.38593423 0.23852047
0.010494753 0 0.036060464 -0.14741376 -0.38593423 0.23852047
0.011279962 0 0.03592566 -0.14741376 -0.38593423 0.23852047
0.01206628 0 0.035790756 -0.14741376 -0.38593423 0.23852047
0.012853714 0 0.035655752 -0.14741376 -0.38593423 0.23852047
0.039999999 0.063160315 0.0022985789 -0.14741376 -0.38593423 0.23852047
0.014431951 0 0.035385441 -0.14741376 -0.38593423 0.23852047
0.015222766 0 0.035250127 -0.14741376 -0.38593423 0.23852047
0.016807823 0 0.034979194 -0.14741376 -0.38593423 0.23852047
0.039999999 0.052383613 0.0071981018 -0.14741376 -0.38593423 0.23852047
0.018397484 5.5511151e-17 0.034707837 -0.14741376 -0.38593423 0.23852047
0.019194059 0 0.034571998 -0.14741376 -0.38593423 0.23852047
0.019991804 0 0.034436051 -0.14741376 -0.38593423 0.23852047
0.020790726 5.5511151e-17 0.034299996 -0.14741376 -0.38593423 0.23852047
0.021590831 0 0.034163829 -0.14741376 -0.38593423 0.23852047
0.039999999 0.038015559 0.013734625 -0.14741376 -0.38593423 0.23852047
0.023998307 0 0.033754658 -0.14741376 -0.38593423 0.23852047
0.024803208 5.5511151e-17 0.033618044 -0.14741376 -0.38593423 0.23852047
0.025609326 0 0.033481315 -0.14741376 -0.38593423 0.23852047
0.039999999 0.030157402 0.01731175 -0.14741376 -0.38593423 0.23852047
0.02722523 0 0.03320751 -0.14741376 -0.38593423 0.23852047
0.02803503 0 0.03307043 -0.14741376 -0.38593423 0.23852047
0.028846072 0 0.032933235 -0.14741376 -0.38593423 0.23852047
0.029658362 0 0.032795917 -0.14741376 -0.38593423 0.23852047
0.030471908 0 0.032658484 -0.14741376 -0.38593423 0.23852047
0.039999999 0.018817829 0.022476563 -0.14741376 -0.38593423 0.23852047
0.03210279 5.5511151e-17 0.032383252 -0.14741376 -0.38593423 0.23852047
0.032920137 0 0.03224545 -0.14741376 -0.38593423 0.23852047
0.03373877 0 0.032107528 -0.14741376 -0.38593423 0.23852047
0.034558687 0 0.03196948 -0.14741376 -0.38593423 0.23852047
0.035379902 0 0.031831305 -0.14741376 -0.38593423 0.23852047
0.03620242 0 0.031693008 -0.14741376 -0.38593423 0.23852047
0.037026245 0 0.03155458 -0.14741376 -0.38593423 0.23852047
0.037851386 0 0.031416025 -0.14741376 -0.38593423 0.23852047
0.038677853 0 0.03127734 -0.14741376 -0.38593423 0.23852047
0.039999999 0.0010206917 0.030590056 -0.14741376 -0.38593423 0.23852047
2.7755576e-17 0.07990399 0.00072834763 -0.14741376 -0.38593423 0.23852047
0 0.077098317 0.0020026772 -0.14741376 -0.38593423 0.23852047
0 0.074323051 0.0032632984 -0.14741376 -0.38593423 0.23852047
0.0027137331 0.079999998 0.00020255895 -0.14741376 -0.38593423 0.23852047
0 0.066174701 0.0069651608 -0.14741376 -0.38593423 0.23852047
0 0.060885552 0.0093685659 -0.14741376 -0.38593423 0.23852047
0 0.058282521 0.010551542 -0.14741376 -0.38593423 0.23852047
0.0076192352 0.078533255 0 -0.14741376 -0.38593423 0.23852047
0.0084153842 0.078223661 2.7755576e-17 -0.14741376 -0.38593423 0.23852047
0.0092114983 0.077914312 2.7755576e-17 -0.14741376 -0.38593423 0.23852047
0 0.045665324 0.016287014 -0.14741376 -0.38593423 0.23852047
0 0.043218575 0.017399535 -0.14741376 -0.38593423 0.23852047
0 0.040796466 0.018500952 -0.14741376 -0.38593423 0.23852047
0.013191704 0.076371133 0 -0.14741376 -0.38593423 0.23852047
0 0.036024634 0.020671152 -0.14741376 -0.38593423 0.23852047
0 0.033674173 0.021740267 -0.14741376 -0.38593423 0.23852047
0 0.031346869 0.022798944 -0.14741376 -0.38593423 0.23852047
0 0.029042369 0.023847342 -0.14741376 -0.38593423 0.23852047
0.017171739 0.074833751 0 -0.14741376 -0.38593423 0.23852047
0 0.02450042 0.025913913 -0.14741376 -0.38593423 0.23852047
0 0.022262301 0.026932389 -0.14741376 -0.38593423 0.23852047
0 0.020045651 0.027941184 -0.14741376 -0.38593423 0.23852047
0 0.017850155 0.028940447 -0.14741376 -0.38593423 0.23852047
0 0.015675498 0.029930314 -0.14741376 -0.38593423 0.23852047
0 0.013521376 0.030910924 -0.14741376 -0.38593423 0.23852047
0.022744631 0.072690696 2.7755576e-17 -0.14741376 -0.38593423 0.23852047
0 0.0092735486 0.032844912 -0.14741376 -0.38593423 0.23852047
0 0.0071792598 0.033798553 -0.14741376 -0.38593423 0.23852047
0 0.0051043434 0.034743462 -0.14741376 -0.38593423 0.23852047
0.02593014 0.071470745 0 -0.14741376 -0.38593423 0.23852047
0 0.001011524 0.036607578 -0.14741376 -0.38593423 0.23852047
0.027523289 0.07086198 0 -0.14741376 -0.38593423 0.23852047
0.0011576163 0 0.036867019 -0.14741376 -0.38593423 0.23852047
0.0019306535 5.5511151e-17 0.036732692 -0.14741376 -0.38593423 0.23852047
0.0027047314 0 0.036598269 -0.14741376 -0.38593423 0.23852047
0.0034798561 0 0.036463756 -0.14741376 -0.38593423 0.23852047
0.0042560333 0 0.036329146 -0.14741376 -0.38593423 0.23852047
0.0050332681 0 0.03619444 -0.14741376 -0.38593423 0.23852047
0.033102032 0.068737492 0 -0.14741376 -0.38593423 0.23852047
0.0065909363 0 0.035924744 -0.14741376 -0.38593423 0.23852047
0.0073713805 0 0.035789747 -0.14741376 -0.38593423 0.23852047
0.035494506 0.067829818 0 -0.14741376 -0.38593423 0.23852047
0.0089355195 0 0.035519462 -0.14741376 -0.38593423 0.23852047
0.0097192256 0 0.035384167 -0.14741376 -0.38593423 0.23852047
0.037888113 0.066923767 0 -0.14741376 -0.38593423 0.23852047
0.011289942 5.5511151e-17 0.035113279 -0.14741376 -0.38593423 0.23852047
0.012076964 5.5511151e-17 0.034977678 -0.14741376 -0.38593423 0.23852047
0.012865103 0 0.034841977 -0.14741376 -0.38593423 0.23852047
0.013654365 0 0.034706172 -0.14741376 -0.38593423 0.23852047
0.014444756 5.5511151e-17 0.034570258 -0.14741376 -0.38593423 0.23852047
0.015236284 0 0.03443424 -0.14741376 -0.38593423 0.23852047
0.016028952 0 0.034298114 -0.14741376 -0.38593423 0.23852047
0.016822768 0 0.034161881 -0.14741376 -0.38593423 0.23852047
0.039999999 0.050237868 0.0072517926 -0.14741376 -0.38593423 0.23852047
0.039999999 0.048150793 0.0082048085 -0.14741376 -0.38593423 0.23852047
0.020009633 5.5511151e-17 0.033615854 -0.14741376 -0.38593423 0.23852047
0.020809282 0 0.033479068 -0.14741376 -0.38593423 0.23852047
0.021610115 5.5511151e-17 0.033342171 -0.14741376 -0.38593423 0.23852047
0.02241214 0 0.033205159 -0.14741376 -0.38593423 0.23852047
0.039999999 0.037964005 0.012857856 -0.14741376 -0.38593423 0.23852047
0.024019791 0 0.032930788 -0.14741376 -0.38593423 0.23852047
0.02482543 0 0.032793425 -0.14741376 -0.38593423 0.23852047
0.025632285 0 0.032655951 -0.14741376 -0.38593423 0.23852047
0.026440365 5.5511151e-17 0.032518353 -0.14741376 -0.38593423 0.23852047
0.027249675 5.5511151e-17 0.032380637 -0.14741376 -0.38593423 0.23852047
0.028060222 0 0.032242801 -0.14741376 -0.38593423 0.23852047
0.039999999 0.024361979 0.019074922 -0.14741376 -0.38593423 0.23852047
0.029685056 5.5511151e-17 0.031966764 -0.14741376 -0.38593423 0.23852047
0.039999999 0.018753963 0.021639597 -0.14741376 -0.38593423 0.23852047
0.03213175 0 0.031551786 -0.14741376 -0.38593423 0.23852047
0.032949857 0 0.031413209 -0.14741376 -0.38593423 0.23852047
0.039999999 0.013271986 0.024147473 -0.14741376 -0.38593423 0.23852047
0.039999999 0.011471899 0.024971157 -0.14741376 -0.38593423 0.23852047
0.03541192 5.5511151e-17 0.030996714 -0.14741376 -0.38593423 0.23852047
0.036235206 5.5511151e-17 0.030857623 -0.14741376 -0.38593423 0.23852047
0.037059806 0 0.030718403 -0.14741376 -0.38593423 0.23852047
0.038712967 0 0.030439565 -0.14741376 -0.38593423 0.23852047
0.039541543 5.5511151e-17 0.030299947 -0.14741376 -0.38593423 0.23852047
0 0.077177793 0.0010211947 -0.14741376 -0.38593423 0.23852047
0.0014280303 0.078858607 0 -0.14741376 -0.38593423 0.23852047
0 0.071650676 0.0035421026 -0.14741376 -0.38593423 0.23852047
0 0.066241466 0.0060096285 -0.14741376 -0.38593423 0.23852047
0 0.063579872 0.0072239181 -0.14741376 -0.38593423 0.23852047
0 0.055761613 0.010791398 -0.14741376 -0.38593423 0.23852047
0.0077792169 0.076383747 0 -0.14741376 -0.38593423 0.23852047
0 0.050683796 0.013108891 -0.14741376 -0.38593423 0.23852047
0 0.048183918 0.014249968 -0.14741376 -0.38593423 0.23852047
0 0.045709513 0.015379512 -0.14741376 -0.38593423 0.23852047
0.01095378 0.075152062 0 -0.14741376 -0.38593423 0.23852047
0 0.040835544 0.017604718 -0.14741376 -0.38593423 0.23852047
0 0.03843521 0.018700732 -0.14741376 -0.38593423 0.23852047
0.014128058 0.073924042 2.7755576e-17 -0.14741376 -0.38593423 0.23852047
0 0.031376302 0.021924434 -0.14741376 -0.38593423 0.23852047
0 0.029069507 0.022978101 -0.14741376 -0.38593423 0.23852047
0 0.026785217 0.024021577 -0.14741376 -0.38593423 0.23852047
0 0.024523092 0.025055019 -0.14741376 -0.38593423 0.23852047
0 0.022282802 0.026078576 -0.14741376 -0.38593423 0.23852047
0 0.020064022 0.027092395 -0.14741376 -0.38593423 0.23852047
0 0.017866435 0.028096622 -0.14741376 -0.38593423 0.23852047
0 0.015689727 0.029091395 -0.14741376 -0.38593423 0.23852047
0.021270705 0.071173817 0 -0.14741376 -0.38593423 0.23852047
0 0.011397731 0.031053139 -0.14741376 -0.38593423 0.23852047
0 0.0092818486 0.032020379 -0.14741376 -0.38593423 0.23852047
0 0.0071856556 0.032978702 -0.14741376 -0.38593423 0.23852047
0 0.0051088696 0.033928242 -0.14741376 -0.38593423 0.23852047
0.025240142 0.069653183 0 -0.14741376 -0.38593423 0.23852047
0 0.0010124127 0.03580147 -0.14741376 -0.38593423 0.23852047
0.00038595262 0 0.036197066 -0.14741376 -0.38593423 0.23852047
0.0011586321 0 0.036062174 -0.14741376 -0.38593423 0.23852047
0.0019323487 0 0.035927188 -0.14741376 -0.38593423 0.23852047
0.0027071079 0 0.035792101 -0.14741376 -0.38593423 0.23852047
0.0034829159 5.5511151e-17 0.035656922 -0.14741376 -0.38593423 0.23852047
0.031594966 0.067230299 0 -0.14741376 -0.38593423 0.23852047
0.0058166878 0 0.035250798 -0.14741376 -0.38593423 0.23852047
0.0065967473 0 0.035115223 -0.14741376 -0.38593423 0.23852047
0.0073778844 0 0.034979548 -0.14741376 -0.38593423 0.23852047
0.034774736 0.066023283 0 -0.14741376 -0.38593423 0.23852047
0.0097278189 5.5511151e-17 0.034571912 -0.14741376 -0.38593423 0.23852047
0.010513325 0 0.034435827 -0.14741376 -0.38593423 0.23852047
0.011299938 0 0.034299634 -0.14741376 -0.38593423 0.23852047
0.012087665 5.5511151e-17 0.034163341 -0.14741376 -0.38593423 0.23852047
0.01287651 5.5511151e-17 0.034026936 -0.14741376 -0.38593423 0.23852047
0.013666481 0 0.033890426 -0.14741376 -0.38593423 0.23852047
0.039999999 0.060898319 0.0014427451 -0.14741376 -0.38593423 0.23852047
0.039999999 0.058722056 0.002439881 -0.14741376 -0.38593423 0.23852047
0.016043205 0 0.033480242 -0.14741376 -0.38593423 0.23852047
0.016837738 0 0.033343293 -0.14741376 -0.38593423 0.23852047
0.018430278 0 0.033069059 -0.14741376 -0.38593423 0.23852047
0.039999999 0.048106164 0.0073054289 -0.14741376 -0.38593423 0.23852047
0.020027492 0 0.032794371 -0.14741376 -0.38593423 0.23852047
0.02162943 0 0.032519225 -0.14741376 -0.38593423 0.23852047
0.022432188 0 0.032381475 -0.14741376 -0.38593423 0.23852047
0.023236144 0 0.032243606 -0.14741376 -0.38593423 0.23852047
0.024041308 0 0.032105617 -0.14741376 -0.38593423 0.23852047
0.024847684 5.5511151e-17 0.031967513 -0.14741376 -0.38593423 0.23852047
0.025655281 5.5511151e-17 0.031829283 -0.14741376 -0.38593423 0.23852047
0.026464105 0 0.031690937 -0.14741376 -0.38593423 0.23852047
0.02727416 0 0.031552464 -0.14741376 -0.38593423 0.23852047
0.028085455 0 0.031413868 -0.14741376 -0.38593423 0.23852047
0.028897997 0 0.031275146 -0.14741376 -0.38593423 0.23852047
0.02971179 5.5511151e-17 0.031136302 -0.14741376 -0.38593423 0.23852047
0.030526843 0 0.03099733 -0.14741376 -0.38593423 0.23852047
0.031343162 0 0.03085823 -0.14741376 -0.38593423 0.23852047
0.039999999 0.016847786 0.021647524 -0.14741376 -0.38593423 0.23852047
0.032979626 0 0.030579647 -0.14741376 -0.38593423 0.23852047
0.033799786 0 0.030440159 -0.14741376 -0.38593423 0.23852047
0.039999999 0.01140357 0.024148067 -0.14741376 -0.38593423 0.23852047
0.039999999 0.0096157845 0.024969384 -0.14741376 -0.38593423 0.23852047
0.039999999 0.0078412127 0.025784723 -0.14741376 -0.38593423 0.23852047
0.03709342 0 0.029880892 -0.14741376 -0.38593423 0.23852047
0.037920114 0 0.02974074 -0.14741376 -0.38593423 0.23852047
0.038748138 0 0.029600453 -0.14741376 -0.38593423 0.23852047
0.039577495 5.5511151e-17 0.029460028 -0.14741376 -0.38593423 0.23852047
0 0.077257425 3.789828e-05 -0.14741376 -0.38593423 0.23852047
0.00081520592 0.077021681 0 -0.14741376 -0.38593423 0.23852047
0.0016069101 0.076712586 0 -0.14741376 -0.38593423 0.23852047
0.0023985438 0.07640373 2.7755576e-17 -0.14741376 -0.38593423 0.23852047
0.0031901111 0.076095112 0 -0.14741376 -0.38593423 0.23852047
0 0.063643724 0.0062729605 -0.14741376 -0.38593423 0.23852047
0 0.06100722 0.0074807662 -0.14741376 -0.38593423 0.23852047
0 0.058398373 0.0086759962 -0.14741376 -0.38593423 0.23852047
0.0063558142 0.074863039 0 -0.14741376 -0.38593423 0.23852047
0 0.053261887 0.011029535 -0.14741376 -0.38593423 0.23852047
0.0087296274 0.073941439 0 -0.14741376 -0.38593423 0.23852047
0 0.045753781 0.014470448 -0.14741376 -0.38593423 0.23852047
0 0.043301869 0.015594327 -0.14741376 -0.38593423 0.23852047
0.011103182 0.073021874 2.7755576e-17 -0.14741376 -0.38593423 0.23852047
0 0.03847187 0.017808521 -0.14741376 -0.38593423 0.23852047
0.012685472 0.07240995 2.7755576e-17 -0.14741376 -0.38593423 0.23852047
0 0.033737782 0.01997911 -0.14741376 -0.38593423 0.23852047
0.014267741 0.071798891 0 -0.14741376 -0.38593423 0.23852047
0.015058879 0.071493685 0 -0.14741376 -0.38593423 0.23852047
0 0.026810141 0.023156118 -0.14741376 -0.38593423 0.23852047
0 0.0245458 0.024194719 -0.14741376 -0.38593423 0.23852047
0.017432366 0.070579335 0 -0.14741376 -0.38593423 0.23852047
0.018223567 0.070274964 0 -0.14741376 -0.38593423 0.23852047
0 0.017882742 0.027251439 -0.14741376 -0.38593423 0.23852047
0 0.01570398 0.028251136 -0.14741376 -0.38593423 0.23852047
0 0.013545828 0.029241461 -0.14741376 -0.38593423 0.23852047
0 0.011407987 0.030222552 -0.14741376 -0.38593423 0.23852047
0 0.0092901615 0.031194545 -0.14741376 -0.38593423 0.23852047
0 0.0071920613 0.03215757 -0.14741376 -0.38593423 0.23852047
0 0.0051134033 0.033111755 -0.14741376 -0.38593423 0.23852047
0 0.003053908 0.03405723 -0.14741376 -0.38593423 0.23852047
0 0.0010133028 0.034994118 -0.14741376 -0.38593423 0.23852047
0.0003862913 0 0.03539164 -0.14741376 -0.38593423 0.23852047
0.0011596495 0 0.035256088 -0.14741376 -0.38593423 0.23852047
0.0019340465 5.5511151e-17 0.035120439 -0.14741376 -0.38593423 0.23852047
0.0027094882 0 0.034984693 -0.14741376 -0.38593423 0.23852047
0.0034859802 0 0.034848846 -0.14741376 -0.38593423 0.23852047
0.0042635286 0 0.034712899 -0.14741376 -0.38593423 0.23852047
0.0050421385 5.5511151e-17 0.034576848 -0.14741376 -0.38593423 0.23852047
0.0058218162 0 0.0344407 -0.14741376 -0.38593423 0.23852047
0.032474414 0.064829685 0 -0.14741376 -0.38593423 0.23852047
0.007384398 0 0.034168091 -0.14741376 -0.38593423 0.23852047
0.0081673143 0 0.03403163 -0.14741376 -0.38593423 0.23852047
0.034852333 0.063927867 0 -0.14741376 -0.38593423 0.23852047
0.0097364252 0 0.033758394 -0.14741376 -0.38593423 0.23852047
0.036438234 0.063327499 2.7755576e-17 -0.14741376 -0.38593423 0.23852047
0.01130995 5.5511151e-17 0.033484727 -0.14741376 -0.38593423 0.23852047
0.038024675 0.062727787 0 -0.14741376 -0.38593423 0.23852047
0.012887934 0 0.033210628 -0.14741376 -0.38593423 0.23852047
0.014470428 0 0.032936085 -0.14741376 -0.38593423 0.23852047
0.015263381 5.5511151e-17 0.032798644 -0.14741376 -0.38593423 0.23852047
0.01605748 0 0.032661092 -0.14741376 -0.38593423 0.23852047
0.016852731 5.5511151e-17 0.032523427 -0.14741376 -0.38593423 0.23852047
0.01764914 0 0.032385644 -0.14741376 -0.38593423 0.23852047
0.018446714 0 0.032247748 -0.14741376 -0.38593423 0.23852047
0.019245457 5.5511151e-17 0.032109734 -0.14741376 -0.38593423 0.23852047
0.020045377 0 0.031971604 -0.14741376 -0.38593423 0.23852047
0.020846482 0 0.031833351 -0.14741376 -0.38593423 0.23852047
0.021648776 0 0.031694982 -0.14741376 -0.38593423 0.23852047
0.022452265 0 0.031556495 -0.14741376 -0.38593423 0.23852047
0.023256958 5.5511151e-17 0.03141788 -0.14741376 -0.38593423 0.23852047
0.039999999 0.035868958 0.012018017 -0.14741376 -0.38593423 0.23852047
0.024869975 0 0.031140292 -0.14741376 -0.38593423 0.23852047
0.025678314 5.5511151e-17 0.031001313 -0.14741376 -0.38593423 0.23852047
0.026487881 0 0.030862208 -0.14741376 -0.38593423 0.23852047
0.027298683 0 0.030722976 -0.14741376 -0.38593423 0.23852047
0.028110728 0 0.030583618 -0.14741376 -0.38593423 0.23852047
0.02892402 0 0.030444134 -0.14741376 -0.38593423 0.23852047
0.029738568 0 0.030304519 -0.14741376 -0.38593423 0.23852047
0.030554377 0 0.030164775 -0.14741376 -0.38593423 0.23852047
0.031371452 0 0.030024901 -0.14741376 -0.38593423 0.23852047
0.032189805 0 0.029884895 -0.14741376 -0.38593423 0.23852047
0.03300944 0 0.029744757 -0.14741376 -0.38593423 0.23852047
0.033830363 0 0.029604485 -0.14741376 -0.38593423 0.23852047
0.039999999 0.011335155 0.023323948 -0.14741376 -0.38593423 0.23852047
0.035476107 0 0.029323537 -0.14741376 -0.38593423 0.23852047
0.036300939 0 0.029182859 -0.14741376 -0.38593423 0.23852047
0.037127089 0 0.029042043 -0.14741376 -0.38593423 0.23852047
0.037954561 0 0.028901089 -0.14741376 -0.38593423 0.23852047
0.038783364 0 0.028759995 -0.14741376 -0.38593423 0.23852047
0.039613504 0 0.028618762 -0.14741376 -0.38593423 0.23852047
0.00020629114 0.075196482 0 -0.14741376 -0.38593423 0.23852047
0.0009956056 0.07488849 0 -0.14741376 -0.38593423 0.23852047
0.0017848483 0.074580744 0 -0.14741376 -0.38593423 0.23852047
0 0.066375352 0.0040933825 -0.14741376 -0.38593423 0.23852047
0.0033631367 0.073965944 0 -0.14741376 -0.38593423 0.23852047
0 0.061068214 0.0065343352 -0.14741376 -0.38593423 0.23852047
0.005730147 0.073045492 0 -0.14741376 -0.38593423 0.23852047
0.0065190564 0.072739132 2.7755576e-17 -0.14741376 -0.38593423 0.23852047
0 0.05078306 0.011265971 -0.14741376 -0.38593423 0.23852047
0 0.048277803 0.012418731 -0.14741376 -0.38593423 0.23852047
0 0.045798123 0.013559813 -0.14741376 -0.38593423 0.23852047
0 0.043343622 0.014689398 -0.14741376 -0.38593423 0.23852047
0.010463106 0.071210653 0 -0.14741376 -0.38593423 0.23852047
0 0.038508594 0.016914796 -0.14741376 -0.38593423 0.23852047
0 0.036127303 0.018010955 -0.14741376 -0.38593423 0.23852047
0 0.033769667 0.019096317 -0.14741376 -0.38593423 0.23852047
0.01361803 0.069991767 0 -0.14741376 -0.38593423 0.23852047
0 0.029123919 0.021235293 -0.14741376 -0.38593423 0.23852047
0 0.026835106 0.02228923 -0.14741376 -0.38593423 0.23852047
0 0.024568547 0.023333007 -0.14741376 -0.38593423 0.23852047
0 0.022323905 0.024366777 -0.14741376 -0.38593423 0.23852047
0 0.020100854 0.02539069 -0.14741376 -0.38593423 0.23852047
0 0.017899077 0.026404891 -0.14741376 -0.38593423 0.23852047
0 0.015718255 0.027409524 -0.14741376 -0.38593423 0.23852047
0 0.013558084 0.028404728 -0.14741376 -0.38593423 0.23852047
0 0.01141826 0.029390642 -0.14741376 -0.38593423 0.23852047
0 0.0092984876 0.030367404 -0.14741376 -0.38593423 0.23852047
0 0.0071984772 0.031335142 -0.14741376 -0.38593423 0.23852047
0 0.0051179435 0.03229399 -0.14741376 -0.38593423 0.23852047
0 0.0030566072 0.03324407 -0.14741376 -0.38593423 0.23852047
0 0.0010141943 0.034185514 -0.14741376 -0.38593423 0.23852047
0.00038663048 0 0.034584966 -0.14741376 -0.38593423 0.23852047
0.0011606684 0 0.034448754 -0.14741376 -0.38593423 0.23852047
0.0019357471 5.5511151e-17 0.034312442 -0.14741376 -0.38593423 0.23852047
0.0027118721 5.5511151e-17 0.034176029 -0.14741376 -0.38593423 0.23852047
0.0034890494 0 0.034039512 -0.14741376 -0.38593423 0.23852047
0.0042672846 0 0.033902895 -0.14741376 -0.38593423 0.23852047
0.0050465837 0 0.033766173 -0.14741376 -0.38593423 0.23852047
0.0058269524 0 0.033629343 -0.14741376 -0.38593423 0.23852047
0.0066083968 0 0.033492412 -0.14741376 -0.38593423 0.23852047
0.0073909219 0 0.03335537 -0.14741376 -0.38593423 0.23852047
0.0081745349 5.5511151e-17 0.033218224 -0.14741376 -0.38593423 0.23852047
0.0089592403 0 0.033080969 -0.14741376 -0.38593423 0.23852047
0.0097450456 5.5511151e-17 0.032943606 -0.14741376 -0.38593423 0.23852047
0.010531955 5.5511151e-17 0.032806132 -0.14741376 -0.38593423 0.23852047
0.011319977 0 0.032668546 -0.14741376 -0.38593423 0.23852047
0.012109115 0 0.032530848 -0.14741376 -0.38593423 0.23852047
0.012899376 0 0.032393038 -0.14741376 -0.38593423 0.23852047
0.013690768 0 0.032255113 -0.14741376 -0.38593423 0.23852047
0.014483294 0 0.032117076 -0.14741376 -0.38593423 0.23852047
0.015276962 0 0.031978924 -0.14741376 -0.38593423 0.23852047
0.016071778 0 0.031840656 -0.14741376 -0.38593423 0.23852047
0.016867748 0 0.031702269 -0.14741376 -0.38593423 0.23852047
0.017664878 0 0.031563763 -0.14741376 -0.38593423 0.23852047
0.018463174 0 0.031425141 -0.14741376 -0.38593423 0.23852047
0.019262644 0 0.031286396 -0.14741376 -0.38593423 0.23852047
0.020063292 5.5511151e-17 0.031147532 -0.14741376 -0.38593423 0.23852047
0.020865126 0 0.031008547 -0.14741376 -0.38593423 0.23852047
0.021668151 0 0.030869439 -0.14741376 -0.38593423 0.23852047
0.022472376 5.5511151e-17 0.030730208 -0.14741376 -0.38593423 0.23852047
0.023277804 0 0.030590851 -0.14741376 -0.38593423 0.23852047
0.039999999 0.035815869 0.011141925 -0.14741376 -0.38593423 0.23852047
0.024892302 0 0.030311763 -0.14741376 -0.38593423 0.23852047
0.025701383 0 0.030172028 -0.14741376 -0.38593423 0.23852047
0.039999999 0.029930051 0.013863436 -0.14741376 -0.38593423 0.23852047
0.027323246 0 0.029892173 -0.14741376 -0.38593423 0.23852047
0.039999999 0.026082102 0.01564312 -0.14741376 -0.38593423 0.23852047
0.028950084 0 0.029611796 -0.14741376 -0.38593423 0.23852047
0.029765386 0 0.029471412 -0.14741376 -0.38593423 0.23852047
0.030581953 0 0.029330892 -0.14741376 -0.38593423 0.23852047
0.03139979 0 0.02919024 -0.14741376 -0.38593423 0.23852047
0.032218903 0 0.029049454 -0.14741376 -0.38593423 0.23852047
0.033039305 5.5511151e-17 0.028908532 -0.14741376 -0.38593423 0.23852047
0.039999999 0.013069949 0.021664031 -0.14741376 -0.38593423 0.23852047
0.034683984 5.5511151e-17 0.028626274 -0.14741376 -0.38593423 0.23852047
0.039999999 0.0094767641 0.023327434 -0.14741376 -0.38593423 0.23852047
0.036333885 5.5511151e-17 0.028343461 -0.14741376 -0.38593423 0.23852047
0.03716081 0 0.028201845 -0.14741376 -0.38593423 0.23852047
0.037989061 0 0.028060086 -0.14741376 -0.38593423 0.23852047
0.039999999 0.00072297489 0.027381349 -0.14741376 -0.38593423 0.23852047
0.00038818535 0.073075995 0 -0.14741376 -0.38593423 0.23852047
0 0.069141872 0.0018862386 -0.14741376 -0.38593423 0.23852047
0 0.066442475 0.0031326497 -0.14741376 -0.38593423 0.23852047
0 0.063771784 0.0043659001 -0.14741376 -0.38593423 0.23852047
0.0035352609 0.071850754 2.7755576e-17 -0.14741376 -0.38593423 0.23852047
0 0.05851464 0.0067937719 -0.14741376 -0.38593423 0.23852047
0 0.055927284 0.0079888077 -0.14741376 -0.38593423 0.23852047
0 0.050832823 0.010342087 -0.14741376 -0.38593423 0.23852047
0 0.048324868 0.011500719 -0.14741376 -0.38593423 0.23852047
0 0.045842543 0.012647598 -0.14741376 -0.38593423 0.23852047
0.0090407254 0.069715157 0 -0.14741376 -0.38593423 0.23852047
0 0.040953189 0.014906833 -0.14741376 -0.38593423 0.23852047
0 0.038545378 0.016019547 -0.14741376 -0.38593423 0.23852047
0 0.036161639 0.017121224 -0.14741376 -0.38593423 0.23852047
0 0.033801604 0.018212032 -0.14741376 -0.38593423 0.23852047
0 0.031464905 0.01929214 -0.14741376 -0.38593423 0.23852047
0 0.029151192 0.02036171 -0.14741376 -0.38593423 0.23852047
0 0.026860114 0.021420902 -0.14741376 -0.38593423 0.23852047
0 0.02459133 0.022469873 -0.14741376 -0.38593423 0.23852047
0 0.022344507 0.023508774 -0.14741376 -0.38593423 0.23852047
0 0.020119317 0.024537757 -0.14741376 -0.38593423 0.23852047
0 0.017915437 0.025556969 -0.14741376 -0.38593423 0.23852047
0 0.015732555 0.026566552 -0.14741376 -0.38593423 0.23852047
0 0.013570359 0.027566653 -0.14741376 -0.38593423 0.23852047
0 0.011428549 0.028557407 -0.14741376 -0.38593423 0.23852047
0 0.0093068276 0.02953895 -0.14741376 -0.38593423 0.23852047
0 0.0072049033 0.030511416 -0.14741376 -0.38593423 0.23852047
0 0.0051224912 0.031474937 -0.14741376 -0.38593423 0.23852047
0 0.0030593106 0.032429639 -0.14741376 -0.38593423 0.23852047
0 0.0010150872 0.033375651 -0.14741376 -0.38593423 0.23852047
0.0003869702 0 0.033777039 -0.14741376 -0.38593423 0.23852047
0.0011616889 5.5511151e-17 0.033640165 -0.14741376 -0.38593423 0.23852047
0.0019374503 0 0.03350319 -0.14741376 -0.38593423 0.23852047
0.0027142598 5.5511151e-17 0.03336611 -0.14741376 -0.38593423 0.23852047
0.027918069 0.062468126 0 -0.14741376 -0.38593423 0.23852047
0.0042710472 0 0.033091631 -0.14741376 -0.38593423 0.23852047
0.0050510364 0 0.032954231 -0.14741376 -0.38593423 0.23852047
0.005832097 5.5511151e-17 0.032816723 -0.14741376 -0.38593423 0.23852047
0.0066142348 0 0.032679107 -0.14741376 -0.38593423 0.23852047
0.0073974561 0 0.032541383 -0.14741376 -0.38593423 0.23852047
0.0081817666 0 0.032403547 -0.14741376 -0.38593423 0.23852047
0.0089671724 0 0.0322656 -0.14741376 -0.38593423 0.23852047
0.010541293 0 0.03198937 -0.14741376 -0.38593423 0.23852047
0.01133002 5.5511151e-17 0.031851083 -0.14741376 -0.38593423 0.23852047
0.012119866 0 0.031712681 -0.14741376 -0.38593423 0.23852047
0.012910837 0 0.031574164 -0.14741376 -0.38593423 0.23852047
0.01370294 0 0.031435531 -0.14741376 -0.38593423 0.23852047
0.01449618 0 0.031296782 -0.14741376 -0.38593423 0.23852047
0.015290564 5.5511151e-17 0.031157911 -0.14741376 -0.38593423 0.23852047
0.016086098 0 0.031018922 -0.14741376 -0.38593423 0.23852047
0.016882788 0 0.030879814 -0.14741376 -0.38593423 0.23852047
0.018479662 0 0.030601233 -0.14741376 -0.38593423 0.23852047
0.019279856 0 0.030461758 -0.14741376 -0.38593423 0.23852047
0.020081235 0 0.030322159 -0.14741376 -0.38593423 0.23852047
0.020883799 0 0.030182436 -0.14741376 -0.38593423 0.23852047
0.021687558 0 0.030042587 -0.14741376 -0.38593423 0.23852047
0.022492517 0 0.029902611 -0.14741376 -0.38593423 0.23852047
0.023298683 0 0.029762506 -0.14741376 -0.38593423 0.23852047
0.024106063 5.5511151e-17 0.029622275 -0.14741376 -0.38593423 0.23852047
0.039999999 0.033784024 0.011183036 -0.14741376 -0.38593423 0.23852047
0.025724489 0 0.029341422 -0.14741376 -0.38593423 0.23852047
0.026535548 5.5511151e-17 0.029200798 -0.14741376 -0.38593423 0.23852047
0.027347848 0 0.029060042 -0.14741376 -0.38593423 0.23852047
0.028161393 0 0.028919153 -0.14741376 -0.38593423 0.23852047
0.028976191 0 0.02877813 -0.14741376 -0.38593423 0.23852047
0.039999999 0.022231299 0.016546872 -0.14741376 -0.38593423 0.23852047
0.030609574 0 0.028495675 -0.14741376 -0.38593423 0.23852047
0.039999999 0.018497683 0.018281056 -0.14741376 -0.38593423 0.23852047
0.03224805 0 0.028212674 -0.14741376 -0.38593423 0.23852047
0.033069216 5.5511151e-17 0.028070964 -0.14741376 -0.38593423 0.23852047
0.039999999 0.013002433 0.020834122 -0.14741376 -0.38593423 0.23852047
0.034715433 0 0.027787123 -0.14741376 -0.38593423 0.23852047
0.035540499 0 0.02764499 -0.14741376 -0.38593423 0.23852047
0.036366884 0 0.027502714 -0.14741376 -0.38593423 0.23852047
0.037194587 0 0.027360292 -0.14741376 -0.38593423 0.23852047
0.038023617 0 0.027217727 -0.14741376 -0.38593423 0.23852047
0.038853984 0 0.027075015 -0.14741376 -0.38593423 0.23852047
0.039685696 0 0.026932156 -0.14741376 -0.38593423 0.23852047
0 0.069212236 0.0009173057 -0.14741376 -0.38593423 0.23852047
0.0013535509 0.070664063 0 -0.14741376 -0.38593423 0.23852047
0 0.063835986 0.0034097789 -0.14741376 -0.38593423 0.23852047
0 0.061190538 0.0046363641 -0.14741376 -0.38593423 0.23852047
0 0.058572929 0.0058501321 -0.14741376 -0.38593423 0.23852047
0.0044906931 0.069444902 2.7755576e-17 -0.14741376 -0.38593423 0.23852047
0 0.053419434 0.0082400376 -0.14741376 -0.38593423 0.23852047
0 0.050882675 0.0094165765 -0.14741376 -0.38593423 0.23852047
0 0.048372015 0.010581099 -0.14741376 -0.38593423 0.23852047
0 0.045887042 0.011733796 -0.14741376 -0.38593423 0.23852047
0 0.043427344 0.012874851 -0.14741376 -0.38593423 0.23852047
0 0.040992539 0.014004447 -0.14741376 -0.38593423 0.23852047
0 0.038582228 0.015122765 -0.14741376 -0.38593423 0.23852047
0 0.036196038 0.016229976 -0.14741376 -0.38593423 0.23852047
0 0.033833597 0.017326253 -0.14741376 -0.38593423 0.23852047
0 0.029178511 0.019486668 -0.14741376 -0.38593423 0.23852047
0 0.026885163 0.02055113 -0.14741376 -0.38593423 0.23852047
0 0.024614152 0.021605309 -0.14741376 -0.38593423 0.23852047
0 0.022365144 0.022649357 -0.14741376 -0.38593423 0.23852047
0 0.020137807 0.023683425 -0.14741376 -0.38593423 0.23852047
0 0.017931825 0.024707664 -0.14741376 -0.38593423 0.23852047
0 0.015746875 0.025722217 -0.14741376 -0.38593423 0.23852047
0 0.013582653 0.026727226 -0.14741376 -0.38593423 0.23852047
0 0.011438854 0.027722834 -0.14741376 -0.38593423 0.23852047
0 0.0093151806 0.028709173 -0.14741376 -0.38593423 0.23852047
0 0.0072113397 0.029686382 -0.14741376 -0.38593423 0.23852047
0 0.0051270458 0.030654592 -0.14741376 -0.38593423 0.23852047
0 0.0030620182 0.031613931 -0.14741376 -0.38593423 0.23852047
0 0.0010159814 0.032564528 -0.14741376 -0.38593423 0.23852047
0.00038731043 0 0.032967854 -0.14741376 -0.38593423 0.23852047
0.0011627111 0 0.032830317 -0.14741376 -0.38593423 0.23852047
0.001939156 0 0.032692675 -0.14741376 -0.38593423 0.23852047
0.0027166512 0 0.032554924 -0.14741376 -0.38593423 0.23852047
0.0034952022 0 0.032417063 -0.14741376 -0.38593423 0.23852047
0.0042748149 0 0.032279097 -0.14741376 -0.38593423 0.23852047
0.028800676 0.060104426 2.7755576e-17 -0.14741376 -0.38593423 0.23852047
0.0058372491 0 0.032002829 -0.14741376 -0.38593423 0.23852047
0.0066200821 5.5511151e-17 0.031864528 -0.14741376 -0.38593423 0.23852047
0.0074040005 0 0.031726114 -0.14741376 -0.38593423 0.23852047
0.0081890095 5.5511151e-17 0.03158759 -0.14741376 -0.38593423 0.23852047
0.0089751165 0 0.031448949 -0.14741376 -0.38593423 0.23852047
0.0097623263 0 0.031310193 -0.14741376 -0.38593423 0.23852047
0.010550644 0 0.03117132 -0.14741376 -0.38593423 0.23852047
0.011340079 0 0.031032331 -0.14741376 -0.38593423 0.23852047
0.012130634 0 0.030893225 -0.14741376 -0.38593423 0.23852047
0.012922316 0 0.030753998 -0.14741376 -0.38593423 0.23852047
0.013715131 5.5511151e-17 0.030614654 -0.14741376 -0.38593423 0.23852047
0.014509086 5.5511151e-17 0.030475188 -0.14741376 -0.38593423 0.23852047
0.015304188 0 0.030335601 -0.14741376 -0.38593423 0.23852047
0.01610044 5.5511151e-17 0.030195892 -0.14741376 -0.38593423 0.23852047
0.016897852 0 0.030056057 -0.14741376 -0.38593423 0.23852047
0.017696427 0 0.0299161 -0.14741376 -0.38593423 0.23852047
0.018496174 0 0.029776018 -0.14741376 -0.38593423 0.23852047
0.019297099 0 0.029635809 -0.14741376 -0.38593423 0.23852047
0.020099206 0 0.029495474 -0.14741376 -0.38593423 0.23852047
0.020902501 0 0.02935501 -0.14741376 -0.38593423 0.23852047
0.021706995 0 0.029214418 -0.14741376 -0.38593423 0.23852047
0.022512691 0 0.029073695 -0.14741376 -0.38593423 0.23852047
0.039999999 0.037705217 0.0084564332 -0.14741376 -0.38593423 0.23852047
0.024127716 5.5511151e-17 0.028791856 -0.14741376 -0.38593423 0.23852047
0.02493706 0 0.028650738 -0.14741376 -0.38593423 0.23852047
0.025747633 0 0.028509488 -0.14741376 -0.38593423 0.23852047
0.026559439 0 0.028368101 -0.14741376 -0.38593423 0.23852047
0.027372489 0 0.028226579 -0.14741376 -0.38593423 0.23852047
0.039999999 0.025963034 0.013928246 -0.14741376 -0.38593423 0.23852047
0.029002339 0 0.027943125 -0.14741376 -0.38593423 0.23852047
0.029819155 0 0.02780119 -0.14741376 -0.38593423 0.23852047
0.03063724 0 0.027659116 -0.14741376 -0.38593423 0.23852047
0.031456601 5.5511151e-17 0.027516901 -0.14741376 -0.38593423 0.23852047
0.032277241 0 0.027374545 -0.14741376 -0.38593423 0.23852047
0.033099174 5.5511151e-17 0.027232045 -0.14741376 -0.38593423 0.23852047
0.0339224 0 0.027089404 -0.14741376 -0.38593423 0.23852047
0.039999999 0.011129392 0.020845348 -0.14741376 -0.38593423 0.23852047
0.039999999 0.0093373936 0.021681353 -0.14741376 -0.38593423 0.23852047
0.039999999 0.0075586773 0.022511244 -0.14741376 -0.38593423 0.23852047
0.037228417 0 0.026517378 -0.14741376 -0.38593423 0.23852047
0.038058233 0 0.026374003 -0.14741376 -0.38593423 0.23852047
0.039999999 0.0023006834 0.024964945 -0.14741376 -0.38593423 0.23852047
0.03972188 0 0.026086802 -0.14741376 -0.38593423 0.23852047
0.00074908562 0.068876542 0 -0.14741376 -0.38593423 0.23852047
0.0023130691 0.068268664 2.7755576e-17 -0.14741376 -0.38593423 0.23852047
0 0.058631323 0.004904795 -0.14741376 -0.38593423 0.23852047
0.0038768256 0.067661636 0 -0.14741376 -0.38593423 0.23852047
0 0.053472135 0.0073069055 -0.14741376 -0.38593423 0.23852047
0 0.050932616 0.00848943 -0.14741376 -0.38593423 0.23852047
0 0.048419245 0.0096598631 -0.14741376 -0.38593423 0.23852047
0 0.045931615 0.010818396 -0.14741376 -0.38593423 0.23852047
0.0077854618 0.066147693 0 -0.14741376 -0.38593423 0.23852047
0 0.041031953 0.013100504 -0.14741376 -0.38593423 0.23852047
0.0093487101 0.065543532 2.7755576e-17 -0.14741376 -0.38593423 0.23852047
0.010130308 0.065241754 0 -0.14741376 -0.38593423 0.23852047
0 0.033865642 0.016438967 -0.14741376 -0.38593423 0.23852047
0 0.031524222 0.017529894 -0.14741376 -0.38593423 0.23852047
0 0.029205877 0.018610153 -0.14741376 -0.38593423 0.23852047
0 0.026910255 0.019679904 -0.14741376 -0.38593423 0.23852047
0 0.024637012 0.020739308 -0.14741376 -0.38593423 0.23852047
0 0.022385813 0.021788519 -0.14741376 -0.38593423 0.23852047
0 0.020156329 0.02282769 -0.14741376 -0.38593423 0.23852047
0 0.017948238 0.023856971 -0.14741376 -0.38593423 0.23852047
0 0.015761221 0.024876507 -0.14741376 -0.38593423 0.23852047
0 0.013594968 0.025886443 -0.14741376 -0.38593423 0.23852047
0 0.011449177 0.026886918 -0.14741376 -0.38593423 0.23852047
0 0.0093235467 0.02787807 -0.14741376 -0.38593423 0.23852047
0 0.0072177858 0.028860036 -0.14741376 -0.38593423 0.23852047
0 0.0051316079 0.029832948 -0.14741376 -0.38593423 0.23852047
0 0.0030647302 0.030796938 -0.14741376 -0.38593423 0.23852047
0 0.0010168771 0.031752128 -0.14741376 -0.38593423 0.23852047
0.00038765121 5.5511151e-17 0.032157406 -0.14741376 -0.38593423 0.23852047
0.0011637347 5.5511151e-17 0.032019202 -0.14741376 -0.38593423 0.23852047
0.0019408645 0 0.031880889 -0.14741376 -0.38593423 0.23852047
0.0027190463 0 0.031742465 -0.14741376 -0.38593423 0.23852047
0.0034982858 0 0.031603932 -0.14741376 -0.38593423 0.23852047
0.027330624 0.058648765 0 -0.14741376 -0.38593423 0.23852047
0.028113108 0.058351025 0 -0.14741376 -0.38593423 0.23852047
0.0058424096 0 0.031187654 -0.14741376 -0.38593423 0.23852047
0.0066259387 0 0.031048667 -0.14741376 -0.38593423 0.23852047
0.0074105551 0 0.030909564 -0.14741376 -0.38593423 0.23852047
0.0081962645 0 0.030770345 -0.14741376 -0.38593423 0.23852047
0.0089830728 5.5511151e-17 0.030631008 -0.14741376 -0.38593423 0.23852047
0.0097709866 0 0.030491553 -0.14741376 -0.38593423 0.23852047
0.010560011 0 0.03035198 -0.14741376 -0.38593423 0.23852047
0.011350153 0 0.030212285 -0.14741376 -0.38593423 0.23852047
0.012141418 0 0.030072471 -0.14741376 -0.38593423 0.23852047
0.012933812 0 0.029932534 -0.14741376 -0.38593423 0.23852047
0.036727574 0.055085737 2.7755576e-17 -0.14741376 -0.38593423 0.23852047
0.014522014 5.5511151e-17 0.029652292 -0.14741376 -0.38593423 0.23852047
0.015317833 0 0.029511984 -0.14741376 -0.38593423 0.23852047
0.039079726 0.054198161 0 -0.14741376 -0.38593423 0.23852047
0.016912941 0 0.029230991 -0.14741376 -0.38593423 0.23852047
0.017712241 0 0.029090304 -0.14741376 -0.38593423 0.23852047
0.018512715 5.5511151e-17 0.028949488 -0.14741376 -0.38593423 0.23852047
0.019314367 5.5511151e-17 0.028808543 -0.14741376 -0.38593423 0.23852047
0.020117205 0 0.028667469 -0.14741376 -0.38593423 0.23852047
0.020921236 5.5511151e-17 0.028526263 -0.14741376 -0.38593423 0.23852047
0.021726463 0 0.028384924 -0.14741376 -0.38593423 0.23852047
0.022532897 0 0.028243454 -0.14741376 -0.38593423 0.23852047
0.023340542 0 0.028101848 -0.14741376 -0.38593423 0.23852047
0.024149405 0 0.027960109 -0.14741376 -0.38593423 0.23852047
0.024959493 0 0.027818231 -0.14741376 -0.38593423 0.23852047
0.025770811 0 0.027676217 -0.14741376 -0.38593423 0.23852047
0.026583368 0 0.027534066 -0.14741376 -0.38593423 0.23852047
0.027397169 5.5511151e-17 0.027391776 -0.14741376 -0.38593423 0.23852047
0.028212221 0 0.027249346 -0.14741376 -0.38593423 0.23852047
0.029028529 0 0.027106775 -0.14741376 -0.38593423 0.23852047
0.029846104 0 0.026964063 -0.14741376 -0.38593423 0.23852047
0.030664949 0 0.026821207 -0.14741376 -0.38593423 0.23852047
0.031485073 0 0.026678206 -0.14741376 -0.38593423 0.23852047
0.032306481 0 0.026535062 -0.14741376 -0.38593423 0.23852047
0.033129182 0 0.026391771 -0.14741376 -0.38593423 0.23852047
0.033953179 0 0.026248334 -0.14741376 -0.38593423 0.23852047
0.034778483 0 0.026104748 -0.14741376 -0.38593423 0.23852047
0.035605103 0 0.025961014 -0.14741376 -0.38593423 0.23852047
0.039999999 0.0074878214 0.0216903 -0.14741376 -0.38593423 0.23852047
0.039999999 0.005721211 0.022517776 -0.14741376 -0.38593423 0.23852047
0.0380929 0 0.025528906 -0.14741376 -0.38593423 0.23852047
0.038924839 0 0.025384566 -0.14741376 -0.38593423 0.23852047
0.039758123 0 0.025240069 -0.14741376 -0.38593423 0.23852047
0 0.066644594 0.00023989973 -0.14741376 -0.38593423 0.23852047
0 0.063964739 0.0014923075 -0.14741376 -0.38593423 0.23852047
0.0017077292 0.066494487 0 -0.14741376 -0.38593423 0.23852047
0.0024872967 0.066191919 0 -0.14741376 -0.38593423 0.23852047
0 0.056093846 0.0051712128 -0.14741376 -0.38593423 0.23852047
0 0.05352493 0.0063721081 -0.14741376 -0.38593423 0.23852047
0.0048256977 0.065285437 0 -0.14741376 -0.38593423 0.23852047
0.0056050788 0.064983681 0 -0.14741376 -0.38593423 0.23852047
0 0.04597627 0.0099013904 -0.14741376 -0.38593423 0.23852047
0 0.043511361 0.011053992 -0.14741376 -0.38593423 0.23852047
0 0.041071441 0.012194992 -0.14741376 -0.38593423 0.23852047
0 0.038656116 0.01332457 -0.14741376 -0.38593423 0.23852047
0.0095015448 0.063477829 0 -0.14741376 -0.38593423 0.23852047
0 0.026935387 0.018807217 -0.14741376 -0.38593423 0.23852047
0.013397689 0.061976727 0 -0.14741376 -0.38593423 0.23852047
0 0.022406517 0.020926254 -0.14741376 -0.38593423 0.23852047
0 0.020174881 0.021970542 -0.14741376 -0.38593423 0.23852047
0 0.017964678 0.023004882 -0.14741376 -0.38593423 0.23852047
0 0.015775589 0.024029415 -0.14741376 -0.38593423 0.23852047
0 0.013607303 0.025044292 -0.14741376 -0.38593423 0.23852047
0.018073432 0.06018135 2.7755576e-17 -0.14741376 -0.38593423 0.23852047
0 0.0093319258 0.02704563 -0.14741376 -0.38593423 0.23852047
0.019632259 0.059584271 0 -0.14741376 -0.38593423 0.23852047
0.020411739 0.059285983 0 -0.14741376 -0.38593423 0.23852047
0 0.0030674464 0.02997865 -0.14741376 -0.38593423 0.23852047
0 0.0010177742 0.030938454 -0.14741376 -0.38593423 0.23852047
0.00038799254 0 0.031345684 -0.14741376 -0.38593423 0.23852047
0.0011647601 0 0.031206811 -0.14741376 -0.38593423 0.23852047
0.0019425757 0 0.031067828 -0.14741376 -0.38593423 0.23852047
0.0027214452 0 0.030928729 -0.14741376 -0.38593423 0.23852047
0.0035013743 5.5511151e-17 0.030789519 -0.14741376 -0.38593423 0.23852047
0.0042823688 0 0.030650193 -0.14741376 -0.38593423 0.23852047
0.027429853 0.056608621 0 -0.14741376 -0.38593423 0.23852047
0.0058475784 0 0.030371193 -0.14741376 -0.38593423 0.23852047
0.0066318046 5.5511151e-17 0.030231517 -0.14741376 -0.38593423 0.23852047
0.03055118 0.055422649 0 -0.14741376 -0.38593423 0.23852047
0.0089910422 0 0.029811773 -0.14741376 -0.38593423 0.23852047
0.009779661 0 0.029671617 -0.14741376 -0.38593423 0.23852047
0.011360244 0 0.029390939 -0.14741376 -0.38593423 0.23852047
0.01215222 0 0.029250413 -0.14741376 -0.38593423 0.23852047
0.012945328 0 0.029109763 -0.14741376 -0.38593423 0.23852047
0.013739573 0 0.028968988 -0.14741376 -0.38593423 0.23852047
0.014534961 5.5511151e-17 0.028828084 -0.14741376 -0.38593423 0.23852047
0.0153315 0 0.028687054 -0.14741376 -0.38593423 0.23852047
0.016129196 5.5511151e-17 0.028545896 -0.14741376 -0.38593423 0.23852047
0.016928053 0 0.028404607 -0.14741376 -0.38593423 0.23852047
0.017728079 5.5511151e-17 0.028263189 -0.14741376 -0.38593423 0.23852047
0.018529281 0 0.028121637 -0.14741376 -0.38593423 0.23852047
0.019331662 0 0.027979955 -0.14741376 -0.38593423 0.23852047
0.020939998 0 0.027696187 -0.14741376 -0.38593423 0.23852047
0.021745963 0 0.0275541 -0.14741376 -0.38593423 0.23852047
0.022553137 0 0.027411878 -0.14741376 -0.38593423 0.23852047
0.023361523 0 0.027269518 -0.14741376 -0.38593423 0.23852047
0.024171129 0 0.02712702 -0.14741376 -0.38593423 0.23852047
0.039999999 0.033620175 0.0085566835 -0.14741376 -0.38593423 0.23852047
0.025794029 0 0.026841605 -0.14741376 -0.38593423 0.23852047
0.026607336 5.5511151e-17 0.026698686 -0.14741376 -0.38593423 0.23852047
0.02742189 0 0.026555626 -0.14741376 -0.38593423 0.23852047
0.039999999 0.025843652 0.012208844 -0.14741376 -0.38593423 0.23852047
0.029054763 5.5511151e-17 0.026269073 -0.14741376 -0.38593423 0.23852047
0.029873097 0 0.02612558 -0.14741376 -0.38593423 0.23852047
0.030692704 0 0.02598194 -0.14741376 -0.38593423 0.23852047
0.031513594 0 0.025838152 -0.14741376 -0.38593423 0.23852047
0.032335769 0 0.025694218 -0.14741376 -0.38593423 0.23852047
0.033159237 0 0.025550133 -0.14741376 -0.38593423 0.23852047
0.033984009 0 0.025405897 -0.14741376 -0.38593423 0.23852047
0.034810089 5.5511151e-17 0.02526151 -0.14741376 -0.38593423 0.23852047
0.039999999 0.0091976691 0.020031093 -0.14741376 -0.38593423 0.23852047
0.0364662 0 0.024972279 -0.14741376 -0.38593423 0.23852047
0.038127627 0 0.024682429 -0.14741376 -0.38593423 0.23852047
0.038960353 0 0.024537271 -0.14741376 -0.38593423 0.23852047
0.039794426 0 0.024391953 -0.14741376 -0.38593423 0.23852047
0.0011061743 0.064731404 0 -0.14741376 -0.38593423 0.23852047
0 0.058748428 0.0030089929 -0.14741376 -0.38593423 0.23852047
0.0026606105 0.064128555 0 -0.14741376 -0.38593423 0.23852047
0 0.053577818 0.0054356367 -0.14741376 -0.38593423 0.23852047
0 0.051032759 0.0066301944 -0.14741376 -0.38593423 0.23852047
0 0.048513956 0.0078125075 -0.14741376 -0.38593423 0.23852047
0 0.046021 0.0089827711 -0.14741376 -0.38593423 0.23852047
0 0.043553479 0.010141174 -0.14741376 -0.38593423 0.23852047
0.0073228604 0.062324703 0 -0.14741376 -0.38593423 0.23852047
0 0.038693156 0.012423141 -0.14741376 -0.38593423 0.23852047
0.0088767102 0.061724938 0 -0.14741376 -0.38593423 0.23852047
0 0.033929903 0.014659848 -0.14741376 -0.38593423 0.23852047
0 0.031583741 0.015761664 -0.14741376 -0.38593423 0.23852047
0.011207389 0.060826667 0 -0.14741376 -0.38593423 0.23852047
0 0.026960563 0.017933059 -0.14741376 -0.38593423 0.23852047
0 0.024682844 0.019002965 -0.14741376 -0.38593423 0.23852047
0 0.022427257 0.020062551 -0.14741376 -0.38593423 0.23852047
0 0.020193465 0.021111974 -0.14741376 -0.38593423 0.23852047
0 0.017981146 0.022151388 -0.14741376 -0.38593423 0.23852047
0.015868843 0.059034914 2.7755576e-17 -0.14741376 -0.38593423 0.23852047
0 0.013619658 0.024200769 -0.14741376 -0.38593423 0.23852047
0 0.011469871 0.025211025 -0.14741376 -0.38593423 0.23852047
0.018199859 0.058141332 2.7755576e-17 -0.14741376 -0.38593423 0.23852047
0 0.0072307098 0.027203372 -0.14741376 -0.38593423 0.23852047
0 0.0051407535 0.028185733 -0.14741376 -0.38593423 0.23852047
0 0.0030701668 0.029159063 -0.14741376 -0.38593423 0.23852047
0 0.0010186727 0.030123491 -0.14741376 -0.38593423 0.23852047
0.00038833439 0 0.030532679 -0.14741376 -0.38593423 0.23852047
0.022863075 0.056358539 2.7755576e-17 -0.14741376 -0.38593423 0.23852047
0.0019442895 0 0.030253481 -0.14741376 -0.38593423 0.23852047
0.0027238477 0 0.030113708 -0.14741376 -0.38593423 0.23852047
0.0035044677 5.5511151e-17 0.029973818 -0.14741376 -0.38593423 0.23852047
0.0042861551 0 0.02983381 -0.14741376 -0.38593423 0.23852047
0.0050689154 0 0.029693684 -0.14741376 -0.38593423 0.23852047
0.0058527552 5.5511151e-17 0.029553436 -0.14741376 -0.38593423 0.23852047
0.0066376799 5.5511151e-17 0.029413069 -0.14741376 -0.38593423 0.23852047
0.0074236956 0 0.029272581 -0.14741376 -0.38593423 0.23852047
0.008210809 0 0.029131969 -0.14741376 -0.38593423 0.23852047
0.0089990245 0 0.028991235 -0.14741376 -0.38593423 0.23852047
0.0097883493 0 0.028850377 -0.14741376 -0.38593423 0.23852047
0.010578789 0 0.028709391 -0.14741376 -0.38593423 0.23852047
0.011370351 0 0.028568281 -0.14741376 -0.38593423 0.23852047
0.012163039 5.5511151e-17 0.028427044 -0.14741376 -0.38593423 0.23852047
0.01295686 0 0.028285678 -0.14741376 -0.38593423 0.23852047
0.035312589 0.051630363 0 -0.14741376 -0.38593423 0.23852047
0.01454793 0 0.02800256 -0.14741376 -0.38593423 0.23852047
0.015345189 5.5511151e-17 0.027860805 -0.14741376 -0.38593423 0.23852047
0.016143607 5.5511151e-17 0.027718918 -0.14741376 -0.38593423 0.23852047
0.016943188 0 0.027576899 -0.14741376 -0.38593423 0.23852047
0.017743941 0 0.027434746 -0.14741376 -0.38593423 0.23852047
0.018545873 0 0.027292456 -0.14741376 -0.38593423 0.23852047
0.019348986 0 0.027150033 -0.14741376 -0.38593423 0.23852047
0.020153292 0 0.027007474 -0.14741376 -0.38593423 0.23852047
0.020958791 0 0.026864775 -0.14741376 -0.38593423 0.23852047
0.039999999 0.041596822 0.0038938378 -0.14741376 -0.38593423 0.23852047
0.022573408 0 0.026578963 -0.14741376 -0.38593423 0.23852047
0.023382537 0 0.026435846 -0.14741376 -0.38593423 0.23852047
0.024192888 0 0.026292589 -0.14741376 -0.38593423 0.23852047
0.025004467 0 0.026149187 -0.14741376 -0.38593423 0.23852047
0.025817284 0 0.026005642 -0.14741376 -0.38593423 0.23852047
0.026631342 5.5511151e-17 0.025861954 -0.14741376 -0.38593423 0.23852047
0.02744665 0 0.025718121 -0.14741376 -0.38593423 0.23852047
0.028263213 0 0.02557414 -0.14741376 -0.38593423 0.23852047
0.029081039 0 0.025430011 -0.14741376 -0.38593423 0.23852047
0.029900134 5.5511151e-17 0.025285734 -0.14741376 -0.38593423 0.23852047
0.030720504 0 0.025141308 -0.14741376 -0.38593423 0.23852047
