# .PCD v0.7 - Point Cloud Data file format
VERSION 0.7
FIELDS x y z vp_x vp_y vp_z
SIZE 4 4 4 4 4 4
TYPE F F F F F F
COUNT 1 1 1 1 1 1
WIDTH 750
HEIGHT 1
VIEWPOINT 0 0 0 1 0 0 0
POINTS 750
DATA ascii
0.00118214 0 0.015974972 0.14741376 -0.38593423 0.23852047
0.0019688995 0 0.01612643 0.14741376 -0.38593423 0.23852047
0.0027545986 0 0.016277719 0.14741376 -0.38593423 0.23852047
0.0035392437 0 0.016428845 0.14741376 -0.38593423 0.23852047
0.0043228404 0 0.016579809 0.14741376 -0.38593423 0.23852047
0.0051053944 0 0.016730607 0.14741376 -0.38593423 0.23852047
0.0058869119 0 0.016881244 0.14741376 -0.38593423 0.23852047
0.0066673984 5.5511151e-17 0.017031722 0.14741376 -0.38593423 0.23852047
0.00744686 5.5511151e-17 0.017182039 0.14741376 -0.38593423 0.23852047
0.0082253022 0 0.017332198 0.14741376 -0.38593423 0.23852047
0.0090027312 0 0.017482199 0.14741376 -0.38593423 0.23852047
0.0097791515 0 0.017632043 0.14741376 -0.38593423 0.23852047
0.010554571 0 0.017781731 0.14741376 -0.38593423 0.23852047
0.011328992 0 0.017931266 0.14741376 -0.38593423 0.23852047
0.0010040822 0.031654626 2.7755576e-17 0.14741376 -0.38593423 0.23852047
0.012874871 5.5511151e-17 0.018229876 0.14741376 -0.38593423 0.23852047
0.013646336 0 0.018378953 0.14741376 -0.38593423 0.23852047
0.014416829 0 0.018527878 0.14741376 -0.38593423 0.23852047
0.0039530788 0.032786734 2.7755576e-17 0.14741376 -0.38593423 0.23852047
0.015954914 0 0.018825283 0.14741376 -0.38593423 0.23852047
0.016722517 0 0.018973764 0.14741376 -0.38593423 0.23852047
0.017489169 0 0.0191221 0.14741376 -0.38593423 0.23852047
0.018254872 0 0.019270288 0.14741376 -0.38593423 0.23852047
0.019019635 0 0.019418333 0.14741376 -0.38593423 0.23852047
0.019783463 0 0.019566232 0.14741376 -0.38593423 0.23852047
0.0091158822 0.034771841 2.7755576e-17 0.14741376 -0.38593423 0.23852047
0.021308333 0 0.019861609 0.14741376 -0.38593423 0.23852047
0.022069385 0 0.020009084 0.14741376 -0.38593423 0.23852047
0.022829525 0 0.020156421 0.14741376 -0.38593423 0.23852047
0.023588754 0 0.020303618 0.14741376 -0.38593423 0.23852047
0.012805833 0.036193077 0 0.14741376 -0.38593423 0.23852047
0.025104506 0 0.020597601 0.14741376 -0.38593423 0.23852047
0.02586104 5.5511151e-17 0.020744389 0.14741376 -0.38593423 0.23852047
0.026616685 5.5511151e-17 0.020891041 0.14741376 -0.38593423 0.23852047
0.027371448 5.5511151e-17 0.021037558 0.14741376 -0.38593423 0.23852047
0.028125333 0 0.021183943 0.14741376 -0.38593423 0.23852047
0.028878346 0 0.021330196 0.14741376 -0.38593423 0.23852047
0.029630492 0 0.021476319 0.14741376 -0.38593423 0.23852047
0.030381775 0 0.021622311 0.14741376 -0.38593423 0.23852047
0.031132199 0 0.021768173 0.14741376 -0.38593423 0.23852047
0.031881772 0 0.021913907 0.14741376 -0.38593423 0.23852047
0.032630499 0 0.022059513 0.14741376 -0.38593423 0.23852047
0.033378385 0 0.022204993 0.14741376 -0.38593423 0.23852047
0.034125432 0 0.022350349 0.14741376 -0.38593423 0.23852047
0.034871645 0 0.022495577 0.14741376 -0.38593423 0.23852047
0.035617035 0 0.022640685 0.14741376 -0.38593423 0.23852047
0.036361601 0 0.022785667 0.14741376 -0.38593423 0.23852047
0.037105348 0 0.022930527 0.14741376 -0.38593423 0.23852047
0.037848286 0 0.023075268 0.14741376 -0.38593423 0.23852047
0.038590416 0 0.023219887 0.14741376 -0.38593423 0.23852047
0.039331742 0 0.023364387 0.14741376 -0.38593423 0.23852047
0.039999999 0.00025984761 0.023364002 0.14741376 -0.38593423 0.23852047
0.039999999 0.0029397456 0.022016341 0.14741376 -0.38593423 0.23852047
0.039999999 0.0056541818 0.020651348 0.14741376 -0.38593423 0.23852047
0.030560069 0.043059766 0 0.14741376 -0.38593423 0.23852047
0.031301852 0.043347683 0 0.14741376 -0.38593423 0.23852047
0.032043833 0.04363576 0 0.14741376 -0.38593423 0.23852047
0.039999999 0.016871292 0.015011049 0.14741376 -0.38593423 0.23852047
0.039999999 0.022705792 0.012077522 0.14741376 -0.38593423 0.23852047
0.039999999 0.025682252 0.010581047 0.14741376 -0.38593423 0.23852047
0.03575683 0.045078557 2.7755576e-17 0.14741376 -0.38593423 0.23852047
0.039999999 0.034858461 0.0059677665 0.14741376 -0.38593423 0.23852047
0.039999999 0.038002387 0.0043872576 0.14741376 -0.38593423 0.23852047
0.039999999 0.041190427 0.0027846128 0.14741376 -0.38593423 0.23852047
0.039999999 0.044423532 0.0011593545 0.14741376 -0.38593423 0.23852047
0.0003946666 0 0.014985355 0.14741376 -0.38593423 0.23852047
0.001183195 0 0.015137683 0.14741376 -0.38593423 0.23852047
0.0019706555 0 0.01528984 0.14741376 -0.38593423 0.23852047
0.0027570538 0 0.015441829 0.14741376 -0.38593423 0.23852047
0.0035423962 5.5511151e-17 0.01559365 0.14741376 -0.38593423 0.23852047
0 0.011669937 0.0090089953 0.14741376 -0.38593423 0.23852047
0.005892145 0 0.016048115 0.14741376 -0.38593423 0.23852047
0.0066733216 0 0.016199274 0.14741376 -0.38593423 0.23852047
0.0074534714 5.5511151e-17 0.016350271 0.14741376 -0.38593423 0.23852047
0.0082326001 0 0.016501104 0.14741376 -0.38593423 0.23852047
0.0090107135 0 0.016651779 0.14741376 -0.38593423 0.23852047
0.0097878166 5.5511151e-17 0.016802294 0.14741376 -0.38593423 0.23852047
0.010563917 0 0.016952651 0.14741376 -0.38593423 0.23852047
0.011339018 0 0.017102849 0.14741376 -0.38593423 0.23852047
0.012113127 0 0.01725289 0.14741376 -0.38593423 0.23852047
0.012886249 5.5511151e-17 0.017402777 0.14741376 -0.38593423 0.23852047
0.013658389 0 0.01755251 0.14741376 -0.38593423 0.23852047
0.014429554 0 0.01770209 0.14741376 -0.38593423 0.23852047
0.0045039966 0.031221025 0 0.14741376 -0.38593423 0.23852047
0.015968978 5.5511151e-17 0.018000791 0.14741376 -0.38593423 0.23852047
0.016737249 0 0.018149914 0.14741376 -0.38593423 0.23852047
0.017504567 0 0.01829889 0.14741376 -0.38593423 0.23852047
0.007445469 0.032351144 2.7755576e-17 0.14741376 -0.38593423 0.23852047
0.019036362 0 0.018596396 0.14741376 -0.38593423 0.23852047
0.019800851 5.5511151e-17 0.018744929 0.14741376 -0.38593423 0.23852047
0.020564407 0 0.018893316 0.14741376 -0.38593423 0.23852047
0.021327037 0 0.019041559 0.14741376 -0.38593423 0.23852047
0.022088747 0 0.019189658 0.14741376 -0.38593423 0.23852047
0.022849539 0 0.019337615 0.14741376 -0.38593423 0.23852047
0.023609422 0 0.019485429 0.14741376 -0.38593423 0.23852047
0.0243684 5.5511151e-17 0.019633103 0.14741376 -0.38593423 0.23852047
0.025126478 0 0.01978064 0.14741376 -0.38593423 0.23852047
0.02588366 5.5511151e-17 0.019928034 0.14741376 -0.38593423 0.23852047
0.026639953 0 0.020075293 0.14741376 -0.38593423 0.23852047
0.01627725 0.035751678 0 0.14741376 -0.38593423 0.23852047
0.02814989 0 0.020369401 0.14741376 -0.38593423 0.23852047
0.028903546 5.5511151e-17 0.020516252 0.14741376 -0.38593423 0.23852047
0.029656332 0 0.020662969 0.14741376 -0.38593423 0.23852047
0.030408256 0 0.020809554 0.14741376 -0.38593423 0.23852047
0.031159319 5.5511151e-17 0.020956006 0.14741376 -0.38593423 0.23852047
0.031909529 0 0.021102326 0.14741376 -0.38593423 0.23852047
0.032658894 0 0.021248516 0.14741376 -0.38593423 0.23852047
0.033407412 0 0.021394577 0.14741376 -0.38593423 0.23852047
0.034155093 0 0.021540511 0.14741376 -0.38593423 0.23852047
0.034901939 0 0.021686316 0.14741376 -0.38593423 0.23852047
0.035647959 0 0.021831995 0.14741376 -0.38593423 0.23852047
0.036393154 0 0.021977548 0.14741376 -0.38593423 0.23852047
0.037137531 0 0.022122977 0.14741376 -0.38593423 0.23852047
0.037881091 0 0.022268282 0.14741376 -0.38593423 0.23852047
0.038623847 0 0.022413464 0.14741376 -0.38593423 0.23852047
0.039365798 0 0.022558523 0.14741376 -0.38593423 0.23852047
0.039999999 0.00038465293 0.022488361 0.14741376 -0.38593423 0.23852047
0.039999999 0.0030685572 0.021133475 0.14741376 -0.38593423 0.23852047
0.039999999 0.0057870932 0.01976114 0.14741376 -0.38593423 0.23852047
0.039999999 0.0085409498 0.01837101 0.14741376 -0.38593423 0.23852047
0.039999999 0.011330832 0.016962733 0.14741376 -0.38593423 0.23852047
0.039999999 0.014157466 0.015535939 0.14741376 -0.38593423 0.23852047
0.039999999 0.017021595 0.014090256 0.14741376 -0.38593423 0.23852047
0.039999999 0.019923987 0.012625296 0.14741376 -0.38593423 0.23852047
0.034737173 0.042894907 0 0.14741376 -0.38593423 0.23852047
0.035477921 0.043182544 0 0.14741376 -0.38593423 0.23852047
0.039999999 0.028868703 0.0081107439 0.14741376 -0.38593423 0.23852047
0.039999999 0.031932224 0.0065646083 0.14741376 -0.38593423 0.23852047
0.039999999 0.035038158 0.0049971035 0.14741376 -0.38593423 0.23852047
0.039999999 0.038187414 0.0034077745 0.14741376 -0.38593423 0.23852047
0.039999999 0.04138092 0.0017961541 0.14741376 -0.38593423 0.23852047
0.039999999 0.044619624 0.00016176082 0.14741376 -0.38593423 0.23852047
0 0.0010369528 0.01354307 0.14741376 -0.38593423 0.23852047
0.001184252 5.5511151e-17 0.014298969 0.14741376 -0.38593423 0.23852047
0.0019724146 0 0.01445183 0.14741376 -0.38593423 0.23852047
0.0027595134 5.5511151e-17 0.014604519 0.14741376 -0.38593423 0.23852047
0 0.0095111402 0.0092425086 0.14741376 -0.38593423 0.23852047
0.0043305429 0 0.014909385 0.14741376 -0.38593423 0.23852047
0.005114485 0 0.015061563 0.14741376 -0.38593423 0.23852047
0.0058973874 0 0.015213574 0.14741376 -0.38593423 0.23852047
0.006679255 0 0.015365418 0.14741376 -0.38593423 0.23852047
0 0.020571847 0.0036301189 0.14741376 -0.38593423 0.23852047
0.00823991 5.5511151e-17 0.01566861 0.14741376 -0.38593423 0.23852047
0.009018709 0 0.015819959 0.14741376 -0.38593423 0.23852047
0.0097964965 0 0.015971147 0.14741376 -0.38593423 0.23852047
0.010573278 0 0.016122172 0.14741376 -0.38593423 0.23852047
0.012123847 0 0.016423743 0.14741376 -0.38593423 0.23852047
0.012897647 0 0.01657429 0.14741376 -0.38593423 0.23852047
0.013670462 0 0.01672468 0.14741376 -0.38593423 0.23852047
0.014442301 0 0.016874911 0.14741376 -0.38593423 0.23852047
0.0050517241 0.02966438 0 0.14741376 -0.38593423 0.23852047
0.015983067 0 0.017174913 0.14741376 -0.38593423 0.23852047
0.017519992 5.5511151e-17 0.017474301 0.14741376 -0.38593423 0.23852047
0.0079849269 0.030790931 0 0.14741376 -0.38593423 0.23852047
0.019053116 0 0.017773082 0.14741376 -0.38593423 0.23852047
0.020582484 0 0.018071268 0.14741376 -0.38593423 0.23852047
0.021345774 5.5511151e-17 0.018220138 0.14741376 -0.38593423 0.23852047
0.011652973 0.032201324 0 0.14741376 -0.38593423 0.23852047
0.012386826 0.032483712 2.7755576e-17 0.14741376 -0.38593423 0.23852047
0.01312077 0.032766204 0 0.14741376 -0.38593423 0.23852047
0.024389755 0 0.018814167 0.14741376 -0.38593423 0.23852047
0.025148485 0 0.018962316 0.14741376 -0.38593423 0.23852047
0.025906317 0 0.019110324 0.14741376 -0.38593423 0.23852047
0.026663259 0 0.01925819 0.14741376 -0.38593423 0.23852047
0.027419314 0 0.019405916 0.14741376 -0.38593423 0.23852047
0.028174488 0 0.019553505 0.14741376 -0.38593423 0.23852047
0.018261243 0.034746777 0 0.14741376 -0.38593423 0.23852047
0.029682217 0 0.01984827 0.14741376 -0.38593423 0.23852047
0.030434782 5.5511151e-17 0.019995447 0.14741376 -0.38593423 0.23852047
0.031186486 0 0.02014249 0.14741376 -0.38593423 0.23852047
0.031937335 0 0.020289401 0.14741376 -0.38593423 0.23852047
0.021936584 0.036165006 0 0.14741376 -0.38593423 0.23852047
0.033436488 0 0.020582821 0.14741376 -0.38593423 0.23852047
0.034184802 0 0.020729333 0.14741376 -0.38593423 0.23852047
0.034932282 0 0.020875717 0.14741376 -0.38593423 0.23852047
0.035678931 0 0.021021971 0.14741376 -0.38593423 0.23852047
0.036424756 0 0.021168096 0.14741376 -0.38593423 0.23852047
0.037169762 0 0.021314094 0.14741376 -0.38593423 0.23852047
0.037913952 0 0.021459965 0.14741376 -0.38593423 0.23852047
0.038657334 0 0.021605711 0.14741376 -0.38593423 0.23852047
0.039399911 0 0.021751333 0.14741376 -0.38593423 0.23852047
0.039999999 0.00050974451 0.021610713 0.14741376 -0.38593423 0.23852047
0.039999999 0.0031976663 0.02024857 0.14741376 -0.38593423 0.23852047
0.039999999 0.0059203142 0.018868862 0.14741376 -0.38593423 0.23852047
0.039999999 0.0086783785 0.017471241 0.14741376 -0.38593423 0.23852047
0.032247927 0.040153489 0 0.14741376 -0.38593423 0.23852047
0.039999999 0.014303612 0.014620815 0.14741376 -0.38593423 0.23852047
0.033723872 0.040725544 2.7755576e-17 0.14741376 -0.38593423 0.23852047
0.039999999 0.020079274 0.011694303 0.14741376 -0.38593423 0.23852047
0.039999999 0.023025448 0.010201536 0.14741376 -0.38593423 0.23852047
0.039999999 0.026011594 0.0086885523 0.14741376 -0.38593423 0.23852047
0.039999999 0.029038543 0.0071549299 0.14741376 -0.38593423 0.23852047
0.039999999 0.032107156 0.005600235 0.14741376 -0.38593423 0.23852047
0.039999999 0.035218306 0.0040240223 0.14741376 -0.38593423 0.23852047
0.039999999 0.038372908 0.0024258334 0.14741376 -0.38593423 0.23852047
0.039999999 0.041571893 0.00080519659 0.14741376 -0.38593423 0.23852047
0.00039537277 0 0.013305081 0.14741376 -0.38593423 0.23852047
0.0011853107 0 0.013458825 0.14741376 -0.38593423 0.23852047
0.0019741766 0 0.01361239 0.14741376 -0.38593423 0.23852047
0.002761977 0 0.013765782 0.14741376 -0.38593423 0.23852047
0.0035487174 0 0.013919 0.14741376 -0.38593423 0.23852047
0.0043344037 0 0.014072043 0.14741376 -0.38593423 0.23852047
0.005119042 0 0.014224915 0.14741376 -0.38593423 0.23852047
0.0059026382 0 0.014377615 0.14741376 -0.38593423 0.23852047
0.0066851983 5.5511151e-17 0.014530146 0.14741376 -0.38593423 0.23852047
0.0074667274 5.5511151e-17 0.014682508 0.14741376 -0.38593423 0.23852047
0.0082472321 5.5511151e-17 0.014834702 0.14741376 -0.38593423 0.23852047
0 0.025173739 0.00040605813 0.14741376 -0.38593423 0.23852047
0.0098051904 0 0.015138591 0.14741376 -0.38593423 0.23852047
0.010582656 0 0.015290288 0.14741376 -0.38593423 0.23852047
0.011359119 5.5511151e-17 0.015441821 0.14741376 -0.38593423 0.23852047
0.012134586 0 0.015593193 0.14741376 -0.38593423 0.23852047
0.012909064 5.5511151e-17 0.015744401 0.14741376 -0.38593423 0.23852047
0.013682556 5.5511151e-17 0.01589545 0.14741376 -0.38593423 0.23852047
0.014455069 0 0.01604634 0.14741376 -0.38593423 0.23852047
0.015226609 0 0.01619707 0.14741376 -0.38593423 0.23852047
0.015997181 5.5511151e-17 0.016347645 0.14741376 -0.38593423 0.23852047
0.01676679 0 0.016498063 0.14741376 -0.38593423 0.23852047
0.017535442 5.5511151e-17 0.016648324 0.14741376 -0.38593423 0.23852047
0.018303143 0 0.016798433 0.14741376 -0.38593423 0.23852047
0.019069897 0 0.016948387 0.14741376 -0.38593423 0.23852047
0.019835712 0 0.01709819 0.14741376 -0.38593423 0.23852047
0.020600591 0 0.017247841 0.14741376 -0.38593423 0.23852047
0.02136454 5.5511151e-17 0.01739734 0.14741376 -0.38593423 0.23852047
0.022127565 0 0.017546693 0.14741376 -0.38593423 0.23852047
0.022889672 0 0.017695896 0.14741376 -0.38593423 0.23852047
0.023650864 0 0.017844953 0.14741376 -0.38593423 0.23852047
0.024411147 0 0.017993862 0.14741376 -0.38593423 0.23852047
0.025170529 5.5511151e-17 0.018142626 0.14741376 -0.38593423 0.23852047
0.025929011 0 0.018291246 0.14741376 -0.38593423 0.23852047
0.026686603 0 0.018439721 0.14741376 -0.38593423 0.23852047
0.017303748 0.032618053 0 0.14741376 -0.38593423 0.23852047
0.028199127 0 0.018736249 0.14741376 -0.38593423 0.23852047
0.028954072 5.5511151e-17 0.018884301 0.14741376 -0.38593423 0.23852047
0.029708145 0 0.019032214 0.14741376 -0.38593423 0.23852047
0.03046135 0 0.019179987 0.14741376 -0.38593423 0.23852047
0.031213695 0 0.019327624 0.14741376 -0.38593423 0.23852047
0.03271582 0 0.019622486 0.14741376 -0.38593423 0.23852047
0.033465613 5.5511151e-17 0.019769715 0.14741376 -0.38593423 0.23852047
0.03421456 0 0.019916812 0.14741376 -0.38593423 0.23852047
0.034962676 0 0.020063773 0.14741376 -0.38593423 0.23852047
0.035709959 0 0.020210603 0.14741376 -0.38593423 0.23852047
0.036456414 0 0.020357303 0.14741376 -0.38593423 0.23852047
0.037202049 0 0.020503873 0.14741376 -0.38593423 0.23852047
0.037946869 0 0.020650312 0.14741376 -0.38593423 0.23852047
0.038690876 0 0.020796623 0.14741376 -0.38593423 0.23852047
0.039434079 0 0.020942807 0.14741376 -0.38593423 0.23852047
0.039999999 0.00063512399 0.020731043 0.14741376 -0.38593423 0.23852047
0.039999999 0.0033270747 0.019361615 0.14741376 -0.38593423 0.23852047
0.039999999 0.0060538454 0.017974503 0.14741376 -0.38593423 0.23852047
0.039999999 0.0088161295 0.016569359 0.14741376 -0.38593423 0.23852047
0.039999999 0.011614639 0.01514582 0.14741376 -0.38593423 0.23852047
0.03345269 0.038855169 0 0.14741376 -0.38593423 0.23852047
0.039999999 0.01732328 0.012242058 0.14741376 -0.38593423 0.23852047
0.039999999 0.020234933 0.010761064 0.14741376 -0.38593423 0.23852047
0.039999999 0.023185859 0.0092601264 0.14741376 -0.38593423 0.23852047
0.039999999 0.026176868 0.0077388338 0.14741376 -0.38593423 0.23852047
0.039999999 0.029208802 0.0061967601 0.14741376 -0.38593423 0.23852047
0.039999999 0.03228252 0.0046334681 0.14741376 -0.38593423 0.23852047
0.039999999 0.035398904 0.0030485089 0.14741376 -0.38593423 0.23852047
0.039999999 0.038558871 0.0014414201 0.14741376 -0.38593423 0.23852047
0.00039572673 5.5511151e-17 0.012462786 0.14741376 -0.38593423 0.23852047
0.0011863712 0 0.012617241 0.14741376 -0.38593423 0.23852047
0.0019759419 0 0.012771515 0.14741376 -0.38593423 0.23852047
0.0027644448 0 0.012925611 0.14741376 -0.38593423 0.23852047
0.003551886 0 0.01307953 0.14741376 -0.38593423 0.23852047
0.0043382715 0 0.013233271 0.14741376 -0.38593423 0.23852047
0.0051236069 0 0.013386838 0.14741376 -0.38593423 0.23852047
0.0059078983 0 0.013540231 0.14741376 -0.38593423 0.23852047
0.0074733724 5.5511151e-17 0.013846498 0.14741376 -0.38593423 0.23852047
0 0.02289263 0.0006813592 0.14741376 -0.38593423 0.23852047
0.0090347407 0 0.014152082 0.14741376 -0.38593423 0.23852047
0.0010352436 0.024621999 0 0.14741376 -0.38593423 0.23852047
0.010592049 0 0.014456991 0.14741376 -0.38593423 0.23852047
0.011369196 0 0.014609194 0.14741376 -0.38593423 0.23852047
0.012145344 0 0.014761233 0.14741376 -0.38593423 0.23852047
0.01369467 0 0.015064817 0.14741376 -0.38593423 0.23852047
0.014467859 0 0.015216365 0.14741376 -0.38593423 0.23852047
0.0061377301 0.026577948 0 0.14741376 -0.38593423 0.23852047
0.016011316 5.5511151e-17 0.015518978 0.14741376 -0.38593423 0.23852047
0.016781596 0 0.015670044 0.14741376 -0.38593423 0.23852047
0.017550919 5.5511151e-17 0.015820954 0.14741376 -0.38593423 0.23852047
0.018319286 0 0.015971705 0.14741376 -0.38593423 0.23852047
0.019086707 0 0.0161223 0.14741376 -0.38593423 0.23852047
0.010513337 0.02825769 0 0.14741376 -0.38593423 0.23852047
0.020618727 0 0.016423026 0.14741376 -0.38593423 0.23852047
0.021383338 0 0.016573159 0.14741376 -0.38593423 0.23852047
0.022147024 0 0.016723139 0.14741376 -0.38593423 0.23852047
0.022909787 5.5511151e-17 0.016872969 0.14741376 -0.38593423 0.23852047
0.023671636 0 0.017022649 0.14741376 -0.38593423 0.23852047
0.024432575 0 0.017172178 0.14741376 -0.38593423 0.23852047
0.025192609 0 0.017321559 0.14741376 -0.38593423 0.23852047
0.025951745 0 0.017470794 0.14741376 -0.38593423 0.23852047
0.026709987 0 0.017619882 0.14741376 -0.38593423 0.23852047
0.027467338 0 0.017768824 0.14741376 -0.38593423 0.23852047
0.028223807 0 0.017917624 0.14741376 -0.38593423 0.23852047
0.028979398 0 0.01806628 0.14741376 -0.38593423 0.23852047
0.029734116 0 0.018214792 0.14741376 -0.38593423 0.23852047
0.030487964 0 0.018363163 0.14741376 -0.38593423 0.23852047
0.031240951 5.5511151e-17 0.018511396 0.14741376 -0.38593423 0.23852047
0.03199308 0 0.018659487 0.14741376 -0.38593423 0.23852047
0.032744355 0 0.018807439 0.14741376 -0.38593423 0.23852047
0.033494785 0 0.018955255 0.14741376 -0.38593423 0.23852047
0.024391614 0.033600215 0 0.14741376 -0.38593423 0.23852047
0.03499312 0 0.019250479 0.14741376 -0.38593423 0.23852047
0.035741035 0 0.019397886 0.14741376 -0.38593423 0.23852047
0.036488123 0 0.019545162 0.14741376 -0.38593423 0.23852047
0.037234388 0 0.019692304 0.14741376 -0.38593423 0.23852047
0.037979838 0 0.019839313 0.14741376 -0.38593423 0.23852047
0.038724475 0 0.019986192 0.14741376 -0.38593423 0.23852047
0.039468303 0 0.020132942 0.14741376 -0.38593423 0.23852047
0.039999999 0.00076079293 0.019849343 0.14741376 -0.38593423 0.23852047
0.039999999 0.0034567837 0.018472597 0.14741376 -0.38593423 0.23852047
0.039999999 0.0061876895 0.017078053 0.14741376 -0.38593423 0.23852047
0.039999999 0.0089542056 0.015665352 0.14741376 -0.38593423 0.23852047
0.039999999 0.011757049 0.014234133 0.14741376 -0.38593423 0.23852047
0.039999999 0.01459695 0.01278402 0.14741376 -0.38593423 0.23852047
0.039999999 0.017474666 0.01131463 0.14741376 -0.38593423 0.23852047
0.039999999 0.020390971 0.0098255649 0.14741376 -0.38593423 0.23852047
0.039999999 0.023346659 0.0083164228 0.14741376 -0.38593423 0.23852047
0.039999999 0.02634255 0.0067867842 0.14741376 -0.38593423 0.23852047
0.039999999 0.029379481 0.0052362215 0.14741376 -0.38593423 0.23852047
0.039999999 0.03245832 0.0036642943 0.14741376 -0.38593423 0.23852047
0.039999999 0.035579957 0.0020705492 0.14741376 -0.38593423 0.23852047
0.039999999 0.038745303 0.00045452034 0.14741376 -0.38593423 0.23852047
0 0.001039748 0.011007747 0.14741376 -0.38593423 0.23852047
0.0011874335 0 0.01177421 0.14741376 -0.38593423 0.23852047
0 0.0052481205 0.008847896 0.14741376 -0.38593423 0.23852047
0.0027669168 0 0.012083997 0.14741376 -0.38593423 0.23852047
0.0043421453 0 0.012393062 0.14741376 -0.38593423 0.23852047
0.0051281792 0 0.012547325 0.14741376 -0.38593423 0.23852047
0 0.016127801 0.0032646623 0.14741376 -0.38593423 0.23852047
0.006697115 0 0.012855323 0.14741376 -0.38593423 0.23852047
0.0074800286 0 0.013009059 0.14741376 -0.38593423 0.23852047
0.0082619144 0 0.01316262 0.14741376 -0.38593423 0.23852047
0.00086110353 0.022819724 0 0.14741376 -0.38593423 0.23852047
0.0098226238 0 0.013469227 0.14741376 -0.38593423 0.23852047
0.010601459 0 0.013622273 0.14741376 -0.38593423 0.23852047
0.01215612 0 0.013927857 0.14741376 -0.38593423 0.23852047
0.0044951504 0.024211841 0 0.14741376 -0.38593423 0.23852047
0.013706804 0 0.014232771 0.14741376 -0.38593423 0.23852047
0.014480671 5.5511151e-17 0.01438498 0.14741376 -0.38593423 0.23852047
0.01525356 0 0.014537024 0.14741376 -0.38593423 0.23852047
0.016025478 0 0.014688905 0.14741376 -0.38593423 0.23852047
0.016796429 0 0.014840623 0.14741376 -0.38593423 0.23852047
0.017566422 0 0.014992181 0.14741376 -0.38593423 0.23852047
0.019103546 0 0.015294815 0.14741376 -0.38593423 0.23852047
0.019870691 5.5511151e-17 0.015445895 0.14741376 -0.38593423 0.23852047
0.020636896 0 0.015596818 0.14741376 -0.38593423 0.23852047
0.021402169 5.5511151e-17 0.015747584 0.14741376 -0.38593423 0.23852047
0.022166515 0 0.015898196 0.14741376 -0.38593423 0.23852047
0.013949933 0.027840491 0 0.14741376 -0.38593423 0.23852047
0.023692444 5.5511151e-17 0.016198957 0.14741376 -0.38593423 0.23852047
0.024454039 5.5511151e-17 0.016349109 0.14741376 -0.38593423 0.23852047
0.016133731 0.028679995 0 0.14741376 -0.38593423 0.23852047
0.025974516 0 0.016648961 0.14741376 -0.38593423 0.23852047
0.02673341 0 0.016798664 0.14741376 -0.38593423 0.23852047
0.027491411 5.5511151e-17 0.016948218 0.14741376 -0.38593423 0.23852047
0.02824853 0 0.017097624 0.14741376 -0.38593423 0.23852047
0.029004768 0 0.017246883 0.14741376 -0.38593423 0.23852047
0.02976013 0 0.017395999 0.14741376 -0.38593423 0.23852047
0.030514624 0 0.01754497 0.14741376 -0.38593423 0.23852047
0.031268254 0 0.017693799 0.14741376 -0.38593423 0.23852047
0.032021023 0 0.017842485 0.14741376 -0.38593423 0.23852047
0.03277294 0 0.017991029 0.14741376 -0.38593423 0.23852047
0.033524007 5.5511151e-17 0.018139433 0.14741376 -0.38593423 0.23852047
0.034274228 5.5511151e-17 0.018287698 0.14741376 -0.38593423 0.23852047
0.035023615 0 0.018435823 0.14741376 -0.38593423 0.23852047
0.035772163 5.5511151e-17 0.018583812 0.14741376 -0.38593423 0.23852047
0.036519885 0 0.018731665 0.14741376 -0.38593423 0.23852047
0.037266783 0 0.01887938 0.14741376 -0.38593423 0.23852047
0.038012862 0 0.019026963 0.14741376 -0.38593423 0.23852047
0.038758129 0 0.019174412 0.14741376 -0.38593423 0.23852047
0.039502583 0 0.019321727 0.14741376 -0.38593423 0.23852047
0.039999999 0.00088675303 0.0189656 0.14741376 -0.38593423 0.23852047
0.039999999 0.0035867952 0.017581508 0.14741376 -0.38593423 0.23852047
0.039999999 0.0063218474 0.016179498 0.14741376 -0.38593423 0.23852047
0.039999999 0.0090926085 0.01475921 0.14741376 -0.38593423 0.23852047
0.039999999 0.011899795 0.013320278 0.14741376 -0.38593423 0.23852047
0.034378417 0.035713952 0 0.14741376 -0.38593423 0.23852047
0.039999999 0.017626418 0.010384963 0.14741376 -0.38593423 0.23852047
0.039999999 0.023507854 0.00737041 0.14741376 -0.38593423 0.23852047
0.039999999 0.029550586 0.004273301 0.14741376 -0.38593423 0.23852047
0.039999999 0.032634564 0.0026926997 0.14741376 -0.38593423 0.23852047
0.039506823 0.037697621 0 0.14741376 -0.38593423 0.23852047
0.00039643655 0 0.010773842 0.14741376 -0.38593423 0.23852047
0.0011884976 0 0.010929725 0.14741376 -0.38593423 0.23852047
0.0019794812 0 0.011085421 0.14741376 -0.38593423 0.23852047
0.0027693931 5.5511151e-17 0.011240933 0.14741376 -0.38593423 0.23852047
0.0035582397 0 0.011396261 0.14741376 -0.38593423 0.23852047
0.0043460266 0 0.011551406 0.14741376 -0.38593423 0.23852047
0.0051327595 0 0.01170637 0.14741376 -0.38593423 0.23852047
0.0059184451 0 0.011861153 0.14741376 -0.38593423 0.23852047
0.0067030885 0 0.012015757 0.14741376 -0.38593423 0.23852047
0.0074866964 5.5511151e-17 0.012170183 0.14741376 -0.38593423 0.23852047
0.0082692737 0 0.012324432 0.14741376 -0.38593423 0.23852047
0.0090508275 0 0.012478504 0.14741376 -0.38593423 0.23852047
0.0098313624 0 0.012632402 0.14741376 -0.38593423 0.23852047
0.010610884 0 0.012786126 0.14741376 -0.38593423 0.23852047
0.011389399 0 0.012939678 0.14741376 -0.38593423 0.23852047
0.012166914 0 0.013093057 0.14741376 -0.38593423 0.23852047
0.012943432 0 0.013246266 0.14741376 -0.38593423 0.23852047
0.0057613896 0.022970965 2.7755576e-17 0.14741376 -0.38593423 0.23852047
0.014493505 0 0.013552177 0.14741376 -0.38593423 0.23852047
0.0072113355 0.02352676 2.7755576e-17 0.14741376 -0.38593423 0.23852047
0.016039662 0 0.013857418 0.14741376 -0.38593423 0.23852047
0.0086615048 0.024082851 2.7755576e-17 0.14741376 -0.38593423 0.23852047
0.017581951 0 0.014161997 0.14741376 -0.38593423 0.23852047
0.018351657 0 0.014314042 0.14741376 -0.38593423 0.23852047
0.019120414 5.5511151e-17 0.014465924 0.14741376 -0.38593423 0.23852047
0.019888224 0 0.014617646 0.14741376 -0.38593423 0.23852047
0.020655096 0 0.014769208 0.14741376 -0.38593423 0.23852047
0.02142103 0 0.01492061 0.14741376 -0.38593423 0.23852047
0.022186039 0 0.015071854 0.14741376 -0.38593423 0.23852047
0.022950122 0 0.015222942 0.14741376 -0.38593423 0.23852047
0.015190839 0.026589263 0 0.14741376 -0.38593423 0.23852047
0.024475539 0 0.015524649 0.14741376 -0.38593423 0.23852047
0.025236884 0 0.015675271 0.14741376 -0.38593423 0.23852047
0.025997326 0 0.015825741 0.14741376 -0.38593423 0.23852047
0.026756871 0 0.015976058 0.14741376 -0.38593423 0.23852047
0.027515525 0 0.016126225 0.14741376 -0.38593423 0.23852047
0.028273292 0 0.01627624 0.14741376 -0.38593423 0.23852047
0.029030178 0 0.016426109 0.14741376 -0.38593423 0.23852047
0.029786188 0 0.016575828 0.14741376 -0.38593423 0.23852047
0.030541327 0 0.0167254 0.14741376 -0.38593423 0.23852047
0.022455029 0.029382816 0 0.14741376 -0.38593423 0.23852047
0.032049011 0 0.017024107 0.14741376 -0.38593423 0.23852047
0.032801569 0 0.017173246 0.14741376 -0.38593423 0.23852047
0.033553276 0 0.017322239 0.14741376 -0.38593423 0.23852047
0.025364287 0.030503104 0 0.14741376 -0.38593423 0.23852047
0.035054158 5.5511151e-17 0.017619802 0.14741376 -0.38593423 0.23852047
0.035803344 5.5511151e-17 0.017768372 0.14741376 -0.38593423 0.23852047
0.036551703 0 0.017916804 0.14741376 -0.38593423 0.23852047
0.037299231 0 0.018065097 0.14741376 -0.38593423 0.23852047
0.038045943 0 0.018213252 0.14741376 -0.38593423 0.23852047
0.038791839 0 0.018361272 0.14741376 -0.38593423 0.23852047
0.039536923 0 0.018509155 0.14741376 -0.38593423 0.23852047
0.039999999 0.0010130059 0.018079802 0.14741376 -0.38593423 0.23852047
0.039999999 0.003717111 0.016688334 0.14741376 -0.38593423 0.23852047
0.039999999 0.0064563211 0.015278826 0.14741376 -0.38593423 0.23852047
0.039999999 0.0092313392 0.013850918 0.14741376 -0.38593423 0.23852047
0.039999999 0.012042884 0.012404242 0.14741376 -0.38593423 0.23852047
0.039999999 0.014891696 0.010938414 0.14741376 -0.38593423 0.23852047
0.039999999 0.017778536 0.0094530471 0.14741376 -0.38593423 0.23852047
0.039999999 0.020704184 0.0079477392 0.14741376 -0.38593423 0.23852047
0.037027899 0.035003025 0 0.14741376 -0.38593423 0.23852047
0.039999999 0.026675137 0.0048756371 0.14741376 -0.38593423 0.23852047
0.038489353 0.035567828 0 0.14741376 -0.38593423 0.23852047
0.039999999 0.032811247 0.0017186702 0.14741376 -0.38593423 0.23852047
0.039999999 0.035943426 0.00010723491 0.14741376 -0.38593423 0.23852047
0.00039679237 0 0.0099271759 0.14741376 -0.38593423 0.23852047
0.0011895637 5.5511151e-17 0.010083777 0.14741376 -0.38593423 0.23852047
0.0019812554 0 0.010240188 0.14741376 -0.38593423 0.23852047
0.0027718737 0 0.010396411 0.14741376 -0.38593423 0.23852047
0.0035614246 0 0.010552446 0.14741376 -0.38593423 0.23852047
0 0.011734486 0.0037815757 0.14741376 -0.38593423 0.23852047
0.0051373476 5.5511151e-17 0.010863962 0.14741376 -0.38593423 0.23852047
0.0059237322 5.5511151e-17 0.011019444 0.14741376 -0.38593423 0.23852047
0.00051562837 0.019246312 0 0.14741376 -0.38593423 0.23852047
0.008276647 0 0.0114848 0.14741376 -0.38593423 0.23852047
0.0090588918 0 0.011639559 0.14741376 -0.38593423 0.23852047
0.0098401159 0 0.011794139 0.14741376 -0.38593423 0.23852047
0.010620326 0 0.011948543 0.14741376 -0.38593423 0.23852047
0.011399527 0 0.012102772 0.14741376 -0.38593423 0.23852047
0.0048519159 0.020906266 0 0.14741376 -0.38593423 0.23852047
0.012954927 0 0.012410704 0.14741376 -0.38593423 0.23852047
0.013731136 0 0.012564411 0.14741376 -0.38593423 0.23852047
0.0070205736 0.021737097 0 0.14741376 -0.38593423 0.23852047
0.015280602 0 0.012871313 0.14741376 -0.38593423 0.23852047
0.01605387 0 0.013024508 0.14741376 -0.38593423 0.23852047
0.016826171 0 0.013177536 0.14741376 -0.38593423 0.23852047
0.017597506 0 0.013330396 0.14741376 -0.38593423 0.23852047
0.018367885 0 0.013483091 0.14741376 -0.38593423 0.23852047
0.019905787 0 0.013787985 0.14741376 -0.38593423 0.23852047
0.020673325 5.5511151e-17 0.013940187 0.14741376 -0.38593423 0.23852047
0.021439925 0 0.014092227 0.14741376 -0.38593423 0.23852047
0.014253449 0.024511224 0 0.14741376 -0.38593423 0.23852047
0.022970341 0 0.014395826 0.14741376 -0.38593423 0.23852047
0.023734165 0 0.014547385 0.14741376 -0.38593423 0.23852047
0.024497077 0 0.014698789 0.14741376 -0.38593423 0.23852047
0.025259078 5.5511151e-17 0.014850033 0.14741376 -0.38593423 0.23852047
0.026020175 0 0.015001123 0.14741376 -0.38593423 0.23852047
0.026780374 0 0.015152059 0.14741376 -0.38593423 0.23852047
0.02753968 0 0.015302839 0.14741376 -0.38593423 0.23852047
0.028298099 0 0.015453467 0.14741376 -0.38593423 0.23852047
0.029055633 0 0.015603944 0.14741376 -0.38593423 0.23852047
0.029812291 0 0.015754269 0.14741376 -0.38593423 0.23852047
0.030568076 0 0.015904445 0.14741376 -0.38593423 0.23852047
0.031322993 5.5511151e-17 0.016054472 0.14741376 -0.38593423 0.23852047
0.032077052 0 0.01620435 0.14741376 -0.38593423 0.23852047
0.03283025 0 0.016354082 0.14741376 -0.38593423 0.23852047
0.033582598 5.5511151e-17 0.016503669 0.14741376 -0.38593423 0.23852047
0.034334097 0 0.016653109 0.14741376 -0.38593423 0.23852047
0.035084758 0 0.016802406 0.14741376 -0.38593423 0.23852047
0.035834581 0 0.016951561 0.14741376 -0.38593423 0.23852047
0.036583569 0 0.017100573 0.14741376 -0.38593423 0.23852047
0.037331734 0 0.017249444 0.14741376 -0.38593423 0.23852047
0.038079079 0 0.017398175 0.14741376 -0.38593423 0.23852047
0.038825605 5.5511151e-17 0.017546767 0.14741376 -0.38593423 0.23852047
0.039571319 0 0.01769522 0.14741376 -0.38593423 0.23852047
0.039999999 0.0011395531 0.017191941 0.14741376 -0.38593423 0.23852047
0.03238355 0.031486228 0 0.14741376 -0.38593423 0.23852047
0.039999999 0.0065911133 0.014376026 0.14741376 -0.38593423 0.23852047
0.039999999 0.0093703996 0.012940465 0.14741376 -0.38593423 0.23852047
0.039999999 0.012186315 0.011486011 0.14741376 -0.38593423 0.23852047
0.039999999 0.015039602 0.010012276 0.14741376 -0.38593423 0.23852047
0.036021575 0.032889508 2.7755576e-17 0.14741376 -0.38593423 0.23852047
0.039999999 0.020861365 0.0070053856 0.14741376 -0.38593423 0.23852047
0.039999999 0.023831431 0.0054714088 0.14741376 -0.38593423 0.23852047
0.039999999 0.02684205 0.0039165127 0.14741376 -0.38593423 0.23852047
0.039999999 0.029894073 0.0023402576 0.14741376 -0.38593423 0.23852047
0.039999999 0.032988373 0.00074219203 0.14741376 -0.38593423 0.23852047
0.0003971488 0 0.0090790372 0.14741376 -0.38593423 0.23852047
0.0011906315 0 0.0092363581 0.14741376 -0.38593423 0.23852047
0 0.0052624382 0.0062692054 0.14741376 -0.38593423 0.23852047
0.0027743587 5.5511151e-17 0.0095504215 0.14741376 -0.38593423 0.23852047
0.0035646153 0 0.0097071677 0.14741376 -0.38593423 0.23852047
0 0.01174531 0.0029049115 0.14741376 -0.38593423 0.23852047
0.0051419442 5.5511151e-17 0.010020095 0.14741376 -0.38593423 0.23852047
0.0059290286 0 0.010176278 0.14741376 -0.38593423 0.23852047
0.0067150672 0 0.010332275 0.14741376 -0.38593423 0.23852047
0.0075000664 5.5511151e-17 0.010488087 0.14741376 -0.38593423 0.23852047
0.0082840314 0 0.010643717 0.14741376 -0.38593423 0.23852047
0.0090669692 0 0.010799164 0.14741376 -0.38593423 0.23852047
0.0098488852 0 0.010954429 0.14741376 -0.38593423 0.23852047
0.010629784 0 0.011109516 0.14741376 -0.38593423 0.23852047
0.011409673 0 0.011264423 0.14741376 -0.38593423 0.23852047
0.012188557 0 0.011419152 0.14741376 -0.38593423 0.23852047
0.012966442 0 0.011573705 0.14741376 -0.38593423 0.23852047
0.014519237 0 0.011882284 0.14741376 -0.38593423 0.23852047
0.015294159 0 0.012036313 0.14741376 -0.38593423 0.23852047
0.016068105 0 0.01219017 0.14741376 -0.38593423 0.23852047
0.009714921 0.021062814 0 0.14741376 -0.38593423 0.23852047
0.018384138 0 0.012650716 0.14741376 -0.38593423 0.23852047
0.019154234 5.5511151e-17 0.012803894 0.14741376 -0.38593423 0.23852047
0.019923382 5.5511151e-17 0.012956904 0.14741376 -0.38593423 0.23852047
0.020691585 0 0.013109749 0.14741376 -0.38593423 0.23852047
0.021458851 0 0.013262429 0.14741376 -0.38593423 0.23852047
0.022225186 0 0.013414945 0.14741376 -0.38593423 0.23852047
0.022990594 0 0.013567298 0.14741376 -0.38593423 0.23852047
0.023755079 0 0.013719489 0.14741376 -0.38593423 0.23852047
0.02451865 0 0.01387152 0.14741376 -0.38593423 0.23852047
0.025281308 0 0.014023391 0.14741376 -0.38593423 0.23852047
0.026043063 0 0.014175102 0.14741376 -0.38593423 0.23852047
0.026803916 0 0.014326656 0.14741376 -0.38593423 0.23852047
0.027563876 0 0.014478054 0.14741376 -0.38593423 0.23852047
0.028322944 0 0.014629296 0.14741376 -0.38593423 0.23852047
0.02908113 0 0.014780383 0.14741376 -0.38593423 0.23852047
0.02198674 0.025772743 2.7755576e-17 0.14741376 -0.38593423 0.23852047
0.03059487 0 0.015082097 0.14741376 -0.38593423 0.23852047
0.031350434 0 0.015232726 0.14741376 -0.38593423 0.23852047
0.032105133 0 0.015383204 0.14741376 -0.38593423 0.23852047
0.032858975 0 0.015533532 0.14741376 -0.38593423 0.23852047
0.025602359 0.02716285 2.7755576e-17 0.14741376 -0.38593423 0.23852047
0.034364108 0 0.015833745 0.14741376 -0.38593423 0.23852047
0.035115406 0 0.01598363 0.14741376 -0.38593423 0.23852047
0.035865866 0 0.01613337 0.14741376 -0.38593423 0.23852047
0.036615495 0 0.016282964 0.14741376 -0.38593423 0.23852047
0.038112268 0 0.016581723 0.14741376 -0.38593423 0.23852047
0.038859427 0 0.016730888 0.14741376 -0.38593423 0.23852047
0.039605774 0 0.016879914 0.14741376 -0.38593423 0.23852047
0.039999999 0.0012663965 0.016302001 0.14741376 -0.38593423 0.23852047
0.039999999 0.0067262244 0.013471085 0.14741376 -0.38593423 0.23852047
0.039999999 0.0095097916 0.01202784 0.14741376 -0.38593423 0.23852047
0.035021435 0.030789403 2.7755576e-17 0.14741376 -0.38593423 0.23852047
0.039999999 0.015187865 0.0090838969 0.14741376 -0.38593423 0.23852047
0.036473271 0.031349055 0 0.14741376 -0.38593423 0.23852047
0.039999999 0.021018932 0.0060607209 0.14741376 -0.38593423 0.23852047
0.039999999 0.023993818 0.0045183934 0.14741376 -0.38593423 0.23852047
0.039999999 0.027009377 0.0029550032 0.14741376 -0.38593423 0.23852047
0.039999999 0.03006646 0.0013701075 0.14741376 -0.38593423 0.23852047
0.00039750588 0 0.0082294177 0.14741376 -0.38593423 0.23852047
0.0011917013 0 0.0083874604 0.14741376 -0.38593423 0.23852047
0.0019848133 0 0.0085453065 0.14741376 -0.38593423 0.23852047
0.0027768479 0 0.0087029589 0.14741376 -0.38593423 0.23852047
0.0035678113 0 0.0088604176 0.14741376 -0.38593423 0.23852047
0.0043577095 0 0.0090176845 0.14741376 -0.38593423 0.23852047
0 0.013961256 0.00087812816 0.14741376 -0.38593423 0.23852047
0.0059343339 0 0.0093316464 0.14741376 -0.38593423 0.23852047
0.0067210719 0 0.0094883433 0.14741376 -0.38593423 0.23852047
0.0075067687 0 0.009644852 0.14741376 -0.38593423 0.23852047
0.0082914298 0 0.0098011754 0.14741376 -0.38593423 0.23852047
0.0090750614 0 0.0099573126 0.14741376 -0.38593423 0.23852047
0.0098576685 0 0.010113266 0.14741376 -0.38593423 0.23852047
0.010639259 0 0.010269037 0.14741376 -0.38593423 0.23852047
0.011419836 0 0.010424624 0.14741376 -0.38593423 0.23852047
0.012199407 0 0.010580032 0.14741376 -0.38593423 0.23852047
0.012977976 0 0.010735259 0.14741376 -0.38593423 0.23852047
0.013755552 0 0.010890308 0.14741376 -0.38593423 0.23852047
0.014532137 0 0.011045179 0.14741376 -0.38593423 0.23852047
0.0087989978 0.019014619 0 0.14741376 -0.38593423 0.23852047
0.016082363 0 0.011354393 0.14741376 -0.38593423 0.23852047
0.01023717 0.019565579 0 0.14741376 -0.38593423 0.23852047
0.017628698 5.5511151e-17 0.01166291 0.14741376 -0.38593423 0.23852047
0.011675608 0.020116799 0 0.14741376 -0.38593423 0.23852047
0.019171188 0 0.011970738 0.14741376 -0.38593423 0.23852047
0.019941006 0 0.012124397 0.14741376 -0.38593423 0.23852047
0.020709878 0 0.012277886 0.14741376 -0.38593423 0.23852047
0.022244811 0 0.012584362 0.14741376 -0.38593423 0.23852047
0.023010882 0 0.012737351 0.14741376 -0.38593423 0.23852047
0.02377603 5.5511151e-17 0.012890176 0.14741376 -0.38593423 0.23852047
0.025303578 0 0.013195334 0.14741376 -0.38593423 0.23852047
0.026065988 0 0.01334767 0.14741376 -0.38593423 0.23852047
0.026827499 5.5511151e-17 0.013499845 0.14741376 -0.38593423 0.23852047
0.027588112 0 0.013651861 0.14741376 -0.38593423 0.23852047
0.028347835 0 0.013803718 0.14741376 -0.38593423 0.23852047
0.02175457 0.023983577 2.7755576e-17 0.14741376 -0.38593423 0.23852047
0.022475317 0.024260389 2.7755576e-17 0.14741376 -0.38593423 0.23852047
0.023196194 0.02453729 2.7755576e-17 0.14741376 -0.38593423 0.23852047
0.031377919 0 0.014409581 0.14741376 -0.38593423 0.23852047
0.024638349 0.025091365 0 0.14741376 -0.38593423 0.23852047
0.032887753 0 0.014711588 0.14741376 -0.38593423 0.23852047
0.026081067 0.025645817 0 0.14741376 -0.38593423 0.23852047
0.026802646 0.025923185 0 0.14741376 -0.38593423 0.23852047
0.035146106 0 0.015163464 0.14741376 -0.38593423 0.23852047
0.035897207 0 0.01531379 0.14741376 -0.38593423 0.23852047
0.036647469 0 0.015463969 0.14741376 -0.38593423 0.23852047
0.037396904 0 0.015614002 0.14741376 -0.38593423 0.23852047
0.038145516 0 0.015763888 0.14741376 -0.38593423 0.23852047
0.038893308 0 0.01591363 0.14741376 -0.38593423 0.23852047
0.039999999 0.0013935375 0.015409972 0.14741376 -0.38593423 0.23852047
0.03330414 0.028424103 0 0.14741376 -0.38593423 0.23852047
0.039999999 0.0068616574 0.012563991 0.14741376 -0.38593423 0.23852047
0.039999999 0.012474213 0.0096429167 0.14741376 -0.38593423 0.23852047
0.039999999 0.015336488 0.0081532653 0.14741376 -0.38593423 0.23852047
0.039999999 0.018237116 0.0066436734 0.14741376 -0.38593423 0.23852047
0.039999999 0.021176886 0.0051137316 0.14741376 -0.38593423 0.23852047
0.03837112 0.03037544 2.7755576e-17 0.14741376 -0.38593423 0.23852047
0.039999999 0.027177121 0.001991095 0.14741376 -0.38593423 0.23852047
0.039999999 0.03023928 0.00039752008 0.14741376 -0.38593423 0.23852047
0.00039786357 0 0.0073783086 0.14741376 -0.38593423 0.23852047
0.0011927729 0 0.0075370758 0.14741376 -0.38593423 0.23852047
0.0019865967 0 0.0076956437 0.14741376 -0.38593423 0.23852047
0.0027793415 0 0.0078540137 0.14741376 -0.38593423 0.23852047
0 0.00958113 0.0022896328 0.14741376 -0.38593423 0.23852047
0.0043616174 5.5511151e-17 0.0081701661 0.14741376 -0.38593423 0.23852047
0.0051511605 0 0.0083279507 0.14741376 -0.38593423 0.23852047
0.00072094344 0.014236364 0 0.14741376 -0.38593423 0.23852047
0.0067270873 0 0.0086429408 0.14741376 -0.38593423 0.23852047
0.0075134826 0 0.008800149 0.14741376 -0.38593423 0.23852047
0.0082988413 5.5511151e-17 0.0089571672 0.14741376 -0.38593423 0.23852047
0.0090831676 0 0.0091139972 0.14741376 -0.38593423 0.23852047
0.0043041892 0.015606805 0 0.14741376 -0.38593423 0.23852047
0.01064875 0 0.0094270967 0.14741376 -0.38593423 0.23852047
0.011430017 5.5511151e-17 0.009583368 0.14741376 -0.38593423 0.23852047
0.012210275 0 0.0097394558 0.14741376 -0.38593423 0.23852047
0.012989531 0 0.0098953601 0.14741376 -0.38593423 0.23852047
0.013767791 0 0.010051083 0.14741376 -0.38593423 0.23852047
0.014545059 5.5511151e-17 0.010206625 0.14741376 -0.38593423 0.23852047
0.015321341 0 0.010361988 0.14741376 -0.38593423 0.23852047
0.016096644 0 0.010517172 0.14741376 -0.38593423 0.23852047
0.010756484 0.018076761 2.7755576e-17 0.14741376 -0.38593423 0.23852047
0.017644335 0 0.01082701 0.14741376 -0.38593423 0.23852047
0.012190971 0.018626275 0 0.14741376 -0.38593423 0.23852047
0.012908325 0.018901126 0 0.14741376 -0.38593423 0.23852047
0.013625755 0.019176044 0 0.14741376 -0.38593423 0.23852047
0.020728203 0 0.01144459 0.14741376 -0.38593423 0.23852047
0.021496803 0 0.011598555 0.14741376 -0.38593423 0.23852047
0.022264468 0 0.011752351 0.14741376 -0.38593423 0.23852047
0.016496334 0.020276392 2.7755576e-17 0.14741376 -0.38593423 0.23852047
0.017214213 0.020551657 0 0.14741376 -0.38593423 0.23852047
0.024561906 0 0.012212729 0.14741376 -0.38593423 0.23852047
0.018650271 0.021102408 0 0.14741376 -0.38593423 0.23852047
0.026088955 0 0.012518818 0.14741376 -0.38593423 0.23852047
0.02008676 0.021653466 2.7755576e-17 0.14741376 -0.38593423 0.23852047
0.02761239 5.5511151e-17 0.012824252 0.14741376 -0.38593423 0.23852047
0.028372768 0 0.012976727 0.14741376 -0.38593423 0.23852047
0.022242364 0.022480652 0 0.14741376 -0.38593423 0.23852047
0.029890865 0 0.013281196 0.14741376 -0.38593423 0.23852047
0.030648595 0 0.013433192 0.14741376 -0.38593423 0.23852047
0.031405453 5.5511151e-17 0.013585031 0.14741376 -0.38593423 0.23852047
0.032161448 0 0.013736714 0.14741376 -0.38593423 0.23852047
0.032916579 5.5511151e-17 0.013888241 0.14741376 -0.38593423 0.23852047
0.026557079 0.024137326 0 0.14741376 -0.38593423 0.23852047
0.034424279 5.5511151e-17 0.014190833 0.14741376 -0.38593423 0.23852047
0.027996466 0.024690274 2.7755576e-17 0.14741376 -0.38593423 0.23852047
0.0359286 0 0.014492816 0.14741376 -0.38593423 0.23852047
0.036679503 0 0.014643581 0.14741376 -0.38593423 0.23852047
0.037429575 5.5511151e-17 0.014794197 0.14741376 -0.38593423 0.23852047
0.030877138 0.025797324 0 0.14741376 -0.38593423 0.23852047
0.038927246 0 0.015094984 0.14741376 -0.38593423 0.23852047
0.032318484 0.02635145 0 0.14741376 -0.38593423 0.23852047
0.039999999 0.0015209781 0.014515842 0.14741376 -0.38593423 0.23852047
0.039999999 0.0042414502 0.013094551 0.14741376 -0.38593423 0.23852047
0.039999999 0.006997413 0.011654735 0.14741376 -0.38593423 0.23852047
0.039999999 0.0097895805 0.010196021 0.14741376 -0.38593423 0.23852047
0.039999999 0.012618683 0.0087180296 0.14741376 -0.38593423 0.23852047
0.036646925 0.02801637 0 0.14741376 -0.38593423 0.23852047
0.039999999 0.018390724 0.0057026302 0.14741376 -0.38593423 0.23852047
0.039999999 0.024319803 0.0026052652 0.14741376 -0.38593423 0.23852047
0.039999999 0.027345285 0.001024774 0.14741376 -0.38593423 0.23852047
0 0.0010453823 0.0058972966 0.14741376 -0.38593423 0.23852047
0 0.0031510491 0.0047923233 0.14741376 -0.38593423 0.23852047
0.0019883835 0 0.006844488 0.14741376 -0.38593423 0.23852047
0.0027818396 0 0.0070035788 0.14741376 -0.38593423 0.23852047
0.0035742202 0 0.0071624694 0.14741376 -0.38593423 0.23852047
0.0043655322 0 0.0073211617 0.14741376 -0.38593423 0.23852047
0.0051557808 5.5511151e-17 0.0074796565 0.14741376 -0.38593423 0.23852047
0.0059449724 0 0.0076379552 0.14741376 -0.38593423 0.23852047
0.0019795867 0.013040518 2.7755576e-17 0.14741376 -0.38593423 0.23852047
0.0075202086 5.5511151e-17 0.0079539679 0.14741376 -0.38593423 0.23852047
0.0083062649 0 0.0081116846 0.14741376 -0.38593423 0.23852047
0.0041235946 0.013860385 0 0.14741376 -0.38593423 0.23852047
0.0098752826 0 0.0084265443 0.14741376 -0.38593423 0.23852047
0.010658257 0 0.0085836891 0.14741376 -0.38593423 0.23852047
0.011440215 0 0.0087406458 0.14741376 -0.38593423 0.23852047
0.012221162 0 0.0088974163 0.14741376 -0.38593423 0.23852047
0.013001106 0 0.0090539996 0.14741376 -0.38593423 0.23852047
0.013780051 5.5511151e-17 0.0092103984 0.14741376 -0.38593423 0.23852047
0.014558003 5.5511151e-17 0.0093666138 0.14741376 -0.38593423 0.23852047
0.015334968 0 0.0095226467 0.14741376 -0.38593423 0.23852047
0.016110953 0 0.009678497 0.14741376 -0.38593423 0.23852047
0.01688596 0 0.0098341675 0.14741376 -0.38593423 0.23852047
0.017659998 0 0.0099896593 0.14741376 -0.38593423 0.23852047
0.01843307 0 0.010144972 0.14741376 -0.38593423 0.23852047
0.013418837 0.017418098 0 0.14741376 -0.38593423 0.23852047
0.019976344 5.5511151e-17 0.010455068 0.14741376 -0.38593423 0.23852047
0.020746557 0 0.010609853 0.14741376 -0.38593423 0.23852047
0.022284159 0 0.010918902 0.14741376 -0.38593423 0.23852047
0.023051562 0 0.011073169 0.14741376 -0.38593423 0.23852047
0.023818037 0 0.011227265 0.14741376 -0.38593423 0.23852047
0.024583591 0 0.011381191 0.14741376 -0.38593423 0.23852047
0.025348231 0 0.011534949 0.14741376 -0.38593423 0.23852047
0.02611196 0 0.011688539 0.14741376 -0.38593423 0.23852047
0.020577682 0.020161677 0 0.14741376 -0.38593423 0.23852047
0.021294141 0.020436425 0 0.14741376 -0.38593423 0.23852047
0.028397743 0 0.012148315 0.14741376 -0.38593423 0.23852047
0.029157886 0 0.012301246 0.14741376 -0.38593423 0.23852047
0.029917145 5.5511151e-17 0.012454013 0.14741376 -0.38593423 0.23852047
0.030675527 0 0.012606621 0.14741376 -0.38593423 0.23852047
0.031433035 0 0.012759067 0.14741376 -0.38593423 0.23852047
0.032189675 5.5511151e-17 0.012911355 0.14741376 -0.38593423 0.23852047
0.026312903 0.022361895 0 0.14741376 -0.38593423 0.23852047
0.033700377 0 0.013215456 0.14741376 -0.38593423 0.23852047
0.034454443 5.5511151e-17 0.013367272 0.14741376 -0.38593423 0.23852047
0.028465904 0.023188369 0 0.14741376 -0.38593423 0.23852047
0.029183878 0.023464041 0 0.14741376 -0.38593423 0.23852047
0.029902011 0.023739805 0 0.14741376 -0.38593423 0.23852047
0.037462298 5.5511151e-17 0.013972993 0.14741376 -0.38593423 0.23852047
0.03821218 5.5511151e-17 0.014124043 0.14741376 -0.38593423 0.23852047
0.032057412 0.024567666 0 0.14741376 -0.38593423 0.23852047
0.03970949 0 0.014425693 0.14741376 -0.38593423 0.23852047
0.039999999 0.0043733125 0.012190774 0.14741376 -0.38593423 0.23852047
0.039999999 0.0071334941 0.010743299 0.14741376 -0.38593423 0.23852047
0.039999999 0.0099299792 0.0092768027 0.14741376 -0.38593423 0.23852047
0.039999999 0.012763504 0.007790898 0.14741376 -0.38593423 0.23852047
0.039999999 0.015634824 0.0062851897 0.14741376 -0.38593423 0.23852047
0.037813105 0.026779719 0 0.14741376 -0.38593423 0.23852047
0.038533445 0.027056705 0 0.14741376 -0.38593423 0.23852047
0.039999999 0.024483405 0.0016451256 0.14741376 -0.38593423 0.23852047
