# .PCD v0.7 - Point Cloud Data file format
VERSION 0.7
FIELDS x y z vp_x vp_y vp_z
SIZE 4 4 4 4 4 4
TYPE F F F F F F
COUNT 1 1 1 1 1 1
WIDTH 1040
HEIGHT 1
VIEWPOINT 0 0 0 1 0 0 0
POINTS 1040
DATA ascii
0.038675111 5.5511151e-17 0.024454512 0 -0.47704095 0
0.039429467 5.5511151e-17 0.024457656 0 -0.47704095 0
0.00037466714 5.5511151e-17 0.023623316 0 -0.47704095 0
0.0011240033 0 0.023623373 0 -0.47704095 0
0.0026226959 0 0.023623664 0 -0.47704095 0
0.0033720599 0 0.023623899 0 -0.47704095 0
0.0041214405 0 0.023624189 0 -0.47704095 0
0.0048708413 0 0.023624539 0 -0.47704095 0
0.0056202663 0 0.023624947 0 -0.47704095 0
0.0063697188 0 0.023625413 0 -0.47704095 0
0.007119203 5.5511151e-17 0.023625938 0 -0.47704095 0
0.0078687221 5.5511151e-17 0.023626521 0 -0.47704095 0
0.0086182803 5.5511151e-17 0.023627162 0 -0.47704095 0
0.0093678804 0 0.023627862 0 -0.47704095 0
0.010117528 0 0.02362862 0 -0.47704095 0
0.010867224 0 0.023629436 0 -0.47704095 0
0.011616975 0 0.023630312 0 -0.47704095 0
0.012366783 0 0.023631245 0 -0.47704095 0
0.013866586 0 0.023633286 0 -0.47704095 0
0.014616587 0 0.023634395 0 -0.47704095 0
0.015366661 0 0.023635561 0 -0.47704095 0
0.016116813 0 0.023636786 0 -0.47704095 0
0.016867042 5.5511151e-17 0.02363807 0 -0.47704095 0
0.017617356 0 0.023639411 0 -0.47704095 0
0.018367756 0 0.023640811 0 -0.47704095 0
0.019868832 0 0.023643788 0 -0.47704095 0
0.020619515 0 0.023645366 0 -0.47704095 0
0.021370301 5.5511151e-17 0.023646999 0 -0.47704095 0
0.024374539 0 0.023654124 0 -0.47704095 0
0.025877366 5.5511151e-17 0.023658039 0 -0.47704095 0
0.026628969 0 0.023660084 0 -0.47704095 0
0.027380705 5.5511151e-17 0.023662187 0 -0.47704095 0
0.028132576 5.5511151e-17 0.023664352 0 -0.47704095 0
0.029636741 0 0.023668854 0 -0.47704095 0
0.030389041 0 0.023671191 0 -0.47704095 0
0.031141492 0 0.02367359 0 -0.47704095 0
0.031894095 5.5511151e-17 0.023676047 0 -0.47704095 0
0.032646861 0 0.023678564 0 -0.47704095 0
0.033399787 0 0.023681138 0 -0.47704095 0
0.034152877 0 0.023683771 0 -0.47704095 0
0.034906138 0 0.023686465 0 -0.47704095 0
0.03565957 0 0.023689216 0 -0.47704095 0
0.039999999 0.046990115 0.026025772 0 -0.47704095 0
0.037166972 5.5511151e-17 0.023694899 0 -0.47704095 0
0.039999999 0.026154226 0.024997083 0 -0.47704095 0
0.039999999 0.016341928 0.024512732 0 -0.47704095 0
0.039999999 0.0069026346 0.024046851 0 -0.47704095 0
0.00037466714 0 0.0228722 0 -0.47704095 0
0.0011240033 0 0.022872258 0 -0.47704095 0
0.001873345 0 0.02287237 0 -0.47704095 0
0.0026226959 5.5511151e-17 0.022872539 0 -0.47704095 0
0.0033720599 5.5511151e-17 0.022872765 0 -0.47704095 0
0.0041214405 0 0.022873048 0 -0.47704095 0
0.0056202663 5.5511151e-17 0.022873782 0 -0.47704095 0
0.007119203 0 0.022874741 0 -0.47704095 0
0.0078687221 0 0.022875305 0 -0.47704095 0
0.0086182803 5.5511151e-17 0.022875926 0 -0.47704095 0
0.0093678804 0 0.022876604 0 -0.47704095 0
0.010117528 5.5511151e-17 0.022877337 0 -0.47704095 0
0.010867224 0 0.022878127 0 -0.47704095 0
0.011616975 0 0.022878975 0 -0.47704095 0
0.012366783 0 0.022879878 0 -0.47704095 0
0.013116651 5.5511151e-17 0.022880837 0 -0.47704095 0
0.013866586 0 0.022881854 0 -0.47704095 0
0.014616587 0 0.022882927 0 -0.47704095 0
0.015366661 0 0.022884058 0 -0.47704095 0
0.016867042 0 0.022886487 0 -0.47704095 0
0.017617356 0 0.022887785 0 -0.47704095 0
0.018367756 0 0.022889141 0 -0.47704095 0
0.019118246 5.5511151e-17 0.022890555 0 -0.47704095 0
0.019868832 0 0.022892024 0 -0.47704095 0
0.020619515 0 0.02289355 0 -0.47704095 0
0.022121193 5.5511151e-17 0.022896772 0 -0.47704095 0
0.022872193 0 0.022898467 0 -0.47704095 0
0.024374539 5.5511151e-17 0.02290203 0 -0.47704095 0
0.025125889 0 0.022903897 0 -0.47704095 0
0.025877366 0 0.022905821 0 -0.47704095 0
0.027380705 5.5511151e-17 0.022909839 0 -0.47704095 0
0.028132576 5.5511151e-17 0.022911932 0 -0.47704095 0
0.029636741 0 0.022916291 0 -0.47704095 0
0.030389041 0 0.022918556 0 -0.47704095 0
0.031141492 0 0.022920877 0 -0.47704095 0
0.031894095 5.5511151e-17 0.022923255 0 -0.47704095 0
0.032646861 0 0.022925692 0 -0.47704095 0
0.033399787 0 0.022928186 0 -0.47704095 0
0.034152877 0 0.022930736 0 -0.47704095 0
0.039999999 0.069614723 0.026280012 0 -0.47704095 0
0.039999999 0.058064707 0.025727743 0 -0.47704095 0
0.036413182 0 0.022938728 0 -0.47704095 0
0.039999999 0.03636213 0.024690209 0 -0.47704095 0
0.039999999 0.026154226 0.024202291 0 -0.47704095 0
0.038675111 0 0.022947239 0 -0.47704095 0
0.039429467 0 0.022950189 0 -0.47704095 0
0.00037466714 0 0.0221212 0 -0.47704095 0
0.0011240033 0 0.022121254 0 -0.47704095 0
0.001873345 0 0.022121364 0 -0.47704095 0
0.0026226959 0 0.022121526 0 -0.47704095 0
0.0033720599 5.5511151e-17 0.022121746 0 -0.47704095 0
0.0041214405 0 0.022122018 0 -0.47704095 0
0.0048708413 0 0.022122346 0 -0.47704095 0
0.0056202663 0 0.022122728 0 -0.47704095 0
0.0063697188 5.5511151e-17 0.022123165 0 -0.47704095 0
0.007119203 0 0.022123655 0 -0.47704095 0
0.0078687221 0 0.022124203 0 -0.47704095 0
0.0086182803 0 0.022124803 0 -0.47704095 0
0.0093678804 5.5511151e-17 0.022125458 0 -0.47704095 0
0.010117528 0 0.022126168 0 -0.47704095 0
0.010867224 0 0.022126932 0 -0.47704095 0
0.012366783 5.5511151e-17 0.022128625 0 -0.47704095 0
0.013866586 0 0.022130536 0 -0.47704095 0
0.014616587 0 0.022131575 0 -0.47704095 0
0.015366661 0 0.022132667 0 -0.47704095 0
0.016116813 0 0.022133814 0 -0.47704095 0
0.016867042 0 0.022135016 0 -0.47704095 0
0.017617356 0 0.022136273 0 -0.47704095 0
0.018367756 0 0.022137584 0 -0.47704095 0
0.019118246 5.5511151e-17 0.022138951 0 -0.47704095 0
0.019868832 0 0.022140373 0 -0.47704095 0
0.020619515 5.5511151e-17 0.022141848 0 -0.47704095 0
0.021370301 0 0.022143379 0 -0.47704095 0
0.022121193 0 0.022144964 0 -0.47704095 0
0.022872193 5.5511151e-17 0.022146605 0 -0.47704095 0
0.024374539 0 0.022150051 0 -0.47704095 0
0.025877366 5.5511151e-17 0.022153717 0 -0.47704095 0
0.026628969 0 0.022155631 0 -0.47704095 0
0.028884586 0 0.022161707 0 -0.47704095 0
0.029636741 0 0.022163842 0 -0.47704095 0
0.031141492 0 0.022168279 0 -0.47704095 0
0.031894095 0 0.022170579 0 -0.47704095 0
0.032646861 5.5511151e-17 0.022172935 0 -0.47704095 0
0.034152877 0 0.022177812 0 -0.47704095 0
0.034906138 0 0.022180334 0 -0.47704095 0
0.039999999 0.058064707 0.024882982 0 -0.47704095 0
0.039999999 0.046990115 0.024370894 0 -0.47704095 0
0.037166972 0 0.022188231 0 -0.47704095 0
0.037920948 5.5511151e-17 0.022190975 0 -0.47704095 0
0.038675111 0 0.022193773 0 -0.47704095 0
0.039429467 0 0.022196628 0 -0.47704095 0
0.00037466714 0 0.021370308 0 -0.47704095 0
0.0011240033 0 0.021370361 0 -0.47704095 0
0.001873345 0 0.021370467 0 -0.47704095 0
0.0026226959 0 0.021370625 0 -0.47704095 0
0.0033720599 0 0.021370836 0 -0.47704095 0
0.0041214405 5.5511151e-17 0.021371098 0 -0.47704095 0
0.0048708413 0 0.021371415 0 -0.47704095 0
0.0056202663 0 0.021371784 0 -0.47704095 0
0.007119203 0 0.021372681 0 -0.47704095 0
0.0086182803 5.5511151e-17 0.021373788 0 -0.47704095 0
0.0093678804 0 0.021374421 0 -0.47704095 0
0.011616975 0 0.021376638 0 -0.47704095 0
0.012366783 0 0.021377482 0 -0.47704095 0
0.013116651 0 0.021378377 0 -0.47704095 0
0.013866586 0 0.021379327 0 -0.47704095 0
0.014616587 0 0.021380331 0 -0.47704095 0
0.015366661 0 0.021381386 0 -0.47704095 0
0.016116813 0 0.021382494 0 -0.47704095 0
0.016867042 0 0.021383656 0 -0.47704095 0
0.017617356 0 0.021384869 0 -0.47704095 0
0.018367756 5.5511151e-17 0.021386137 0 -0.47704095 0
0.019118246 0 0.021387456 0 -0.47704095 0
0.019868832 5.5511151e-17 0.021388829 0 -0.47704095 0
0.020619515 0 0.021390256 0 -0.47704095 0
0.021370301 5.5511151e-17 0.021391734 0 -0.47704095 0
0.022121193 0 0.021393266 0 -0.47704095 0
0.023623308 0 0.021396488 0 -0.47704095 0
0.024374539 0 0.021398179 0 -0.47704095 0
0.025125889 0 0.021399923 0 -0.47704095 0
0.025877366 0 0.02140172 0 -0.47704095 0
0.027380705 0 0.021405473 0 -0.47704095 0
0.028132576 5.5511151e-17 0.021407431 0 -0.47704095 0
0.028884586 0 0.021409441 0 -0.47704095 0
0.029636741 5.5511151e-17 0.021411503 0 -0.47704095 0
0.030389041 0 0.021413619 0 -0.47704095 0
0.031894095 5.5511151e-17 0.021418011 0 -0.47704095 0
0.033399787 0 0.021422617 0 -0.47704095 0
0.034152877 0 0.021424999 0 -0.47704095 0
0.034906138 0 0.021427436 0 -0.47704095 0
0.039999999 0.058064707 0.024038343 0 -0.47704095 0
0.039999999 0.046990115 0.023543637 0 -0.47704095 0
0.037166972 0 0.021435065 0 -0.47704095 0
0.037920948 5.5511151e-17 0.021437714 0 -0.47704095 0
0.039999999 0.016341928 0.0221749 0 -0.47704095 0
0.039429467 5.5511151e-17 0.021443175 0 -0.47704095 0
0.00037466714 0 0.020619523 0 -0.47704095 0
0.0011240033 5.5511151e-17 0.020619573 0 -0.47704095 0
0.001873345 0 0.020619676 0 -0.47704095 0
0.0026226959 0 0.020619828 0 -0.47704095 0
0.0033720599 0 0.020620031 0 -0.47704095 0
0.0048708413 0 0.02062059 0 -0.47704095 0
0.0063697188 0 0.020621354 0 -0.47704095 0
0.0078687221 5.5511151e-17 0.02062232 0 -0.47704095 0
0.0093678804 0 0.020623492 0 -0.47704095 0
0.010117528 5.5511151e-17 0.020624153 0 -0.47704095 0
0.010867224 5.5511151e-17 0.020624865 0 -0.47704095 0
0.011616975 0 0.020625629 0 -0.47704095 0
0.012366783 5.5511151e-17 0.020626443 0 -0.47704095 0
0.013116651 5.5511151e-17 0.020627309 0 -0.47704095 0
0.013866586 0 0.020628225 0 -0.47704095 0
0.014616587 0 0.020629192 0 -0.47704095 0
0.016116813 5.5511151e-17 0.02063128 0 -0.47704095 0
0.016867042 0 0.020632401 0 -0.47704095 0
0.017617356 0 0.020633573 0 -0.47704095 0
0.018367756 0 0.020634795 0 -0.47704095 0
0.019118246 0 0.020636069 0 -0.47704095 0
0.020619515 0 0.020638768 0 -0.47704095 0
0.021370301 0 0.020640194 0 -0.47704095 0
0.022121193 5.5511151e-17 0.020641673 0 -0.47704095 0
0.024374539 5.5511151e-17 0.020646414 0 -0.47704095 0
0.025125889 0 0.020648098 0 -0.47704095 0
0.025877366 0 0.020649832 0 -0.47704095 0
0.026628969 5.5511151e-17 0.020651616 0 -0.47704095 0
0.027380705 5.5511151e-17 0.020653453 0 -0.47704095 0
0.028132576 0 0.02065534 0 -0.47704095 0
0.028884586 5.5511151e-17 0.020657279 0 -0.47704095 0
0.030389041 0 0.020661311 0 -0.47704095 0
0.031894095 5.5511151e-17 0.020665549 0 -0.47704095 0
0.032646861 0 0.020667745 0 -0.47704095 0
0.033399787 0 0.020669993 0 -0.47704095 0
0.034906138 0 0.020674642 0 -0.47704095 0
0.03565957 5.5511151e-17 0.020677045 0 -0.47704095 0
0.039999999 0.046990115 0.022716498 0 -0.47704095 0
0.037166972 0 0.020682003 0 -0.47704095 0
0.037920948 0 0.020684561 0 -0.47704095 0
0.038675111 0 0.020687168 0 -0.47704095 0
0.039999999 0.0069026346 0.020989206 0 -0.47704095 0
0.00037466714 5.5511151e-17 0.019868838 0 -0.47704095 0
0.0011240033 0 0.019868888 0 -0.47704095 0
0.001873345 0 0.019868985 0 -0.47704095 0
0.0026226959 5.5511151e-17 0.019869132 0 -0.47704095 0
0.0033720599 0 0.019869328 0 -0.47704095 0
0.0041214405 0 0.019869573 0 -0.47704095 0
0.0048708413 5.5511151e-17 0.019869868 0 -0.47704095 0
0.0056202663 0 0.01987021 0 -0.47704095 0
0.0063697188 0 0.019870603 0 -0.47704095 0
0.007119203 0 0.019871045 0 -0.47704095 0
0.0086182803 5.5511151e-17 0.019872075 0 -0.47704095 0
0.0093678804 0 0.019872664 0 -0.47704095 0
0.010117528 0 0.019873301 0 -0.47704095 0
0.010867224 0 0.019873986 0 -0.47704095 0
0.011616975 0 0.019874722 0 -0.47704095 0
0.013116651 5.5511151e-17 0.01987634 0 -0.47704095 0
0.014616587 0 0.019878156 0 -0.47704095 0
0.016867042 0 0.019881248 0 -0.47704095 0
0.017617356 0 0.019882377 0 -0.47704095 0
0.019118246 0 0.019884782 0 -0.47704095 0
0.019868832 0 0.019886058 0 -0.47704095 0
0.021370301 5.5511151e-17 0.019888759 0 -0.47704095 0
0.022872193 0 0.019891657 0 -0.47704095 0
0.025125889 5.5511151e-17 0.019896373 0 -0.47704095 0
0.026628969 0 0.019899763 0 -0.47704095 0
0.027380705 0 0.019901533 0 -0.47704095 0
0.028132576 0 0.019903352 0 -0.47704095 0
0.028884586 5.5511151e-17 0.019905221 0 -0.47704095 0
0.029636741 0 0.019907139 0 -0.47704095 0
0.030389041 0 0.019909106 0 -0.47704095 0
0.031141492 0 0.019911123 0 -0.47704095 0
0.031894095 0 0.019913189 0 -0.47704095 0
0.032646861 0 0.019915305 0 -0.47704095 0
0.033399787 5.5511151e-17 0.019917471 0 -0.47704095 0
0.034152877 0 0.019919686 0 -0.47704095 0
0.034906138 5.5511151e-17 0.019921951 0 -0.47704095 0
0.03565957 5.5511151e-17 0.019924266 0 -0.47704095 0
0.036413182 0 0.01992663 0 -0.47704095 0
0.037166972 0 0.019929044 0 -0.47704095 0
0.037920948 5.5511151e-17 0.019931508 0 -0.47704095 0
0.038675111 5.5511151e-17 0.019934023 0 -0.47704095 0
0.039429467 0 0.019936586 0 -0.47704095 0
0.00037466714 0 0.019118253 0 -0.47704095 0
0.001873345 0 0.019118395 0 -0.47704095 0
0.0026226959 5.5511151e-17 0.019118536 0 -0.47704095 0
0.0033720599 0 0.019118724 0 -0.47704095 0
0.0041214405 0 0.019118959 0 -0.47704095 0
0.0056202663 0 0.019119574 0 -0.47704095 0
0.0078687221 5.5511151e-17 0.019120848 0 -0.47704095 0
0.0086182803 0 0.019121366 0 -0.47704095 0
0.0093678804 5.5511151e-17 0.019121932 0 -0.47704095 0
0.010117528 5.5511151e-17 0.019122547 0 -0.47704095 0
0.010867224 5.5511151e-17 0.019123206 0 -0.47704095 0
0.011616975 0 0.019123914 0 -0.47704095 0
0.012366783 5.5511151e-17 0.01912467 0 -0.47704095 0
0.013116651 5.5511151e-17 0.019125473 0 -0.47704095 0
0.013866586 0 0.019126322 0 -0.47704095 0
0.014616587 0 0.019127218 0 -0.47704095 0
0.015366661 0 0.019128162 0 -0.47704095 0
0.016116813 0 0.019129155 0 -0.47704095 0
0.016867042 5.5511151e-17 0.019130193 0 -0.47704095 0
0.017617356 5.5511151e-17 0.019131279 0 -0.47704095 0
0.018367756 5.5511151e-17 0.019132413 0 -0.47704095 0
0.019118246 0 0.019133594 0 -0.47704095 0
0.019868832 0 0.019134821 0 -0.47704095 0
0.020619515 5.5511151e-17 0.019136097 0 -0.47704095 0
0.021370301 0 0.01913742 0 -0.47704095 0
0.022121193 5.5511151e-17 0.019138791 0 -0.47704095 0
0.022872193 5.5511151e-17 0.019140208 0 -0.47704095 0
0.024374539 5.5511151e-17 0.019143187 0 -0.47704095 0
0.025877366 0 0.019146355 0 -0.47704095 0
0.026628969 0 0.019148009 0 -0.47704095 0
0.027380705 0 0.019149711 0 -0.47704095 0
0.028132576 0 0.019151462 0 -0.47704095 0
0.028884586 0 0.01915326 0 -0.47704095 0
0.029636741 5.5511151e-17 0.019155106 0 -0.47704095 0
0.030389041 5.5511151e-17 0.019157 0 -0.47704095 0
0.031141492 5.5511151e-17 0.019158941 0 -0.47704095 0
0.031894095 0 0.019160928 0 -0.47704095 0
0.032646861 0 0.019162964 0 -0.47704095 0
0.033399787 0 0.019165048 0 -0.47704095 0
0.034152877 5.5511151e-17 0.019167179 0 -0.47704095 0
0.034906138 0 0.019169359 0 -0.47704095 0
0.03565957 0 0.019171586 0 -0.47704095 0
0.039999999 0.046990115 0.021062551 0 -0.47704095 0
0.037166972 0 0.019176185 0 -0.47704095 0
0.037920948 5.5511151e-17 0.019178554 0 -0.47704095 0
0.038675111 0 0.019180974 0 -0.47704095 0
0.039999999 0.0069026346 0.019461019 0 -0.47704095 0
0.00037466714 0 0.018367762 0 -0.47704095 0
0.0011240033 0 0.018367806 0 -0.47704095 0
0.001873345 0 0.018367898 0 -0.47704095 0
0.0026226959 0 0.018368034 0 -0.47704095 0
0.0033720599 0 0.018368214 0 -0.47704095 0
0.0041214405 0 0.018368442 0 -0.47704095 0
0.0048708413 5.5511151e-17 0.018368714 0 -0.47704095 0
0.0056202663 5.5511151e-17 0.01836903 0 -0.47704095 0
0.0063697188 0 0.018369393 0 -0.47704095 0
0.007119203 0 0.018369801 0 -0.47704095 0
0.0086182803 0 0.018370753 0 -0.47704095 0
0.0093678804 0 0.018371297 0 -0.47704095 0
0.010117528 0 0.018371886 0 -0.47704095 0
0.012366783 0 0.018373927 0 -0.47704095 0
0.013866586 0 0.018375514 0 -0.47704095 0
0.014616587 0 0.018376375 0 -0.47704095 0
0.015366661 5.5511151e-17 0.018377282 0 -0.47704095 0
0.016116813 0 0.018378235 0 -0.47704095 0
0.016867042 0 0.018379234 0 -0.47704095 0
0.017617356 0 0.018380277 0 -0.47704095 0
0.018367756 0 0.018381367 0 -0.47704095 0
0.019118246 5.5511151e-17 0.018382501 0 -0.47704095 0
0.020619515 0 0.018384906 0 -0.47704095 0
0.021370301 5.5511151e-17 0.018386176 0 -0.47704095 0
0.022121193 0 0.018387493 0 -0.47704095 0
0.022872193 0 0.018388856 0 -0.47704095 0
0.024374539 0 0.018391717 0 -0.47704095 0
0.025125889 0 0.018393215 0 -0.47704095 0
0.025877366 0 0.018394761 0 -0.47704095 0
0.026628969 5.5511151e-17 0.01839635 0 -0.47704095 0
0.027380705 0 0.018397987 0 -0.47704095 0
0.028132576 5.5511151e-17 0.018399667 0 -0.47704095 0
0.029636741 0 0.018403169 0 -0.47704095 0
0.030389041 0 0.018404987 0 -0.47704095 0
0.031141492 0 0.018406851 0 -0.47704095 0
0.031894095 5.5511151e-17 0.018408762 0 -0.47704095 0
0.032646861 0 0.018410718 0 -0.47704095 0
0.033399787 0 0.01841272 0 -0.47704095 0
0.034906138 0 0.018416861 0 -0.47704095 0
0.039999999 0.058064707 0.020660935 0 -0.47704095 0
0.036413182 5.5511151e-17 0.018421188 0 -0.47704095 0
0.037166972 0 0.018423419 0 -0.47704095 0
0.037920948 5.5511151e-17 0.018425697 0 -0.47704095 0
0.038675111 0 0.01842802 0 -0.47704095 0
0.039429467 0 0.018430389 0 -0.47704095 0
0.00037466714 0 0.01761736 0 -0.47704095 0
0.0011240033 0 0.017617404 0 -0.47704095 0
0.001873345 0 0.01761749 0 -0.47704095 0
0.0026226959 0 0.017617621 0 -0.47704095 0
0.0033720599 0 0.017617796 0 -0.47704095 0
0.0041214405 5.5511151e-17 0.017618014 0 -0.47704095 0
0.0056202663 0 0.017618578 0 -0.47704095 0
0.0063697188 5.5511151e-17 0.017618926 0 -0.47704095 0
0.007119203 0 0.017619317 0 -0.47704095 0
0.0078687221 0 0.017619751 0 -0.47704095 0
0.0086182803 0 0.01762023 0 -0.47704095 0
0.0093678804 0 0.017620752 0 -0.47704095 0
0.010117528 5.5511151e-17 0.017621318 0 -0.47704095 0
0.010867224 0 0.017621925 0 -0.47704095 0
0.011616975 0 0.017622579 0 -0.47704095 0
0.012366783 0 0.017623274 0 -0.47704095 0
0.013116651 0 0.017624013 0 -0.47704095 0
0.013866586 0 0.017624797 0 -0.47704095 0
0.014616587 5.5511151e-17 0.017625622 0 -0.47704095 0
0.015366661 5.5511151e-17 0.017626492 0 -0.47704095 0
0.016116813 0 0.017627407 0 -0.47704095 0
0.016867042 0 0.017628364 0 -0.47704095 0
0.018367756 0 0.017630409 0 -0.47704095 0
0.019118246 5.5511151e-17 0.017631497 0 -0.47704095 0
0.019868832 0 0.01763263 0 -0.47704095 0
0.020619515 0 0.017633805 0 -0.47704095 0
0.021370301 5.5511151e-17 0.017635023 0 -0.47704095 0
0.022121193 0 0.017636286 0 -0.47704095 0
0.022872193 0 0.017637594 0 -0.47704095 0
0.025877366 0 0.017643256 0 -0.47704095 0
0.026628969 5.5511151e-17 0.017644782 0 -0.47704095 0
0.027380705 5.5511151e-17 0.01764635 0 -0.47704095 0
0.028132576 0 0.017647963 0 -0.47704095 0
0.028884586 5.5511151e-17 0.017649621 0 -0.47704095 0
0.029636741 5.5511151e-17 0.017651321 0 -0.47704095 0
0.031141492 0 0.017654853 0 -0.47704095 0
0.032646861 0 0.017658563 0 -0.47704095 0
0.034152877 0 0.017662447 0 -0.47704095 0
0.039999999 0.069614723 0.020242235 0 -0.47704095 0
0.03565957 0 0.017666508 0 -0.47704095 0
0.036413182 5.5511151e-17 0.017668605 0 -0.47704095 0
0.037166972 0 0.017670745 0 -0.47704095 0
0.037920948 0 0.01767293 0 -0.47704095 0
0.038675111 5.5511151e-17 0.017675158 0 -0.47704095 0
0.039429467 0 0.017677432 0 -0.47704095 0
0.00037466714 0 0.016867047 0 -0.47704095 0
0.0026226959 0 0.016867297 0 -0.47704095 0
0.0033720599 5.5511151e-17 0.016867463 0 -0.47704095 0
0.0041214405 5.5511151e-17 0.016867671 0 -0.47704095 0
0.0056202663 0 0.016868213 0 -0.47704095 0
0.0093678804 5.5511151e-17 0.016870294 0 -0.47704095 0
0.010117528 0 0.016870836 0 -0.47704095 0
0.012366783 0 0.01687271 0 -0.47704095 0
0.013116651 0 0.016873417 0 -0.47704095 0
0.013866586 5.5511151e-17 0.016874166 0 -0.47704095 0
0.015366661 0 0.01687579 0 -0.47704095 0
0.016116813 0 0.016876666 0 -0.47704095 0
0.016867042 0 0.016877582 0 -0.47704095 0
0.017617356 5.5511151e-17 0.01687854 0 -0.47704095 0
0.018367756 0 0.01687954 0 -0.47704095 0
0.019118246 5.5511151e-17 0.016880581 0 -0.47704095 0
0.019868832 0 0.016881665 0 -0.47704095 0
0.020619515 0 0.01688279 0 -0.47704095 0
0.021370301 5.5511151e-17 0.016883958 0 -0.47704095 0
0.022121193 0 0.016885167 0 -0.47704095 0
0.022872193 0 0.016886419 0 -0.47704095 0
0.023623308 5.5511151e-17 0.016887711 0 -0.47704095 0
0.024374539 0 0.016889045 0 -0.47704095 0
0.025125889 0 0.016890422 0 -0.47704095 0
0.026628969 0 0.016893301 0 -0.47704095 0
0.028132576 5.5511151e-17 0.016896347 0 -0.47704095 0
0.028884586 0 0.016897934 0 -0.47704095 0
0.029636741 0 0.016899562 0 -0.47704095 0
0.030389041 0 0.01690123 0 -0.47704095 0
0.031141492 0 0.016902944 0 -0.47704095 0
0.031894095 0 0.016904699 0 -0.47704095 0
0.032646861 0 0.016906494 0 -0.47704095 0
0.033399787 0 0.016908333 0 -0.47704095 0
0.034906138 0 0.016912136 0 -0.47704095 0
0.03565957 0 0.016914101 0 -0.47704095 0
0.037166972 5.5511151e-17 0.016918158 0 -0.47704095 0
0.039999999 0.026154226 0.017847918 0 -0.47704095 0
0.038675111 0 0.016922383 0 -0.47704095 0
0.039999999 0.0069026346 0.017169453 0 -0.47704095 0
0.0011240033 0 0.016116858 0 -0.47704095 0
0.001873345 0 0.016116936 0 -0.47704095 0
0.0048708413 0 0.016117653 0 -0.47704095 0
0.0056202663 0 0.01611793 0 -0.47704095 0
0.0063697188 5.5511151e-17 0.016118249 0 -0.47704095 0
0.007119203 0 0.016118607 0 -0.47704095 0
0.0078687221 5.5511151e-17 0.016119005 0 -0.47704095 0
0.0086182803 0 0.016119441 0 -0.47704095 0
0.010117528 0 0.016120436 0 -0.47704095 0
0.012366783 5.5511151e-17 0.016122228 0 -0.47704095 0
0.013116651 0 0.016122904 0 -0.47704095 0
0.013866586 0 0.016123619 0 -0.47704095 0
0.014616587 5.5511151e-17 0.016124375 0 -0.47704095 0
0.015366661 5.5511151e-17 0.016125172 0 -0.47704095 0
0.016867042 0 0.016126882 0 -0.47704095 0
0.018367756 0 0.016128754 0 -0.47704095 0
0.019118246 0 0.016129749 0 -0.47704095 0
0.020619515 5.5511151e-17 0.016131861 0 -0.47704095 0
0.021370301 0 0.016132975 0 -0.47704095 0
0.022121193 0 0.016134132 0 -0.47704095 0
0.022872193 0 0.016135326 0 -0.47704095 0
0.023623308 0 0.016136561 0 -0.47704095 0
0.024374539 0 0.016137837 0 -0.47704095 0
0.025125889 0 0.016139152 0 -0.47704095 0
0.027380705 0 0.016143339 0 -0.47704095 0
0.028884586 0 0.016146328 0 -0.47704095 0
0.029636741 0 0.016147885 0 -0.47704095 0
0.030389041 0 0.01614948 0 -0.47704095 0
0.031141492 0 0.016151117 0 -0.47704095 0
0.031894095 0 0.016152794 0 -0.47704095 0
0.032646861 0 0.016154509 0 -0.47704095 0
0.034152877 0 0.016158063 0 -0.47704095 0
0.034906138 0 0.016159901 0 -0.47704095 0
0.03565957 0 0.016161779 0 -0.47704095 0
0.039999999 0.046990115 0.017755874 0 -0.47704095 0
0.037166972 0 0.016165653 0 -0.47704095 0
0.037920948 5.5511151e-17 0.016167652 0 -0.47704095 0
0.038675111 5.5511151e-17 0.016169691 0 -0.47704095 0
0.039429467 0 0.016171772 0 -0.47704095 0
0.00037466714 0 0.015366667 0 -0.47704095 0
0.0011240033 0 0.015366704 0 -0.47704095 0
0.001873345 0 0.015366781 0 -0.47704095 0
0.0026226959 0 0.015366894 0 -0.47704095 0
0.0033720599 5.5511151e-17 0.015367046 0 -0.47704095 0
0.0041214405 5.5511151e-17 0.015367235 0 -0.47704095 0
0.0048708413 0 0.015367462 0 -0.47704095 0
0.0056202663 0 0.015367729 0 -0.47704095 0
0.0063697188 0 0.015368031 0 -0.47704095 0
0.0078687221 5.5511151e-17 0.015368752 0 -0.47704095 0
0.0086182803 5.5511151e-17 0.015369169 0 -0.47704095 0
0.010117528 0 0.015370118 0 -0.47704095 0
0.010867224 0 0.015370648 0 -0.47704095 0
0.011616975 0 0.015371217 0 -0.47704095 0
0.012366783 0 0.015371825 0 -0.47704095 0
0.013116651 0 0.015372469 0 -0.47704095 0
0.013866586 0 0.015373153 0 -0.47704095 0
0.014616587 0 0.015373874 0 -0.47704095 0
0.015366661 5.5511151e-17 0.015374633 0 -0.47704095 0
0.016116813 5.5511151e-17 0.015375429 0 -0.47704095 0
0.016867042 0 0.015376264 0 -0.47704095 0
0.017617356 0 0.015377137 0 -0.47704095 0
0.018367756 0 0.015378049 0 -0.47704095 0
0.019118246 0 0.015378998 0 -0.47704095 0
0.019868832 5.5511151e-17 0.015379985 0 -0.47704095 0
0.020619515 0 0.01538101 0 -0.47704095 0
0.021370301 0 0.015382073 0 -0.47704095 0
0.022121193 0 0.015383175 0 -0.47704095 0
0.022872193 0 0.015384315 0 -0.47704095 0
0.023623308 0 0.015385492 0 -0.47704095 0
0.024374539 5.5511151e-17 0.015386708 0 -0.47704095 0
0.025125889 0 0.015387962 0 -0.47704095 0
0.026628969 0 0.015390584 0 -0.47704095 0
0.027380705 0 0.015391953 0 -0.47704095 0
0.028132576 0 0.01539336 0 -0.47704095 0
0.029636741 0 0.015396289 0 -0.47704095 0
0.030389041 0 0.015397809 0 -0.47704095 0
0.031141492 0 0.015399369 0 -0.47704095 0
0.032646861 0 0.015402605 0 -0.47704095 0
0.034152877 0 0.015405993 0 -0.47704095 0
0.039999999 0.069614723 0.017656201 0 -0.47704095 0
0.03565957 0 0.015409535 0 -0.47704095 0
0.036413182 0 0.015411364 0 -0.47704095 0
0.037166972 5.5511151e-17 0.01541323 0 -0.47704095 0
0.037920948 5.5511151e-17 0.015415136 0 -0.47704095 0
0.039429467 5.5511151e-17 0.015419063 0 -0.47704095 0
0.00037466714 5.5511151e-17 0.014616592 0 -0.47704095 0
0.0011240033 0 0.014616628 0 -0.47704095 0
0.001873345 5.5511151e-17 0.0146167 0 -0.47704095 0
0.0026226959 0 0.014616808 0 -0.47704095 0
0.0041214405 0 0.014617133 0 -0.47704095 0
0.0048708413 0 0.014617349 0 -0.47704095 0
0.0056202663 0 0.014617601 0 -0.47704095 0
0.0063697188 0 0.01461789 0 -0.47704095 0
0.0078687221 0 0.014618576 0 -0.47704095 0
0.0086182803 5.5511151e-17 0.014618972 0 -0.47704095 0
0.0093678804 0 0.014619405 0 -0.47704095 0
0.010117528 0 0.014619875 0 -0.47704095 0
0.011616975 0 0.014620921 0 -0.47704095 0
0.012366783 0 0.014621498 0 -0.47704095 0
0.013116651 0 0.014622112 0 -0.47704095 0
0.013866586 5.5511151e-17 0.014622761 0 -0.47704095 0
0.014616587 0 0.014623447 0 -0.47704095 0
0.015366661 0 0.014624169 0 -0.47704095 0
0.016116813 0 0.014624927 0 -0.47704095 0
0.016867042 5.5511151e-17 0.014625721 0 -0.47704095 0
0.017617356 5.5511151e-17 0.014626551 0 -0.47704095 0
0.019118246 0 0.014628321 0 -0.47704095 0
0.019868832 0 0.01462926 0 -0.47704095 0
0.021370301 0 0.014631246 0 -0.47704095 0
0.022121193 0 0.014632294 0 -0.47704095 0
0.023623308 0 0.014634498 0 -0.47704095 0
0.026628969 5.5511151e-17 0.014639342 0 -0.47704095 0
0.027380705 0 0.014640644 0 -0.47704095 0
0.028132576 5.5511151e-17 0.014641983 0 -0.47704095 0
0.028884586 0 0.014643357 0 -0.47704095 0
0.029636741 5.5511151e-17 0.014644768 0 -0.47704095 0
0.030389041 5.5511151e-17 0.014646215 0 -0.47704095 0
0.031141492 0 0.014647699 0 -0.47704095 0
0.031894095 0 0.014649219 0 -0.47704095 0
0.033399787 5.5511151e-17 0.01465237 0 -0.47704095 0
0.034906138 0 0.014655665 0 -0.47704095 0
0.039999999 0.058064707 0.01644144 0 -0.47704095 0
0.036413182 0 0.014659107 0 -0.47704095 0
0.037166972 0 0.014660883 0 -0.47704095 0
0.039999999 0.026154226 0.015466592 0 -0.47704095 0
0.038675111 0 0.014664545 0 -0.47704095 0
0.039429467 0 0.014666431 0 -0.47704095 0
0.0011240033 5.5511151e-17 0.013866624 0 -0.47704095 0
0.001873345 0 0.013866692 0 -0.47704095 0
0.0026226959 0 0.013866795 0 -0.47704095 0
0.0033720599 0 0.013866932 0 -0.47704095 0
0.0041214405 0 0.013867103 0 -0.47704095 0
0.0048708413 0 0.013867308 0 -0.47704095 0
0.0056202663 5.5511151e-17 0.013867548 0 -0.47704095 0
0.0063697188 0 0.013867822 0 -0.47704095 0
0.007119203 5.5511151e-17 0.013868129 0 -0.47704095 0
0.0078687221 0 0.013868472 0 -0.47704095 0
0.0093678804 5.5511151e-17 0.013869259 0 -0.47704095 0
0.010117528 0 0.013869704 0 -0.47704095 0
0.010867224 5.5511151e-17 0.013870182 0 -0.47704095 0
0.012366783 0 0.013871244 0 -0.47704095 0
0.013116651 0 0.013871826 0 -0.47704095 0
0.014616587 5.5511151e-17 0.013873093 0 -0.47704095 0
0.015366661 5.5511151e-17 0.013873777 0 -0.47704095 0
0.016867042 5.5511151e-17 0.013875251 0 -0.47704095 0
0.017617356 0 0.013876038 0 -0.47704095 0
0.018367756 0 0.01387686 0 -0.47704095 0
0.019118246 0 0.013877717 0 -0.47704095 0
0.019868832 0 0.013878607 0 -0.47704095 0
0.020619515 0 0.013879533 0 -0.47704095 0
0.021370301 0 0.013880492 0 -0.47704095 0
0.023623308 5.5511151e-17 0.013883578 0 -0.47704095 0
0.024374539 0 0.013884675 0 -0.47704095 0
0.025125889 0 0.013885806 0 -0.47704095 0
0.025877366 0 0.013886972 0 -0.47704095 0
0.026628969 0 0.013888173 0 -0.47704095 0
0.027380705 0 0.013889408 0 -0.47704095 0
0.028132576 0 0.013890677 0 -0.47704095 0
0.028884586 0 0.013891981 0 -0.47704095 0
0.029636741 0 0.013893319 0 -0.47704095 0
0.030389041 0 0.013894693 0 -0.47704095 0
0.031141492 5.5511151e-17 0.0138961 0 -0.47704095 0
0.031894095 5.5511151e-17 0.013897543 0 -0.47704095 0
0.032646861 0 0.01389902 0 -0.47704095 0
0.033399787 0 0.013900531 0 -0.47704095 0
0.034906138 0 0.013903658 0 -0.47704095 0
0.03565957 0 0.013905273 0 -0.47704095 0
0.036413182 0 0.013906923 0 -0.47704095 0
0.039999999 0.03636213 0.014968783 0 -0.47704095 0
0.039999999 0.026154226 0.014672975 0 -0.47704095 0
0.038675111 0 0.013912082 0 -0.47704095 0
0.039429467 0 0.013913871 0 -0.47704095 0
0.00037466714 5.5511151e-17 0.013116656 0 -0.47704095 0
0.0011240033 0 0.013116688 0 -0.47704095 0
0.001873345 5.5511151e-17 0.013116753 0 -0.47704095 0
0.0026226959 5.5511151e-17 0.01311685 0 -0.47704095 0
0.0033720599 5.5511151e-17 0.013116979 0 -0.47704095 0
0.0041214405 5.5511151e-17 0.013117141 0 -0.47704095 0
0.0063697188 0 0.013117821 0 -0.47704095 0
0.007119203 5.5511151e-17 0.013118112 0 -0.47704095 0
0.0086182803 0 0.013118792 0 -0.47704095 0
0.0093678804 0 0.013119181 0 -0.47704095 0
0.010117528 5.5511151e-17 0.013119602 0 -0.47704095 0
0.010867224 0 0.013120054 0 -0.47704095 0
0.011616975 0 0.01312054 0 -0.47704095 0
0.012366783 0 0.013121058 0 -0.47704095 0
0.013866586 0 0.013122192 0 -0.47704095 0
0.014616587 0 0.013122807 0 -0.47704095 0
0.015366661 0 0.013123455 0 -0.47704095 0
0.016116813 0 0.013124135 0 -0.47704095 0
0.017617356 0 0.013125593 0 -0.47704095 0
0.018367756 0 0.01312637 0 -0.47704095 0
0.019118246 5.5511151e-17 0.013127181 0 -0.47704095 0
0.019868832 0 0.013128024 0 -0.47704095 0
0.021370301 5.5511151e-17 0.013129806 0 -0.47704095 0
0.022121193 0 0.013130747 0 -0.47704095 0
0.022872193 0 0.013131719 0 -0.47704095 0
0.024374539 0 0.013133762 0 -0.47704095 0
0.025125889 0 0.013134832 0 -0.47704095 0
0.026628969 5.5511151e-17 0.013137071 0 -0.47704095 0
0.027380705 0 0.013138239 0 -0.47704095 0
0.028132576 0 0.013139441 0 -0.47704095 0
0.028884586 5.5511151e-17 0.013140674 0 -0.47704095 0
0.029636741 0 0.01314194 0 -0.47704095 0
0.030389041 0 0.013143239 0 -0.47704095 0
0.031141492 5.5511151e-17 0.01314457 0 -0.47704095 0
0.032646861 5.5511151e-17 0.013147332 0 -0.47704095 0
0.033399787 5.5511151e-17 0.013148761 0 -0.47704095 0
0.034152877 0 0.013150224 0 -0.47704095 0
0.034906138 5.5511151e-17 0.013151719 0 -0.47704095 0
0.039999999 0.058064707 0.01475424 0 -0.47704095 0
0.036413182 5.5511151e-17 0.013154808 0 -0.47704095 0
0.039999999 0.03636213 0.01415924 0 -0.47704095 0
0.037920948 0 0.013158028 0 -0.47704095 0
0.038675111 5.5511151e-17 0.013159688 0 -0.47704095 0
0.039429467 5.5511151e-17 0.01316138 0 -0.47704095 0
0.00037466714 5.5511151e-17 0.012366787 0 -0.47704095 0
0.0011240033 0 0.012366817 0 -0.47704095 0
0.001873345 5.5511151e-17 0.012366878 0 -0.47704095 0
0.0033720599 0 0.012367092 0 -0.47704095 0
0.0056202663 0 0.012367641 0 -0.47704095 0
0.0063697188 0 0.012367885 0 -0.47704095 0
0.0078687221 0 0.012368465 0 -0.47704095 0
0.0086182803 5.5511151e-17 0.012368801 0 -0.47704095 0
0.0093678804 0 0.012369167 0 -0.47704095 0
0.010117528 0 0.012369564 0 -0.47704095 0
0.010867224 5.5511151e-17 0.012369991 0 -0.47704095 0
0.011616975 0 0.012370449 0 -0.47704095 0
0.012366783 0 0.012370938 0 -0.47704095 0
0.013116651 0 0.012371456 0 -0.47704095 0
0.013866586 0 0.012372007 0 -0.47704095 0
0.014616587 0 0.012372586 0 -0.47704095 0
0.015366661 0 0.012373197 0 -0.47704095 0
0.016116813 5.5511151e-17 0.012373839 0 -0.47704095 0
0.016867042 0 0.01237451 0 -0.47704095 0
0.017617356 0 0.012375213 0 -0.47704095 0
0.018367756 0 0.012375946 0 -0.47704095 0
0.019118246 5.5511151e-17 0.01237671 0 -0.47704095 0
0.020619515 0 0.012378329 0 -0.47704095 0
0.021370301 0 0.012379185 0 -0.47704095 0
0.022121193 0 0.012380072 0 -0.47704095 0
0.024374539 0 0.012382915 0 -0.47704095 0
0.025125889 0 0.012383925 0 -0.47704095 0
0.025877366 0 0.012384964 0 -0.47704095 0
0.028132576 5.5511151e-17 0.012388268 0 -0.47704095 0
0.029636741 0 0.012390626 0 -0.47704095 0
0.030389041 5.5511151e-17 0.01239185 0 -0.47704095 0
0.031141492 5.5511151e-17 0.012393106 0 -0.47704095 0
0.031894095 0 0.012394392 0 -0.47704095 0
0.033399787 5.5511151e-17 0.012397056 0 -0.47704095 0
0.034152877 0 0.012398436 0 -0.47704095 0
0.034906138 0 0.012399846 0 -0.47704095 0
0.03565957 0 0.012401287 0 -0.47704095 0
0.036413182 0 0.012402758 0 -0.47704095 0
0.037166972 0 0.01240426 0 -0.47704095 0
0.037920948 5.5511151e-17 0.012405794 0 -0.47704095 0
0.038675111 0 0.012407359 0 -0.47704095 0
0.039429467 0 0.012408954 0 -0.47704095 0
0.00037466714 0 0.011616979 0 -0.47704095 0
0.0011240033 0 0.011617007 0 -0.47704095 0
0.001873345 5.5511151e-17 0.011617064 0 -0.47704095 0
0.0033720599 0 0.011617265 0 -0.47704095 0
0.0041214405 5.5511151e-17 0.011617408 0 -0.47704095 0
0.0048708413 5.5511151e-17 0.01161758 0 -0.47704095 0
0.0056202663 0 0.011617781 0 -0.47704095 0
0.0063697188 0 0.011618011 0 -0.47704095 0
0.007119203 5.5511151e-17 0.011618269 0 -0.47704095 0
0.0078687221 0 0.011618556 0 -0.47704095 0
0.0086182803 0 0.01161887 0 -0.47704095 0
0.010117528 0 0.011619587 0 -0.47704095 0
0.010867224 0 0.011619989 0 -0.47704095 0
0.011616975 0 0.011620419 0 -0.47704095 0
0.012366783 0 0.011620878 0 -0.47704095 0
0.013116651 0 0.011621365 0 -0.47704095 0
0.014616587 0 0.011622427 0 -0.47704095 0
0.016116813 5.5511151e-17 0.011623603 0 -0.47704095 0
0.016867042 0 0.011624234 0 -0.47704095 0
0.019118246 0 0.0116263 0 -0.47704095 0
0.019868832 5.5511151e-17 0.011627046 0 -0.47704095 0
0.020619515 0 0.011627822 0 -0.47704095 0
0.021370301 5.5511151e-17 0.011628626 0 -0.47704095 0
0.022121193 0 0.011629459 0 -0.47704095 0
0.022872193 0 0.01163032 0 -0.47704095 0
0.025125889 5.5511151e-17 0.011633078 0 -0.47704095 0
0.026628969 0 0.01163506 0 -0.47704095 0
0.027380705 0 0.011636095 0 -0.47704095 0
0.028132576 5.5511151e-17 0.011637159 0 -0.47704095 0
0.029636741 0 0.011639372 0 -0.47704095 0
0.030389041 0 0.011640523 0 -0.47704095 0
0.031141492 0 0.011641702 0 -0.47704095 0
0.034152877 0 0.011646708 0 -0.47704095 0
0.034906138 5.5511151e-17 0.011648033 0 -0.47704095 0
0.03565957 0 0.011649386 0 -0.47704095 0
0.039999999 0.046990115 0.012798408 0 -0.47704095 0
0.037166972 5.5511151e-17 0.01165218 0 -0.47704095 0
0.037920948 5.5511151e-17 0.011653621 0 -0.47704095 0
0.038675111 0 0.01165509 0 -0.47704095 0
0.0011240033 0 0.010867255 0 -0.47704095 0
0.001873345 0 0.010867308 0 -0.47704095 0
0.0026226959 0 0.010867389 0 -0.47704095 0
0.0033720599 5.5511151e-17 0.010867496 0 -0.47704095 0
0.0041214405 0 0.01086763 0 -0.47704095 0
0.0048708413 0 0.010867791 0 -0.47704095 0
0.0063697188 0 0.010868194 0 -0.47704095 0
0.007119203 0 0.010868435 0 -0.47704095 0
0.0078687221 0 0.010868703 0 -0.47704095 0
0.0086182803 5.5511151e-17 0.010868997 0 -0.47704095 0
0.0093678804 5.5511151e-17 0.01086932 0 -0.47704095 0
0.010867224 0 0.010870044 0 -0.47704095 0
0.011616975 0 0.010870446 0 -0.47704095 0
0.012366783 5.5511151e-17 0.010870876 0 -0.47704095 0
0.013116651 0 0.010871331 0 -0.47704095 0
0.013866586 0 0.010871815 0 -0.47704095 0
0.014616587 5.5511151e-17 0.010872324 0 -0.47704095 0
0.015366661 0 0.010872861 0 -0.47704095 0
0.016116813 5.5511151e-17 0.010873425 0 -0.47704095 0
0.016867042 5.5511151e-17 0.010874015 0 -0.47704095 0
0.017617356 0 0.010874633 0 -0.47704095 0
0.018367756 5.5511151e-17 0.010875277 0 -0.47704095 0
0.019118246 0 0.010875948 0 -0.47704095 0
0.019868832 0 0.010876646 0 -0.47704095 0
0.020619515 0 0.010877371 0 -0.47704095 0
0.021370301 0 0.010878123 0 -0.47704095 0
0.022872193 0 0.010879708 0 -0.47704095 0
0.023623308 5.5511151e-17 0.010880541 0 -0.47704095 0
0.025125889 0 0.010882287 0 -0.47704095 0
0.025877366 5.5511151e-17 0.010883202 0 -0.47704095 0
0.027380705 0 0.01088511 0 -0.47704095 0
0.028884586 0 0.010887127 0 -0.47704095 0
0.029636741 0 0.010888176 0 -0.47704095 0
0.030389041 5.5511151e-17 0.010889253 0 -0.47704095 0
0.032646861 0 0.010892643 0 -0.47704095 0
0.033399787 0 0.010893827 0 -0.47704095 0
0.034906138 0 0.010896278 0 -0.47704095 0
0.03565957 0 0.010897544 0 -0.47704095 0
0.036413182 0 0.010898837 0 -0.47704095 0
0.037166972 0 0.010900158 0 -0.47704095 0
0.037920948 5.5511151e-17 0.010901505 0 -0.47704095 0
0.038675111 0 0.01090288 0 -0.47704095 0
0.039429467 5.5511151e-17 0.010904282 0 -0.47704095 0
0.00037466714 0 0.010117531 0 -0.47704095 0
0.0011240033 0 0.010117556 0 -0.47704095 0
0.001873345 0 0.010117605 0 -0.47704095 0
0.0033720599 0 0.01011778 0 -0.47704095 0
0.0041214405 0 0.010117905 0 -0.47704095 0
0.0048708413 0 0.010118055 0 -0.47704095 0
0.0063697188 0 0.01011843 0 -0.47704095 0
0.007119203 0 0.010118654 0 -0.47704095 0
0.0086182803 0 0.010119178 0 -0.47704095 0
0.011616975 0 0.010120527 0 -0.47704095 0
0.012366783 0 0.010120926 0 -0.47704095 0
0.013116651 0 0.010121351 0 -0.47704095 0
0.014616587 5.5511151e-17 0.010122276 0 -0.47704095 0
0.016867042 5.5511151e-17 0.01012385 0 -0.47704095 0
0.017617356 0 0.010124424 0 -0.47704095 0
0.018367756 0 0.010125024 0 -0.47704095 0
0.019118246 0 0.010125649 0 -0.47704095 0
0.019868832 0 0.010126299 0 -0.47704095 0
0.020619515 0 0.010126974 0 -0.47704095 0
0.021370301 0 0.010127675 0 -0.47704095 0
0.022121193 0 0.010128399 0 -0.47704095 0
0.022872193 0 0.01012915 0 -0.47704095 0
0.023623308 0 0.010129926 0 -0.47704095 0
0.025125889 0 0.010131552 0 -0.47704095 0
0.025877366 0 0.010132402 0 -0.47704095 0
0.027380705 0 0.010134179 0 -0.47704095 0
0.028132576 5.5511151e-17 0.010135106 0 -0.47704095 0
0.028884586 5.5511151e-17 0.010136058 0 -0.47704095 0
0.030389041 0 0.010138036 0 -0.47704095 0
0.031141492 0 0.010139063 0 -0.47704095 0
0.031894095 0 0.010140115 0 -0.47704095 0
0.032646861 0 0.010141193 0 -0.47704095 0
0.034152877 0 0.010143423 0 -0.47704095 0
0.034906138 0 0.010144577 0 -0.47704095 0
0.03565957 0 0.010145755 0 -0.47704095 0
0.036413182 0 0.01014696 0 -0.47704095 0
0.037166972 0 0.010148189 0 -0.47704095 0
0.037920948 5.5511151e-17 0.010149444 0 -0.47704095 0
0.038675111 0 0.010150723 0 -0.47704095 0
0.039999999 0.0069026346 0.010298925 0 -0.47704095 0
0.0011240033 5.5511151e-17 0.0093679065 0 -0.47704095 0
0.001873345 0 0.0093679531 0 -0.47704095 0
0.0033720599 5.5511151e-17 0.0093681151 0 -0.47704095 0
0.0041214405 5.5511151e-17 0.0093682306 0 -0.47704095 0
0.0048708413 5.5511151e-17 0.0093683694 0 -0.47704095 0
0.0056202663 5.5511151e-17 0.0093685305 0 -0.47704095 0
0.0078687221 0 0.0093691554 0 -0.47704095 0
0.0086182803 0 0.0093694096 0 -0.47704095 0
0.0093678804 0 0.0093696872 0 -0.47704095 0
0.010867224 0 0.0093703112 0 -0.47704095 0
0.012366783 0 0.0093710283 0 -0.47704095 0
0.013116651 0 0.0093714213 0 -0.47704095 0
0.013866586 5.5511151e-17 0.0093718376 0 -0.47704095 0
0.014616587 0 0.0093722772 0 -0.47704095 0
0.015366661 0 0.0093727401 0 -0.47704095 0
0.016116813 0 0.0093732253 0 -0.47704095 0
0.016867042 0 0.0093737347 0 -0.47704095 0
0.017617356 0 0.0093742665 0 -0.47704095 0
0.019118246 5.5511151e-17 0.0093754008 0 -0.47704095 0
0.020619515 0 0.0093766274 0 -0.47704095 0
0.021370301 5.5511151e-17 0.0093772756 0 -0.47704095 0
0.022121193 0 0.0093779471 0 -0.47704095 0
0.022872193 0 0.0093786418 0 -0.47704095 0
0.024374539 0 0.0093801012 0 -0.47704095 0
0.025125889 0 0.0093808658 0 -0.47704095 0
0.025877366 0 0.0093816537 0 -0.47704095 0
0.026628969 0 0.0093824649 0 -0.47704095 0
0.027380705 0 0.0093832985 0 -0.47704095 0
0.028132576 0 0.0093841562 0 -0.47704095 0
0.028884586 0 0.0093850372 0 -0.47704095 0
0.029636741 0 0.0093859416 0 -0.47704095 0
0.031141492 0 0.00938782 0 -0.47704095 0
0.032646861 5.5511151e-17 0.0093897926 0 -0.47704095 0
0.033399787 0 0.0093908133 0 -0.47704095 0
0.034152877 0 0.0093918582 0 -0.47704095 0
0.034906138 0 0.0093929255 0 -0.47704095 0
0.039999999 0.058064707 0.010537443 0 -0.47704095 0
0.036413182 5.5511151e-17 0.0093951318 0 -0.47704095 0
0.039999999 0.03636213 0.010112494 0 -0.47704095 0
0.037920948 5.5511151e-17 0.0093974322 0 -0.47704095 0
0.039999999 0.016341928 0.0097205844 0 -0.47704095 0
0.039429467 0 0.0093998257 0 -0.47704095 0
0.00037466714 0 0.0086182831 0 -0.47704095 0
0.0011240033 0 0.0086183045 0 -0.47704095 0
0.001873345 0 0.0086183464 0 -0.47704095 0
0.0026226959 0 0.0086184107 0 -0.47704095 0
0.0033720599 0 0.0086184954 0 -0.47704095 0
0.0041214405 5.5511151e-17 0.0086186016 0 -0.47704095 0
0.0048708413 5.5511151e-17 0.0086187292 0 -0.47704095 0
0.0056202663 5.5511151e-17 0.0086188782 0 -0.47704095 0
0.0063697188 0 0.0086190486 0 -0.47704095 0
0.007119203 0 0.0086192396 0 -0.47704095 0
0.0078687221 0 0.0086194528 0 -0.47704095 0
0.0093678804 0 0.0086199418 0 -0.47704095 0
0.010117528 0 0.0086202184 0 -0.47704095 0
0.010867224 5.5511151e-17 0.0086205164 0 -0.47704095 0
0.011616975 5.5511151e-17 0.0086208349 0 -0.47704095 0
0.012366783 0 0.0086211758 0 -0.47704095 0
0.014616587 5.5511151e-17 0.008622325 0 -0.47704095 0
0.015366661 5.5511151e-17 0.0086227506 0 -0.47704095 0
0.016867042 0 0.0086236652 0 -0.47704095 0
0.019118246 0 0.0086251982 0 -0.47704095 0
0.019868832 0 0.0086257523 0 -0.47704095 0
0.022121193 0 0.0086275414 0 -0.47704095 0
0.022872193 0 0.0086281803 0 -0.47704095 0
0.024374539 0 0.0086295232 0 -0.47704095 0
0.025125889 0 0.0086302264 0 -0.47704095 0
0.026628969 0 0.0086316969 0 -0.47704095 0
0.027380705 0 0.0086324643 0 -0.47704095 0
0.028884586 5.5511151e-17 0.0086340643 0 -0.47704095 0
0.030389041 0 0.0086357491 0 -0.47704095 0
0.031894095 0 0.0086375205 0 -0.47704095 0
0.032646861 0 0.0086384388 0 -0.47704095 0
0.033399787 0 0.0086393775 0 -0.47704095 0
0.034906138 0 0.0086413212 0 -0.47704095 0
0.03565957 0 0.0086423252 0 -0.47704095 0
0.036413182 5.5511151e-17 0.0086433506 0 -0.47704095 0
0.039999999 0.03636213 0.0093033118 0 -0.47704095 0
0.039999999 0.026154226 0.0091194622 0 -0.47704095 0
0.039999999 0.016341928 0.0089427605 0 -0.47704095 0
0.039429467 5.5511151e-17 0.0086476691 0 -0.47704095 0
0.00037466714 0 0.0078687249 0 -0.47704095 0
0.0011240033 5.5511151e-17 0.0078687435 0 -0.47704095 0
0.001873345 0 0.0078687826 0 -0.47704095 0
0.0026226959 0 0.0078688413 0 -0.47704095 0
0.0033720599 0 0.0078689186 0 -0.47704095 0
0.0041214405 0 0.0078690154 0 -0.47704095 0
0.0048708413 0 0.0078691319 0 -0.47704095 0
0.0056202663 0 0.0078692678 0 -0.47704095 0
0.0063697188 5.5511151e-17 0.0078694234 0 -0.47704095 0
0.0078687221 5.5511151e-17 0.0078697922 0 -0.47704095 0
0.0086182803 0 0.0078700064 0 -0.47704095 0
0.010867224 0 0.0078707635 0 -0.47704095 0
0.012366783 0 0.0078713661 0 -0.47704095 0
0.013866586 0 0.007872046 0 -0.47704095 0
0.014616587 0 0.0078724148 0 -0.47704095 0
0.015366661 5.5511151e-17 0.0078728031 0 -0.47704095 0
0.016867042 0 0.0078736395 0 -0.47704095 0
0.017617356 0 0.0078740865 0 -0.47704095 0
0.018367756 0 0.0078745531 0 -0.47704095 0
0.020619515 5.5511151e-17 0.0078760693 0 -0.47704095 0
0.021370301 5.5511151e-17 0.0078766141 0 -0.47704095 0
0.022121193 0 0.0078771776 0 -0.47704095 0
0.023623308 5.5511151e-17 0.0078783641 0 -0.47704095 0
0.024374539 0 0.0078789871 0 -0.47704095 0
0.025877366 0 0.007880291 0 -0.47704095 0
0.028132576 0 0.007882393 0 -0.47704095 0
0.028884586 0 0.0078831334 0 -0.47704095 0
0.029636741 0 0.0078838924 0 -0.47704095 0
0.031141492 0 0.007885471 0 -0.47704095 0
0.031894095 5.5511151e-17 0.0078862887 0 -0.47704095 0
0.032646861 0 0.0078871269 0 -0.47704095 0
0.034152877 5.5511151e-17 0.0078888619 0 -0.47704095 0
0.034906138 0 0.0078897588 0 -0.47704095 0
0.03565957 5.5511151e-17 0.0078906761 0 -0.47704095 0
0.039999999 0.046990115 0.0086689619 0 -0.47704095 0
0.037166972 0 0.0078925686 0 -0.47704095 0
0.037920948 0 0.0078935437 0 -0.47704095 0
0.038675111 5.5511151e-17 0.0078945393 0 -0.47704095 0
0.039429467 0 0.0078955544 0 -0.47704095 0
0.00037466714 5.5511151e-17 0.0071192048 0 -0.47704095 0
0.0011240033 0 0.0071192225 0 -0.47704095 0
0.0026226959 0 0.0071193106 0 -0.47704095 0
0.0033720599 0 0.0071193809 0 -0.47704095 0
0.0041214405 0 0.0071194684 0 -0.47704095 0
0.0048708413 0 0.0071195741 0 -0.47704095 0
0.0056202663 0 0.0071196971 0 -0.47704095 0
0.0063697188 5.5511151e-17 0.0071198377 0 -0.47704095 0
0.007119203 0 0.0071199955 0 -0.47704095 0
0.0086182803 0 0.0071203643 0 -0.47704095 0
0.010117528 0 0.0071208039 0 -0.47704095 0
0.010867224 0 0.0071210498 0 -0.47704095 0
0.011616975 0 0.0071213134 0 -0.47704095 0
0.012366783 0 0.0071215946 0 -0.47704095 0
0.013116651 5.5511151e-17 0.0071218936 0 -0.47704095 0
0.013866586 5.5511151e-17 0.0071222098 0 -0.47704095 0
0.014616587 0 0.0071225441 0 -0.47704095 0
0.015366661 0 0.0071228957 0 -0.47704095 0
0.016116813 0 0.0071232645 0 -0.47704095 0
0.018367756 0 0.007124478 0 -0.47704095 0
0.020619515 0 0.0071258503 0 -0.47704095 0
0.021370301 0 0.007126343 0 -0.47704095 0
0.023623308 5.5511151e-17 0.0071279267 0 -0.47704095 0
0.024374539 0 0.0071284901 0 -0.47704095 0
0.025125889 5.5511151e-17 0.0071290708 0 -0.47704095 0
0.027380705 5.5511151e-17 0.00713092 0 -0.47704095 0
0.028132576 0 0.0071315719 0 -0.47704095 0
0.028884586 0 0.0071322415 0 -0.47704095 0
0.029636741 0 0.0071329284 0 -0.47704095 0
0.030389041 0 0.0071336334 0 -0.47704095 0
0.031894095 0 0.0071350965 0 -0.47704095 0
0.032646861 0 0.007135855 0 -0.47704095 0
0.034906138 0 0.007138236 0 -0.47704095 0
0.039999999 0.058064707 0.0080080219 0 -0.47704095 0
0.039999999 0.046990115 0.0078432178 0 -0.47704095 0
0.039999999 0.03636213 0.0076850788 0 -0.47704095 0
0.039999999 0.026154226 0.0075332089 0 -0.47704095 0
0.039999999 0.016341928 0.0073872427 0 -0.47704095 0
0.039429467 0 0.0071434798 0 -0.47704095 0
0.00037466714 0 0.0063697207 0 -0.47704095 0
0.0011240033 0 0.0063697365 0 -0.47704095 0
0.001873345 5.5511151e-17 0.0063697677 0 -0.47704095 0
0.0026226959 5.5511151e-17 0.0063698152 0 -0.47704095 0
0.0033720599 0 0.0063698781 0 -0.47704095 0
0.0041214405 0 0.0063699563 0 -0.47704095 0
0.0056202663 0 0.0063701607 0 -0.47704095 0
0.007119203 0 0.006370428 0 -0.47704095 0
0.0078687221 0 0.0063705854 0 -0.47704095 0
0.0086182803 0 0.0063707582 0 -0.47704095 0
0.010117528 0 0.0063711512 0 -0.47704095 0
0.010867224 0 0.0063713714 0 -0.47704095 0
0.011616975 0 0.0063716071 0 -0.47704095 0
0.012366783 0 0.006371859 0 -0.47704095 0
0.013866586 5.5511151e-17 0.0063724094 0 -0.47704095 0
0.014616587 0 0.0063727079 0 -0.47704095 0
0.016116813 0 0.0063733528 0 -0.47704095 0
0.016867042 0 0.0063736993 0 -0.47704095 0
0.019868832 0 0.0063752411 0 -0.47704095 0
0.021370301 5.5511151e-17 0.0063761072 0 -0.47704095 0
0.022872193 0 0.0063770358 0 -0.47704095 0
0.023623308 0 0.0063775242 0 -0.47704095 0
0.024374539 5.5511151e-17 0.0063780281 0 -0.47704095 0
0.025125889 0 0.0063785478 0 -0.47704095 0
0.025877366 0 0.0063790837 0 -0.47704095 0
0.026628969 0 0.0063796351 0 -0.47704095 0
0.027380705 0 0.0063802022 0 -0.47704095 0
0.030389041 0 0.0063826302 0 -0.47704095 0
0.031141492 0 0.0063832765 0 -0.47704095 0
0.032646861 0 0.0063846176 0 -0.47704095 0
0.033399787 0 0.0063853119 0 -0.47704095 0
0.034152877 0 0.0063860221 0 -0.47704095 0
0.034906138 5.5511151e-17 0.0063867485 0 -0.47704095 0
0.03565957 0 0.0063874903 0 -0.47704095 0
0.036413182 0 0.0063882484 0 -0.47704095 0
0.039999999 0.03636213 0.0068760212 0 -0.47704095 0
0.037920948 5.5511151e-17 0.0063898121 0 -0.47704095 0
0.038675111 0 0.0063906182 0 -0.47704095 0
0.039999999 0.0069026346 0.0064839218 0 -0.47704095 0
0.0011240033 0 0.0056202817 0 -0.47704095 0
0.001873345 5.5511151e-17 0.0056203096 0 -0.47704095 0
0.0048708413 0 0.0056205592 0 -0.47704095 0
0.0056202663 0 0.0056206561 0 -0.47704095 0
0.0063697188 0 0.0056207669 0 -0.47704095 0
0.007119203 0 0.0056208922 0 -0.47704095 0
0.0078687221 0 0.0056210305 0 -0.47704095 0
0.0086182803 5.5511151e-17 0.0056211832 0 -0.47704095 0
0.0093678804 5.5511151e-17 0.0056213499 0 -0.47704095 0
0.010117528 0 0.0056215301 0 -0.47704095 0
0.010867224 0 0.0056217243 0 -0.47704095 0
0.011616975 5.5511151e-17 0.0056219324 0 -0.47704095 0
0.012366783 0 0.0056221546 0 -0.47704095 0
0.013116651 0 0.0056223902 0 -0.47704095 0
0.013866586 0 0.0056226403 0 -0.47704095 0
0.014616587 5.5511151e-17 0.0056229038 0 -0.47704095 0
0.015366661 5.5511151e-17 0.0056231814 0 -0.47704095 0
0.016116813 0 0.0056234729 0 -0.47704095 0
0.018367756 0 0.0056244307 0 -0.47704095 0
