# .PCD v0.7 - Point Cloud Data file format
VERSION 0.7
FIELDS x y z vp_x vp_y vp_z
SIZE 4 4 4 4 4 4
TYPE F F F F F F
COUNT 1 1 1 1 1 1
WIDTH 875
HEIGHT 1
VIEWPOINT 0 0 0 1 0 0 0
POINTS 875
DATA ascii
0 0.055772953 0.013158504 -0.25019264 0.4048202 0
0 0.054612491 0.01318742 -0.25019264 0.4048202 0
0 0.053446915 0.013216496 -0.25019264 0.4048202 0
0 0.052276187 0.013245733 -0.25019264 0.4048202 0
0 0.051100262 0.013275132 -0.25019264 0.4048202 0
0 0.049919102 0.013304695 -0.25019264 0.4048202 0
0 0.048732668 0.013334423 -0.25019264 0.4048202 0
0 0.047540918 0.013364317 -0.25019264 0.4048202 0
0 0.046343807 0.013394379 -0.25019264 0.4048202 0
0 0.045141298 0.01342461 -0.25019264 0.4048202 0
0 0.043933343 0.01345501 -0.25019264 0.4048202 0
0 0.042719904 0.013485582 -0.25019264 0.4048202 0
0 0.041500933 0.013516326 -0.25019264 0.4048202 0
0 0.04027639 0.013547245 -0.25019264 0.4048202 0
0 0.039046228 0.013578339 -0.25019264 0.4048202 0
0 0.037810404 0.01360961 -0.25019264 0.4048202 0
0 0.036568873 0.013641058 -0.25019264 0.4048202 0
0 0.035321586 0.013672687 -0.25019264 0.4048202 0
0 0.034068499 0.013704496 -0.25019264 0.4048202 0
0 0.032809563 0.013736487 -0.25019264 0.4048202 0
0 0.031544734 0.013768663 -0.25019264 0.4048202 0
0 0.030273961 0.013801023 -0.25019264 0.4048202 0
0 0.0289972 0.01383357 -0.25019264 0.4048202 0
0 0.027714398 0.013866305 -0.25019264 0.4048202 0
0 0.026425507 0.01389923 -0.25019264 0.4048202 0
0 0.025130479 0.013932346 -0.25019264 0.4048202 0
0 0.023829259 0.013965655 -0.25019264 0.4048202 0
0 0.022521801 0.013999159 -0.25019264 0.4048202 0
0 0.021208052 0.014032857 -0.25019264 0.4048202 0
0 0.01988796 0.014066754 -0.25019264 0.4048202 0
0 0.018561469 0.01410085 -0.25019264 0.4048202 0
0 0.017228533 0.014135146 -0.25019264 0.4048202 0
0 0.01588909 0.014169644 -0.25019264 0.4048202 0
0 0.014543091 0.014204347 -0.25019264 0.4048202 0
0 0.01319048 0.014239254 -0.25019264 0.4048202 0
0 0.011831201 0.014274369 -0.25019264 0.4048202 0
0 0.010465197 0.014309694 -0.25019264 0.4048202 0
0 0.0090924129 0.014345229 -0.25019264 0.4048202 0
0 0.0077127903 0.014380977 -0.25019264 0.4048202 0
0 0.0063262712 0.014416938 -0.25019264 0.4048202 0
0 0.0049327966 0.014453116 -0.25019264 0.4048202 0
0 0.0035323075 0.014489512 -0.25019264 0.4048202 0
0 0.0021247438 0.014526127 -0.25019264 0.4048202 0
0 0.00071004458 0.014562964 -0.25019264 0.4048202 0
0.039745674 0.079999998 0.012656144 -0.25019264 0.4048202 0
0.038830206 0.079999998 0.012638439 -0.25019264 0.4048202 0
0.03791729 0.079999998 0.012620815 -0.25019264 0.4048202 0
0.037006918 0.079999998 0.012603271 -0.25019264 0.4048202 0
0.036099069 0.079999998 0.012585807 -0.25019264 0.4048202 0
0.03519373 0.079999998 0.012568421 -0.25019264 0.4048202 0
0.034290887 0.079999998 0.012551115 -0.25019264 0.4048202 0
0.033390526 0.079999998 0.012533887 -0.25019264 0.4048202 0
0.03249263 0.079999998 0.012516737 -0.25019264 0.4048202 0
0.03159719 0.079999998 0.012499665 -0.25019264 0.4048202 0
0.030704182 0.079999998 0.01248267 -0.25019264 0.4048202 0
0.029813597 0.079999998 0.012465753 -0.25019264 0.4048202 0
0.028925421 0.079999998 0.012448911 -0.25019264 0.4048202 0
0.02803964 0.079999998 0.012432146 -0.25019264 0.4048202 0
0.027156239 0.079999998 0.012415456 -0.25019264 0.4048202 0
0.026275206 0.079999998 0.012398842 -0.25019264 0.4048202 0
0.025396524 0.079999998 0.012382302 -0.25019264 0.4048202 0
0.024520183 0.079999998 0.012365837 -0.25019264 0.4048202 0
0.023646165 0.079999998 0.012349446 -0.25019264 0.4048202 0
0.02277446 0.079999998 0.01233313 -0.25019264 0.4048202 0
0.021905053 0.079999998 0.012316885 -0.25019264 0.4048202 0
0.021037931 0.079999998 0.012300715 -0.25019264 0.4048202 0
0.02017308 0.079999998 0.012284617 -0.25019264 0.4048202 0
0.019310489 0.079999998 0.012268592 -0.25019264 0.4048202 0
0.018450143 0.079999998 0.012252638 -0.25019264 0.4048202 0
0.01759203 0.079999998 0.012236756 -0.25019264 0.4048202 0
0.016736135 0.079999998 0.012220945 -0.25019264 0.4048202 0
0.015882447 0.079999998 0.012205206 -0.25019264 0.4048202 0
0.015030955 0.079999998 0.012189536 -0.25019264 0.4048202 0
0.014181643 0.079999998 0.012173937 -0.25019264 0.4048202 0
0.0133345 0.079999998 0.012158408 -0.25019264 0.4048202 0
0.012489513 0.079999998 0.012142948 -0.25019264 0.4048202 0
0.011646671 0.079999998 0.012127557 -0.25019264 0.4048202 0
0.010805961 0.079999998 0.012112235 -0.25019264 0.4048202 0
0.00996737 0.079999998 0.012096982 -0.25019264 0.4048202 0
0.0091308858 0.079999998 0.012081796 -0.25019264 0.4048202 0
0.0082964981 0.079999998 0.012066679 -0.25019264 0.4048202 0
0.0074641928 0.079999998 0.012051629 -0.25019264 0.4048202 0
0.0066339597 0.079999998 0.012036646 -0.25019264 0.4048202 0
0.0058057858 0.079999998 0.01202173 -0.25019264 0.4048202 0
0.0049796603 0.079999998 0.012006881 -0.25019264 0.4048202 0
0.0041555711 0.079999998 0.011992098 -0.25019264 0.4048202 0
0.0033335064 0.079999998 0.01197738 -0.25019264 0.4048202 0
0.0025134552 0.079999998 0.011962729 -0.25019264 0.4048202 0
0.0016954059 0.079999998 0.011948141 -0.25019264 0.4048202 0
0.00087934709 0.079999998 0.01193362 -0.25019264 0.4048202 0
6.5267523e-05 0.079999998 0.011919163 -0.25019264 0.4048202 0
0 0.079027481 0.011940413 -0.25019264 0.4048202 0
0 0.077965915 0.011964901 -0.25019264 0.4048202 0
0 0.07689999 0.01198952 -0.25019264 0.4048202 0
0 0.075829662 0.01201427 -0.25019264 0.4048202 0
0 0.074754901 0.012039152 -0.25019264 0.4048202 0
0 0.073675685 0.012064166 -0.25019264 0.4048202 0
0 0.072591968 0.012089316 -0.25019264 0.4048202 0
0 0.071503714 0.0121146 -0.25019264 0.4048202 0
0 0.0704109 0.01214002 -0.25019264 0.4048202 0
0 0.069313489 0.012165577 -0.25019264 0.4048202 0
0 0.068211444 0.012191272 -0.25019264 0.4048202 0
0 0.067104734 0.012217106 -0.25019264 0.4048202 0
0 0.065993316 0.01224308 -0.25019264 0.4048202 0
0 0.064877167 0.012269195 -0.25019264 0.4048202 0
0 0.063756235 0.012295452 -0.25019264 0.4048202 0
0 0.062630497 0.012321852 -0.25019264 0.4048202 0
0 0.061499909 0.012348397 -0.25019264 0.4048202 0
0 0.060364436 0.012375087 -0.25019264 0.4048202 0
0 0.059224043 0.012401923 -0.25019264 0.4048202 0
0 0.058078691 0.012428906 -0.25019264 0.4048202 0
0 0.05692834 0.012456037 -0.25019264 0.4048202 0
0 0.055772953 0.012483318 -0.25019264 0.4048202 0
0 0.054612491 0.01251075 -0.25019264 0.4048202 0
0 0.053446915 0.012538334 -0.25019264 0.4048202 0
0 0.052276187 0.012566071 -0.25019264 0.4048202 0
0 0.051100262 0.012593962 -0.25019264 0.4048202 0
0 0.049919102 0.012622008 -0.25019264 0.4048202 0
0 0.048732668 0.012650211 -0.25019264 0.4048202 0
0 0.047540918 0.012678571 -0.25019264 0.4048202 0
0 0.046343807 0.012707091 -0.25019264 0.4048202 0
0 0.045141298 0.01273577 -0.25019264 0.4048202 0
0 0.043933343 0.01276461 -0.25019264 0.4048202 0
0 0.042719904 0.012793614 -0.25019264 0.4048202 0
0 0.041500933 0.012822781 -0.25019264 0.4048202 0
0 0.04027639 0.012852113 -0.25019264 0.4048202 0
0 0.039046228 0.012881611 -0.25019264 0.4048202 0
0 0.037810404 0.012911277 -0.25019264 0.4048202 0
0 0.036568873 0.012941113 -0.25019264 0.4048202 0
0 0.035321586 0.012971118 -0.25019264 0.4048202 0
0 0.034068499 0.013001295 -0.25019264 0.4048202 0
0 0.032809563 0.013031645 -0.25019264 0.4048202 0
0 0.031544734 0.013062169 -0.25019264 0.4048202 0
0 0.030273961 0.013092869 -0.25019264 0.4048202 0
0 0.0289972 0.013123746 -0.25019264 0.4048202 0
0 0.027714398 0.013154802 -0.25019264 0.4048202 0
0 0.026425507 0.013186038 -0.25019264 0.4048202 0
0 0.025130479 0.013217454 -0.25019264 0.4048202 0
0 0.023829259 0.013249054 -0.25019264 0.4048202 0
0 0.022521801 0.013280838 -0.25019264 0.4048202 0
0 0.021208052 0.013312807 -0.25019264 0.4048202 0
0 0.01988796 0.013344965 -0.25019264 0.4048202 0
0 0.018561469 0.013377311 -0.25019264 0.4048202 0
0 0.017228533 0.013409847 -0.25019264 0.4048202 0
0 0.01588909 0.013442575 -0.25019264 0.4048202 0
0 0.014543091 0.013475497 -0.25019264 0.4048202 0
0 0.01319048 0.013508613 -0.25019264 0.4048202 0
0 0.011831201 0.013541927 -0.25019264 0.4048202 0
0 0.010465197 0.013575438 -0.25019264 0.4048202 0
0 0.0090924129 0.01360915 -0.25019264 0.4048202 0
0 0.0077127903 0.013643064 -0.25019264 0.4048202 0
0 0.0063262712 0.01367718 -0.25019264 0.4048202 0
0 0.0049327966 0.013711502 -0.25019264 0.4048202 0
0 0.0035323075 0.01374603 -0.25019264 0.4048202 0
0 0.0021247438 0.013780766 -0.25019264 0.4048202 0
0 0.00071004458 0.013815713 -0.25019264 0.4048202 0
0.039745674 0.079999998 0.011971674 -0.25019264 0.4048202 0
0.038830206 0.079999998 0.011954926 -0.25019264 0.4048202 0
0.03791729 0.079999998 0.011938255 -0.25019264 0.4048202 0
0.037006918 0.079999998 0.01192166 -0.25019264 0.4048202 0
0.036099069 0.079999998 0.011905139 -0.25019264 0.4048202 0
0.03519373 0.079999998 0.011888695 -0.25019264 0.4048202 0
0.034290887 0.079999998 0.011872324 -0.25019264 0.4048202 0
0.033390526 0.079999998 0.011856029 -0.25019264 0.4048202 0
0.03249263 0.079999998 0.011839806 -0.25019264 0.4048202 0
0.03159719 0.079999998 0.011823657 -0.25019264 0.4048202 0
0.030704182 0.079999998 0.011807581 -0.25019264 0.4048202 0
0.029813597 0.079999998 0.011791578 -0.25019264 0.4048202 0
0.028925421 0.079999998 0.011775648 -0.25019264 0.4048202 0
0.02803964 0.079999998 0.01175979 -0.25019264 0.4048202 0
0.027156239 0.079999998 0.011744002 -0.25019264 0.4048202 0
0.026275206 0.079999998 0.011728287 -0.25019264 0.4048202 0
0.025396524 0.079999998 0.011712641 -0.25019264 0.4048202 0
0.024520183 0.079999998 0.011697067 -0.25019264 0.4048202 0
0.023646165 0.079999998 0.011681562 -0.25019264 0.4048202 0
0.02277446 0.079999998 0.011666128 -0.25019264 0.4048202 0
0.021905053 0.079999998 0.011650763 -0.25019264 0.4048202 0
0.021037931 0.079999998 0.011635467 -0.25019264 0.4048202 0
0.02017308 0.079999998 0.011620239 -0.25019264 0.4048202 0
0.019310489 0.079999998 0.011605081 -0.25019264 0.4048202 0
0.018450143 0.079999998 0.01158999 -0.25019264 0.4048202 0
0.01759203 0.079999998 0.011574967 -0.25019264 0.4048202 0
0.016736135 0.079999998 0.011560012 -0.25019264 0.4048202 0
0.015882447 0.079999998 0.011545123 -0.25019264 0.4048202 0
0.015030955 0.079999998 0.011530301 -0.25019264 0.4048202 0
0.014181643 0.079999998 0.011515545 -0.25019264 0.4048202 0
0.0133345 0.079999998 0.011500856 -0.25019264 0.4048202 0
0.012489513 0.079999998 0.011486232 -0.25019264 0.4048202 0
0.011646671 0.079999998 0.011471674 -0.25019264 0.4048202 0
0.010805961 0.079999998 0.011457181 -0.25019264 0.4048202 0
0.00996737 0.079999998 0.011442752 -0.25019264 0.4048202 0
0.0091308858 0.079999998 0.011428388 -0.25019264 0.4048202 0
0.0082964981 0.079999998 0.011414088 -0.25019264 0.4048202 0
0.0074641928 0.079999998 0.011399852 -0.25019264 0.4048202 0
0.0066339597 0.079999998 0.011385679 -0.25019264 0.4048202 0
0.0058057858 0.079999998 0.01137157 -0.25019264 0.4048202 0
0.0049796603 0.079999998 0.011357524 -0.25019264 0.4048202 0
0.0041555711 0.079999998 0.01134354 -0.25019264 0.4048202 0
0.0033335064 0.079999998 0.011329618 -0.25019264 0.4048202 0
0.0025134552 0.079999998 0.011315759 -0.25019264 0.4048202 0
0.0016954059 0.079999998 0.011301962 -0.25019264 0.4048202 0
0.00087934709 0.079999998 0.011288225 -0.25019264 0.4048202 0
6.5267523e-05 0.079999998 0.01127455 -0.25019264 0.4048202 0
0 0.079027481 0.011294651 -0.25019264 0.4048202 0
0 0.077965915 0.011317815 -0.25019264 0.4048202 0
0 0.07689999 0.011341101 -0.25019264 0.4048202 0
0 0.075829662 0.011364513 -0.25019264 0.4048202 0
0 0.074754901 0.011388049 -0.25019264 0.4048202 0
0 0.073675685 0.011411712 -0.25019264 0.4048202 0
0 0.072591968 0.0114355 -0.25019264 0.4048202 0
0 0.071503714 0.011459418 -0.25019264 0.4048202 0
0 0.0704109 0.011483463 -0.25019264 0.4048202 0
0 0.069313489 0.011507638 -0.25019264 0.4048202 0
0 0.068211444 0.011531943 -0.25019264 0.4048202 0
0 0.067104734 0.011556379 -0.25019264 0.4048202 0
0 0.065993316 0.011580949 -0.25019264 0.4048202 0
0 0.064877167 0.011605652 -0.25019264 0.4048202 0
0 0.063756235 0.011630489 -0.25019264 0.4048202 0
0 0.062630497 0.011655461 -0.25019264 0.4048202 0
0 0.061499909 0.01168057 -0.25019264 0.4048202 0
0 0.060364436 0.011705816 -0.25019264 0.4048202 0
0 0.059224043 0.011731201 -0.25019264 0.4048202 0
0 0.058078691 0.011756725 -0.25019264 0.4048202 0
0 0.05692834 0.011782389 -0.25019264 0.4048202 0
0 0.055772953 0.011808195 -0.25019264 0.4048202 0
0 0.054612491 0.011834143 -0.25019264 0.4048202 0
0 0.053446915 0.011860236 -0.25019264 0.4048202 0
0 0.052276187 0.011886472 -0.25019264 0.4048202 0
0 0.051100262 0.011912854 -0.25019264 0.4048202 0
0 0.049919102 0.011939384 -0.25019264 0.4048202 0
0 0.048732668 0.011966061 -0.25019264 0.4048202 0
0 0.047540918 0.011992888 -0.25019264 0.4048202 0
0 0.046343807 0.012019865 -0.25019264 0.4048202 0
0 0.045141298 0.012046993 -0.25019264 0.4048202 0
0 0.043933343 0.012074274 -0.25019264 0.4048202 0
0 0.042719904 0.012101709 -0.25019264 0.4048202 0
0 0.041500933 0.012129298 -0.25019264 0.4048202 0
0 0.04027639 0.012157044 -0.25019264 0.4048202 0
0 0.039046228 0.012184947 -0.25019264 0.4048202 0
0 0.037810404 0.012213008 -0.25019264 0.4048202 0
0 0.036568873 0.01224123 -0.25019264 0.4048202 0
0 0.035321586 0.012269612 -0.25019264 0.4048202 0
0 0.034068499 0.012298157 -0.25019264 0.4048202 0
0 0.032809563 0.012326866 -0.25019264 0.4048202 0
0 0.031544734 0.01235574 -0.25019264 0.4048202 0
0 0.030273961 0.01238478 -0.25019264 0.4048202 0
0 0.0289972 0.012413987 -0.25019264 0.4048202 0
0 0.027714398 0.012443363 -0.25019264 0.4048202 0
0 0.026425507 0.012472909 -0.25019264 0.4048202 0
0 0.025130479 0.012502627 -0.25019264 0.4048202 0
0 0.023829259 0.012532517 -0.25019264 0.4048202 0
0 0.022521801 0.012562582 -0.25019264 0.4048202 0
0 0.021208052 0.012592823 -0.25019264 0.4048202 0
0 0.01988796 0.012623241 -0.25019264 0.4048202 0
0 0.018561469 0.012653838 -0.25019264 0.4048202 0
0 0.017228533 0.012684614 -0.25019264 0.4048202 0
0 0.01588909 0.012715572 -0.25019264 0.4048202 0
0 0.014543091 0.012746714 -0.25019264 0.4048202 0
0 0.01319048 0.01277804 -0.25019264 0.4048202 0
0 0.011831201 0.012809551 -0.25019264 0.4048202 0
0 0.010465197 0.012841251 -0.25019264 0.4048202 0
0 0.0090924129 0.012873139 -0.25019264 0.4048202 0
0 0.0077127903 0.012905219 -0.25019264 0.4048202 0
0 0.0063262712 0.01293749 -0.25019264 0.4048202 0
0 0.0049327966 0.012969955 -0.25019264 0.4048202 0
0 0.0035323075 0.013002616 -0.25019264 0.4048202 0
0 0.0021247438 0.013035474 -0.25019264 0.4048202 0
0 0.00071004458 0.013068531 -0.25019264 0.4048202 0
0.039745674 0.079999998 0.011287263 -0.25019264 0.4048202 0
0.038830206 0.079999998 0.011271472 -0.25019264 0.4048202 0
0.03791729 0.079999998 0.011255754 -0.25019264 0.4048202 0
0.037006918 0.079999998 0.011240108 -0.25019264 0.4048202 0
0.036099069 0.079999998 0.011224532 -0.25019264 0.4048202 0
0.03519373 0.079999998 0.011209027 -0.25019264 0.4048202 0
0.034290887 0.079999998 0.011193593 -0.25019264 0.4048202 0
0.033390526 0.079999998 0.011178228 -0.25019264 0.4048202 0
0.03249263 0.079999998 0.011162934 -0.25019264 0.4048202 0
0.03159719 0.079999998 0.011147708 -0.25019264 0.4048202 0
0.030704182 0.079999998 0.011132551 -0.25019264 0.4048202 0
0.029813597 0.079999998 0.011117463 -0.25019264 0.4048202 0
0.028925421 0.079999998 0.011102444 -0.25019264 0.4048202 0
0.02803964 0.079999998 0.011087491 -0.25019264 0.4048202 0
0.027156239 0.079999998 0.011072607 -0.25019264 0.4048202 0
0.026275206 0.079999998 0.011057789 -0.25019264 0.4048202 0
0.025396524 0.079999998 0.011043039 -0.25019264 0.4048202 0
0.024520183 0.079999998 0.011028355 -0.25019264 0.4048202 0
0.023646165 0.079999998 0.011013737 -0.25019264 0.4048202 0
0.02277446 0.079999998 0.010999184 -0.25019264 0.4048202 0
0.021905053 0.079999998 0.010984698 -0.25019264 0.4048202 0
0.021037931 0.079999998 0.010970276 -0.25019264 0.4048202 0
0.02017308 0.079999998 0.01095592 -0.25019264 0.4048202 0
0.019310489 0.079999998 0.010941627 -0.25019264 0.4048202 0
0.018450143 0.079999998 0.0109274 -0.25019264 0.4048202 0
0.01759203 0.079999998 0.010913235 -0.25019264 0.4048202 0
0.016736135 0.079999998 0.010899134 -0.25019264 0.4048202 0
0.015882447 0.079999998 0.010885097 -0.25019264 0.4048202 0
0.015030955 0.079999998 0.010871123 -0.25019264 0.4048202 0
0.014181643 0.079999998 0.01085721 -0.25019264 0.4048202 0
0.0133345 0.079999998 0.010843361 -0.25019264 0.4048202 0
0.012489513 0.079999998 0.010829573 -0.25019264 0.4048202 0
0.011646671 0.079999998 0.010815847 -0.25019264 0.4048202 0
0.010805961 0.079999998 0.010802182 -0.25019264 0.4048202 0
0.00996737 0.079999998 0.010788579 -0.25019264 0.4048202 0
0.0091308858 0.079999998 0.010775035 -0.25019264 0.4048202 0
0.0082964981 0.079999998 0.010761553 -0.25019264 0.4048202 0
0.0074641928 0.079999998 0.010748131 -0.25019264 0.4048202 0
0.0066339597 0.079999998 0.010734769 -0.25019264 0.4048202 0
0.0058057858 0.079999998 0.010721467 -0.25019264 0.4048202 0
0.0049796603 0.079999998 0.010708223 -0.25019264 0.4048202 0
0.0041555711 0.079999998 0.010695038 -0.25019264 0.4048202 0
0.0033335064 0.079999998 0.010681913 -0.25019264 0.4048202 0
0.0025134552 0.079999998 0.010668846 -0.25019264 0.4048202 0
0.0016954059 0.079999998 0.010655837 -0.25019264 0.4048202 0
0.00087934709 0.079999998 0.010642886 -0.25019264 0.4048202 0
6.5267523e-05 0.079999998 0.010629993 -0.25019264 0.4048202 0
0 0.079027481 0.010648944 -0.25019264 0.4048202 0
0 0.077965915 0.010670784 -0.25019264 0.4048202 0
0 0.07689999 0.01069274 -0.25019264 0.4048202 0
0 0.075829662 0.010714812 -0.25019264 0.4048202 0
0 0.074754901 0.010737004 -0.25019264 0.4048202 0
0 0.073675685 0.010759313 -0.25019264 0.4048202 0
0 0.072591968 0.010781742 -0.25019264 0.4048202 0
0 0.071503714 0.010804291 -0.25019264 0.4048202 0
0 0.0704109 0.010826962 -0.25019264 0.4048202 0
0 0.069313489 0.010849754 -0.25019264 0.4048202 0
0 0.068211444 0.01087267 -0.25019264 0.4048202 0
0 0.067104734 0.01089571 -0.25019264 0.4048202 0
0 0.065993316 0.010918875 -0.25019264 0.4048202 0
0 0.064877167 0.010942166 -0.25019264 0.4048202 0
0 0.063756235 0.010965583 -0.25019264 0.4048202 0
0 0.062630497 0.010989128 -0.25019264 0.4048202 0
0 0.061499909 0.011012801 -0.25019264 0.4048202 0
0 0.060364436 0.011036604 -0.25019264 0.4048202 0
0 0.059224043 0.011060537 -0.25019264 0.4048202 0
0 0.058078691 0.011084601 -0.25019264 0.4048202 0
0 0.05692834 0.011108799 -0.25019264 0.4048202 0
0 0.055772953 0.01113313 -0.25019264 0.4048202 0
0 0.054612491 0.011157595 -0.25019264 0.4048202 0
0 0.053446915 0.011182195 -0.25019264 0.4048202 0
0 0.052276187 0.011206931 -0.25019264 0.4048202 0
0 0.051100262 0.011231806 -0.25019264 0.4048202 0
0 0.049919102 0.011256819 -0.25019264 0.4048202 0
0 0.048732668 0.011281971 -0.25019264 0.4048202 0
0 0.047540918 0.011307264 -0.25019264 0.4048202 0
0 0.046343807 0.011332698 -0.25019264 0.4048202 0
0 0.045141298 0.011358276 -0.25019264 0.4048202 0
0 0.043933343 0.011383997 -0.25019264 0.4048202 0
0 0.042719904 0.011409863 -0.25019264 0.4048202 0
0 0.041500933 0.011435876 -0.25019264 0.4048202 0
0 0.04027639 0.011462035 -0.25019264 0.4048202 0
0 0.039046228 0.011488343 -0.25019264 0.4048202 0
0 0.037810404 0.011514801 -0.25019264 0.4048202 0
0 0.036568873 0.011541408 -0.25019264 0.4048202 0
0 0.035321586 0.011568168 -0.25019264 0.4048202 0
0 0.034068499 0.011595082 -0.25019264 0.4048202 0
0 0.032809563 0.011622149 -0.25019264 0.4048202 0
0 0.031544734 0.011649372 -0.25019264 0.4048202 0
0 0.030273961 0.011676751 -0.25019264 0.4048202 0
0 0.0289972 0.011704288 -0.25019264 0.4048202 0
0 0.027714398 0.011731985 -0.25019264 0.4048202 0
0 0.026425507 0.011759842 -0.25019264 0.4048202 0
0 0.025130479 0.011787862 -0.25019264 0.4048202 0
0 0.023829259 0.011816043 -0.25019264 0.4048202 0
0 0.022521801 0.011844389 -0.25019264 0.4048202 0
0 0.021208052 0.011872902 -0.25019264 0.4048202 0
0 0.01988796 0.011901581 -0.25019264 0.4048202 0
0 0.018561469 0.011930428 -0.25019264 0.4048202 0
0 0.017228533 0.011959445 -0.25019264 0.4048202 0
0 0.01588909 0.011988633 -0.25019264 0.4048202 0
0 0.014543091 0.012017994 -0.25019264 0.4048202 0
0 0.01319048 0.012047529 -0.25019264 0.4048202 0
0 0.011831201 0.012077239 -0.25019264 0.4048202 0
0 0.010465197 0.012107126 -0.25019264 0.4048202 0
0 0.0090924129 0.012137192 -0.25019264 0.4048202 0
0 0.0077127903 0.012167437 -0.25019264 0.4048202 0
0 0.0063262712 0.012197863 -0.25019264 0.4048202 0
0 0.0049327966 0.012228473 -0.25019264 0.4048202 0
0 0.0035323075 0.012259266 -0.25019264 0.4048202 0
0 0.0021247438 0.012290246 -0.25019264 0.4048202 0
0 0.00071004458 0.012321413 -0.25019264 0.4048202 0
0.039745674 0.079999998 0.010602906 -0.25019264 0.4048202 0
0.038830206 0.079999998 0.010588074 -0.25019264 0.4048202 0
0.03791729 0.079999998 0.010573309 -0.25019264 0.4048202 0
0.037006918 0.079999998 0.010558611 -0.25019264 0.4048202 0
0.036099069 0.079999998 0.01054398 -0.25019264 0.4048202 0
0.03519373 0.079999998 0.010529415 -0.25019264 0.4048202 0
0.034290887 0.079999998 0.010514917 -0.25019264 0.4048202 0
0.033390526 0.079999998 0.010500483 -0.25019264 0.4048202 0
0.03249263 0.079999998 0.010486116 -0.25019264 0.4048202 0
0.03159719 0.079999998 0.010471813 -0.25019264 0.4048202 0
0.030704182 0.079999998 0.010457576 -0.25019264 0.4048202 0
0.029813597 0.079999998 0.010443402 -0.25019264 0.4048202 0
0.028925421 0.079999998 0.010429294 -0.25019264 0.4048202 0
0.02803964 0.079999998 0.010415248 -0.25019264 0.4048202 0
0.027156239 0.079999998 0.010401266 -0.25019264 0.4048202 0
0.026275206 0.079999998 0.010387347 -0.25019264 0.4048202 0
0.025396524 0.079999998 0.010373491 -0.25019264 0.4048202 0
0.024520183 0.079999998 0.010359697 -0.25019264 0.4048202 0
0.023646165 0.079999998 0.010345965 -0.25019264 0.4048202 0
0.02277446 0.079999998 0.010332296 -0.25019264 0.4048202 0
0.021905053 0.079999998 0.010318687 -0.25019264 0.4048202 0
0.021037931 0.079999998 0.01030514 -0.25019264 0.4048202 0
0.02017308 0.079999998 0.010291654 -0.25019264 0.4048202 0
0.019310489 0.079999998 0.010278228 -0.25019264 0.4048202 0
0.018450143 0.079999998 0.010264862 -0.25019264 0.4048202 0
0.01759203 0.079999998 0.010251557 -0.25019264 0.4048202 0
0.016736135 0.079999998 0.010238311 -0.25019264 0.4048202 0
0.015882447 0.079999998 0.010225125 -0.25019264 0.4048202 0
0.015030955 0.079999998 0.010211998 -0.25019264 0.4048202 0
0.014181643 0.079999998 0.010198929 -0.25019264 0.4048202 0
0.0133345 0.079999998 0.010185919 -0.25019264 0.4048202 0
0.012489513 0.079999998 0.010172967 -0.25019264 0.4048202 0
0.011646671 0.079999998 0.010160074 -0.25019264 0.4048202 0
0.010805961 0.079999998 0.010147237 -0.25019264 0.4048202 0
0.00996737 0.079999998 0.010134459 -0.25019264 0.4048202 0
0.0091308858 0.079999998 0.010121737 -0.25019264 0.4048202 0
0.0082964981 0.079999998 0.010109072 -0.25019264 0.4048202 0
0.0074641928 0.079999998 0.010096463 -0.25019264 0.4048202 0
0.0066339597 0.079999998 0.010083911 -0.25019264 0.4048202 0
0.0058057858 0.079999998 0.010071415 -0.25019264 0.4048202 0
0.0049796603 0.079999998 0.010058975 -0.25019264 0.4048202 0
0.0041555711 0.079999998 0.01004659 -0.25019264 0.4048202 0
0.0033335064 0.079999998 0.01003426 -0.25019264 0.4048202 0
0.0025134552 0.079999998 0.010021986 -0.25019264 0.4048202 0
0.0016954059 0.079999998 0.010009765 -0.25019264 0.4048202 0
0.00087934709 0.079999998 0.0099975988 -0.25019264 0.4048202 0
6.5267523e-05 0.079999998 0.0099854879 -0.25019264 0.4048202 0
0 0.079027481 0.01000329 -0.25019264 0.4048202 0
0 0.077965915 0.010023806 -0.25019264 0.4048202 0
0 0.07689999 0.01004443 -0.25019264 0.4048202 0
0 0.075829662 0.010065165 -0.25019264 0.4048202 0
0 0.074754901 0.01008601 -0.25019264 0.4048202 0
0 0.073675685 0.010106967 -0.25019264 0.4048202 0
0 0.072591968 0.010128036 -0.25019264 0.4048202 0
0 0.071503714 0.010149218 -0.25019264 0.4048202 0
0 0.0704109 0.010170515 -0.25019264 0.4048202 0
0 0.069313489 0.010191926 -0.25019264 0.4048202 0
0 0.068211444 0.010213451 -0.25019264 0.4048202 0
0 0.067104734 0.010235094 -0.25019264 0.4048202 0
0 0.065993316 0.010256855 -0.25019264 0.4048202 0
0 0.064877167 0.010278733 -0.25019264 0.4048202 0
0 0.063756235 0.01030073 -0.25019264 0.4048202 0
0 0.062630497 0.010322848 -0.25019264 0.4048202 0
0 0.061499909 0.010345086 -0.25019264 0.4048202 0
0 0.060364436 0.010367446 -0.25019264 0.4048202 0
0 0.059224043 0.010389928 -0.25019264 0.4048202 0
0 0.058078691 0.010412534 -0.25019264 0.4048202 0
0 0.05692834 0.010435264 -0.25019264 0.4048202 0
0 0.055772953 0.010458119 -0.25019264 0.4048202 0
0 0.054612491 0.010481101 -0.25019264 0.4048202 0
0 0.053446915 0.010504209 -0.25019264 0.4048202 0
0 0.052276187 0.010527446 -0.25019264 0.4048202 0
0 0.051100262 0.010550813 -0.25019264 0.4048202 0
0 0.049919102 0.010574308 -0.25019264 0.4048202 0
0 0.048732668 0.010597936 -0.25019264 0.4048202 0
0 0.047540918 0.010621696 -0.25019264 0.4048202 0
0 0.046343807 0.010645588 -0.25019264 0.4048202 0
0 0.045141298 0.010669614 -0.25019264 0.4048202 0
0 0.043933343 0.010693776 -0.25019264 0.4048202 0
0 0.042719904 0.010718074 -0.25019264 0.4048202 0
0 0.041500933 0.01074251 -0.25019264 0.4048202 0
0 0.04027639 0.010767083 -0.25019264 0.4048202 0
0 0.039046228 0.010791795 -0.25019264 0.4048202 0
0 0.037810404 0.010816649 -0.25019264 0.4048202 0
0 0.036568873 0.010841643 -0.25019264 0.4048202 0
0 0.035321586 0.010866782 -0.25019264 0.4048202 0
0 0.034068499 0.010892062 -0.25019264 0.4048202 0
0 0.032809563 0.010917488 -0.25019264 0.4048202 0
0 0.031544734 0.010943061 -0.25019264 0.4048202 0
0 0.030273961 0.01096878 -0.25019264 0.4048202 0
0 0.0289972 0.010994649 -0.25019264 0.4048202 0
0 0.027714398 0.011020666 -0.25019264 0.4048202 0
0 0.026425507 0.011046833 -0.25019264 0.4048202 0
0 0.025130479 0.011073153 -0.25019264 0.4048202 0
0 0.023829259 0.011099627 -0.25019264 0.4048202 0
0 0.022521801 0.011126255 -0.25019264 0.4048202 0
0 0.021208052 0.011153038 -0.25019264 0.4048202 0
0 0.01988796 0.011179978 -0.25019264 0.4048202 0
0 0.018561469 0.011207077 -0.25019264 0.4048202 0
0 0.017228533 0.011234335 -0.25019264 0.4048202 0
0 0.01588909 0.011261753 -0.25019264 0.4048202 0
0 0.014543091 0.011289334 -0.25019264 0.4048202 0
0 0.01319048 0.011317078 -0.25019264 0.4048202 0
0 0.011831201 0.011344987 -0.25019264 0.4048202 0
0 0.010465197 0.011373062 -0.25019264 0.4048202 0
0 0.0090924129 0.011401304 -0.25019264 0.4048202 0
0 0.0077127903 0.011429716 -0.25019264 0.4048202 0
0 0.0063262712 0.011458297 -0.25019264 0.4048202 0
0 0.0049327966 0.011487051 -0.25019264 0.4048202 0
0 0.0035323075 0.011515978 -0.25019264 0.4048202 0
0 0.0021247438 0.011545079 -0.25019264 0.4048202 0
0 0.00071004458 0.011574356 -0.25019264 0.4048202 0
0.039745674 0.079999998 0.0099186031 -0.25019264 0.4048202 0
0.038830206 0.079999998 0.0099047283 -0.25019264 0.4048202 0
0.03791729 0.079999998 0.0098909158 -0.25019264 0.4048202 0
0.037006918 0.079999998 0.0098771667 -0.25019264 0.4048202 0
0.036099069 0.079999998 0.00986348 -0.25019264 0.4048202 0
0.03519373 0.079999998 0.0098498547 -0.25019264 0.4048202 0
0.034290887 0.079999998 0.0098362919 -0.25019264 0.4048202 0
0.033390526 0.079999998 0.0098227905 -0.25019264 0.4048202 0
0.03249263 0.079999998 0.0098093506 -0.25019264 0.4048202 0
0.03159719 0.079999998 0.0097959712 -0.25019264 0.4048202 0
0.030704182 0.079999998 0.0097826524 -0.25019264 0.4048202 0
0.029813597 0.079999998 0.0097693931 -0.25019264 0.4048202 0
0.028925421 0.079999998 0.0097561954 -0.25019264 0.4048202 0
0.02803964 0.079999998 0.0097430563 -0.25019264 0.4048202 0
0.027156239 0.079999998 0.0097299758 -0.25019264 0.4048202 0
0.026275206 0.079999998 0.0097169559 -0.25019264 0.4048202 0
0.025396524 0.079999998 0.0097039938 -0.25019264 0.4048202 0
0.024520183 0.079999998 0.0096910903 -0.25019264 0.4048202 0
0.023646165 0.079999998 0.0096782446 -0.25019264 0.4048202 0
0.02277446 0.079999998 0.0096654566 -0.25019264 0.4048202 0
0.021905053 0.079999998 0.0096527273 -0.25019264 0.4048202 0
0.021037931 0.079999998 0.0096400538 -0.25019264 0.4048202 0
0.02017308 0.079999998 0.0096274382 -0.25019264 0.4048202 0
0.019310489 0.079999998 0.0096148793 -0.25019264 0.4048202 0
0.018450143 0.079999998 0.0096023763 -0.25019264 0.4048202 0
0.01759203 0.079999998 0.0095899291 -0.25019264 0.4048202 0
0.016736135 0.079999998 0.0095775388 -0.25019264 0.4048202 0
0.015882447 0.079999998 0.0095652035 -0.25019264 0.4048202 0
0.015030955 0.079999998 0.009552923 -0.25019264 0.4048202 0
0.014181643 0.079999998 0.0095406985 -0.25019264 0.4048202 0
0.0133345 0.079999998 0.009528528 -0.25019264 0.4048202 0
0.012489513 0.079999998 0.0095164124 -0.25019264 0.4048202 0
0.011646671 0.079999998 0.0095043499 -0.25019264 0.4048202 0
0.010805961 0.079999998 0.0094923424 -0.25019264 0.4048202 0
0.00996737 0.079999998 0.0094803888 -0.25019264 0.4048202 0
0.0091308858 0.079999998 0.0094684875 -0.25019264 0.4048202 0
0.0082964981 0.079999998 0.0094566401 -0.25019264 0.4048202 0
0.0074641928 0.079999998 0.0094448458 -0.25019264 0.4048202 0
0.0066339597 0.079999998 0.0094331037 -0.25019264 0.4048202 0
0.0058057858 0.079999998 0.0094214138 -0.25019264 0.4048202 0
0.0049796603 0.079999998 0.0094097769 -0.25019264 0.4048202 0
0.0041555711 0.079999998 0.0093981912 -0.25019264 0.4048202 0
0.0033335064 0.079999998 0.0093866568 -0.25019264 0.4048202 0
0.0025134552 0.079999998 0.0093751745 -0.25019264 0.4048202 0
0.0016954059 0.079999998 0.0093637425 -0.25019264 0.4048202 0
0.00087934709 0.079999998 0.0093523618 -0.25019264 0.4048202 0
6.5267523e-05 0.079999998 0.0093410322 -0.25019264 0.4048202 0
0 0.079027481 0.0093576862 -0.25019264 0.4048202 0
0 0.077965915 0.009376877 -0.25019264 0.4048202 0
0 0.07689999 0.0093961712 -0.25019264 0.4048202 0
0 0.075829662 0.0094155669 -0.25019264 0.4048202 0
0 0.074754901 0.009435067 -0.25019264 0.4048202 0
0 0.073675685 0.0094546713 -0.25019264 0.4048202 0
0 0.072591968 0.0094743809 -0.25019264 0.4048202 0
0 0.071503714 0.0094941957 -0.25019264 0.4048202 0
0 0.0704109 0.0095141176 -0.25019264 0.4048202 0
0 0.069313489 0.0095341466 -0.25019264 0.4048202 0
0 0.068211444 0.0095542837 -0.25019264 0.4048202 0
0 0.067104734 0.0095745297 -0.25019264 0.4048202 0
0 0.065993316 0.0095948856 -0.25019264 0.4048202 0
0 0.064877167 0.0096153524 -0.25019264 0.4048202 0
0 0.063756235 0.0096359299 -0.25019264 0.4048202 0
0 0.062630497 0.0096566193 -0.25019264 0.4048202 0
0 0.061499909 0.0096774222 -0.25019264 0.4048202 0
0 0.060364436 0.0096983388 -0.25019264 0.4048202 0
0 0.059224043 0.0097193699 -0.25019264 0.4048202 0
0 0.058078691 0.0097405165 -0.25019264 0.4048202 0
0 0.05692834 0.0097617796 -0.25019264 0.4048202 0
0 0.055772953 0.0097831599 -0.25019264 0.4048202 0
0 0.054612491 0.0098046586 -0.25019264 0.4048202 0
0 0.053446915 0.0098262755 -0.25019264 0.4048202 0
0 0.052276187 0.0098480135 -0.25019264 0.4048202 0
0 0.051100262 0.0098698717 -0.25019264 0.4048202 0
0 0.049919102 0.0098918509 -0.25019264 0.4048202 0
0 0.048732668 0.009913953 -0.25019264 0.4048202 0
0 0.047540918 0.009936179 -0.25019264 0.4048202 0
0 0.046343807 0.0099585298 -0.25019264 0.4048202 0
0 0.045141298 0.0099810055 -0.25019264 0.4048202 0
0 0.043933343 0.010003609 -0.25019264 0.4048202 0
0 0.042719904 0.010026338 -0.25019264 0.4048202 0
0 0.041500933 0.010049196 -0.25019264 0.4048202 0
0 0.04027639 0.010072184 -0.25019264 0.4048202 0
0 0.039046228 0.010095302 -0.25019264 0.4048202 0
0 0.037810404 0.010118551 -0.25019264 0.4048202 0
0 0.036568873 0.010141932 -0.25019264 0.4048202 0
0 0.035321586 0.010165447 -0.25019264 0.4048202 0
0 0.034068499 0.010189097 -0.25019264 0.4048202 0
0 0.032809563 0.010212882 -0.25019264 0.4048202 0
0 0.031544734 0.010236804 -0.25019264 0.4048202 0
0 0.030273961 0.010260864 -0.25019264 0.4048202 0
0 0.0289972 0.010285062 -0.25019264 0.4048202 0
0 0.027714398 0.0103094 -0.25019264 0.4048202 0
0 0.026425507 0.01033388 -0.25019264 0.4048202 0
0 0.025130479 0.010358501 -0.25019264 0.4048202 0
0 0.023829259 0.010383266 -0.25019264 0.4048202 0
0 0.022521801 0.010408175 -0.25019264 0.4048202 0
0 0.021208052 0.01043323 -0.25019264 0.4048202 0
0 0.01988796 0.010458431 -0.25019264 0.4048202 0
0 0.018561469 0.010483781 -0.25019264 0.4048202 0
0 0.017228533 0.01050928 -0.25019264 0.4048202 0
0 0.01588909 0.010534928 -0.25019264 0.4048202 0
0 0.014543091 0.010560729 -0.25019264 0.4048202 0
0 0.01319048 0.010586683 -0.25019264 0.4048202 0
0 0.011831201 0.01061279 -0.25019264 0.4048202 0
0 0.010465197 0.010639054 -0.25019264 0.4048202 0
0 0.0090924129 0.010665474 -0.25019264 0.4048202 0
0 0.0077127903 0.010692051 -0.25019264 0.4048202 0
0 0.0063262712 0.010718788 -0.25019264 0.4048202 0
0 0.0049327966 0.010745686 -0.25019264 0.4048202 0
0 0.0035323075 0.010772745 -0.25019264 0.4048202 0
0 0.0021247438 0.010799969 -0.25019264 0.4048202 0
0 0.00071004458 0.010827356 -0.25019264 0.4048202 0
0.039745674 0.079999998 0.0092343492 -0.25019264 0.4048202 0
0.038830206 0.079999998 0.0092214309 -0.25019264 0.4048202 0
0.03791729 0.079999998 0.0092085712 -0.25019264 0.4048202 0
0.037006918 0.079999998 0.0091957711 -0.25019264 0.4048202 0
0.036099069 0.079999998 0.0091830278 -0.25019264 0.4048202 0
0.03519373 0.079999998 0.0091703432 -0.25019264 0.4048202 0
0.034290887 0.079999998 0.0091577163 -0.25019264 0.4048202 0
0.033390526 0.079999998 0.0091451462 -0.25019264 0.4048202 0
0.03249263 0.079999998 0.009132633 -0.25019264 0.4048202 0
0.03159719 0.079999998 0.0091201765 -0.25019264 0.4048202 0
0.030704182 0.079999998 0.0091077769 -0.25019264 0.4048202 0
0.029813597 0.079999998 0.0090954332 -0.25019264 0.4048202 0
0.028925421 0.079999998 0.0090831444 -0.25019264 0.4048202 0
0.02803964 0.079999998 0.0090709124 -0.25019264 0.4048202 0
0.027156239 0.079999998 0.0090587344 -0.25019264 0.4048202 0
0.026275206 0.079999998 0.0090466123 -0.25019264 0.4048202 0
0.025396524 0.079999998 0.0090345442 -0.25019264 0.4048202 0
0.024520183 0.079999998 0.0090225311 -0.25019264 0.4048202 0
0.023646165 0.079999998 0.009010572 -0.25019264 0.4048202 0
0.02277446 0.079999998 0.0089986669 -0.25019264 0.4048202 0
0.021905053 0.079999998 0.0089868149 -0.25019264 0.4048202 0
0.021037931 0.079999998 0.008975016 -0.25019264 0.4048202 0
0.02017308 0.079999998 0.0089632701 -0.25019264 0.4048202 0
0.019310489 0.079999998 0.0089515774 -0.25019264 0.4048202 0
0.018450143 0.079999998 0.0089399377 -0.25019264 0.4048202 0
0.01759203 0.079999998 0.0089283492 -0.25019264 0.4048202 0
0.016736135 0.079999998 0.0089168129 -0.25019264 0.4048202 0
0.015882447 0.079999998 0.0089053288 -0.25019264 0.4048202 0
0.015030955 0.079999998 0.0088938959 -0.25019264 0.4048202 0
0.014181643 0.079999998 0.0088825142 -0.25019264 0.4048202 0
0.0133345 0.079999998 0.0088711837 -0.25019264 0.4048202 0
0.012489513 0.079999998 0.0088599036 -0.25019264 0.4048202 0
0.011646671 0.079999998 0.0088486737 -0.25019264 0.4048202 0
0.010805961 0.079999998 0.008837495 -0.25019264 0.4048202 0
0.00996737 0.079999998 0.0088263657 -0.25019264 0.4048202 0
0.0091308858 0.079999998 0.0088152857 -0.25019264 0.4048202 0
0.0082964981 0.079999998 0.0088042552 -0.25019264 0.4048202 0
0.0074641928 0.079999998 0.0087932739 -0.25019264 0.4048202 0
0.0066339597 0.079999998 0.0087823421 -0.25019264 0.4048202 0
0.0058057858 0.079999998 0.0087714596 -0.25019264 0.4048202 0
0.0049796603 0.079999998 0.0087606246 -0.25019264 0.4048202 0
0.0041555711 0.079999998 0.008749838 -0.25019264 0.4048202 0
0.0033335064 0.079999998 0.0087390998 -0.25019264 0.4048202 0
0.0025134552 0.079999998 0.0087284092 -0.25019264 0.4048202 0
0.0016954059 0.079999998 0.008717766 -0.25019264 0.4048202 0
0.00087934709 0.079999998 0.0087071713 -0.25019264 0.4048202 0
6.5267523e-05 0.079999998 0.0086966222 -0.25019264 0.4048202 0
0 0.079027481 0.0087121278 -0.25019264 0.4048202 0
0 0.077965915 0.0087299952 -0.25019264 0.4048202 0
0 0.07689999 0.0087479576 -0.25019264 0.4048202 0
0 0.075829662 0.008766016 -0.25019264 0.4048202 0
0 0.074754901 0.0087841703 -0.25019264 0.4048202 0
0 0.073675685 0.0088024223 -0.25019264 0.4048202 0
0 0.072591968 0.0088207722 -0.25019264 0.4048202 0
0 0.071503714 0.0088392198 -0.25019264 0.4048202 0
0 0.0704109 0.0088577671 -0.25019264 0.4048202 0
0 0.069313489 0.008876415 -0.25019264 0.4048202 0
0 0.068211444 0.0088951625 -0.25019264 0.4048202 0
0 0.067104734 0.0089140125 -0.25019264 0.4048202 0
0 0.065993316 0.0089329639 -0.25019264 0.4048202 0
0 0.064877167 0.0089520179 -0.25019264 0.4048202 0
0 0.063756235 0.0089711761 -0.25019264 0.4048202 0
0 0.062630497 0.0089904387 -0.25019264 0.4048202 0
0 0.061499909 0.0090098064 -0.25019264 0.4048202 0
0 0.060364436 0.0090292795 -0.25019264 0.4048202 0
0 0.059224043 0.0090488605 -0.25019264 0.4048202 0
0 0.058078691 0.0090685477 -0.25019264 0.4048202 0
0 0.05692834 0.0090883439 -0.25019264 0.4048202 0
0 0.055772953 0.00910825 -0.25019264 0.4048202 0
0 0.054612491 0.0091282651 -0.25019264 0.4048202 0
0 0.053446915 0.009148391 -0.25019264 0.4048202 0
0 0.052276187 0.0091686286 -0.25019264 0.4048202 0
0 0.051100262 0.0091889789 -0.25019264 0.4048202 0
0 0.049919102 0.009209442 -0.25019264 0.4048202 0
0 0.048732668 0.0092300195 -0.25019264 0.4048202 0
0 0.047540918 0.0092507126 -0.25019264 0.4048202 0
0 0.046343807 0.0092715211 -0.25019264 0.4048202 0
0 0.045141298 0.009292447 -0.25019264 0.4048202 0
0 0.043933343 0.0093134893 -0.25019264 0.4048202 0
0 0.042719904 0.0093346518 -0.25019264 0.4048202 0
0 0.041500933 0.0093559325 -0.25019264 0.4048202 0
0 0.04027639 0.0093773343 -0.25019264 0.4048202 0
0 0.039046228 0.0093988571 -0.25019264 0.4048202 0
0 0.037810404 0.0094205029 -0.25019264 0.4048202 0
0 0.036568873 0.0094422717 -0.25019264 0.4048202 0
0 0.035321586 0.0094641643 -0.25019264 0.4048202 0
0 0.034068499 0.0094861826 -0.25019264 0.4048202 0
0 0.032809563 0.0095083266 -0.25019264 0.4048202 0
0 0.031544734 0.0095305983 -0.25019264 0.4048202 0
0 0.030273961 0.0095529985 -0.25019264 0.4048202 0
0 0.0289972 0.0095755272 -0.25019264 0.4048202 0
0 0.027714398 0.0095981862 -0.25019264 0.4048202 0
0 0.026425507 0.0096209766 -0.25019264 0.4048202 0
0 0.025130479 0.0096438993 -0.25019264 0.4048202 0
0 0.023829259 0.009666956 -0.25019264 0.4048202 0
0 0.022521801 0.0096901469 -0.25019264 0.4048202 0
0 0.021208052 0.0097134728 -0.25019264 0.4048202 0
0 0.01988796 0.0097369356 -0.25019264 0.4048202 0
0 0.018561469 0.0097605363 -0.25019264 0.4048202 0
0 0.017228533 0.0097842757 -0.25019264 0.4048202 0
0 0.01588909 0.0098081557 -0.25019264 0.4048202 0
0 0.014543091 0.0098321764 -0.25019264 0.4048202 0
0 0.01319048 0.0098563395 -0.25019264 0.4048202 0
0 0.011831201 0.0098806461 -0.25019264 0.4048202 0
0 0.010465197 0.0099050971 -0.25019264 0.4048202 0
0 0.0090924129 0.0099296942 -0.25019264 0.4048202 0
0 0.0077127903 0.0099544385 -0.25019264 0.4048202 0
0 0.0063262712 0.0099793309 -0.25019264 0.4048202 0
0 0.0049327966 0.010004373 -0.25019264 0.4048202 0
0 0.0035323075 0.010029566 -0.25019264 0.4048202 0
0 0.0021247438 0.010054911 -0.25019264 0.4048202 0
0 0.00071004458 0.010080409 -0.25019264 0.4048202 0
0.039745674 0.079999998 0.0085501401 -0.25019264 0.4048202 0
0.038830206 0.079999998 0.0085381791 -0.25019264 0.4048202 0
0.03791729 0.079999998 0.0085262731 -0.25019264 0.4048202 0
0.037006918 0.079999998 0.0085144201 -0.25019264 0.4048202 0
0.036099069 0.079999998 0.0085026221 -0.25019264 0.4048202 0
0.03519373 0.079999998 0.0084908772 -0.25019264 0.4048202 0
0.034290887 0.079999998 0.0084791854 -0.25019264 0.4048202 0
0.033390526 0.079999998 0.0084675467 -0.25019264 0.4048202 0
0.03249263 0.079999998 0.008455961 -0.25019264 0.4048202 0
0.03159719 0.079999998 0.0084444275 -0.25019264 0.4048202 0
0.030704182 0.079999998 0.0084329462 -0.25019264 0.4048202 0
0.029813597 0.079999998 0.008421517 -0.25019264 0.4048202 0
0.028925421 0.079999998 0.008410139 -0.25019264 0.4048202 0
0.02803964 0.079999998 0.0083988132 -0.25019264 0.4048202 0
0.027156239 0.079999998 0.0083875377 -0.25019264 0.4048202 0
0.026275206 0.079999998 0.0083763134 -0.25019264 0.4048202 0
0.025396524 0.079999998 0.0083651403 -0.25019264 0.4048202 0
0.024520183 0.079999998 0.0083540166 -0.25019264 0.4048202 0
0.023646165 0.079999998 0.0083429441 -0.25019264 0.4048202 0
0.02277446 0.079999998 0.00833192 -0.25019264 0.4048202 0
0.021905053 0.079999998 0.0083209462 -0.25019264 0.4048202 0
0.021037931 0.079999998 0.0083100228 -0.25019264 0.4048202 0
0.02017308 0.079999998 0.0082991468 -0.25019264 0.4048202 0
0.019310489 0.079999998 0.0082883211 -0.25019264 0.4048202 0
0.018450143 0.079999998 0.0082775429 -0.25019264 0.4048202 0
0.01759203 0.079999998 0.0082668131 -0.25019264 0.4048202 0
0.016736135 0.079999998 0.0082561318 -0.25019264 0.4048202 0
0.015882447 0.079999998 0.0082454989 -0.25019264 0.4048202 0
0.015030955 0.079999998 0.0082349125 -0.25019264 0.4048202 0
0.014181643 0.079999998 0.0082243746 -0.25019264 0.4048202 0
0.0133345 0.079999998 0.0082138833 -0.25019264 0.4048202 0
0.012489513 0.079999998 0.0082034394 -0.25019264 0.4048202 0
0.011646671 0.079999998 0.0081930412 -0.25019264 0.4048202 0
0.010805961 0.079999998 0.0081826905 -0.25019264 0.4048202 0
0.00996737 0.079999998 0.0081723854 -0.25019264 0.4048202 0
0.0091308858 0.079999998 0.0081621269 -0.25019264 0.4048202 0
0.0082964981 0.079999998 0.008151914 -0.25019264 0.4048202 0
0.0074641928 0.079999998 0.0081417467 -0.25019264 0.4048202 0
0.0066339597 0.079999998 0.0081316242 -0.25019264 0.4048202 0
0.0058057858 0.079999998 0.0081215482 -0.25019264 0.4048202 0
0.0049796603 0.079999998 0.008111516 -0.25019264 0.4048202 0
0.0041555711 0.079999998 0.0081015285 -0.25019264 0.4048202 0
0.0033335064 0.079999998 0.0080915857 -0.25019264 0.4048202 0
0.0025134552 0.079999998 0.0080816876 -0.25019264 0.4048202 0
0.0016954059 0.079999998 0.0080718333 -0.25019264 0.4048202 0
0.00087934709 0.079999998 0.0080620227 -0.25019264 0.4048202 0
6.5267523e-05 0.079999998 0.008052256 -0.25019264 0.4048202 0
0 0.079027481 0.0080666123 -0.25019264 0.4048202 0
0 0.077965915 0.0080831563 -0.25019264 0.4048202 0
0 0.07689999 0.0080997879 -0.25019264 0.4048202 0
0 0.075829662 0.0081165079 -0.25019264 0.4048202 0
0 0.074754901 0.0081333173 -0.25019264 0.4048202 0
0 0.073675685 0.0081502171 -0.25019264 0.4048202 0
0 0.072591968 0.0081672063 -0.25019264 0.4048202 0
0 0.071503714 0.0081842877 -0.25019264 0.4048202 0
0 0.0704109 0.0082014613 -0.25019264 0.4048202 0
0 0.069313489 0.0082187271 -0.25019264 0.4048202 0
0 0.068211444 0.008236086 -0.25019264 0.4048202 0
0 0.067104734 0.008253538 -0.25019264 0.4048202 0
0 0.065993316 0.008271086 -0.25019264 0.4048202 0
0 0.064877167 0.0082887281 -0.25019264 0.4048202 0
0 0.063756235 0.008306467 -0.25019264 0.4048202 0
0 0.062630497 0.0083243018 -0.25019264 0.4048202 0
0 0.061499909 0.0083422344 -0.25019264 0.4048202 0
0 0.060364436 0.0083602658 -0.25019264 0.4048202 0
0 0.059224043 0.0083783949 -0.25019264 0.4048202 0
0 0.058078691 0.0083966246 -0.25019264 0.4048202 0
0 0.05692834 0.0084149539 -0.25019264 0.4048202 0
0 0.055772953 0.0084333839 -0.25019264 0.4048202 0
0 0.054612491 0.0084519163 -0.25019264 0.4048202 0
0 0.053446915 0.0084705511 -0.25019264 0.4048202 0
0 0.052276187 0.0084892893 -0.25019264 0.4048202 0
0 0.051100262 0.0085081318 -0.25019264 0.4048202 0
0 0.049919102 0.0085270787 -0.25019264 0.4048202 0
0 0.048732668 0.0085461317 -0.25019264 0.4048202 0
0 0.047540918 0.0085652918 -0.25019264 0.4048202 0
0 0.046343807 0.008584558 -0.25019264 0.4048202 0
0 0.045141298 0.0086039333 -0.25019264 0.4048202 0
0 0.043933343 0.0086234175 -0.25019264 0.4048202 0
0 0.042719904 0.0086430106 -0.25019264 0.4048202 0
0 0.041500933 0.0086627156 -0.25019264 0.4048202 0
0 0.04027639 0.0086825313 -0.25019264 0.4048202 0
0 0.039046228 0.0087024597 -0.25019264 0.4048202 0
0 0.037810404 0.0087225009 -0.25019264 0.4048202 0
0 0.036568873 0.0087426566 -0.25019264 0.4048202 0
0 0.035321586 0.0087629277 -0.25019264 0.4048202 0
0 0.034068499 0.0087833144 -0.25019264 0.4048202 0
0 0.032809563 0.0088038184 -0.25019264 0.4048202 0
0 0.031544734 0.0088244397 -0.25019264 0.4048202 0
0 0.030273961 0.0088451793 -0.25019264 0.4048202 0
0 0.0289972 0.0088660391 -0.25019264 0.4048202 0
0 0.027714398 0.008887019 -0.25019264 0.4048202 0
0 0.026425507 0.0089081209 -0.25019264 0.4048202 0
0 0.025130479 0.0089293458 -0.25019264 0.4048202 0
0 0.023829259 0.0089506935 -0.25019264 0.4048202 0
0 0.022521801 0.0089721661 -0.25019264 0.4048202 0
0 0.021208052 0.0089937635 -0.25019264 0.4048202 0
0 0.01988796 0.0090154884 -0.25019264 0.4048202 0
0 0.018561469 0.0090373401 -0.25019264 0.4048202 0
0 0.017228533 0.0090593211 -0.25019264 0.4048202 0
0 0.01588909 0.0090814317 -0.25019264 0.4048202 0
0 0.014543091 0.0091036726 -0.25019264 0.4048202 0
0 0.01319048 0.0091260448 -0.25019264 0.4048202 0
0 0.011831201 0.0091485512 -0.25019264 0.4048202 0
0 0.010465197 0.0091711907 -0.25019264 0.4048202 0
0 0.0090924129 0.0091939652 -0.25019264 0.4048202 0
0 0.0077127903 0.0092168758 -0.25019264 0.4048202 0
0 0.0063262712 0.0092399241 -0.25019264 0.4048202 0
0 0.0049327966 0.0092631103 -0.25019264 0.4048202 0
0 0.0035323075 0.0092864372 -0.25019264 0.4048202 0
0 0.0021247438 0.0093099037 -0.25019264 0.4048202 0
0 0.00071004458 0.0093335127 -0.25019264 0.4048202 0
0.039745674 0.079999998 0.0078659737 -0.25019264 0.4048202 0
0.038830206 0.079999998 0.0078549702 -0.25019264 0.4048202 0
0.03791729 0.079999998 0.007844016 -0.25019264 0.4048202 0
0.037006918 0.079999998 0.007833112 -0.25019264 0.4048202 0
0.036099069 0.079999998 0.0078222575 -0.25019264 0.4048202 0
0.03519373 0.079999998 0.0078114527 -0.25019264 0.4048202 0
0.034290887 0.079999998 0.0078006964 -0.25019264 0.4048202 0
0.033390526 0.079999998 0.007789989 -0.25019264 0.4048202 0
0.03249263 0.079999998 0.0077793305 -0.25019264 0.4048202 0
0.03159719 0.079999998 0.0077687199 -0.25019264 0.4048202 0
0.030704182 0.079999998 0.0077581573 -0.25019264 0.4048202 0
0.029813597 0.079999998 0.0077476427 -0.25019264 0.4048202 0
0.028925421 0.079999998 0.0077371756 -0.25019264 0.4048202 0
0.02803964 0.079999998 0.0077267555 -0.25019264 0.4048202 0
0.027156239 0.079999998 0.0077163824 -0.25019264 0.4048202 0
0.026275206 0.079999998 0.0077060563 -0.25019264 0.4048202 0
0.025396524 0.079999998 0.0076957769 -0.25019264 0.4048202 0
0.024520183 0.079999998 0.007685544 -0.25019264 0.4048202 0
0.023646165 0.079999998 0.0076753567 -0.25019264 0.4048202 0
0.02277446 0.079999998 0.0076652155 -0.25019264 0.4048202 0
0.021905053 0.079999998 0.00765512 -0.25019264 0.4048202 0
0.021037931 0.079999998 0.0076450696 -0.25019264 0.4048202 0
0.02017308 0.079999998 0.0076350644 -0.25019264 0.4048202 0
0.019310489 0.079999998 0.0076251044 -0.25019264 0.4048202 0
0.018450143 0.079999998 0.0076151891 -0.25019264 0.4048202 0
0.01759203 0.079999998 0.007605318 -0.25019264 0.4048202 0
0.016736135 0.079999998 0.0075954916 -0.25019264 0.4048202 0
0.015882447 0.079999998 0.007585709 -0.25019264 0.4048202 0
0.015030955 0.079999998 0.0075759701 -0.25019264 0.4048202 0
0.014181643 0.079999998 0.0075662751 -0.25019264 0.4048202 0
0.0133345 0.079999998 0.0075566233 -0.25019264 0.4048202 0
0.012489513 0.079999998 0.0075470149 -0.25019264 0.4048202 0
0.011646671 0.079999998 0.0075374492 -0.25019264 0.4048202 0
0.010805961 0.079999998 0.0075279265 -0.25019264 0.4048202 0
0.00996737 0.079999998 0.0075184465 -0.25019264 0.4048202 0
0.0091308858 0.079999998 0.0075090085 -0.25019264 0.4048202 0
0.0082964981 0.079999998 0.0074996129 -0.25019264 0.4048202 0
0.0074641928 0.079999998 0.0074902591 -0.25019264 0.4048202 0
0.0066339597 0.079999998 0.0074809468 -0.25019264 0.4048202 0
0.0058057858 0.079999998 0.0074716765 -0.25019264 0.4048202 0
0.0049796603 0.079999998 0.0074624475 -0.25019264 0.4048202 0
0.0041555711 0.079999998 0.0074532591 -0.25019264 0.4048202 0
0.0033335064 0.079999998 0.0074441121 -0.25019264 0.4048202 0
0.0025134552 0.079999998 0.0074350061 -0.25019264 0.4048202 0
0.0016954059 0.079999998 0.0074259401 -0.25019264 0.4048202 0
0.00087934709 0.079999998 0.0074169147 -0.25019264 0.4048202 0
6.5267523e-05 0.079999998 0.0074079293 -0.25019264 0.4048202 0
