# .PCD v0.7 - Point Cloud Data file format
VERSION 0.7
FIELDS x y z vp_x vp_y vp_z
SIZE 4 4 4 4 4 4
TYPE F F F F F F
COUNT 1 1 1 1 1 1
WIDTH 712
HEIGHT 1
VIEWPOINT 0 0 0 1 0 0 0
POINTS 712
DATA ascii
0.00040220589 0 0.0029541585 0.14741376 -0.38593423 -0.23852047
0 0.0031828119 0.0047765779 0.14741376 -0.38593423 -0.23852047
0.0020082488 0 0.0026191035 0.14741376 -0.38593423 -0.23852047
0.002809613 0 0.0024519332 0.14741376 -0.38593423 -0.23852047
0.0036098806 0 0.002284999 0.14741376 -0.38593423 -0.23852047
0.0044090576 0 0.0021182999 0.14741376 -0.38593423 -0.23852047
0.0052071507 0 0.0019518343 0.14741376 -0.38593423 -0.23852047
0.0060041654 0 0.0017856011 0.14741376 -0.38593423 -0.23852047
0.0068001086 0 0.0016195989 0.14741376 -0.38593423 -0.23852047
0.0075949854 0 0.0014538266 0.14741376 -0.38593423 -0.23852047
0.0083888033 0 0.0012882827 0.14741376 -0.38593423 -0.23852047
0.0091815665 0 0.0011229659 0.14741376 -0.38593423 -0.23852047
0.0099732829 0 0.00095787516 0.14741376 -0.38593423 -0.23852047
0.010763957 0 0.00079300907 0.14741376 -0.38593423 -0.23852047
0.011553596 0 0.00062836637 0.14741376 -0.38593423 -0.23852047
0 0.035264857 0.022301218 0.14741376 -0.38593423 -0.23852047
0.013129789 0 0.00029974614 0.14741376 -0.38593423 -0.23852047
0.013916356 0 0.00013576617 0.14741376 -0.38593423 -0.23852047
0.014686333 4.530279e-05 2.7755576e-17 0.14741376 -0.38593423 -0.23852047
2.7755576e-17 0.045303393 0.027785014 0.14741376 -0.38593423 -0.23852047
0.016074603 0.00057504419 2.7755576e-17 0.14741376 -0.38593423 -0.23852047
0.016768847 0.00083993608 0 0.14741376 -0.38593423 -0.23852047
0.017463168 0.0011048438 0 0.14741376 -0.38593423 -0.23852047
0.01815757 0.0013697688 0 0.14741376 -0.38593423 -0.23852047
0.018852055 0.0016347121 0 0.14741376 -0.38593423 -0.23852047
0.019546628 0.0018996751 0 0.14741376 -0.38593423 -0.23852047
0 0.06393607 0.037963897 0.14741376 -0.38593423 -0.23852047
0.020936051 0.0024296655 2.7755576e-17 0.14741376 -0.38593423 -0.23852047
0.00053705921 0.067867957 0.039999999 0.14741376 -0.38593423 -0.23852047
0.022325862 0.0029597504 0 0.14741376 -0.38593423 -0.23852047
0.0020607314 0.068798125 0.040190697 0.14741376 -0.38593423 -0.23852047
0.0026302286 0.069872312 0.040658891 0.14741376 -0.38593423 -0.23852047
0.024411371 0.0037550773 2.7755576e-17 0.14741376 -0.38593423 -0.23852047
0.025106765 0.0040202448 0 0.14741376 -0.38593423 -0.23852047
0.0045088395 0.072610557 0.041763499 0.14741376 -0.38593423 -0.23852047
0.026497912 0.0045506749 2.7755576e-17 0.14741376 -0.38593423 -0.23852047
0.027193671 0.0048159403 0 0.14741376 -0.38593423 -0.23852047
0.027889557 0.005081241 0 0.14741376 -0.38593423 -0.23852047
0.0073011834 0.075432427 0.042723559 0.14741376 -0.38593423 -0.23852047
0.008045679 0.075998403 0.042877723 0.14741376 -0.38593423 -0.23852047
0.0087917354 0.076563112 0.043030877 0.14741376 -0.38593423 -0.23852047
0.030674456 0.006142823 2.7755576e-17 0.14741376 -0.38593423 -0.23852047
0.031371035 0.0064083193 0 0.14741376 -0.38593423 -0.23852047
0.032067765 0.006673859 0 0.14741376 -0.38593423 -0.23852047
0.032764643 0.0069394433 0 0.14741376 -0.38593423 -0.23852047
0.033461679 0.0072050733 0 0.14741376 -0.38593423 -0.23852047
0.034158874 0.0074707498 0 0.14741376 -0.38593423 -0.23852047
0.034856234 0.0077364752 2.7755576e-17 0.14741376 -0.38593423 -0.23852047
0.035553757 0.0080022495 0 0.14741376 -0.38593423 -0.23852047
0.036251448 0.0082680751 2.7755576e-17 0.14741376 -0.38593423 -0.23852047
0.017002923 0.079762451 0.043069266 0.14741376 -0.38593423 -0.23852047
0.017887551 0.079858691 0.042937711 0.14741376 -0.38593423 -0.23852047
0.038345579 0.0090658711 0 0.14741376 -0.38593423 -0.23852047
0.039043985 0.0093319137 2.7755576e-17 0.14741376 -0.38593423 -0.23852047
0.039742578 0.0095980139 2.7755576e-17 0.14741376 -0.38593423 -0.23852047
0.039999999 0.011497212 0.00098411995 0.14741376 -0.38593423 -0.23852047
0.039999999 0.014380254 0.0025593778 0.14741376 -0.38593423 -0.23852047
0.039999999 0.017302288 0.0041559474 0.14741376 -0.38593423 -0.23852047
0.039999999 0.020264123 0.0057742726 0.14741376 -0.38593423 -0.23852047
0.039999999 0.023266595 0.0074148085 0.14741376 -0.38593423 -0.23852047
0.039999999 0.026310561 0.009078024 0.14741376 -0.38593423 -0.23852047
0.039999999 0.029396901 0.010764401 0.14741376 -0.38593423 -0.23852047
0.039999999 0.032526523 0.012474435 0.14741376 -0.38593423 -0.23852047
0.029038273 0.078728765 0.039999999 0.14741376 -0.38593423 -0.23852047
0.039999999 0.038919371 0.015967527 0.14741376 -0.38593423 -0.23852047
0.039999999 0.042184543 0.017751651 0.14741376 -0.38593423 -0.23852047
0.031493519 0.079663463 0.039999999 0.14741376 -0.38593423 -0.23852047
0.039999999 0.048857473 0.021397831 0.14741376 -0.38593423 -0.23852047
0.039999999 0.05226735 0.023261048 0.14741376 -0.38593423 -0.23852047
0.039999999 0.055727646 0.025151821 0.14741376 -0.38593423 -0.23852047
0.039999999 0.059239496 0.027070774 0.14741376 -0.38593423 -0.23852047
0.039999999 0.062804081 0.029018551 0.14741376 -0.38593423 -0.23852047
0.039999999 0.066422619 0.030995818 0.14741376 -0.38593423 -0.23852047
0.039999999 0.070096359 0.033003256 0.14741376 -0.38593423 -0.23852047
0.039999999 0.073826596 0.035041574 0.14741376 -0.38593423 -0.23852047
0.039999999 0.077614665 0.037111502 0.14741376 -0.38593423 -0.23852047
0.00040184043 0 0.0020845325 0.14741376 -0.38593423 -0.23852047
0 0.003179898 0.0038987244 0.14741376 -0.38593423 -0.23852047
0.0020064267 0 0.001750981 0.14741376 -0.38593423 -0.23852047
0.0028070654 0 0.0015845571 0.14741376 -0.38593423 -0.23852047
0.0036066093 0 0.0014183661 0.14741376 -0.38593423 -0.23852047
0.004405065 0 0.0012524067 0.14741376 -0.38593423 -0.23852047
0.0052024382 0 0.0010866775 0.14741376 -0.38593423 -0.23852047
0.0059987358 0 0.00092117744 0.14741376 -0.38593423 -0.23852047
0.0067939628 5.5511151e-17 0.00075590506 0.14741376 -0.38593423 -0.23852047
0.0075881262 0 0.00059085904 0.14741376 -0.38593423 -0.23852047
0.0083812317 5.5511151e-17 0.00042603826 0.14741376 -0.38593423 -0.23852047
0.0091732852 0 0.00026144137 0.14741376 -0.38593423 -0.23852047
0.0099642938 0 9.7067124e-05 0.14741376 -0.38593423 -0.23852047
2.7755576e-17 0.030370647 0.018697727 0.14741376 -0.38593423 -0.23852047
0.01141147 0.00037415803 0 0.14741376 -0.38593423 -0.23852047
0.01210718 0.00063974888 0 0.14741376 -0.38593423 -0.23852047
0.012802945 0.00090535125 0 0.14741376 -0.38593423 -0.23852047
0.01349877 0.0011709665 0 0.14741376 -0.38593423 -0.23852047
0 0.042711426 0.025414646 0.14741376 -0.38593423 -0.23852047
0.014890611 0.001702241 2.7755576e-17 0.14741376 -0.38593423 -0.23852047
0.015586634 0.0019679028 2.7755576e-17 0.14741376 -0.38593423 -0.23852047
0.01628273 0.0022335825 0 0.14741376 -0.38593423 -0.23852047
0.016978903 0.0024992819 0 0.14741376 -0.38593423 -0.23852047
0.017675154 0.0027650017 2.7755576e-17 0.14741376 -0.38593423 -0.23852047
0.018371491 0.0030307437 2.7755576e-17 0.14741376 -0.38593423 -0.23852047
0 0.061123211 0.035436187 0.14741376 -0.38593423 -0.23852047
2.7755576e-17 0.063869499 0.036931016 0.14741376 -0.38593423 -0.23852047
0.02046103 0.0038281146 0 0.14741376 -0.38593423 -0.23852047
0.021157732 0.0040939576 0 0.14741376 -0.38593423 -0.23852047
0.021854537 0.0043598288 0 0.14741376 -0.38593423 -0.23852047
0.00161197 0.070122823 0.039999999 0.14741376 -0.38593423 -0.23852047
0.023248456 0.0048916624 0 0.14741376 -0.38593423 -0.23852047
0.023945581 0.0051576272 2.7755576e-17 0.14741376 -0.38593423 -0.23852047
0.02464282 0.0054236259 2.7755576e-17 0.14741376 -0.38593423 -0.23852047
0.025340175 0.0056896592 0 0.14741376 -0.38593423 -0.23852047
0.0051569911 0.073373616 0.04103332 0.14741376 -0.38593423 -0.23852047
0.026735254 0.0062218369 0 0.14741376 -0.38593423 -0.23852047
0.027432982 0.0064879833 0 0.14741376 -0.38593423 -0.23852047
0.028130842 0.0067541702 2.7755576e-17 0.14741376 -0.38593423 -0.23852047
0.028828837 0.0070203985 0 0.14741376 -0.38593423 -0.23852047
0.029526969 0.0072866697 0 0.14741376 -0.38593423 -0.23852047
0.030225245 0.0075529856 0 0.14741376 -0.38593423 -0.23852047
0.030923665 0.0078193462 0 0.14741376 -0.38593423 -0.23852047
0.011108485 0.077890739 0.042256534 0.14741376 -0.38593423 -0.23852047
0.032320954 0.0083522107 0 0.14741376 -0.38593423 -0.23852047
0.03301983 0.0086187162 0 0.14741376 -0.38593423 -0.23852047
0.033718862 0.0088852718 0 0.14741376 -0.38593423 -0.23852047
0.014388902 0.079183228 0.042279162 0.14741376 -0.38593423 -0.23852047
0.015239572 0.079400897 0.042221088 0.14741376 -0.38593423 -0.23852047
0.035816953 0.0096852593 0 0.14741376 -0.38593423 -0.23852047
0.016962344 0.079758033 0.042057939 0.14741376 -0.38593423 -0.23852047
0.037216537 0.010218862 0 0.14741376 -0.38593423 -0.23852047
0.037916597 0.010485751 0 0.14741376 -0.38593423 -0.23852047
0.019627569 0.079989925 0.041631054 0.14741376 -0.38593423 -0.23852047
0.039317273 0.01101971 0 0.14741376 -0.38593423 -0.23852047
0.021459023 0.079929776 0.041218258 0.14741376 -0.38593423 -0.23852047
0.039999999 0.014231442 0.0016066987 0.14741376 -0.38593423 -0.23852047
0.039999999 0.017148795 0.003194825 0.14741376 -0.38593423 -0.23852047
0.039999999 0.020105835 0.0048045618 0.14741376 -0.38593423 -0.23852047
0.039999999 0.023103394 0.0064363615 0.14741376 -0.38593423 -0.23852047
0.039999999 0.026142325 0.0080906879 0.14741376 -0.38593423 -0.23852047
0.039999999 0.029223505 0.0097680204 0.14741376 -0.38593423 -0.23852047
0.039999999 0.032347839 0.01146885 0.14741376 -0.38593423 -0.23852047
0.039999999 0.035516255 0.013193682 0.14741376 -0.38593423 -0.23852047
0.039999999 0.038729705 0.014943037 0.14741376 -0.38593423 -0.23852047
0.039999999 0.041989177 0.016717451 0.14741376 -0.38593423 -0.23852047
0.039999999 0.045295682 0.018517474 0.14741376 -0.38593423 -0.23852047
0.039999999 0.048650261 0.020343674 0.14741376 -0.38593423 -0.23852047
0.039999999 0.052053988 0.022196637 0.14741376 -0.38593423 -0.23852047
0.039999999 0.055507969 0.024076961 0.14741376 -0.38593423 -0.23852047
0.039999999 0.059013341 0.025985271 0.14741376 -0.38593423 -0.23852047
0.039999999 0.06257128 0.027922202 0.14741376 -0.38593423 -0.23852047
0.039999999 0.066182993 0.029888412 0.14741376 -0.38593423 -0.23852047
0.039999999 0.069849722 0.031884585 0.14741376 -0.38593423 -0.23852047
0.039999999 0.073572762 0.033911414 0.14741376 -0.38593423 -0.23852047
0.039386392 0.079999998 0.037537668 0.14741376 -0.38593423 -0.23852047
0.00040147561 0 0.0012164965 0.14741376 -0.38593423 -0.23852047
0.0012035941 0 0.0010503537 0.14741376 -0.38593423 -0.23852047
0.0020046076 0 0.00088444311 0.14741376 -0.38593423 -0.23852047
0.0028045222 0 0.00071876333 0.14741376 -0.38593423 -0.23852047
0.0036033441 5.5511151e-17 0.00055331306 0.14741376 -0.38593423 -0.23852047
0.0044010798 0 0.00038809099 0.14741376 -0.38593423 -0.23852047
0.005197735 0 0.00022309588 0.14741376 -0.38593423 -0.23852047
0.005993316 5.5511151e-17 5.8326434e-05 0.14741376 -0.38593423 -0.23852047
0.0067251767 0.00017194189 2.7755576e-17 0.14741376 -0.38593423 -0.23852047
0.0074224952 0.00043824082 0 0.14741376 -0.38593423 -0.23852047
0.0081198486 0.00070454704 0 0.14741376 -0.38593423 -0.23852047
0 0.025585003 0.015174204 0.14741376 -0.38593423 -0.23852047
0.0095146708 0.0012371865 0 0.14741376 -0.38593423 -0.23852047
0.010212148 0.0015035223 2.7755576e-17 0.14741376 -0.38593423 -0.23852047
0.010909673 0.0017698706 2.7755576e-17 0.14741376 -0.38593423 -0.23852047
0.011607249 0.0020362327 0 0.14741376 -0.38593423 -0.23852047
0.012304881 0.0023026101 0 0.14741376 -0.38593423 -0.23852047
2.7755576e-17 0.040151741 0.023073817 0.14741376 -0.38593423 -0.23852047
0.013700322 0.0028354151 0 0.14741376 -0.38593423 -0.23852047
2.7755576e-17 0.045212656 0.025818404 0.14741376 -0.38593423 -0.23852047
0.015096026 0.0033682964 0 0.14741376 -0.38593423 -0.23852047
0 0.050381891 0.028621748 0.14741376 -0.38593423 -0.23852047
0.016492017 0.0039012644 2.7755576e-17 0.14741376 -0.38593423 -0.23852047
0.01719013 0.004167784 0 0.14741376 -0.38593423 -0.23852047
0.017888324 0.0044343295 0 0.14741376 -0.38593423 -0.23852047
0.018586606 0.0047009015 0 0.14741376 -0.38593423 -0.23852047
0.019284977 0.0049675019 0 0.14741376 -0.38593423 -0.23852047
2.7755576e-17 0.066576585 0.037404437 0.14741376 -0.38593423 -0.23852047
2.7755576e-17 0.069381058 0.038925365 0.14741376 -0.38593423 -0.23852047
0.021380657 0.0057674856 2.7755576e-17 0.14741376 -0.38593423 -0.23852047
0.022079419 0.0060342122 0 0.14741376 -0.38593423 -0.23852047
0.022778289 0.0063009732 2.7755576e-17 0.14741376 -0.38593423 -0.23852047
0.0026930568 0.072390549 0.039999999 0.14741376 -0.38593423 -0.23852047
0.024176359 0.0068346052 0 0.14741376 -0.38593423 -0.23852047
0.02487557 0.007101479 2.7755576e-17 0.14741376 -0.38593423 -0.23852047
0.0051354072 0.073348209 0.040013809 0.14741376 -0.38593423 -0.23852047
0.0058232131 0.074079007 0.04026778 0.14741376 -0.38593423 -0.23852047
0.026973933 0.0079023447 2.7755576e-17 0.14741376 -0.38593423 -0.23852047
0.0072491905 0.075392902 0.040685199 0.14741376 -0.38593423 -0.23852047
0.028373491 0.008436474 0 0.14741376 -0.38593423 -0.23852047
0.029073475 0.0087036071 0 0.14741376 -0.38593423 -0.23852047
0.0297736 0.0089707887 2.7755576e-17 0.14741376 -0.38593423 -0.23852047
0.030473869 0.0092380196 0 0.14741376 -0.38593423 -0.23852047
0.011076705 0.077876039 0.041239731 0.14741376 -0.38593423 -0.23852047
0.011881268 0.07824827 0.041275103 0.14741376 -0.38593423 -0.23852047
0.032575581 0.010040022 0 0.14741376 -0.38593423 -0.23852047
0.033276465 0.010307463 2.7755576e-17 0.14741376 -0.38593423 -0.23852047
0.014353014 0.079171136 0.041264091 0.14741376 -0.38593423 -0.23852047
0.015201787 0.079392582 0.04120855 0.14741376 -0.38593423 -0.23852047
0.035380099 0.011110129 0 0.14741376 -0.38593423 -0.23852047
0.036081653 0.011377802 0 0.14741376 -0.38593423 -0.23852047
0.036783382 0.011645537 0 0.14741376 -0.38593423 -0.23852047
0.018687401 0.079945706 0.040787261 0.14741376 -0.38593423 -0.23852047
0.038187381 0.012181195 0 0.14741376 -0.38593423 -0.23852047
0.038889661 0.012449122 0 0.14741376 -0.38593423 -0.23852047
0.021412006 0.079934888 0.040217638 0.14741376 -0.38593423 -0.23852047
0.039999999 0.014083004 0.00065640901 0.14741376 -0.38593423 -0.23852047
0.039999999 0.016995689 0.0022361293 0.14741376 -0.38593423 -0.23852047
0.039999999 0.01994795 0.0038373163 0.14741376 -0.38593423 -0.23852047
0.039999999 0.02294061 0.0054604183 0.14741376 -0.38593423 -0.23852047
0.039999999 0.025974523 0.0071058962 0.14741376 -0.38593423 -0.23852047
0.039999999 0.029050561 0.0087742247 0.14741376 -0.38593423 -0.23852047
0.039999999 0.035332631 0.012181398 0.14741376 -0.38593423 -0.23852047
0.039999999 0.038540542 0.013921261 0.14741376 -0.38593423 -0.23852047
0.039999999 0.041794334 0.015686009 0.14741376 -0.38593423 -0.23852047
0.039999999 0.045095012 0.017476194 0.14741376 -0.38593423 -0.23852047
0.039999999 0.048443612 0.019292371 0.14741376 -0.38593423 -0.23852047
0.039999999 0.0552889 0.023005055 0.14741376 -0.38593423 -0.23852047
0.039999999 0.058787815 0.02490277 0.14741376 -0.38593423 -0.23852047
0.035768159 0.079999998 0.037283022 0.14741376 -0.38593423 -0.23852047
0.036658823 0.079999998 0.037098799 0.14741376 -0.38593423 -0.23852047
0.039999999 0.069603786 0.030769076 0.14741376 -0.38593423 -0.23852047
0.039999999 0.073319651 0.032784473 0.14741376 -0.38593423 -0.23852047
0.039999999 0.07709296 0.034831032 0.14741376 -0.38593423 -0.23852047
0.00040111149 0 0.00035004129 0.14741376 -0.38593423 -0.23852047
0.0012025032 0 0.00018464698 0.14741376 -0.38593423 -0.23852047
0.002002792 5.5511151e-17 1.9481404e-05 0.14741376 -0.38593423 -0.23852047
0.0027137415 0.00023549756 2.7755576e-17 0.14741376 -0.38593423 -0.23852047
0.0034128281 0.00050251698 0 0.14741376 -0.38593423 -0.23852047
0.0041119307 0.00076954061 0 0.14741376 -0.38593423 -0.23852047
0.0048110532 0.0010365698 2.7755576e-17 0.14741376 -0.38593423 -0.23852047
0.0055101984 0.0013036057 0 0.14741376 -0.38593423 -0.23852047
0.0062093702 0.0015706499 0 0.14741376 -0.38593423 -0.23852047
0 0.020904262 0.011727936 0.14741376 -0.38593423 -0.23852047
0.0076078074 0.0021047678 0 0.14741376 -0.38593423 -0.23852047
0.0083070798 0.0023718441 2.7755576e-17 0.14741376 -0.38593423 -0.23852047
0.0090063913 0.0026389339 0 0.14741376 -0.38593423 -0.23852047
0.0097057475 0.0029060387 0 0.14741376 -0.38593423 -0.23852047
0.010405151 0.0031731592 0 0.14741376 -0.38593423 -0.23852047
0 0.035161205 0.019431382 0.14741376 -0.38593423 -0.23852047
2.7755576e-17 0.037623726 0.020761961 0.14741376 -0.38593423 -0.23852047
0.012503678 0.0039746305 2.7755576e-17 0.14741376 -0.38593423 -0.23852047
0.013203304 0.0042418283 0 0.14741376 -0.38593423 -0.23852047
0.013902995 0.004509049 0 0.14741376 -0.38593423 -0.23852047
0.014602753 0.0047762934 0 0.14741376 -0.38593423 -0.23852047
2.7755576e-17 0.050330948 0.027628088 0.14741376 -0.38593423 -0.23852047
0.016002487 0.0053108595 0 0.14741376 -0.38593423 -0.23852047
0.016702471 0.0055781836 2.7755576e-17 0.14741376 -0.38593423 -0.23852047
0.017402535 0.0058455374 0 0.14741376 -0.38593423 -0.23852047
0.018102685 0.0061129215 0 0.14741376 -0.38593423 -0.23852047
0.018802924 0.0063803373 0 0.14741376 -0.38593423 -0.23852047
0 0.066507034 0.036368594 0.14741376 -0.38593423 -0.23852047
0.02020368 0.0069152699 0 0.14741376 -0.38593423 -0.23852047
0 0.072140716 0.039412681 0.14741376 -0.38593423 -0.23852047
0.00050661416 0.073421128 0.039999999 0.14741376 -0.38593423 -0.23852047
0.022305567 0.0077179414 0 0.14741376 -0.38593423 -0.23852047
0.023006409 0.0079855761 0 0.14741376 -0.38593423 -0.23852047
0.0029617429 0.074358687 0.039999999 0.14741376 -0.38593423 -0.23852047
0.024408439 0.0085209711 2.7755576e-17 0.14741376 -0.38593423 -0.23852047
0.0045991684 0.074983969 0.039999999 0.14741376 -0.38593423 -0.23852047
0.0054180953 0.075296685 0.039999999 0.14741376 -0.38593423 -0.23852047
0.0062371702 0.07560946 0.039999999 0.14741376 -0.38593423 -0.23852047
0.027213963 0.0095922966 0 0.14741376 -0.38593423 -0.23852047
0.02791567 0.0098602483 0 0.14741376 -0.38593423 -0.23852047
0.028617514 0.010128249 0 0.14741376 -0.38593423 -0.23852047
0.029319499 0.010396303 2.7755576e-17 0.14741376 -0.38593423 -0.23852047
0.030021628 0.010664409 0 0.14741376 -0.38593423 -0.23852047
0.011044982 0.077861361 0.040224798 0.14741376 -0.38593423 -0.23852047
0.031426333 0.011200787 0 0.14741376 -0.38593423 -0.23852047
0.012654855 0.078598924 0.040291179 0.14741376 -0.38593423 -0.23852047
0.032831658 0.011737392 0 0.14741376 -0.38593423 -0.23852047
0.01431719 0.079159066 0.040250871 0.14741376 -0.38593423 -0.23852047
0.034237631 0.012274238 2.7755576e-17 0.14741376 -0.38593423 -0.23852047
0.016021142 0.079572916 0.040122934 0.14741376 -0.38593423 -0.23852047
0.035644282 0.012811334 0 0.14741376 -0.38593423 -0.23852047
0.017722063 0.079994857 0.039999999 0.14741376 -0.38593423 -0.23852047
0.037051633 0.01334869 2.7755576e-17 0.14741376 -0.38593423 -0.23852047
0.037755582 0.01361747 0 0.14741376 -0.38593423 -0.23852047
0.020443253 0.079999998 0.039441358 0.14741376 -0.38593423 -0.23852047
0.039164044 0.014155238 0 0.14741376 -0.38593423 -0.23852047
0.039868563 0.014424229 0 0.14741376 -0.38593423 -0.23852047
0.023157103 0.079999998 0.038881466 0.14741376 -0.38593423 -0.23852047
0.024059799 0.079999998 0.038695235 0.14741376 -0.38593423 -0.23852047
0.039999999 0.022778243 0.004486965 0.14741376 -0.38593423 -0.23852047
0.039999999 0.025807152 0.0061236345 0.14741376 -0.38593423 -0.23852047
0.039999999 0.028878061 0.0077829999 0.14741376 -0.38593423 -0.23852047
0.039999999 0.031991869 0.0094655463 0.14741376 -0.38593423 -0.23852047
0.039999999 0.035149492 0.011171769 0.14741376 -0.38593423 -0.23852047
0.039999999 0.038351879 0.012902183 0.14741376 -0.38593423 -0.23852047
0.039999999 0.041600008 0.014657313 0.14741376 -0.38593423 -0.23852047
0.039999999 0.044894878 0.0164377 0.14741376 -0.38593423 -0.23852047
0.039999999 0.048237521 0.018243905 0.14741376 -0.38593423 -0.23852047
0.039999999 0.051629007 0.020076502 0.14741376 -0.38593423 -0.23852047
0.039999999 0.055070426 0.021936083 0.14741376 -0.38593423 -0.23852047
0.039999999 0.058562908 0.023823256 0.14741376 -0.38593423 -0.23852047
0.039999999 0.062107619 0.025738651 0.14741376 -0.38593423 -0.23852047
0.039999999 0.065705746 0.027682915 0.14741376 -0.38593423 -0.23852047
0.039999999 0.069358543 0.029656714 0.14741376 -0.38593423 -0.23852047
0.039999999 0.073067263 0.031660739 0.14741376 -0.38593423 -0.23852047
0.039999999 0.076833233 0.033695698 0.14741376 -0.38593423 -0.23852047
0 0.0010520319 0.00013394664 0.14741376 -0.38593423 -0.23852047
0.00078369916 0.0011025785 0 0.14741376 -0.38593423 -0.23852047
0.0014846657 0.0013703279 0 0.14741376 -0.38593423 -0.23852047
2.7755576e-17 0.0074709305 0.0035896625 0.14741376 -0.38593423 -0.23852047
0 0.009652134 0.0047639459 0.14741376 -0.38593423 -0.23852047
0.0035876273 0.0021736114 0 0.14741376 -0.38593423 -0.23852047
0.0042886464 0.002441389 0 0.14741376 -0.38593423 -0.23852047
0 0.016324917 0.0083563309 0.14741376 -0.38593423 -0.23852047
0 0.018593341 0.0095775658 0.14741376 -0.38593423 -0.23852047
0.0063918498 0.0032447889 0 0.14741376 -0.38593423 -0.23852047
0.0070929774 0.0035126156 2.7755576e-17 0.14741376 -0.38593423 -0.23852047
0.0077941408 0.0037804581 2.7755576e-17 0.14741376 -0.38593423 -0.23852047
0.0084953438 0.0040483177 0 0.14741376 -0.38593423 -0.23852047
0.0091965888 0.0043161954 2.7755576e-17 0.14741376 -0.38593423 -0.23852047
0.0098978803 0.0045840926 0 0.14741376 -0.38593423 -0.23852047
0.010599221 0.0048520109 2.7755576e-17 0.14741376 -0.38593423 -0.23852047
0 0.037586711 0.01980285 0.14741376 -0.38593423 -0.23852047
0.012002067 0.0053879153 0 0.14741376 -0.38593423 -0.23852047
0.012703577 0.0056559043 0 0.14741376 -0.38593423 -0.23852047
0 0.045122281 0.023859683 0.14741376 -0.38593423 -0.23852047
0.014106793 0.0061919629 0 0.14741376 -0.38593423 -0.23852047
0.014808505 0.0064600348 0 0.14741376 -0.38593423 -0.23852047
0.015510291 0.0067281364 0 0.14741376 -0.38593423 -0.23852047
0.016212154 0.0069962703 0 0.14741376 -0.38593423 -0.23852047
0.016914098 0.0072644367 0 0.14741376 -0.38593423 -0.23852047
2.7755576e-17 0.060933936 0.032371983 0.14741376 -0.38593423 -0.23852047
0.018318243 0.0078008738 0 0.14741376 -0.38593423 -0.23852047
0.019020451 0.0080691474 0 0.14741376 -0.38593423 -0.23852047
0.019722754 0.0083374586 2.7755576e-17 0.14741376 -0.38593423 -0.23852047
0.020425156 0.0086058099 2.7755576e-17 0.14741376 -0.38593423 -0.23852047
0.021127658 0.0088742021 2.7755576e-17 0.14741376 -0.38593423 -0.23852047
0.021830268 0.0091426363 0 0.14741376 -0.38593423 -0.23852047
0.022532985 0.0094111143 0 0.14741376 -0.38593423 -0.23852047
0.023235815 0.0096796369 0 0.14741376 -0.38593423 -0.23852047
0.02393876 0.0099482052 0 0.14741376 -0.38593423 -0.23852047
0.024641825 0.010216822 0 0.14741376 -0.38593423 -0.23852047
0.025345013 0.010485488 2.7755576e-17 0.14741376 -0.38593423 -0.23852047
0.026048327 0.010754203 2.7755576e-17 0.14741376 -0.38593423 -0.23852047
0.0065166969 0.077592887 0.039999999 0.14741376 -0.38593423 -0.23852047
0.02745535 0.011291792 0 0.14741376 -0.38593423 -0.23852047
0.0081599932 0.078220755 0.039999999 0.14741376 -0.38593423 -0.23852047
0.02886292 0.011829597 2.7755576e-17 0.14741376 -0.38593423 -0.23852047
0.029566919 0.012098584 0 0.14741376 -0.38593423 -0.23852047
0.010626177 0.079163045 0.039999999 0.14741376 -0.38593423 -0.23852047
0.030975362 0.012636735 0 0.14741376 -0.38593423 -0.23852047
0.031679817 0.012905902 2.7755576e-17 0.14741376 -0.38593423 -0.23852047
0.032384425 0.013175131 0 0.14741376 -0.38593423 -0.23852047
0.033089198 0.013444424 0 0.14741376 -0.38593423 -0.23852047
0.033794135 0.013713781 2.7755576e-17 0.14741376 -0.38593423 -0.23852047
0.034499239 0.013983206 0 0.14741376 -0.38593423 -0.23852047
0.035204519 0.014252698 0 0.14741376 -0.38593423 -0.23852047
0.017678238 0.079999998 0.038999945 0.14741376 -0.38593423 -0.23852047
0.036615606 0.014791891 0 0.14741376 -0.38593423 -0.23852047
0.037321422 0.015061595 2.7755576e-17 0.14741376 -0.38593423 -0.23852047
0.020398544 0.079999998 0.038440354 0.14741376 -0.38593423 -0.23852047
0.03873362 0.015601223 0 0.14741376 -0.38593423 -0.23852047
0.039440006 0.01587115 0 0.14741376 -0.38593423 -0.23852047
0.039999999 0.016690632 0.00032596273 0.14741376 -0.38593423 -0.23852047
0.039999999 0.019633377 0.0019101634 0.14741376 -0.38593423 -0.23852047
0.039999999 0.022616288 0.003515987 0.14741376 -0.38593423 -0.23852047
0.039999999 0.025640208 0.0051438874 0.14741376 -0.38593423 -0.23852047
0.02671214 0.079999998 0.037141543 0.14741376 -0.38593423 -0.23852047
0.039999999 0.031814575 0.0084677972 0.14741376 -0.38593423 -0.23852047
0.039999999 0.03496683 0.010164781 0.14741376 -0.38593423 -0.23852047
0.029403878 0.079999998 0.03658779 0.14741376 -0.38593423 -0.23852047
0.039999999 0.041406196 0.013631343 0.14741376 -0.38593423 -0.23852047
0.031193791 0.079999998 0.036219556 0.14741376 -0.38593423 -0.23852047
0.039999999 0.048031986 0.017198261 0.14741376 -0.38593423 -0.23852047
0.039999999 0.051417381 0.019020747 0.14741376 -0.38593423 -0.23852047
0.039999999 0.054852553 0.020870028 0.14741376 -0.38593423 -0.23852047
0.039999999 0.058338623 0.02274671 0.14741376 -0.38593423 -0.23852047
0.039999999 0.061876751 0.024651416 0.14741376 -0.38593423 -0.23852047
0.039999999 0.065468125 0.026584785 0.14741376 -0.38593423 -0.23852047
0.039999999 0.069113985 0.028547481 0.14741376 -0.38593423 -0.23852047
0.039999999 0.07281559 0.030540187 0.14741376 -0.38593423 -0.23852047
0.039999999 0.076574244 0.032563604 0.14741376 -0.38593423 -0.23852047
0.00024888787 0.0025113497 0 0.14741376 -0.38593423 -0.23852047
0.00095176673 0.0027798375 0 0.14741376 -0.38593423 -0.23852047
0 0.0074640503 0.002707676 0.14741376 -0.38593423 -0.23852047
0.0023575481 0.0033168402 0 0.14741376 -0.38593423 -0.23852047
0 0.011843625 0.0050569107 0.14741376 -0.38593423 -0.23852047
0.0037633844 0.0038538878 2.7755576e-17 0.14741376 -0.38593423 -0.23852047
0.0044663316 0.0041224314 0 0.14741376 -0.38593423 -0.23852047
0.0051693032 0.0043909908 0 0.14741376 -0.38593423 -0.23852047
0.0058723027 0.0046595666 0 0.14741376 -0.38593423 -0.23852047
0.006575333 0.00492816 2.7755576e-17 0.14741376 -0.38593423 -0.23852047
0.0072783981 0.005196773 2.7755576e-17 0.14741376 -0.38593423 -0.23852047
0.0079815015 0.0054654065 0 0.14741376 -0.38593423 -0.23852047
0 0.030253071 0.014931731 0.14741376 -0.38593423 -0.23852047
0.0093878359 0.0060027405 0 0.14741376 -0.38593423 -0.23852047
0.010091075 0.0062714433 2.7755576e-17 0.14741376 -0.38593423 -0.23852047
0.010794366 0.0065401723 0 0.14741376 -0.38593423 -0.23852047
0.011497712 0.0068089287 0 0.14741376 -0.38593423 -0.23852047
0 0.042541742 0.021523256 0.14741376 -0.38593423 -0.23852047
0.012904586 0.0073465286 0 0.14741376 -0.38593423 -0.23852047
0.01360812 0.0076153744 0 0.14741376 -0.38593423 -0.23852047
0.014311724 0.0078842528 0 0.14741376 -0.38593423 -0.23852047
0.015015402 0.0081531657 0 0.14741376 -0.38593423 -0.23852047
0.015719155 0.008422114 0 0.14741376 -0.38593423 -0.23852047
0.016422989 0.0086910985 2.7755576e-17 0.14741376 -0.38593423 -0.23852047
0.017126907 0.0089601204 2.7755576e-17 0.14741376 -0.38593423 -0.23852047
0.017830912 0.0092291823 0 0.14741376 -0.38593423 -0.23852047
0.018535007 0.0094982851 2.7755576e-17 0.14741376 -0.38593423 -0.23852047
0.019239197 0.009767429 0 0.14741376 -0.38593423 -0.23852047
0.019943485 0.010036617 0 0.14741376 -0.38593423 -0.23852047
0.020647872 0.01030585 0 0.14741376 -0.38593423 -0.23852047
0.021352366 0.010575128 0 0.14741376 -0.38593423 -0.23852047
0.022056969 0.010844454 0 0.14741376 -0.38593423 -0.23852047
0.022761682 0.011113828 2.7755576e-17 0.14741376 -0.38593423 -0.23852047
0.0026804956 0.078013591 0.039999999 0.14741376 -0.38593423 -0.23852047
0.0035036635 0.078328259 0.039999999 0.14741376 -0.38593423 -0.23852047
0.024876529 0.011922258 0 0.14741376 -0.38593423 -0.23852047
0.025581725 0.012191841 2.7755576e-17 0.14741376 -0.38593423 -0.23852047
0.026287051 0.01246148 0 0.14741376 -0.38593423 -0.23852047
0.026992509 0.012731175 0 0.14741376 -0.38593423 -0.23852047
0.027698103 0.013000929 0 0.14741376 -0.38593423 -0.23852047
0.0085106902 0.079999998 0.039869979 0.14741376 -0.38593423 -0.23852047
0.029109718 0.013540616 2.7755576e-17 0.14741376 -0.38593423 -0.23852047
0.029815745 0.013810553 0 0.14741376 -0.38593423 -0.23852047
0.03052192 0.014080552 0 0.14741376 -0.38593423 -0.23852047
0.031228252 0.014350617 0 0.14741376 -0.38593423 -0.23852047
0.031934742 0.014620749 2.7755576e-17 0.14741376 -0.38593423 -0.23852047
0.032641392 0.014890948 2.7755576e-17 0.14741376 -0.38593423 -0.23852047
0.033348206 0.015161216 0 0.14741376 -0.38593423 -0.23852047
0.034055188 0.015431555 0 0.14741376 -0.38593423 -0.23852047
0.034762345 0.015701964 2.7755576e-17 0.14741376 -0.38593423 -0.23852047
0.035469677 0.015972449 0 0.14741376 -0.38593423 -0.23852047
0.036177188 0.016243007 0 0.14741376 -0.38593423 -0.23852047
0.036884882 0.016513642 0 0.14741376 -0.38593423 -0.23852047
0.037592761 0.016784353 0 0.14741376 -0.38593423 -0.23852047
0.038300835 0.017055143 0 0.14741376 -0.38593423 -0.23852047
0.039009098 0.017326012 0 0.14741376 -0.38593423 -0.23852047
0.039717559 0.017596964 2.7755576e-17 0.14741376 -0.38593423 -0.23852047
0.039999999 0.019476684 0.00095022831 0.14741376 -0.38593423 -0.23852047
0.039999999 0.022454742 0.0025474704 0.14741376 -0.38593423 -0.23852047
0.039999999 0.025473692 0.0041666403 0.14741376 -0.38593423 -0.23852047
0.039999999 0.028534396 0.0058082016 0.14741376 -0.38593423 -0.23852047
0.039999999 0.031637743 0.0074726301 0.14741376 -0.38593423 -0.23852047
0.039999999 0.034784645 0.0091604153 0.14741376 -0.38593423 -0.23852047
0.039999999 0.037976041 0.010872061 0.14741376 -0.38593423 -0.23852047
0.039999999 0.041212898 0.012608085 0.14741376 -0.38593423 -0.23852047
0.039999999 0.044496208 0.014369021 0.14741376 -0.38593423 -0.23852047
0.039999999 0.047827002 0.016155418 0.14741376 -0.38593423 -0.23852047
0.039999999 0.051206324 0.017967843 0.14741376 -0.38593423 -0.23852047
0.039999999 0.054635268 0.019806875 0.14741376 -0.38593423 -0.23852047
0.039999999 0.05811495 0.021673115 0.14741376 -0.38593423 -0.23852047
0.039999999 0.061646521 0.023567181 0.14741376 -0.38593423 -0.23852047
0.036483824 0.079999998 0.034132045 0.14741376 -0.38593423 -0.23852047
0.039999999 0.068870112 0.027441358 0.14741376 -0.38593423 -0.23852047
0.039999999 0.072564624 0.029422801 0.14741376 -0.38593423 -0.23852047
0.039999999 0.076315992 0.031434737 0.14741376 -0.38593423 -0.23852047
0 0.0053009931 0.00067491608 0.14741376 -0.38593423 -0.23852047
0.0011207513 0.0044663223 0 0.14741376 -0.38593423 -0.23852047
0.0018255672 0.0047355783 0 0.14741376 -0.38593423 -0.23852047
0.0025303958 0.0050048493 2.7755576e-17 0.14741376 -0.38593423 -0.23852047
0.0032352402 0.0052741361 0 0.14741376 -0.38593423 -0.23852047
0.003940104 0.0055434401 0 0.14741376 -0.38593423 -0.23852047
0.0046449914 0.0058127632 0 0.14741376 -0.38593423 -0.23852047
0.0053499048 0.0060821068 0 0.14741376 -0.38593423 -0.23852047
0 0.023154305 0.010216584 0.14741376 -0.38593423 -0.23852047
0.0067598256 0.0066208593 0 0.14741376 -0.38593423 -0.23852047
0.0074648396 0.0068902713 0 0.14741376 -0.38593423 -0.23852047
0.0081698941 0.0071597085 0 0.14741376 -0.38593423 -0.23852047
0.0088749938 0.0074291728 0 0.14741376 -0.38593423 -0.23852047
0.00958014 0.0076986654 2.7755576e-17 0.14741376 -0.38593423 -0.23852047
0.010285337 0.0079681873 2.7755576e-17 0.14741376 -0.38593423 -0.23852047
0.01099059 0.008237741 0 0.14741376 -0.38593423 -0.23852047
0 0.042499531 0.020555228 0.14741376 -0.38593423 -0.23852047
0.012401273 0.0087769451 2.7755576e-17 0.14741376 -0.38593423 -0.23852047
0.01310671 0.0090465993 0 0.14741376 -0.38593423 -0.23852047
2.7755576e-17 0.050178733 0.02465912 0.14741376 -0.38593423 -0.23852047
0 0.052793361 0.026056407 0.14741376 -0.38593423 -0.23852047
0.01522345 0.0098557845 0 0.14741376 -0.38593423 -0.23852047
0.015929185 0.010125592 2.7755576e-17 0.14741376 -0.38593423 -0.23852047
0.016635001 0.010395441 2.7755576e-17 0.14741376 -0.38593423 -0.23852047
0.017340904 0.010665334 2.7755576e-17 0.14741376 -0.38593423 -0.23852047
0.018046897 0.01093527 2.7755576e-17 0.14741376 -0.38593423 -0.23852047
2.7755576e-17 0.069090419 0.034765609 0.14741376 -0.38593423 -0.23852047
0.019459167 0.011475283 2.7755576e-17 0.14741376 -0.38593423 -0.23852047
2.7755576e-17 0.074766934 0.037799112 0.14741376 -0.38593423 -0.23852047
0.02087184 0.012015489 0 0.14741376 -0.38593423 -0.23852047
0.021578336 0.012285667 0 0.14741376 -0.38593423 -0.23852047
0.022284944 0.0125559 0 0.14741376 -0.38593423 -0.23852047
0.022991667 0.012826186 0 0.14741376 -0.38593423 -0.23852047
0.023698507 0.013096526 0 0.14741376 -0.38593423 -0.23852047
0.02440547 0.013366925 0 0.14741376 -0.38593423 -0.23852047
0.025112556 0.01363738 0 0.14741376 -0.38593423 -0.23852047
0.025819775 0.013907895 0 0.14741376 -0.38593423 -0.23852047
0.026527124 0.014178471 0 0.14741376 -0.38593423 -0.23852047
0.027234608 0.014449109 0 0.14741376 -0.38593423 -0.23852047
0.027942235 0.01471981 0 0.14741376 -0.38593423 -0.23852047
0.028650003 0.014990577 2.7755576e-17 0.14741376 -0.38593423 -0.23852047
0.029357918 0.01526141 0 0.14741376 -0.38593423 -0.23852047
0.011222222 0.079999998 0.038301732 0.14741376 -0.38593423 -0.23852047
0.030774204 0.015803279 0 0.14741376 -0.38593423 -0.23852047
0.031482581 0.016074318 0 0.14741376 -0.38593423 -0.23852047
0.01395891 0.079999998 0.037742194 0.14741376 -0.38593423 -0.23852047
0.014869105 0.079999998 0.037556086 0.14741376 -0.38593423 -0.23852047
0.015778294 0.079999998 0.037370179 0.14741376 -0.38593423 -0.23852047
0.034317739 0.017159209 2.7755576e-17 0.14741376 -0.38593423 -0.23852047
0.03502696 0.01743062 0 0.14741376 -0.38593423 -0.23852047
0.035736356 0.017702112 2.7755576e-17 0.14741376 -0.38593423 -0.23852047
0.01940511 0.079999998 0.036628515 0.14741376 -0.38593423 -0.23852047
0.037155706 0.018245334 0 0.14741376 -0.38593423 -0.23852047
0.037865665 0.01851707 0 0.14741376 -0.38593423 -0.23852047
0.038575813 0.018788889 0 0.14741376 -0.38593423 -0.23852047
0.039286163 0.019060792 0 0.14741376 -0.38593423 -0.23852047
0.039996713 0.019332785 0 0.14741376 -0.38593423 -0.23852047
0.039999999 0.022293607 0.0015814009 0.14741376 -0.38593423 -0.23852047
0.039999999 0.025307599 0.0031918802 0.14741376 -0.38593423 -0.23852047
0.026612274 0.079999998 0.035154387 0.14741376 -0.38593423 -0.23852047
0.039999999 0.031461366 0.0064800302 0.14741376 -0.38593423 -0.23852047
0.039999999 0.034602933 0.0081586596 0.14741376 -0.38593423 -0.23852047
0.039999999 0.037788857 0.0098609859 0.14741376 -0.38593423 -0.23852047
0.039999999 0.041020107 0.011587524 0.14741376 -0.38593423 -0.23852047
0.039999999 0.044297669 0.013338801 0.14741376 -0.38593423 -0.23852047
0.039999999 0.047622561 0.015115364 0.14741376 -0.38593423 -0.23852047
0.039999999 0.050995838 0.016917773 0.14741376 -0.38593423 -0.23852047
0.033760011 0.079999998 0.033692025 0.14741376 -0.38593423 -0.23852047
0.039999999 0.05789189 0.020602454 0.14741376 -0.38593423 -0.23852047
0.039999999 0.061416924 0.022485932 0.14741376 -0.38593423 -0.23852047
0.036425695 0.079999998 0.033146549 0.14741376 -0.38593423 -0.23852047
0.039999999 0.068626925 0.026338326 0.14741376 -0.38593423 -0.23852047
0.039999999 0.072314367 0.028308561 0.14741376 -0.38593423 -0.23852047
0.039999999 0.076058477 0.030309072 0.14741376 -0.38593423 -0.23852047
0.039999999 0.07986059 0.032340568 0.14741376 -0.38593423 -0.23852047
0.00058391038 0.0058921189 0 0.14741376 -0.38593423 -0.23852047
0.0012906572 0.0061621284 0 0.14741376 -0.38593423 -0.23852047
0.0019974152 0.006432157 0 0.14741376 -0.38593423 -0.23852047
0.002704188 0.0067022047 2.7755576e-17 0.14741376 -0.38593423 -0.23852047
0.0034109789 0.0069722738 2.7755576e-17 0.14741376 -0.38593423 -0.23852047
0.004117792 0.0072423653 2.7755576e-17 0.14741376 -0.38593423 -0.23852047
0.00482463 0.0075124805 2.7755576e-17 0.14741376 -0.38593423 -0.23852047
0.0055314973 0.0077826213 0 0.14741376 -0.38593423 -0.23852047
0.0062383967 0.0080527877 2.7755576e-17 0.14741376 -0.38593423 -0.23852047
0.0069453325 0.008322983 0 0.14741376 -0.38593423 -0.23852047
0.0076523079 0.0085932072 2.7755576e-17 0.14741376 -0.38593423 -0.23852047
0.008359326 0.0088634621 0 0.14741376 -0.38593423 -0.23852047
0.0090663908 0.0091337487 2.7755576e-17 0.14741376 -0.38593423 -0.23852047
0 0.037476096 0.016936768 0.14741376 -0.38593423 -0.23852047
0.010480675 0.0096744234 0 0.14741376 -0.38593423 -0.23852047
0.011187901 0.0099448143 0 0.14741376 -0.38593423 -0.23852047
0.011895187 0.010215242 2.7755576e-17 0.14741376 -0.38593423 -0.23852047
0.012602539 0.010485709 0 0.14741376 -0.38593423 -0.23852047
0.013309957 0.010756216 0 0.14741376 -0.38593423 -0.23852047
0.014017448 0.011026764 0 0.14741376 -0.38593423 -0.23852047
0.014725014 0.011297355 0 0.14741376 -0.38593423 -0.23852047
0 0.058048245 0.027890392 0.14741376 -0.38593423 -0.23852047
0.016140385 0.011838672 0 0.14741376 -0.38593423 -0.23852047
0.016848195 0.012109399 0 0.14741376 -0.38593423 -0.23852047
2.7755576e-17 0.06623026 0.032246757 0.14741376 -0.38593423 -0.23852047
2.7755576e-17 0.069018133 0.033731092 0.14741376 -0.38593423 -0.23852047
0.018972181 0.012921878 0 0.14741376 -0.38593423 -0.23852047
2.7755576e-17 0.074687831 0.036749758 0.14741376 -0.38593423 -0.23852047
0.020388665 0.01346379 2.7755576e-17 0.14741376 -0.38593423 -0.23852047
0.021097066 0.013734828 2.7755576e-17 0.14741376 -0.38593423 -0.23852047
0.0010789859 0.079999998 0.039358236 0.14741376 -0.38593423 -0.23852047
0.022514204 0.014277074 0 0.14741376 -0.38593423 -0.23852047
0.023222947 0.014548286 2.7755576e-17 0.14741376 -0.38593423 -0.23852047
0.023931812 0.014819558 0 0.14741376 -0.38593423 -0.23852047
0.024640802 0.015090892 0 0.14741376 -0.38593423 -0.23852047
0.025349921 0.01536229 2.7755576e-17 0.14741376 -0.38593423 -0.23852047
0.026059171 0.015633751 0 0.14741376 -0.38593423 -0.23852047
0.026768558 0.01590528 0 0.14741376 -0.38593423 -0.23852047
0.0084418766 0.079999998 0.037857998 0.14741376 -0.38593423 -0.23852047
0.028187752 0.016448541 0 0.14741376 -0.38593423 -0.23852047
0.028897567 0.016720274 2.7755576e-17 0.14741376 -0.38593423 -0.23852047
0.029607531 0.016992081 0 0.14741376 -0.38593423 -0.23852047
0.030317651 0.01726396 2.7755576e-17 0.14741376 -0.38593423 -0.23852047
0.031027926 0.017535916 0 0.14741376 -0.38593423 -0.23852047
0.031738363 0.017807944 0 0.14741376 -0.38593423 -0.23852047
0.014829256 0.079999998 0.036556073 0.14741376 -0.38593423 -0.23852047
0.033159737 0.018352237 2.7755576e-17 0.14741376 -0.38593423 -0.23852047
0.033870678 0.018624501 0 0.14741376 -0.38593423 -0.23852047
0.034581795 0.018896848 2.7755576e-17 0.14741376 -0.38593423 -0.23852047
0.035293091 0.019169278 0 0.14741376 -0.38593423 -0.23852047
0.036004569 0.019441791 2.7755576e-17 0.14741376 -0.38593423 -0.23852047
0.036716234 0.019714391 0 0.14741376 -0.38593423 -0.23852047
0.037428088 0.019987077 0 0.14741376 -0.38593423 -0.23852047
0.038140137 0.020259852 0 0.14741376 -0.38593423 -0.23852047
0.038852382 0.020532716 0 0.14741376 -0.38593423 -0.23852047
0.039564829 0.02080567 0 0.14741376 -0.38593423 -0.23852047
0.024767883 0.079999998 0.034529448 0.14741376 -0.38593423 -0.23852047
0.039999999 0.025141928 0.0022195915 0.14741376 -0.38593423 -0.23852047
0.039999999 0.02819249 0.0038435082 0.14741376 -0.38593423 -0.23852047
0.039999999 0.03442169 0.0071594976 0.14741376 -0.38593423 -0.23852047
0.039999999 0.037602164 0.008852547 0.14741376 -0.38593423 -0.23852047
0.039999999 0.040827826 0.010569642 0.14741376 -0.38593423 -0.23852047
0.039999999 0.044099655 0.012311307 0.14741376 -0.38593423 -0.23852047
0.039999999 0.047418669 0.014078082 0.14741376 -0.38593423 -0.23852047
0.032814633 0.079999998 0.032887828 0.14741376 -0.38593423 -0.23852047
0.039999999 0.054202467 0.0176892 0.14741376 -0.38593423 -0.23852047
0.035480715 0.079999998 0.032343764 0.14741376 -0.38593423 -0.23852047
0.039999999 0.06475921 0.023308655 0.14741376 -0.38593423 -0.23852047
0.039999999 0.068384416 0.025238365 0.14741376 -0.38593423 -0.23852047
0.039999999 0.075801685 0.02918659 0.14741376 -0.38593423 -0.23852047
0.039999999 0.079596378 0.031206494 0.14741376 -0.38593423 -0.23852047
4.4102646e-05 0.007325795 0 0.14741376 -0.38593423 -0.23852047
0 0.0096165026 0.0012242931 0.14741376 -0.38593423 -0.23852047
0.001461489 0.007867353 2.7755576e-17 0.14741376 -0.38593423 -0.23852047
0.0021702007 0.0081381658 0 0.14741376 -0.38593423 -0.23852047
0.0028789295 0.0084090037 0 0.14741376 -0.38593423 -0.23852047
0 0.018523345 0.0059497887 0.14741376 -0.38593423 -0.23852047
0.0042964523 0.0089507606 0 0.14741376 -0.38593423 -0.23852047
0.0050052535 0.0092216805 0 0.14741376 -0.38593423 -0.23852047
0.0057140864 0.009492632 2.7755576e-17 0.14741376 -0.38593423 -0.23852047
0 0.02778996 0.010865998 0.14741376 -0.38593423 -0.23852047
0.0071318601 0.010034629 0 0.14741376 -0.38593423 -0.23852047
0.0078408075 0.010305679 2.7755576e-17 0.14741376 -0.38593423 -0.23852047
0.008549802 0.010576765 0 0.14741376 -0.38593423 -0.23852047
0.009258844 0.010847887 0 0.14741376 -0.38593423 -0.23852047
0 0.039914418 0.017298143 0.14741376 -0.38593423 -0.23852047
0 0.042415354 0.018624885 0.14741376 -0.38593423 -0.23852047
0.011386303 0.011661491 0 0.14741376 -0.38593423 -0.23852047
0.012095579 0.011932775 2.7755576e-17 0.14741376 -0.38593423 -0.23852047
0.012804921 0.012204104 0 0.14741376 -0.38593423 -0.23852047
0.013514333 0.012475478 0 0.14741376 -0.38593423 -0.23852047
0.014223821 0.012746898 2.7755576e-17 0.14741376 -0.38593423 -0.23852047
0.014933385 0.013018366 0 0.14741376 -0.38593423 -0.23852047
0.015643032 0.013289884 0 0.14741376 -0.38593423 -0.23852047
0 0.063407384 0.029760711 0.14741376 -0.38593423 -0.23852047
0.017062582 0.013833073 2.7755576e-17 0.14741376 -0.38593423 -0.23852047
0.017772494 0.014104747 0 0.14741376 -0.38593423 -0.23852047
2.7755576e-17 0.071761653 0.034192286 0.14741376 -0.38593423 -0.23852047
0.019192608 0.014648261 0 0.14741376 -0.38593423 -0.23852047
0.019902816 0.014920104 0 0.14741376 -0.38593423 -0.23852047
0.020613132 0.015192007 0 0.14741376 -0.38593423 -0.23852047
0.001051018 0.079999998 0.038348861 0.14741376 -0.38593423 -0.23852047
0.022034097 0.015735993 2.7755576e-17 0.14741376 -0.38593423 -0.23852047
0.022744754 0.016008081 0 0.14741376 -0.38593423 -0.23852047
0.023455532 0.016280232 0 0.14741376 -0.38593423 -0.23852047
0.0047378642 0.079999998 0.0376001 0.14741376 -0.38593423 -0.23852047
0.0056568803 0.079999998 0.037413426 0.14741376 -0.38593423 -0.23852047
0.025588628 0.017097089 0 0.14741376 -0.38593423 -0.23852047
0.0074917218 0.079999998 0.037040699 0.14741376 -0.38593423 -0.23852047
0.027011361 0.01764201 0 0.14741376 -0.38593423 -0.23852047
0.0093223518 0.079999998 0.036668781 0.14741376 -0.38593423 -0.23852047
0.028434664 0.018187221 2.7755576e-17 0.14741376 -0.38593423 -0.23852047
0.029146539 0.01845994 2.7755576e-17 0.14741376 -0.38593423 -0.23852047
0.029858567 0.018732736 0 0.14741376 -0.38593423 -0.23852047
0.031283099 0.019278564 0 0.14741376 -0.38593423 -0.23852047
0.031995609 0.019551599 0 0.14741376 -0.38593423 -0.23852047
0.016603759 0.079999998 0.035189018 0.14741376 -0.38593423 -0.23852047
0.034134161 0.020371206 0 0.14741376 -0.38593423 -0.23852047
0.034847364 0.020644581 0 0.14741376 -0.38593423 -0.23852047
0.019317767 0.079999998 0.03463728 0.14741376 -0.38593423 -0.23852047
0.036274321 0.021191595 0 0.14741376 -0.38593423 -0.23852047
0.036988087 0.021465238 0 0.14741376 -0.38593423 -0.23852047
0.022922853 0.079999998 0.033904236 0.14741376 -0.38593423 -0.23852047
0.03913055 0.02228673 0 0.14741376 -0.38593423 -0.23852047
0.039845109 0.022560753 0 0.14741376 -0.38593423 -0.23852047
0.039999999 0.024976674 0.0012497607 0.14741376 -0.38593423 -0.23852047
0.039999999 0.028022191 0.0028649145 0.14741376 -0.38593423 -0.23852047
0.039999999 0.03110997 0.0045024729 0.14741376 -0.38593423 -0.23852047
0.039999999 0.034240916 0.0061629144 0.14741376 -0.38593423 -0.23852047
0.039999999 0.037415955 0.0078467298 0.14741376 -0.38593423 -0.23852047
0.030087844 0.079999998 0.032446805 0.14741376 -0.38593423 -0.23852047
0.039999999 0.043902162 0.011286521 0.14741376 -0.38593423 -0.23852047
0.039999999 0.047215316 0.013043553 0.14741376 -0.38593423 -0.23852047
0.039999999 0.050576556 0.014826072 0.14741376 -0.38593423 -0.23852047
0.039999999 0.053986944 0.016634647 0.14741376 -0.38593423 -0.23852047
0.039999999 0.057447586 0.018469861 0.14741376 -0.38593423 -0.23852047
0.039999999 0.060959619 0.020332318 0.14741376 -0.38593423 -0.23852047
0.039999999 0.064524211 0.022222638 0.14741376 -0.38593423 -0.23852047
0.039999999 0.068142578 0.024141461 0.14741376 -0.38593423 -0.23852047
0.039999999 0.071815953 0.026089445 0.14741376 -0.38593423 -0.23852047
0.039999999 0.075545616 0.028067272 0.14741376 -0.38593423 -0.23852047
0.039845992 0.079999998 0.030460751 0.14741376 -0.38593423 -0.23852047
0.00021194112 0.0090389531 0 0.14741376 -0.38593423 -0.23852047
0 0.01179973 0.0015021835 0.14741376 -0.38593423 -0.23852047
0 0.014013258 0.0026722632 0.14741376 -0.38593423 -0.23852047
0 0.016248547 0.0038538331 0.14741376 -0.38593423 -0.23852047
0.0030546251 0.010125346 2.7755576e-17 0.14741376 -0.38593423 -0.23852047
0.0037653446 0.010397018 2.7755576e-17 0.14741376 -0.38593423 -0.23852047
0.0044760909 0.010668724 2.7755576e-17 0.14741376 -0.38593423 -0.23852047
0.005186867 0.010940463 0 0.14741376 -0.38593423 -0.23852047
0.005897677 0.011212237 2.7755576e-17 0.14741376 -0.38593423 -0.23852047
0.0066085248 0.011484049 2.7755576e-17 0.14741376 -0.38593423 -0.23852047
0 0.032533739 0.012461815 0.14741376 -0.38593423 -0.23852047
0.0080303466 0.012027787 0 0.14741376 -0.38593423 -0.23852047
0.0087413276 0.012299717 0 0.14741376 -0.38593423 -0.23852047
0.0094523607 0.01257169 2.7755576e-17 0.14741376 -0.38593423 -0.23852047
0 0.042373393 0.017662549 0.14741376 -0.38593423 -0.23852047
0.010874595 0.013115766 0 0.14741376 -0.38593423 -0.23852047
2.7755576e-17 0.047449108 0.020345235 0.14741376 -0.38593423 -0.23852047
0.012297081 0.013660028 0 0.14741376 -0.38593423 -0.23852047
0.013008427 0.013932232 0 0.14741376 -0.38593423 -0.23852047
0 0.055267248 0.024477284 0.14741376 -0.38593423 -0.23852047
2.7755576e-17 0.057929665 0.025884401 0.14741376 -0.38593423 -0.23852047
0.015142918 0.014749153 0 0.14741376 -0.38593423 -0.23852047
0.015854578 0.015021567 0 0.14741376 -0.38593423 -0.23852047
0.016566327 0.015294037 2.7755576e-17 0.14741376 -0.38593423 -0.23852047
0.017278166 0.015566565 2.7755576e-17 0.14741376 -0.38593423 -0.23852047
0.017990101 0.015839152 0 0.14741376 -0.38593423 -0.23852047
0.018702134 0.016111799 0 0.14741376 -0.38593423 -0.23852047
2.7755576e-17 0.077406034 0.036177494 0.14741376 -0.38593423 -0.23852047
0.02012651 0.01665728 0 0.14741376 -0.38593423 -0.23852047
0.020838862 0.016930114 0 0.14741376 -0.38593423 -0.23852047
0.022263907 0.017475985 2.7755576e-17 0.14741376 -0.38593423 -0.23852047
0.0037874675 0.079999998 0.036781639 0.14741376 -0.38593423 -0.23852047
0.0047067623 0.079999998 0.036595512 0.14741376 -0.38593423 -0.23852047
0.024402386 0.018295309 0 0.14741376 -0.38593423 -0.23852047
0.0065421476 0.079999998 0.036223866 0.14741376 -0.38593423 -0.23852047
0.025828687 0.018841887 0 0.14741376 -0.38593423 -0.23852047
0.0083733033 0.079999998 0.035853025 0.14741376 -0.38593423 -0.23852047
0.027255543 0.019388767 2.7755576e-17 0.14741376 -0.38593423 -0.23852047
0.027969189 0.019662322 0 0.14741376 -0.38593423 -0.23852047
0.028682983 0.01993596 0 0.14741376 -0.38593423 -0.23852047
0.029396931 0.020209678 0 0.14741376 -0.38593423 -0.23852047
0.030111035 0.020483477 2.7755576e-17 0.14741376 -0.38593423 -0.23852047
