# .PCD v0.7 - Point Cloud Data file format
VERSION 0.7
FIELDS x y z vp_x vp_y vp_z
SIZE 4 4 4 4 4 4
TYPE F F F F F F
COUNT 1 1 1 1 1 1
WIDTH 715
HEIGHT 1
VIEWPOINT 0 0 0 1 0 0 0
POINTS 715
DATA ascii
0.028163187 0.079999998 0.038102064 -0.14741376 -0.38593423 -0.23852047
0.0046997424 0.015546767 2.7755576e-17 -0.14741376 -0.38593423 -0.23852047
0.0054203244 0.015271485 2.7755576e-17 -0.14741376 -0.38593423 -0.23852047
0.0061409189 0.014996242 0 -0.14741376 -0.38593423 -0.23852047
0.0068615302 0.014721037 0 -0.14741376 -0.38593423 -0.23852047
0.007582162 0.014445868 0 -0.14741376 -0.38593423 -0.23852047
0.0083028171 0.014170734 0 -0.14741376 -0.38593423 -0.23852047
0.0090235006 0.013895635 0 -0.14741376 -0.38593423 -0.23852047
0.0097442148 0.013620566 2.7755576e-17 -0.14741376 -0.38593423 -0.23852047
0.010464964 0.013345528 0 -0.14741376 -0.38593423 -0.23852047
0.011185753 0.01307052 0 -0.14741376 -0.38593423 -0.23852047
0.011906585 0.01279554 0 -0.14741376 -0.38593423 -0.23852047
0.012627462 0.012520585 0 -0.14741376 -0.38593423 -0.23852047
0.039999999 0.078257054 0.039542608 -0.14741376 -0.38593423 -0.23852047
0.01406937 0.011970751 2.7755576e-17 -0.14741376 -0.38593423 -0.23852047
0.014790408 0.011695867 0 -0.14741376 -0.38593423 -0.23852047
0.015511508 0.011421004 2.7755576e-17 -0.14741376 -0.38593423 -0.23852047
0.016953904 0.010871336 2.7755576e-17 -0.14741376 -0.38593423 -0.23852047
0.039999999 0.064218916 0.032254845 -0.14741376 -0.38593423 -0.23852047
0.018396592 0.010321733 2.7755576e-17 -0.14741376 -0.38593423 -0.23852047
0.039999999 0.059700273 0.029908828 -0.14741376 -0.38593423 -0.23852047
0.019839598 0.0097721852 2.7755576e-17 -0.14741376 -0.38593423 -0.23852047
0.039999999 0.053065684 0.026464054 -0.14741376 -0.38593423 -0.23852047
0.022004768 0.0089479405 0 -0.14741376 -0.38593423 -0.23852047
0.022726685 0.0086732069 2.7755576e-17 -0.14741376 -0.38593423 -0.23852047
0.039999999 0.046597142 0.023105267 -0.14741376 -0.38593423 -0.23852047
0.024170827 0.0081237555 0 -0.14741376 -0.38593423 -0.23852047
0.039999999 0.04237384 0.020912196 -0.14741376 -0.38593423 -0.23852047
0.039999999 0.040288217 0.019829141 -0.14741376 -0.38593423 -0.23852047
0.026337871 0.0072995913 0 -0.14741376 -0.38593423 -0.23852047
0.027060455 0.0070248684 0 -0.14741376 -0.38593423 -0.23852047
0.027783165 0.0067501417 2.7755576e-17 -0.14741376 -0.38593423 -0.23852047
0.028506003 0.0064754104 0 -0.14741376 -0.38593423 -0.23852047
0.029228972 0.0062006735 0 -0.14741376 -0.38593423 -0.23852047
0.029952079 0.0059259282 0 -0.14741376 -0.38593423 -0.23852047
0.030675324 0.0056511746 0 -0.14741376 -0.38593423 -0.23852047
0.031398714 0.0053764102 0 -0.14741376 -0.38593423 -0.23852047
0.032122247 0.0051016342 0 -0.14741376 -0.38593423 -0.23852047
0.032845937 0.0048268447 0 -0.14741376 -0.38593423 -0.23852047
0.039999999 0.018425751 0.0084744692 -0.14741376 -0.38593423 -0.23852047
0.034293778 0.0042772209 0 -0.14741376 -0.38593423 -0.23852047
0.035017941 0.0040023834 2.7755576e-17 -0.14741376 -0.38593423 -0.23852047
0.039999999 0.012785786 0.0055447579 -0.14741376 -0.38593423 -0.23852047
0.036466766 0.00345265 2.7755576e-17 -0.14741376 -0.38593423 -0.23852047
0.037191439 0.0031777516 0 -0.14741376 -0.38593423 -0.23852047
0.037916288 0.0029028298 2.7755576e-17 -0.14741376 -0.38593423 -0.23852047
0.039999999 0.005465385 0.0017418122 -0.14741376 -0.38593423 -0.23852047
0.039366536 0.002352911 0 -0.14741376 -0.38593423 -0.23852047
0 0.079803258 0.031400412 -0.14741376 -0.38593423 -0.23852047
2.7755576e-17 0.076916002 0.029908473 -0.14741376 -0.38593423 -0.23852047
2.7755576e-17 0.074060932 0.02843314 -0.14741376 -0.38593423 -0.23852047
2.7755576e-17 0.071237519 0.026974134 -0.14741376 -0.38593423 -0.23852047
0 0.068445206 0.025531175 -0.14741376 -0.38593423 -0.23852047
2.7755576e-17 0.065683484 0.024103995 -0.14741376 -0.38593423 -0.23852047
0 0.06295184 0.022692328 -0.14741376 -0.38593423 -0.23852047
2.7755576e-17 0.060249757 0.021295914 -0.14741376 -0.38593423 -0.23852047
2.7755576e-17 0.057576761 0.019914504 -0.14741376 -0.38593423 -0.23852047
2.7755576e-17 0.054932363 0.018547846 -0.14741376 -0.38593423 -0.23852047
2.7755576e-17 0.052316096 0.017195702 -0.14741376 -0.38593423 -0.23852047
0 0.049727503 0.015857831 -0.14741376 -0.38593423 -0.23852047
2.7755576e-17 0.047166135 0.014534003 -0.14741376 -0.38593423 -0.23852047
2.7755576e-17 0.044631548 0.013223993 -0.14741376 -0.38593423 -0.23852047
0 0.042123318 0.011927577 -0.14741376 -0.38593423 -0.23852047
0 0.039641019 0.010644538 -0.14741376 -0.38593423 -0.23852047
2.7755576e-17 0.037184238 0.0093746651 -0.14741376 -0.38593423 -0.23852047
2.7755576e-17 0.034752578 0.0081177484 -0.14741376 -0.38593423 -0.23852047
2.7755576e-17 0.032345641 0.0068735862 -0.14741376 -0.38593423 -0.23852047
0 0.029963041 0.0056419768 -0.14741376 -0.38593423 -0.23852047
0 0.027604396 0.0044227266 -0.14741376 -0.38593423 -0.23852047
0 0.025269339 0.0032156433 -0.14741376 -0.38593423 -0.23852047
2.7755576e-17 0.022957506 0.0020205399 -0.14741376 -0.38593423 -0.23852047
2.7755576e-17 0.02066854 0.00083723268 -0.14741376 -0.38593423 -0.23852047
0.00020699667 0.018969856 0 -0.14741376 -0.38593423 -0.23852047
0.00092960615 0.018693456 0 -0.14741376 -0.38593423 -0.23852047
0.024355017 0.079999998 0.036326773 -0.14741376 -0.38593423 -0.23852047
0.025305677 0.079999998 0.036514707 -0.14741376 -0.38593423 -0.23852047
0.0030973782 0.017864568 0 -0.14741376 -0.38593423 -0.23852047
0.0038199627 0.017588371 0 -0.14741376 -0.38593423 -0.23852047
0.0045425501 0.017312221 0 -0.14741376 -0.38593423 -0.23852047
0.0052651446 0.017036118 2.7755576e-17 -0.14741376 -0.38593423 -0.23852047
0.0059877494 0.016760059 2.7755576e-17 -0.14741376 -0.38593423 -0.23852047
0.0067103687 0.016484043 2.7755576e-17 -0.14741376 -0.38593423 -0.23852047
0.0074330056 0.016208069 2.7755576e-17 -0.14741376 -0.38593423 -0.23852047
0.0081556644 0.015932135 0 -0.14741376 -0.38593423 -0.23852047
0.0096010631 0.015380382 0 -0.14741376 -0.38593423 -0.23852047
0.01032381 0.015104559 0 -0.14741376 -0.38593423 -0.23852047
0.011046593 0.014828771 0 -0.14741376 -0.38593423 -0.23852047
0.011769418 0.014553017 0 -0.14741376 -0.38593423 -0.23852047
0.012492286 0.014277294 0 -0.14741376 -0.38593423 -0.23852047
0.013215202 0.014001601 0 -0.14741376 -0.38593423 -0.23852047
0.01393817 0.013725937 0 -0.14741376 -0.38593423 -0.23852047
0.014661193 0.0134503 0 -0.14741376 -0.38593423 -0.23852047
0.015384275 0.01317469 0 -0.14741376 -0.38593423 -0.23852047
0.016107421 0.012899104 0 -0.14741376 -0.38593423 -0.23852047
0.016830634 0.012623541 0 -0.14741376 -0.38593423 -0.23852047
0.017553916 0.012348 0 -0.14741376 -0.38593423 -0.23852047
0.018277273 0.012072478 0 -0.14741376 -0.38593423 -0.23852047
0.039999999 0.061985359 0.030098109 -0.14741376 -0.38593423 -0.23852047
0.019724224 0.011521491 2.7755576e-17 -0.14741376 -0.38593423 -0.23852047
0.039999999 0.057508759 0.027782373 -0.14741376 -0.38593423 -0.23852047
0.021171518 0.010970568 0 -0.14741376 -0.38593423 -0.23852047
0.039999999 0.053107824 0.025505669 -0.14741376 -0.38593423 -0.23852047
0.022619182 0.010419698 0 -0.14741376 -0.38593423 -0.23852047
0.023343164 0.010144278 0 -0.14741376 -0.38593423 -0.23852047
0.024067249 0.0098688686 0 -0.14741376 -0.38593423 -0.23852047
0.024791444 0.0095934654 0 -0.14741376 -0.38593423 -0.23852047
0.025515748 0.0093180686 0 -0.14741376 -0.38593423 -0.23852047
0.02624017 0.0090426765 2.7755576e-17 -0.14741376 -0.38593423 -0.23852047
0.026964709 0.0087672872 0 -0.14741376 -0.38593423 -0.23852047
0.027689373 0.0084918998 2.7755576e-17 -0.14741376 -0.38593423 -0.23852047
0.028414164 0.0082165124 2.7755576e-17 -0.14741376 -0.38593423 -0.23852047
0.029139085 0.007941125 0 -0.14741376 -0.38593423 -0.23852047
0.02986414 0.0076657338 0 -0.14741376 -0.38593423 -0.23852047
0.030589335 0.0073903394 0 -0.14741376 -0.38593423 -0.23852047
0.031314671 0.0071149394 2.7755576e-17 -0.14741376 -0.38593423 -0.23852047
0.039999999 0.024261383 0.010579801 -0.14741376 -0.38593423 -0.23852047
0.039999999 0.022322943 0.0095766075 -0.14741376 -0.38593423 -0.23852047
0.033491567 0.0062886928 0 -0.14741376 -0.38593423 -0.23852047
0.034217507 0.006013257 0 -0.14741376 -0.38593423 -0.23852047
0.039999999 0.016598053 0.0066136732 -0.14741376 -0.38593423 -0.23852047
0.035669878 0.0054623461 2.7755576e-17 -0.14741376 -0.38593423 -0.23852047
0.036396313 0.0051868688 0 -0.14741376 -0.38593423 -0.23852047
0.037122924 0.0049113743 0 -0.14741376 -0.38593423 -0.23852047
0.037849709 0.0046358616 0 -0.14741376 -0.38593423 -0.23852047
0.038576674 0.0043603294 0 -0.14741376 -0.38593423 -0.23852047
0.039303821 0.0040847757 0 -0.14741376 -0.38593423 -0.23852047
2.7755576e-17 0.079718664 0.030355683 -0.14741376 -0.38593423 -0.23852047
2.7755576e-17 0.076834917 0.028871167 -0.14741376 -0.38593423 -0.23852047
2.7755576e-17 0.073983297 0.027403159 -0.14741376 -0.38593423 -0.23852047
2.7755576e-17 0.071163252 0.025951376 -0.14741376 -0.38593423 -0.23852047
2.7755576e-17 0.068374246 0.024515541 -0.14741376 -0.38593423 -0.23852047
2.7755576e-17 0.065615758 0.023095388 -0.14741376 -0.38593423 -0.23852047
0 0.062887281 0.021690654 -0.14741376 -0.38593423 -0.23852047
2.7755576e-17 0.060188308 0.020301081 -0.14741376 -0.38593423 -0.23852047
0 0.057518352 0.018926417 -0.14741376 -0.38593423 -0.23852047
0 0.054876935 0.01756642 -0.14741376 -0.38593423 -0.23852047
0 0.052263588 0.016220845 -0.14741376 -0.38593423 -0.23852047
0 0.049677856 0.01488946 -0.14741376 -0.38593423 -0.23852047
0 0.047119293 0.013572033 -0.14741376 -0.38593423 -0.23852047
0 0.044587456 0.01226834 -0.14741376 -0.38593423 -0.23852047
0 0.042081915 0.010978161 -0.14741376 -0.38593423 -0.23852047
2.7755576e-17 0.039602257 0.0097012799 -0.14741376 -0.38593423 -0.23852047
2.7755576e-17 0.03714807 0.0084374854 -0.14741376 -0.38593423 -0.23852047
2.7755576e-17 0.034718946 0.0071865707 -0.14741376 -0.38593423 -0.23852047
0 0.032314498 0.005948334 -0.14741376 -0.38593423 -0.23852047
2.7755576e-17 0.029934336 0.0047225771 -0.14741376 -0.38593423 -0.23852047
2.7755576e-17 0.027578084 0.0035091056 -0.14741376 -0.38593423 -0.23852047
0 0.025245374 0.00230773 -0.14741376 -0.38593423 -0.23852047
0 0.022935841 0.0011182639 -0.14741376 -0.38593423 -0.23852047
0.021518674 0.079999998 0.034749787 -0.14741376 -0.38593423 -0.23852047
0.00076141511 0.020473268 2.7755576e-17 -0.14741376 -0.38593423 -0.23852047
0.0014860494 0.02019606 2.7755576e-17 -0.14741376 -0.38593423 -0.23852047
0.0022106729 0.019918906 0 -0.14741376 -0.38593423 -0.23852047
0.0029352899 0.019641809 0 -0.14741376 -0.38593423 -0.23852047
0.0036599038 0.019364765 0 -0.14741376 -0.38593423 -0.23852047
0.027213823 0.079999998 0.035871662 -0.14741376 -0.38593423 -0.23852047
0.028167475 0.079999998 0.036059409 -0.14741376 -0.38593423 -0.23852047
0.0065584043 0.018257106 0 -0.14741376 -0.38593423 -0.23852047
0.0072830594 0.017980313 0 -0.14741376 -0.38593423 -0.23852047
0.0080077341 0.017703565 0 -0.14741376 -0.38593423 -0.23852047
0.0087324325 0.017426861 0 -0.14741376 -0.38593423 -0.23852047
0.009457157 0.017150199 0 -0.14741376 -0.38593423 -0.23852047
0.010181913 0.016873579 2.7755576e-17 -0.14741376 -0.38593423 -0.23852047
0.010906704 0.016596999 0 -0.14741376 -0.38593423 -0.23852047
0.036809441 0.079999998 0.037759345 -0.14741376 -0.38593423 -0.23852047
0.012356404 0.016043952 0 -0.14741376 -0.38593423 -0.23852047
0.013081321 0.015767483 2.7755576e-17 -0.14741376 -0.38593423 -0.23852047
0.013806288 0.015491048 0 -0.14741376 -0.38593423 -0.23852047
0.039999999 0.078302309 0.037511509 -0.14741376 -0.38593423 -0.23852047
0.039999999 0.075914636 0.036281139 -0.14741376 -0.38593423 -0.23852047
0.015981523 0.014661932 0 -0.14741376 -0.38593423 -0.23852047
0.016706727 0.014385618 0 -0.14741376 -0.38593423 -0.23852047
0.017431999 0.014109332 0 -0.14741376 -0.38593423 -0.23852047
0.039999999 0.066571616 0.031466361 -0.14741376 -0.38593423 -0.23852047
0.039999999 0.064286374 0.030288624 -0.14741376 -0.38593423 -0.23852047
0.019608265 0.01328062 0 -0.14741376 -0.38593423 -0.23852047
0.020333847 0.013004427 0 -0.14741376 -0.38593423 -0.23852047
0.021059519 0.012728253 0 -0.14741376 -0.38593423 -0.23852047
0.021785282 0.012452099 0 -0.14741376 -0.38593423 -0.23852047
0.039999999 0.053149901 0.024548791 -0.14741376 -0.38593423 -0.23852047
0.023237096 0.011899837 0 -0.14741376 -0.38593423 -0.23852047
0.023963155 0.011623729 2.7755576e-17 -0.14741376 -0.38593423 -0.23852047
0.02468932 0.011347633 0 -0.14741376 -0.38593423 -0.23852047
0.025415596 0.011071548 2.7755576e-17 -0.14741376 -0.38593423 -0.23852047
0.026141984 0.010795472 2.7755576e-17 -0.14741376 -0.38593423 -0.23852047
0.026868492 0.010519406 2.7755576e-17 -0.14741376 -0.38593423 -0.23852047
0.027595121 0.010243345 2.7755576e-17 -0.14741376 -0.38593423 -0.23852047
0.039999999 0.036276054 0.015850352 -0.14741376 -0.38593423 -0.23852047
0.029048758 0.0096912403 0 -0.14741376 -0.38593423 -0.23852047
0.029775774 0.0094151916 0 -0.14741376 -0.38593423 -0.23852047
0.030502928 0.0091391448 0 -0.14741376 -0.38593423 -0.23852047
0.031230222 0.0088630971 0 -0.14741376 -0.38593423 -0.23852047
0.03195766 0.0085870484 0 -0.14741376 -0.38593423 -0.23852047
0.032685246 0.008310996 0 -0.14741376 -0.38593423 -0.23852047
0.033412986 0.0080349389 0 -0.14741376 -0.38593423 -0.23852047
0.039999999 0.020464115 0.007697518 -0.14741376 -0.38593423 -0.23852047
0.034868933 0.0074828058 2.7755576e-17 -0.14741376 -0.38593423 -0.23852047
0.035597149 0.0072067264 0 -0.14741376 -0.38593423 -0.23852047
0.036325537 0.0069306367 0 -0.14741376 -0.38593423 -0.23852047
0.037054092 0.006654535 0 -0.14741376 -0.38593423 -0.23852047
0.037782822 0.0063784206 0 -0.14741376 -0.38593423 -0.23852047
0.038511734 0.0061022909 2.7755576e-17 -0.14741376 -0.38593423 -0.23852047
0.039240826 0.0058261454 2.7755576e-17 -0.14741376 -0.38593423 -0.23852047
0.039970104 0.0055499822 0 -0.14741376 -0.38593423 -0.23852047
2.7755576e-17 0.079634234 0.029313102 -0.14741376 -0.38593423 -0.23852047
2.7755576e-17 0.076753996 0.027835986 -0.14741376 -0.38593423 -0.23852047
2.7755576e-17 0.073905818 0.026375273 -0.14741376 -0.38593423 -0.23852047
2.7755576e-17 0.071089134 0.024930686 -0.14741376 -0.38593423 -0.23852047
0 0.068303429 0.023501949 -0.14741376 -0.38593423 -0.23852047
2.7755576e-17 0.065548167 0.022088798 -0.14741376 -0.38593423 -0.23852047
2.7755576e-17 0.062822849 0.02069097 -0.14741376 -0.38593423 -0.23852047
2.7755576e-17 0.060126975 0.019308213 -0.14741376 -0.38593423 -0.23852047
2.7755576e-17 0.057460055 0.017940274 -0.14741376 -0.38593423 -0.23852047
0 0.054821614 0.016586911 -0.14741376 -0.38593423 -0.23852047
0 0.05221118 0.015247884 -0.14741376 -0.38593423 -0.23852047
0 0.049628306 0.013922961 -0.14741376 -0.38593423 -0.23852047
2.7755576e-17 0.047072541 0.012611913 -0.14741376 -0.38593423 -0.23852047
0 0.044543445 0.011314516 -0.14741376 -0.38593423 -0.23852047
0 0.042040594 0.010030552 -0.14741376 -0.38593423 -0.23852047
2.7755576e-17 0.039563574 0.0087598059 -0.14741376 -0.38593423 -0.23852047
0 0.037111968 0.0075020692 -0.14741376 -0.38593423 -0.23852047
0 0.034685377 0.0062571359 -0.14741376 -0.38593423 -0.23852047
2.7755576e-17 0.03228341 0.0050248047 -0.14741376 -0.38593423 -0.23852047
0 0.029905684 0.00380488 -0.14741376 -0.38593423 -0.23852047
2.7755576e-17 0.027551821 0.0025971683 -0.14741376 -0.38593423 -0.23852047
0 0.025221452 0.0014014813 -0.14741376 -0.38593423 -0.23852047
0 0.022914216 0.00021763395 -0.14741376 -0.38593423 -0.23852047
0.021526724 0.079999998 0.033737022 -0.14741376 -0.38593423 -0.23852047
0.022471927 0.079999998 0.033922624 -0.14741376 -0.38593423 -0.23852047
0.0020456717 0.021707246 0 -0.14741376 -0.38593423 -0.23852047
0.0027723331 0.021429284 0 -0.14741376 -0.38593423 -0.23852047
0.0034989889 0.021151379 2.7755576e-17 -0.14741376 -0.38593423 -0.23852047
0.0042256429 0.020873534 0 -0.14741376 -0.38593423 -0.23852047
0.0049522994 0.020595746 0 -0.14741376 -0.38593423 -0.23852047
0.0056789615 0.020318013 0 -0.14741376 -0.38593423 -0.23852047
0.0064056334 0.020040333 0 -0.14741376 -0.38593423 -0.23852047
0.0071323193 0.019762706 0 -0.14741376 -0.38593423 -0.23852047
0.0078590214 0.019485131 0 -0.14741376 -0.38593423 -0.23852047
0.0085857455 0.019207604 0 -0.14741376 -0.38593423 -0.23852047
0.0093124947 0.018930126 0 -0.14741376 -0.38593423 -0.23852047
0.010039272 0.018652694 2.7755576e-17 -0.14741376 -0.38593423 -0.23852047
0.010766082 0.018375309 2.7755576e-17 -0.14741376 -0.38593423 -0.23852047
0.011492928 0.018097967 2.7755576e-17 -0.14741376 -0.38593423 -0.23852047
0.036803812 0.079999998 0.036732789 -0.14741376 -0.38593423 -0.23852047
0.012946744 0.017543407 0 -0.14741376 -0.38593423 -0.23852047
0.013673722 0.017266186 2.7755576e-17 -0.14741376 -0.38593423 -0.23852047
0.014400751 0.016989004 0 -0.14741376 -0.38593423 -0.23852047
0.015127836 0.016711859 2.7755576e-17 -0.14741376 -0.38593423 -0.23852047
0.015854979 0.01643475 2.7755576e-17 -0.14741376 -0.38593423 -0.23852047
0.016582185 0.016157672 0 -0.14741376 -0.38593423 -0.23852047
0.017309459 0.015880628 0 -0.14741376 -0.38593423 -0.23852047
0.018036801 0.015603614 0 -0.14741376 -0.38593423 -0.23852047
0.01876422 0.015326629 0 -0.14741376 -0.38593423 -0.23852047
0.019491715 0.015049674 0 -0.14741376 -0.38593423 -0.23852047
0.020219292 0.014772743 0 -0.14741376 -0.38593423 -0.23852047
0.020946955 0.014495838 0 -0.14741376 -0.38593423 -0.23852047
0.021674708 0.014218956 2.7755576e-17 -0.14741376 -0.38593423 -0.23852047
0.039999999 0.055379819 0.024717005 -0.14741376 -0.38593423 -0.23852047
0.023130497 0.013665258 2.7755576e-17 -0.14741376 -0.38593423 -0.23852047
0.023858542 0.013388439 0 -0.14741376 -0.38593423 -0.23852047
0.024586691 0.013111637 0 -0.14741376 -0.38593423 -0.23852047
0.025314948 0.012834852 0 -0.14741376 -0.38593423 -0.23852047
0.026043316 0.012558081 2.7755576e-17 -0.14741376 -0.38593423 -0.23852047
0.026771802 0.012281325 0 -0.14741376 -0.38593423 -0.23852047
0.027500408 0.012004579 2.7755576e-17 -0.14741376 -0.38593423 -0.23852047
0.028229138 0.011727845 0 -0.14741376 -0.38593423 -0.23852047
0.028957995 0.01145112 2.7755576e-17 -0.14741376 -0.38593423 -0.23852047
0.029686984 0.011174402 0 -0.14741376 -0.38593423 -0.23852047
0.030416107 0.010897691 0 -0.14741376 -0.38593423 -0.23852047
0.03114537 0.010620984 0 -0.14741376 -0.38593423 -0.23852047
0.039999999 0.028303327 0.01080957 -0.14741376 -0.38593423 -0.23852047
0.032604329 0.01006758 0 -0.14741376 -0.38593423 -0.23852047
0.033334032 0.0097908797 0 -0.14741376 -0.38593423 -0.23852047
0.034063891 0.0095141781 0 -0.14741376 -0.38593423 -0.23852047
0.034793906 0.0092374738 2.7755576e-17 -0.14741376 -0.38593423 -0.23852047
0.035524085 0.0089607658 0 -0.14741376 -0.38593423 -0.23852047
0.036254432 0.0086840531 0 -0.14741376 -0.38593423 -0.23852047
0.036984947 0.0084073329 0 -0.14741376 -0.38593423 -0.23852047
0.037715636 0.0081306053 0 -0.14741376 -0.38593423 -0.23852047
0.038446501 0.0078538675 0 -0.14741376 -0.38593423 -0.23852047
0.039177548 0.0075771185 0 -0.14741376 -0.38593423 -0.23852047
0.039908782 0.0073003573 0 -0.14741376 -0.38593423 -0.23852047
0 0.079549983 0.028272657 -0.14741376 -0.38593423 -0.23852047
0 0.076673247 0.026802912 -0.14741376 -0.38593423 -0.23852047
0 0.073828489 0.025349468 -0.14741376 -0.38593423 -0.23852047
0 0.071015172 0.02391205 -0.14741376 -0.38593423 -0.23852047
0 0.068232752 0.022490386 -0.14741376 -0.38593423 -0.23852047
0 0.065480717 0.021084212 -0.14741376 -0.38593423 -0.23852047
2.7755576e-17 0.06275855 0.019693267 -0.14741376 -0.38593423 -0.23852047
0 0.060065769 0.018317299 -0.14741376 -0.38593423 -0.23852047
0 0.057401873 0.016956061 -0.14741376 -0.38593423 -0.23852047
0 0.054766398 0.01560931 -0.14741376 -0.38593423 -0.23852047
0 0.052158877 0.014276808 -0.14741376 -0.38593423 -0.23852047
0 0.049578849 0.012958325 -0.14741376 -0.38593423 -0.23852047
2.7755576e-17 0.047025878 0.011653633 -0.14741376 -0.38593423 -0.23852047
2.7755576e-17 0.04449952 0.01036251 -0.14741376 -0.38593423 -0.23852047
0 0.041999351 0.0090847388 -0.14741376 -0.38593423 -0.23852047
2.7755576e-17 0.039524961 0.007820108 -0.14741376 -0.38593423 -0.23852047
2.7755576e-17 0.037075933 0.0065684072 -0.14741376 -0.38593423 -0.23852047
0 0.034651872 0.0053294348 -0.14741376 -0.38593423 -0.23852047
0 0.032252382 0.0041029896 -0.14741376 -0.38593423 -0.23852047
0 0.029877087 0.0028888772 -0.14741376 -0.38593423 -0.23852047
0 0.027525606 0.0016869059 -0.14741376 -0.38593423 -0.23852047
2.7755576e-17 0.025197573 0.00049688824 -0.14741376 -0.38593423 -0.23852047
0.00042230953 0.024063831 0 -0.14741376 -0.38593423 -0.23852047
0.0011510551 0.023784854 2.7755576e-17 -0.14741376 -0.38593423 -0.23852047
0.0018797852 0.023505943 0 -0.14741376 -0.38593423 -0.23852047
0.0026085037 0.023227099 0 -0.14741376 -0.38593423 -0.23852047
0.003337214 0.022948321 0 -0.14741376 -0.38593423 -0.23852047
0.0040659206 0.022669608 0 -0.14741376 -0.38593423 -0.23852047
0.026269129 0.079999998 0.033651944 -0.14741376 -0.38593423 -0.23852047
0.0055233366 0.022112364 0 -0.14741376 -0.38593423 -0.23852047
0.028171748 0.079999998 0.034023806 -0.14741376 -0.38593423 -0.23852047
0.0069807819 0.021555359 0 -0.14741376 -0.38593423 -0.23852047
0.0077095251 0.021276942 2.7755576e-17 -0.14741376 -0.38593423 -0.23852047
0.0084382873 0.020998579 2.7755576e-17 -0.14741376 -0.38593423 -0.23852047
0.0091670724 0.02072027 0 -0.14741376 -0.38593423 -0.23852047
0.010624724 0.020163806 2.7755576e-17 -0.14741376 -0.38593423 -0.23852047
0.011353601 0.01988565 2.7755576e-17 -0.14741376 -0.38593423 -0.23852047
0.012082514 0.01960754 2.7755576e-17 -0.14741376 -0.38593423 -0.23852047
0.012811469 0.019329477 0 -0.14741376 -0.38593423 -0.23852047
0.037763365 0.079999998 0.035896268 -0.14741376 -0.38593423 -0.23852047
0.014269521 0.018773485 0 -0.14741376 -0.38593423 -0.23852047
0.014998624 0.018495552 2.7755576e-17 -0.14741376 -0.38593423 -0.23852047
0.015727784 0.01821766 0 -0.14741376 -0.38593423 -0.23852047
0.016457006 0.017939808 0 -0.14741376 -0.38593423 -0.23852047
0.039999999 0.073600769 0.033059139 -0.14741376 -0.38593423 -0.23852047
0.039999999 0.071258634 0.031861059 -0.14741376 -0.38593423 -0.23852047
0.018645074 0.017106468 0 -0.14741376 -0.38593423 -0.23852047
0.019374575 0.016828755 0 -0.14741376 -0.38593423 -0.23852047
0.020104159 0.016551076 0 -0.14741376 -0.38593423 -0.23852047
0.020833826 0.016273426 0 -0.14741376 -0.38593423 -0.23852047
0.02156358 0.015995806 0 -0.14741376 -0.38593423 -0.23852047
0.022293426 0.015718212 2.7755576e-17 -0.14741376 -0.38593423 -0.23852047
0.023023369 0.015440645 2.7755576e-17 -0.14741376 -0.38593423 -0.23852047
0.023753408 0.015163102 2.7755576e-17 -0.14741376 -0.38593423 -0.23852047
0.024483552 0.014885582 0 -0.14741376 -0.38593423 -0.23852047
0.025213802 0.014608084 0 -0.14741376 -0.38593423 -0.23852047
0.025944164 0.014330606 2.7755576e-17 -0.14741376 -0.38593423 -0.23852047
0.039999999 0.044669636 0.018257223 -0.14741376 -0.38593423 -0.23852047
0.039999999 0.042572647 0.017184112 -0.14741376 -0.38593423 -0.23852047
0.039999999 0.040492836 0.016119756 -0.14741376 -0.38593423 -0.23852047
0.028866792 0.013220866 0 -0.14741376 -0.38593423 -0.23852047
0.039999999 0.036383856 0.014016859 -0.14741376 -0.38593423 -0.23852047
0.030328872 0.01266608 0 -0.14741376 -0.38593423 -0.23852047
0.031060116 0.012388702 0 -0.14741376 -0.38593423 -0.23852047
0.031791501 0.012111333 0 -0.14741376 -0.38593423 -0.23852047
0.032523032 0.011833971 0 -0.14741376 -0.38593423 -0.23852047
0.039999999 0.026397001 0.0089052003 -0.14741376 -0.38593423 -0.23852047
0.039999999 0.024446962 0.0079069976 -0.14741376 -0.38593423 -0.23852047
0.039999999 0.022512248 0.006916604 -0.14741376 -0.38593423 -0.23852047
0.035450686 0.010724566 0 -0.14741376 -0.38593423 -0.23852047
0.036183003 0.010447218 2.7755576e-17 -0.14741376 -0.38593423 -0.23852047
0.036915489 0.010169868 2.7755576e-17 -0.14741376 -0.38593423 -0.23852047
0.039999999 0.014922867 0.0030312296 -0.14741376 -0.38593423 -0.23852047
0.03838098 0.0096151577 0 -0.14741376 -0.38593423 -0.23852047
0.039113995 0.009337794 0 -0.14741376 -0.38593423 -0.23852047
0 0.079465896 0.027234338 -0.14741376 -0.38593423 -0.23852047
0 0.076592654 0.025771936 -0.14741376 -0.38593423 -0.23852047
0 0.073751323 0.024325736 -0.14741376 -0.38593423 -0.23852047
0.002922829 0.079999998 0.028078655 -0.14741376 -0.38593423 -0.23852047
0 0.06816221 0.021480843 -0.14741376 -0.38593423 -0.23852047
0 0.065413393 0.020081619 -0.14741376 -0.38593423 -0.23852047
0 0.062694378 0.018697532 -0.14741376 -0.38593423 -0.23852047
0 0.060004678 0.017328331 -0.14741376 -0.38593423 -0.23852047
0 0.057343807 0.015973769 -0.14741376 -0.38593423 -0.23852047
2.7755576e-17 0.054711293 0.014633606 -0.14741376 -0.38593423 -0.23852047
2.7755576e-17 0.052106671 0.013307607 -0.14741376 -0.38593423 -0.23852047
0 0.049529489 0.01199554 -0.14741376 -0.38593423 -0.23852047
0 0.046979304 0.010697182 -0.14741376 -0.38593423 -0.23852047
2.7755576e-17 0.044455677 0.009412311 -0.14741376 -0.38593423 -0.23852047
0 0.041958187 0.008140712 -0.14741376 -0.38593423 -0.23852047
0 0.039486419 0.0068821744 -0.14741376 -0.38593423 -0.23852047
2.7755576e-17 0.037039965 0.0056364904 -0.14741376 -0.38593423 -0.23852047
2.7755576e-17 0.034618426 0.004403458 -0.14741376 -0.38593423 -0.23852047
0 0.032221414 0.0031828787 -0.14741376 -0.38593423 -0.23852047
0 0.029848542 0.0019745592 -0.14741376 -0.38593423 -0.23852047
0 0.027499439 0.00077830889 -0.14741376 -0.38593423 -0.23852047
0.0002513857 0.025874805 0 -0.14741376 -0.38593423 -0.23852047
0.00098220631 0.02559492 2.7755576e-17 -0.14741376 -0.38593423 -0.23852047
0.001713009 0.025315108 0 -0.14741376 -0.38593423 -0.23852047
0.0024437974 0.02503537 0 -0.14741376 -0.38593423 -0.23852047
0.0031745753 0.024755703 0 -0.14741376 -0.38593423 -0.23852047
0.0039053468 0.024476103 0 -0.14741376 -0.38593423 -0.23852047
0.025324402 0.079999998 0.032453693 -0.14741376 -0.38593423 -0.23852047
0.0053668856 0.023917111 0 -0.14741376 -0.38593423 -0.23852047
0.0060976604 0.023637712 2.7755576e-17 -0.14741376 -0.38593423 -0.23852047
0.0068284441 0.023358377 0 -0.14741376 -0.38593423 -0.23852047
0.02912627 0.079999998 0.033194024 -0.14741376 -0.38593423 -0.23852047
0.0082900533 0.02279989 2.7755576e-17 -0.14741376 -0.38593423 -0.23852047
0.0090208873 0.022520738 2.7755576e-17 -0.14741376 -0.38593423 -0.23852047
0.01048263 0.021962602 0 -0.14741376 -0.38593423 -0.23852047
0.011213548 0.021683617 0 -0.14741376 -0.38593423 -0.23852047
0.034868035 0.079999998 0.034310941 -0.14741376 -0.38593423 -0.23852047
0.012675494 0.021125805 0 -0.14741376 -0.38593423 -0.23852047
0.036792584 0.079999998 0.034685001 -0.14741376 -0.38593423 -0.23852047
0.014137614 0.020568194 2.7755576e-17 -0.14741376 -0.38593423 -0.23852047
0.014868748 0.02028946 0 -0.14741376 -0.38593423 -0.23852047
0.015599938 0.020010773 0 -0.14741376 -0.38593423 -0.23852047
0.016331187 0.019732131 0 -0.14741376 -0.38593423 -0.23852047
0.039999999 0.075988024 0.033263545 -0.14741376 -0.38593423 -0.23852047
0.017793877 0.019174971 0 -0.14741376 -0.38593423 -0.23852047
0.018525325 0.018896453 0 -0.14741376 -0.38593423 -0.23852047
0.019256847 0.018617973 0 -0.14741376 -0.38593423 -0.23852047
0.019988447 0.01833953 0 -0.14741376 -0.38593423 -0.23852047
0.02072013 0.018061124 0 -0.14741376 -0.38593423 -0.23852047
0.021451898 0.01778275 0 -0.14741376 -0.38593423 -0.23852047
0.022183757 0.017504411 0 -0.14741376 -0.38593423 -0.23852047
0.039999999 0.05766366 0.023923945 -0.14741376 -0.38593423 -0.23852047
0.023647757 0.016947823 0 -0.14741376 -0.38593423 -0.23852047
0.024379909 0.016669571 0 -0.14741376 -0.38593423 -0.23852047
0.025112163 0.016391348 0 -0.14741376 -0.38593423 -0.23852047
0.025844529 0.016113151 0 -0.14741376 -0.38593423 -0.23852047
0.026577005 0.015834976 2.7755576e-17 -0.14741376 -0.38593423 -0.23852047
0.0273096 0.015556824 2.7755576e-17 -0.14741376 -0.38593423 -0.23852047
0.028042315 0.015278694 2.7755576e-17 -0.14741376 -0.38593423 -0.23852047
0.039999999 0.040543795 0.015195933 -0.14741376 -0.38593423 -0.23852047
0.029508123 0.014722491 0 -0.14741376 -0.38593423 -0.23852047
0.039999999 0.036437634 0.013102181 -0.14741376 -0.38593423 -0.23852047
0.030974459 0.014166353 2.7755576e-17 -0.14741376 -0.38593423 -0.23852047
0.039999999 0.032397486 0.011041944 -0.14741376 -0.38593423 -0.23852047
0.039999999 0.030401643 0.010024129 -0.14741376 -0.38593423 -0.23852047
0.039999999 0.028421687 0.0090143811 -0.14741376 -0.38593423 -0.23852047
0.033908844 0.013054234 0 -0.14741376 -0.38593423 -0.23852047
0.034642819 0.012776228 0 -0.14741376 -0.38593423 -0.23852047
0.035376955 0.012498228 2.7755576e-17 -0.14741376 -0.38593423 -0.23852047
0.036111254 0.012220233 2.7755576e-17 -0.14741376 -0.38593423 -0.23852047
0.036845721 0.011942241 0 -0.14741376 -0.38593423 -0.23852047
0.03758036 0.011664253 0 -0.14741376 -0.38593423 -0.23852047
0.039999999 0.014990531 0.0021637231 -0.14741376 -0.38593423 -0.23852047
0.039050162 0.011108275 2.7755576e-17 -0.14741376 -0.38593423 -0.23852047
0.039785337 0.010830282 2.7755576e-17 -0.14741376 -0.38593423 -0.23852047
2.7755576e-17 0.079381987 0.026198132 -0.14741376 -0.38593423 -0.23852047
0 0.076512232 0.024743047 -0.14741376 -0.38593423 -0.23852047
0 0.073674314 0.023304062 -0.14741376 -0.38593423 -0.23852047
0 0.07086768 0.021880904 -0.14741376 -0.38593423 -0.23852047
0 0.068091817 0.020473307 -0.14741376 -0.38593423 -0.23852047
0 0.065346204 0.01908101 -0.14741376 -0.38593423 -0.23852047
0 0.062630333 0.017703757 -0.14741376 -0.38593423 -0.23852047
0 0.05994371 0.016341297 -0.14741376 -0.38593423 -0.23852047
0 0.057285853 0.014993387 -0.14741376 -0.38593423 -0.23852047
0 0.054656293 0.013659789 -0.14741376 -0.38593423 -0.23852047
0 0.052054569 0.012340269 -0.14741376 -0.38593423 -0.23852047
0 0.049480222 0.011034597 -0.14741376 -0.38593423 -0.23852047
2.7755576e-17 0.046932817 0.0097425506 -0.14741376 -0.38593423 -0.23852047
0 0.044411916 0.0084639108 -0.14741376 -0.38593423 -0.23852047
0 0.041917101 0.0071984627 -0.14741376 -0.38593423 -0.23852047
0 0.039447952 0.0059459968 -0.14741376 -0.38593423 -0.23852047
2.7755576e-17 0.037004065 0.0047063087 -0.14741376 -0.38593423 -0.23852047
0 0.034585044 0.0034791962 -0.14741376 -0.38593423 -0.23852047
0 0.032190498 0.0022644633 -0.14741376 -0.38593423 -0.23852047
2.7755576e-17 0.029820049 0.0010619169 -0.14741376 -0.38593423 -0.23852047
0.018730078 0.079999998 0.030160926 -0.14741376 -0.38593423 -0.23852047
0.0015453384 0.027134854 2.7755576e-17 -0.14741376 -0.38593423 -0.23852047
0.0022782099 0.026854206 2.7755576e-17 -0.14741376 -0.38593423 -0.23852047
0.022493489 0.079999998 0.030892216 -0.14741376 -0.38593423 -0.23852047
0.0037439177 0.026293138 0 -0.14741376 -0.38593423 -0.23852047
0.024382619 0.079999998 0.031259056 -0.14741376 -0.38593423 -0.23852047
0.0052096052 0.025732363 0 -0.14741376 -0.38593423 -0.23852047
0.0059424504 0.025452083 0 -0.14741376 -0.38593423 -0.23852047
0.0066753025 0.025171872 0 -0.14741376 -0.38593423 -0.23852047
0.0074081649 0.024891729 0 -0.14741376 -0.38593423 -0.23852047
0.0081410417 0.024611652 2.7755576e-17 -0.14741376 -0.38593423 -0.23852047
0.0088739358 0.024331639 0 -0.14741376 -0.38593423 -0.23852047
0.0096068522 0.02405169 0 -0.14741376 -0.38593423 -0.23852047
0.010339795 0.023771802 2.7755576e-17 -0.14741376 -0.38593423 -0.23852047
0.011072767 0.023491975 0 -0.14741376 -0.38593423 -0.23852047
0.011805773 0.023212207 0 -0.14741376 -0.38593423 -0.23852047
0.012538815 0.022932496 0 -0.14741376 -0.38593423 -0.23852047
0.035824906 0.079999998 0.033477493 -0.14741376 -0.38593423 -0.23852047
0.014005029 0.02237324 0 -0.14741376 -0.38593423 -0.23852047
0.037750412 0.079999998 0.03385023 -0.14741376 -0.38593423 -0.23852047
0.015471439 0.021814195 0 -0.14741376 -0.38593423 -0.23852047
0.016204728 0.021534748 2.7755576e-17 -0.14741376 -0.38593423 -0.23852047
0.016938075 0.021255352 0 -0.14741376 -0.38593423 -0.23852047
0.01767149 0.020976 0 -0.14741376 -0.38593423 -0.23852047
0.018404972 0.020696694 0 -0.14741376 -0.38593423 -0.23852047
0.019138526 0.020417433 0 -0.14741376 -0.38593423 -0.23852047
0.039999999 0.068996854 0.028698783 -0.14741376 -0.38593423 -0.23852047
0.020605866 0.019859036 0 -0.14741376 -0.38593423 -0.23852047
0.039999999 0.064420648 0.026375005 -0.14741376 -0.38593423 -0.23852047
0.022073543 0.019300798 0 -0.14741376 -0.38593423 -0.23852047
0.022807518 0.019021735 2.7755576e-17 -0.14741376 -0.38593423 -0.23852047
0.039999999 0.057702232 0.02296312 -0.14741376 -0.38593423 -0.23852047
0.024275757 0.018463712 0 -0.14741376 -0.38593423 -0.23852047
0.025010029 0.018184751 0 -0.14741376 -0.38593423 -0.23852047
0.039999999 0.051152751 0.01963667 -0.14741376 -0.38593423 -0.23852047
0.026478902 0.017626919 0 -0.14741376 -0.38593423 -0.23852047
0.027213506 0.017348045 0 -0.14741376 -0.38593423 -0.23852047
0.027948232 0.017069198 0 -0.14741376 -0.38593423 -0.23852047
0.028683081 0.016790375 0 -0.14741376 -0.38593423 -0.23852047
0.029418055 0.016511576 0 -0.14741376 -0.38593423 -0.23852047
0.030153161 0.0162328 2.7755576e-17 -0.14741376 -0.38593423 -0.23852047
0.030888403 0.015954044 0 -0.14741376 -0.38593423 -0.23852047
0.031623781 0.015675306 0 -0.14741376 -0.38593423 -0.23852047
0.039999999 0.032453906 0.010137572 -0.14741376 -0.38593423 -0.23852047
0.033094972 0.015117883 0 -0.14741376 -0.38593423 -0.23852047
0.033830788 0.014839194 0 -0.14741376 -0.38593423 -0.23852047
0.034566764 0.014560519 2.7755576e-17 -0.14741376 -0.38593423 -0.23852047
0.035302892 0.014281855 0 -0.14741376 -0.38593423 -0.23852047
0.036039185 0.014003201 0 -0.14741376 -0.38593423 -0.23852047
0.039999999 0.02072084 0.0041754544 -0.14741376 -0.38593423 -0.23852047
0.037512273 0.013445919 0 -0.14741376 -0.38593423 -0.23852047
0.038249075 0.013167287 0 -0.14741376 -0.38593423 -0.23852047
0.038986057 0.012888661 0 -0.14741376 -0.38593423 -0.23852047
0.039999999 0.01319949 0.00035277542 -0.14741376 -0.38593423 -0.23852047
0 0.079298243 0.025164027 -0.14741376 -0.38593423 -0.23852047
0 0.076431967 0.023716232 -0.14741376 -0.38593423 -0.23852047
0 0.073597454 0.022284437 -0.14741376 -0.38593423 -0.23852047
0 0.070794158 0.02086837 -0.14741376 -0.38593423 -0.23852047
0 0.068021558 0.019467769 -0.14741376 -0.38593423 -0.23852047
0 0.065279149 0.018082373 -0.14741376 -0.38593423 -0.23852047
0 0.062566407 0.016711928 -0.14741376 -0.38593423 -0.23852047
0 0.059882857 0.015356187 -0.14741376 -0.38593423 -0.23852047
2.7755576e-17 0.05722801 0.014014906 -0.14741376 -0.38593423 -0.23852047
0 0.054601401 0.01268785 -0.14741376 -0.38593423 -0.23852047
2.7755576e-17 0.052002564 0.011374786 -0.14741376 -0.38593423 -0.23852047
2.7755576e-17 0.049431052 0.010075486 -0.14741376 -0.38593423 -0.23852047
0 0.046886422 0.0087897293 -0.14741376 -0.38593423 -0.23852047
0 0.044368241 0.0075172982 -0.14741376 -0.38593423 -0.23852047
0 0.041876093 0.0062579797 -0.14741376 -0.38593423 -0.23852047
0 0.039409555 0.005011566 -0.14741376 -0.38593423 -0.23852047
2.7755576e-17 0.036968231 0.0037778525 -0.14741376 -0.38593423 -0.23852047
0 0.034551725 0.0025566402 -0.14741376 -0.38593423 -0.23852047
2.7755576e-17 0.032159641 0.0013477337 -0.14741376 -0.38593423 -0.23852047
0 0.029791607 0.0001509413 -0.14741376 -0.38593423 -0.23852047
0.00064178236 0.029246951 0 -0.14741376 -0.38593423 -0.23852047
0.0013767693 0.028965292 2.7755576e-17 -0.14741376 -0.38593423 -0.23852047
0.0021117367 0.02868372 0 -0.14741376 -0.38593423 -0.23852047
0.002846689 0.02840223 0 -0.14741376 -0.38593423 -0.23852047
0.0035816294 0.028120819 0 -0.14741376 -0.38593423 -0.23852047
0.0043165623 0.027839489 0 -0.14741376 -0.38593423 -0.23852047
0.024388112 0.079999998 0.030250693 -0.14741376 -0.38593423 -0.23852047
0.025333717 0.079999998 0.030433584 -0.14741376 -0.38593423 -0.23852047
0.0065213535 0.026995959 0 -0.14741376 -0.38593423 -0.23852047
0.0072562946 0.02671493 0 -0.14741376 -0.38593423 -0.23852047
0.0079912478 0.026433975 0 -0.14741376 -0.38593423 -0.23852047
0.0087262159 0.026153088 2.7755576e-17 -0.14741376 -0.38593423 -0.23852047
0.0094612045 0.025872272 0 -0.14741376 -0.38593423 -0.23852047
0.010196216 0.025591522 0 -0.14741376 -0.38593423 -0.23852047
0.010931255 0.025310839 0 -0.14741376 -0.38593423 -0.23852047
0.011666326 0.025030218 0 -0.14741376 -0.38593423 -0.23852047
0.012401432 0.024749663 0 -0.14741376 -0.38593423 -0.23852047
0.034860309 0.079999998 0.03227371 -0.14741376 -0.38593423 -0.23852047
0.013871765 0.024188733 2.7755576e-17 -0.14741376 -0.38593423 -0.23852047
0.014606999 0.023908356 2.7755576e-17 -0.14741376 -0.38593423 -0.23852047
0.037743952 0.079999998 0.032829847 -0.14741376 -0.38593423 -0.23852047
0.016077625 0.023347773 0 -0.14741376 -0.38593423 -0.23852047
0.039673146 0.079999998 0.033201691 -0.14741376 -0.38593423 -0.23852047
0.039999999 0.078414798 0.032462854 -0.14741376 -0.38593423 -0.23852047
0.018284013 0.022507301 0 -0.14741376 -0.38593423 -0.23852047
0.019019611 0.022227244 2.7755576e-17 -0.14741376 -0.38593423 -0.23852047
0.039999999 0.071343005 0.028885605 -0.14741376 -0.38593423 -0.23852047
0.020491034 0.021667274 0 -0.14741376 -0.38593423 -0.23852047
0.021226868 0.021387357 2.7755576e-17 -0.14741376 -0.38593423 -0.23852047
0.021962786 0.021107484 0 -0.14741376 -0.38593423 -0.23852047
0.022698795 0.020827653 0 -0.14741376 -0.38593423 -0.23852047
0.023434898 0.020547863 0 -0.14741376 -0.38593423 -0.23852047
0.024171097 0.020268112 0 -0.14741376 -0.38593423 -0.23852047
0.024907399 0.019988399 0 -0.14741376 -0.38593423 -0.23852047
0.025643807 0.019708723 0 -0.14741376 -0.38593423 -0.23852047
0.026380325 0.01942908 2.7755576e-17 -0.14741376 -0.38593423 -0.23852047
0.027116954 0.019149471 0 -0.14741376 -0.38593423 -0.23852047
0.027853701 0.018869894 0 -0.14741376 -0.38593423 -0.23852047
0.028590571 0.018590348 0 -0.14741376 -0.38593423 -0.23852047
0.029327566 0.01831083 0 -0.14741376 -0.38593423 -0.23852047
0.030064689 0.01803134 0 -0.14741376 -0.38593423 -0.23852047
0.039999999 0.038586888 0.012310497 -0.14741376 -0.38593423 -0.23852047
0.03153934 0.017472437 0 -0.14741376 -0.38593423 -0.23852047
0.032276873 0.017193019 2.7755576e-17 -0.14741376 -0.38593423 -0.23852047
0.033014555 0.016913623 2.7755576e-17 -0.14741376 -0.38593423 -0.23852047
0.039999999 0.030517051 0.0082255136 -0.14741376 -0.38593423 -0.23852047
0.034490362 0.016354891 0 -0.14741376 -0.38593423 -0.23852047
0.035228502 0.016075552 0 -0.14741376 -0.38593423 -0.23852047
0.039999999 0.024631727 0.0052459245 -0.14741376 -0.38593423 -0.23852047
0.039999999 0.022700723 0.0042682276 -0.14741376 -0.38593423 -0.23852047
0.037443895 0.01523762 0 -0.14741376 -0.38593423 -0.23852047
0.038182702 0.014958333 0 -0.14741376 -0.38593423 -0.23852047
0.03892168 0.014679057 0 -0.14741376 -0.38593423 -0.23852047
0.039660845 0.014399788 0 -0.14741376 -0.38593423 -0.23852047
0 0.079214677 0.024132013 -0.14741376 -0.38593423 -0.23852047
0 0.076351866 0.022691481 -0.14741376 -0.38593423 -0.23852047
0 0.07352075 0.02126685 -0.14741376 -0.38593423 -0.23852047
0 0.070720784 0.01985785 -0.14741376 -0.38593423 -0.23852047
0 0.067951441 0.018464217 -0.14741376 -0.38593423 -0.23852047
2.7755576e-17 0.06521222 0.017085698 -0.14741376 -0.38593423 -0.23852047
2.7755576e-17 0.062502608 0.015722036 -0.14741376 -0.38593423 -0.23852047
0 0.059822123 0.01437299 -0.14741376 -0.38593423 -0.23852047
0 0.057170283 0.013038315 -0.14741376 -0.38593423 -0.23852047
0 0.054546613 0.011717777 -0.14741376 -0.38593423 -0.23852047
2.7755576e-17 0.05195066 0.010411146 -0.14741376 -0.38593423 -0.23852047
0 0.049381971 0.0091181966 -0.14741376 -0.38593423 -0.23852047
2.7755576e-17 0.046840113 0.0078387083 -0.14741376 -0.38593423 -0.23852047
2.7755576e-17 0.044324648 0.006572464 -0.14741376 -0.38593423 -0.23852047
0 0.041835155 0.0053192545 -0.14741376 -0.38593423 -0.23852047
0 0.03937123 0.0040788716 -0.14741376 -0.38593423 -0.23852047
2.7755576e-17 0.036932465 0.002851113 -0.14741376 -0.38593423 -0.23852047
0 0.034518465 0.0016357808 -0.14741376 -0.38593423 -0.23852047
0 0.032128841 0.00043268094 -0.14741376 -0.38593423 -0.23852047
0.00047019764 0.031089146 0 -0.14741376 -0.38593423 -0.23852047
0.0012072966 0.030806543 0 -0.14741376 -0.38593423 -0.23852047
0.0019443737 0.030524028 2.7755576e-17 -0.14741376 -0.38593423 -0.23852047
0.0026814328 0.030241603 2.7755576e-17 -0.14741376 -0.38593423 -0.23852047
0.0034184775 0.029959265 0 -0.14741376 -0.38593423 -0.23852047
0.004155512 0.029677013 2.7755576e-17 -0.14741376 -0.38593423 -0.23852047
0.0048925402 0.029394843 2.7755576e-17 -0.14741376 -0.38593423 -0.23852047
0.005629566 0.029112754 0 -0.14741376 -0.38593423 -0.23852047
0.0063665938 0.028830748 0 -0.14741376 -0.38593423 -0.23852047
0.026284391 0.079999998 0.02960835 -0.14741376 -0.38593423 -0.23852047
0.0078406688 0.02826697 0 -0.14741376 -0.38593423 -0.23852047
0.0085777249 0.027985197 2.7755576e-17 -0.14741376 -0.38593423 -0.23852047
0.0093147978 0.027703498 0 -0.14741376 -0.38593423 -0.23852047
0.010051891 0.027421871 0 -0.14741376 -0.38593423 -0.23852047
0.031033657 0.079999998 0.030522617 -0.14741376 -0.38593423 -0.23852047
0.011526159 0.026858833 0 -0.14741376 -0.38593423 -0.23852047
0.01226334 0.026577417 2.7755576e-17 -0.14741376 -0.38593423 -0.23852047
0.013000558 0.026296068 0 -0.14741376 -0.38593423 -0.23852047
0.034856457 0.079999998 0.0312577 -0.14741376 -0.38593423 -0.23852047
0.035815466 0.079999998 0.03144199 -0.14741376 -0.38593423 -0.23852047
0.015949879 0.025171315 0 -0.14741376 -0.38593423 -0.23852047
0.016687339 0.024890279 2.7755576e-17 -0.14741376 -0.38593423 -0.23852047
0.017424861 0.024609303 0 -0.14741376 -0.38593423 -0.23852047
0.018162448 0.024328381 0 -0.14741376 -0.38593423 -0.23852047
0.018900104 0.024047516 0 -0.14741376 -0.38593423 -0.23852047
0.019637831 0.023766704 0 -0.14741376 -0.38593423 -0.23852047
0.039999999 0.071371041 0.027896954 -0.14741376 -0.38593423 -0.23852047
0.021113517 0.023205236 0 -0.14741376 -0.38593423 -0.23852047
0.021851484 0.022924576 0 -0.14741376 -0.38593423 -0.23852047
0.039999999 0.064487472 0.024427472 -0.14741376 -0.38593423 -0.23852047
0.023327688 0.0223634 2.7755576e-17 -0.14741376 -0.38593423 -0.23852047
0.02406593 0.022082878 0 -0.14741376 -0.38593423 -0.23852047
0.024804274 0.021802401 0 -0.14741376 -0.38593423 -0.23852047
0.025542721 0.021521965 2.7755576e-17 -0.14741376 -0.38593423 -0.23852047
0.026281277 0.02124157 2.7755576e-17 -0.14741376 -0.38593423 -0.23852047
0.027019942 0.020961214 2.7755576e-17 -0.14741376 -0.38593423 -0.23852047
0.027758725 0.020680893 2.7755576e-17 -0.14741376 -0.38593423 -0.23852047
0.039999999 0.046969753 0.015596212 -0.14741376 -0.38593423 -0.23852047
0.039999999 0.04486135 0.014533103 -0.14741376 -0.38593423 -0.23852047
0.039999999 0.042770248 0.01347867 -0.14741376 -0.38593423 -0.23852047
0.039999999 0.040696215 0.012432803 -0.14741376 -0.38593423 -0.23852047
0.031454511 0.019279804 0 -0.14741376 -0.38593423 -0.23852047
0.032194071 0.018999677 0 -0.14741376 -0.38593423 -0.23852047
0.039999999 0.034574386 0.00934551 -0.14741376 -0.38593423 -0.23852047
0.039999999 0.032566499 0.0083328299 -0.14741376 -0.38593423 -0.23852047
0.034413625 0.018159453 2.7755576e-17 -0.14741376 -0.38593423 -0.23852047
0.03515378 0.017879425 0 -0.14741376 -0.38593423 -0.23852047
0.035894096 0.017599417 2.7755576e-17 -0.14741376 -0.38593423 -0.23852047
0.036634576 0.01731943 0 -0.14741376 -0.38593423 -0.23852047
0.037375223 0.017039459 0 -0.14741376 -0.38593423 -0.23852047
0.038116042 0.016759507 2.7755576e-17 -0.14741376 -0.38593423 -0.23852047
0.038857035 0.016479569 0 -0.14741376 -0.38593423 -0.23852047
0.039999999 0.017063616 0.00051245408 -0.14741376 -0.38593423 -0.23852047
0 0.079131275 0.023102079 -0.14741376 -0.38593423 -0.23852047
0 0.076271921 0.021668782 -0.14741376 -0.38593423 -0.23852047
0 0.073444195 0.020251287 -0.14741376 -0.38593423 -0.23852047
0 0.070647553 0.018849328 -0.14741376 -0.38593423 -0.23852047
0 0.067881465 0.017462641 -0.14741376 -0.38593423 -0.23852047
2.7755576e-17 0.065145425 0.016090972 -0.14741376 -0.38593423 -0.23852047
0 0.062438939 0.014734072 -0.14741376 -0.38593423 -0.23852047
0 0.059761509 0.013391695 -0.14741376 -0.38593423 -0.23852047
2.7755576e-17 0.057112664 0.012063602 -0.14741376 -0.38593423 -0.23852047
2.7755576e-17 0.05449193 0.010749561 -0.14741376 -0.38593423 -0.23852047
2.7755576e-17 0.051898852 0.0094493404 -0.14741376 -0.38593423 -0.23852047
0 0.049332988 0.0081627192 -0.14741376 -0.38593423 -0.23852047
0 0.046793889 0.0068894764 -0.14741376 -0.38593423 -0.23852047
0 0.044281133 0.0056293993 -0.14741376 -0.38593423 -0.23852047
2.7755576e-17 0.0417943 0.0043822769 -0.14741376 -0.38593423 -0.23852047
0 0.039332978 0.0031479043 -0.14741376 -0.38593423 -0.23852047
2.7755576e-17 0.036896765 0.0019260806 -0.14741376 -0.38593423 -0.23852047
2.7755576e-17 0.034485266 0.00071660866 -0.14741376 -0.38593423 -0.23852047
0.00029769138 0.032942284 0 -0.14741376 -0.38593423 -0.23852047
0.001036916 0.032658719 2.7755576e-17 -0.14741376 -0.38593423 -0.23852047
0.001776116 0.03237525 0 -0.14741376 -0.38593423 -0.23852047
0.0025152953 0.032091875 0 -0.14741376 -0.38593423 -0.23852047
0.0039936076 0.0315254 0 -0.14741376 -0.38593423 -0.23852047
0.004732748 0.031242298 2.7755576e-17 -0.14741376 -0.38593423 -0.23852047
0.0054718843 0.030959284 0 -0.14741376 -0.38593423 -0.23852047
0.0062110191 0.030676357 2.7755576e-17 -0.14741376 -0.38593423 -0.23852047
0.0069501568 0.030393515 0 -0.14741376 -0.38593423 -0.23852047
0.0076893019 0.030110756 0 -0.14741376 -0.38593423 -0.23852047
0.0084284572 0.029828079 0 -0.14741376 -0.38593423 -0.23852047
0.028182367 0.079999998 0.028965157 -0.14741376 -0.38593423 -0.23852047
0.02913137 0.079999998 0.029147165 -0.14741376 -0.38593423 -0.23852047
0.01064603 0.028980525 2.7755576e-17 -0.14741376 -0.38593423 -0.23852047
0.011385269 0.028698161 2.7755576e-17 -0.14741376 -0.38593423 -0.23852047
0.012124538 0.028415872 0 -0.14741376 -0.38593423 -0.23852047
0.012863843 0.028133655 0 -0.14741376 -0.38593423 -0.23852047
0.013603186 0.027851509 2.7755576e-17 -0.14741376 -0.38593423 -0.23852047
0.014342572 0.027569434 0 -0.14741376 -0.38593423 -0.23852047
0.015082004 0.027287425 0 -0.14741376 -0.38593423 -0.23852047
0.015821485 0.027005486 2.7755576e-17 -0.14741376 -0.38593423 -0.23852047
0.016561022 0.02672361 0 -0.14741376 -0.38593423 -0.23852047
0.017300617 0.026441799 2.7755576e-17 -0.14741376 -0.38593423 -0.23852047
0.039656777 0.079999998 0.031162601 -0.14741376 -0.38593423 -0.23852047
0.018779999 0.025878362 0 -0.14741376 -0.38593423 -0.23852047
0.019519793 0.025596734 0 -0.14741376 -0.38593423 -0.23852047
0.020259662 0.025315162 0 -0.14741376 -0.38593423 -0.23852047
0.020999609 0.025033647 0 -0.14741376 -0.38593423 -0.23852047
0.039999999 0.069086403 0.02574864 -0.14741376 -0.38593423 -0.23852047
0.022479752 0.024470782 0 -0.14741376 -0.38593423 -0.23852047
0.023219956 0.024189427 0 -0.14741376 -0.38593423 -0.23852047
0.023960255 0.023908123 2.7755576e-17 -0.14741376 -0.38593423 -0.23852047
0.024700653 0.023626868 0 -0.14741376 -0.38593423 -0.23852047
0.025441151 0.023345659 0 -0.14741376 -0.38593423 -0.23852047
0.039999999 0.055620886 0.018986283 -0.14741376 -0.38593423 -0.23852047
0.026922472 0.022783378 0 -0.14741376 -0.38593423 -0.23852047
0.0276633 0.022502303 0 -0.14741376 -0.38593423 -0.23852047
0.028404247 0.022221271 0 -0.14741376 -0.38593423 -0.23852047
0.039999999 0.04701601 0.014664009 -0.14741376 -0.38593423 -0.23852047
0.029886512 0.02165932 0 -0.14741376 -0.38593423 -0.23852047
0.039999999 0.042819463 0.012555789 -0.14741376 -0.38593423 -0.23852047
0.031369295 0.021097519 0 -0.14741376 -0.38593423 -0.23852047
0.039999999 0.038691103 0.010481645 -0.14741376 -0.38593423 -0.23852047
0.039999999 0.036651958 0.0094570816 -0.14741376 -0.38593423 -0.23852047
0.039999999 0.034629215 0.0084407162 -0.14741376 -0.38593423 -0.23852047
