# .PCD v0.7 - Point Cloud Data file format
VERSION 0.7
FIELDS x y z vp_x vp_y vp_z
SIZE 4 4 4 4 4 4
TYPE F F F F F F
COUNT 1 1 1 1 1 1
WIDTH 746
HEIGHT 1
VIEWPOINT 0 0 0 1 0 0 0
POINTS 746
DATA ascii
0.039999999 0.019693214 0.018994337 -0.38593423 0.23852047 -0.14741376
0 0.039432082 0.0035142666 -0.38593423 0.23852047 -0.14741376
0 0.038619205 0.0036620654 -0.38593423 0.23852047 -0.14741376
0.039999999 0.017001823 0.019483691 -0.38593423 0.23852047 -0.14741376
0 0.036989179 0.0039585158 -0.38593423 0.23852047 -0.14741376
0.039999999 0.015199691 0.019811498 -0.38593423 0.23852047 -0.14741376
0.039999999 0.014296238 0.019975878 -0.38593423 0.23852047 -0.14741376
5.5511151e-17 0.034533348 0.0044053472 -0.38593423 0.23852047 -0.14741376
0 0.033711825 0.0045548719 -0.38593423 0.23852047 -0.14741376
0 0.032888833 0.0047046891 -0.38593423 0.23852047 -0.14741376
0 0.032064367 0.0048548011 -0.38593423 0.23852047 -0.14741376
5.5511151e-17 0.031238418 0.0050052088 -0.38593423 0.23852047 -0.14741376
0 0.030410973 0.0051559145 -0.38593423 0.23852047 -0.14741376
0 0.029582029 0.0053069186 -0.38593423 0.23852047 -0.14741376
0 0.028751576 0.0054582241 -0.38593423 0.23852047 -0.14741376
0 0.027919604 0.0056098318 -0.38593423 0.23852047 -0.14741376
0.039999999 0.0051720771 0.021637557 -0.38593423 0.23852047 -0.14741376
5.5511151e-17 0.026251076 0.0059139598 -0.38593423 0.23852047 -0.14741376
0 0.025414502 0.0060664834 -0.38593423 0.23852047 -0.14741376
0 0.024576377 0.0062193158 -0.38593423 0.23852047 -0.14741376
0 0.02289544 0.0065259133 -0.38593423 0.23852047 -0.14741376
0 0.022052612 0.0066796816 -0.38593423 0.23852047 -0.14741376
0.037664551 0 0.021887273 -0.38593423 0.23852047 -0.14741376
0 0.020362189 0.0069881654 -0.38593423 0.23852047 -0.14741376
0 0.019514577 0.0071428842 -0.38593423 0.23852047 -0.14741376
0.03276521 0 0.020432703 -0.38593423 0.23852047 -0.14741376
0 0.017814511 0.0074532842 -0.38593423 0.23852047 -0.14741376
5.5511151e-17 0.016962038 0.0076089692 -0.38593423 0.23852047 -0.14741376
5.5511151e-17 0.016107928 0.0077649788 -0.38593423 0.23852047 -0.14741376
0 0.014394755 0.0080779819 -0.38593423 0.23852047 -0.14741376
0 0.013535676 0.0082349777 -0.38593423 0.23852047 -0.14741376
0 0.012674921 0.008392307 -0.38593423 0.23852047 -0.14741376
0 0.011812483 0.0085499687 -0.38593423 0.23852047 -0.14741376
0 0.010948352 0.0087079676 -0.38593423 0.23852047 -0.14741376
0.017033899 0 0.015764004 -0.38593423 0.23852047 -0.14741376
0 0.0092149731 0.0090249786 -0.38593423 0.23852047 -0.14741376
0.013993254 0 0.014861937 -0.38593423 0.23852047 -0.14741376
0.012485606 0 0.014414704 -0.38593423 0.23852047 -0.14741376
0 0.0066019725 0.0095030582 -0.38593423 0.23852047 -0.14741376
0 0.0057274858 0.0096631097 -0.38593423 0.23852047 -0.14741376
0 0.0048512393 0.0098235086 -0.38593423 0.23852047 -0.14741376
0 0.0039732237 0.0099842586 -0.38593423 0.23852047 -0.14741376
5.5511151e-17 0.0030934298 0.01014536 -0.38593423 0.23852047 -0.14741376
0 0.0022118471 0.010306816 -0.38593423 0.23852047 -0.14741376
0 0.0013284658 0.010468627 -0.38593423 0.23852047 -0.14741376
0 0.00044327611 0.010630798 -0.38593423 0.23852047 -0.14741376
0.039272655 0.079999998 0.0070853052 -0.38593423 0.23852047 -0.14741376
0.037130851 0.079999998 0.0064498894 -0.38593423 0.23852047 -0.14741376
0.035007764 0.079999998 0.0058200513 -0.38593423 0.23852047 -0.14741376
0.032903139 0.079999998 0.0051957145 -0.38593423 0.23852047 -0.14741376
0.030816725 0.079999998 0.004576805 -0.38593423 0.23852047 -0.14741376
0.028748279 0.079999998 0.0039632488 -0.38593423 0.23852047 -0.14741376
0.026697559 0.079999998 0.0033549748 -0.38593423 0.23852047 -0.14741376
0.024664328 0.079999998 0.0027519118 -0.38593423 0.23852047 -0.14741376
0.022648353 0.079999998 0.0021539906 -0.38593423 0.23852047 -0.14741376
0.020649403 0.079999998 0.0015611433 -0.38593423 0.23852047 -0.14741376
0.018667258 0.079999998 0.00097330293 -0.38593423 0.23852047 -0.14741376
0.016701695 0.079999998 0.00039040358 -0.38593423 0.23852047 -0.14741376
0.015263116 0.079797983 0 -0.38593423 0.23852047 -0.14741376
0.014888167 0.079177603 0 -0.38593423 0.23852047 -0.14741376
0.014513341 0.078557551 0 -0.38593423 0.23852047 -0.14741376
0.014138635 0.077937827 0 -0.38593423 0.23852047 -0.14741376
0.013764049 0.07731843 0 -0.38593423 0.23852047 -0.14741376
0.01338958 0.076699361 0 -0.38593423 0.23852047 -0.14741376
0.013015226 0.076080613 0 -0.38593423 0.23852047 -0.14741376
0.012640987 0.075462185 0 -0.38593423 0.23852047 -0.14741376
0.012266859 0.07484407 0 -0.38593423 0.23852047 -0.14741376
0.011892842 0.074226268 0 -0.38593423 0.23852047 -0.14741376
0.011518933 0.073608771 0 -0.38593423 0.23852047 -0.14741376
0.011145131 0.072991587 0 -0.38593423 0.23852047 -0.14741376
0.010771434 0.072374701 0 -0.38593423 0.23852047 -0.14741376
0.01039784 0.071758114 0 -0.38593423 0.23852047 -0.14741376
0.010024348 0.071141832 0 -0.38593423 0.23852047 -0.14741376
0.0096509559 0.07052584 0 -0.38593423 0.23852047 -0.14741376
0.0092776613 0.069910139 0 -0.38593423 0.23852047 -0.14741376
0.0089044636 0.069294721 0 -0.38593423 0.23852047 -0.14741376
0.00853136 0.068679594 0 -0.38593423 0.23852047 -0.14741376
0.0081583485 0.068064749 0 -0.38593423 0.23852047 -0.14741376
0.0077854292 0.067450188 0 -0.38593423 0.23852047 -0.14741376
0.0074125985 0.066835895 0 -0.38593423 0.23852047 -0.14741376
0.0070398557 0.066221878 0 -0.38593423 0.23852047 -0.14741376
0.0066671986 0.065608136 0 -0.38593423 0.23852047 -0.14741376
0.0062946258 0.064994663 0 -0.38593423 0.23852047 -0.14741376
0.0059221354 0.06438145 0 -0.38593423 0.23852047 -0.14741376
0.0055497256 0.063768499 0 -0.38593423 0.23852047 -0.14741376
0.0051773945 0.063155808 0 -0.38593423 0.23852047 -0.14741376
0.0048051411 0.06254337 0 -0.38593423 0.23852047 -0.14741376
0.0044329627 0.061931189 0 -0.38593423 0.23852047 -0.14741376
0.0040608584 0.061319258 0 -0.38593423 0.23852047 -0.14741376
0.003688826 0.060707573 0 -0.38593423 0.23852047 -0.14741376
0.0033168639 0.060096134 0 -0.38593423 0.23852047 -0.14741376
0.0029449705 0.059484936 0 -0.38593423 0.23852047 -0.14741376
0.0025731439 0.058873978 0 -0.38593423 0.23852047 -0.14741376
0.0022013825 0.058263253 0 -0.38593423 0.23852047 -0.14741376
0.0018296847 0.057652764 0 -0.38593423 0.23852047 -0.14741376
0.0014580487 0.057042506 0 -0.38593423 0.23852047 -0.14741376
0.0010864728 0.056432471 0 -0.38593423 0.23852047 -0.14741376
0.00071495515 0.055822663 0 -0.38593423 0.23852047 -0.14741376
0.0003434942 0.055213079 0 -0.38593423 0.23852047 -0.14741376
0 0.054590408 1.0662111e-05 -0.38593423 0.23852047 -0.14741376
0 0.053803459 0.00015266339 -0.38593423 0.23852047 -0.14741376
0 0.053015236 0.00029491872 -0.38593423 0.23852047 -0.14741376
0 0.05222572 0.00043742941 -0.38593423 0.23852047 -0.14741376
0 0.051434916 0.00058019679 -0.38593423 0.23852047 -0.14741376
0 0.050642811 0.00072322227 -0.38593423 0.23852047 -0.14741376
0 0.049849395 0.00086650712 -0.38593423 0.23852047 -0.14741376
0 0.049054667 0.0010100527 -0.38593423 0.23852047 -0.14741376
0 0.048258618 0.0011538606 -0.38593423 0.23852047 -0.14741376
0 0.047461238 0.0012979318 -0.38593423 0.23852047 -0.14741376
0 0.046662521 0.0014422679 -0.38593423 0.23852047 -0.14741376
0 0.045862459 0.0015868704 -0.38593423 0.23852047 -0.14741376
0 0.045061048 0.0017317404 -0.38593423 0.23852047 -0.14741376
0 0.044258274 0.0018768796 -0.38593423 0.23852047 -0.14741376
0 0.043454137 0.0020222892 -0.38593423 0.23852047 -0.14741376
0 0.042648628 0.0021679709 -0.38593423 0.23852047 -0.14741376
0.039999999 0.021457046 0.017832393 -0.38593423 0.23852047 -0.14741376
0.039999999 0.02056499 0.017993778 -0.38593423 0.23852047 -0.14741376
0 0.040223774 0.0026066611 -0.38593423 0.23852047 -0.14741376
5.5511151e-17 0.039412692 0.0027534445 -0.38593423 0.23852047 -0.14741376
0 0.038600199 0.0029005071 -0.38593423 0.23852047 -0.14741376
0 0.037786286 0.0030478502 -0.38593423 0.23852047 -0.14741376
5.5511151e-17 0.036970943 0.0031954753 -0.38593423 0.23852047 -0.14741376
0 0.036154166 0.003343384 -0.38593423 0.23852047 -0.14741376
0 0.035335947 0.0034915777 -0.38593423 0.23852047 -0.14741376
5.5511151e-17 0.034516275 0.003640058 -0.38593423 0.23852047 -0.14741376
0 0.033695146 0.0037888261 -0.38593423 0.23852047 -0.14741376
0.039999999 0.011558251 0.019624665 -0.38593423 0.23852047 -0.14741376
0 0.032048475 0.0040872325 -0.38593423 0.23852047 -0.14741376
0 0.031222921 0.0042368737 -0.38593423 0.23852047 -0.14741376
5.5511151e-17 0.030395873 0.0043868092 -0.38593423 0.23852047 -0.14741376
0 0.029567327 0.0045370404 -0.38593423 0.23852047 -0.14741376
0 0.028737273 0.0046875686 -0.38593423 0.23852047 -0.14741376
5.5511151e-17 0.027905703 0.0048383959 -0.38593423 0.23852047 -0.14741376
0 0.027072608 0.004989523 -0.38593423 0.23852047 -0.14741376
0 0.026237981 0.0051409523 -0.38593423 0.23852047 -0.14741376
0 0.025401814 0.0052926852 -0.38593423 0.23852047 -0.14741376
0 0.024564095 0.0054447232 -0.38593423 0.23852047 -0.14741376
5.5511151e-17 0.02372482 0.005597068 -0.38593423 0.23852047 -0.14741376
0 0.022883978 0.0057497211 -0.38593423 0.23852047 -0.14741376
0 0.022041559 0.0059026843 -0.38593423 0.23852047 -0.14741376
0 0.021197559 0.006055959 -0.38593423 0.23852047 -0.14741376
5.5511151e-17 0.020351965 0.0062095467 -0.38593423 0.23852047 -0.14741376
0 0.019504771 0.0063634496 -0.38593423 0.23852047 -0.14741376
0 0.018655965 0.0065176687 -0.38593423 0.23852047 -0.14741376
0 0.017805541 0.0066722063 -0.38593423 0.23852047 -0.14741376
0.029530266 0 0.018629005 -0.38593423 0.23852047 -0.14741376
0 0.016099801 0.0069822432 -0.38593423 0.23852047 -0.14741376
0 0.015244468 0.0071377456 -0.38593423 0.23852047 -0.14741376
0 0.014387479 0.0072935736 -0.38593423 0.23852047 -0.14741376
0 0.013528828 0.0074497275 -0.38593423 0.23852047 -0.14741376
0.021647846 0 0.0163016 -0.38593423 0.23852047 -0.14741376
0.020098146 0 0.015844105 -0.38593423 0.23852047 -0.14741376
0 0.010942796 0.0079201683 -0.38593423 0.23852047 -0.14741376
5.5511151e-17 0.010077397 0.0080776475 -0.38593423 0.23852047 -0.14741376
0 0.0092102876 0.008235462 -0.38593423 0.23852047 -0.14741376
0 0.0083414586 0.0083936136 -0.38593423 0.23852047 -0.14741376
0 0.0074709016 0.0085521042 -0.38593423 0.23852047 -0.14741376
0 0.0065986058 0.0087109357 -0.38593423 0.23852047 -0.14741376
0 0.0057245619 0.0088701099 -0.38593423 0.23852047 -0.14741376
0 0.0048487601 0.0090296296 -0.38593423 0.23852047 -0.14741376
0 0.0039711916 0.0091894949 -0.38593423 0.23852047 -0.14741376
0 0.0030918459 0.0093497084 -0.38593423 0.23852047 -0.14741376
5.5511151e-17 0.0022107135 0.0095102722 -0.38593423 0.23852047 -0.14741376
5.5511151e-17 0.0013277841 0.009671188 -0.38593423 0.23852047 -0.14741376
0 0.00044304846 0.0098324567 -0.38593423 0.23852047 -0.14741376
0.039142534 0.079999998 0.0062504397 -0.38593423 0.23852047 -0.14741376
0.037002943 0.079999998 0.0056191739 -0.38593423 0.23852047 -0.14741376
0.034882039 0.079999998 0.0049934424 -0.38593423 0.23852047 -0.14741376
0.032779559 0.079999998 0.0043731704 -0.38593423 0.23852047 -0.14741376
0.030695263 0.079999998 0.0037582845 -0.38593423 0.23852047 -0.14741376
0.028628901 0.079999998 0.0031487113 -0.38593423 0.23852047 -0.14741376
0.026580233 0.079999998 0.00254438 -0.38593423 0.23852047 -0.14741376
0.024549022 0.079999998 0.0019452203 -0.38593423 0.23852047 -0.14741376
0.020538051 0.079999998 0.00076214236 -0.38593423 0.23852047 -0.14741376
0.018557837 0.079999998 0.00017809014 -0.38593423 0.23852047 -0.14741376
0.017692296 0.079567544 0 -0.38593423 0.23852047 -0.14741376
0.017314963 0.078944154 0 -0.38593423 0.23852047 -0.14741376
0.016937761 0.078321107 0 -0.38593423 0.23852047 -0.14741376
0.016560687 0.077698387 0 -0.38593423 0.23852047 -0.14741376
0.016183741 0.077076003 0 -0.38593423 0.23852047 -0.14741376
0.015806921 0.076453947 0 -0.38593423 0.23852047 -0.14741376
0.015430225 0.07583221 0 -0.38593423 0.23852047 -0.14741376
0.01505365 0.075210802 0 -0.38593423 0.23852047 -0.14741376
0.014677196 0.074589707 0 -0.38593423 0.23852047 -0.14741376
0.01430086 0.073968932 0 -0.38593423 0.23852047 -0.14741376
0.013924641 0.07334847 0 -0.38593423 0.23852047 -0.14741376
0.013548536 0.072728314 0 -0.38593423 0.23852047 -0.14741376
0.013172545 0.07210847 0 -0.38593423 0.23852047 -0.14741376
0.012796665 0.071488924 0 -0.38593423 0.23852047 -0.14741376
0.012420894 0.070869684 0 -0.38593423 0.23852047 -0.14741376
0.012045231 0.070250742 0 -0.38593423 0.23852047 -0.14741376
0.011669673 0.069632091 0 -0.38593423 0.23852047 -0.14741376
0.01129422 0.06901373 0 -0.38593423 0.23852047 -0.14741376
0.01091887 0.068395667 0 -0.38593423 0.23852047 -0.14741376
0.010543619 0.06777788 0 -0.38593423 0.23852047 -0.14741376
0.010168468 0.067160383 0 -0.38593423 0.23852047 -0.14741376
0.0097934129 0.066543162 0 -0.38593423 0.23852047 -0.14741376
0.009418454 0.065926217 0 -0.38593423 0.23852047 -0.14741376
0.0090435883 0.065309547 0 -0.38593423 0.23852047 -0.14741376
0.0086688148 0.064693145 0 -0.38593423 0.23852047 -0.14741376
0.0082941307 0.064077012 0 -0.38593423 0.23852047 -0.14741376
0.007919535 0.063461147 0 -0.38593423 0.23852047 -0.14741376
0.0075450265 0.062845543 0 -0.38593423 0.23852047 -0.14741376
0.0071706022 0.062230196 0 -0.38593423 0.23852047 -0.14741376
0.0067962608 0.061615109 0 -0.38593423 0.23852047 -0.14741376
0.0064220009 0.061000273 0 -0.38593423 0.23852047 -0.14741376
0.0060478202 0.060385685 0 -0.38593423 0.23852047 -0.14741376
0.0056737177 0.059771348 0 -0.38593423 0.23852047 -0.14741376
0.0052996906 0.059157252 0 -0.38593423 0.23852047 -0.14741376
0.0049257386 0.058543399 0 -0.38593423 0.23852047 -0.14741376
0.0045518586 0.057929788 0 -0.38593423 0.23852047 -0.14741376
0.0041780495 0.057316408 0 -0.38593423 0.23852047 -0.14741376
0.0038043095 0.056703262 0 -0.38593423 0.23852047 -0.14741376
0.0034306371 0.056090347 0 -0.38593423 0.23852047 -0.14741376
0.00305703 0.055477656 0 -0.38593423 0.23852047 -0.14741376
0.002683487 0.054865193 0 -0.38593423 0.23852047 -0.14741376
0.0023100062 0.054252949 0 -0.38593423 0.23852047 -0.14741376
0.0019365856 0.053640924 0 -0.38593423 0.23852047 -0.14741376
0.001563224 0.053029116 0 -0.38593423 0.23852047 -0.14741376
0.0011899193 0.052417517 0 -0.38593423 0.23852047 -0.14741376
0.00081666984 0.05180613 0 -0.38593423 0.23852047 -0.14741376
0.00044347392 0.051194951 0 -0.38593423 0.23852047 -0.14741376
7.0329887e-05 0.050583974 0 -0.38593423 0.23852047 -0.14741376
0 0.049825165 0.00011573637 -0.38593423 0.23852047 -0.14741376
0 0.049030803 0.00025858911 -0.38593423 0.23852047 -0.14741376
0 0.048235122 0.00040170082 -0.38593423 0.23852047 -0.14741376
0 0.047438111 0.00054507289 -0.38593423 0.23852047 -0.14741376
0 0.046639763 0.0006887067 -0.38593423 0.23852047 -0.14741376
0 0.045840073 0.00083260355 -0.38593423 0.23852047 -0.14741376
0 0.045039035 0.00097676495 -0.38593423 0.23852047 -0.14741376
0 0.044236638 0.0011211921 -0.38593423 0.23852047 -0.14741376
0 0.043432873 0.0012658866 -0.38593423 0.23852047 -0.14741376
0 0.042627741 0.0014108496 -0.38593423 0.23852047 -0.14741376
0 0.041821226 0.0015560829 -0.38593423 0.23852047 -0.14741376
0 0.041013323 0.0017015876 -0.38593423 0.23852047 -0.14741376
0 0.040204026 0.0018473652 -0.38593423 0.23852047 -0.14741376
0 0.039393324 0.0019934173 -0.38593423 0.23852047 -0.14741376
0 0.038581211 0.002139745 -0.38593423 0.23852047 -0.14741376
5.5511151e-17 0.037767682 0.0022863499 -0.38593423 0.23852047 -0.14741376
0 0.036952727 0.0024332337 -0.38593423 0.23852047 -0.14741376
0.039999999 0.015160313 0.018126482 -0.38593423 0.23852047 -0.14741376
0.039999999 0.014257718 0.01828921 -0.38593423 0.23852047 -0.14741376
0 0.034499224 0.0028755721 -0.38593423 0.23852047 -0.14741376
0 0.033678483 0.0030235853 -0.38593423 0.23852047 -0.14741376
0 0.032856278 0.0031718847 -0.38593423 0.23852047 -0.14741376
0 0.032032598 0.0033204718 -0.38593423 0.23852047 -0.14741376
0 0.031207439 0.0034693482 -0.38593423 0.23852047 -0.14741376
0 0.030380789 0.0036185151 -0.38593423 0.23852047 -0.14741376
0 0.02955264 0.0037679742 -0.38593423 0.23852047 -0.14741376
0 0.028722985 0.0039177272 -0.38593423 0.23852047 -0.14741376
0 0.027891817 0.0040677753 -0.38593423 0.23852047 -0.14741376
0.039999999 0.0051422967 0.019933946 -0.38593423 0.23852047 -0.14741376
0.039999999 0.0042216107 0.020100204 -0.38593423 0.23852047 -0.14741376
0.039999999 0.0032992254 0.020266792 -0.38593423 0.23852047 -0.14741376
5.5511151e-17 0.024551826 0.0046709524 -0.38593423 0.23852047 -0.14741376
5.5511151e-17 0.023712959 0.0048225005 -0.38593423 0.23852047 -0.14741376
0 0.022872526 0.0049743536 -0.38593423 0.23852047 -0.14741376
0.039273564 2.7755576e-17 0.020649366 -0.38593423 0.23852047 -0.14741376
0 0.021186931 0.0052789804 -0.38593423 0.23852047 -0.14741376
5.5511151e-17 0.020341752 0.0054317573 -0.38593423 0.23852047 -0.14741376
0 0.019494973 0.0055848458 -0.38593423 0.23852047 -0.14741376
0 0.018646585 0.0057382472 -0.38593423 0.23852047 -0.14741376
5.5511151e-17 0.017796582 0.0058919629 -0.38593423 0.23852047 -0.14741376
5.5511151e-17 0.01694495 0.0060459953 -0.38593423 0.23852047 -0.14741376
0.027920539 0 0.017313609 -0.38593423 0.23852047 -0.14741376
0 0.015236774 0.0063550151 -0.38593423 0.23852047 -0.14741376
0 0.014380211 0.0065100058 -0.38593423 0.23852047 -0.14741376
0 0.013521986 0.0066653201 -0.38593423 0.23852047 -0.14741376
0 0.012662089 0.0068209586 -0.38593423 0.23852047 -0.14741376
0 0.011800513 0.0069769239 -0.38593423 0.23852047 -0.14741376
0 0.010937246 0.0071332175 -0.38593423 0.23852047 -0.14741376
0 0.010072281 0.0072898408 -0.38593423 0.23852047 -0.14741376
5.5511151e-17 0.0092056077 0.0074467962 -0.38593423 0.23852047 -0.14741376
0.013978502 0 0.013218816 -0.38593423 0.23852047 -0.14741376
0 0.0074670976 0.0077617085 -0.38593423 0.23852047 -0.14741376
5.5511151e-17 0.0065952423 0.0079196692 -0.38593423 0.23852047 -0.14741376
0 0.0057216412 0.0080779698 -0.38593423 0.23852047 -0.14741376
0 0.0048462842 0.0082366094 -0.38593423 0.23852047 -0.14741376
0 0.0039691613 0.0083955927 -0.38593423 0.23852047 -0.14741376
0.0050657839 0 0.01060217 -0.38593423 0.23852047 -0.14741376
5.5511151e-17 0.002209581 0.008714593 -0.38593423 0.23852047 -0.14741376
0 0.0013271034 0.0088746147 -0.38593423 0.23852047 -0.14741376
5.5511151e-17 0.00044282101 0.0090349857 -0.38593423 0.23852047 -0.14741376
0.039012622 0.079999998 0.0054169088 -0.38593423 0.23852047 -0.14741376
0.039999999 0.078828461 0.0059146341 -0.38593423 0.23852047 -0.14741376
0.032656182 0.079999998 0.0035519244 -0.38593423 0.23852047 -0.14741376
0.039999999 0.076412521 0.0063437326 -0.38593423 0.23852047 -0.14741376
0.02850971 0.079999998 0.0023354483 -0.38593423 0.23852047 -0.14741376
0.026463091 0.079999998 0.0017350484 -0.38593423 0.23852047 -0.14741376
0.024433898 0.079999998 0.0011397807 -0.38593423 0.23852047 -0.14741376
0.0224219 0.079999998 0.00054957741 -0.38593423 0.23852047 -0.14741376
0.020525107 0.079961672 0 -0.38593423 0.23852047 -0.14741376
0.020145208 0.079334915 0 -0.38593423 0.23852047 -0.14741376
0.01976545 0.078708492 0 -0.38593423 0.23852047 -0.14741376
0.019385831 0.078082412 0 -0.38593423 0.23852047 -0.14741376
0.019006351 0.077456675 2.7755576e-17 -0.38593423 0.23852047 -0.14741376
0.018627005 0.076831266 0 -0.38593423 0.23852047 -0.14741376
0.018247794 0.076206192 0 -0.38593423 0.23852047 -0.14741376
0.017868714 0.075581446 0 -0.38593423 0.23852047 -0.14741376
0.017489767 0.074957028 0 -0.38593423 0.23852047 -0.14741376
0.017110946 0.074332938 0 -0.38593423 0.23852047 -0.14741376
0.016732251 0.07370916 0 -0.38593423 0.23852047 -0.14741376
0.016353682 0.073085703 0 -0.38593423 0.23852047 -0.14741376
0.015975237 0.072462551 0 -0.38593423 0.23852047 -0.14741376
0.015596911 0.07183972 0 -0.38593423 0.23852047 -0.14741376
0.015218706 0.071217187 2.7755576e-17 -0.38593423 0.23852047 -0.14741376
0.014840618 0.070594966 0 -0.38593423 0.23852047 -0.14741376
0.014462645 0.069973044 0 -0.38593423 0.23852047 -0.14741376
0.014084787 0.06935142 0 -0.38593423 0.23852047 -0.14741376
0.013707041 0.068730086 0 -0.38593423 0.23852047 -0.14741376
0.013329405 0.06810905 0 -0.38593423 0.23852047 -0.14741376
0.012951878 0.067488305 0 -0.38593423 0.23852047 -0.14741376
0.012574457 0.066867843 0 -0.38593423 0.23852047 -0.14741376
0.012197142 0.066247664 0 -0.38593423 0.23852047 -0.14741376
0.011819929 0.065627761 0 -0.38593423 0.23852047 -0.14741376
0.011442818 0.065008141 0 -0.38593423 0.23852047 -0.14741376
0.011065806 0.064388789 0 -0.38593423 0.23852047 -0.14741376
0.010688893 0.063769713 0 -0.38593423 0.23852047 -0.14741376
0.010312074 0.063150905 0 -0.38593423 0.23852047 -0.14741376
0.0099353511 0.062532365 0 -0.38593423 0.23852047 -0.14741376
0.0095587196 0.061914079 0 -0.38593423 0.23852047 -0.14741376
0.0091821793 0.061296057 0 -0.38593423 0.23852047 -0.14741376
0.0088057276 0.060678292 0 -0.38593423 0.23852047 -0.14741376
0.0084293634 0.060060777 0 -0.38593423 0.23852047 -0.14741376
0.0080530839 0.059443515 0 -0.38593423 0.23852047 -0.14741376
0.0076768887 0.058826499 0 -0.38593423 0.23852047 -0.14741376
0.007300775 0.058209728 0 -0.38593423 0.23852047 -0.14741376
0.0069247414 0.057593197 0 -0.38593423 0.23852047 -0.14741376
0.0065487865 0.056976903 0 -0.38593423 0.23852047 -0.14741376
0.0061729075 0.056360848 0 -0.38593423 0.23852047 -0.14741376
0.005797104 0.055745024 0 -0.38593423 0.23852047 -0.14741376
0.0054213731 0.055129427 0 -0.38593423 0.23852047 -0.14741376
0.0050457134 0.054514062 0 -0.38593423 0.23852047 -0.14741376
0.0046701231 0.053898916 0 -0.38593423 0.23852047 -0.14741376
0.0042946008 0.053283993 0 -0.38593423 0.23852047 -0.14741376
0.0039191446 0.052669287 0 -0.38593423 0.23852047 -0.14741376
0.0035437527 0.052054796 0 -0.38593423 0.23852047 -0.14741376
0.0031684232 0.051440518 0 -0.38593423 0.23852047 -0.14741376
0.0027931544 0.050826449 0 -0.38593423 0.23852047 -0.14741376
0.0024179448 0.050212588 0 -0.38593423 0.23852047 -0.14741376
0.0020427925 0.049598929 0 -0.38593423 0.23852047 -0.14741376
0.0016676957 0.048985466 0 -0.38593423 0.23852047 -0.14741376
0.0012926528 0.048372205 0 -0.38593423 0.23852047 -0.14741376
0.00091766188 0.047759138 0 -0.38593423 0.23852047 -0.14741376
0.0005427213 0.047146264 0 -0.38593423 0.23852047 -0.14741376
0.00016782936 0.046533577 0 -0.38593423 0.23852047 -0.14741376
0 0.04581771 7.9115416e-05 -0.38593423 0.23852047 -0.14741376
0 0.045017045 0.00022256936 -0.38593423 0.23852047 -0.14741376
0 0.04421502 0.00036628597 -0.38593423 0.23852047 -0.14741376
0 0.043411631 0.00051026663 -0.38593423 0.23852047 -0.14741376
0 0.042606875 0.00065451273 -0.38593423 0.23852047 -0.14741376
0 0.041800737 0.00079902564 -0.38593423 0.23852047 -0.14741376
0.039999999 0.020520577 0.016320268 -0.38593423 0.23852047 -0.14741376
0 0.040184293 0.0010888577 -0.38593423 0.23852047 -0.14741376
0 0.039373975 0.0012341796 -0.38593423 0.23852047 -0.14741376
0 0.038562246 0.001379774 -0.38593423 0.23852047 -0.14741376
0 0.0377491 0.0015256424 -0.38593423 0.23852047 -0.14741376
0 0.036934528 0.0016717861 -0.38593423 0.23852047 -0.14741376
0 0.036118526 0.0018182067 -0.38593423 0.23852047 -0.14741376
5.5511151e-17 0.035301082 0.0019649058 -0.38593423 0.23852047 -0.14741376
0 0.034482189 0.0021118843 -0.38593423 0.23852047 -0.14741376
0 0.033661839 0.0022591443 -0.38593423 0.23852047 -0.14741376
0 0.032840025 0.002406687 -0.38593423 0.23852047 -0.14741376
5.5511151e-17 0.032016739 0.002554514 -0.38593423 0.23852047 -0.14741376
5.5511151e-17 0.031191975 0.0027026266 -0.38593423 0.23852047 -0.14741376
5.5511151e-17 0.03036572 0.0028510266 -0.38593423 0.23852047 -0.14741376
0 0.029537968 0.0029997153 -0.38593423 0.23852047 -0.14741376
0 0.027877944 0.003297965 -0.38593423 0.23852047 -0.14741376
0 0.027045654 0.0034475294 -0.38593423 0.23852047 -0.14741376
0 0.026211834 0.0035973885 -0.38593423 0.23852047 -0.14741376
0 0.025376474 0.003747544 -0.38593423 0.23852047 -0.14741376
0 0.024539569 0.0038979978 -0.38593423 0.23852047 -0.14741376
0 0.023701111 0.0040487512 -0.38593423 0.23852047 -0.14741376
5.5511151e-17 0.022861088 0.0041998057 -0.38593423 0.23852047 -0.14741376
0.039251905 0 0.019786596 -0.38593423 0.23852047 -0.14741376
0 0.021176316 0.0045028245 -0.38593423 0.23852047 -0.14741376
0 0.02033155 0.0046547926 -0.38593423 0.23852047 -0.14741376
5.5511151e-17 0.019485187 0.004807068 -0.38593423 0.23852047 -0.14741376
0 0.018637216 0.0049596527 -0.38593423 0.23852047 -0.14741376
0 0.01778763 0.0051125484 -0.38593423 0.23852047 -0.14741376
0 0.01693642 0.005265757 -0.38593423 0.23852047 -0.14741376
5.5511151e-17 0.016083574 0.0054192794 -0.38593423 0.23852047 -0.14741376
0.026321778 2.7755576e-17 0.016007246 -0.38593423 0.23852047 -0.14741376
0 0.01437295 0.0057272743 -0.38593423 0.23852047 -0.14741376
0 0.013515152 0.0058817496 -0.38593423 0.23852047 -0.14741376
0 0.012655684 0.0060365461 -0.38593423 0.23852047 -0.14741376
0 0.011794537 0.0061916653 -0.38593423 0.23852047 -0.14741376
0 0.010931702 0.0063471086 -0.38593423 0.23852047 -0.14741376
0 0.01006717 0.0065028784 -0.38593423 0.23852047 -0.14741376
0 0.0092009315 0.0066589764 -0.38593423 0.23852047 -0.14741376
0 0.0083329771 0.0068154037 -0.38593423 0.23852047 -0.14741376
0 0.0074632973 0.0069721625 -0.38593423 0.23852047 -0.14741376
0.010969036 0 0.011521681 -0.38593423 0.23852047 -0.14741376
0 0.0057187234 0.0072866813 -0.38593423 0.23852047 -0.14741376
0 0.0048438101 0.007444445 -0.38593423 0.23852047 -0.14741376
0 0.0039671334 0.0076025473 -0.38593423 0.23852047 -0.14741376
0 0.0030886831 0.0077609895 -0.38593423 0.23852047 -0.14741376
0 0.0022084496 0.0079197744 -0.38593423 0.23852047 -0.14741376
0 0.0013264231 0.008078903 -0.38593423 0.23852047 -0.14741376
0.0007174632 2.7755576e-17 0.0085277399 -0.38593423 0.23852047 -0.14741376
0.038882915 0.079999998 0.0045847045 -0.38593423 0.23852047 -0.14741376
0.036747742 0.079999998 0.0039617005 -0.38593423 0.23852047 -0.14741376
0.034631185 0.079999998 0.0033441465 -0.38593423 0.23852047 -0.14741376
0.032532994 0.079999998 0.0027319689 -0.38593423 0.23852047 -0.14741376
0.030452915 0.079999998 0.0021250949 -0.38593423 0.23852047 -0.14741376
0.028390706 0.079999998 0.0015234528 -0.38593423 0.23852047 -0.14741376
0.02634613 0.079999998 0.00092697295 -0.38593423 0.23852047 -0.14741376
0.02431895 0.079999998 0.00033558632 -0.38593423 0.23852047 -0.14741376
0.023004606 0.07972987 0 -0.38593423 0.23852047 -0.14741376
0.022622231 0.079100043 0 -0.38593423 0.23852047 -0.14741376
0.022240007 0.078470565 0 -0.38593423 0.23852047 -0.14741376
0.02185793 0.077841431 0 -0.38593423 0.23852047 -0.14741376
0.021476001 0.077212639 2.7755576e-17 -0.38593423 0.23852047 -0.14741376
0.021094214 0.076584183 0 -0.38593423 0.23852047 -0.14741376
0.020712571 0.075956069 0 -0.38593423 0.23852047 -0.14741376
0.020331068 0.075328283 0 -0.38593423 0.23852047 -0.14741376
0.019949704 0.074700832 0 -0.38593423 0.23852047 -0.14741376
0.019568477 0.074073702 0 -0.38593423 0.23852047 -0.14741376
0.019187385 0.0734469 0 -0.38593423 0.23852047 -0.14741376
0.039999999 0.064143807 0.0077190772 -0.38593423 0.23852047 -0.14741376
0.018425599 0.072194248 0 -0.38593423 0.23852047 -0.14741376
0.0180449 0.0715684 2.7755576e-17 -0.38593423 0.23852047 -0.14741376
0.01766433 0.070942856 0 -0.38593423 0.23852047 -0.14741376
0.017283885 0.070317626 2.7755576e-17 -0.38593423 0.23852047 -0.14741376
0.016903564 0.069692694 0 -0.38593423 0.23852047 -0.14741376
0.016523367 0.069068067 0 -0.38593423 0.23852047 -0.14741376
0.016143288 0.068443738 0 -0.38593423 0.23852047 -0.14741376
0.015763329 0.067819707 0 -0.38593423 0.23852047 -0.14741376
0.015383486 0.067195967 0 -0.38593423 0.23852047 -0.14741376
0.015003758 0.066572517 0 -0.38593423 0.23852047 -0.14741376
0.014624142 0.065949358 2.7755576e-17 -0.38593423 0.23852047 -0.14741376
0.039999999 0.054179773 0.0094874948 -0.38593423 0.23852047 -0.14741376
0.013865244 0.064703874 0 -0.38593423 0.23852047 -0.14741376
0.013485957 0.06408155 0 -0.38593423 0.23852047 -0.14741376
0.013106775 0.063459501 0 -0.38593423 0.23852047 -0.14741376
0.012727697 0.062837727 0 -0.38593423 0.23852047 -0.14741376
0.012348723 0.062216215 0 -0.38593423 0.23852047 -0.14741376
0.011969848 0.061594971 0 -0.38593423 0.23852047 -0.14741376
0.011591071 0.060973987 0 -0.38593423 0.23852047 -0.14741376
0.011212391 0.060353264 0 -0.38593423 0.23852047 -0.14741376
0.010833806 0.059732798 0 -0.38593423 0.23852047 -0.14741376
0.010455315 0.059112582 0 -0.38593423 0.23852047 -0.14741376
0.010076914 0.05849262 0 -0.38593423 0.23852047 -0.14741376
0.0096986033 0.057872903 0 -0.38593423 0.23852047 -0.14741376
0.0093203802 0.057253432 0 -0.38593423 0.23852047 -0.14741376
0.0089422427 0.056634199 0 -0.38593423 0.23852047 -0.14741376
0.00856419 0.056015205 0 -0.38593423 0.23852047 -0.14741376
0.0081862193 0.055396449 0 -0.38593423 0.23852047 -0.14741376
0.0078083291 0.05477792 0 -0.38593423 0.23852047 -0.14741376
0.007430518 0.054159626 0 -0.38593423 0.23852047 -0.14741376
0.0070527839 0.053541556 0 -0.38593423 0.23852047 -0.14741376
0.0066751246 0.052923709 0 -0.38593423 0.23852047 -0.14741376
0.006297539 0.052306082 0 -0.38593423 0.23852047 -0.14741376
0.0059200255 0.051688671 0 -0.38593423 0.23852047 -0.14741376
0.0055425814 0.051071476 0 -0.38593423 0.23852047 -0.14741376
0.0051652058 0.050454494 0 -0.38593423 0.23852047 -0.14741376
0.0047878963 0.04983772 0 -0.38593423 0.23852047 -0.14741376
0.004410652 0.049221151 0 -0.38593423 0.23852047 -0.14741376
0.0040334701 0.048604786 0 -0.38593423 0.23852047 -0.14741376
0.0036563491 0.04798862 0 -0.38593423 0.23852047 -0.14741376
0.0032792878 0.04737265 0 -0.38593423 0.23852047 -0.14741376
0.0029022838 0.046756875 0 -0.38593423 0.23852047 -0.14741376
0.0025253359 0.046141289 0 -0.38593423 0.23852047 -0.14741376
0.0021484417 0.045525894 0 -0.38593423 0.23852047 -0.14741376
0.0017716001 0.044910684 0 -0.38593423 0.23852047 -0.14741376
0.0013948089 0.044295654 0 -0.38593423 0.23852047 -0.14741376
0.0010180664 0.043680806 0 -0.38593423 0.23852047 -0.14741376
0.00064137101 0.043066133 0 -0.38593423 0.23852047 -0.14741376
0.00026472085 0.042451635 0 -0.38593423 0.23852047 -0.14741376
0 0.041780267 4.2748972e-05 -0.38593423 0.23852047 -0.14741376
0 0.040973123 0.000186808 -0.38593423 0.23852047 -0.14741376
0 0.040164582 0.00033113343 -0.38593423 0.23852047 -0.14741376
0.039999999 0.018712182 0.015803674 -0.38593423 0.23852047 -0.14741376
0 0.038543299 0.00062058913 -0.38593423 0.23852047 -0.14741376
5.5511151e-17 0.037730534 0.0007657223 -0.38593423 0.23852047 -0.14741376
0.039999999 0.01602117 0.016284201 -0.38593423 0.23852047 -0.14741376
0 0.03610073 0.0010568062 -0.38593423 0.23852047 -0.14741376
0 0.035283674 0.0012027599 -0.38593423 0.23852047 -0.14741376
0 0.034465171 0.0013489901 -0.38593423 0.23852047 -0.14741376
5.5511151e-17 0.033645213 0.0014954981 -0.38593423 0.23852047 -0.14741376
0 0.03282379 0.0016422855 -0.38593423 0.23852047 -0.14741376
0 0.032000896 0.0017893538 -0.38593423 0.23852047 -0.14741376
0 0.031176526 0.0019367044 -0.38593423 0.23852047 -0.14741376
0 0.030350666 0.0020843388 -0.38593423 0.23852047 -0.14741376
0 0.029523313 0.0022322584 -0.38593423 0.23852047 -0.14741376
0 0.028694455 0.0023804652 -0.38593423 0.23852047 -0.14741376
0 0.027864086 0.0025289601 -0.38593423 0.23852047 -0.14741376
5.5511151e-17 0.027032197 0.002677745 -0.38593423 0.23852047 -0.14741376
0 0.02619878 0.0028268213 -0.38593423 0.23852047 -0.14741376
0 0.025363825 0.0029761905 -0.38593423 0.23852047 -0.14741376
5.5511151e-17 0.024527326 0.0031258543 -0.38593423 0.23852047 -0.14741376
0 0.023689274 0.0032758142 -0.38593423 0.23852047 -0.14741376
0.039999999 0.00049654482 0.019059807 -0.38593423 0.23852047 -0.14741376
5.5511151e-17 0.02116571 0.0037274866 -0.38593423 0.23852047 -0.14741376
0 0.020321358 0.0038786468 -0.38593423 0.23852047 -0.14741376
0 0.01947541 0.0040301108 -0.38593423 0.23852047 -0.14741376
0 0.018627856 0.004181881 -0.38593423 0.23852047 -0.14741376
5.5511151e-17 0.017778687 0.004333958 -0.38593423 0.23852047 -0.14741376
5.5511151e-17 0.016927896 0.0044863443 -0.38593423 0.23852047 -0.14741376
0 0.016075475 0.0046390411 -0.38593423 0.23852047 -0.14741376
5.5511151e-17 0.01522141 0.00479205 -0.38593423 0.23852047 -0.14741376
5.5511151e-17 0.014365697 0.0049453732 -0.38593423 0.23852047 -0.14741376
0 0.013508325 0.0050990116 -0.38593423 0.23852047 -0.14741376
5.5511151e-17 0.012649285 0.0052529671 -0.38593423 0.23852047 -0.14741376
0 0.011788568 0.0054072421 -0.38593423 0.23852047 -0.14741376
0 0.010926165 0.0055618375 -0.38593423 0.23852047 -0.14741376
5.5511151e-17 0.010062065 0.0057167551 -0.38593423 0.23852047 -0.14741376
0.01547657 2.7755576e-17 0.012018997 -0.38593423 0.23852047 -0.14741376
0 0.0083287433 0.0060275649 -0.38593423 0.23852047 -0.14741376
0 0.0074595017 0.0061834599 -0.38593423 0.23852047 -0.14741376
5.5511151e-17 0.0065885265 0.0063396846 -0.38593423 0.23852047 -0.14741376
0 0.0057158093 0.0064962404 -0.38593423 0.23852047 -0.14741376
0 0.0048413393 0.0066531291 -0.38593423 0.23852047 -0.14741376
0 0.0039651077 0.0068103527 -0.38593423 0.23852047 -0.14741376
0 0.0030871043 0.0069679124 -0.38593423 0.23852047 -0.14741376
0 0.0022073195 0.0071258103 -0.38593423 0.23852047 -0.14741376
0 0.0013257437 0.0072840485 -0.38593423 0.23852047 -0.14741376
0.00071709463 0 0.0077303634 -0.38593423 0.23852047 -0.14741376
0.038753416 0.079999998 0.0037538195 -0.38593423 0.23852047 -0.14741376
0.036620446 0.079999998 0.0031349284 -0.38593423 0.23852047 -0.14741376
0.034506056 0.079999998 0.0025214453 -0.38593423 0.23852047 -0.14741376
0.03241 0.079999998 0.0019132971 -0.38593423 0.23852047 -0.14741376
0.030332023 0.079999998 0.0013104115 -0.38593423 0.23852047 -0.14741376
0.028271886 0.079999998 0.000712718 -0.38593423 0.23852047 -0.14741376
0.02622935 0.079999998 0.00012014692 -0.38593423 0.23852047 -0.14741376
0.025508644 0.079495817 0 -0.38593423 0.23852047 -0.14741376
0.025123751 0.078862898 0 -0.38593423 0.23852047 -0.14741376
0.024739018 0.078230329 0 -0.38593423 0.23852047 -0.14741376
0.024354441 0.07759811 0 -0.38593423 0.23852047 -0.14741376
0.023970019 0.076966241 0 -0.38593423 0.23852047 -0.14741376
0.02358575 0.076334715 0 -0.38593423 0.23852047 -0.14741376
0.023201633 0.075703524 0 -0.38593423 0.23852047 -0.14741376
0.022817666 0.075072676 0 -0.38593423 0.23852047 -0.14741376
0.022433845 0.074442156 2.7755576e-17 -0.38593423 0.23852047 -0.14741376
0.039999999 0.066565394 0.0064856694 -0.38593423 0.23852047 -0.14741376
0.021666639 0.073182113 2.7755576e-17 -0.38593423 0.23852047 -0.14741376
0.021283248 0.072552577 2.7755576e-17 -0.38593423 0.23852047 -0.14741376
0.020899998 0.07192336 0 -0.38593423 0.23852047 -0.14741376
0.020516887 0.071294464 0 -0.38593423 0.23852047 -0.14741376
0.020133911 0.070665888 0 -0.38593423 0.23852047 -0.14741376
0.01975107 0.070037618 0 -0.38593423 0.23852047 -0.14741376
0.039999999 0.060801189 0.0075039924 -0.38593423 0.23852047 -0.14741376
0.018985782 0.068782002 0 -0.38593423 0.23852047 -0.14741376
0.018603332 0.068154648 0 -0.38593423 0.23852047 -0.14741376
0.01822101 0.067527592 0 -0.38593423 0.23852047 -0.14741376
0.017838812 0.066900834 0 -0.38593423 0.23852047 -0.14741376
0.017456736 0.066274367 0 -0.38593423 0.23852047 -0.14741376
0.017074782 0.065648191 0 -0.38593423 0.23852047 -0.14741376
0.016692949 0.065022297 0 -0.38593423 0.23852047 -0.14741376
0.016311232 0.064396694 0 -0.38593423 0.23852047 -0.14741376
0.01592963 0.063771367 0 -0.38593423 0.23852047 -0.14741376
0.015548144 0.063146323 0 -0.38593423 0.23852047 -0.14741376
0.015166768 0.062521547 0 -0.38593423 0.23852047 -0.14741376
0.014785503 0.061897047 0 -0.38593423 0.23852047 -0.14741376
0.014404346 0.061272815 0 -0.38593423 0.23852047 -0.14741376
0.014023297 0.060648844 0 -0.38593423 0.23852047 -0.14741376
0.013642351 0.060025137 0 -0.38593423 0.23852047 -0.14741376
0.013261508 0.059401691 0 -0.38593423 0.23852047 -0.14741376
0.012880767 0.058778502 0 -0.38593423 0.23852047 -0.14741376
0.012500124 0.058155563 0 -0.38593423 0.23852047 -0.14741376
0.012119579 0.057532877 0 -0.38593423 0.23852047 -0.14741376
0.01173913 0.056910433 0 -0.38593423 0.23852047 -0.14741376
0.011358774 0.056288239 2.7755576e-17 -0.38593423 0.23852047 -0.14741376
0.010978511 0.055666283 0 -0.38593423 0.23852047 -0.14741376
0.010598337 0.055044562 0 -0.38593423 0.23852047 -0.14741376
0.010218251 0.054423079 0 -0.38593423 0.23852047 -0.14741376
0.0098382523 0.053801827 0 -0.38593423 0.23852047 -0.14741376
0.0094583388 0.053180806 0 -0.38593423 0.23852047 -0.14741376
0.0090785073 0.052560009 0 -0.38593423 0.23852047 -0.14741376
0.0086987568 0.051939435 0 -0.38593423 0.23852047 -0.14741376
0.0083190864 0.051319085 0 -0.38593423 0.23852047 -0.14741376
0.0079394933 0.050698947 2.7755576e-17 -0.38593423 0.23852047 -0.14741376
0.0075599751 0.050079025 2.7755576e-17 -0.38593423 0.23852047 -0.14741376
0.0071805315 0.049459312 0 -0.38593423 0.23852047 -0.14741376
0.0068011601 0.048839811 0 -0.38593423 0.23852047 -0.14741376
0.0064218584 0.048220512 0 -0.38593423 0.23852047 -0.14741376
0.0060426258 0.047601417 0 -0.38593423 0.23852047 -0.14741376
0.0056634592 0.046982519 0 -0.38593423 0.23852047 -0.14741376
0.0052843583 0.046363819 0 -0.38593423 0.23852047 -0.14741376
0.0045263432 0.045126993 0 -0.38593423 0.23852047 -0.14741376
0.003768567 0.043890916 2.7755576e-17 -0.38593423 0.23852047 -0.14741376
0.0033897636 0.043273155 0 -0.38593423 0.23852047 -0.14741376
0.039999999 0.023142841 0.014176493 -0.38593423 0.23852047 -0.14741376
0.0022536721 0.041420922 0 -0.38593423 0.23852047 -0.14741376
0.001875075 0.040803853 0 -0.38593423 0.23852047 -0.14741376
0.0014965251 0.040186953 2.7755576e-17 -0.38593423 0.23852047 -0.14741376
0.0011180206 0.039570216 0 -0.38593423 0.23852047 -0.14741376
0.00073955965 0.03895364 0 -0.38593423 0.23852047 -0.14741376
0.00036114053 0.038337223 0 -0.38593423 0.23852047 -0.14741376
0 0.037711989 6.5848371e-06 -0.38593423 0.23852047 -0.14741376
0 0.036082957 0.0002961912 -0.38593423 0.23852047 -0.14741376
0 0.035266288 0.00044140112 -0.38593423 0.23852047 -0.14741376
0 0.034448169 0.00058688415 -0.38593423 0.23852047 -0.14741376
0 0.033628602 0.00073264173 -0.38593423 0.23852047 -0.14741376
0 0.03280757 0.00087867526 -0.38593423 0.23852047 -0.14741376
0 0.031985071 0.0010249863 -0.38593423 0.23852047 -0.14741376
0 0.031161092 0.0011715762 -0.38593423 0.23852047 -0.14741376
5.5511151e-17 0.030335629 0.0013184466 -0.38593423 0.23852047 -0.14741376
0 0.029508673 0.0014655989 -0.38593423 0.23852047 -0.14741376
0 0.028680213 0.0016130346 -0.38593423 0.23852047 -0.14741376
0 0.027850242 0.0017607552 -0.38593423 0.23852047 -0.14741376
0 0.027018756 0.0019087623 -0.38593423 0.23852047 -0.14741376
0 0.02618574 0.0020570573 -0.38593423 0.23852047 -0.14741376
5.5511151e-17 0.025351191 0.0022056417 -0.38593423 0.23852047 -0.14741376
5.5511151e-17 0.024515096 0.0023545173 -0.38593423 0.23852047 -0.14741376
0 0.023677452 0.0025036854 -0.38593423 0.23852047 -0.14741376
0 0.022838244 0.0026531478 -0.38593423 0.23852047 -0.14741376
0.039208658 0 0.018064041 -0.38593423 0.23852047 -0.14741376
5.5511151e-17 0.021155117 0.0029529608 -0.38593423 0.23852047 -0.14741376
0.035923213 0 0.017113622 -0.38593423 0.23852047 -0.14741376
0 0.018618505 0.0034049263 -0.38593423 0.23852047 -0.14741376
0 0.017769756 0.0035561866 -0.38593423 0.23852047 -0.14741376
0 0.016919384 0.0037077521 -0.38593423 0.23852047 -0.14741376
0 0.016067382 0.0038596247 -0.38593423 0.23852047 -0.14741376
0 0.015213741 0.0040118056 -0.38593423 0.23852047 -0.14741376
0 0.014358452 0.0041642971 -0.38593423 0.23852047 -0.14741376
0 0.013501505 0.0043171002 -0.38593423 0.23852047 -0.14741376
0 0.012642893 0.004470217 -0.38593423 0.23852047 -0.14741376
0 0.011782605 0.0046236492 -0.38593423 0.23852047 -0.14741376
0 0.010920633 0.004777398 -0.38593423 0.23852047 -0.14741376
0 0.010056966 0.0049314653 -0.38593423 0.23852047 -0.14741376
5.5511151e-17 0.0091915959 0.0050858534 -0.38593423 0.23852047 -0.14741376
0.013956435 2.7755576e-17 0.01076096 -0.38593423 0.23852047 -0.14741376
0 0.0074557099 0.0053955968 -0.38593423 0.23852047 -0.14741376
0 0.0065851742 0.0055509559 -0.38593423 0.23852047 -0.14741376
0 0.005712898 0.0057066423 -0.38593423 0.23852047 -0.14741376
5.5511151e-17 0.0048388708 0.0058626574 -0.38593423 0.23852047 -0.14741376
0 0.003963084 0.0060190037 -0.38593423 0.23852047 -0.14741376
0 0.0030855271 0.0061756824 -0.38593423 0.23852047 -0.14741376
0 0.0022061907 0.0063326955 -0.38593423 0.23852047 -0.14741376
5.5511151e-17 0.001325065 0.0064900448 -0.38593423 0.23852047 -0.14741376
5.5511151e-17 0.00044214021 0.0066477316 -0.38593423 0.23852047 -0.14741376
0.038624119 0.079999998 0.0029242469 -0.38593423 0.23852047 -0.14741376
0.036493346 0.079999998 0.0023094565 -0.38593423 0.23852047 -0.14741376
0.034381125 0.079999998 0.0017000324 -0.38593423 0.23852047 -0.14741376
0.032287195 0.079999998 0.0010959018 -0.38593423 0.23852047 -0.14741376
0.03021132 0.079999998 0.00049699337 -0.38593423 0.23852047 -0.14741376
0.028425237 0.079895876 0 -0.38593423 0.23852047 -0.14741376
0.028037613 0.079259478 0 -0.38593423 0.23852047 -0.14741376
0.027650159 0.078623436 0 -0.38593423 0.23852047 -0.14741376
0.027262874 0.077987753 0 -0.38593423 0.23852047 -0.14741376
0.026875753 0.077352419 0 -0.38593423 0.23852047 -0.14741376
0.026488798 0.076717444 0 -0.38593423 0.23852047 -0.14741376
0.026102003 0.076082811 0 -0.38593423 0.23852047 -0.14741376
0.025715368 0.07544852 0 -0.38593423 0.23852047 -0.14741376
0.025328893 0.074814573 0 -0.38593423 0.23852047 -0.14741376
0.024942573 0.074180968 2.7755576e-17 -0.38593423 0.23852047 -0.14741376
0.024556408 0.073547691 0 -0.38593423 0.23852047 -0.14741376
0.024170395 0.072914749 0 -0.38593423 0.23852047 -0.14741376
0.023784533 0.072282135 0 -0.38593423 0.23852047 -0.14741376
0.023398818 0.071649842 0 -0.38593423 0.23852047 -0.14741376
0.023013253 0.071017876 0 -0.38593423 0.23852047 -0.14741376
0.022627831 0.070386223 0 -0.38593423 0.23852047 -0.14741376
0.022242552 0.069754891 0 -0.38593423 0.23852047 -0.14741376
0.021857413 0.069123872 0 -0.38593423 0.23852047 -0.14741376
0.021472413 0.068493158 0 -0.38593423 0.23852047 -0.14741376
0.021087551 0.067862749 0 -0.38593423 0.23852047 -0.14741376
0.020702824 0.067232646 0 -0.38593423 0.23852047 -0.14741376
0.020318232 0.066602841 0 -0.38593423 0.23852047 -0.14741376
0.019933769 0.065973334 0 -0.38593423 0.23852047 -0.14741376
0.019549439 0.065344118 0 -0.38593423 0.23852047 -0.14741376
0.019165233 0.064715192 0 -0.38593423 0.23852047 -0.14741376
0.018781155 0.064086549 0 -0.38593423 0.23852047 -0.14741376
0.018397201 0.063458197 0 -0.38593423 0.23852047 -0.14741376
0.018013369 0.062830128 0 -0.38593423 0.23852047 -0.14741376
0.017629657 0.062202331 2.7755576e-17 -0.38593423 0.23852047 -0.14741376
0.017246064 0.061574809 0 -0.38593423 0.23852047 -0.14741376
0.016862586 0.06094756 0 -0.38593423 0.23852047 -0.14741376
0.039999999 0.04990492 0.0086162277 -0.38593423 0.23852047 -0.14741376
0.016095974 0.059693862 0 -0.38593423 0.23852047 -0.14741376
0.015712835 0.059067406 0 -0.38593423 0.23852047 -0.14741376
0.015329806 0.058441211 0 -0.38593423 0.23852047 -0.14741376
0.014946884 0.057815272 0 -0.38593423 0.23852047 -0.14741376
0.014564067 0.057189588 0 -0.38593423 0.23852047 -0.14741376
0.014181354 0.056564152 0 -0.38593423 0.23852047 -0.14741376
0.013798743 0.055938963 0 -0.38593423 0.23852047 -0.14741376
0.013416232 0.055314019 0 -0.38593423 0.23852047 -0.14741376
0.013033818 0.054689314 0 -0.38593423 0.23852047 -0.14741376
0.0126515 0.054064848 0 -0.38593423 0.23852047 -0.14741376
0.012269277 0.053440616 0 -0.38593423 0.23852047 -0.14741376
0.011887147 0.052816615 0 -0.38593423 0.23852047 -0.14741376
0.011505106 0.052192841 0 -0.38593423 0.23852047 -0.14741376
0.011123156 0.051569294 0 -0.38593423 0.23852047 -0.14741376
0.010741292 0.050945971 0 -0.38593423 0.23852047 -0.14741376
0.010359514 0.050322868 2.7755576e-17 -0.38593423 0.23852047 -0.14741376
0.0099778175 0.049699981 0 -0.38593423 0.23852047 -0.14741376
0.0095962044 0.049077306 2.7755576e-17 -0.38593423 0.23852047 -0.14741376
0.0092146704 0.048454843 0 -0.38593423 0.23852047 -0.14741376
0.0088332137 0.047832586 0 -0.38593423 0.23852047 -0.14741376
0.0084518334 0.047210533 0 -0.38593423 0.23852047 -0.14741376
0.0080705276 0.046588685 0 -0.38593423 0.23852047 -0.14741376
0.0076892944 0.045967031 0 -0.38593423 0.23852047 -0.14741376
0.007308132 0.045345575 0 -0.38593423 0.23852047 -0.14741376
0.0069270381 0.044724312 2.7755576e-17 -0.38593423 0.23852047 -0.14741376
0.0065460112 0.044103239 0 -0.38593423 0.23852047 -0.14741376
0.0061650495 0.043482348 0 -0.38593423 0.23852047 -0.14741376
0.0057841516 0.042861644 0 -0.38593423 0.23852047 -0.14741376
0.0054033147 0.042241123 0 -0.38593423 0.23852047 -0.14741376
0.0050225379 0.041620776 0 -0.38593423 0.23852047 -0.14741376
0.0046418193 0.041000605 0 -0.38593423 0.23852047 -0.14741376
0.0042611565 0.040380605 0 -0.38593423 0.23852047 -0.14741376
0.0038805485 0.039760772 0 -0.38593423 0.23852047 -0.14741376
0.0034999931 0.039141107 0 -0.38593423 0.23852047 -0.14741376
0.0031194882 0.038521606 0 -0.38593423 0.23852047 -0.14741376
0.039999999 0.018669583 0.014132126 -0.38593423 0.23852047 -0.14741376
0.002358624 0.037283078 0 -0.38593423 0.23852047 -0.14741376
0.0019782609 0.036664043 0 -0.38593423 0.23852047 -0.14741376
0.0015979414 0.036045164 0 -0.38593423 0.23852047 -0.14741376
0.039999999 0.015081803 0.014766944 -0.38593423 0.23852047 -0.14741376
0.00083742611 0.034807842 0 -0.38593423 0.23852047 -0.14741376
0.00045722676 0.034189399 0 -0.38593423 0.23852047 -0.14741376
7.7063894e-05 0.033571091 0 -0.38593423 0.23852047 -0.14741376
0 0.032791369 0.00011585125 -0.38593423 0.23852047 -0.14741376
0.039999999 0.010561342 0.015567141 -0.38593423 0.23852047 -0.14741376
0.039999999 0.0096523976 0.015728086 -0.38593423 0.23852047 -0.14741376
0 0.030320607 0.00055334513 -0.38593423 0.23852047 -0.14741376
0 0.029494045 0.0006997314 -0.38593423 0.23852047 -0.14741376
0.039999999 0.0069157002 0.016212763 -0.38593423 0.23852047 -0.14741376
0.039999999 0.0060001491 0.016374942 -0.38593423 0.23852047 -0.14741376
0 0.027005326 0.0011405762 -0.38593423 0.23852047 -0.14741376
0 0.026172714 0.0012880914 -0.38593423 0.23852047 -0.14741376
0 0.025338568 0.0014358927 -0.38593423 0.23852047 -0.14741376
0 0.024502879 0.0015839814 -0.38593423 0.23852047 -0.14741376
5.5511151e-17 0.023665641 0.0017323593 -0.38593423 0.23852047 -0.14741376
0.039999999 0.00047136145 0.017354626 -0.38593423 0.23852047 -0.14741376
0 0.021986475 0.0020299882 -0.38593423 0.23852047 -0.14741376
0 0.021144534 0.0021792427 -0.38593423 0.23852047 -0.14741376
5.5511151e-17 0.020301009 0.0023287921 -0.38593423 0.23852047 -0.14741376
0 0.019455887 0.0024786387 -0.38593423 0.23852047 -0.14741376
0.032658231 0 0.01532557 -0.38593423 0.23852047 -0.14741376
0 0.017760832 0.0027792286 -0.38593423 0.23852047 -0.14741376
0 0.016910881 0.0029299753 -0.38593423 0.23852047 -0.14741376
0 0.016059298 0.0030810251 -0.38593423 0.23852047 -0.14741376
0 0.01520608 0.0032323799 -0.38593423 0.23852047 -0.14741376
0 0.014351214 0.0033840414 -0.38593423 0.23852047 -0.14741376
0 0.013494694 0.0035360109 -0.38593423 0.23852047 -0.14741376
0 0.012636508 0.0036882902 -0.38593423 0.23852047 -0.14741376
0 0.011776648 0.0038408812 -0.38593423 0.23852047 -0.14741376
0 0.010915106 0.003993785 -0.38593423 0.23852047 -0.14741376
0 0.010051872 0.0041470039 -0.38593423 0.23852047 -0.14741376
0 0.0091869356 0.0043005394 -0.38593423 0.23852047 -0.14741376
0 0.0083202887 0.0044543929 -0.38593423 0.23852047 -0.14741376
0.012446314 2.7755576e-17 0.0095112612 -0.38593423 0.23852047 -0.14741376
0 0.0065818252 0.0047630621 -0.38593423 0.23852047 -0.14741376
0 0.0057099895 0.0049178805 -0.38593423 0.23852047 -0.14741376
0 0.0048364052 0.0050730244 -0.38593423 0.23852047 -0.14741376
