# .PCD v0.7 - Point Cloud Data file format
VERSION 0.7
FIELDS x y z vp_x vp_y vp_z
SIZE 4 4 4 4 4 4
TYPE F F F F F F
COUNT 1 1 1 1 1 1
WIDTH 758
HEIGHT 1
VIEWPOINT 0 0 0 1 0 0 0
POINTS 758
DATA ascii
0 0.0021511316 0.03235177 -0.38593423 0.23852047 0.14741376
0.0021018249 2.7755576e-17 0.031609509 -0.38593423 0.23852047 0.14741376
0 0.00043108393 0.032121625 -0.38593423 0.23852047 0.14741376
0.038832016 0.079999998 0.034170575 -0.38593423 0.23852047 0.14741376
0.03674959 0.079999998 0.034612495 -0.38593423 0.23852047 0.14741376
0.039999999 0.077996872 0.033630867 -0.38593423 0.23852047 0.14741376
0.032637682 0.079999998 0.035485324 -0.38593423 0.23852047 0.14741376
0.03060773 0.079999998 0.035916328 -0.38593423 0.23852047 0.14741376
0.028594814 0.079999998 0.036343791 -0.38593423 0.23852047 0.14741376
0.026598707 0.079999998 0.036767758 -0.38593423 0.23852047 0.14741376
0.02461919 0.079999998 0.037188273 -0.38593423 0.23852047 0.14741376
0.022656048 0.079999998 0.037605383 -0.38593423 0.23852047 0.14741376
0.020709069 0.079999998 0.038019132 -0.38593423 0.23852047 0.14741376
0.018778048 0.079999998 0.038429562 -0.38593423 0.23852047 0.14741376
0.016862776 0.079999998 0.038836718 -0.38593423 0.23852047 0.14741376
0.014963056 0.079999998 0.03924064 -0.38593423 0.23852047 0.14741376
0.013078688 0.079999998 0.039641365 -0.38593423 0.23852047 0.14741376
0.011353514 0.07994251 0.039999999 -0.38593423 0.23852047 0.14741376
0.010956659 0.079357788 0.039999999 -0.38593423 0.23852047 0.14741376
0.010560327 0.07877335 0.039999999 -0.38593423 0.23852047 0.14741376
0.010164516 0.078189187 0.039999999 -0.38593423 0.23852047 0.14741376
0.0097692227 0.077605292 0.039999999 -0.38593423 0.23852047 0.14741376
0.0093744434 0.077021666 0.039999999 -0.38593423 0.23852047 0.14741376
0.0087490864 0.076533139 0.040062852 -0.38593423 0.23852047 0.14741376
0.0081136851 0.076050103 0.040128708 -0.38593423 0.23852047 0.14741376
0.0074794549 0.075567946 0.040194508 -0.38593423 0.23852047 0.14741376
0.0068746312 0.075074933 0.040252559 -0.38593423 0.23852047 0.14741376
0.0063292449 0.074558333 0.040294625 -0.38593423 0.23852047 0.14741376
0.005784614 0.074042447 0.040336706 -0.38593423 0.23852047 0.14741376
0.0052751713 0.073512748 0.04036938 -0.38593423 0.23852047 0.14741376
0.0048100478 0.072965167 0.040390112 -0.38593423 0.23852047 0.14741376
0.0043453746 0.072418109 0.040410891 -0.38593423 0.23852047 0.14741376
0.0039119651 0.071858414 0.040423267 -0.38593423 0.23852047 0.14741376
0.0035206322 0.071281239 0.040424239 -0.38593423 0.23852047 0.14741376
0.0031295267 0.070704401 0.040425282 -0.38593423 0.23852047 0.14741376
0.0027606734 0.070118353 0.040420331 -0.38593423 0.23852047 0.14741376
0.0024392162 0.069512025 0.040402438 -0.38593423 0.23852047 0.14741376
0.0021178268 0.068905823 0.04038462 -0.38593423 0.23852047 0.14741376
0.0018074984 0.068294913 0.040363844 -0.38593423 0.23852047 0.14741376
0.0015541335 0.067658998 0.040327411 -0.38593423 0.23852047 0.14741376
0.0013007292 0.067022979 0.040291041 -0.38593423 0.23852047 0.14741376
0.0010472845 0.066386864 0.040254734 -0.38593423 0.23852047 0.14741376
0.00086206361 0.065720148 0.040199574 -0.38593423 0.23852047 0.14741376
0.0006768388 0.065053038 0.040144425 -0.38593423 0.23852047 0.14741376
0.0004915162 0.064385571 0.04008932 -0.38593423 0.23852047 0.14741376
0.00036766427 0.063689895 0.040017139 -0.38593423 0.23852047 0.14741376
4.5961213e-05 0.063083492 0.039999999 -0.38593423 0.23852047 0.14741376
0 0.06235135 0.039906133 -0.38593423 0.23852047 0.14741376
0 0.061597176 0.039799388 -0.38593423 0.23852047 0.14741376
0 0.060841858 0.039692551 -0.38593423 0.23852047 0.14741376
0 0.06008539 0.03958562 -0.38593423 0.23852047 0.14741376
0 0.059327766 0.0394786 -0.38593423 0.23852047 0.14741376
0 0.058568981 0.039371483 -0.38593423 0.23852047 0.14741376
0 0.057809021 0.039264277 -0.38593423 0.23852047 0.14741376
0 0.057047892 0.03915697 -0.38593423 0.23852047 0.14741376
0 0.056285579 0.039049573 -0.38593423 0.23852047 0.14741376
0 0.055522077 0.038942076 -0.38593423 0.23852047 0.14741376
0 0.054757379 0.038834486 -0.38593423 0.23852047 0.14741376
0 0.053991482 0.038726795 -0.38593423 0.23852047 0.14741376
0 0.053224374 0.038619004 -0.38593423 0.23852047 0.14741376
0 0.052456055 0.03851112 -0.38593423 0.23852047 0.14741376
0 0.051686514 0.038403131 -0.38593423 0.23852047 0.14741376
0 0.050915744 0.038295042 -0.38593423 0.23852047 0.14741376
0 0.050143745 0.038186852 -0.38593423 0.23852047 0.14741376
0 0.049370501 0.038078561 -0.38593423 0.23852047 0.14741376
0 0.04859601 0.037970167 -0.38593423 0.23852047 0.14741376
0 0.047820266 0.037861668 -0.38593423 0.23852047 0.14741376
0 0.04704326 0.037753064 -0.38593423 0.23852047 0.14741376
0 0.046264984 0.037644356 -0.38593423 0.23852047 0.14741376
0 0.045485437 0.037535541 -0.38593423 0.23852047 0.14741376
0 0.044704609 0.037426621 -0.38593423 0.23852047 0.14741376
0 0.043922491 0.037317593 -0.38593423 0.23852047 0.14741376
0 0.043139078 0.037208453 -0.38593423 0.23852047 0.14741376
0 0.04235436 0.037099209 -0.38593423 0.23852047 0.14741376
0 0.041568335 0.036989849 -0.38593423 0.23852047 0.14741376
0 0.040780995 0.036880381 -0.38593423 0.23852047 0.14741376
0 0.039992329 0.036770802 -0.38593423 0.23852047 0.14741376
0 0.039202336 0.036661111 -0.38593423 0.23852047 0.14741376
0 0.038411003 0.036551308 -0.38593423 0.23852047 0.14741376
0 0.037618324 0.036441389 -0.38593423 0.23852047 0.14741376
0 0.036824293 0.036331356 -0.38593423 0.23852047 0.14741376
0 0.036028903 0.036221206 -0.38593423 0.23852047 0.14741376
0 0.035232145 0.036110938 -0.38593423 0.23852047 0.14741376
0 0.034434017 0.036000557 -0.38593423 0.23852047 0.14741376
0 0.033634506 0.035890054 -0.38593423 0.23852047 0.14741376
0 0.032833602 0.035779435 -0.38593423 0.23852047 0.14741376
0 0.032031305 0.035668693 -0.38593423 0.23852047 0.14741376
0 0.031227605 0.035557833 -0.38593423 0.23852047 0.14741376
0 0.030422492 0.035446849 -0.38593423 0.23852047 0.14741376
0 0.029615961 0.035335746 -0.38593423 0.23852047 0.14741376
0 0.028808001 0.035224516 -0.38593423 0.23852047 0.14741376
0 0.027998609 0.035113163 -0.38593423 0.23852047 0.14741376
0 0.027187774 0.035001688 -0.38593423 0.23852047 0.14741376
0 0.026375491 0.034890082 -0.38593423 0.23852047 0.14741376
0 0.025561748 0.034778353 -0.38593423 0.23852047 0.14741376
0 0.024746541 0.034666494 -0.38593423 0.23852047 0.14741376
0 0.02392986 0.034554508 -0.38593423 0.23852047 0.14741376
0 0.023111699 0.034442391 -0.38593423 0.23852047 0.14741376
0 0.022292048 0.034330148 -0.38593423 0.23852047 0.14741376
0 0.021470901 0.034217771 -0.38593423 0.23852047 0.14741376
0 0.020648247 0.03410526 -0.38593423 0.23852047 0.14741376
0 0.01982408 0.033992618 -0.38593423 0.23852047 0.14741376
0 0.018998392 0.033879843 -0.38593423 0.23852047 0.14741376
0 0.018171174 0.033766933 -0.38593423 0.23852047 0.14741376
0 0.01734242 0.033653885 -0.38593423 0.23852047 0.14741376
0 0.016512118 0.033540703 -0.38593423 0.23852047 0.14741376
0 0.015680263 0.03342738 -0.38593423 0.23852047 0.14741376
0 0.014846845 0.033313923 -0.38593423 0.23852047 0.14741376
0 0.014011855 0.033200324 -0.38593423 0.23852047 0.14741376
0 0.013175285 0.033086583 -0.38593423 0.23852047 0.14741376
5.5511151e-17 0.012337129 0.032972705 -0.38593423 0.23852047 0.14741376
0 0.011497375 0.032858681 -0.38593423 0.23852047 0.14741376
5.5511151e-17 0.010656015 0.032744516 -0.38593423 0.23852047 0.14741376
0 0.0098130424 0.032630205 -0.38593423 0.23852047 0.14741376
0 0.0089684464 0.032515749 -0.38593423 0.23852047 0.14741376
5.5511151e-17 0.0081222197 0.032401148 -0.38593423 0.23852047 0.14741376
0 0.0072743529 0.032286402 -0.38593423 0.23852047 0.14741376
5.5511151e-17 0.0064248368 0.032171506 -0.38593423 0.23852047 0.14741376
0 0.0055736629 0.032056462 -0.38593423 0.23852047 0.14741376
0.0077926842 0 0.029609675 -0.38593423 0.23852047 0.14741376
0.0063588885 2.7755576e-17 0.029921422 -0.38593423 0.23852047 0.14741376
0 0.0030101044 0.03171042 -0.38593423 0.23852047 0.14741376
0 0.0012926109 0.031478964 -0.38593423 0.23852047 0.14741376
0 0.00043130029 0.031363003 -0.38593423 0.23852047 0.14741376
0.038958948 0.079999998 0.033385161 -0.38593423 0.23852047 0.14741376
0.036874413 0.079999998 0.033830773 -0.38593423 0.23852047 0.14741376
0.034807637 0.079999998 0.034272667 -0.38593423 0.23852047 0.14741376
0.032758385 0.079999998 0.034710884 -0.38593423 0.23852047 0.14741376
0.03072642 0.079999998 0.035145476 -0.38593423 0.23852047 0.14741376
0.028711516 0.079999998 0.035576493 -0.38593423 0.23852047 0.14741376
0.026713453 0.079999998 0.036003977 -0.38593423 0.23852047 0.14741376
0.024732009 0.079999998 0.036427978 -0.38593423 0.23852047 0.14741376
0.022766968 0.079999998 0.036848541 -0.38593423 0.23852047 0.14741376
0.02081812 0.079999998 0.037265711 -0.38593423 0.23852047 0.14741376
0.018885253 0.079999998 0.037679527 -0.38593423 0.23852047 0.14741376
0.016968165 0.079999998 0.038090039 -0.38593423 0.23852047 0.14741376
0.015066653 0.079999998 0.038497284 -0.38593423 0.23852047 0.14741376
0.013180519 0.079999998 0.038901307 -0.38593423 0.23852047 0.14741376
0.01130957 0.079999998 0.039302144 -0.38593423 0.23852047 0.14741376
0.0094536114 0.079999998 0.039699841 -0.38593423 0.23852047 0.14741376
0.0079587512 0.079860508 0.039999999 -0.38593423 0.23852047 0.14741376
0.0075661992 0.079279557 0.039999999 -0.38593423 0.23852047 0.14741376
0.007174151 0.078698881 0.039999999 -0.38593423 0.23852047 0.14741376
0.0067826044 0.078118458 0.039999999 -0.38593423 0.23852047 0.14741376
0.006391556 0.077538304 0.039999999 -0.38593423 0.23852047 0.14741376
0.0060010022 0.076958403 0.039999999 -0.38593423 0.23852047 0.14741376
0.0056109405 0.076378763 0.039999999 -0.38593423 0.23852047 0.14741376
0.0052213673 0.075799368 0.039999999 -0.38593423 0.23852047 0.14741376
0.0048322799 0.075220212 0.039999999 -0.38593423 0.23852047 0.14741376
0.0044436753 0.074641302 0.039999999 -0.38593423 0.23852047 0.14741376
0.0040555503 0.074062631 0.039999999 -0.38593423 0.23852047 0.14741376
0.0036679015 0.073484182 0.039999999 -0.38593423 0.23852047 0.14741376
0.0032807267 0.072905973 0.039999999 -0.38593423 0.23852047 0.14741376
0.0028940223 0.072327979 0.039999999 -0.38593423 0.23852047 0.14741376
0.0025077856 0.071750209 0.039999999 -0.38593423 0.23852047 0.14741376
0.0021220131 0.071172662 0.039999999 -0.38593423 0.23852047 0.14741376
0.0017367026 0.070595317 0.039999999 -0.38593423 0.23852047 0.14741376
0.0013518507 0.070018187 0.039999999 -0.38593423 0.23852047 0.14741376
0.00096745434 0.069441259 0.039999999 -0.38593423 0.23852047 0.14741376
0.00058351079 0.068864524 0.039999999 -0.38593423 0.23852047 0.14741376
0.00020001701 0.068287991 0.039999999 -0.38593423 0.23852047 0.14741376
0 0.067630611 0.039949033 -0.38593423 0.23852047 0.14741376
0 0.066883944 0.039842341 -0.38593423 0.23852047 0.14741376
0 0.066136181 0.039735559 -0.38593423 0.23852047 0.14741376
0 0.065387309 0.039628688 -0.38593423 0.23852047 0.14741376
0 0.064637318 0.039521724 -0.38593423 0.23852047 0.14741376
0 0.063886218 0.03941467 -0.38593423 0.23852047 0.14741376
0 0.063133977 0.039307527 -0.38593423 0.23852047 0.14741376
0 0.062380616 0.039200291 -0.38593423 0.23852047 0.14741376
0 0.06162611 0.039092962 -0.38593423 0.23852047 0.14741376
0 0.060870457 0.038985539 -0.38593423 0.23852047 0.14741376
0 0.060113657 0.03887802 -0.38593423 0.23852047 0.14741376
0 0.059355699 0.038770407 -0.38593423 0.23852047 0.14741376
0 0.058596574 0.038662698 -0.38593423 0.23852047 0.14741376
0 0.057836279 0.038554896 -0.38593423 0.23852047 0.14741376
0 0.057074811 0.038446993 -0.38593423 0.23852047 0.14741376
0 0.056312159 0.038338989 -0.38593423 0.23852047 0.14741376
0 0.055548314 0.038230892 -0.38593423 0.23852047 0.14741376
0 0.054783277 0.038122691 -0.38593423 0.23852047 0.14741376
0 0.054017037 0.03801439 -0.38593423 0.23852047 0.14741376
0 0.05324959 0.037905991 -0.38593423 0.23852047 0.14741376
0 0.052480925 0.037797488 -0.38593423 0.23852047 0.14741376
0 0.051711038 0.037688881 -0.38593423 0.23852047 0.14741376
0 0.050939925 0.037580173 -0.38593423 0.23852047 0.14741376
0 0.050167572 0.037471358 -0.38593423 0.23852047 0.14741376
0 0.049393982 0.037362441 -0.38593423 0.23852047 0.14741376
0 0.04861914 0.037253417 -0.38593423 0.23852047 0.14741376
0 0.047843046 0.037144285 -0.38593423 0.23852047 0.14741376
0 0.047065686 0.037035048 -0.38593423 0.23852047 0.14741376
0 0.04628706 0.0369257 -0.38593423 0.23852047 0.14741376
0 0.045507159 0.036816247 -0.38593423 0.23852047 0.14741376
0 0.044725973 0.036706682 -0.38593423 0.23852047 0.14741376
0 0.043943498 0.036597006 -0.38593423 0.23852047 0.14741376
0 0.043159731 0.036487218 -0.38593423 0.23852047 0.14741376
0 0.042374656 0.036377322 -0.38593423 0.23852047 0.14741376
0 0.041588269 0.03626731 -0.38593423 0.23852047 0.14741376
0 0.040800568 0.036157183 -0.38593423 0.23852047 0.14741376
0 0.04001154 0.036046945 -0.38593423 0.23852047 0.14741376
0 0.039221182 0.035936587 -0.38593423 0.23852047 0.14741376
0 0.038429484 0.035826117 -0.38593423 0.23852047 0.14741376
0 0.03763644 0.035715528 -0.38593423 0.23852047 0.14741376
0 0.036842041 0.035604823 -0.38593423 0.23852047 0.14741376
0 0.036046285 0.035493996 -0.38593423 0.23852047 0.14741376
0 0.035249159 0.035383053 -0.38593423 0.23852047 0.14741376
0 0.034450654 0.035271987 -0.38593423 0.23852047 0.14741376
0 0.033650771 0.035160802 -0.38593423 0.23852047 0.14741376
0 0.032849498 0.035049494 -0.38593423 0.23852047 0.14741376
0 0.032046825 0.034938063 -0.38593423 0.23852047 0.14741376
0 0.031242747 0.03482651 -0.38593423 0.23852047 0.14741376
0 0.030437257 0.034714829 -0.38593423 0.23852047 0.14741376
0 0.029630346 0.034603026 -0.38593423 0.23852047 0.14741376
0 0.028822009 0.034491092 -0.38593423 0.23852047 0.14741376
0 0.028012235 0.034379035 -0.38593423 0.23852047 0.14741376
0 0.027201017 0.034266848 -0.38593423 0.23852047 0.14741376
0 0.026388349 0.034154534 -0.38593423 0.23852047 0.14741376
0 0.02557422 0.03404209 -0.38593423 0.23852047 0.14741376
0 0.024758626 0.033929512 -0.38593423 0.23852047 0.14741376
0 0.023941558 0.033816803 -0.38593423 0.23852047 0.14741376
0 0.023123005 0.033703964 -0.38593423 0.23852047 0.14741376
0 0.022302965 0.033590991 -0.38593423 0.23852047 0.14741376
0 0.021481425 0.033477884 -0.38593423 0.23852047 0.14741376
0 0.020658378 0.033364639 -0.38593423 0.23852047 0.14741376
0 0.019833814 0.033251259 -0.38593423 0.23852047 0.14741376
5.5511151e-17 0.019007729 0.033137742 -0.38593423 0.23852047 0.14741376
0 0.018180115 0.033024091 -0.38593423 0.23852047 0.14741376
0 0.017350959 0.032910295 -0.38593423 0.23852047 0.14741376
0 0.016520256 0.032796364 -0.38593423 0.23852047 0.14741376
0 0.014854176 0.032568071 -0.38593423 0.23852047 0.14741376
0 0.014018781 0.032453712 -0.38593423 0.23852047 0.14741376
0 0.013181804 0.032339212 -0.38593423 0.23852047 0.14741376
0.019555461 0 0.026267266 -0.38593423 0.23852047 0.14741376
0.018057477 2.7755576e-17 0.026594495 -0.38593423 0.23852047 0.14741376
0 0.009817916 0.031879745 -0.38593423 0.23852047 0.14741376
0 0.0089729046 0.031764511 -0.38593423 0.23852047 0.14741376
0 0.0081262616 0.031649128 -0.38593423 0.23852047 0.14741376
0 0.0072779758 0.031533591 -0.38593423 0.23852047 0.14741376
0 0.0064280396 0.031417903 -0.38593423 0.23852047 0.14741376
5.5511151e-17 0.0055764443 0.031302065 -0.38593423 0.23852047 0.14741376
0 0.0047231806 0.031186072 -0.38593423 0.23852047 0.14741376
0 0.003868239 0.031069925 -0.38593423 0.23852047 0.14741376
0 0.0030116111 0.030953623 -0.38593423 0.23852047 0.14741376
0 0.0021532874 0.030837163 -0.38593423 0.23852047 0.14741376
0 0.0012932591 0.030720547 -0.38593423 0.23852047 0.14741376
5.5511151e-17 0.00043151679 0.030603772 -0.38593423 0.23852047 0.14741376
0.036999401 0.079999998 0.03304803 -0.38593423 0.23852047 0.14741376
0.034930546 0.079999998 0.03349359 -0.38593423 0.23852047 0.14741376
0.032879245 0.079999998 0.033935439 -0.38593423 0.23852047 0.14741376
0.03084526 0.079999998 0.03437363 -0.38593423 0.23852047 0.14741376
0.028828369 0.079999998 0.034808211 -0.38593423 0.23852047 0.14741376
0.026828347 0.079999998 0.035239223 -0.38593423 0.23852047 0.14741376
0.024844972 0.079999998 0.035666719 -0.38593423 0.23852047 0.14741376
0.02287803 0.079999998 0.036090743 -0.38593423 0.23852047 0.14741376
0.020927308 0.079999998 0.036511339 -0.38593423 0.23852047 0.14741376
0.018992594 0.079999998 0.036928557 -0.38593423 0.23852047 0.14741376
0.017073685 0.079999998 0.037342429 -0.38593423 0.23852047 0.14741376
0.01517038 0.079999998 0.037753008 -0.38593423 0.23852047 0.14741376
0.013282478 0.079999998 0.038160332 -0.38593423 0.23852047 0.14741376
0.011409785 0.079999998 0.03856444 -0.38593423 0.23852047 0.14741376
0.0095521091 0.079999998 0.038965378 -0.38593423 0.23852047 0.14741376
0.007709261 0.079999998 0.039363179 -0.38593423 0.23852047 0.14741376
0.0058810557 0.079999998 0.039757892 -0.38593423 0.23852047 0.14741376
0.0046110475 0.079778992 0.039999999 -0.38593423 0.23852047 0.14741376
0.0042226836 0.07920175 0.039999999 -0.38593423 0.23852047 0.14741376
0.003834805 0.07862477 0.039999999 -0.38593423 0.23852047 0.14741376
0.0034474086 0.07804805 0.039999999 -0.38593423 0.23852047 0.14741376
0.0030604915 0.077471577 0.039999999 -0.38593423 0.23852047 0.14741376
0.0026740504 0.076895356 0.039999999 -0.38593423 0.23852047 0.14741376
0.0022880824 0.076319382 0.039999999 -0.38593423 0.23852047 0.14741376
0.0019025846 0.075743645 0.039999999 -0.38593423 0.23852047 0.14741376
0.0015175539 0.075168148 0.039999999 -0.38593423 0.23852047 0.14741376
0.0011329876 0.074592881 0.039999999 -0.38593423 0.23852047 0.14741376
0.0007488823 0.074017838 0.039999999 -0.38593423 0.23852047 0.14741376
0.00036523532 0.073443025 0.039999999 -0.38593423 0.23852047 0.14741376
0 0.072860725 0.039995 -0.38593423 0.23852047 0.14741376
0 0.072121292 0.03988836 -0.38593423 0.23852047 0.14741376
0 0.071380801 0.039781634 -0.38593423 0.23852047 0.14741376
0 0.070639238 0.039674822 -0.38593423 0.23852047 0.14741376
0 0.069896601 0.039567921 -0.38593423 0.23852047 0.14741376
0 0.069152884 0.039460931 -0.38593423 0.23852047 0.14741376
0 0.068408087 0.039353851 -0.38593423 0.23852047 0.14741376
0 0.067662194 0.039246682 -0.38593423 0.23852047 0.14741376
0 0.066915207 0.039139424 -0.38593423 0.23852047 0.14741376
0 0.066167116 0.039032072 -0.38593423 0.23852047 0.14741376
0 0.065417916 0.038924631 -0.38593423 0.23852047 0.14741376
0 0.064667597 0.038817093 -0.38593423 0.23852047 0.14741376
0 0.063916162 0.038709465 -0.38593423 0.23852047 0.14741376
0 0.063163601 0.038601741 -0.38593423 0.23852047 0.14741376
0 0.0624099 0.038493924 -0.38593423 0.23852047 0.14741376
0 0.061655063 0.03838601 -0.38593423 0.23852047 0.14741376
0 0.060899079 0.038278002 -0.38593423 0.23852047 0.14741376
0 0.060141943 0.038169894 -0.38593423 0.23852047 0.14741376
0 0.059383649 0.03806169 -0.38593423 0.23852047 0.14741376
0 0.058624189 0.037953384 -0.38593423 0.23852047 0.14741376
0 0.05786356 0.037844982 -0.38593423 0.23852047 0.14741376
0 0.057101749 0.037736479 -0.38593423 0.23852047 0.14741376
0 0.056338757 0.037627876 -0.38593423 0.23852047 0.14741376
0 0.055574577 0.037519172 -0.38593423 0.23852047 0.14741376
0 0.054809198 0.037410364 -0.38593423 0.23852047 0.14741376
0 0.054042615 0.037301451 -0.38593423 0.23852047 0.14741376
0 0.053274821 0.037192438 -0.38593423 0.23852047 0.14741376
0 0.052505814 0.037083317 -0.38593423 0.23852047 0.14741376
0 0.05173558 0.036974091 -0.38593423 0.23852047 0.14741376
0 0.050964121 0.036864761 -0.38593423 0.23852047 0.14741376
0 0.050191421 0.036755323 -0.38593423 0.23852047 0.14741376
0 0.049417481 0.036645778 -0.38593423 0.23852047 0.14741376
0 0.048642293 0.036536124 -0.38593423 0.23852047 0.14741376
0 0.047865845 0.036426358 -0.38593423 0.23852047 0.14741376
0 0.047088135 0.036316484 -0.38593423 0.23852047 0.14741376
0 0.046309154 0.036206499 -0.38593423 0.23852047 0.14741376
0 0.045528896 0.036096402 -0.38593423 0.23852047 0.14741376
0 0.044747356 0.035986193 -0.38593423 0.23852047 0.14741376
0 0.043964528 0.035875872 -0.38593423 0.23852047 0.14741376
0 0.043180399 0.035765436 -0.38593423 0.23852047 0.14741376
0 0.042394962 0.035654884 -0.38593423 0.23852047 0.14741376
0 0.041608218 0.035544217 -0.38593423 0.23852047 0.14741376
0 0.040820155 0.03543343 -0.38593423 0.23852047 0.14741376
0 0.040030766 0.035322528 -0.38593423 0.23852047 0.14741376
0 0.039240044 0.035211511 -0.38593423 0.23852047 0.14741376
0 0.03844798 0.035100371 -0.38593423 0.23852047 0.14741376
0 0.037654568 0.034989111 -0.38593423 0.23852047 0.14741376
0 0.036859803 0.034877732 -0.38593423 0.23852047 0.14741376
0 0.036063675 0.034766231 -0.38593423 0.23852047 0.14741376
0 0.03526618 0.034654606 -0.38593423 0.23852047 0.14741376
0 0.034467306 0.034542859 -0.38593423 0.23852047 0.14741376
0 0.03366705 0.034430988 -0.38593423 0.23852047 0.14741376
0 0.032865401 0.034318991 -0.38593423 0.23852047 0.14741376
0 0.032062355 0.034206867 -0.38593423 0.23852047 0.14741376
0 0.031257901 0.034094617 -0.38593423 0.23852047 0.14741376
0 0.030452034 0.033982243 -0.38593423 0.23852047 0.14741376
0 0.029644744 0.033869736 -0.38593423 0.23852047 0.14741376
0 0.028836025 0.033757102 -0.38593423 0.23852047 0.14741376
0 0.028025869 0.033644337 -0.38593423 0.23852047 0.14741376
0 0.027214268 0.033531439 -0.38593423 0.23852047 0.14741376
0 0.026401216 0.03341841 -0.38593423 0.23852047 0.14741376
0 0.025586702 0.03330525 -0.38593423 0.23852047 0.14741376
0 0.024770722 0.033191953 -0.38593423 0.23852047 0.14741376
0 0.023953265 0.033078525 -0.38593423 0.23852047 0.14741376
0 0.023134323 0.03296496 -0.38593423 0.23852047 0.14741376
0 0.022313889 0.032851256 -0.38593423 0.23852047 0.14741376
0 0.021491956 0.032737415 -0.38593423 0.23852047 0.14741376
0 0.020668514 0.032623436 -0.38593423 0.23852047 0.14741376
0 0.019843558 0.032509319 -0.38593423 0.23852047 0.14741376
0.031860102 0 0.022776056 -0.38593423 0.23852047 0.14741376
0 0.017359506 0.03216612 -0.38593423 0.23852047 0.14741376
0 0.016528402 0.032051437 -0.38593423 0.23852047 0.14741376
0 0.01569574 0.031936605 -0.38593423 0.23852047 0.14741376
0 0.014861513 0.031821631 -0.38593423 0.23852047 0.14741376
0 0.014025711 0.031706512 -0.38593423 0.23852047 0.14741376
0 0.013188328 0.031591244 -0.38593423 0.23852047 0.14741376
0 0.012349352 0.031475831 -0.38593423 0.23852047 0.14741376
0 0.011508777 0.031360265 -0.38593423 0.23852047 0.14741376
0 0.010666594 0.031244552 -0.38593423 0.23852047 0.14741376
5.5511151e-17 0.0098227933 0.031128686 -0.38593423 0.23852047 0.14741376
0 0.0089773666 0.031012669 -0.38593423 0.23852047 0.14741376
0 0.0081303064 0.0308965 -0.38593423 0.23852047 0.14741376
5.5511151e-17 0.0072816019 0.030780176 -0.38593423 0.23852047 0.14741376
5.5511151e-17 0.0064312457 0.030663699 -0.38593423 0.23852047 0.14741376
0.0092435973 2.7755576e-17 0.027747963 -0.38593423 0.23852047 0.14741376
0 0.0047255405 0.030430272 -0.38593423 0.23852047 0.14741376
0 0.0030131189 0.030196214 -0.38593423 0.23852047 0.14741376
0 0.0021543666 0.030078946 -0.38593423 0.23852047 0.14741376
0.002105006 0 0.029320896 -0.38593423 0.23852047 0.14741376
0 0.0004317335 0.029843926 -0.38593423 0.23852047 0.14741376
0.039213315 0.079999998 0.031811226 -0.38593423 0.23852047 0.14741376
0.037124552 0.079999998 0.032264259 -0.38593423 0.23852047 0.14741376
0.035053615 0.079999998 0.032713495 -0.38593423 0.23852047 0.14741376
0.033000261 0.079999998 0.033158988 -0.38593423 0.23852047 0.14741376
0.030964255 0.079999998 0.033600785 -0.38593423 0.23852047 0.14741376
0.028945373 0.079999998 0.034038939 -0.38593423 0.23852047 0.14741376
0.026943387 0.079999998 0.03447349 -0.38593423 0.23852047 0.14741376
0.024958082 0.079999998 0.034904487 -0.38593423 0.23852047 0.14741376
0.022989234 0.079999998 0.035331983 -0.38593423 0.23852047 0.14741376
0.021036632 0.079999998 0.035756018 -0.38593423 0.23852047 0.14741376
0.01910007 0.079999998 0.036176637 -0.38593423 0.23852047 0.14741376
0.017179338 0.079999998 0.036593884 -0.38593423 0.23852047 0.14741376
0.015274235 0.079999998 0.037007805 -0.38593423 0.23852047 0.14741376
0.013384562 0.079999998 0.037418436 -0.38593423 0.23852047 0.14741376
0.011510123 0.079999998 0.037825827 -0.38593423 0.23852047 0.14741376
0.0096507268 0.079999998 0.038230013 -0.38593423 0.23852047 0.14741376
0.0078061824 0.079999998 0.038631037 -0.38593423 0.23852047 0.14741376
0.0059763053 0.079999998 0.039028935 -0.38593423 0.23852047 0.14741376
0.0041609118 0.079999998 0.039423749 -0.38593423 0.23852047 0.14741376
0.0023598219 0.079999998 0.039815519 -0.38593423 0.23852047 0.14741376
0.001309325 0.079697944 0.039999999 -0.38593423 0.23852047 0.14741376
0.00092503784 0.079124369 0.039999999 -0.38593423 0.23852047 0.14741376
0.00054121745 0.078551039 0.039999999 -0.38593423 0.23852047 0.14741376
0.00015786088 0.077977955 0.039999999 -0.38593423 0.23852047 0.14741376
0 0.077311121 0.039937332 -0.38593423 0.23852047 0.14741376
0 0.076577619 0.039830659 -0.38593423 0.23852047 0.14741376
0 0.075843096 0.039723903 -0.38593423 0.23852047 0.14741376
0 0.07510753 0.039617065 -0.38593423 0.23852047 0.14741376
0 0.074370936 0.039510138 -0.38593423 0.23852047 0.14741376
0 0.073633291 0.039403122 -0.38593423 0.23852047 0.14741376
0 0.072894596 0.039296024 -0.38593423 0.23852047 0.14741376
0 0.072154842 0.039188832 -0.38593423 0.23852047 0.14741376
0 0.071414024 0.039081555 -0.38593423 0.23852047 0.14741376
0 0.07067214 0.038974188 -0.38593423 0.23852047 0.14741376
0 0.069929183 0.038866729 -0.38593423 0.23852047 0.14741376
0 0.069185145 0.038759183 -0.38593423 0.23852047 0.14741376
0 0.06844002 0.038651541 -0.38593423 0.23852047 0.14741376
0 0.067693807 0.038543809 -0.38593423 0.23852047 0.14741376
0 0.066946492 0.038435981 -0.38593423 0.23852047 0.14741376
0 0.066198073 0.038328063 -0.38593423 0.23852047 0.14741376
0 0.065448545 0.038220048 -0.38593423 0.23852047 0.14741376
0 0.064697899 0.038111936 -0.38593423 0.23852047 0.14741376
0 0.063946135 0.038003732 -0.38593423 0.23852047 0.14741376
0 0.063193239 0.03789543 -0.38593423 0.23852047 0.14741376
0 0.062439211 0.037787028 -0.38593423 0.23852047 0.14741376
0 0.061684038 0.037678529 -0.38593423 0.23852047 0.14741376
0 0.060927723 0.037569933 -0.38593423 0.23852047 0.14741376
0 0.060170252 0.037461236 -0.38593423 0.23852047 0.14741376
0 0.059411623 0.037352435 -0.38593423 0.23852047 0.14741376
0 0.058651827 0.037243538 -0.38593423 0.23852047 0.14741376
0 0.057890859 0.037134536 -0.38593423 0.23852047 0.14741376
0 0.057128709 0.037025433 -0.38593423 0.23852047 0.14741376
0 0.056365378 0.036916226 -0.38593423 0.23852047 0.14741376
0 0.055600855 0.036806911 -0.38593423 0.23852047 0.14741376
0 0.054835133 0.036697496 -0.38593423 0.23852047 0.14741376
0 0.054068208 0.036587972 -0.38593423 0.23852047 0.14741376
0 0.053300075 0.036478344 -0.38593423 0.23852047 0.14741376
0 0.052530721 0.036368608 -0.38593423 0.23852047 0.14741376
0 0.051760141 0.036258761 -0.38593423 0.23852047 0.14741376
0 0.050988335 0.036148809 -0.38593423 0.23852047 0.14741376
0 0.050215289 0.036038745 -0.38593423 0.23852047 0.14741376
0 0.049440999 0.03592857 -0.38593423 0.23852047 0.14741376
0 0.048665456 0.035818283 -0.38593423 0.23852047 0.14741376
0 0.047888659 0.035707884 -0.38593423 0.23852047 0.14741376
0 0.047110599 0.035597373 -0.38593423 0.23852047 0.14741376
0 0.046331264 0.03548675 -0.38593423 0.23852047 0.14741376
0 0.045550652 0.035376009 -0.38593423 0.23852047 0.14741376
0 0.044768758 0.035265155 -0.38593423 0.23852047 0.14741376
0 0.043985568 0.035154182 -0.38593423 0.23852047 0.14741376
0 0.043201081 0.035043094 -0.38593423 0.23852047 0.14741376
0 0.042415287 0.034931891 -0.38593423 0.23852047 0.14741376
0 0.041628182 0.034820564 -0.38593423 0.23852047 0.14741376
0 0.040839758 0.034709122 -0.38593423 0.23852047 0.14741376
0 0.040050004 0.034597557 -0.38593423 0.23852047 0.14741376
0 0.039258916 0.034485869 -0.38593423 0.23852047 0.14741376
0 0.038466491 0.034374062 -0.38593423 0.23852047 0.14741376
0 0.037672713 0.034262132 -0.38593423 0.23852047 0.14741376
0 0.03687758 0.034150079 -0.38593423 0.23852047 0.14741376
0 0.036081083 0.034037899 -0.38593423 0.23852047 0.14741376
0 0.035283215 0.033925593 -0.38593423 0.23852047 0.14741376
0 0.034483973 0.033813164 -0.38593423 0.23852047 0.14741376
0 0.033683345 0.033700604 -0.38593423 0.23852047 0.14741376
0 0.03288132 0.033587918 -0.38593423 0.23852047 0.14741376
0 0.032077897 0.033475101 -0.38593423 0.23852047 0.14741376
0 0.031273067 0.033362158 -0.38593423 0.23852047 0.14741376
0 0.030466821 0.03324908 -0.38593423 0.23852047 0.14741376
0 0.029659152 0.033135876 -0.38593423 0.23852047 0.14741376
0 0.028850053 0.033022534 -0.38593423 0.23852047 0.14741376
0 0.028039515 0.032909062 -0.38593423 0.23852047 0.14741376
0 0.027227532 0.032795452 -0.38593423 0.23852047 0.14741376
0 0.026414094 0.032681711 -0.38593423 0.23852047 0.14741376
0 0.025599195 0.032567833 -0.38593423 0.23852047 0.14741376
0 0.024782825 0.032453816 -0.38593423 0.23852047 0.14741376
0 0.023964979 0.032339662 -0.38593423 0.23852047 0.14741376
0 0.023145648 0.03222537 -0.38593423 0.23852047 0.14741376
0 0.022324823 0.032110937 -0.38593423 0.23852047 0.14741376
0 0.021502497 0.031996362 -0.38593423 0.23852047 0.14741376
0 0.02067866 0.031881649 -0.38593423 0.23852047 0.14741376
0.035039879 0 0.021266928 -0.38593423 0.23852047 0.14741376
0 0.019026428 0.031651787 -0.38593423 0.23852047 0.14741376
0 0.018198015 0.031536642 -0.38593423 0.23852047 0.14741376
0 0.01736806 0.031421352 -0.38593423 0.23852047 0.14741376
0.02874993 2.7755576e-17 0.022656532 -0.38593423 0.23852047 0.14741376
0 0.015703488 0.031190328 -0.38593423 0.23852047 0.14741376
5.5511151e-17 0.014868856 0.031074595 -0.38593423 0.23852047 0.14741376
0 0.014032648 0.030958712 -0.38593423 0.23852047 0.14741376
5.5511151e-17 0.013194856 0.030842679 -0.38593423 0.23852047 0.14741376
5.5511151e-17 0.012355471 0.030726494 -0.38593423 0.23852047 0.14741376
0 0.011514485 0.030610159 -0.38593423 0.23852047 0.14741376
0.018076247 0 0.025017407 -0.38593423 0.23852047 0.14741376
0 0.0098276744 0.030377023 -0.38593423 0.23852047 0.14741376
0 0.0089818323 0.030260224 -0.38593423 0.23852047 0.14741376
0.013626367 2.7755576e-17 0.026002742 -0.38593423 0.23852047 0.14741376
0 0.0072852308 0.030026155 -0.38593423 0.23852047 0.14741376
0.010699809 0 0.026651127 -0.38593423 0.23852047 0.14741376
0 0.0055820141 0.029791452 -0.38593423 0.23852047 0.14741376
0 0.0047279024 0.029673861 -0.38593423 0.23852047 0.14741376
0.0063685928 0 0.02761125 -0.38593423 0.23852047 0.14741376
0 0.0030146278 0.029438192 -0.38593423 0.23852047 0.14741376
0 0.0021554467 0.029320113 -0.38593423 0.23852047 0.14741376
0 0.0012945572 0.029201871 -0.38593423 0.23852047 0.14741376
0 0.00043195038 0.029083461 -0.38593423 0.23852047 0.14741376
0.039340749 0.079999998 0.031022694 -0.38593423 0.23852047 0.14741376
0.039999999 0.078969829 0.030726034 -0.38593423 0.23852047 0.14741376
0.035176843 0.079999998 0.031932376 -0.38593423 0.23852047 0.14741376
0.033121433 0.079999998 0.032381523 -0.38593423 0.23852047 0.14741376
0.031083403 0.079999998 0.032826938 -0.38593423 0.23852047 0.14741376
0.029062526 0.079999998 0.033268668 -0.38593423 0.23852047 0.14741376
0.027058577 0.079999998 0.033706769 -0.38593423 0.23852047 0.14741376
0.025071334 0.079999998 0.034141283 -0.38593423 0.23852047 0.14741376
0.023100577 0.079999998 0.034572255 -0.38593423 0.23852047 0.14741376
0.021146096 0.079999998 0.034999736 -0.38593423 0.23852047 0.14741376
0.019207681 0.079999998 0.035423771 -0.38593423 0.23852047 0.14741376
0.017285123 0.079999998 0.035844401 -0.38593423 0.23852047 0.14741376
0.01537822 0.079999998 0.036261667 -0.38593423 0.23852047 0.14741376
0.013486774 0.079999998 0.036675621 -0.38593423 0.23852047 0.14741376
0.011610586 0.079999998 0.037086297 -0.38593423 0.23852047 0.14741376
0.0097494666 0.079999998 0.037493739 -0.38593423 0.23852047 0.14741376
0.0079032229 0.079999998 0.037897989 -0.38593423 0.23852047 0.14741376
0.0060716709 0.079999998 0.038299087 -0.38593423 0.23852047 0.14741376
0.0042546261 0.079999998 0.038697071 -0.38593423 0.23852047 0.14741376
0.0024519088 0.079999998 0.039091978 -0.38593423 0.23852047 0.14741376
0.00066334114 0.079999998 0.039483853 -0.38593423 0.23852047 0.14741376
0 0.079542242 0.039562177 -0.38593423 0.23852047 0.14741376
0 0.078811482 0.039455231 -0.38593423 0.23852047 0.14741376
0 0.078079708 0.039348196 -0.38593423 0.23852047 0.14741376
0 0.077346914 0.039241079 -0.38593423 0.23852047 0.14741376
0 0.076613098 0.039133873 -0.38593423 0.23852047 0.14741376
0 0.075878255 0.039026581 -0.38593423 0.23852047 0.14741376
0 0.075142384 0.038919199 -0.38593423 0.23852047 0.14741376
0 0.074405462 0.038811728 -0.38593423 0.23852047 0.14741376
0 0.073667504 0.038704172 -0.38593423 0.23852047 0.14741376
0 0.072928488 0.038596522 -0.38593423 0.23852047 0.14741376
0 0.072188415 0.038488783 -0.38593423 0.23852047 0.14741376
0 0.071447276 0.038380954 -0.38593423 0.23852047 0.14741376
0 0.070705071 0.038273033 -0.38593423 0.23852047 0.14741376
0 0.069961794 0.038165018 -0.38593423 0.23852047 0.14741376
0 0.069217429 0.038056906 -0.38593423 0.23852047 0.14741376
0 0.068471983 0.037948705 -0.38593423 0.23852047 0.14741376
0 0.067725442 0.037840407 -0.38593423 0.23852047 0.14741376
0 0.066977799 0.037732013 -0.38593423 0.23852047 0.14741376
0 0.066229053 0.037623525 -0.38593423 0.23852047 0.14741376
0 0.065479197 0.037514936 -0.38593423 0.23852047 0.14741376
0 0.064728223 0.037406251 -0.38593423 0.23852047 0.14741376
0 0.063976131 0.037297465 -0.38593423 0.23852047 0.14741376
0 0.0632229 0.037188582 -0.38593423 0.23852047 0.14741376
0 0.06246854 0.037079599 -0.38593423 0.23852047 0.14741376
0 0.06171304 0.036970515 -0.38593423 0.23852047 0.14741376
0 0.060956389 0.036861327 -0.38593423 0.23852047 0.14741376
0 0.060198583 0.036752038 -0.38593423 0.23852047 0.14741376
0 0.059439614 0.036642648 -0.38593423 0.23852047 0.14741376
0 0.058679484 0.036533151 -0.38593423 0.23852047 0.14741376
0 0.057918176 0.036423553 -0.38593423 0.23852047 0.14741376
0 0.057155691 0.036313847 -0.38593423 0.23852047 0.14741376
0 0.056392021 0.036204033 -0.38593423 0.23852047 0.14741376
0 0.055627156 0.036094114 -0.38593423 0.23852047 0.14741376
0 0.054861095 0.035984088 -0.38593423 0.23852047 0.14741376
0 0.054093827 0.03587395 -0.38593423 0.23852047 0.14741376
0 0.053325344 0.035763707 -0.38593423 0.23852047 0.14741376
0 0.052555647 0.035653349 -0.38593423 0.23852047 0.14741376
0 0.051784724 0.035542883 -0.38593423 0.23852047 0.14741376
0 0.051012568 0.035432305 -0.38593423 0.23852047 0.14741376
0 0.050239172 0.035321616 -0.38593423 0.23852047 0.14741376
0 0.049464535 0.035210811 -0.38593423 0.23852047 0.14741376
0 0.048688643 0.035099894 -0.38593423 0.23852047 0.14741376
0 0.047911495 0.034988858 -0.38593423 0.23852047 0.14741376
0 0.047133077 0.03487771 -0.38593423 0.23852047 0.14741376
0 0.046353392 0.034766443 -0.38593423 0.23852047 0.14741376
0 0.045572426 0.034655061 -0.38593423 0.23852047 0.14741376
0 0.044790171 0.034543559 -0.38593423 0.23852047 0.14741376
0 0.044006627 0.034431938 -0.38593423 0.23852047 0.14741376
0 0.043221783 0.034320198 -0.38593423 0.23852047 0.14741376
0 0.042435627 0.034208339 -0.38593423 0.23852047 0.14741376
0 0.041648161 0.034096356 -0.38593423 0.23852047 0.14741376
0 0.040859375 0.033984248 -0.38593423 0.23852047 0.14741376
0 0.04006926 0.033872019 -0.38593423 0.23852047 0.14741376
0 0.039277807 0.033759668 -0.38593423 0.23852047 0.14741376
0 0.038485013 0.033647191 -0.38593423 0.23852047 0.14741376
0 0.03769087 0.033534586 -0.38593423 0.23852047 0.14741376
0 0.036895368 0.033421855 -0.38593423 0.23852047 0.14741376
0 0.036098503 0.033308998 -0.38593423 0.23852047 0.14741376
0 0.035300266 0.033196013 -0.38593423 0.23852047 0.14741376
0 0.034500651 0.033082895 -0.38593423 0.23852047 0.14741376
0 0.033699647 0.03296965 -0.38593423 0.23852047 0.14741376
0 0.032897253 0.032856274 -0.38593423 0.23852047 0.14741376
0 0.032093454 0.032742765 -0.38593423 0.23852047 0.14741376
0 0.031288244 0.032629121 -0.38593423 0.23852047 0.14741376
0 0.030481622 0.032515347 -0.38593423 0.23852047 0.14741376
0 0.029673573 0.032401435 -0.38593423 0.23852047 0.14741376
0 0.028864093 0.032287389 -0.38593423 0.23852047 0.14741376
0 0.028053172 0.032173205 -0.38593423 0.23852047 0.14741376
0 0.027240805 0.032058887 -0.38593423 0.23852047 0.14741376
0 0.026426982 0.031944428 -0.38593423 0.23852047 0.14741376
0 0.025611697 0.03182983 -0.38593423 0.23852047 0.14741376
0 0.02479494 0.031715091 -0.38593423 0.23852047 0.14741376
0 0.023976704 0.031600215 -0.38593423 0.23852047 0.14741376
0 0.023156982 0.031485192 -0.38593423 0.23852047 0.14741376
0 0.022335766 0.031370029 -0.38593423 0.23852047 0.14741376
0 0.021513045 0.03125472 -0.38593423 0.23852047 0.14741376
0 0.020688815 0.031139268 -0.38593423 0.23852047 0.14741376
5.5511151e-17 0.019863065 0.031023668 -0.38593423 0.23852047 0.14741376
0 0.019035788 0.030907923 -0.38593423 0.23852047 0.14741376
0.031894073 0 0.021154268 -0.38593423 0.23852047 0.14741376
0 0.015711242 0.030443452 -0.38593423 0.23852047 0.14741376
0.024137283 0 0.022880118 -0.38593423 0.23852047 0.14741376
0 0.01320139 0.030093512 -0.38593423 0.23852047 0.14741376
0 0.011520198 0.029859446 -0.38593423 0.23852047 0.14741376
0.018085646 0 0.024227854 -0.38593423 0.23852047 0.14741376
0 0.0098325592 0.029624753 -0.38593423 0.23852047 0.14741376
0 0.0089863017 0.029507169 -0.38593423 0.23852047 0.14741376
0 0.0081384052 0.029389426 -0.38593423 0.23852047 0.14741376
5.5511151e-17 0.007288863 0.029271521 -0.38593423 0.23852047 0.14741376
0 0.0055848025 0.029035226 -0.38593423 0.23852047 0.14741376
0 0.0047302665 0.028916832 -0.38593423 0.23852047 0.14741376
0 0.0038740481 0.028798275 -0.38593423 0.23852047 0.14741376
0 0.0030161382 0.028679552 -0.38593423 0.23852047 0.14741376
0 0.0021565275 0.028560661 -0.38593423 0.23852047 0.14741376
0 0.0012952071 0.028441601 -0.38593423 0.23852047 0.14741376
0.00070053083 0 0.028106203 -0.38593423 0.23852047 0.14741376
0.039468352 0.079999998 0.030233113 -0.38593423 0.23852047 0.14741376
0.037375353 0.079999998 0.030693606 -0.38593423 0.23852047 0.14741376
0.035300236 0.079999998 0.031150229 -0.38593423 0.23852047 0.14741376
0.033242766 0.079999998 0.031603038 -0.38593423 0.23852047 0.14741376
0.031202709 0.079999998 0.032052077 -0.38593423 0.23852047 0.14741376
0.029179834 0.079999998 0.032497402 -0.38593423 0.23852047 0.14741376
0.027173916 0.079999998 0.032939058 -0.38593423 0.23852047 0.14741376
0.025184732 0.079999998 0.033377092 -0.38593423 0.23852047 0.14741376
0.023212066 0.079999998 0.033811554 -0.38593423 0.23852047 0.14741376
0.021255702 0.079999998 0.034242492 -0.38593423 0.23852047 0.14741376
0.019315429 0.079999998 0.034669947 -0.38593423 0.23852047 0.14741376
0.017391043 0.079999998 0.035093967 -0.38593423 0.23852047 0.14741376
0.015482336 0.079999998 0.035514593 -0.38593423 0.23852047 0.14741376
0.013589113 0.079999998 0.035931874 -0.38593423 0.23852047 0.14741376
0.011711175 0.079999998 0.036345847 -0.38593423 0.23852047 0.14741376
0.0098483283 0.079999998 0.036756553 -0.38593423 0.23852047 0.14741376
0.0080003841 0.079999998 0.03716404 -0.38593423 0.23852047 0.14741376
0.0061671543 0.079999998 0.037568342 -0.38593423 0.23852047 0.14741376
0.0043484555 0.079999998 0.0379695 -0.38593423 0.23852047 0.14741376
0.0025441076 0.079999998 0.038367558 -0.38593423 0.23852047 0.14741376
0.00075393246 0.079999998 0.038762547 -0.38593423 0.23852047 0.14741376
0 0.079579003 0.038866997 -0.38593423 0.23852047 0.14741376
0 0.07884793 0.038759522 -0.38593423 0.23852047 0.14741376
0 0.078115843 0.038651958 -0.38593423 0.23852047 0.14741376
0 0.077382736 0.038544305 -0.38593423 0.23852047 0.14741376
0 0.076648608 0.038436566 -0.38593423 0.23852047 0.14741376
0 0.075913452 0.038328733 -0.38593423 0.23852047 0.14741376
0 0.075177252 0.038220812 -0.38593423 0.23852047 0.14741376
0 0.074440017 0.038112801 -0.38593423 0.23852047 0.14741376
0 0.073701739 0.038004696 -0.38593423 0.23852047 0.14741376
0 0.072962403 0.037896499 -0.38593423 0.23852047 0.14741376
0 0.072222009 0.037788212 -0.38593423 0.23852047 0.14741376
0 0.071480557 0.037679829 -0.38593423 0.23852047 0.14741376
0 0.070738025 0.037571348 -0.38593423 0.23852047 0.14741376
0 0.069994427 0.037462775 -0.38593423 0.23852047 0.14741376
0 0.069249742 0.037354104 -0.38593423 0.23852047 0.14741376
0 0.068503968 0.037245341 -0.38593423 0.23852047 0.14741376
0 0.0677571 0.037136476 -0.38593423 0.23852047 0.14741376
0 0.067009129 0.037027512 -0.38593423 0.23852047 0.14741376
0 0.066260062 0.03691845 -0.38593423 0.23852047 0.14741376
0 0.065509878 0.036809292 -0.38593423 0.23852047 0.14741376
0 0.064758569 0.036700029 -0.38593423 0.23852047 0.14741376
0 0.064006142 0.036590666 -0.38593423 0.23852047 0.14741376
0 0.063252591 0.036481202 -0.38593423 0.23852047 0.14741376
0 0.062497895 0.036371633 -0.38593423 0.23852047 0.14741376
0 0.06174206 0.036261961 -0.38593423 0.23852047 0.14741376
0 0.060985073 0.036152184 -0.38593423 0.23852047 0.14741376
0 0.060226932 0.036042303 -0.38593423 0.23852047 0.14741376
0 0.059467632 0.035932317 -0.38593423 0.23852047 0.14741376
0 0.058707163 0.035822224 -0.38593423 0.23852047 0.14741376
0 0.057945516 0.035712022 -0.38593423 0.23852047 0.14741376
0 0.057182692 0.035601713 -0.38593423 0.23852047 0.14741376
0 0.05641868 0.035491295 -0.38593423 0.23852047 0.14741376
0 0.055653475 0.03538077 -0.38593423 0.23852047 0.14741376
0 0.054887071 0.035270128 -0.38593423 0.23852047 0.14741376
0 0.05411946 0.035159379 -0.38593423 0.23852047 0.14741376
0 0.053350635 0.035048518 -0.38593423 0.23852047 0.14741376
0 0.052580591 0.034937542 -0.38593423 0.23852047 0.14741376
0 0.051809322 0.034826454 -0.38593423 0.23852047 0.14741376
0 0.05103682 0.03471525 -0.38593423 0.23852047 0.14741376
0 0.050263077 0.034603935 -0.38593423 0.23852047 0.14741376
0 0.049488086 0.0344925 -0.38593423 0.23852047 0.14741376
0 0.048711844 0.034380946 -0.38593423 0.23852047 0.14741376
0 0.047934342 0.034269277 -0.38593423 0.23852047 0.14741376
0 0.047155578 0.034157488 -0.38593423 0.23852047 0.14741376
0 0.046375535 0.034045581 -0.38593423 0.23852047 0.14741376
0 0.045594212 0.033933554 -0.38593423 0.23852047 0.14741376
0 0.044811603 0.033821404 -0.38593423 0.23852047 0.14741376
0 0.044027701 0.033709135 -0.38593423 0.23852047 0.14741376
0 0.043242496 0.033596739 -0.38593423 0.23852047 0.14741376
0 0.042455986 0.033484221 -0.38593423 0.23852047 0.14741376
0 0.041668158 0.033371579 -0.38593423 0.23852047 0.14741376
0 0.040879007 0.033258811 -0.38593423 0.23852047 0.14741376
0 0.040088527 0.033145919 -0.38593423 0.23852047 0.14741376
0 0.039296713 0.033032898 -0.38593423 0.23852047 0.14741376
0 0.038503554 0.03291975 -0.38593423 0.23852047 0.14741376
0 0.037709042 0.032806471 -0.38593423 0.23852047 0.14741376
0 0.036913171 0.032693062 -0.38593423 0.23852047 0.14741376
0 0.036115937 0.032579526 -0.38593423 0.23852047 0.14741376
0 0.035317332 0.032465857 -0.38593423 0.23852047 0.14741376
0 0.03451734 0.032352053 -0.38593423 0.23852047 0.14741376
0 0.033715967 0.032238118 -0.38593423 0.23852047 0.14741376
0 0.032913193 0.03212405 -0.38593423 0.23852047 0.14741376
0 0.032109018 0.032009847 -0.38593423 0.23852047 0.14741376
0 0.031303436 0.031895507 -0.38593423 0.23852047 0.14741376
0 0.030496432 0.031781029 -0.38593423 0.23852047 0.14741376
0 0.029688004 0.031666413 -0.38593423 0.23852047 0.14741376
0 0.028878143 0.031551659 -0.38593423 0.23852047 0.14741376
0 0.02806684 0.031436767 -0.38593423 0.23852047 0.14741376
0 0.027254088 0.031321734 -0.38593423 0.23852047 0.14741376
0 0.026439881 0.031206558 -0.38593423 0.23852047 0.14741376
0 0.025624208 0.031091241 -0.38593423 0.23852047 0.14741376
0 0.024807064 0.03097578 -0.38593423 0.23852047 0.14741376
0 0.023988439 0.030860174 -0.38593423 0.23852047 0.14741376
0 0.023168325 0.030744424 -0.38593423 0.23852047 0.14741376
0 0.022346716 0.030628527 -0.38593423 0.23852047 0.14741376
0 0.020698978 0.030396292 -0.38593423 0.23852047 0.14741376
0.033489767 0 0.019988965 -0.38593423 0.23852047 0.14741376
0 0.018215943 0.030046817 -0.38593423 0.23852047 0.14741376
0 0.017385187 0.029930023 -0.38593423 0.23852047 0.14741376
5.5511151e-17 0.016552875 0.029813075 -0.38593423 0.23852047 0.14741376
0.027228283 0 0.021390794 -0.38593423 0.23852047 0.14741376
0 0.01488356 0.029578717 -0.38593423 0.23852047 0.14741376
0.024149975 0 0.022080388 -0.38593423 0.23852047 0.14741376
5.5511151e-17 0.013207929 0.029343737 -0.38593423 0.23852047 0.14741376
0.021105772 2.7755576e-17 0.022762619 -0.38593423 0.23852047 0.14741376
0.019596264 0 0.023101015 -0.38593423 0.23852047 0.14741376
0.01809505 2.7755576e-17 0.023437621 -0.38593423 0.23852047 0.14741376
0 0.0098374486 0.02887187 -0.38593423 0.23852047 0.14741376
0 0.0089907739 0.0287535 -0.38593423 0.23852047 0.14741376
0 0.0081424601 0.028634967 -0.38593423 0.23852047 0.14741376
0 0.0072924979 0.02851627 -0.38593423 0.23852047 0.14741376
0 0.0064408784 0.028397409 -0.38593423 0.23852047 0.14741376
0 0.0055875927 0.028278381 -0.38593423 0.23852047 0.14741376
0.0078125736 0 0.025745081 -0.38593423 0.23852047 0.14741376
0.0063750753 0 0.026067935 -0.38593423 0.23852047 0.14741376
0 0.0030176498 0.027920285 -0.38593423 0.23852047 0.14741376
0 0.0012958575 0.027680706 -0.38593423 0.23852047 0.14741376
0 0.00043238464 0.027560657 -0.38593423 0.23852047 0.14741376
0.039596129 0.079999998 0.029442476 -0.38593423 0.23852047 0.14741376
0.037501 0.079999998 0.029906714 -0.38593423 0.23852047 0.14741376
0.035423793 0.079999998 0.030367047 -0.38593423 0.23852047 0.14741376
0.033364259 0.079999998 0.030823525 -0.38593423 0.23852047 0.14741376
0.039999999 0.076703191 0.028860847 -0.38593423 0.23852047 0.14741376
0.029297294 0.079999998 0.031725124 -0.38593423 0.23852047 0.14741376
0.027289404 0.079999998 0.032170348 -0.38593423 0.23852047 0.14741376
0.025298277 0.079999998 0.032611914 -0.38593423 0.23852047 0.14741376
0.023323696 0.079999998 0.033049874 -0.38593423 0.23852047 0.14741376
0.021365445 0.079999998 0.033484276 -0.38593423 0.23852047 0.14741376
0.019423313 0.079999998 0.033915162 -0.38593423 0.23852047 0.14741376
0.017497094 0.079999998 0.03434258 -0.38593423 0.23852047 0.14741376
0.015586584 0.079999998 0.034766577 -0.38593423 0.23852047 0.14741376
0.013691582 0.079999998 0.035187189 -0.38593423 0.23852047 0.14741376
0.011811889 0.079999998 0.035604466 -0.38593423 0.23852047 0.14741376
0.0099473139 0.079999998 0.03601845 -0.38593423 0.23852047 0.14741376
0.0080976645 0.079999998 0.036429178 -0.38593423 0.23852047 0.14741376
0.006262755 0.079999998 0.036836695 -0.38593423 0.23852047 0.14741376
0.0044424003 0.079999998 0.037241038 -0.38593423 0.23852047 0.14741376
0.0026364194 0.079999998 0.037642252 -0.38593423 0.23852047 0.14741376
0.00084463414 0.079999998 0.038040366 -0.38593423 0.23852047 0.14741376
0 0.079615794 0.038171295 -0.38593423 0.23852047 0.14741376
0 0.0788844 0.038063291 -0.38593423 0.23852047 0.14741376
0 0.078152001 0.037955195 -0.38593423 0.23852047 0.14741376
0 0.077418581 0.037847009 -0.38593423 0.23852047 0.14741376
0 0.07668414 0.037738733 -0.38593423 0.23852047 0.14741376
0 0.075948663 0.037630361 -0.38593423 0.23852047 0.14741376
0 0.075212151 0.037521899 -0.38593423 0.23852047 0.14741376
0 0.074474603 0.037413344 -0.38593423 0.23852047 0.14741376
0 0.073736005 0.037304692 -0.38593423 0.23852047 0.14741376
0 0.072996348 0.037195947 -0.38593423 0.23852047 0.14741376
0 0.072255634 0.037087105 -0.38593423 0.23852047 0.14741376
0 0.071513854 0.03697817 -0.38593423 0.23852047 0.14741376
0 0.070771009 0.036869135 -0.38593423 0.23852047 0.14741376
0 0.070027083 0.036760002 -0.38593423 0.23852047 0.14741376
0 0.06928207 0.036650769 -0.38593423 0.23852047 0.14741376
0 0.068535976 0.03654144 -0.38593423 0.23852047 0.14741376
