# .PCD v0.7 - Point Cloud Data file format
VERSION 0.7
FIELDS x y z vp_x vp_y vp_z
SIZE 4 4 4 4 4 4
TYPE F F F F F F
COUNT 1 1 1 1 1 1
WIDTH 1048
HEIGHT 1
VIEWPOINT 0 0 0 1 0 0 0
POINTS 1048
DATA ascii
5.5511151e-17 0.024374539 0.019143187 -0.47704095 0 0
0 0.023623308 0.019141674 -0.47704095 0 0
0 0.022872193 0.019140208 -0.47704095 0 0
5.5511151e-17 0.021370301 0.01913742 -0.47704095 0 0
0 0.019868832 0.019134821 -0.47704095 0 0
0 0.018367756 0.019132413 -0.47704095 0 0
0 0.016867042 0.019130193 -0.47704095 0 0
0 0.016116813 0.019129155 -0.47704095 0 0
0 0.014616587 0.019127218 -0.47704095 0 0
0 0.013116651 0.019125473 -0.47704095 0 0
0 0.012366783 0.01912467 -0.47704095 0 0
0 0.011616975 0.019123914 -0.47704095 0 0
0 0.010117528 0.019122547 -0.47704095 0 0
5.5511151e-17 0.0093678804 0.019121932 -0.47704095 0 0
0 0.0086182803 0.019121366 -0.47704095 0 0
5.5511151e-17 0.0078687221 0.019120848 -0.47704095 0 0
5.5511151e-17 0.007119203 0.019120375 -0.47704095 0 0
0 0.0063697188 0.01911995 -0.47704095 0 0
0 0.0056202663 0.019119574 -0.47704095 0 0
0 0.0048708413 0.019119242 -0.47704095 0 0
0 0.0041214405 0.019118959 -0.47704095 0 0
0 0.0033720599 0.019118724 -0.47704095 0 0
0 0.0026226959 0.019118536 -0.47704095 0 0
0 0.001873345 0.019118395 -0.47704095 0 0
0 0.00037466714 0.019118253 -0.47704095 0 0
0.0012766201 0.079999998 0.018672725 -0.47704095 0 0
0 0.079016387 0.018618021 -0.47704095 0 0
0.010689252 0.079999998 0.019030275 -0.47704095 0 0
0 0.077477396 0.018608429 -0.47704095 0 0
0.020469489 0.079999998 0.019401979 -0.47704095 0 0
0 0.075939976 0.018599031 -0.47704095 0 0
0 0.075171843 0.018594405 -0.47704095 0 0
0 0.074404091 0.018589826 -0.47704095 0 0
5.5511151e-17 0.073636718 0.018585296 -0.47704095 0 0
0 0.072869711 0.018580813 -0.47704095 0 0
0 0.072103076 0.018576378 -0.47704095 0 0
0 0.071336806 0.018571991 -0.47704095 0 0
0 0.069805339 0.018563364 -0.47704095 0 0
0 0.069040135 0.018559121 -0.47704095 0 0
0 0.06827528 0.018554924 -0.47704095 0 0
0 0.067510769 0.018550778 -0.47704095 0 0
0 0.066746593 0.018546676 -0.47704095 0 0
0 0.065982759 0.018542625 -0.47704095 0 0
0 0.065219253 0.01853862 -0.47704095 0 0
0 0.064456075 0.018534662 -0.47704095 0 0
5.5511151e-17 0.062930688 0.018526889 -0.47704095 0 0
5.5511151e-17 0.061406568 0.018519305 -0.47704095 0 0
5.5511151e-17 0.059122682 0.018508283 -0.47704095 0 0
0 0.058361985 0.018504705 -0.47704095 0 0
0 0.057601582 0.018501172 -0.47704095 0 0
5.5511151e-17 0.056841467 0.018497687 -0.47704095 0 0
5.5511151e-17 0.056081634 0.018494248 -0.47704095 0 0
5.5511151e-17 0.055322085 0.018490857 -0.47704095 0 0
5.5511151e-17 0.054562811 0.018487511 -0.47704095 0 0
0 0.053045075 0.018480962 -0.47704095 0 0
0 0.05228661 0.018477757 -0.47704095 0 0
5.5511151e-17 0.050770454 0.018471487 -0.47704095 0 0
0 0.050012756 0.018468423 -0.47704095 0 0
0 0.049255311 0.018465405 -0.47704095 0 0
5.5511151e-17 0.047741152 0.018459508 -0.47704095 0 0
0 0.046227943 0.018453797 -0.47704095 0 0
0 0.045471687 0.018451011 -0.47704095 0 0
5.5511151e-17 0.044715658 0.018448271 -0.47704095 0 0
0 0.041693725 0.018437777 -0.47704095 0 0
5.5511151e-17 0.040938772 0.018435268 -0.47704095 0 0
0 0.039429467 0.018430389 -0.47704095 0 0
5.5511151e-17 0.038675111 0.01842802 -0.47704095 0 0
0 0.037920948 0.018425697 -0.47704095 0 0
0 0.037166972 0.018423419 -0.47704095 0 0
0 0.036413182 0.018421188 -0.47704095 0 0
0 0.03565957 0.018419001 -0.47704095 0 0
5.5511151e-17 0.034906138 0.018416861 -0.47704095 0 0
5.5511151e-17 0.034152877 0.018414767 -0.47704095 0 0
0 0.033399787 0.01841272 -0.47704095 0 0
0 0.032646861 0.018410718 -0.47704095 0 0
0 0.031894095 0.018408762 -0.47704095 0 0
0 0.031141492 0.018406851 -0.47704095 0 0
5.5511151e-17 0.029636741 0.018403169 -0.47704095 0 0
0 0.028884586 0.018401396 -0.47704095 0 0
0 0.028132576 0.018399667 -0.47704095 0 0
0 0.027380705 0.018397987 -0.47704095 0 0
0 0.025877366 0.018394761 -0.47704095 0 0
0 0.025125889 0.018393215 -0.47704095 0 0
0 0.024374539 0.018391717 -0.47704095 0 0
0 0.023623308 0.018390262 -0.47704095 0 0
0 0.022872193 0.018388856 -0.47704095 0 0
5.5511151e-17 0.022121193 0.018387493 -0.47704095 0 0
0 0.021370301 0.018386176 -0.47704095 0 0
0 0.019868832 0.01838368 -0.47704095 0 0
0 0.018367756 0.018381367 -0.47704095 0 0
0 0.017617356 0.018380277 -0.47704095 0 0
0 0.016867042 0.018379234 -0.47704095 0 0
0 0.016116813 0.018378235 -0.47704095 0 0
5.5511151e-17 0.015366661 0.018377282 -0.47704095 0 0
5.5511151e-17 0.014616587 0.018376375 -0.47704095 0 0
0 0.013866586 0.018375514 -0.47704095 0 0
0 0.013116651 0.018374698 -0.47704095 0 0
0 0.012366783 0.018373927 -0.47704095 0 0
5.5511151e-17 0.011616975 0.018373201 -0.47704095 0 0
5.5511151e-17 0.010117528 0.018371886 -0.47704095 0 0
0 0.0093678804 0.018371297 -0.47704095 0 0
5.5511151e-17 0.0086182803 0.018370753 -0.47704095 0 0
5.5511151e-17 0.0078687221 0.018370254 -0.47704095 0 0
0 0.007119203 0.018369801 -0.47704095 0 0
0 0.0063697188 0.018369393 -0.47704095 0 0
5.5511151e-17 0.0056202663 0.01836903 -0.47704095 0 0
5.5511151e-17 0.0048708413 0.018368714 -0.47704095 0 0
0 0.0041214405 0.018368442 -0.47704095 0 0
0 0.001873345 0.018367898 -0.47704095 0 0
0 0.0011240033 0.018367806 -0.47704095 0 0
0 0.00037466714 0.018367762 -0.47704095 0 0
0 0.079786479 0.017862065 -0.47704095 0 0
0.0059383046 0.079999998 0.018079689 -0.47704095 0 0
0 0.07824669 0.017852772 -0.47704095 0 0
0 0.077477396 0.017848196 -0.47704095 0 0
0 0.076708488 0.017843666 -0.47704095 0 0
0.025504317 0.079999998 0.018792929 -0.47704095 0 0
5.5511151e-17 0.075171843 0.017834745 -0.47704095 0 0
0 0.073636718 0.017826008 -0.47704095 0 0
0 0.072869711 0.017821709 -0.47704095 0 0
0 0.072103076 0.017817456 -0.47704095 0 0
0 0.071336806 0.017813249 -0.47704095 0 0
0 0.069805339 0.017804971 -0.47704095 0 0
5.5511151e-17 0.069040135 0.017800901 -0.47704095 0 0
0 0.06827528 0.017796878 -0.47704095 0 0
5.5511151e-17 0.067510769 0.017792899 -0.47704095 0 0
5.5511151e-17 0.065982759 0.01778508 -0.47704095 0 0
5.5511151e-17 0.065219253 0.017781239 -0.47704095 0 0
0 0.064456075 0.017777443 -0.47704095 0 0
0 0.063693218 0.017773693 -0.47704095 0 0
0 0.062930688 0.017769987 -0.47704095 0 0
0 0.062168472 0.017766329 -0.47704095 0 0
0 0.061406568 0.017762713 -0.47704095 0 0
0 0.059883676 0.017755622 -0.47704095 0 0
5.5511151e-17 0.058361985 0.01774871 -0.47704095 0 0
5.5511151e-17 0.057601582 0.017745322 -0.47704095 0 0
0 0.056841467 0.017741978 -0.47704095 0 0
0 0.056081634 0.017738679 -0.47704095 0 0
5.5511151e-17 0.055322085 0.017735425 -0.47704095 0 0
5.5511151e-17 0.054562811 0.017732218 -0.47704095 0 0
5.5511151e-17 0.053803809 0.017729055 -0.47704095 0 0
0 0.053045075 0.017725935 -0.47704095 0 0
0 0.05228661 0.017722862 -0.47704095 0 0
5.5511151e-17 0.051528402 0.017719833 -0.47704095 0 0
0 0.050770454 0.017716849 -0.47704095 0 0
5.5511151e-17 0.049255311 0.017711015 -0.47704095 0 0
5.5511151e-17 0.048498109 0.017708164 -0.47704095 0 0
0 0.047741152 0.017705359 -0.47704095 0 0
0 0.04698443 0.017702598 -0.47704095 0 0
0 0.046227943 0.017699882 -0.47704095 0 0
0 0.045471687 0.017697209 -0.47704095 0 0
0 0.044715658 0.017694581 -0.47704095 0 0
5.5511151e-17 0.043959852 0.017692 -0.47704095 0 0
5.5511151e-17 0.043204263 0.017689461 -0.47704095 0 0
0 0.042448889 0.017686965 -0.47704095 0 0
0 0.041693725 0.017684516 -0.47704095 0 0
0 0.040184017 0.017679749 -0.47704095 0 0
0 0.039429467 0.017677432 -0.47704095 0 0
5.5511151e-17 0.038675111 0.017675158 -0.47704095 0 0
0 0.037166972 0.017670745 -0.47704095 0 0
0 0.036413182 0.017668605 -0.47704095 0 0
0 0.03565957 0.017666508 -0.47704095 0 0
0 0.034906138 0.017664455 -0.47704095 0 0
0 0.034152877 0.017662447 -0.47704095 0 0
0 0.033399787 0.017660482 -0.47704095 0 0
0 0.032646861 0.017658563 -0.47704095 0 0
0 0.031141492 0.017654853 -0.47704095 0 0
5.5511151e-17 0.030389041 0.017653065 -0.47704095 0 0
0 0.028884586 0.017649621 -0.47704095 0 0
0 0.025125889 0.017641775 -0.47704095 0 0
0 0.024374539 0.017640337 -0.47704095 0 0
0 0.023623308 0.017638944 -0.47704095 0 0
5.5511151e-17 0.022872193 0.017637594 -0.47704095 0 0
0 0.021370301 0.017635023 -0.47704095 0 0
5.5511151e-17 0.020619515 0.017633805 -0.47704095 0 0
0 0.019868832 0.01763263 -0.47704095 0 0
0 0.018367756 0.017630409 -0.47704095 0 0
0 0.015366661 0.017626492 -0.47704095 0 0
0 0.014616587 0.017625622 -0.47704095 0 0
0 0.013866586 0.017624797 -0.47704095 0 0
0 0.013116651 0.017624013 -0.47704095 0 0
5.5511151e-17 0.012366783 0.017623274 -0.47704095 0 0
0 0.011616975 0.017622579 -0.47704095 0 0
0 0.0093678804 0.017620752 -0.47704095 0 0
0 0.0086182803 0.01762023 -0.47704095 0 0
0 0.0078687221 0.017619751 -0.47704095 0 0
0 0.007119203 0.017619317 -0.47704095 0 0
0 0.0063697188 0.017618926 -0.47704095 0 0
0 0.0056202663 0.017618578 -0.47704095 0 0
5.5511151e-17 0.0041214405 0.017618014 -0.47704095 0 0
0 0.0033720599 0.017617796 -0.47704095 0 0
0 0.0026226959 0.017617621 -0.47704095 0 0
0 0.001873345 0.01761749 -0.47704095 0 0
0 0.00037466714 0.01761736 -0.47704095 0 0
0.0012766201 0.079999998 0.017147096 -0.47704095 0 0
0 0.079016387 0.01709686 -0.47704095 0 0
0 0.07824669 0.017092433 -0.47704095 0 0
0.015532074 0.079999998 0.017644426 -0.47704095 0 0
0 0.076708488 0.017083714 -0.47704095 0 0
0 0.075939976 0.017079422 -0.47704095 0 0
0 0.075171843 0.017075174 -0.47704095 0 0
0 0.074404091 0.017070968 -0.47704095 0 0
0 0.072869711 0.017062692 -0.47704095 0 0
0 0.072103076 0.01705862 -0.47704095 0 0
0 0.070570894 0.017050607 -0.47704095 0 0
5.5511151e-17 0.069040135 0.017042771 -0.47704095 0 0
0 0.067510769 0.01703511 -0.47704095 0 0
0 0.066746593 0.017031346 -0.47704095 0 0
5.5511151e-17 0.065982759 0.017027624 -0.47704095 0 0
0 0.064456075 0.017020311 -0.47704095 0 0
0 0.063693218 0.017016722 -0.47704095 0 0
0 0.062930688 0.017013174 -0.47704095 0 0
0 0.062168472 0.01700967 -0.47704095 0 0
5.5511151e-17 0.061406568 0.017006209 -0.47704095 0 0
5.5511151e-17 0.059122682 0.016996089 -0.47704095 0 0
0 0.058361985 0.016992802 -0.47704095 0 0
5.5511151e-17 0.056841467 0.016986357 -0.47704095 0 0
0 0.055322085 0.016980084 -0.47704095 0 0
0 0.054562811 0.016977012 -0.47704095 0 0
0 0.053803809 0.016973983 -0.47704095 0 0
0 0.05228661 0.016968055 -0.47704095 0 0
0 0.051528402 0.016965156 -0.47704095 0 0
0 0.050012756 0.016959485 -0.47704095 0 0
5.5511151e-17 0.049255311 0.016956713 -0.47704095 0 0
0 0.048498109 0.016953984 -0.47704095 0 0
0 0.047741152 0.016951298 -0.47704095 0 0
5.5511151e-17 0.04698443 0.016948653 -0.47704095 0 0
0 0.046227943 0.016946053 -0.47704095 0 0
0 0.045471687 0.016943496 -0.47704095 0 0
5.5511151e-17 0.044715658 0.016940979 -0.47704095 0 0
0 0.043959852 0.016938506 -0.47704095 0 0
5.5511151e-17 0.043204263 0.016936077 -0.47704095 0 0
0 0.042448889 0.016933687 -0.47704095 0 0
0 0.041693725 0.016931342 -0.47704095 0 0
0 0.040938772 0.016929038 -0.47704095 0 0
0 0.040184017 0.016926778 -0.47704095 0 0
0 0.038675111 0.016922383 -0.47704095 0 0
5.5511151e-17 0.037920948 0.01692025 -0.47704095 0 0
0 0.037166972 0.016918158 -0.47704095 0 0
5.5511151e-17 0.036413182 0.016916107 -0.47704095 0 0
0 0.031894095 0.016904699 -0.47704095 0 0
0 0.031141492 0.016902944 -0.47704095 0 0
5.5511151e-17 0.030389041 0.01690123 -0.47704095 0 0
0 0.029636741 0.016899562 -0.47704095 0 0
0 0.028132576 0.016896347 -0.47704095 0 0
5.5511151e-17 0.027380705 0.016894802 -0.47704095 0 0
0 0.026628969 0.016893301 -0.47704095 0 0
0 0.025877366 0.016891841 -0.47704095 0 0
5.5511151e-17 0.025125889 0.016890422 -0.47704095 0 0
0 0.024374539 0.016889045 -0.47704095 0 0
0 0.023623308 0.016887711 -0.47704095 0 0
5.5511151e-17 0.022121193 0.016885167 -0.47704095 0 0
0 0.021370301 0.016883958 -0.47704095 0 0
5.5511151e-17 0.020619515 0.01688279 -0.47704095 0 0
0 0.019868832 0.016881665 -0.47704095 0 0
0 0.019118246 0.016880581 -0.47704095 0 0
5.5511151e-17 0.018367756 0.01687954 -0.47704095 0 0
0 0.016867042 0.016877582 -0.47704095 0 0
0 0.016116813 0.016876666 -0.47704095 0 0
0 0.015366661 0.01687579 -0.47704095 0 0
0 0.014616587 0.016874958 -0.47704095 0 0
0 0.013866586 0.016874166 -0.47704095 0 0
5.5511151e-17 0.013116651 0.016873417 -0.47704095 0 0
0 0.012366783 0.01687271 -0.47704095 0 0
0 0.011616975 0.016872043 -0.47704095 0 0
0 0.010867224 0.016871419 -0.47704095 0 0
0 0.0093678804 0.016870294 -0.47704095 0 0
0 0.0078687221 0.016869336 -0.47704095 0 0
5.5511151e-17 0.0056202663 0.016868213 -0.47704095 0 0
0 0.0048708413 0.016867921 -0.47704095 0 0
5.5511151e-17 0.0041214405 0.016867671 -0.47704095 0 0
5.5511151e-17 0.0033720599 0.016867463 -0.47704095 0 0
5.5511151e-17 0.0026226959 0.016867297 -0.47704095 0 0
5.5511151e-17 0.0011240033 0.016867088 -0.47704095 0 0
0 0.00037466714 0.016867047 -0.47704095 0 0
0 0.079786479 0.016340679 -0.47704095 0 0
0.0059383046 0.079999998 0.016539767 -0.47704095 0 0
5.5511151e-17 0.077477396 0.016327992 -0.47704095 0 0
0.020469489 0.079999998 0.017024292 -0.47704095 0 0
0 0.075939976 0.016319746 -0.47704095 0 0
0 0.075171843 0.016315686 -0.47704095 0 0
0 0.074404091 0.016311668 -0.47704095 0 0
0 0.073636718 0.016307693 -0.47704095 0 0
0 0.072869711 0.016303759 -0.47704095 0 0
5.5511151e-17 0.072103076 0.016299868 -0.47704095 0 0
0 0.071336806 0.01629602 -0.47704095 0 0
0 0.070570894 0.016292213 -0.47704095 0 0
0 0.069805339 0.016288448 -0.47704095 0 0
5.5511151e-17 0.069040135 0.016284725 -0.47704095 0 0
5.5511151e-17 0.06827528 0.016281044 -0.47704095 0 0
0 0.067510769 0.016277405 -0.47704095 0 0
0 0.066746593 0.016273808 -0.47704095 0 0
0 0.065982759 0.016270252 -0.47704095 0 0
0 0.064456075 0.016263265 -0.47704095 0 0
0 0.063693218 0.016259834 -0.47704095 0 0
0 0.062930688 0.016256444 -0.47704095 0 0
0 0.061406568 0.016249791 -0.47704095 0 0
0 0.059122682 0.01624012 -0.47704095 0 0
0 0.058361985 0.016236978 -0.47704095 0 0
5.5511151e-17 0.057601582 0.016233878 -0.47704095 0 0
0 0.056841467 0.01623082 -0.47704095 0 0
0 0.055322085 0.016224826 -0.47704095 0 0
0 0.053803809 0.016218998 -0.47704095 0 0
0 0.053045075 0.016216144 -0.47704095 0 0
0 0.05228661 0.016213333 -0.47704095 0 0
0 0.051528402 0.016210562 -0.47704095 0 0
5.5511151e-17 0.050770454 0.016207831 -0.47704095 0 0
0 0.050012756 0.016205143 -0.47704095 0 0
0 0.049255311 0.016202495 -0.47704095 0 0
0 0.048498109 0.016199887 -0.47704095 0 0
0 0.047741152 0.01619732 -0.47704095 0 0
0 0.04698443 0.016194794 -0.47704095 0 0
5.5511151e-17 0.046227943 0.01619231 -0.47704095 0 0
0 0.045471687 0.016189864 -0.47704095 0 0
0 0.044715658 0.016187461 -0.47704095 0 0
0 0.043959852 0.016185097 -0.47704095 0 0
0 0.043204263 0.016182775 -0.47704095 0 0
0 0.042448889 0.016180493 -0.47704095 0 0
5.5511151e-17 0.040938772 0.016176051 -0.47704095 0 0
0 0.040184017 0.016173892 -0.47704095 0 0
0 0.039429467 0.016171772 -0.47704095 0 0
5.5511151e-17 0.038675111 0.016169691 -0.47704095 0 0
0 0.037920948 0.016167652 -0.47704095 0 0
0 0.037166972 0.016165653 -0.47704095 0 0
0 0.03565957 0.016161779 -0.47704095 0 0
0 0.034906138 0.016159901 -0.47704095 0 0
0 0.034152877 0.016158063 -0.47704095 0 0
0 0.033399787 0.016156266 -0.47704095 0 0
5.5511151e-17 0.032646861 0.016154509 -0.47704095 0 0
5.5511151e-17 0.031894095 0.016152794 -0.47704095 0 0
5.5511151e-17 0.030389041 0.01614948 -0.47704095 0 0
0 0.029636741 0.016147885 -0.47704095 0 0
5.5511151e-17 0.027380705 0.016143339 -0.47704095 0 0
0 0.026628969 0.016141903 -0.47704095 0 0
5.5511151e-17 0.025877366 0.016140508 -0.47704095 0 0
5.5511151e-17 0.025125889 0.016139152 -0.47704095 0 0
5.5511151e-17 0.022872193 0.016135326 -0.47704095 0 0
5.5511151e-17 0.022121193 0.016134132 -0.47704095 0 0
5.5511151e-17 0.021370301 0.016132975 -0.47704095 0 0
5.5511151e-17 0.020619515 0.016131861 -0.47704095 0 0
0 0.019868832 0.016130785 -0.47704095 0 0
0 0.019118246 0.016129749 -0.47704095 0 0
0 0.018367756 0.016128754 -0.47704095 0 0
0 0.016867042 0.016126882 -0.47704095 0 0
0 0.016116813 0.016126007 -0.47704095 0 0
0 0.013866586 0.016123619 -0.47704095 0 0
0 0.013116651 0.016122904 -0.47704095 0 0
0 0.012366783 0.016122228 -0.47704095 0 0
0 0.011616975 0.016121591 -0.47704095 0 0
0 0.010117528 0.016120436 -0.47704095 0 0
0 0.0093678804 0.01611992 -0.47704095 0 0
5.5511151e-17 0.0086182803 0.016119441 -0.47704095 0 0
0 0.0078687221 0.016119005 -0.47704095 0 0
5.5511151e-17 0.007119203 0.016118607 -0.47704095 0 0
0 0.0063697188 0.016118249 -0.47704095 0 0
0 0.0056202663 0.01611793 -0.47704095 0 0
5.5511151e-17 0.0048708413 0.016117653 -0.47704095 0 0
0 0.0041214405 0.016117413 -0.47704095 0 0
0 0.0033720599 0.016117215 -0.47704095 0 0
0 0.001873345 0.016116936 -0.47704095 0 0
0 0.0011240033 0.016116858 -0.47704095 0 0
0 0.079786479 0.015580109 -0.47704095 0 0
0.0059383046 0.079999998 0.015769931 -0.47704095 0 0
0 0.07824669 0.015572004 -0.47704095 0 0
0 0.077477396 0.015568012 -0.47704095 0 0
0 0.076708488 0.015564061 -0.47704095 0 0
5.5511151e-17 0.075939976 0.015560149 -0.47704095 0 0
0 0.075171843 0.015556279 -0.47704095 0 0
0 0.074404091 0.015552448 -0.47704095 0 0
0 0.072869711 0.015544908 -0.47704095 0 0
0 0.072103076 0.015541199 -0.47704095 0 0
0 0.071336806 0.015537528 -0.47704095 0 0
5.5511151e-17 0.06827528 0.015523249 -0.47704095 0 0
0 0.067510769 0.01551978 -0.47704095 0 0
0 0.066746593 0.015516349 -0.47704095 0 0
5.5511151e-17 0.065982759 0.015512959 -0.47704095 0 0
0 0.064456075 0.015506297 -0.47704095 0 0
0 0.063693218 0.015503027 -0.47704095 0 0
0 0.062930688 0.015499795 -0.47704095 0 0
0 0.062168472 0.015496603 -0.47704095 0 0
5.5511151e-17 0.061406568 0.015493451 -0.47704095 0 0
0 0.060644969 0.015490337 -0.47704095 0 0
5.5511151e-17 0.059883676 0.015487264 -0.47704095 0 0
5.5511151e-17 0.058361985 0.015481235 -0.47704095 0 0
0 0.057601582 0.015478279 -0.47704095 0 0
0 0.056841467 0.015475363 -0.47704095 0 0
0 0.056081634 0.015472487 -0.47704095 0 0
0 0.054562811 0.01546685 -0.47704095 0 0
0 0.053803809 0.015464091 -0.47704095 0 0
0 0.053045075 0.015461371 -0.47704095 0 0
0 0.051528402 0.015456048 -0.47704095 0 0
0 0.050770454 0.015453445 -0.47704095 0 0
0 0.050012756 0.015450881 -0.47704095 0 0
0 0.047741152 0.015443423 -0.47704095 0 0
5.5511151e-17 0.04698443 0.015441014 -0.47704095 0 0
0 0.046227943 0.015438645 -0.47704095 0 0
0 0.045471687 0.015436314 -0.47704095 0 0
0 0.044715658 0.015434022 -0.47704095 0 0
0 0.043959852 0.015431769 -0.47704095 0 0
0 0.043204263 0.015429555 -0.47704095 0 0
0 0.042448889 0.015427379 -0.47704095 0 0
5.5511151e-17 0.040938772 0.015423144 -0.47704095 0 0
5.5511151e-17 0.040184017 0.015421084 -0.47704095 0 0
0 0.039429467 0.015419063 -0.47704095 0 0
5.5511151e-17 0.038675111 0.01541708 -0.47704095 0 0
0 0.037920948 0.015415136 -0.47704095 0 0
5.5511151e-17 0.037166972 0.01541323 -0.47704095 0 0
5.5511151e-17 0.034906138 0.015407745 -0.47704095 0 0
0 0.034152877 0.015405993 -0.47704095 0 0
5.5511151e-17 0.032646861 0.015402605 -0.47704095 0 0
0 0.031894095 0.015400968 -0.47704095 0 0
0 0.030389041 0.015397809 -0.47704095 0 0
0 0.029636741 0.015396289 -0.47704095 0 0
0 0.028132576 0.01539336 -0.47704095 0 0
5.5511151e-17 0.026628969 0.015390584 -0.47704095 0 0
0 0.025877366 0.015389254 -0.47704095 0 0
5.5511151e-17 0.025125889 0.015387962 -0.47704095 0 0
0 0.024374539 0.015386708 -0.47704095 0 0
0 0.023623308 0.015385492 -0.47704095 0 0
0 0.022872193 0.015384315 -0.47704095 0 0
0 0.022121193 0.015383175 -0.47704095 0 0
5.5511151e-17 0.021370301 0.015382073 -0.47704095 0 0
5.5511151e-17 0.019868832 0.015379985 -0.47704095 0 0
0 0.018367756 0.015378049 -0.47704095 0 0
0 0.017617356 0.015377137 -0.47704095 0 0
0 0.016867042 0.015376264 -0.47704095 0 0
0 0.013866586 0.015373153 -0.47704095 0 0
5.5511151e-17 0.013116651 0.015372469 -0.47704095 0 0
0 0.012366783 0.015371825 -0.47704095 0 0
5.5511151e-17 0.011616975 0.015371217 -0.47704095 0 0
5.5511151e-17 0.010867224 0.015370648 -0.47704095 0 0
5.5511151e-17 0.010117528 0.015370118 -0.47704095 0 0
5.5511151e-17 0.0086182803 0.015369169 -0.47704095 0 0
0 0.0078687221 0.015368752 -0.47704095 0 0
0 0.007119203 0.015368373 -0.47704095 0 0
5.5511151e-17 0.0063697188 0.015368031 -0.47704095 0 0
0 0.0056202663 0.015367729 -0.47704095 0 0
5.5511151e-17 0.0048708413 0.015367462 -0.47704095 0 0
0 0.0033720599 0.015367046 -0.47704095 0 0
0 0.001873345 0.015366781 -0.47704095 0 0
0 0.0011240033 0.015366704 -0.47704095 0 0
0 0.00037466714 0.015366667 -0.47704095 0 0
0.0012766201 0.079999998 0.014859275 -0.47704095 0 0
0.0059383046 0.079999998 0.015000171 -0.47704095 0 0
5.5511151e-17 0.07824669 0.014811906 -0.47704095 0 0
0 0.077477396 0.014808109 -0.47704095 0 0
5.5511151e-17 0.076708488 0.014804351 -0.47704095 0 0
0 0.075939976 0.014800631 -0.47704095 0 0
0.030639498 0.079999998 0.015747331 -0.47704095 0 0
5.5511151e-17 0.074404091 0.014793306 -0.47704095 0 0
0 0.073636718 0.014789701 -0.47704095 0 0
0 0.072869711 0.014786134 -0.47704095 0 0
0 0.071336806 0.014779114 -0.47704095 0 0
5.5511151e-17 0.069805339 0.014772247 -0.47704095 0 0
5.5511151e-17 0.069040135 0.014768871 -0.47704095 0 0
0 0.066746593 0.014758969 -0.47704095 0 0
0 0.065219253 0.014752557 -0.47704095 0 0
0 0.064456075 0.014749408 -0.47704095 0 0
0 0.063693218 0.014746296 -0.47704095 0 0
5.5511151e-17 0.062930688 0.014743222 -0.47704095 0 0
0 0.062168472 0.014740186 -0.47704095 0 0
5.5511151e-17 0.061406568 0.014737187 -0.47704095 0 0
5.5511151e-17 0.060644969 0.014734226 -0.47704095 0 0
5.5511151e-17 0.059883676 0.014731303 -0.47704095 0 0
0 0.059122682 0.014728417 -0.47704095 0 0
0 0.058361985 0.014725568 -0.47704095 0 0
5.5511151e-17 0.057601582 0.014722757 -0.47704095 0 0
5.5511151e-17 0.056841467 0.014719983 -0.47704095 0 0
0 0.055322085 0.014714547 -0.47704095 0 0
0 0.05228661 0.014704123 -0.47704095 0 0
5.5511151e-17 0.051528402 0.01470161 -0.47704095 0 0
0 0.050770454 0.014699135 -0.47704095 0 0
0 0.050012756 0.014696696 -0.47704095 0 0
0 0.049255311 0.014694294 -0.47704095 0 0
0 0.048498109 0.014691929 -0.47704095 0 0
0 0.04698443 0.014687311 -0.47704095 0 0
0 0.046227943 0.014685057 -0.47704095 0 0
5.5511151e-17 0.045471687 0.014682841 -0.47704095 0 0
5.5511151e-17 0.044715658 0.01468066 -0.47704095 0 0
0 0.043959852 0.014678517 -0.47704095 0 0
0 0.043204263 0.014676411 -0.47704095 0 0
0 0.041693725 0.014672308 -0.47704095 0 0
5.5511151e-17 0.040184017 0.014668353 -0.47704095 0 0
5.5511151e-17 0.039429467 0.014666431 -0.47704095 0 0
5.5511151e-17 0.038675111 0.014664545 -0.47704095 0 0
0 0.037920948 0.014662696 -0.47704095 0 0
0 0.037166972 0.014660883 -0.47704095 0 0
0 0.036413182 0.014659107 -0.47704095 0 0
5.5511151e-17 0.03565957 0.014657368 -0.47704095 0 0
0 0.034906138 0.014655665 -0.47704095 0 0
0 0.034152877 0.014653998 -0.47704095 0 0
0 0.033399787 0.01465237 -0.47704095 0 0
5.5511151e-17 0.032646861 0.014650776 -0.47704095 0 0
0 0.031894095 0.014649219 -0.47704095 0 0
5.5511151e-17 0.031141492 0.014647699 -0.47704095 0 0
0 0.030389041 0.014646215 -0.47704095 0 0
0 0.029636741 0.014644768 -0.47704095 0 0
0 0.028132576 0.014641983 -0.47704095 0 0
0 0.027380705 0.014640644 -0.47704095 0 0
0 0.026628969 0.014639342 -0.47704095 0 0
0 0.025877366 0.014638077 -0.47704095 0 0
0 0.025125889 0.014636848 -0.47704095 0 0
0 0.023623308 0.014634498 -0.47704095 0 0
0 0.022872193 0.014633378 -0.47704095 0 0
0 0.022121193 0.014632294 -0.47704095 0 0
0 0.021370301 0.014631246 -0.47704095 0 0
5.5511151e-17 0.020619515 0.014630235 -0.47704095 0 0
5.5511151e-17 0.019868832 0.01462926 -0.47704095 0 0
0 0.019118246 0.014628321 -0.47704095 0 0
5.5511151e-17 0.018367756 0.014627418 -0.47704095 0 0
0 0.017617356 0.014626551 -0.47704095 0 0
0 0.016867042 0.014625721 -0.47704095 0 0
0 0.014616587 0.014623447 -0.47704095 0 0
0 0.013866586 0.014622761 -0.47704095 0 0
0 0.013116651 0.014622112 -0.47704095 0 0
5.5511151e-17 0.012366783 0.014621498 -0.47704095 0 0
0 0.011616975 0.014620921 -0.47704095 0 0
0 0.0093678804 0.014619405 -0.47704095 0 0
0 0.0086182803 0.014618972 -0.47704095 0 0
0 0.0078687221 0.014618576 -0.47704095 0 0
0 0.007119203 0.014618215 -0.47704095 0 0
0 0.0063697188 0.01461789 -0.47704095 0 0
0 0.0048708413 0.014617349 -0.47704095 0 0
5.5511151e-17 0.0041214405 0.014617133 -0.47704095 0 0
5.5511151e-17 0.0033720599 0.014616952 -0.47704095 0 0
0 0.0026226959 0.014616808 -0.47704095 0 0
0 0.001873345 0.0146167 -0.47704095 0 0
0 0.0011240033 0.014616628 -0.47704095 0 0
5.5511151e-17 0.00037466714 0.014616592 -0.47704095 0 0
5.5511151e-17 0.079786479 0.014059196 -0.47704095 0 0
5.5511151e-17 0.079016387 0.014055521 -0.47704095 0 0
0.010689252 0.079999998 0.014366749 -0.47704095 0 0
0 0.077477396 0.01404828 -0.47704095 0 0
0 0.075939976 0.014041185 -0.47704095 0 0
0 0.075171843 0.014037692 -0.47704095 0 0
0 0.074404091 0.014034236 -0.47704095 0 0
0 0.073636718 0.014030815 -0.47704095 0 0
5.5511151e-17 0.071336806 0.014020773 -0.47704095 0 0
5.5511151e-17 0.070570894 0.014017497 -0.47704095 0 0
0 0.069805339 0.014014257 -0.47704095 0 0
5.5511151e-17 0.069040135 0.014011054 -0.47704095 0 0
0 0.06827528 0.014007887 -0.47704095 0 0
0 0.067510769 0.014004756 -0.47704095 0 0
0 0.066746593 0.014001661 -0.47704095 0 0
5.5511151e-17 0.065982759 0.013998602 -0.47704095 0 0
0 0.065219253 0.013995578 -0.47704095 0 0
0 0.064456075 0.01399259 -0.47704095 0 0
5.5511151e-17 0.062930688 0.013986722 -0.47704095 0 0
0 0.062168472 0.013983842 -0.47704095 0 0
5.5511151e-17 0.061406568 0.013980997 -0.47704095 0 0
0 0.060644969 0.013978188 -0.47704095 0 0
0 0.059883676 0.013975414 -0.47704095 0 0
0 0.059122682 0.013972676 -0.47704095 0 0
0 0.056841467 0.013964675 -0.47704095 0 0
5.5511151e-17 0.056081634 0.01396208 -0.47704095 0 0
0 0.055322085 0.013959519 -0.47704095 0 0
0 0.054562811 0.013956994 -0.47704095 0 0
0 0.053803809 0.013954503 -0.47704095 0 0
0 0.053045075 0.013952049 -0.47704095 0 0
5.5511151e-17 0.051528402 0.013947246 -0.47704095 0 0
0 0.050770454 0.013944897 -0.47704095 0 0
5.5511151e-17 0.050012756 0.013942583 -0.47704095 0 0
5.5511151e-17 0.049255311 0.013940305 -0.47704095 0 0
0 0.048498109 0.013938061 -0.47704095 0 0
0 0.047741152 0.013935853 -0.47704095 0 0
5.5511151e-17 0.04698443 0.01393368 -0.47704095 0 0
5.5511151e-17 0.046227943 0.013931542 -0.47704095 0 0
5.5511151e-17 0.044715658 0.01392737 -0.47704095 0 0
5.5511151e-17 0.043959852 0.013925337 -0.47704095 0 0
0 0.043204263 0.013923339 -0.47704095 0 0
0 0.042448889 0.013921375 -0.47704095 0 0
0 0.041693725 0.013919448 -0.47704095 0 0
0 0.040184017 0.013915695 -0.47704095 0 0
5.5511151e-17 0.039429467 0.013913871 -0.47704095 0 0
0 0.038675111 0.013912082 -0.47704095 0 0
0 0.037166972 0.013908608 -0.47704095 0 0
5.5511151e-17 0.036413182 0.013906923 -0.47704095 0 0
0 0.03565957 0.013905273 -0.47704095 0 0
5.5511151e-17 0.034152877 0.013902077 -0.47704095 0 0
0 0.033399787 0.013900531 -0.47704095 0 0
0 0.032646861 0.01389902 -0.47704095 0 0
5.5511151e-17 0.031894095 0.013897543 -0.47704095 0 0
5.5511151e-17 0.031141492 0.0138961 -0.47704095 0 0
5.5511151e-17 0.030389041 0.013894693 -0.47704095 0 0
5.5511151e-17 0.029636741 0.013893319 -0.47704095 0 0
0 0.028884586 0.013891981 -0.47704095 0 0
0 0.028132576 0.013890677 -0.47704095 0 0
5.5511151e-17 0.027380705 0.013889408 -0.47704095 0 0
0 0.026628969 0.013888173 -0.47704095 0 0
5.5511151e-17 0.025877366 0.013886972 -0.47704095 0 0
0 0.025125889 0.013885806 -0.47704095 0 0
0 0.023623308 0.013883578 -0.47704095 0 0
0 0.022872193 0.013882514 -0.47704095 0 0
0 0.022121193 0.013881486 -0.47704095 0 0
0 0.021370301 0.013880492 -0.47704095 0 0
0 0.020619515 0.013879533 -0.47704095 0 0
0 0.019868832 0.013878607 -0.47704095 0 0
0 0.018367756 0.01387686 -0.47704095 0 0
0 0.017617356 0.013876038 -0.47704095 0 0
0 0.016867042 0.013875251 -0.47704095 0 0
0 0.016116813 0.013874497 -0.47704095 0 0
5.5511151e-17 0.015366661 0.013873777 -0.47704095 0 0
0 0.013116651 0.013871826 -0.47704095 0 0
0 0.012366783 0.013871244 -0.47704095 0 0
0 0.011616975 0.013870697 -0.47704095 0 0
0 0.010867224 0.013870182 -0.47704095 0 0
0 0.010117528 0.013869704 -0.47704095 0 0
0 0.0093678804 0.013869259 -0.47704095 0 0
0 0.0086182803 0.013868848 -0.47704095 0 0
0 0.007119203 0.013868129 -0.47704095 0 0
5.5511151e-17 0.0056202663 0.013867548 -0.47704095 0 0
0 0.0033720599 0.013866932 -0.47704095 0 0
0 0.0026226959 0.013866795 -0.47704095 0 0
0 0.001873345 0.013866692 -0.47704095 0 0
5.5511151e-17 0.0011240033 0.013866624 -0.47704095 0 0
0.0012766201 0.079999998 0.013334435 -0.47704095 0 0
0 0.079016387 0.013295369 -0.47704095 0 0
0 0.07824669 0.013291927 -0.47704095 0 0
5.5511151e-17 0.077477396 0.01328852 -0.47704095 0 0
0 0.076708488 0.013285147 -0.47704095 0 0
0 0.075939976 0.013281808 -0.47704095 0 0
0 0.075171843 0.013278505 -0.47704095 0 0
5.5511151e-17 0.074404091 0.013275235 -0.47704095 0 0
0 0.073636718 0.013272 -0.47704095 0 0
0 0.072869711 0.013268799 -0.47704095 0 0
0 0.071336806 0.0132625 -0.47704095 0 0
0 0.070570894 0.013259402 -0.47704095 0 0
5.5511151e-17 0.069040135 0.013253308 -0.47704095 0 0
0 0.06827528 0.013250312 -0.47704095 0 0
5.5511151e-17 0.067510769 0.013247349 -0.47704095 0 0
0 0.065219253 0.013238668 -0.47704095 0 0
0 0.064456075 0.013235842 -0.47704095 0 0
0 0.063693218 0.01323305 -0.47704095 0 0
5.5511151e-17 0.062930688 0.013230291 -0.47704095 0 0
0 0.062168472 0.013227566 -0.47704095 0 0
5.5511151e-17 0.059883676 0.013219595 -0.47704095 0 0
0 0.059122682 0.013217005 -0.47704095 0 0
5.5511151e-17 0.058361985 0.013214448 -0.47704095 0 0
0 0.056841467 0.013209437 -0.47704095 0 0
0 0.056081634 0.013206981 -0.47704095 0 0
5.5511151e-17 0.055322085 0.013204559 -0.47704095 0 0
0 0.054562811 0.013202171 -0.47704095 0 0
5.5511151e-17 0.053803809 0.013199816 -0.47704095 0 0
5.5511151e-17 0.053045075 0.013197494 -0.47704095 0 0
5.5511151e-17 0.050770454 0.013190728 -0.47704095 0 0
5.5511151e-17 0.049255311 0.013186384 -0.47704095 0 0
5.5511151e-17 0.048498109 0.013184262 -0.47704095 0 0
5.5511151e-17 0.047741152 0.013182173 -0.47704095 0 0
0 0.046227943 0.013178095 -0.47704095 0 0
0 0.045471687 0.013176106 -0.47704095 0 0
0 0.044715658 0.013174149 -0.47704095 0 0
5.5511151e-17 0.043959852 0.013172226 -0.47704095 0 0
0 0.042448889 0.013168478 -0.47704095 0 0
0 0.041693725 0.013166655 -0.47704095 0 0
0 0.040184017 0.013163106 -0.47704095 0 0
0 0.039429467 0.01316138 -0.47704095 0 0
0 0.038675111 0.013159688 -0.47704095 0 0
0 0.037166972 0.013156402 -0.47704095 0 0
5.5511151e-17 0.036413182 0.013154808 -0.47704095 0 0
0 0.034906138 0.013151719 -0.47704095 0 0
0 0.034152877 0.013150224 -0.47704095 0 0
0 0.033399787 0.013148761 -0.47704095 0 0
5.5511151e-17 0.031141492 0.01314457 -0.47704095 0 0
5.5511151e-17 0.030389041 0.013143239 -0.47704095 0 0
0 0.029636741 0.01314194 -0.47704095 0 0
0 0.028884586 0.013140674 -0.47704095 0 0
0 0.028132576 0.013139441 -0.47704095 0 0
0 0.027380705 0.013138239 -0.47704095 0 0
0 0.026628969 0.013137071 -0.47704095 0 0
0 0.025877366 0.013135936 -0.47704095 0 0
0 0.025125889 0.013134832 -0.47704095 0 0
5.5511151e-17 0.024374539 0.013133762 -0.47704095 0 0
5.5511151e-17 0.023623308 0.013132725 -0.47704095 0 0
0 0.022872193 0.013131719 -0.47704095 0 0
0 0.022121193 0.013130747 -0.47704095 0 0
0 0.021370301 0.013129806 -0.47704095 0 0
0 0.020619515 0.013128899 -0.47704095 0 0
0 0.019868832 0.013128024 -0.47704095 0 0
0 0.019118246 0.013127181 -0.47704095 0 0
0 0.018367756 0.01312637 -0.47704095 0 0
5.5511151e-17 0.017617356 0.013125593 -0.47704095 0 0
5.5511151e-17 0.016867042 0.013124848 -0.47704095 0 0
0 0.016116813 0.013124135 -0.47704095 0 0
5.5511151e-17 0.015366661 0.013123455 -0.47704095 0 0
0 0.014616587 0.013122807 -0.47704095 0 0
0 0.013866586 0.013122192 -0.47704095 0 0
0 0.013116651 0.013121609 -0.47704095 0 0
5.5511151e-17 0.012366783 0.013121058 -0.47704095 0 0
0 0.011616975 0.01312054 -0.47704095 0 0
0 0.010867224 0.013120054 -0.47704095 0 0
0 0.010117528 0.013119602 -0.47704095 0 0
0 0.0078687221 0.013118436 -0.47704095 0 0
5.5511151e-17 0.007119203 0.013118112 -0.47704095 0 0
0 0.0063697188 0.013117821 -0.47704095 0 0
0 0.0048708413 0.013117336 -0.47704095 0 0
0 0.0041214405 0.013117141 -0.47704095 0 0
5.5511151e-17 0.0033720599 0.013116979 -0.47704095 0 0
5.5511151e-17 0.0026226959 0.01311685 -0.47704095 0 0
5.5511151e-17 0.001873345 0.013116753 -0.47704095 0 0
0 0.0011240033 0.013116688 -0.47704095 0 0
5.5511151e-17 0.00037466714 0.013116656 -0.47704095 0 0
5.5511151e-17 0.079786479 0.012538561 -0.47704095 0 0
0 0.079016387 0.012535283 -0.47704095 0 0
0.010689252 0.079999998 0.012812848 -0.47704095 0 0
0 0.077477396 0.012528826 -0.47704095 0 0
0 0.076708488 0.012525645 -0.47704095 0 0
0.025504317 0.079999998 0.013191995 -0.47704095 0 0
0 0.075171843 0.012519383 -0.47704095 0 0
0.035878088 0.079999998 0.013457647 -0.47704095 0 0
0 0.073636718 0.01251325 -0.47704095 0 0
5.5511151e-17 0.072869711 0.012510232 -0.47704095 0 0
5.5511151e-17 0.072103076 0.012507246 -0.47704095 0 0
5.5511151e-17 0.071336806 0.012504293 -0.47704095 0 0
0 0.070570894 0.012501372 -0.47704095 0 0
0 0.069805339 0.012498483 -0.47704095 0 0
0 0.067510769 0.012490009 -0.47704095 0 0
0 0.065982759 0.01248452 -0.47704095 0 0
0 0.065219253 0.012481824 -0.47704095 0 0
0 0.064456075 0.012479159 -0.47704095 0 0
0 0.063693218 0.012476526 -0.47704095 0 0
0 0.062930688 0.012473926 -0.47704095 0 0
0 0.062168472 0.012471356 -0.47704095 0 0
5.5511151e-17 0.061406568 0.01246882 -0.47704095 0 0
0 0.060644969 0.012466314 -0.47704095 0 0
5.5511151e-17 0.059883676 0.012463841 -0.47704095 0 0
0 0.059122682 0.012461399 -0.47704095 0 0
0 0.058361985 0.012458988 -0.47704095 0 0
0 0.057601582 0.01245661 -0.47704095 0 0
5.5511151e-17 0.056841467 0.012454264 -0.47704095 0 0
0 0.056081634 0.012451949 -0.47704095 0 0
0 0.055322085 0.012449665 -0.47704095 0 0
0 0.054562811 0.012447412 -0.47704095 0 0
0 0.053803809 0.012445192 -0.47704095 0 0
0 0.05228661 0.012440845 -0.47704095 0 0
5.5511151e-17 0.051528402 0.012438719 -0.47704095 0 0
0 0.050770454 0.012436624 -0.47704095 0 0
5.5511151e-17 0.048498109 0.012430528 -0.47704095 0 0
5.5511151e-17 0.047741152 0.012428558 -0.47704095 0 0
0 0.04698443 0.01242662 -0.47704095 0 0
0 0.046227943 0.012424713 -0.47704095 0 0
5.5511151e-17 0.045471687 0.012422837 -0.47704095 0 0
0 0.044715658 0.012420993 -0.47704095 0 0
5.5511151e-17 0.043959852 0.01241918 -0.47704095 0 0
0 0.043204263 0.012417397 -0.47704095 0 0
5.5511151e-17 0.041693725 0.012413927 -0.47704095 0 0
0 0.040938772 0.012412238 -0.47704095 0 0
0 0.039429467 0.012408954 -0.47704095 0 0
0 0.037920948 0.012405794 -0.47704095 0 0
0 0.037166972 0.01240426 -0.47704095 0 0
0 0.03565957 0.012401287 -0.47704095 0 0
0 0.034906138 0.012399846 -0.47704095 0 0
0 0.034152877 0.012398436 -0.47704095 0 0
5.5511151e-17 0.033399787 0.012397056 -0.47704095 0 0
0 0.032646861 0.012395709 -0.47704095 0 0
0 0.031141492 0.012393106 -0.47704095 0 0
0 0.030389041 0.01239185 -0.47704095 0 0
0 0.028884586 0.012389432 -0.47704095 0 0
0 0.028132576 0.012388268 -0.47704095 0 0
0 0.027380705 0.012387137 -0.47704095 0 0
0 0.026628969 0.012386035 -0.47704095 0 0
0 0.025125889 0.012383925 -0.47704095 0 0
0 0.024374539 0.012382915 -0.47704095 0 0
0 0.023623308 0.012381936 -0.47704095 0 0
0 0.022872193 0.012380989 -0.47704095 0 0
0 0.022121193 0.012380072 -0.47704095 0 0
5.5511151e-17 0.021370301 0.012379185 -0.47704095 0 0
0 0.020619515 0.012378329 -0.47704095 0 0
0 0.019868832 0.012377504 -0.47704095 0 0
0 0.019118246 0.01237671 -0.47704095 0 0
0 0.018367756 0.012375946 -0.47704095 0 0
5.5511151e-17 0.017617356 0.012375213 -0.47704095 0 0
0 0.016867042 0.01237451 -0.47704095 0 0
0 0.016116813 0.012373839 -0.47704095 0 0
0 0.015366661 0.012373197 -0.47704095 0 0
5.5511151e-17 0.014616587 0.012372586 -0.47704095 0 0
5.5511151e-17 0.013866586 0.012372007 -0.47704095 0 0
5.5511151e-17 0.013116651 0.012371456 -0.47704095 0 0
0 0.011616975 0.012370449 -0.47704095 0 0
0 0.010117528 0.012369564 -0.47704095 0 0
0 0.0093678804 0.012369167 -0.47704095 0 0
5.5511151e-17 0.0086182803 0.012368801 -0.47704095 0 0
0 0.0078687221 0.012368465 -0.47704095 0 0
0 0.007119203 0.012368159 -0.47704095 0 0
0 0.0063697188 0.012367885 -0.47704095 0 0
0 0.0056202663 0.012367641 -0.47704095 0 0
0 0.0048708413 0.012367427 -0.47704095 0 0
0 0.0033720599 0.012367092 -0.47704095 0 0
0 0.0026226959 0.012366969 -0.47704095 0 0
5.5511151e-17 0.001873345 0.012366878 -0.47704095 0 0
0 0.0011240033 0.012366817 -0.47704095 0 0
5.5511151e-17 0.00037466714 0.012366787 -0.47704095 0 0
0.0012766201 0.079999998 0.011809858 -0.47704095 0 0
0 0.079016387 0.011775259 -0.47704095 0 0
0 0.07824669 0.011772211 -0.47704095 0 0
5.5511151e-17 0.077477396 0.011769193 -0.47704095 0 0
0 0.076708488 0.011766206 -0.47704095 0 0
0 0.075939976 0.011763249 -0.47704095 0 0
5.5511151e-17 0.075171843 0.011760322 -0.47704095 0 0
0 0.074404091 0.011757427 -0.47704095 0 0
0 0.073636718 0.011754561 -0.47704095 0 0
0 0.072869711 0.011751726 -0.47704095 0 0
0 0.072103076 0.011748922 -0.47704095 0 0
5.5511151e-17 0.071336806 0.011746148 -0.47704095 0 0
0 0.069805339 0.01174069 -0.47704095 0 0
0 0.069040135 0.011738006 -0.47704095 0 0
0 0.06827528 0.011735353 -0.47704095 0 0
5.5511151e-17 0.065219253 0.011725041 -0.47704095 0 0
5.5511151e-17 0.063693218 0.011720065 -0.47704095 0 0
0 0.062168472 0.011715208 -0.47704095 0 0
0 0.061406568 0.011712825 -0.47704095 0 0
0 0.059122682 0.011705854 -0.47704095 0 0
5.5511151e-17 0.058361985 0.011703591 -0.47704095 0 0
5.5511151e-17 0.057601582 0.011701357 -0.47704095 0 0
0 0.056841467 0.011699151 -0.47704095 0 0
0 0.056081634 0.011696977 -0.47704095 0 0
0 0.054562811 0.011692716 -0.47704095 0 0
0 0.053803809 0.01169063 -0.47704095 0 0
0 0.053045075 0.011688573 -0.47704095 0 0
0 0.05228661 0.011686547 -0.47704095 0 0
0 0.051528402 0.01168455 -0.47704095 0 0
0 0.050770454 0.011682582 -0.47704095 0 0
5.5511151e-17 0.049255311 0.011678735 -0.47704095 0 0
0 0.048498109 0.011676855 -0.47704095 0 0
0 0.047741152 0.011675005 -0.47704095 0 0
0 0.044715658 0.011667899 -0.47704095 0 0
0 0.043959852 0.011666195 -0.47704095 0 0
0 0.042448889 0.011662876 -0.47704095 0 0
5.5511151e-17 0.041693725 0.01166126 -0.47704095 0 0
0 0.040938772 0.011659674 -0.47704095 0 0
5.5511151e-17 0.040184017 0.011658117 -0.47704095 0 0
0 0.039429467 0.011656589 -0.47704095 0 0
0 0.037920948 0.011653621 -0.47704095 0 0
5.5511151e-17 0.037166972 0.01165218 -0.47704095 0 0
0 0.034906138 0.011648033 -0.47704095 0 0
0 0.033399787 0.011645413 -0.47704095 0 0
5.5511151e-17 0.032646861 0.011644147 -0.47704095 0 0
0 0.031894095 0.01164291 -0.47704095 0 0
0 0.031141492 0.011641702 -0.47704095 0 0
0 0.030389041 0.011640523 -0.47704095 0 0
0 0.029636741 0.011639372 -0.47704095 0 0
5.5511151e-17 0.028132576 0.011637159 -0.47704095 0 0
0 0.027380705 0.011636095 -0.47704095 0 0
5.5511151e-17 0.026628969 0.01163506 -0.47704095 0 0
5.5511151e-17 0.025877366 0.011634055 -0.47704095 0 0
5.5511151e-17 0.025125889 0.011633078 -0.47704095 0 0
5.5511151e-17 0.024374539 0.01163213 -0.47704095 0 0
0 0.023623308 0.01163121 -0.47704095 0 0
0 0.022872193 0.01163032 -0.47704095 0 0
0 0.022121193 0.011629459 -0.47704095 0 0
0 0.020619515 0.011627822 -0.47704095 0 0
0 0.019868832 0.011627046 -0.47704095 0 0
0 0.019118246 0.0116263 -0.47704095 0 0
0 0.018367756 0.011625583 -0.47704095 0 0
0 0.016867042 0.011624234 -0.47704095 0 0
0 0.016116813 0.011623603 -0.47704095 0 0
5.5511151e-17 0.015366661 0.011623001 -0.47704095 0 0
0 0.014616587 0.011622427 -0.47704095 0 0
0 0.013866586 0.011621881 -0.47704095 0 0
0 0.013116651 0.011621365 -0.47704095 0 0
0 0.012366783 0.011620878 -0.47704095 0 0
5.5511151e-17 0.011616975 0.011620419 -0.47704095 0 0
0 0.010867224 0.011619989 -0.47704095 0 0
0 0.0093678804 0.011619215 -0.47704095 0 0
0 0.0086182803 0.01161887 -0.47704095 0 0
5.5511151e-17 0.0078687221 0.011618556 -0.47704095 0 0
5.5511151e-17 0.007119203 0.011618269 -0.47704095 0 0
5.5511151e-17 0.0063697188 0.011618011 -0.47704095 0 0
0 0.0056202663 0.011617781 -0.47704095 0 0
0 0.0048708413 0.01161758 -0.47704095 0 0
0 0.0041214405 0.011617408 -0.47704095 0 0
0 0.0033720599 0.011617265 -0.47704095 0 0
5.5511151e-17 0.001873345 0.011617064 -0.47704095 0 0
0 0.0011240033 0.011617007 -0.47704095 0 0
0 0.00037466714 0.011616979 -0.47704095 0 0
0 0.079786479 0.011018174 -0.47704095 0 0
0.0059383046 0.079999998 0.011152414 -0.47704095 0 0
5.5511151e-17 0.07824669 0.011012441 -0.47704095 0 0
0 0.077477396 0.011009619 -0.47704095 0 0
0 0.076708488 0.011006824 -0.47704095 0 0
5.5511151e-17 0.075939976 0.011004058 -0.47704095 0 0
5.5511151e-17 0.075171843 0.011001321 -0.47704095 0 0
0 0.074404091 0.010998611 -0.47704095 0 0
0 0.073636718 0.010995931 -0.47704095 0 0
5.5511151e-17 0.072103076 0.010990656 -0.47704095 0 0
0 0.071336806 0.01098806 -0.47704095 0 0
0 0.070570894 0.010985494 -0.47704095 0 0
0 0.069805339 0.010982955 -0.47704095 0 0
5.5511151e-17 0.069040135 0.010980445 -0.47704095 0 0
0 0.06827528 0.010977963 -0.47704095 0 0
0 0.066746593 0.010973083 -0.47704095 0 0
5.5511151e-17 0.065982759 0.010970686 -0.47704095 0 0
5.5511151e-17 0.065219253 0.010968315 -0.47704095 0 0
0 0.063693218 0.010963661 -0.47704095 0 0
5.5511151e-17 0.062930688 0.010961375 -0.47704095 0 0
0 0.062168472 0.010959118 -0.47704095 0 0
0 0.060644969 0.010954687 -0.47704095 0 0
0 0.059883676 0.010952514 -0.47704095 0 0
0 0.059122682 0.010950368 -0.47704095 0 0
0 0.058361985 0.01094825 -0.47704095 0 0
0 0.057601582 0.01094616 -0.47704095 0 0
5.5511151e-17 0.056841467 0.010944097 -0.47704095 0 0
0 0.056081634 0.010942063 -0.47704095 0 0
0 0.055322085 0.010940056 -0.47704095 0 0
5.5511151e-17 0.054562811 0.010938077 -0.47704095 0 0
0 0.053803809 0.010936126 -0.47704095 0 0
0 0.053045075 0.010934202 -0.47704095 0 0
0 0.05228661 0.010932306 -0.47704095 0 0
0 0.051528402 0.010930438 -0.47704095 0 0
0 0.049255311 0.010924998 -0.47704095 0 0
0 0.048498109 0.01092324 -0.47704095 0 0
0 0.045471687 0.010916483 -0.47704095 0 0
0 0.044715658 0.010914861 -0.47704095 0 0
0 0.043959852 0.010913268 -0.47704095 0 0
0 0.042448889 0.010910164 -0.47704095 0 0
5.5511151e-17 0.041693725 0.010908652 -0.47704095 0 0
0 0.040938772 0.010907169 -0.47704095 0 0
5.5511151e-17 0.040184017 0.010905712 -0.47704095 0 0
5.5511151e-17 0.039429467 0.010904282 -0.47704095 0 0
0 0.038675111 0.01090288 -0.47704095 0 0
0 0.037920948 0.010901505 -0.47704095 0 0
5.5511151e-17 0.037166972 0.010900158 -0.47704095 0 0
0 0.036413182 0.010898837 -0.47704095 0 0
5.5511151e-17 0.03565957 0.010897544 -0.47704095 0 0
5.5511151e-17 0.034906138 0.010896278 -0.47704095 0 0
5.5511151e-17 0.034152877 0.010895039 -0.47704095 0 0
0 0.033399787 0.010893827 -0.47704095 0 0
0 0.032646861 0.010892643 -0.47704095 0 0
0 0.031141492 0.010890355 -0.47704095 0 0
0 0.030389041 0.010889253 -0.47704095 0 0
5.5511151e-17 0.029636741 0.010888176 -0.47704095 0 0
5.5511151e-17 0.028132576 0.010886105 -0.47704095 0 0
0 0.027380705 0.01088511 -0.47704095 0 0
0 0.026628969 0.010884142 -0.47704095 0 0
0 0.025877366 0.010883202 -0.47704095 0 0
0 0.025125889 0.010882287 -0.47704095 0 0
0 0.024374539 0.010881401 -0.47704095 0 0
5.5511151e-17 0.022872193 0.010879708 -0.47704095 0 0
0 0.022121193 0.010878902 -0.47704095 0 0
0 0.021370301 0.010878123 -0.47704095 0 0
0 0.019868832 0.010876646 -0.47704095 0 0
0 0.019118246 0.010875948 -0.47704095 0 0
0 0.018367756 0.010875277 -0.47704095 0 0
0 0.016116813 0.010873425 -0.47704095 0 0
0 0.015366661 0.010872861 -0.47704095 0 0
0 0.013116651 0.010871331 -0.47704095 0 0
0 0.011616975 0.010870446 -0.47704095 0 0
0 0.010867224 0.010870044 -0.47704095 0 0
0 0.0093678804 0.01086932 -0.47704095 0 0
0 0.0086182803 0.010868997 -0.47704095 0 0
5.5511151e-17 0.0078687221 0.010868703 -0.47704095 0 0
0 0.007119203 0.010868435 -0.47704095 0 0
0 0.0063697188 0.010868194 -0.47704095 0 0
0 0.0056202663 0.010867978 -0.47704095 0 0
0 0.0048708413 0.010867791 -0.47704095 0 0
0 0.0041214405 0.01086763 -0.47704095 0 0
5.5511151e-17 0.0033720599 0.010867496 -0.47704095 0 0
5.5511151e-17 0.0026226959 0.010867389 -0.47704095 0 0
0 0.0011240033 0.010867255 -0.47704095 0 0
5.5511151e-17 0.079016387 0.010255381 -0.47704095 0 0
0 0.07824669 0.010252726 -0.47704095 0 0
5.5511151e-17 0.077477396 0.010250098 -0.47704095 0 0
0 0.075939976 0.010244922 -0.47704095 0 0
0 0.075171843 0.010242373 -0.47704095 0 0
5.5511151e-17 0.074404091 0.010239851 -0.47704095 0 0
0 0.073636718 0.010237356 -0.47704095 0 0
5.5511151e-17 0.072869711 0.010234887 -0.47704095 0 0
0 0.070570894 0.010227637 -0.47704095 0 0
0 0.069805339 0.010225275 -0.47704095 0 0
0 0.069040135 0.010222937 -0.47704095 0 0
0 0.067510769 0.010218342 -0.47704095 0 0
0 0.066746593 0.010216083 -0.47704095 0 0
0 0.065982759 0.010213851 -0.47704095 0 0
0 0.064456075 0.010209465 -0.47704095 0 0
0 0.062168472 0.010203082 -0.47704095 0 0
0 0.061406568 0.010201006 -0.47704095 0 0
5.5511151e-17 0.060644969 0.010198956 -0.47704095 0 0
0 0.059883676 0.010196933 -0.47704095 0 0
5.5511151e-17 0.059122682 0.010194935 -0.47704095 0 0
0 0.058361985 0.010192963 -0.47704095 0 0
5.5511151e-17 0.056081634 0.010187203 -0.47704095 0 0
0 0.055322085 0.010185335 -0.47704095 0 0
0 0.054562811 0.010183493 -0.47704095 0 0
0 0.051528402 0.01017638 -0.47704095 0 0
0 0.050012756 0.010172978 -0.47704095 0 0
0 0.049255311 0.010171316 -0.47704095 0 0
0 0.048498109 0.010169679 -0.47704095 0 0
5.5511151e-17 0.047741152 0.010168067 -0.47704095 0 0
0 0.04698443 0.010166482 -0.47704095 0 0
5.5511151e-17 0.046227943 0.010164922 -0.47704095 0 0
0 0.045471687 0.010163387 -0.47704095 0 0
0 0.044715658 0.010161879 -0.47704095 0 0
5.5511151e-17 0.043959852 0.010160395 -0.47704095 0 0
0 0.042448889 0.010157504 -0.47704095 0 0
0 0.041693725 0.010156098 -0.47704095 0 0
0 0.040938772 0.010154716 -0.47704095 0 0
0 0.040184017 0.01015336 -0.47704095 0 0
0 0.039429467 0.010152029 -0.47704095 0 0
0 0.038675111 0.010150723 -0.47704095 0 0
0 0.037920948 0.010149444 -0.47704095 0 0
5.5511151e-17 0.037166972 0.010148189 -0.47704095 0 0
0 0.036413182 0.01014696 -0.47704095 0 0
5.5511151e-17 0.03565957 0.010145755 -0.47704095 0 0
0 0.034906138 0.010144577 -0.47704095 0 0
0 0.033399787 0.010142296 -0.47704095 0 0
5.5511151e-17 0.031894095 0.010140115 -0.47704095 0 0
5.5511151e-17 0.029636741 0.010137034 -0.47704095 0 0
5.5511151e-17 0.028884586 0.010136058 -0.47704095 0 0
0 0.026628969 0.010133279 -0.47704095 0 0
5.5511151e-17 0.025877366 0.010132402 -0.47704095 0 0
5.5511151e-17 0.025125889 0.010131552 -0.47704095 0 0
0 0.022872193 0.01012915 -0.47704095 0 0
0 0.022121193 0.010128399 -0.47704095 0 0
0 0.021370301 0.010127675 -0.47704095 0 0
5.5511151e-17 0.020619515 0.010126974 -0.47704095 0 0
0 0.019868832 0.010126299 -0.47704095 0 0
0 0.019118246 0.010125649 -0.47704095 0 0
5.5511151e-17 0.018367756 0.010125024 -0.47704095 0 0
0 0.017617356 0.010124424 -0.47704095 0 0
5.5511151e-17 0.016116813 0.0101233 -0.47704095 0 0
0 0.015366661 0.010122775 -0.47704095 0 0
0 0.013116651 0.010121351 -0.47704095 0 0
0 0.012366783 0.010120926 -0.47704095 0 0
5.5511151e-17 0.010117528 0.010119803 -0.47704095 0 0
0 0.0093678804 0.010119478 -0.47704095 0 0
0 0.0086182803 0.010119178 -0.47704095 0 0
0 0.0078687221 0.010118904 -0.47704095 0 0
0 0.0041214405 0.010117905 -0.47704095 0 0
0 0.0033720599 0.01011778 -0.47704095 0 0
0 0.001873345 0.010117605 -0.47704095 0 0
0 0.0011240033 0.010117556 -0.47704095 0 0
0 0.00037466714 0.010117531 -0.47704095 0 0
0 0.079786479 0.0094980029 -0.47704095 0 0
0 0.079016387 0.00949552 -0.47704095 0 0
5.5511151e-17 0.07824669 0.0094930623 -0.47704095 0 0
0 0.077477396 0.0094906287 -0.47704095 0 0
0 0.076708488 0.0094882194 -0.47704095 0 0
0 0.075939976 0.0094858352 -0.47704095 0 0
5.5511151e-17 0.075171843 0.0094834762 -0.47704095 0 0
0 0.074404091 0.0094811404 -0.47704095 0 0
0 0.073636718 0.0094788298 -0.47704095 0 0
0 0.072869711 0.0094765443 -0.47704095 0 0
0 0.071336806 0.0094720451 -0.47704095 0 0
5.5511151e-17 0.069805339 0.0094676437 -0.47704095 0 0
0 0.069040135 0.0094654802 -0.47704095 0 0
5.5511151e-17 0.06827528 0.00946334 -0.47704095 0 0
5.5511151e-17 0.067510769 0.009461225 -0.47704095 0 0
0 0.066746593 0.0094591342 -0.47704095 0 0
0 0.065982759 0.0094570676 -0.47704095 0 0
