# .PCD v0.7 - Point Cloud Data file format
VERSION 0.7
FIELDS x y z vp_x vp_y vp_z
SIZE 4 4 4 4 4 4
TYPE F F F F F F
COUNT 1 1 1 1 1 1
WIDTH 744
HEIGHT 1
VIEWPOINT 0 0 0 1 0 0 0
POINTS 744
DATA ascii
0 0.055118017 0.014248775 -0.38593423 -0.23852047 0.14741376
0 0.052155402 0.014668482 -0.38593423 -0.23852047 0.14741376
0 0.051172648 0.014807821 -0.38593423 -0.23852047 0.14741376
0 0.05019227 0.014946881 -0.38593423 -0.23852047 0.14741376
5.5511151e-17 0.049214248 0.015085663 -0.38593423 -0.23852047 0.14741376
0 0.048238572 0.015224169 -0.38593423 -0.23852047 0.14741376
0 0.047265228 0.015362401 -0.38593423 -0.23852047 0.14741376
0 0.04532548 0.01563805 -0.38593423 -0.23852047 0.14741376
0 0.044359054 0.01577547 -0.38593423 -0.23852047 0.14741376
0.039999999 0.072613917 0.0022832395 -0.38593423 -0.23852047 0.14741376
0.039999999 0.071552344 0.0024343138 -0.38593423 -0.23852047 0.14741376
5.5511151e-17 0.041473407 0.016186131 -0.38593423 -0.23852047 0.14741376
0 0.040516026 0.016322492 -0.38593423 -0.23852047 0.14741376
0 0.039560877 0.01645859 -0.38593423 -0.23852047 0.14741376
0.039999999 0.067330807 0.0030357107 -0.38593423 -0.23852047 0.14741376
0.039999999 0.066281542 0.0031853437 -0.38593423 -0.23852047 0.14741376
5.5511151e-17 0.036708683 0.016865334 -0.38593423 -0.23852047 0.14741376
0 0.035762329 0.017000403 -0.38593423 -0.23852047 0.14741376
0.039999999 0.063148215 0.0036325508 -0.38593423 -0.23852047 0.14741376
0 0.033876117 0.017269783 -0.38593423 -0.23852047 0.14741376
0 0.032936234 0.017404096 -0.38593423 -0.23852047 0.14741376
0 0.031998485 0.017538162 -0.38593423 -0.23852047 0.14741376
0.039999999 0.059003714 0.0042249425 -0.38593423 -0.23852047 0.14741376
0 0.03012934 0.01780555 -0.38593423 -0.23852047 0.14741376
5.5511151e-17 0.02919792 0.017938877 -0.38593423 -0.23852047 0.14741376
0 0.028268587 0.018071961 -0.38593423 -0.23852047 0.14741376
0 0.027341329 0.018204803 -0.38593423 -0.23852047 0.14741376
0 0.026416132 0.018337406 -0.38593423 -0.23852047 0.14741376
0 0.02549299 0.01846977 -0.38593423 -0.23852047 0.14741376
0 0.02457189 0.018601896 -0.38593423 -0.23852047 0.14741376
0 0.023652818 0.018733786 -0.38593423 -0.23852047 0.14741376
5.5511151e-17 0.022735765 0.018865442 -0.38593423 -0.23852047 0.14741376
5.5511151e-17 0.02182072 0.018996866 -0.38593423 -0.23852047 0.14741376
0 0.020907672 0.019128058 -0.38593423 -0.23852047 0.14741376
0 0.01999661 0.019259019 -0.38593423 -0.23852047 0.14741376
0 0.019087521 0.019389752 -0.38593423 -0.23852047 0.14741376
0 0.018180398 0.019520259 -0.38593423 -0.23852047 0.14741376
0 0.017275229 0.019650538 -0.38593423 -0.23852047 0.14741376
0 0.016372003 0.019780591 -0.38593423 -0.23852047 0.14741376
0 0.015470707 0.019910423 -0.38593423 -0.23852047 0.14741376
0 0.014571333 0.020040032 -0.38593423 -0.23852047 0.14741376
0 0.013673871 0.02016942 -0.38593423 -0.23852047 0.14741376
5.5511151e-17 0.012778309 0.020298589 -0.38593423 -0.23852047 0.14741376
0 0.011884638 0.02042754 -0.38593423 -0.23852047 0.14741376
0 0.010992847 0.020556275 -0.38593423 -0.23852047 0.14741376
0 0.010102927 0.020684794 -0.38593423 -0.23852047 0.14741376
0 0.009214865 0.020813098 -0.38593423 -0.23852047 0.14741376
0 0.0083286539 0.02094119 -0.38593423 -0.23852047 0.14741376
0 0.0074442821 0.021069072 -0.38593423 -0.23852047 0.14741376
0 0.0065617394 0.021196742 -0.38593423 -0.23852047 0.14741376
0.039999999 0.030991184 0.0082557006 -0.38593423 -0.23852047 0.14741376
0 0.0048021041 0.021451456 -0.38593423 -0.23852047 0.14741376
0 0.0039249915 0.021578504 -0.38593423 -0.23852047 0.14741376
0 0.0030496691 0.021705344 -0.38593423 -0.23852047 0.14741376
0 0.0021761274 0.021831982 -0.38593423 -0.23852047 0.14741376
0 0.0013043565 0.021958416 -0.38593423 -0.23852047 0.14741376
0 0.00043434714 0.02208465 -0.38593423 -0.23852047 0.14741376
0.00070336123 0 0.021982502 -0.38593423 -0.23852047 0.14741376
0.0021156673 0 0.021650851 -0.38593423 -0.23852047 0.14741376
0.039999999 0.022331739 0.0095115919 -0.38593423 -0.23852047 0.14741376
0.0049628457 0 0.020982413 -0.38593423 -0.23852047 0.14741376
0.0063978522 2.7755576e-17 0.020645596 -0.38593423 -0.23852047 0.14741376
0.039999999 0.019479876 0.009926266 -0.38593423 -0.23852047 0.14741376
0.0092910426 2.7755576e-17 0.019966686 -0.38593423 -0.23852047 0.14741376
0.010749366 0 0.019624561 -0.38593423 -0.23852047 0.14741376
0.012215602 2.7755576e-17 0.019280635 -0.38593423 -0.23852047 0.14741376
0.013689823 0 0.018934891 -0.38593423 -0.23852047 0.14741376
0.0151721 0 0.018587314 -0.38593423 -0.23852047 0.14741376
0.039999999 0.013826415 0.010749892 -0.38593423 -0.23852047 0.14741376
0.01816112 0 0.017886588 -0.38593423 -0.23852047 0.14741376
0.019668013 0 0.017533407 -0.38593423 -0.23852047 0.14741376
0.021183262 0 0.017178321 -0.38593423 -0.23852047 0.14741376
0.022706944 2.7755576e-17 0.016821317 -0.38593423 -0.23852047 0.14741376
0.024239138 0 0.016462374 -0.38593423 -0.23852047 0.14741376
0.025779922 2.7755576e-17 0.016101476 -0.38593423 -0.23852047 0.14741376
0.027329376 0 0.015738605 -0.38593423 -0.23852047 0.14741376
0.028887581 2.7755576e-17 0.015373738 -0.38593423 -0.23852047 0.14741376
0.030454619 2.7755576e-17 0.015006863 -0.38593423 -0.23852047 0.14741376
0.032030575 0 0.014637955 -0.38593423 -0.23852047 0.14741376
0.03361553 2.7755576e-17 0.014266999 -0.38593423 -0.23852047 0.14741376
0.035209566 0 0.013893974 -0.38593423 -0.23852047 0.14741376
0.036812779 0 0.013518861 -0.38593423 -0.23852047 0.14741376
0.038425248 2.7755576e-17 0.013141639 -0.38593423 -0.23852047 0.14741376
0 0.079681478 0.009942783 -0.38593423 -0.23852047 0.14741376
0 0.078628689 0.010091538 -0.38593423 -0.23852047 0.14741376
0 0.077578671 0.010239958 -0.38593423 -0.23852047 0.14741376
0 0.076531403 0.010388047 -0.38593423 -0.23852047 0.14741376
0 0.075486876 0.010535805 -0.38593423 -0.23852047 0.14741376
0 0.074445069 0.010683234 -0.38593423 -0.23852047 0.14741376
0 0.073405966 0.010830338 -0.38593423 -0.23852047 0.14741376
0 0.072369553 0.010977118 -0.38593423 -0.23852047 0.14741376
0 0.071335822 0.011123575 -0.38593423 -0.23852047 0.14741376
0 0.070304744 0.011269713 -0.38593423 -0.23852047 0.14741376
5.5511151e-17 0.069276318 0.011415532 -0.38593423 -0.23852047 0.14741376
0 0.068250515 0.011561034 -0.38593423 -0.23852047 0.14741376
0 0.066206746 0.011851098 -0.38593423 -0.23852047 0.14741376
0 0.063160434 0.012283869 -0.38593423 -0.23852047 0.14741376
0 0.061142296 0.012570854 -0.38593423 -0.23852047 0.14741376
0 0.060137 0.012713894 -0.38593423 -0.23852047 0.14741376
0 0.059134204 0.012856634 -0.38593423 -0.23852047 0.14741376
0 0.058133893 0.012999076 -0.38593423 -0.23852047 0.14741376
0 0.057136048 0.013141223 -0.38593423 -0.23852047 0.14741376
0 0.055147719 0.013424635 -0.38593423 -0.23852047 0.14741376
0 0.054157201 0.013565904 -0.38593423 -0.23852047 0.14741376
0 0.053169101 0.013706883 -0.38593423 -0.23852047 0.14741376
0 0.052183401 0.013847576 -0.38593423 -0.23852047 0.14741376
0 0.051200088 0.013987984 -0.38593423 -0.23852047 0.14741376
0 0.050219152 0.014128108 -0.38593423 -0.23852047 0.14741376
0.039999999 0.07906545 0.00046810374 -0.38593423 -0.23852047 0.14741376
0 0.048264343 0.01440751 -0.38593423 -0.23852047 0.14741376
0 0.047290448 0.014546792 -0.38593423 -0.23852047 0.14741376
0 0.045349613 0.014824527 -0.38593423 -0.23852047 0.14741376
0 0.044382643 0.014962984 -0.38593423 -0.23852047 0.14741376
0 0.043417957 0.015101168 -0.38593423 -0.23852047 0.14741376
0 0.042455543 0.015239081 -0.38593423 -0.23852047 0.14741376
0 0.041495383 0.015376726 -0.38593423 -0.23852047 0.14741376
0 0.040537473 0.015514105 -0.38593423 -0.23852047 0.14741376
0 0.039581791 0.015651217 -0.38593423 -0.23852047 0.14741376
5.5511151e-17 0.038628332 0.015788063 -0.38593423 -0.23852047 0.14741376
0.039999999 0.066303462 0.0022965127 -0.38593423 -0.23852047 0.14741376
0 0.036728021 0.016060974 -0.38593423 -0.23852047 0.14741376
0 0.035781149 0.016197039 -0.38593423 -0.23852047 0.14741376
0 0.034836445 0.016332846 -0.38593423 -0.23852047 0.14741376
0 0.033893902 0.016468398 -0.38593423 -0.23852047 0.14741376
0 0.032953508 0.016603695 -0.38593423 -0.23852047 0.14741376
0 0.032015245 0.016738737 -0.38593423 -0.23852047 0.14741376
0.039999999 0.059021652 0.0033437386 -0.38593423 -0.23852047 0.14741376
0 0.030145086 0.01700807 -0.38593423 -0.23852047 0.14741376
0 0.029213162 0.017142363 -0.38593423 -0.23852047 0.14741376
0 0.028283326 0.017276408 -0.38593423 -0.23852047 0.14741376
0 0.027355568 0.017410209 -0.38593423 -0.23852047 0.14741376
0 0.026429877 0.017543765 -0.38593423 -0.23852047 0.14741376
0 0.025506239 0.017677076 -0.38593423 -0.23852047 0.14741376
0 0.024584645 0.017810147 -0.38593423 -0.23852047 0.14741376
5.5511151e-17 0.023665084 0.01794298 -0.38593423 -0.23852047 0.14741376
0 0.022747543 0.018075572 -0.38593423 -0.23852047 0.14741376
0.039999999 0.048816141 0.0048164404 -0.38593423 -0.23852047 0.14741376
0 0.020918479 0.018340047 -0.38593423 -0.23852047 0.14741376
5.5511151e-17 0.020006934 0.018471934 -0.38593423 -0.23852047 0.14741376
0 0.019097367 0.018603588 -0.38593423 -0.23852047 0.14741376
0 0.018189766 0.018735008 -0.38593423 -0.23852047 0.14741376
0 0.01728412 0.0188662 -0.38593423 -0.23852047 0.14741376
0 0.016380418 0.018997164 -0.38593423 -0.23852047 0.14741376
0.039999999 0.041804288 0.0058317618 -0.38593423 -0.23852047 0.14741376
0.039999999 0.040811181 0.0059757978 -0.38593423 -0.23852047 0.14741376
5.5511151e-17 0.013680878 0.019388694 -0.38593423 -0.23852047 0.14741376
0 0.012784851 0.019518755 -0.38593423 -0.23852047 0.14741376
0 0.011890716 0.019648595 -0.38593423 -0.23852047 0.14741376
5.5511151e-17 0.010998463 0.019778214 -0.38593423 -0.23852047 0.14741376
0 0.010108082 0.019907614 -0.38593423 -0.23852047 0.14741376
0 0.0092195626 0.020036796 -0.38593423 -0.23852047 0.14741376
0.039999999 0.033917915 0.0069771931 -0.38593423 -0.23852047 0.14741376
0.039999999 0.032941379 0.0071192873 -0.38593423 -0.23852047 0.14741376
5.5511151e-17 0.006565074 0.020423047 -0.38593423 -0.23852047 0.14741376
0 0.0056839008 0.02055137 -0.38593423 -0.23852047 0.14741376
0.039999999 0.030023864 0.0075441576 -0.38593423 -0.23852047 0.14741376
0 0.0039269798 0.020807384 -0.38593423 -0.23852047 0.14741376
0 0.0030512125 0.020935075 -0.38593423 -0.23852047 0.14741376
0.039999999 0.027124245 0.0079669394 -0.38593423 -0.23852047 0.14741376
0 0.0013050153 0.021189839 -0.38593423 -0.23852047 0.14741376
0 0.00043456629 0.02131691 -0.38593423 -0.23852047 0.14741376
0.00070371642 0 0.021214085 -0.38593423 -0.23852047 0.14741376
0.0021167384 0 0.020880232 -0.38593423 -0.23852047 0.14741376
0.0035372679 2.7755576e-17 0.020544656 -0.38593423 -0.23852047 0.14741376
0.039999999 0.02137755 0.008806387 -0.38593423 -0.23852047 0.14741376
0.0064011174 0 0.019868281 -0.38593423 -0.23852047 0.14741376
0.0078445738 2.7755576e-17 0.019527448 -0.38593423 -0.23852047 0.14741376
0.039999999 0.018529911 0.0092231259 -0.38593423 -0.23852047 0.14741376
0.039999999 0.017584439 0.0093616052 -0.38593423 -0.23852047 0.14741376
0.012221904 2.7755576e-17 0.018494183 -0.38593423 -0.23852047 0.14741376
0.013696904 0 0.018146116 -0.38593423 -0.23852047 0.14741376
0.039999999 0.014759101 0.0097757624 -0.38593423 -0.23852047 0.14741376
0.016671175 0 0.017444419 -0.38593423 -0.23852047 0.14741376
0.018170593 0 0.017090751 -0.38593423 -0.23852047 0.14741376
0.0196783 2.7755576e-17 0.016735185 -0.38593423 -0.23852047 0.14741376
0.039999999 0.01101747 0.010325028 -0.38593423 -0.23852047 0.14741376
0.022718886 0 0.016018275 -0.38593423 -0.23852047 0.14741376
0.024251921 2.7755576e-17 0.0156569 -0.38593423 -0.23852047 0.14741376
0.039999999 0.0082300194 0.010734813 -0.38593423 -0.23852047 0.14741376
0.027343871 0 0.014928209 -0.38593423 -0.23852047 0.14741376
0.028902946 0 0.014560859 -0.38593423 -0.23852047 0.14741376
0.039999999 0.0054583722 0.011142782 -0.38593423 -0.23852047 0.14741376
0.032047708 0 0.013820054 -0.38593423 -0.23852047 0.14741376
0.03363356 2.7755576e-17 0.01344656 -0.38593423 -0.23852047 0.14741376
0.036832638 2.7755576e-17 0.012693294 -0.38593423 -0.23852047 0.14741376
0.038446039 0 0.012313481 -0.38593423 -0.23852047 0.14741376
0 0.079725765 0.0090903146 -0.38593423 -0.23852047 0.14741376
0 0.078672335 0.0092402771 -0.38593423 -0.23852047 0.14741376
0.0029033697 0.079999998 0.0083515514 -0.38593423 -0.23852047 0.14741376
0 0.074486174 0.009836752 -0.38593423 -0.23852047 0.14741376
0 0.073446445 0.0099850371 -0.38593423 -0.23852047 0.14741376
0 0.071375057 0.010280621 -0.38593423 -0.23852047 0.14741376
0 0.07034336 0.010427924 -0.38593423 -0.23852047 0.14741376
0 0.068287909 0.010721561 -0.38593423 -0.23852047 0.14741376
0 0.067264117 0.010867899 -0.38593423 -0.23852047 0.14741376
0 0.06522432 0.011159625 -0.38593423 -0.23852047 0.14741376
0 0.062183898 0.011594864 -0.38593423 -0.23852047 0.14741376
0 0.061175499 0.011739324 -0.38593423 -0.23852047 0.14741376
0 0.060169619 0.011883479 -0.38593423 -0.23852047 0.14741376
0 0.059166238 0.012027328 -0.38593423 -0.23852047 0.14741376
0 0.058165345 0.012170875 -0.38593423 -0.23852047 0.14741376
5.5511151e-17 0.057166923 0.012314121 -0.38593423 -0.23852047 0.14741376
0 0.056170963 0.012457068 -0.38593423 -0.23852047 0.14741376
0.032618117 0.079999998 0.0012055992 -0.38593423 -0.23852047 0.14741376
0 0.054186359 0.012742071 -0.38593423 -0.23852047 0.14741376
0 0.052211426 0.0130259 -0.38593423 -0.23852047 0.14741376
0 0.051227555 0.013167378 -0.38593423 -0.23852047 0.14741376
5.5511151e-17 0.050246056 0.013308568 -0.38593423 -0.23852047 0.14741376
0 0.049266923 0.013449471 -0.38593423 -0.23852047 0.14741376
0.039192472 0.07741639 0 -0.38593423 -0.23852047 0.14741376
0 0.047315694 0.013730424 -0.38593423 -0.23852047 0.14741376
0.039999999 0.075868197 2.9435092e-05 -0.38593423 -0.23852047 0.14741376
0 0.045373764 0.014010249 -0.38593423 -0.23852047 0.14741376
0 0.044406254 0.014149743 -0.38593423 -0.23852047 0.14741376
0.039999999 0.072664812 0.00049129379 -0.38593423 -0.23852047 0.14741376
0 0.042478073 0.014427904 -0.38593423 -0.23852047 0.14741376
0 0.041517381 0.014566573 -0.38593423 -0.23852047 0.14741376
0 0.040558934 0.014704971 -0.38593423 -0.23852047 0.14741376
0.039999999 0.068428688 0.0011028644 -0.38593423 -0.23852047 0.14741376
0 0.038648736 0.014980957 -0.38593423 -0.23852047 0.14741376
0 0.037696958 0.01511855 -0.38593423 -0.23852047 0.14741376
0.039999999 0.065277405 0.0015584244 -0.38593423 -0.23852047 0.14741376
0 0.035799984 0.01539294 -0.38593423 -0.23852047 0.14741376
0 0.034854762 0.01552974 -0.38593423 -0.23852047 0.14741376
5.5511151e-17 0.033911701 0.01566628 -0.38593423 -0.23852047 0.14741376
5.5511151e-17 0.032970794 0.015802562 -0.38593423 -0.23852047 0.14741376
0 0.032032024 0.015938586 -0.38593423 -0.23852047 0.14741376
0 0.031095378 0.016074352 -0.38593423 -0.23852047 0.14741376
0 0.030160846 0.016209867 -0.38593423 -0.23852047 0.14741376
0 0.029228417 0.016345127 -0.38593423 -0.23852047 0.14741376
0 0.02829808 0.016480135 -0.38593423 -0.23852047 0.14741376
0 0.027369823 0.016614893 -0.38593423 -0.23852047 0.14741376
0 0.026443634 0.016749404 -0.38593423 -0.23852047 0.14741376
0 0.0255195 0.016883668 -0.38593423 -0.23852047 0.14741376
0.039999999 0.050852749 0.0036504746 -0.38593423 -0.23852047 0.14741376
0 0.02275933 0.017284991 -0.38593423 -0.23852047 0.14741376
0 0.021843312 0.01741828 -0.38593423 -0.23852047 0.14741376
0.039999999 0.04781986 0.0040917904 -0.38593423 -0.23852047 0.14741376
0 0.020017268 0.017684143 -0.38593423 -0.23852047 0.14741376
0.039999999 0.045808937 0.0043846839 -0.38593423 -0.23852047 0.14741376
0.039999999 0.044806741 0.0045307395 -0.38593423 -0.23852047 0.14741376
0.039999999 0.043806706 0.0046765371 -0.38593423 -0.23852047 0.14741376
0 0.016388843 0.018213036 -0.38593423 -0.23852047 0.14741376
0 0.015486603 0.018344678 -0.38593423 -0.23852047 0.14741376
0 0.014586289 0.018476089 -0.38593423 -0.23852047 0.14741376
0 0.013687891 0.018607272 -0.38593423 -0.23852047 0.14741376
0 0.012791398 0.018738229 -0.38593423 -0.23852047 0.14741376
0 0.011896798 0.018868959 -0.38593423 -0.23852047 0.14741376
0 0.011004083 0.018999465 -0.38593423 -0.23852047 0.14741376
0 0.010113242 0.019129748 -0.38593423 -0.23852047 0.14741376
0 0.009224264 0.019259807 -0.38593423 -0.23852047 0.14741376
0.039999999 0.033922598 0.0061206389 -0.38593423 -0.23852047 0.14741376
0 0.0074518588 0.019519269 -0.38593423 -0.23852047 0.14741376
0.039999999 0.031970549 0.0064065093 -0.38593423 -0.23852047 0.14741376
0 0.0056867874 0.019777859 -0.38593423 -0.23852047 0.14741376
0 0.0048069768 0.01990683 -0.38593423 -0.23852047 0.14741376
0.039999999 0.029057546 0.0068335258 -0.38593423 -0.23852047 0.14741376
0 0.0030527571 0.02016413 -0.38593423 -0.23852047 0.14741376
0.039999999 0.027125459 0.0071170274 -0.38593423 -0.23852047 0.14741376
0 0.0013056747 0.020420587 -0.38593423 -0.23852047 0.14741376
0 0.00043478562 0.0205485 -0.38593423 -0.23852047 0.14741376
0.00070407189 0 0.020444997 -0.38593423 -0.23852047 0.14741376
0.0021178105 0 0.020108936 -0.38593423 -0.23852047 0.14741376
0.039999999 0.022329334 0.0078217462 -0.38593423 -0.23852047 0.14741376
0.0049679 2.7755576e-17 0.019431591 -0.38593423 -0.23852047 0.14741376
0.0064043854 2.7755576e-17 0.019090276 -0.38593423 -0.23852047 0.14741376
0.0078485897 2.7755576e-17 0.018747179 -0.38593423 -0.23852047 0.14741376
0.039999999 0.018526807 0.0083814608 -0.38593423 -0.23852047 0.14741376
0.010760432 0 0.018055569 -0.38593423 -0.23852047 0.14741376
0.012228211 0 0.017707026 -0.38593423 -0.23852047 0.14741376
0.013703993 0 0.017356632 -0.38593423 -0.23852047 0.14741376
0.015187846 2.7755576e-17 0.017004374 -0.38593423 -0.23852047 0.14741376
0.016679849 2.7755576e-17 0.016650233 -0.38593423 -0.23852047 0.14741376
0.018180074 2.7755576e-17 0.016294194 -0.38593423 -0.23852047 0.14741376
0.019688595 2.7755576e-17 0.015936237 -0.38593423 -0.23852047 0.14741376
0.021205492 0 0.015576344 -0.38593423 -0.23852047 0.14741376
0.039999999 0.010079276 0.0096280891 -0.38593423 -0.23852047 0.14741376
0.024264717 0 0.014850683 -0.38593423 -0.23852047 0.14741376
0.025807204 2.7755576e-17 0.014484877 -0.38593423 -0.23852047 0.14741376
0.039999999 0.0072957641 0.01003984 -0.38593423 -0.23852047 0.14741376
0.028918324 0 0.013747224 -0.38593423 -0.23852047 0.14741376
0.030487122 0 0.013375338 -0.38593423 -0.23852047 0.14741376
0.039999999 0.0045279865 0.010449751 -0.38593423 -0.23852047 0.14741376
0.039999999 0.0026914179 0.010722021 -0.38593423 -0.23852047 0.14741376
0.039999999 0.0017756907 0.010857857 -0.38593423 -0.23852047 0.14741376
0.039999999 0.00086165621 0.010993497 -0.38593423 -0.23852047 0.14741376
0 0.079770096 0.0082370099 -0.38593423 -0.23852047 0.14741376
0 0.078716017 0.0083881831 -0.38593423 -0.23852047 0.14741376
0 0.077664718 0.0085390108 -0.38593423 -0.23852047 0.14741376
0 0.075570382 0.0088396408 -0.38593423 -0.23852047 0.14741376
0 0.074527316 0.0089894459 -0.38593423 -0.23852047 0.14741376
0 0.073486961 0.0091389148 -0.38593423 -0.23852047 0.14741376
0 0.071414329 0.0094368504 -0.38593423 -0.23852047 0.14741376
0 0.070382021 0.0095853209 -0.38593423 -0.23852047 0.14741376
0 0.068325341 0.0098812776 -0.38593423 -0.23852047 0.14741376
0 0.067300938 0.010028768 -0.38593423 -0.23852047 0.14741376
0.01737321 0.079999998 0.0039980393 -0.38593423 -0.23852047 0.14741376
0 0.065259941 0.010322782 -0.38593423 -0.23852047 0.14741376
0 0.064243309 0.01046931 -0.38593423 -0.23852047 0.14741376
0 0.062217724 0.010761417 -0.38593423 -0.23852047 0.14741376
0 0.061208736 0.010906999 -0.38593423 -0.23852047 0.14741376
0 0.060202267 0.011052269 -0.38593423 -0.23852047 0.14741376
0 0.059198301 0.011197231 -0.38593423 -0.23852047 0.14741376
0 0.058196828 0.011341885 -0.38593423 -0.23852047 0.14741376
0 0.057197828 0.011486233 -0.38593423 -0.23852047 0.14741376
5.5511151e-17 0.0552072 0.011774018 -0.38593423 -0.23852047 0.14741376
0.03394451 0.079962887 0 -0.38593423 -0.23852047 0.14741376
0 0.053226311 0.012060603 -0.38593423 -0.23852047 0.14741376
0 0.052239481 0.012203449 -0.38593423 -0.23852047 0.14741376
0.035276692 0.077742256 0 -0.38593423 -0.23852047 0.14741376
0.035720792 0.077002756 0 -0.38593423 -0.23852047 0.14741376
0.036164917 0.076263599 0 -0.38593423 -0.23852047 0.14741376
0 0.048315965 0.012771901 -0.38593423 -0.23852047 0.14741376
0 0.047340967 0.012913289 -0.38593423 -0.23852047 0.14741376
0.037497468 0.074048162 0 -0.38593423 -0.23852047 0.14741376
0 0.045397941 0.013195209 -0.38593423 -0.23852047 0.14741376
5.5511151e-17 0.044429883 0.013335744 -0.38593423 -0.23852047 0.14741376
0 0.043464117 0.013475997 -0.38593423 -0.23852047 0.14741376
5.5511151e-17 0.042500626 0.01361597 -0.38593423 -0.23852047 0.14741376
0.039719123 0.07036227 0 -0.38593423 -0.23852047 0.14741376
0 0.040580418 0.013895086 -0.38593423 -0.23852047 0.14741376
0 0.039623674 0.014034231 -0.38593423 -0.23852047 0.14741376
0 0.038669158 0.014173103 -0.38593423 -0.23852047 0.14741376
0.039999999 0.066347361 0.00051639369 -0.38593423 -0.23852047 0.14741376
0 0.036766753 0.014450035 -0.38593423 -0.23852047 0.14741376
0 0.035818834 0.014588097 -0.38593423 -0.23852047 0.14741376
0 0.034873094 0.014725894 -0.38593423 -0.23852047 0.14741376
0 0.033929519 0.014863425 -0.38593423 -0.23852047 0.14741376
0 0.032988098 0.015000693 -0.38593423 -0.23852047 0.14741376
0.039999999 0.060091861 0.0014279981 -0.38593423 -0.23852047 0.14741376
0 0.031111659 0.015274444 -0.38593423 -0.23852047 0.14741376
0.039999999 0.058025625 0.0017295496 -0.38593423 -0.23852047 0.14741376
0 0.029243687 0.01554716 -0.38593423 -0.23852047 0.14741376
0 0.028312849 0.015683135 -0.38593423 -0.23852047 0.14741376
0 0.027384089 0.015818855 -0.38593423 -0.23852047 0.14741376
0 0.026457403 0.015954321 -0.38593423 -0.23852047 0.14741376
0 0.025532773 0.016089536 -0.38593423 -0.23852047 0.14741376
0 0.024610192 0.016224504 -0.38593423 -0.23852047 0.14741376
0 0.023689648 0.016359221 -0.38593423 -0.23852047 0.14741376
5.5511151e-17 0.022771128 0.016493693 -0.38593423 -0.23852047 0.14741376
0.039999999 0.048841096 0.0030726716 -0.38593423 -0.23852047 0.14741376
5.5511151e-17 0.020940121 0.016761901 -0.38593423 -0.23852047 0.14741376
0 0.02002761 0.016895641 -0.38593423 -0.23852047 0.14741376
0 0.019117082 0.01702914 -0.38593423 -0.23852047 0.14741376
5.5511151e-17 0.018208522 0.017162399 -0.38593423 -0.23852047 0.14741376
0 0.017301925 0.01729542 -0.38593423 -0.23852047 0.14741376
0 0.016397273 0.017428204 -0.38593423 -0.23852047 0.14741376
0 0.015494562 0.017560754 -0.38593423 -0.23852047 0.14741376
5.5511151e-17 0.014593777 0.017693069 -0.38593423 -0.23852047 0.14741376
0 0.01369491 0.017825153 -0.38593423 -0.23852047 0.14741376
0 0.012797951 0.017957004 -0.38593423 -0.23852047 0.14741376
0 0.011902886 0.018088626 -0.38593423 -0.23852047 0.14741376
0 0.011009708 0.01822002 -0.38593423 -0.23852047 0.14741376
0 0.010118406 0.018351186 -0.38593423 -0.23852047 0.14741376
0 0.0092289699 0.018482128 -0.38593423 -0.23852047 0.14741376
0 0.0083413878 0.018612845 -0.38593423 -0.23852047 0.14741376
5.5511151e-17 0.0074556521 0.018743338 -0.38593423 -0.23852047 0.14741376
0.039999999 0.031974237 0.0055511165 -0.38593423 -0.23852047 0.14741376
0 0.0056896764 0.019003661 -0.38593423 -0.23852047 0.14741376
0 0.0048094164 0.019133493 -0.38593423 -0.23852047 0.14741376
0.039999999 0.029059744 0.0059809848 -0.38593423 -0.23852047 0.14741376
0.039999999 0.028092224 0.0061237947 -0.38593423 -0.23852047 0.14741376
0 0.0021794308 0.019521689 -0.38593423 -0.23852047 0.14741376
5.5511151e-17 0.0013063345 0.019650659 -0.38593423 -0.23852047 0.14741376
0 0.00043500515 0.019779416 -0.38593423 -0.23852047 0.14741376
0.00070442766 0 0.019675231 -0.38593423 -0.23852047 0.14741376
0.0021188834 0 0.019336959 -0.38593423 -0.23852047 0.14741376
0.0035408621 0 0.018996937 -0.38593423 -0.23852047 0.14741376
0.0049704304 2.7755576e-17 0.018655149 -0.38593423 -0.23852047 0.14741376
0.0064076567 0 0.018311581 -0.38593423 -0.23852047 0.14741376
0.0078526093 2.7755576e-17 0.017966213 -0.38593423 -0.23852047 0.14741376
0.010765973 2.7755576e-17 0.017270017 -0.38593423 -0.23852047 0.14741376
0.039999999 0.016632732 0.0078193871 -0.38593423 -0.23852047 0.14741376
0.039999999 0.015690021 0.0079592178 -0.38593423 -0.23852047 0.14741376
0.015195731 0 0.01621183 -0.38593423 -0.23852047 0.14741376
0.018189562 0 0.015496908 -0.38593423 -0.23852047 0.14741376
0.019698901 2.7755576e-17 0.015136556 -0.38593423 -0.23852047 0.14741376
0.021216622 0 0.014774253 -0.38593423 -0.23852047 0.14741376
0.022742804 2.7755576e-17 0.014409981 -0.38593423 -0.23852047 0.14741376
0.024277523 0 0.01404372 -0.38593423 -0.23852047 0.14741376
0.025820863 0 0.013675455 -0.38593423 -0.23852047 0.14741376
0.0273729 0 0.013305164 -0.38593423 -0.23852047 0.14741376
0.039999999 0.0063623497 0.0093456544 -0.38593423 -0.23852047 0.14741376
0.030503396 0 0.012558432 -0.38593423 -0.23852047 0.14741376
0.039999999 0.004518006 0.0096204188 -0.38593423 -0.23852047 0.14741376
0.033669677 0 0.01180337 -0.38593423 -0.23852047 0.14741376
0.035266444 2.7755576e-17 0.011422667 -0.38593423 -0.23852047 0.14741376
0.039999999 0.0017643818 0.010031036 -0.38593423 -0.23852047 0.14741376
0.03848768 0 0.010654811 -0.38593423 -0.23852047 0.14741376
0 0.079814464 0.0073828627 -0.38593423 -0.23852047 0.14741376
0 0.078759745 0.007535249 -0.38593423 -0.23852047 0.14741376
0 0.076658629 0.0078389719 -0.38593423 -0.23852047 0.14741376
0 0.074568503 0.00814131 -0.38593423 -0.23852047 0.14741376
0 0.073527522 0.0082919644 -0.38593423 -0.23852047 0.14741376
0 0.072489239 0.0084422799 -0.38593423 -0.23852047 0.14741376
0 0.070420712 0.0087418966 -0.38593423 -0.23852047 0.14741376
0 0.068362802 0.0090401787 -0.38593423 -0.23852047 0.14741376
0 0.067337796 0.0091888234 -0.38593423 -0.23852047 0.14741376
0 0.066315398 0.0093371402 -0.38593423 -0.23852047 0.14741376
0 0.065295584 0.0094851311 -0.38593423 -0.23852047 0.14741376
0 0.063263699 0.0097801425 -0.38593423 -0.23852047 0.14741376
0 0.062251583 0.0099271676 -0.38593423 -0.23852047 0.14741376
0 0.061242007 0.010073873 -0.38593423 -0.23852047 0.14741376
0 0.060234949 0.010220263 -0.38593423 -0.23852047 0.14741376
0 0.059230398 0.010366338 -0.38593423 -0.23852047 0.14741376
0 0.05822834 0.010512101 -0.38593423 -0.23852047 0.14741376
5.5511151e-17 0.057228763 0.010657554 -0.38593423 -0.23852047 0.14741376
0 0.056231648 0.010802696 -0.38593423 -0.23852047 0.14741376
0 0.055236984 0.010947533 -0.38593423 -0.23852047 0.14741376
0.031402241 0.078066133 0 -0.38593423 -0.23852047 0.14741376
0 0.053254955 0.011236291 -0.38593423 -0.23852047 0.14741376
0.032286264 0.076594137 0 -0.38593423 -0.23852047 0.14741376
0 0.051282562 0.011523843 -0.38593423 -0.23852047 0.14741376
0 0.050299946 0.011667171 -0.38593423 -0.23852047 0.14741376
0 0.049319699 0.011810203 -0.38593423 -0.23852047 0.14741376
0.034054484 0.073654279 0 -0.38593423 -0.23852047 0.14741376
0 0.047366261 0.012095385 -0.38593423 -0.23852047 0.14741376
0 0.046393041 0.012237539 -0.38593423 -0.23852047 0.14741376
0 0.045422137 0.012379403 -0.38593423 -0.23852047 0.14741376
0 0.044453539 0.01252098 -0.38593423 -0.23852047 0.14741376
0 0.043487228 0.012662271 -0.38593423 -0.23852047 0.14741376
0 0.042523198 0.012803277 -0.38593423 -0.23852047 0.14741376
0.037149861 0.068521999 0 -0.38593423 -0.23852047 0.14741376
0 0.04060192 0.013084445 -0.38593423 -0.23852047 0.14741376
0 0.039644647 0.01322461 -0.38593423 -0.23852047 0.14741376
0 0.038689602 0.013364497 -0.38593423 -0.23852047 0.14741376
0.038919505 0.06559591 0 -0.38593423 -0.23852047 0.14741376
0 0.036786143 0.013643445 -0.38593423 -0.23852047 0.14741376
0 0.035837706 0.013782509 -0.38593423 -0.23852047 0.14741376
0 0.034891445 0.013921302 -0.38593423 -0.23852047 0.14741376
0.039999999 0.062187172 0.00023841034 -0.38593423 -0.23852047 0.14741376
0 0.033005416 0.014198082 -0.38593423 -0.23852047 0.14741376
0 0.032065623 0.014336073 -0.38593423 -0.23852047 0.14741376
0 0.030192411 0.01461126 -0.38593423 -0.23852047 0.14741376
5.5511151e-17 0.029258972 0.014748461 -0.38593423 -0.23852047 0.14741376
0 0.028327629 0.014885402 -0.38593423 -0.23852047 0.14741376
0 0.02739837 0.015022084 -0.38593423 -0.23852047 0.14741376
0 0.026471183 0.01515851 -0.38593423 -0.23852047 0.14741376
0.039999999 0.05291513 0.0016012503 -0.38593423 -0.23852047 0.14741376
0 0.024622982 0.015430597 -0.38593423 -0.23852047 0.14741376
0 0.023701947 0.015566261 -0.38593423 -0.23852047 0.14741376
0 0.022782937 0.015701674 -0.38593423 -0.23852047 0.14741376
5.5511151e-17 0.021865943 0.015836837 -0.38593423 -0.23852047 0.14741376
0.039999999 0.047843769 0.0023484982 -0.38593423 -0.23852047 0.14741376
0 0.020037962 0.016106423 -0.38593423 -0.23852047 0.14741376
0 0.019126952 0.016240846 -0.38593423 -0.23852047 0.14741376
0.039999999 0.044827461 0.0027935698 -0.38593423 -0.23852047 0.14741376
0 0.017310837 0.016508967 -0.38593423 -0.23852047 0.14741376
0 0.016405713 0.016642664 -0.38593423 -0.23852047 0.14741376
0.039999999 0.04183064 0.0032362365 -0.38593423 -0.23852047 0.14741376
0 0.014601273 0.016909344 -0.38593423 -0.23852047 0.14741376
0 0.013701936 0.017042328 -0.38593423 -0.23852047 0.14741376
0 0.012804509 0.017175077 -0.38593423 -0.23852047 0.14741376
5.5511151e-17 0.01190898 0.017307593 -0.38593423 -0.23852047 0.14741376
0 0.011015339 0.017439876 -0.38593423 -0.23852047 0.14741376
0.039999999 0.035894189 0.0041145235 -0.38593423 -0.23852047 0.14741376
0 0.0092336796 0.017703751 -0.38593423 -0.23852047 0.14741376
0 0.0083456403 0.017835347 -0.38593423 -0.23852047 0.14741376
0 0.0074594491 0.017966714 -0.38593423 -0.23852047 0.14741376
0.039999999 0.031977925 0.004694961 -0.38593423 -0.23852047 0.14741376
0.039999999 0.031003932 0.0048394483 -0.38593423 -0.23852047 0.14741376
0 0.0048118578 0.018359471 -0.38593423 -0.23852047 0.14741376
0 0.0039329557 0.018489944 -0.38593423 -0.23852047 0.14741376
5.5511151e-17 0.0030558507 0.018620199 -0.38593423 -0.23852047 0.14741376
0 0.0021805337 0.018750232 -0.38593423 -0.23852047 0.14741376
0 0.0013069951 0.018880051 -0.38593423 -0.23852047 0.14741376
0 0.00043522488 0.01900965 -0.38593423 -0.23852047 0.14741376
0.00070478377 2.7755576e-17 0.018904785 -0.38593423 -0.23852047 0.14741376
0.0021199575 0 0.018564299 -0.38593423 -0.23852047 0.14741376
0.039999999 0.022326926 0.0061289384 -0.38593423 -0.23852047 0.14741376
0.0049729631 0 0.017878015 -0.38593423 -0.23852047 0.14741376
0.0064109303 2.7755576e-17 0.017532187 -0.38593423 -0.23852047 0.14741376
0.0078566317 0 0.017184544 -0.38593423 -0.23852047 0.14741376
0.0093101375 0 0.016835073 -0.38593423 -0.23852047 0.14741376
0.010771518 0 0.016483756 -0.38593423 -0.23852047 0.14741376
0.012240844 2.7755576e-17 0.016130576 -0.38593423 -0.23852047 0.14741376
0.013718188 0 0.015775518 -0.38593423 -0.23852047 0.14741376
0.015203622 0 0.015418562 -0.38593423 -0.23852047 0.14741376
0.016697222 2.7755576e-17 0.015059692 -0.38593423 -0.23852047 0.14741376
0.018199062 2.7755576e-17 0.014698891 -0.38593423 -0.23852047 0.14741376
0.039999999 0.011931087 0.0076794331 -0.38593423 -0.23852047 0.14741376
0.021227762 2.7755576e-17 0.013971421 -0.38593423 -0.23852047 0.14741376
0.022754779 0 0.013604716 -0.38593423 -0.23852047 0.14741376
0.024290344 2.7755576e-17 0.013236009 -0.38593423 -0.23852047 0.14741376
0.039999999 0.0082054622 0.0082366066 -0.38593423 -0.23852047 0.14741376
0.027387435 0 0.012492504 -0.38593423 -0.23852047 0.14741376
0.039999999 0.0063532554 0.0085139098 -0.38593423 -0.23852047 0.14741376
0.030519685 2.7755576e-17 0.011740756 -0.38593423 -0.23852047 0.14741376
0.032099202 0 0.011361742 -0.38593423 -0.23852047 0.14741376
0.033687759 0 0.010980609 -0.38593423 -0.23852047 0.14741376
0.035285439 0 0.010597335 -0.38593423 -0.23852047 0.14741376
0.036892336 0 0.010211902 -0.38593423 -0.23852047 0.14741376
0.038508527 0 0.0098242871 -0.38593423 -0.23852047 0.14741376
0 0.079858884 0.0065278686 -0.38593423 -0.23852047 0.14741376
5.5511151e-17 0.078803517 0.0066814702 -0.38593423 -0.23852047 0.14741376
0 0.077750936 0.0068347161 -0.38593423 -0.23852047 0.14741376
0 0.07670112 0.006987608 -0.38593423 -0.23852047 0.14741376
0 0.07565406 0.0071401484 -0.38593423 -0.23852047 0.14741376
0 0.074609727 0.0072923391 -0.38593423 -0.23852047 0.14741376
0 0.070459448 0.007897648 -0.38593423 -0.23852047 0.14741376
0 0.069428556 0.0080481218 -0.38593423 -0.23852047 0.14741376
0 0.068400308 0.0081982585 -0.38593423 -0.23852047 0.14741376
0 0.065331273 0.0086466661 -0.38593423 -0.23852047 0.14741376
0 0.064313442 0.0087954737 -0.38593423 -0.23852047 0.14741376
0 0.063298181 0.0089439554 -0.38593423 -0.23852047 0.14741376
0 0.062285475 0.0090921111 -0.38593423 -0.23852047 0.14741376
5.5511151e-17 0.061275307 0.0092399428 -0.38593423 -0.23852047 0.14741376
0 0.060267661 0.009387454 -0.38593423 -0.23852047 0.14741376
0 0.059262525 0.0095346458 -0.38593423 -0.23852047 0.14741376
0 0.058259886 0.0096815191 -0.38593423 -0.23852047 0.14741376
0 0.057259727 0.0098280776 -0.38593423 -0.23852047 0.14741376
0 0.056262035 0.0099743223 -0.38593423 -0.23852047 0.14741376
0 0.055266798 0.010120255 -0.38593423 -0.23852047 0.14741376
0 0.054274 0.010265877 -0.38593423 -0.23852047 0.14741376
0.029328173 0.075458601 0 -0.38593423 -0.23852047 0.14741376
0.029768165 0.074727111 0 -0.38593423 -0.23852047 0.14741376
0 0.051310107 0.010700902 -0.38593423 -0.23852047 0.14741376
0 0.050326928 0.010845303 -0.38593423 -0.23852047 0.14741376
0.03108819 0.072534665 0 -0.38593423 -0.23852047 0.14741376
0 0.048367679 0.011133202 -0.38593423 -0.23852047 0.14741376
5.5511151e-17 0.047391579 0.011276705 -0.38593423 -0.23852047 0.14741376
0 0.04641781 0.011419912 -0.38593423 -0.23852047 0.14741376
5.5511151e-17 0.045446359 0.011562825 -0.38593423 -0.23852047 0.14741376
0 0.044477213 0.011705446 -0.38593423 -0.23852047 0.14741376
5.5511151e-17 0.043510363 0.011847777 -0.38593423 -0.23852047 0.14741376
0 0.042545795 0.011989819 -0.38593423 -0.23852047 0.14741376
5.5511151e-17 0.04158349 0.012131574 -0.38593423 -0.23852047 0.14741376
0.035049297 0.065974392 0 -0.38593423 -0.23852047 0.14741376
0 0.039665639 0.012414229 -0.38593423 -0.23852047 0.14741376
0 0.038710061 0.012555133 -0.38593423 -0.23852047 0.14741376
0 0.037756704 0.012695756 -0.38593423 -0.23852047 0.14741376
5.5511151e-17 0.036805551 0.012836101 -0.38593423 -0.23852047 0.14741376
0 0.035856593 0.012976169 -0.38593423 -0.23852047 0.14741376
0 0.034909815 0.013115961 -0.38593423 -0.23852047 0.14741376
0 0.033965204 0.01325548 -0.38593423 -0.23852047 0.14741376
0.038572755 0.060162533 0 -0.38593423 -0.23852047 0.14741376
0 0.032082442 0.013533702 -0.38593423 -0.23852047 0.14741376
0.039454143 0.058712158 0 -0.38593423 -0.23852047 0.14741376
0 0.030208215 0.013810849 -0.38593423 -0.23852047 0.14741376
0 0.02927427 0.013949024 -0.38593423 -0.23852047 0.14741376
0.039999999 0.05600132 0.00026832637 -0.38593423 -0.23852047 0.14741376
0.039999999 0.054975197 0.00042023975 -0.38593423 -0.23852047 0.14741376
0 0.026484977 0.014361965 -0.38593423 -0.23852047 0.14741376
0.039999999 0.052929804 0.0007232037 -0.38593423 -0.23852047 0.14741376
0.039999999 0.051910512 0.00087425759 -0.38593423 -0.23852047 0.14741376
0 0.023714256 0.014772572 -0.38593423 -0.23852047 0.14741376
0 0.022794757 0.014908928 -0.38593423 -0.23852047 0.14741376
0.039999999 0.048866097 0.0013257273 -0.38593423 -0.23852047 0.14741376
0 0.020961802 0.015180883 -0.38593423 -0.23852047 0.14741376
0 0.020048324 0.015316484 -0.38593423 -0.23852047 0.14741376
0.039999999 0.045841619 0.0017746935 -0.38593423 -0.23852047 0.14741376
0 0.018227315 0.015586939 -0.38593423 -0.23852047 0.14741376
0 0.017319761 0.015721796 -0.38593423 -0.23852047 0.14741376
0.039999999 0.042836759 0.0022212001 -0.38593423 -0.23852047 0.14741376
0 0.015510501 0.015990779 -0.38593423 -0.23852047 0.14741376
0 0.014608774 0.016124908 -0.38593423 -0.23852047 0.14741376
0 0.013708969 0.016258795 -0.38593423 -0.23852047 0.14741376
0 0.012811074 0.016392443 -0.38593423 -0.23852047 0.14741376
0 0.011915079 0.016525855 -0.38593423 -0.23852047 0.14741376
0 0.011020974 0.016659029 -0.38593423 -0.23852047 0.14741376
5.5511151e-17 0.01012875 0.01679197 -0.38593423 -0.23852047 0.14741376
0 0.009238393 0.016924676 -0.38593423 -0.23852047 0.14741376
0 0.0083498964 0.017057151 -0.38593423 -0.23852047 0.14741376
0 0.0065784412 0.017321408 -0.38593423 -0.23852047 0.14741376
0 0.0056954618 0.017453194 -0.38593423 -0.23852047 0.14741376
5.5511151e-17 0.0048143016 0.017584754 -0.38593423 -0.23852047 0.14741376
0 0.003934951 0.017716089 -0.38593423 -0.23852047 0.14741376
0.039999999 0.028095642 0.0044183242 -0.38593423 -0.23852047 0.14741376
0 0.0021816378 0.017978087 -0.38593423 -0.23852047 0.14741376
5.5511151e-17 0.0013076562 0.018108753 -0.38593423 -0.23852047 0.14741376
0 0.00043544479 0.0182392 -0.38593423 -0.23852047 0.14741376
0.00070514018 0 0.018133651 -0.38593423 -0.23852047 0.14741376
0.039999999 0.023282532 0.0051381649 -0.38593423 -0.23852047 0.14741376
0.0035444626 0 0.017446462 -0.38593423 -0.23852047 0.14741376
0.0049754982 0 0.017100181 -0.38593423 -0.23852047 0.14741376
0.0064142072 0 0.016752088 -0.38593423 -0.23852047 0.14741376
0.039999999 0.019466709 0.0057097343 -0.38593423 -0.23852047 0.14741376
0.0093149226 2.7755576e-17 0.016050406 -0.38593423 -0.23852047 0.14741376
0.039999999 0.017570125 0.0059941155 -0.38593423 -0.23852047 0.14741376
0.012247168 2.7755576e-17 0.015341275 -0.38593423 -0.23852047 0.14741376
0.013725295 0 0.014983877 -0.38593423 -0.23852047 0.14741376
0.015211521 2.7755576e-17 0.014624566 -0.38593423 -0.23852047 0.14741376
0.016705921 2.7755576e-17 0.014263324 -0.38593423 -0.23852047 0.14741376
0.018208569 0 0.013900136 -0.38593423 -0.23852047 0.14741376
0.039999999 0.011924713 0.0068417778 -0.38593423 -0.23852047 0.14741376
0.021238914 2.7755576e-17 0.013167842 -0.38593423 -0.23852047 0.14741376
0.022766765 0 0.012798702 -0.38593423 -0.23852047 0.14741376
0.024303174 0 0.01242754 -0.38593423 -0.23852047 0.14741376
0.025848219 0 0.012054339 -0.38593423 -0.23852047 0.14741376
0.027401984 0 0.011679079 -0.38593423 -0.23852047 0.14741376
0.028964546 2.7755576e-17 0.011301741 -0.38593423 -0.23852047 0.14741376
0.03053599 0 0.010922306 -0.38593423 -0.23852047 0.14741376
0.032116398 2.7755576e-17 0.010540753 -0.38593423 -0.23852047 0.14741376
0.03370586 0 0.010157063 -0.38593423 -0.23852047 0.14741376
0.035304453 0 0.0097712148 -0.38593423 -0.23852047 0.14741376
0.039999999 0.0017417346 0.0083752554 -0.38593423 -0.23852047 0.14741376
0.0385294 0 0.0089929625 -0.38593423 -0.23852047 0.14741376
0 0.079903349 0.0056720213 -0.38593423 -0.23852047 0.14741376
0 0.078847334 0.0058268411 -0.38593423 -0.23852047 0.14741376
0 0.077794112 0.0059812996 -0.38593423 -0.23852047 0.14741376
0 0.076743655 0.0061353985 -0.38593423 -0.23852047 0.14741376
0 0.075695954 0.0062891403 -0.38593423 -0.23852047 0.14741376
0 0.074650995 0.0064425273 -0.38593423 -0.23852047 0.14741376
0 0.072569221 0.0067482442 -0.38593423 -0.23852047 0.14741376
0 0.06946671 0.0072042104 -0.38593423 -0.23852047 0.14741376
0 0.067411616 0.0075064725 -0.38593423 -0.23852047 0.14741376
0 0.066388004 0.0076570949 -0.38593423 -0.23852047 0.14741376
0 0.065366991 0.007807381 -0.38593423 -0.23852047 0.14741376
0 0.064348564 0.0079573328 -0.38593423 -0.23852047 0.14741376
0 0.063332699 0.0081069525 -0.38593423 -0.23852047 0.14741376
0 0.061308637 0.0084052021 -0.38593423 -0.23852047 0.14741376
0.02377373 0.078707911 0 -0.38593423 -0.23852047 0.14741376
0 0.059294682 0.0087021468 -0.38593423 -0.23852047 0.14741376
0.024649827 0.077248998 0 -0.38593423 -0.23852047 0.14741376
0.025087852 0.076520078 0 -0.38593423 -0.23852047 0.14741376
5.5511151e-17 0.056292452 0.0091451481 -0.38593423 -0.23852047 0.14741376
0 0.055296637 0.0092921797 -0.38593423 -0.23852047 0.14741376
0 0.05430327 0.0094388956 -0.38593423 -0.23852047 0.14741376
0.026839847 0.073607877 0 -0.38593423 -0.23852047 0.14741376
0 0.0523238 0.0097313905 -0.38593423 -0.23852047 0.14741376
0 0.051337674 0.0098771732 -0.38593423 -0.23852047 0.14741376
0.028153805 0.071427256 0 -0.38593423 -0.23852047 0.14741376
0.028591799 0.070701025 0 -0.38593423 -0.23852047 0.14741376
0 0.048393574 0.010312682 -0.38593423 -0.23852047 0.14741376
0 0.047416918 0.010457245 -0.38593423 -0.23852047 0.14741376
0 0.046442602 0.010601507 -0.38593423 -0.23852047 0.14741376
0 0.045470603 0.010745471 -0.38593423 -0.23852047 0.14741376
0 0.044500913 0.010889139 -0.38593423 -0.23852047 0.14741376
0.031220006 0.066350177 0 -0.38593423 -0.23852047 0.14741376
0 0.042568412 0.01117559 -0.38593423 -0.23852047 0.14741376
0 0.041605569 0.011318377 -0.38593423 -0.23852047 0.14741376
0 0.040644988 0.011460874 -0.38593423 -0.23852047 0.14741376
0 0.03968665 0.011603083 -0.38593423 -0.23852047 0.14741376
0 0.038730543 0.011745006 -0.38593423 -0.23852047 0.14741376
0 0.03777666 0.011886644 -0.38593423 -0.23852047 0.14741376
0 0.036824983 0.012027998 -0.38593423 -0.23852047 0.14741376
0 0.035875499 0.012169071 -0.38593423 -0.23852047 0.14741376
5.5511151e-17 0.034928199 0.012309865 -0.38593423 -0.23852047 0.14741376
0.035602458 0.059121542 0 -0.38593423 -0.23852047 0.14741376
0 0.033040103 0.01259062 -0.38593423 -0.23852047 0.14741376
0 0.032099281 0.012730584 -0.38593423 -0.23852047 0.14741376
0 0.031160597 0.012870274 -0.38593423 -0.23852047 0.14741376
0 0.030224033 0.013009693 -0.38593423 -0.23852047 0.14741376
0 0.029289583 0.013148841 -0.38593423 -0.23852047 0.14741376
0 0.028357232 0.013287722 -0.38593423 -0.23852047 0.14741376
0.038672898 0.054076482 0 -0.38593423 -0.23852047 0.14741376
0.039111778 0.053356662 0 -0.38593423 -0.23852047 0.14741376
0.039550725 0.052637059 0 -0.38593423 -0.23852047 0.14741376
0 0.024648599 0.01384059 -0.38593423 -0.23852047 0.14741376
0.039999999 0.050907068 0.00014826978 -0.38593423 -0.23852047 0.14741376
0 0.022806587 0.014115453 -0.38593423 -0.23852047 0.14741376
0 0.021888617 0.014252498 -0.38593423 -0.23852047 0.14741376
0.039999999 0.047867719 0.0006020164 -0.38593423 -0.23852047 0.14741376
5.5511151e-17 0.020058695 0.01452582 -0.38593423 -0.23852047 0.14741376
0 0.01914672 0.0146621 -0.38593423 -0.23852047 0.14741376
0 0.018236723 0.014798128 -0.38593423 -0.23852047 0.14741376
0 0.017328691 0.014933906 -0.38593423 -0.23852047 0.14741376
0 0.016422614 0.015069436 -0.38593423 -0.23852047 0.14741376
0 0.015518482 0.015204719 -0.38593423 -0.23852047 0.14741376
0 0.014616283 0.015339756 -0.38593423 -0.23852047 0.14741376
0 0.013716007 0.015474549 -0.38593423 -0.23852047 0.14741376
5.5511151e-17 0.012817645 0.015609098 -0.38593423 -0.23852047 0.14741376
5.5511151e-17 0.011921183 0.015743405 -0.38593423 -0.23852047 0.14741376
0.039999999 0.036890823 0.0022444467 -0.38593423 -0.23852047 0.14741376
0.039999999 0.035905614 0.0023921463 -0.38593423 -0.23852047 0.14741376
0.039999999 0.034922469 0.0025395839 -0.38593423 -0.23852047 0.14741376
5.5511151e-17 0.0083541572 0.01627825 -0.38593423 -0.23852047 0.14741376
5.5511151e-17 0.0074670534 0.016411372 -0.38593423 -0.23852047 0.14741376
0 0.0065817903 0.016544258 -0.38593423 -0.23852047 0.14741376
0 0.0056983586 0.016676916 -0.38593423 -0.23852047 0.14741376
0.039999999 0.030037336 0.0032728976 -0.38593423 -0.23852047 0.14741376
0 0.0039369483 0.016941538 -0.38593423 -0.23852047 0.14741376
0 0.0030589497 0.017073506 -0.38593423 -0.23852047 0.14741376
0 0.0021827428 0.01720525 -0.38593423 -0.23852047 0.14741376
0.039999999 0.026165277 0.0038549884 -0.38593423 -0.23852047 0.14741376
0 0.00043566493 0.017468061 -0.38593423 -0.23852047 0.14741376
0.00070549693 0 0.017361827 -0.38593423 -0.23852047 0.14741376
0.0021221084 2.7755576e-17 0.017016901 -0.38593423 -0.23852047 0.14741376
0.0035462654 2.7755576e-17 0.016670177 -0.38593423 -0.23852047 0.14741376
0.0049780356 0 0.016321644 -0.38593423 -0.23852047 0.14741376
0.0064174873 0 0.015971286 -0.38593423 -0.23852047 0.14741376
0.0078646885 0 0.015619083 -0.38593423 -0.23852047 0.14741376
0.0093197105 0 0.015265021 -0.38593423 -0.23852047 0.14741376
0.010782624 0 0.014909082 -0.38593423 -0.23852047 0.14741376
0.012253499 0 0.01455125 -0.38593423 -0.23852047 0.14741376
0.039999999 0.015676459 0.0054356414 -0.38593423 -0.23852047 0.14741376
0.015219427 2.7755576e-17 0.013829837 -0.38593423 -0.23852047 0.14741376
0.016714627 0 0.013466219 -0.38593423 -0.23852047 0.14741376
0.018218083 2.7755576e-17 0.013100639 -0.38593423 -0.23852047 0.14741376
0.019729875 0 0.012733076 -0.38593423 -0.23852047 0.14741376
0.021250075 2.7755576e-17 0.012363513 -0.38593423 -0.23852047 0.14741376
0.022778763 2.7755576e-17 0.011991931 -0.38593423 -0.23852047 0.14741376
0.024316017 2.7755576e-17 0.011618312 -0.38593423 -0.23852047 0.14741376
0.025861919 0 0.011242636 -0.38593423 -0.23852047 0.14741376
0.027416546 0 0.010864885 -0.38593423 -0.23852047 0.14741376
0.028979983 0 0.010485037 -0.38593423 -0.23852047 0.14741376
0.030552311 0 0.010103076 -0.38593423 -0.23852047 0.14741376
0.032133613 0 0.0097189788 -0.38593423 -0.23852047 0.14741376
0.033723976 0 0.0093327267 -0.38593423 -0.23852047 0.14741376
0.035323486 0 0.0089442991 -0.38593423 -0.23852047 0.14741376
0.036932226 0 0.0085536754 -0.38593423 -0.23852047 0.14741376
0.039999999 0.00081460091 0.0076852539 -0.38593423 -0.23852047 0.14741376
0 0.079947852 0.0048153163 -0.38593423 -0.23852047 0.14741376
0 0.076786235 0.0052823382 -0.38593423 -0.23852047 0.14741376
0 0.071571805 0.006053485 -0.38593423 -0.23852047 0.14741376
0 0.069504902 0.0063594654 -0.38593423 -0.23852047 0.14741376
0 0.068475425 0.0065119332 -0.38593423 -0.23852047 0.14741376
5.5511151e-17 0.067448586 0.0066640554 -0.38593423 -0.23852047 0.14741376
0 0.066424362 0.006815834 -0.38593423 -0.23852047 0.14741376
0 0.065402746 0.0069672712 -0.38593423 -0.23852047 0.14741376
0 0.064383715 0.007118369 -0.38593423 -0.23852047 0.14741376
0 0.063367255 0.0072691292 -0.38593423 -0.23852047 0.14741376
0.020454131 0.078299373 0 -0.38593423 -0.23852047 0.14741376
5.5511151e-17 0.061342005 0.0075696455 -0.38593423 -0.23852047 0.14741376
0 0.060333181 0.0077194055 -0.38593423 -0.23852047 0.14741376
0.021762548 0.076122262 0 -0.38593423 -0.23852047 0.14741376
0 0.058323063 0.0080179386 -0.38593423 -0.23852047 0.14741376
0 0.057321742 0.0081667164 -0.38593423 -0.23852047 0.14741376
0.023070747 0.073948331 0 -0.38593423 -0.23852047 0.14741376
0 0.05532651 0.0084633017 -0.38593423 -0.23852047 0.14741376
5.5511151e-17 0.054332566 0.0086111138 -0.38593423 -0.23852047 0.14741376
0 0.053341053 0.0087586073 -0.38593423 -0.23852047 0.14741376
5.5511151e-17 0.052351963 0.0089057852 -0.38593423 -0.23852047 0.14741376
0 0.051365271 0.0090526491 -0.38593423 -0.23852047 0.14741376
0 0.050380975 0.0091992011 -0.38593423 -0.23852047 0.14741376
0 0.049399052 0.0093454411 -0.38593423 -0.23852047 0.14741376
0 0.048419494 0.0094913738 -0.38593423 -0.23852047 0.14741376
0 0.047442287 0.0096369991 -0.38593423 -0.23852047 0.14741376
5.5511151e-17 0.046467416 0.009782319 -0.38593423 -0.23852047 0.14741376
0.027866742 0.066002466 0 -0.38593423 -0.23852047 0.14741376
0 0.044524636 0.010072052 -0.38593423 -0.23852047 0.14741376
0 0.043556698 0.010216467 -0.38593423 -0.23852047 0.14741376
0 0.042591047 0.010360586 -0.38593423 -0.23852047 0.14741376
0 0.041627668 0.010504407 -0.38593423 -0.23852047 0.14741376
0 0.04066655 0.010647934 -0.38593423 -0.23852047 0.14741376
0 0.039707679 0.010791169 -0.38593423 -0.23852047 0.14741376
0 0.038751043 0.010934112 -0.38593423 -0.23852047 0.14741376
0 0.037796631 0.011076766 -0.38593423 -0.23852047 0.14741376
0.031791616 0.059527814 0 -0.38593423 -0.23852047 0.14741376
0 0.035894424 0.011361213 -0.38593423 -0.23852047 0.14741376
0 0.034946602 0.01150301 -0.38593423 -0.23852047 0.14741376
0 0.034000956 0.011644524 -0.38593423 -0.23852047 0.14741376
0 0.03305747 0.011785757 -0.38593423 -0.23852047 0.14741376
0 0.032116137 0.01192671 -0.38593423 -0.23852047 0.14741376
