# .PCD v0.7 - Point Cloud Data file format
VERSION 0.7
FIELDS x y z vp_x vp_y vp_z
SIZE 4 4 4 4 4 4
TYPE F F F F F F
COUNT 1 1 1 1 1 1
WIDTH 724
HEIGHT 1
VIEWPOINT 0 0 0 1 0 0 0
POINTS 724
DATA ascii
0 0.074638523 0.014908629 -0.38593423 -0.23852047 -0.14741376
0 0.073583111 0.014725501 -0.38593423 -0.23852047 -0.14741376
0 0.072530471 0.014542859 -0.38593423 -0.23852047 -0.14741376
0 0.071480587 0.014360701 -0.38593423 -0.23852047 -0.14741376
5.5511151e-17 0.070433445 0.014179024 -0.38593423 -0.23852047 -0.14741376
0 0.06938903 0.013997825 -0.38593423 -0.23852047 -0.14741376
5.5511151e-17 0.06834732 0.013817101 -0.38593423 -0.23852047 -0.14741376
0 0.067308307 0.01363685 -0.38593423 -0.23852047 -0.14741376
5.5511151e-17 0.066271976 0.013457068 -0.38593423 -0.23852047 -0.14741376
0 0.065238304 0.013277754 -0.38593423 -0.23852047 -0.14741376
5.5511151e-17 0.064207278 0.013098905 -0.38593423 -0.23852047 -0.14741376
0 0.063178882 0.012920517 -0.38593423 -0.23852047 -0.14741376
5.5511151e-17 0.062153108 0.012742588 -0.38593423 -0.23852047 -0.14741376
0 0.061129935 0.012565116 -0.38593423 -0.23852047 -0.14741376
0 0.060109347 0.012388098 -0.38593423 -0.23852047 -0.14741376
0 0.059091333 0.012211531 -0.38593423 -0.23852047 -0.14741376
0 0.058075875 0.012035414 -0.38593423 -0.23852047 -0.14741376
0 0.057062961 0.011859742 -0.38593423 -0.23852047 -0.14741376
0 0.055044703 0.011509728 -0.38593423 -0.23852047 -0.14741376
0 0.054039329 0.011335379 -0.38593423 -0.23852047 -0.14741376
0 0.05303644 0.011161468 -0.38593423 -0.23852047 -0.14741376
0 0.052036025 0.01098799 -0.38593423 -0.23852047 -0.14741376
0 0.051038064 0.010814942 -0.38593423 -0.23852047 -0.14741376
0 0.050042547 0.010642325 -0.38593423 -0.23852047 -0.14741376
5.5511151e-17 0.049049463 0.010470133 -0.38593423 -0.23852047 -0.14741376
0 0.048058789 0.010298365 -0.38593423 -0.23852047 -0.14741376
0 0.047070522 0.010127019 -0.38593423 -0.23852047 -0.14741376
0 0.046084639 0.0099560916 -0.38593423 -0.23852047 -0.14741376
0 0.045101132 0.0097855823 -0.38593423 -0.23852047 -0.14741376
5.5511151e-17 0.044119988 0.0096154865 -0.38593423 -0.23852047 -0.14741376
0 0.04314119 0.0094458032 -0.38593423 -0.23852047 -0.14741376
0.039999999 0.071256235 0.025516633 -0.38593423 -0.23852047 -0.14741376
0 0.041190587 0.0091076633 -0.38593423 -0.23852047 -0.14741376
0 0.040218752 0.0089392029 -0.38593423 -0.23852047 -0.14741376
0 0.039249215 0.0087711457 -0.38593423 -0.23852047 -0.14741376
0 0.038281962 0.008603489 -0.38593423 -0.23852047 -0.14741376
5.5511151e-17 0.037316978 0.00843623 -0.38593423 -0.23852047 -0.14741376
0.039999999 0.064843528 0.024405085 -0.38593423 -0.23852047 -0.14741376
5.5511151e-17 0.035393767 0.0081029003 -0.38593423 -0.23852047 -0.14741376
0 0.034435514 0.0079368241 -0.38593423 -0.23852047 -0.14741376
0 0.033479482 0.0077711381 -0.38593423 -0.23852047 -0.14741376
0 0.032525659 0.0076058395 -0.38593423 -0.23852047 -0.14741376
0 0.031574029 0.007440926 -0.38593423 -0.23852047 -0.14741376
0.039999999 0.058520012 0.023309195 -0.38593423 -0.23852047 -0.14741376
0 0.029677302 0.0071122469 -0.38593423 -0.23852047 -0.14741376
0 0.027789209 0.0067850836 -0.38593423 -0.23852047 -0.14741376
0 0.026848368 0.0066220653 -0.38593423 -0.23852047 -0.14741376
0 0.025909651 0.0064594201 -0.38593423 -0.23852047 -0.14741376
0 0.024973044 0.006297145 -0.38593423 -0.23852047 -0.14741376
0 0.024038536 0.0061352388 -0.38593423 -0.23852047 -0.14741376
0 0.023106115 0.005973699 -0.38593423 -0.23852047 -0.14741376
0 0.02217577 0.0058125239 -0.38593423 -0.23852047 -0.14741376
0 0.021247489 0.0056517115 -0.38593423 -0.23852047 -0.14741376
0 0.020321259 0.0054912595 -0.38593423 -0.23852047 -0.14741376
0 0.019397072 0.0053311666 -0.38593423 -0.23852047 -0.14741376
0 0.018474914 0.0051714298 -0.38593423 -0.23852047 -0.14741376
0 0.017554775 0.0050120475 -0.38593423 -0.23852047 -0.14741376
0 0.016636644 0.0048530181 -0.38593423 -0.23852047 -0.14741376
5.5511151e-17 0.015720507 0.0046943394 -0.38593423 -0.23852047 -0.14741376
0 0.014806357 0.0045360099 -0.38593423 -0.23852047 -0.14741376
0 0.013894182 0.0043780268 -0.38593423 -0.23852047 -0.14741376
0 0.01298397 0.0042203888 -0.38593423 -0.23852047 -0.14741376
0 0.012075711 0.0040630945 -0.38593423 -0.23852047 -0.14741376
0 0.011169394 0.0039061408 -0.38593423 -0.23852047 -0.14741376
0 0.010265008 0.0037495268 -0.38593423 -0.23852047 -0.14741376
0 0.009362543 0.0035932504 -0.38593423 -0.23852047 -0.14741376
5.5511151e-17 0.0084619876 0.0034373095 -0.38593423 -0.23852047 -0.14741376
0 0.0075633321 0.0032817025 -0.38593423 -0.23852047 -0.14741376
5.5511151e-17 0.0066665658 0.0031264275 -0.38593423 -0.23852047 -0.14741376
0.039999999 0.031091241 0.018558102 -0.38593423 -0.23852047 -0.14741376
0 0.0048786593 0.0028168666 -0.38593423 -0.23852047 -0.14741376
0 0.0039874986 0.002662577 -0.38593423 -0.23852047 -0.14741376
0 0.0030981861 0.0025086121 -0.38593423 -0.23852047 -0.14741376
0 0.0022107116 0.0023549704 -0.38593423 -0.23852047 -0.14741376
0 0.0013250647 0.0022016501 -0.38593423 -0.23852047 -0.14741376
5.5511151e-17 0.00044123584 0.0020486491 -0.38593423 -0.23852047 -0.14741376
0.0021493398 2.7755576e-17 0.0025742846 -0.38593423 -0.23852047 -0.14741376
0.0035918946 2.7755576e-17 0.0029783412 -0.38593423 -0.23852047 -0.14741376
0.0050422605 2.7755576e-17 0.0033845906 -0.38593423 -0.23852047 -0.14741376
0.039999999 0.020360874 0.016700553 -0.38593423 -0.23852047 -0.14741376
0.0079667103 0 0.0042037475 -0.38593423 -0.23852047 -0.14741376
0.009440938 0 0.0046166955 -0.38593423 -0.23852047 -0.14741376
0.010923265 0 0.0050319172 -0.38593423 -0.23852047 -0.14741376
0.012413766 2.7755576e-17 0.0054494338 -0.38593423 -0.23852047 -0.14741376
0.013912517 0 0.0058692661 -0.38593423 -0.23852047 -0.14741376
0.015419592 0 0.0062914351 -0.38593423 -0.23852047 -0.14741376
0.016935071 0 0.0067159631 -0.38593423 -0.23852047 -0.14741376
0.018459028 0 0.0071428721 -0.38593423 -0.23852047 -0.14741376
0.019991547 0 0.0075721834 -0.38593423 -0.23852047 -0.14741376
0.021532703 0 0.0080039203 -0.38593423 -0.23852047 -0.14741376
0.02308258 0 0.0084381048 -0.38593423 -0.23852047 -0.14741376
0.024641261 0 0.00887476 -0.38593423 -0.23852047 -0.14741376
0.026208824 0 0.0093139103 -0.38593423 -0.23852047 -0.14741376
0.039999999 0.007042069 0.01439584 -0.38593423 -0.23852047 -0.14741376
0.029370947 0 0.010199787 -0.38593423 -0.23852047 -0.14741376
0.030965675 0 0.010646562 -0.38593423 -0.23852047 -0.14741376
0.032569632 2.7755576e-17 0.011095928 -0.38593423 -0.23852047 -0.14741376
0.034182902 0 0.011547908 -0.38593423 -0.23852047 -0.14741376
0.035805579 0 0.01200253 -0.38593423 -0.23852047 -0.14741376
0.037437752 0 0.012459816 -0.38593423 -0.23852047 -0.14741376
0.039079513 2.7755576e-17 0.012919794 -0.38593423 -0.23852047 -0.14741376
0 0.079912752 0.014953941 -0.38593423 -0.23852047 -0.14741376
0 0.078843884 0.014769616 -0.38593423 -0.23852047 -0.14741376
0 0.077777877 0.014585785 -0.38593423 -0.23852047 -0.14741376
0 0.076714702 0.014402446 -0.38593423 -0.23852047 -0.14741376
0 0.075654343 0.014219597 -0.38593423 -0.23852047 -0.14741376
5.5511151e-17 0.074596792 0.014037234 -0.38593423 -0.23852047 -0.14741376
0 0.073542021 0.013855354 -0.38593423 -0.23852047 -0.14741376
0 0.072490029 0.013673956 -0.38593423 -0.23852047 -0.14741376
0 0.071440779 0.013493035 -0.38593423 -0.23852047 -0.14741376
5.5511151e-17 0.070394278 0.01331259 -0.38593423 -0.23852047 -0.14741376
0 0.068309411 0.012953114 -0.38593423 -0.23852047 -0.14741376
0 0.067271024 0.012774078 -0.38593423 -0.23852047 -0.14741376
0 0.066235311 0.012595506 -0.38593423 -0.23852047 -0.14741376
5.5511151e-17 0.065202251 0.012417397 -0.38593423 -0.23852047 -0.14741376
0 0.064171843 0.012239746 -0.38593423 -0.23852047 -0.14741376
0 0.063144065 0.012062551 -0.38593423 -0.23852047 -0.14741376
5.5511151e-17 0.062118895 0.011885811 -0.38593423 -0.23852047 -0.14741376
0 0.061096329 0.011709521 -0.38593423 -0.23852047 -0.14741376
0 0.060076345 0.011533679 -0.38593423 -0.23852047 -0.14741376
0 0.059058927 0.011358285 -0.38593423 -0.23852047 -0.14741376
0 0.058044069 0.011183334 -0.38593423 -0.23852047 -0.14741376
0 0.056021951 0.010834752 -0.38593423 -0.23852047 -0.14741376
0 0.055014666 0.010661115 -0.38593423 -0.23852047 -0.14741376
5.5511151e-17 0.054009877 0.010487913 -0.38593423 -0.23852047 -0.14741376
0 0.053007573 0.010315142 -0.38593423 -0.23852047 -0.14741376
0 0.052007735 0.010142799 -0.38593423 -0.23852047 -0.14741376
0 0.051010352 0.009970882 -0.38593423 -0.23852047 -0.14741376
0 0.050015412 0.0097993892 -0.38593423 -0.23852047 -0.14741376
0.039999999 0.078825213 0.025904881 -0.38593423 -0.23852047 -0.14741376
0 0.04803279 0.0094576646 -0.38593423 -0.23852047 -0.14741376
0 0.047045086 0.0092874281 -0.38593423 -0.23852047 -0.14741376
0 0.046059769 0.009117607 -0.38593423 -0.23852047 -0.14741376
0 0.045076821 0.0089481967 -0.38593423 -0.23852047 -0.14741376
0 0.044096235 0.0087791961 -0.38593423 -0.23852047 -0.14741376
0 0.043117993 0.0086106034 -0.38593423 -0.23852047 -0.14741376
0 0.042142082 0.0084424149 -0.38593423 -0.23852047 -0.14741376
5.5511151e-17 0.041168489 0.0082746297 -0.38593423 -0.23852047 -0.14741376
0 0.040197205 0.008107245 -0.38593423 -0.23852047 -0.14741376
0 0.039228208 0.0079402579 -0.38593423 -0.23852047 -0.14741376
0 0.038261499 0.0077736676 -0.38593423 -0.23852047 -0.14741376
0 0.036334861 0.007441665 -0.38593423 -0.23852047 -0.14741376
0 0.035374913 0.0072762491 -0.38593423 -0.23852047 -0.14741376
5.5511151e-17 0.034417193 0.0071112202 -0.38593423 -0.23852047 -0.14741376
0 0.03346169 0.0069465768 -0.38593423 -0.23852047 -0.14741376
0 0.032508392 0.0067823157 -0.38593423 -0.23852047 -0.14741376
0 0.031557284 0.0066184355 -0.38593423 -0.23852047 -0.14741376
0.039999999 0.058502112 0.022402594 -0.38593423 -0.23852047 -0.14741376
5.5511151e-17 0.029661601 0.0062918095 -0.38593423 -0.23852047 -0.14741376
0 0.028717 0.006129059 -0.38593423 -0.23852047 -0.14741376
0 0.027774541 0.0059666806 -0.38593423 -0.23852047 -0.14741376
0 0.026834214 0.0058046728 -0.38593423 -0.23852047 -0.14741376
0.039999999 0.053301346 0.021506544 -0.38593423 -0.23852047 -0.14741376
0 0.024959909 0.00548176 -0.38593423 -0.23852047 -0.14741376
0 0.024025906 0.0053208508 -0.38593423 -0.23852047 -0.14741376
5.5511151e-17 0.023093987 0.0051603038 -0.38593423 -0.23852047 -0.14741376
0 0.022164144 0.0050001172 -0.38593423 -0.23852047 -0.14741376
0 0.021236362 0.0048402888 -0.38593423 -0.23852047 -0.14741376
0 0.020310629 0.0046808161 -0.38593423 -0.23852047 -0.14741376
0 0.019386936 0.0045216982 -0.38593423 -0.23852047 -0.14741376
0 0.018465271 0.0043629319 -0.38593423 -0.23852047 -0.14741376
0 0.017545622 0.0042045168 -0.38593423 -0.23852047 -0.14741376
0 0.016627979 0.0040464494 -0.38593423 -0.23852047 -0.14741376
0 0.015712328 0.0038887288 -0.38593423 -0.23852047 -0.14741376
0 0.014798663 0.0037313527 -0.38593423 -0.23852047 -0.14741376
5.5511151e-17 0.013886969 0.0035743194 -0.38593423 -0.23852047 -0.14741376
0.039999999 0.039043617 0.019050486 -0.38593423 -0.23852047 -0.14741376
0 0.012069455 0.0032612735 -0.38593423 -0.23852047 -0.14741376
0 0.011163614 0.0031052569 -0.38593423 -0.23852047 -0.14741376
0.039999999 0.036044423 0.018533925 -0.38593423 -0.23852047 -0.14741376
0 0.0093577076 0.002794228 -0.38593423 -0.23852047 -0.14741376
0 0.0084576225 0.0026392117 -0.38593423 -0.23852047 -0.14741376
5.5511151e-17 0.007559435 0.0024845253 -0.38593423 -0.23852047 -0.14741376
0 0.0066631343 0.0023301668 -0.38593423 -0.23852047 -0.14741376
0 0.0057687103 0.0021761344 -0.38593423 -0.23852047 -0.14741376
5.5511151e-17 0.0048761535 0.0020224263 -0.38593423 -0.23852047 -0.14741376
0.039999999 0.029119883 0.017341398 -0.38593423 -0.23852047 -0.14741376
0 0.0022095793 0.0015632312 -0.38593423 -0.23852047 -0.14741376
0 0.0013243869 0.0014108033 -0.38593423 -0.23852047 -0.14741376
0 0.00044101037 0.0012586908 -0.38593423 -0.23852047 -0.14741376
0.039999999 0.024235137 0.016500257 -0.38593423 -0.23852047 -0.14741376
0.0021482373 0 0.0017812779 -0.38593423 -0.23852047 -0.14741376
0.0035900476 0 0.0021829878 -0.38593423 -0.23852047 -0.14741376
0.0050396607 0 0.0025868746 -0.38593423 -0.23852047 -0.14741376
0.006497148 0 0.0029929581 -0.38593423 -0.23852047 -0.14741376
0.0079625798 0 0.0034012583 -0.38593423 -0.23852047 -0.14741376
0.0094360299 0 0.0038117953 -0.38593423 -0.23852047 -0.14741376
0.010917571 0 0.0042245896 -0.38593423 -0.23852047 -0.14741376
0.039999999 0.016522076 0.015172252 -0.38593423 -0.23852047 -0.14741376
0.013905224 0 0.0050570336 -0.38593423 -0.23852047 -0.14741376
0.015411488 0 0.0054767253 -0.38593423 -0.23852047 -0.14741376
0.016926143 2.7755576e-17 0.0058987588 -0.38593423 -0.23852047 -0.14741376
0.018449271 0 0.0063231555 -0.38593423 -0.23852047 -0.14741376
0.01998095 0 0.0067499373 -0.38593423 -0.23852047 -0.14741376
0.021521257 2.7755576e-17 0.0071791271 -0.38593423 -0.23852047 -0.14741376
0.023070276 0 0.0076107471 -0.38593423 -0.23852047 -0.14741376
0.039999999 0.0089304727 0.013865363 -0.38593423 -0.23852047 -0.14741376
0.026194774 0 0.0084813694 -0.38593423 -0.23852047 -0.14741376
0.027770421 0 0.0089204181 -0.38593423 -0.23852047 -0.14741376
0.039999999 0.0061138668 0.013380539 -0.38593423 -0.23852047 -0.14741376
0.030948931 2.7755576e-17 0.0098061096 -0.38593423 -0.23852047 -0.14741376
0.03255197 0 0.0102528 -0.38593423 -0.23852047 -0.14741376
0.034164313 0 0.010702087 -0.38593423 -0.23852047 -0.14741376
0.035786051 0 0.011153994 -0.38593423 -0.23852047 -0.14741376
0.039058074 0 0.012065774 -0.38593423 -0.23852047 -0.14741376
0 0.079867803 0.014077209 -0.38593423 -0.23852047 -0.14741376
0 0.078799598 0.013894158 -0.38593423 -0.23852047 -0.14741376
0 0.077734247 0.013711597 -0.38593423 -0.23852047 -0.14741376
5.5511151e-17 0.076671727 0.013529521 -0.38593423 -0.23852047 -0.14741376
5.5511151e-17 0.075612016 0.01334793 -0.38593423 -0.23852047 -0.14741376
5.5511151e-17 0.074555114 0.013166819 -0.38593423 -0.23852047 -0.14741376
0 0.073500983 0.012986186 -0.38593423 -0.23852047 -0.14741376
0 0.072449632 0.012806027 -0.38593423 -0.23852047 -0.14741376
0 0.071401022 0.012626342 -0.38593423 -0.23852047 -0.14741376
0 0.070355147 0.012447126 -0.38593423 -0.23852047 -0.14741376
0 0.069311991 0.012268377 -0.38593423 -0.23852047 -0.14741376
0 0.06827154 0.012090092 -0.38593423 -0.23852047 -0.14741376
0 0.067233779 0.011912268 -0.38593423 -0.23852047 -0.14741376
0 0.066198684 0.011734904 -0.38593423 -0.23852047 -0.14741376
5.5511151e-17 0.065166242 0.011557995 -0.38593423 -0.23852047 -0.14741376
0 0.064136453 0.01138154 -0.38593423 -0.23852047 -0.14741376
0 0.063109279 0.011205536 -0.38593423 -0.23852047 -0.14741376
5.5511151e-17 0.06208472 0.011029981 -0.38593423 -0.23852047 -0.14741376
0 0.060043376 0.010680205 -0.38593423 -0.23852047 -0.14741376
0 0.059026558 0.01050598 -0.38593423 -0.23852047 -0.14741376
0 0.058012296 0.010332192 -0.38593423 -0.23852047 -0.14741376
5.5511151e-17 0.057000566 0.010158841 -0.38593423 -0.23852047 -0.14741376
0 0.055991363 0.0099859228 -0.38593423 -0.23852047 -0.14741376
5.5511151e-17 0.054984666 0.0098134344 -0.38593423 -0.23852047 -0.14741376
0 0.052978739 0.009469742 -0.38593423 -0.23852047 -0.14741376
0 0.051979478 0.0092985323 -0.38593423 -0.23852047 -0.14741376
0 0.050982673 0.0091277435 -0.38593423 -0.23852047 -0.14741376
0 0.049988303 0.008957373 -0.38593423 -0.23852047 -0.14741376
0 0.048996355 0.0087874196 -0.38593423 -0.23852047 -0.14741376
5.5511151e-17 0.048006821 0.0086178789 -0.38593423 -0.23852047 -0.14741376
0 0.047019683 0.0084487507 -0.38593423 -0.23852047 -0.14741376
0 0.046034925 0.0082800323 -0.38593423 -0.23852047 -0.14741376
0 0.045052536 0.00811172 -0.38593423 -0.23852047 -0.14741376
0 0.044072505 0.0079438128 -0.38593423 -0.23852047 -0.14741376
0 0.043094818 0.0077763074 -0.38593423 -0.23852047 -0.14741376
5.5511151e-17 0.042119458 0.0076092025 -0.38593423 -0.23852047 -0.14741376
0 0.041146416 0.0074424953 -0.38593423 -0.23852047 -0.14741376
0 0.040175676 0.0072761839 -0.38593423 -0.23852047 -0.14741376
0 0.039207228 0.007110266 -0.38593423 -0.23852047 -0.14741376
5.5511151e-17 0.038241055 0.0069447393 -0.38593423 -0.23852047 -0.14741376
0 0.037277147 0.0067796013 -0.38593423 -0.23852047 -0.14741376
5.5511151e-17 0.036315493 0.0066148504 -0.38593423 -0.23852047 -0.14741376
5.5511151e-17 0.035356078 0.006450484 -0.38593423 -0.23852047 -0.14741376
5.5511151e-17 0.034398891 0.0062865005 -0.38593423 -0.23852047 -0.14741376
0 0.033443917 0.0061228969 -0.38593423 -0.23852047 -0.14741376
5.5511151e-17 0.032491144 0.0059596719 -0.38593423 -0.23852047 -0.14741376
0 0.031540561 0.0057968232 -0.38593423 -0.23852047 -0.14741376
0 0.030592158 0.0056343484 -0.38593423 -0.23852047 -0.14741376
0 0.029645918 0.0054722452 -0.38593423 -0.23852047 -0.14741376
0 0.028701833 0.0053105126 -0.38593423 -0.23852047 -0.14741376
0 0.027759889 0.0051491475 -0.38593423 -0.23852047 -0.14741376
5.5511151e-17 0.025882376 0.0048275124 -0.38593423 -0.23852047 -0.14741376
0 0.024946785 0.0046672388 -0.38593423 -0.23852047 -0.14741376
0.039999999 0.051223494 0.020253126 -0.38593423 -0.23852047 -0.14741376
0 0.023081873 0.0043477681 -0.38593423 -0.23852047 -0.14741376
0 0.02215253 0.0041885679 -0.38593423 -0.23852047 -0.14741376
5.5511151e-17 0.021225246 0.004029721 -0.38593423 -0.23852047 -0.14741376
0 0.02030001 0.0038712262 -0.38593423 -0.23852047 -0.14741376
5.5511151e-17 0.019376811 0.0037130811 -0.38593423 -0.23852047 -0.14741376
0 0.018455638 0.0035552843 -0.38593423 -0.23852047 -0.14741376
5.5511151e-17 0.017536478 0.0033978333 -0.38593423 -0.23852047 -0.14741376
0.039999999 0.043063182 0.018855251 -0.38593423 -0.23852047 -0.14741376
0.039999999 0.042053167 0.01868224 -0.38593423 -0.23852047 -0.14741376
0 0.014790975 0.0029275378 -0.38593423 -0.23852047 -0.14741376
0 0.013879763 0.0027714521 -0.38593423 -0.23852047 -0.14741376
0.039999999 0.039036192 0.018165447 -0.38593423 -0.23852047 -0.14741376
0 0.012063206 0.0024602888 -0.38593423 -0.23852047 -0.14741376
0 0.01115784 0.0023052075 -0.38593423 -0.23852047 -0.14741376
0 0.0093528787 0.0019960362 -0.38593423 -0.23852047 -0.14741376
0 0.008453262 0.0018419428 -0.38593423 -0.23852047 -0.14741376
5.5511151e-17 0.0075555416 0.001688175 -0.38593423 -0.23852047 -0.14741376
0 0.0066597061 0.0015347311 -0.38593423 -0.23852047 -0.14741376
0 0.0048736497 0.001228808 -0.38593423 -0.23852047 -0.14741376
0.039999999 0.029117627 0.016466521 -0.38593423 -0.23852047 -0.14741376
5.5511151e-17 0.0030950115 0.00092415925 -0.38593423 -0.23852047 -0.14741376
5.5511151e-17 0.0013237097 0.00062077108 -0.38593423 -0.23852047 -0.14741376
5.5511151e-17 0.00044078511 0.0004695454 -0.38593423 -0.23852047 -0.14741376
0.00071379519 2.7755576e-17 0.00059186458 -0.38593423 -0.23852047 -0.14741376
0.0021471363 2.7755576e-17 0.0009890903 -0.38593423 -0.23852047 -0.14741376
0.0035882024 2.7755576e-17 0.0013884578 -0.38593423 -0.23852047 -0.14741376
0.039999999 0.021329893 0.015132657 -0.38593423 -0.23852047 -0.14741376
0.0064937905 0 0.0021936963 -0.38593423 -0.23852047 -0.14741376
0.0079584541 0 0.0025996065 -0.38593423 -0.23852047 -0.14741376
0.0094311275 0 0.0030077375 -0.38593423 -0.23852047 -0.14741376
0.039999999 0.017483128 0.014473818 -0.38593423 -0.23852047 -0.14741376
0.012400796 0 0.0038307426 -0.38593423 -0.23852047 -0.14741376
0.01389794 0 0.0042456584 -0.38593423 -0.23852047 -0.14741376
0.015403392 0 0.0046628774 -0.38593423 -0.23852047 -0.14741376
0.016917227 0 0.005082421 -0.38593423 -0.23852047 -0.14741376
0.018439526 0 0.0055043111 -0.38593423 -0.23852047 -0.14741376
0.019970365 2.7755576e-17 0.005928569 -0.38593423 -0.23852047 -0.14741376
0.021509824 2.7755576e-17 0.0063552167 -0.38593423 -0.23852047 -0.14741376
0.023057986 0 0.0067842775 -0.38593423 -0.23852047 -0.14741376
0.02461493 0 0.0072157732 -0.38593423 -0.23852047 -0.14741376
0.02618074 2.7755576e-17 0.0076497272 -0.38593423 -0.23852047 -0.14741376
0.027755499 2.7755576e-17 0.0080861626 -0.38593423 -0.23852047 -0.14741376
0.029339293 0 0.0085251024 -0.38593423 -0.23852047 -0.14741376
0.030932207 2.7755576e-17 0.0089665707 -0.38593423 -0.23852047 -0.14741376
0.032534327 2.7755576e-17 0.0094105918 -0.38593423 -0.23852047 -0.14741376
0.035766542 0 0.010306391 -0.38593423 -0.23852047 -0.14741376
0.037396818 2.7755576e-17 0.010758217 -0.38593423 -0.23852047 -0.14741376
0.039036658 0 0.011212697 -0.38593423 -0.23852047 -0.14741376
0 0.079822898 0.013201465 -0.38593423 -0.23852047 -0.14741376
0 0.078755356 0.013019687 -0.38593423 -0.23852047 -0.14741376
0 0.077690661 0.012838392 -0.38593423 -0.23852047 -0.14741376
0 0.076628797 0.012657577 -0.38593423 -0.23852047 -0.14741376
5.5511151e-17 0.075569734 0.012477241 -0.38593423 -0.23852047 -0.14741376
0 0.07451348 0.012297378 -0.38593423 -0.23852047 -0.14741376
0 0.073459998 0.012117988 -0.38593423 -0.23852047 -0.14741376
5.5511151e-17 0.072409272 0.011939068 -0.38593423 -0.23852047 -0.14741376
0 0.071361303 0.011760615 -0.38593423 -0.23852047 -0.14741376
0 0.070316061 0.011582625 -0.38593423 -0.23852047 -0.14741376
0 0.069273539 0.011405097 -0.38593423 -0.23852047 -0.14741376
5.5511151e-17 0.068233714 0.011228028 -0.38593423 -0.23852047 -0.14741376
0 0.06719657 0.011051415 -0.38593423 -0.23852047 -0.14741376
5.5511151e-17 0.066162094 0.010875254 -0.38593423 -0.23852047 -0.14741376
5.5511151e-17 0.065130278 0.010699545 -0.38593423 -0.23852047 -0.14741376
5.5511151e-17 0.064101093 0.010524283 -0.38593423 -0.23852047 -0.14741376
0 0.063074537 0.010349467 -0.38593423 -0.23852047 -0.14741376
0 0.061029226 0.010001163 -0.38593423 -0.23852047 -0.14741376
0 0.060010444 0.0098276688 -0.38593423 -0.23852047 -0.14741376
5.5511151e-17 0.058994226 0.0096546104 -0.38593423 -0.23852047 -0.14741376
5.5511151e-17 0.057980556 0.0094819842 -0.38593423 -0.23852047 -0.14741376
0 0.056969423 0.0093097892 -0.38593423 -0.23852047 -0.14741376
5.5511151e-17 0.053951077 0.0087957624 -0.38593423 -0.23852047 -0.14741376
0 0.052949931 0.0086252643 -0.38593423 -0.23852047 -0.14741376
5.5511151e-17 0.051951252 0.0084551852 -0.38593423 -0.23852047 -0.14741376
0 0.05095502 0.0082855215 -0.38593423 -0.23852047 -0.14741376
0 0.049961224 0.0081162713 -0.38593423 -0.23852047 -0.14741376
5.5511151e-17 0.048969846 0.0079474337 -0.38593423 -0.23852047 -0.14741376
0 0.047980879 0.0077790036 -0.38593423 -0.23852047 -0.14741376
0 0.046994302 0.0076109809 -0.38593423 -0.23852047 -0.14741376
0 0.046010107 0.0074433624 -0.38593423 -0.23852047 -0.14741376
0 0.04502828 0.0072761457 -0.38593423 -0.23852047 -0.14741376
5.5511151e-17 0.044048805 0.0071093291 -0.38593423 -0.23852047 -0.14741376
0.039999999 0.072257176 0.022941146 -0.38593423 -0.23852047 -0.14741376
0 0.042096861 0.0067768856 -0.38593423 -0.23852047 -0.14741376
5.5511151e-17 0.041124366 0.0066112545 -0.38593423 -0.23852047 -0.14741376
5.5511151e-17 0.040154174 0.0064460146 -0.38593423 -0.23852047 -0.14741376
5.5511151e-17 0.039186265 0.0062811631 -0.38593423 -0.23852047 -0.14741376
0 0.038220637 0.006116698 -0.38593423 -0.23852047 -0.14741376
5.5511151e-17 0.037257265 0.0059526172 -0.38593423 -0.23852047 -0.14741376
0 0.036296148 0.0057889186 -0.38593423 -0.23852047 -0.14741376
0 0.035337266 0.0056256 -0.38593423 -0.23852047 -0.14741376
0 0.034380607 0.0054626591 -0.38593423 -0.23852047 -0.14741376
0 0.033426162 0.0053000944 -0.38593423 -0.23852047 -0.14741376
0 0.032473914 0.0051379027 -0.38593423 -0.23852047 -0.14741376
0 0.031523857 0.0049760831 -0.38593423 -0.23852047 -0.14741376
0.039999999 0.058466367 0.020592283 -0.38593423 -0.23852047 -0.14741376
0 0.029630251 0.0046535498 -0.38593423 -0.23852047 -0.14741376
5.5511151e-17 0.028686682 0.0044928323 -0.38593423 -0.23852047 -0.14741376
0 0.027745252 0.0043324777 -0.38593423 -0.23852047 -0.14741376
0 0.026805948 0.0041724849 -0.38593423 -0.23852047 -0.14741376
0 0.02586876 0.0040128515 -0.38593423 -0.23852047 -0.14741376
5.5511151e-17 0.024933675 0.0038535751 -0.38593423 -0.23852047 -0.14741376
0 0.024000684 0.0036946542 -0.38593423 -0.23852047 -0.14741376
0 0.023069771 0.0035360865 -0.38593423 -0.23852047 -0.14741376
0 0.021214142 0.0032200036 -0.38593423 -0.23852047 -0.14741376
0 0.020289401 0.0030624843 -0.38593423 -0.23852047 -0.14741376
5.5511151e-17 0.019366696 0.0029053106 -0.38593423 -0.23852047 -0.14741376
5.5511151e-17 0.018446013 0.0027484805 -0.38593423 -0.23852047 -0.14741376
0 0.017527344 0.0025919923 -0.38593423 -0.23852047 -0.14741376
0 0.016610675 0.0024358439 -0.38593423 -0.23852047 -0.14741376
0.039999999 0.042044159 0.017794987 -0.38593423 -0.23852047 -0.14741376
0 0.014783297 0.0021245594 -0.38593423 -0.23852047 -0.14741376
0.039999999 0.040031742 0.01745218 -0.38593423 -0.23852047 -0.14741376
0 0.012963791 0.001814612 -0.38593423 -0.23852047 -0.14741376
0 0.012056964 0.0016601351 -0.38593423 -0.23852047 -0.14741376
5.5511151e-17 0.011152072 0.001505987 -0.38593423 -0.23852047 -0.14741376
0 0.010249105 0.0013521659 -0.38593423 -0.23852047 -0.14741376
0 0.0093480535 0.00119867 -0.38593423 -0.23852047 -0.14741376
0 0.0084489062 0.0010454975 -0.38593423 -0.23852047 -0.14741376
0 0.0075516519 0.00089264655 -0.38593423 -0.23852047 -0.14741376
0.039999999 0.03206753 0.016095465 -0.38593423 -0.23852047 -0.14741376
0 0.0057627838 0.0005879025 -0.38593423 -0.23852047 -0.14741376
0 0.0048711491 0.00043600588 -0.38593423 -0.23852047 -0.14741376
0 0.0039813668 0.00028442388 -0.38593423 -0.23852047 -0.14741376
0 0.0030934266 0.00013315475 -0.38593423 -0.23852047 -0.14741376
0.039999999 0.027157454 0.015258993 -0.38593423 -0.23852047 -0.14741376
0.00044151672 0.0015974191 0 -0.38593423 -0.23852047 -0.14741376
0.039999999 0.024235634 0.014761223 -0.38593423 -0.23852047 -0.14741376
0.0021460364 0 0.0001977162 -0.38593423 -0.23852047 -0.14741376
0.0035863593 0 0.00059474615 -0.38593423 -0.23852047 -0.14741376
0.0064904364 0 0.001395262 -0.38593423 -0.23852047 -0.14741376
0.007954333 2.7755576e-17 0.001798787 -0.38593423 -0.23852047 -0.14741376
0.039999999 0.018445117 0.013774704 -0.38593423 -0.23852047 -0.14741376
0.010906201 2.7755576e-17 0.0026124706 -0.38593423 -0.23852047 -0.14741376
0.01239432 0 0.0030226698 -0.38593423 -0.23852047 -0.14741376
0.013890662 0 0.0034351347 -0.38593423 -0.23852047 -0.14741376
0.015395304 2.7755576e-17 0.0038498859 -0.38593423 -0.23852047 -0.14741376
0.01690832 2.7755576e-17 0.0042669452 -0.38593423 -0.23852047 -0.14741376
0.01842979 0 0.0046863332 -0.38593423 -0.23852047 -0.14741376
0.021498404 0 0.0055321837 -0.38593423 -0.23852047 -0.14741376
0.023045709 0 0.0059586898 -0.38593423 -0.23852047 -0.14741376
0.024601787 2.7755576e-17 0.0063876137 -0.38593423 -0.23852047 -0.14741376
0.02616672 2.7755576e-17 0.0068189777 -0.38593423 -0.23852047 -0.14741376
0.027740594 2.7755576e-17 0.0072528045 -0.38593423 -0.23852047 -0.14741376
0.039999999 0.0061324942 0.011676899 -0.38593423 -0.23852047 -0.14741376
0.030915499 0 0.0081279408 -0.38593423 -0.23852047 -0.14741376
0.032516703 0 0.0085692983 -0.38593423 -0.23852047 -0.14741376
0.039999999 0.0033347132 0.011200192 -0.38593423 -0.23852047 -0.14741376
0.035747055 0 0.0094597125 -0.38593423 -0.23852047 -0.14741376
0.037376381 0 0.0099088186 -0.38593423 -0.23852047 -0.14741376
0.039015263 2.7755576e-17 0.010360557 -0.38593423 -0.23852047 -0.14741376
0 0.079778053 0.012326702 -0.38593423 -0.23852047 -0.14741376
5.5511151e-17 0.078711167 0.012146194 -0.38593423 -0.23852047 -0.14741376
0 0.077647127 0.011966162 -0.38593423 -0.23852047 -0.14741376
0 0.076585911 0.011786606 -0.38593423 -0.23852047 -0.14741376
0 0.075527504 0.011607521 -0.38593423 -0.23852047 -0.14741376
0 0.074471891 0.011428906 -0.38593423 -0.23852047 -0.14741376
0 0.073419049 0.011250758 -0.38593423 -0.23852047 -0.14741376
0 0.072368965 0.011073072 -0.38593423 -0.23852047 -0.14741376
0 0.071321629 0.010895848 -0.38593423 -0.23852047 -0.14741376
0 0.07027702 0.010719082 -0.38593423 -0.23852047 -0.14741376
0 0.069235124 0.010542773 -0.38593423 -0.23852047 -0.14741376
0 0.068195924 0.010366917 -0.38593423 -0.23852047 -0.14741376
5.5511151e-17 0.067159407 0.01019151 -0.38593423 -0.23852047 -0.14741376
5.5511151e-17 0.066125549 0.010016552 -0.38593423 -0.23852047 -0.14741376
0 0.065094344 0.0098420391 -0.38593423 -0.23852047 -0.14741376
0 0.064065777 0.0096679693 -0.38593423 -0.23852047 -0.14741376
0 0.063039832 0.0094943391 -0.38593423 -0.23852047 -0.14741376
5.5511151e-17 0.062016483 0.0093211466 -0.38593423 -0.23852047 -0.14741376
0 0.060995728 0.00914839 -0.38593423 -0.23852047 -0.14741376
5.5511151e-17 0.05997755 0.0089760656 -0.38593423 -0.23852047 -0.14741376
0 0.058961928 0.0088041713 -0.38593423 -0.23852047 -0.14741376
0 0.057948854 0.0086327046 -0.38593423 -0.23852047 -0.14741376
5.5511151e-17 0.056938309 0.0084616635 -0.38593423 -0.23852047 -0.14741376
0 0.055930283 0.0082910443 -0.38593423 -0.23852047 -0.14741376
0 0.05492476 0.0081208469 -0.38593423 -0.23852047 -0.14741376
0 0.053921722 0.0079510668 -0.38593423 -0.23852047 -0.14741376
0 0.052921161 0.0077817021 -0.38593423 -0.23852047 -0.14741376
0 0.051923055 0.0076127509 -0.38593423 -0.23852047 -0.14741376
5.5511151e-17 0.050927401 0.0074442108 -0.38593423 -0.23852047 -0.14741376
0.039999999 0.079830937 0.023308847 -0.38593423 -0.23852047 -0.14741376
5.5511151e-17 0.048943367 0.0071083535 -0.38593423 -0.23852047 -0.14741376
0 0.047954965 0.0069410321 -0.38593423 -0.23852047 -0.14741376
5.5511151e-17 0.046968952 0.0067741126 -0.38593423 -0.23852047 -0.14741376
0.039999999 0.075472809 0.022571074 -0.38593423 -0.23852047 -0.14741376
0 0.045004047 0.0064414688 -0.38593423 -0.23852047 -0.14741376
0 0.044025127 0.0062757405 -0.38593423 -0.23852047 -0.14741376
0 0.043048546 0.0061104046 -0.38593423 -0.23852047 -0.14741376
0 0.041102339 0.0057809022 -0.38593423 -0.23852047 -0.14741376
0 0.04013269 0.0056167315 -0.38593423 -0.23852047 -0.14741376
0 0.039165329 0.005452944 -0.38593423 -0.23852047 -0.14741376
0.039999999 0.066880845 0.021116411 -0.38593423 -0.23852047 -0.14741376
0 0.037237406 0.0051265126 -0.38593423 -0.23852047 -0.14741376
0 0.036276821 0.0049638646 -0.38593423 -0.23852047 -0.14741376
5.5511151e-17 0.035318471 0.0048015914 -0.38593423 -0.23852047 -0.14741376
5.5511151e-17 0.034362342 0.0046396912 -0.38593423 -0.23852047 -0.14741376
0 0.033408426 0.0044781626 -0.38593423 -0.23852047 -0.14741376
0 0.032456703 0.0043170028 -0.38593423 -0.23852047 -0.14741376
0 0.031507168 0.00415621 -0.38593423 -0.23852047 -0.14741376
0 0.030559804 0.0039957818 -0.38593423 -0.23852047 -0.14741376
0 0.029614601 0.0038357168 -0.38593423 -0.23852047 -0.14741376
0 0.028671548 0.0036760126 -0.38593423 -0.23852047 -0.14741376
0 0.027730631 0.0035166673 -0.38593423 -0.23852047 -0.14741376
0 0.026791839 0.0033576789 -0.38593423 -0.23852047 -0.14741376
5.5511151e-17 0.025855159 0.0031990451 -0.38593423 -0.23852047 -0.14741376
0 0.024920581 0.0030407642 -0.38593423 -0.23852047 -0.14741376
0 0.023988092 0.0028828345 -0.38593423 -0.23852047 -0.14741376
0 0.023057682 0.0027252536 -0.38593423 -0.23852047 -0.14741376
0 0.022129338 0.0025680196 -0.38593423 -0.23852047 -0.14741376
0 0.021203049 0.0024111308 -0.38593423 -0.23852047 -0.14741376
0.039999999 0.047101952 0.017766902 -0.38593423 -0.23852047 -0.14741376
0 0.019356592 0.0020983808 -0.38593423 -0.23852047 -0.14741376
0 0.0184364 0.0019425158 -0.38593423 -0.23852047 -0.14741376
5.5511151e-17 0.017518219 0.0017869885 -0.38593423 -0.23852047 -0.14741376
0 0.016602037 0.0016317966 -0.38593423 -0.23852047 -0.14741376
0 0.015687842 0.0014769385 -0.38593423 -0.23852047 -0.14741376
0 0.014775625 0.0013224124 -0.38593423 -0.23852047 -0.14741376
0 0.013865374 0.0011682163 -0.38593423 -0.23852047 -0.14741376
0 0.012957078 0.0010143485 -0.38593423 -0.23852047 -0.14741376
0 0.012050727 0.00086080719 -0.38593423 -0.23852047 -0.14741376
0 0.01114631 0.00070759055 -0.38593423 -0.23852047 -0.14741376
0 0.010243815 0.00055469671 -0.38593423 -0.23852047 -0.14741376
0 0.0084445542 0.00024987059 -0.38593423 -0.23852047 -0.14741376
0 0.0075477669 9.7934753e-05 -0.38593423 -0.23852047 -0.14741376
0.00014060111 0.0067421803 0 -0.38593423 -0.23852047 -0.14741376
0.00053742138 0.0060999906 0 -0.38593423 -0.23852047 -0.14741376
0.00093423651 0.005457826 0 -0.38593423 -0.23852047 -0.14741376
0.0013310486 0.0048156842 0 -0.38593423 -0.23852047 -0.14741376
0.0017278594 0.0041735615 0 -0.38593423 -0.23852047 -0.14741376
0.0021246711 0.0035314548 0 -0.38593423 -0.23852047 -0.14741376
0.0025214856 0.0028893608 0 -0.38593423 -0.23852047 -0.14741376
0.0029183046 0.0022472765 0 -0.38593423 -0.23852047 -0.14741376
0.0033151307 0.0016051985 0 -0.38593423 -0.23852047 -0.14741376
0.0037119654 0.00096312375 0 -0.38593423 -0.23852047 -0.14741376
0.0041088108 0.00032104901 0 -0.38593423 -0.23852047 -0.14741376
0.0050318772 0 0.00019867424 -0.38593423 -0.23852047 -0.14741376
0.0064870859 0 0.00059765007 -0.38593423 -0.23852047 -0.14741376
0.0079502156 2.7755576e-17 0.00099879457 -0.38593423 -0.23852047 -0.14741376
0.0094213374 0 0.0014021274 -0.38593423 -0.23852047 -0.14741376
0.010900524 0 0.0018076686 -0.38593423 -0.23852047 -0.14741376
0.012387852 0 0.0022154385 -0.38593423 -0.23852047 -0.14741376
0.013883393 2.7755576e-17 0.0026254572 -0.38593423 -0.23852047 -0.14741376
0.015387225 2.7755576e-17 0.0030377458 -0.38593423 -0.23852047 -0.14741376
0.016899422 0 0.0034523252 -0.38593423 -0.23852047 -0.14741376
0.018420065 0 0.0038692167 -0.38593423 -0.23852047 -0.14741376
0.019949229 0 0.0042884415 -0.38593423 -0.23852047 -0.14741376
0.021486996 0 0.0047100219 -0.38593423 -0.23852047 -0.14741376
0.039999999 0.0098953312 0.01146262 -0.38593423 -0.23852047 -0.14741376
0.039999999 0.00895424 0.011303101 -0.38593423 -0.23852047 -0.14741376
0.026152715 0 0.0059891152 -0.38593423 -0.23852047 -0.14741376
0.027725704 0 0.006420339 -0.38593423 -0.23852047 -0.14741376
0.029307708 0 0.0068540312 -0.38593423 -0.23852047 -0.14741376
0.039999999 0.0052078879 0.010668042 -0.38593423 -0.23852047 -0.14741376
0.032499101 0 0.0077289138 -0.38593423 -0.23852047 -0.14741376
0.034108665 0 0.0081701521 -0.38593423 -0.23852047 -0.14741376
0.039999999 0.0024167632 0.010194875 -0.38593423 -0.23852047 -0.14741376
0.037355971 0 0.0090603447 -0.38593423 -0.23852047 -0.14741376
0.038993895 2.7755576e-17 0.0095093483 -0.38593423 -0.23852047 -0.14741376
0 0.079733253 0.011452916 -0.38593423 -0.23852047 -0.14741376
0 0.07866703 0.011273675 -0.38593423 -0.23852047 -0.14741376
0 0.077603646 0.011094905 -0.38593423 -0.23852047 -0.14741376
0 0.076543078 0.010916603 -0.38593423 -0.23852047 -0.14741376
0 0.075485319 0.010738768 -0.38593423 -0.23852047 -0.14741376
0 0.074430346 0.010561396 -0.38593423 -0.23852047 -0.14741376
0 0.073378146 0.010384486 -0.38593423 -0.23852047 -0.14741376
0 0.072328702 0.010208033 -0.38593423 -0.23852047 -0.14741376
0 0.071281999 0.010032036 -0.38593423 -0.23852047 -0.14741376
0 0.070238024 0.0098564923 -0.38593423 -0.23852047 -0.14741376
0 0.069196753 0.009681398 -0.38593423 -0.23852047 -0.14741376
0 0.06815818 0.0095067518 -0.38593423 -0.23852047 -0.14741376
0 0.067122281 0.0093325507 -0.38593423 -0.23852047 -0.14741376
0 0.066089049 0.009158792 -0.38593423 -0.23852047 -0.14741376
0 0.065058455 0.0089854728 -0.38593423 -0.23852047 -0.14741376
0 0.064030498 0.0088125914 -0.38593423 -0.23852047 -0.14741376
0 0.063005157 0.008640145 -0.38593423 -0.23852047 -0.14741376
5.5511151e-17 0.061982423 0.0084681306 -0.38593423 -0.23852047 -0.14741376
0 0.060962271 0.0082965456 -0.38593423 -0.23852047 -0.14741376
0 0.059944689 0.0081253881 -0.38593423 -0.23852047 -0.14741376
0 0.058929667 0.0079546561 -0.38593423 -0.23852047 -0.14741376
0 0.057917185 0.0077843461 -0.38593423 -0.23852047 -0.14741376
5.5511151e-17 0.056907233 0.0076144566 -0.38593423 -0.23852047 -0.14741376
5.5511151e-17 0.055899795 0.0074449843 -0.38593423 -0.23852047 -0.14741376
5.5511151e-17 0.054894853 0.0072759273 -0.38593423 -0.23852047 -0.14741376
0 0.0538924 0.0071072835 -0.38593423 -0.23852047 -0.14741376
0 0.052892417 0.0069390498 -0.38593423 -0.23852047 -0.14741376
0 0.051894892 0.0067712246 -0.38593423 -0.23852047 -0.14741376
0 0.049907152 0.0064367894 -0.38593423 -0.23852047 -0.14741376
5.5511151e-17 0.048916914 0.0062701749 -0.38593423 -0.23852047 -0.14741376
0.039999999 0.077618025 0.022015242 -0.38593423 -0.23852047 -0.14741376
0.039999999 0.076530442 0.021832237 -0.38593423 -0.23852047 -0.14741376
0 0.045960553 0.0057727159 -0.38593423 -0.23852047 -0.14741376
0 0.044979841 0.0056076837 -0.38593423 -0.23852047 -0.14741376
0 0.044001475 0.0054430417 -0.38593423 -0.23852047 -0.14741376
0 0.043025445 0.0052787871 -0.38593423 -0.23852047 -0.14741376
0 0.042051736 0.0051149186 -0.38593423 -0.23852047 -0.14741376
0 0.041080337 0.0049514328 -0.38593423 -0.23852047 -0.14741376
0 0.040111233 0.0047883289 -0.38593423 -0.23852047 -0.14741376
0 0.039144412 0.004625604 -0.38593423 -0.23852047 -0.14741376
0 0.03817986 0.0044632559 -0.38593423 -0.23852047 -0.14741376
0 0.036257517 0.0041396823 -0.38593423 -0.23852047 -0.14741376
5.5511151e-17 0.035299696 0.0039784522 -0.38593423 -0.23852047 -0.14741376
0 0.034344099 0.0038175911 -0.38593423 -0.23852047 -0.14741376
0.039999999 0.061572835 0.019314775 -0.38593423 -0.23852047 -0.14741376
5.5511151e-17 0.032439511 0.0034969661 -0.38593423 -0.23852047 -0.14741376
0 0.030543653 0.0031777907 -0.38593423 -0.23852047 -0.14741376
5.5511151e-17 0.029598968 0.0030187415 -0.38593423 -0.23852047 -0.14741376
0 0.028656429 0.0028600486 -0.38593423 -0.23852047 -0.14741376
0.039999999 0.05531 0.018260369 -0.38593423 -0.23852047 -0.14741376
5.5511151e-17 0.026777742 0.0025437239 -0.38593423 -0.23852047 -0.14741376
5.5511151e-17 0.025841571 0.0023860883 -0.38593423 -0.23852047 -0.14741376
5.5511151e-17 0.0249075 0.0022288009 -0.38593423 -0.23852047 -0.14741376
5.5511151e-17 0.023975514 0.0020718602 -0.38593423 -0.23852047 -0.14741376
0 0.023045605 0.0019152639 -0.38593423 -0.23852047 -0.14741376
0.039999999 0.049131505 0.017219963 -0.38593423 -0.23852047 -0.14741376
0 0.021191968 0.0016030977 -0.38593423 -0.23852047 -0.14741376
0 0.020268219 0.0014475237 -0.38593423 -0.23852047 -0.14741376
5.5511151e-17 0.019346498 0.0012922868 -0.38593423 -0.23852047 -0.14741376
0 0.018426796 0.0011373849 -0.38593423 -0.23852047 -0.14741376
0.039999999 0.044045188 0.016363321 -0.38593423 -0.23852047 -0.14741376
0 0.016593408 0.00082857901 -0.38593423 -0.23852047 -0.14741376
0 0.015679698 0.00067467138 -0.38593423 -0.23852047 -0.14741376
5.5511151e-17 0.014767963 0.0005210914 -0.38593423 -0.23852047 -0.14741376
0 0.013858191 0.00036783738 -0.38593423 -0.23852047 -0.14741376
0.039999999 0.039013967 0.015515822 -0.38593423 -0.23852047 -0.14741376
0 0.012044498 6.229982e-05 -0.38593423 -0.23852047 -0.14741376
0.00023573361 0.01129305 0 -0.38593423 -0.23852047 -0.14741376
0.00063448935 0.0106475 0 -0.38593423 -0.23852047 -0.14741376
0.0010332351 0.010001995 0 -0.38593423 -0.23852047 -0.14741376
0.0014319728 0.0093565322 0 -0.38593423 -0.23852047 -0.14741376
0.0018307045 0.008711108 0 -0.38593423 -0.23852047 -0.14741376
0.0022294323 0.0080657201 0 -0.38593423 -0.23852047 -0.14741376
0.0026281581 0.0074203638 0 -0.38593423 -0.23852047 -0.14741376
0.0030268838 0.0067750369 0 -0.38593423 -0.23852047 -0.14741376
0.039999999 0.029110873 0.013847264 -0.38593423 -0.23852047 -0.14741376
0.0038243432 0.0054844581 0 -0.38593423 -0.23852047 -0.14741376
0.0042230813 0.0048391991 0 -0.38593423 -0.23852047 -0.14741376
0.004621827 0.0041939565 0 -0.38593423 -0.23852047 -0.14741376
0.0050205826 0.0035487269 0 -0.38593423 -0.23852047 -0.14741376
0.0054193507 0.0029035069 0 -0.38593423 -0.23852047 -0.14741376
0.0058181328 0.0022582933 0 -0.38593423 -0.23852047 -0.14741376
0.0062169307 0.0016130829 0 -0.38593423 -0.23852047 -0.14741376
0.0066157468 0.00096787245 0 -0.38593423 -0.23852047 -0.14741376
0.039999999 0.020371936 0.012374396 -0.38593423 -0.23852047 -0.14741376
0.039999999 0.019410744 0.01221237 -0.38593423 -0.23852047 -0.14741376
0.0094164498 0 0.00060056493 -0.38593423 -0.23852047 -0.14741376
0.010894855 0 0.001003698 -0.38593423 -0.23852047 -0.14741376
0.012381391 2.7755576e-17 0.0014090432 -0.38593423 -0.23852047 -0.14741376
0.013876132 0 0.0018166211 -0.38593423 -0.23852047 -0.14741376
0.015379154 0 0.0022264519 -0.38593423 -0.23852047 -0.14741376
0.016890533 0 0.0026385565 -0.38593423 -0.23852047 -0.14741376
0.019938678 0 0.0034696721 -0.38593423 -0.23852047 -0.14741376
0.039999999 0.010845219 0.010768255 -0.38593423 -0.23852047 -0.14741376
0.023021193 0 0.0043101395 -0.38593423 -0.23852047 -0.14741376
0.039999999 0.0089621469 0.010450719 -0.38593423 -0.23852047 -0.14741376
0.026138727 0 0.0051601343 -0.38593423 -0.23852047 -0.14741376
0.027710831 0 0.0055887606 -0.38593423 -0.23852047 -0.14741376
0.029291941 2.7755576e-17 0.0060198372 -0.38593423 -0.23852047 -0.14741376
0.030882141 0 0.0064533865 -0.38593423 -0.23852047 -0.14741376
0.039999999 0.0042859577 0.0096620964 -0.38593423 -0.23852047 -0.14741376
0.039999999 0.0033560405 0.0095052533 -0.38593423 -0.23852047 -0.14741376
0.039999999 0.0024278741 0.0093487008 -0.38593423 -0.23852047 -0.14741376
0.039999999 0.0015014494 0.009192436 -0.38593423 -0.23852047 -0.14741376
0.038972549 2.7755576e-17 0.0086590648 -0.38593423 -0.23852047 -0.14741376
0 0.079688504 0.0105801 -0.38593423 -0.23852047 -0.14741376
0 0.078622937 0.010402123 -0.38593423 -0.23852047 -0.14741376
0 0.077560209 0.010224611 -0.38593423 -0.23852047 -0.14741376
0 0.076500289 0.010047561 -0.38593423 -0.23852047 -0.14741376
0 0.075443178 0.0098709734 -0.38593423 -0.23852047 -0.14741376
0 0.074388847 0.0096948436 -0.38593423 -0.23852047 -0.14741376
0 0.073337294 0.0095191682 -0.38593423 -0.23852047 -0.14741376
0 0.072288483 0.0093439454 -0.38593423 -0.23852047 -0.14741376
0 0.071242414 0.0091691734 -0.38593423 -0.23852047 -0.14741376
0 0.070199072 0.0089948475 -0.38593423 -0.23852047 -0.14741376
5.5511151e-17 0.069158427 0.0088209668 -0.38593423 -0.23852047 -0.14741376
0 0.06812048 0.0086475285 -0.38593423 -0.23852047 -0.14741376
5.5511151e-17 0.067085199 0.0084745297 -0.38593423 -0.23852047 -0.14741376
0 0.066052578 0.0083019678 -0.38593423 -0.23852047 -0.14741376
5.5511151e-17 0.06502261 0.0081298398 -0.38593423 -0.23852047 -0.14741376
0 0.063995264 0.0079581449 -0.38593423 -0.23852047 -0.14741376
0 0.062970527 0.0077868784 -0.38593423 -0.23852047 -0.14741376
0 0.061948396 0.0076160394 -0.38593423 -0.23852047 -0.14741376
0 0.060928848 0.007445625 -0.38593423 -0.23852047 -0.14741376
0 0.059911866 0.0072756326 -0.38593423 -0.23852047 -0.14741376
0 0.058897439 0.0071060597 -0.38593423 -0.23852047 -0.14741376
0 0.05788555 0.0069369045 -0.38593423 -0.23852047 -0.14741376
5.5511151e-17 0.05687619 0.0067681638 -0.38593423 -0.23852047 -0.14741376
0 0.055869337 0.0065998356 -0.38593423 -0.23852047 -0.14741376
0 0.054864984 0.0064319177 -0.38593423 -0.23852047 -0.14741376
0 0.053863112 0.0062644072 -0.38593423 -0.23852047 -0.14741376
5.5511151e-17 0.052863706 0.0060973023 -0.38593423 -0.23852047 -0.14741376
0 0.051866755 0.0059306007 -0.38593423 -0.23852047 -0.14741376
0 0.050872244 0.0057642995 -0.38593423 -0.23852047 -0.14741376
0 0.04889049 0.0054328912 -0.38593423 -0.23852047 -0.14741376
0 0.047903217 0.0052677793 -0.38593423 -0.23852047 -0.14741376
0 0.046918333 0.0051030591 -0.38593423 -0.23852047 -0.14741376
5.5511151e-17 0.045935817 0.0049387282 -0.38593423 -0.23852047 -0.14741376
5.5511151e-17 0.04495566 0.0047747847 -0.38593423 -0.23852047 -0.14741376
0 0.043977849 0.0046112267 -0.38593423 -0.23852047 -0.14741376
0 0.043002371 0.0044480511 -0.38593423 -0.23852047 -0.14741376
5.5511151e-17 0.042029213 0.0042852568 -0.38593423 -0.23852047 -0.14741376
0 0.041058358 0.0041228407 -0.38593423 -0.23852047 -0.14741376
0 0.040089797 0.0039608013 -0.38593423 -0.23852047 -0.14741376
0.039999999 0.067899816 0.019471537 -0.38593423 -0.23852047 -0.14741376
0 0.038159505 0.0036378438 -0.38593423 -0.23852047 -0.14741376
0 0.037197746 0.003476921 -0.38593423 -0.23852047 -0.14741376
0 0.036238231 0.0033163666 -0.38593423 -0.23852047 -0.14741376
0 0.035280943 0.0031561779 -0.38593423 -0.23852047 -0.14741376
5.5511151e-17 0.034325875 0.0029963534 -0.38593423 -0.23852047 -0.14741376
0 0.033373009 0.0028368905 -0.38593423 -0.23852047 -0.14741376
0 0.032422338 0.0026777878 -0.38593423 -0.23852047 -0.14741376
5.5511151e-17 0.031473845 0.0025190427 -0.38593423 -0.23852047 -0.14741376
0 0.030527519 0.0023606534 -0.38593423 -0.23852047 -0.14741376
0 0.02958335 0.0022026182 -0.38593423 -0.23852047 -0.14741376
0 0.028641326 0.0020449345 -0.38593423 -0.23852047 -0.14741376
0.039999999 0.055293895 0.017361881 -0.38593423 -0.23852047 -0.14741376
0 0.026763661 0.001730615 -0.38593423 -0.23852047 -0.14741376
0 0.025827998 0.0015739753 -0.38593423 -0.23852047 -0.14741376
0 0.024894431 0.0014176795 -0.38593423 -0.23852047 -0.14741376
0 0.023962948 0.0012617259 -0.38593423 -0.23852047 -0.14741376
0 0.023033541 0.0011061124 -0.38593423 -0.23852047 -0.14741376
5.5511151e-17 0.022106195 0.00095083728 -0.38593423 -0.23852047 -0.14741376
0.039999999 0.048097543 0.016157031 -0.38593423 -0.23852047 -0.14741376
0 0.020257642 0.00064129441 -0.38593423 -0.23852047 -0.14741376
0 0.019336415 0.00048702292 -0.38593423 -0.23852047 -0.14741376
0 0.018417204 0.00033308228 -0.38593423 -0.23852047 -0.14741376
0 0.017499998 0.00017947062 -0.38593423 -0.23852047 -0.14741376
0 0.016584788 2.6186115e-05 -0.38593423 -0.23852047 -0.14741376
0.00033218178 0.015890349 0 -0.38593423 -0.23852047 -0.14741376
0.00073289045 0.015241288 0 -0.38593423 -0.23852047 -0.14741376
0.0011335841 0.014592293 0 -0.38593423 -0.23852047 -0.14741376
0.0015342648 0.013943359 0 -0.38593423 -0.23852047 -0.14741376
0.0019349344 0.013294484 0 -0.38593423 -0.23852047 -0.14741376
0.002335595 0.012645666 2.7755576e-17 -0.38593423 -0.23852047 -0.14741376
0.039999999 0.036015231 0.014133283 -0.38593423 -0.23852047 -0.14741376
0.0031368977 0.011348183 0 -0.38593423 -0.23852047 -0.14741376
0.0035375438 0.010699512 0 -0.38593423 -0.23852047 -0.14741376
0.039999999 0.033042848 0.013635248 -0.38593423 -0.23852047 -0.14741376
0.0043388354 0.0094022937 0 -0.38593423 -0.23852047 -0.14741376
0.0047394847 0.0087537402 0 -0.38593423 -0.23852047 -0.14741376
0.0051401397 0.0081052203 0 -0.38593423 -0.23852047 -0.14741376
0.0055408021 0.0074567292 0 -0.38593423 -0.23852047 -0.14741376
0.0059414734 0.0068082642 0 -0.38593423 -0.23852047 -0.14741376
0.0063421563 0.0061598225 0 -0.38593423 -0.23852047 -0.14741376
0.0067428523 0.0055113998 0 -0.38593423 -0.23852047 -0.14741376
0.0071435636 0.004862994 0 -0.38593423 -0.23852047 -0.14741376
0.0075442926 0.0042146007 0 -0.38593423 -0.23852047 -0.14741376
0.0079450412 0.0035662174 0 -0.38593423 -0.23852047 -0.14741376
0.0083458107 0.0029178406 0 -0.38593423 -0.23852047 -0.14741376
0.0087466044 0.0022694671 0 -0.38593423 -0.23852047 -0.14741376
0.0091474233 0.0016210933 0 -0.38593423 -0.23852047 -0.14741376
0.0095482701 0.00097271614 0 -0.38593423 -0.23852047 -0.14741376
0.0099491458 0.00032433239 0 -0.38593423 -0.23852047 -0.14741376
0.01088919 0 0.0002005534 -0.38593423 -0.23852047 -0.14741376
0.012374935 2.7755576e-17 0.00060347893 -0.38593423 -0.23852047 -0.14741376
0.013868878 2.7755576e-17 0.0010086204 -0.38593423 -0.23852047 -0.14741376
0.015371092 0 0.0014159983 -0.38593423 -0.23852047 -0.14741376
0.016881654 0 0.0018256333 -0.38593423 -0.23852047 -0.14741376
0.018400643 0 0.0022375463 -0.38593423 -0.23852047 -0.14741376
0.019928137 0 0.0026517583 -0.38593423 -0.23852047 -0.14741376
0.039999999 0.010852187 0.0099149123 -0.38593423 -0.23852047 -0.14741376
0.023008954 0 0.0034871656 -0.38593423 -0.23852047 -0.14741376
0.024562439 0 0.0039084046 -0.38593423 -0.23852047 -0.14741376
0.026124751 0 0.0043320297 -0.38593423 -0.23852047 -0.14741376
0.027695974 0 0.0047580637 -0.38593423 -0.23852047 -0.14741376
0.02927619 0 0.0051865298 -0.38593423 -0.23852047 -0.14741376
0.030865487 0 0.0056174505 -0.38593423 -0.23852047 -0.14741376
