# .PCD v0.7 - Point Cloud Data file format
VERSION 0.7
FIELDS x y z vp_x vp_y vp_z
SIZE 4 4 4 4 4 4
TYPE F F F F F F
COUNT 1 1 1 1 1 1
WIDTH 693
HEIGHT 1
VIEWPOINT 0 0 0 1 0 0 0
POINTS 693
DATA ascii
0.039999999 0.073882721 0.028644828 0.38593423 0.23852047 0.14741376
0.039999999 0.074579477 0.028759891 0.38593423 0.23852047 0.14741376
0.039999999 0.075275131 0.028874783 0.38593423 0.23852047 0.14741376
0.039999999 0.075969681 0.028989505 0.38593423 0.23852047 0.14741376
0.039999999 0.076663136 0.029104058 0.38593423 0.23852047 0.14741376
0.039999999 0.077355504 0.029218443 0.38593423 0.23852047 0.14741376
0.039999999 0.078046784 0.029332662 0.38593423 0.23852047 0.14741376
0.039999999 0.078736991 0.029446714 0.38593423 0.23852047 0.14741376
0.039999999 0.079426117 0.029560601 0.38593423 0.23852047 0.14741376
0.039750639 0.079999998 0.029589452 0.38593423 0.23852047 0.14741376
0.038242709 0.079999998 0.029190363 0.38593423 0.23852047 0.14741376
0.036723934 0.079999998 0.028788414 0.38593423 0.23852047 0.14741376
0.035194185 0.079999998 0.028383574 0.38593423 0.23852047 0.14741376
0.033653334 0.079999998 0.027975807 0.38593423 0.23852047 0.14741376
0.032101251 0.079999998 0.027565083 0.38593423 0.23852047 0.14741376
0.030537812 0.079999998 0.027151363 0.38593423 0.23852047 0.14741376
0.028962879 0.079999998 0.026734615 0.38593423 0.23852047 0.14741376
0.027376316 0.079999998 0.026314802 0.38593423 0.23852047 0.14741376
0.02577799 0.079999998 0.025891889 0.38593423 0.23852047 0.14741376
0.024167757 0.079999998 0.025465839 0.38593423 0.23852047 0.14741376
0.022545479 0.079999998 0.025036613 0.38593423 0.23852047 0.14741376
0.02091101 0.079999998 0.024604175 0.38593423 0.23852047 0.14741376
0.019264206 0.079999998 0.024168486 0.38593423 0.23852047 0.14741376
0.017604917 0.079999998 0.023729507 0.38593423 0.23852047 0.14741376
0.015932994 0.079999998 0.023287198 0.38593423 0.23852047 0.14741376
0.014248283 0.079999998 0.022841519 0.38593423 0.23852047 0.14741376
0.012550627 0.079999998 0.022392428 0.38593423 0.23852047 0.14741376
0.010839869 0.079999998 0.021939885 0.38593423 0.23852047 0.14741376
0.0091158487 0.079999998 0.021483846 0.38593423 0.23852047 0.14741376
0.0073784022 0.079999998 0.021024268 0.38593423 0.23852047 0.14741376
0.005627363 0.079999998 0.020561108 0.38593423 0.23852047 0.14741376
0.0038625628 0.079999998 0.020094322 0.38593423 0.23852047 0.14741376
0.0020838301 0.079999998 0.019623864 0.38593423 0.23852047 0.14741376
0.00029099008 0.079999998 0.019149687 0.38593423 0.23852047 0.14741376
0.039999999 0.00076939363 0.015909396 0.38593423 0.23852047 0.14741376
0.039999999 0.001606719 0.016047133 0.38593423 0.23852047 0.14741376
0.039999999 0.0024421711 0.016184574 0.38593423 0.23852047 0.14741376
0.039999999 0.00327576 0.016321721 0.38593423 0.23852047 0.14741376
0.039999999 0.0041074962 0.016458573 0.38593423 0.23852047 0.14741376
0.039999999 0.0049373903 0.016595135 0.38593423 0.23852047 0.14741376
0.039999999 0.005765452 0.016731406 0.38593423 0.23852047 0.14741376
0.039999999 0.0065916916 0.016867388 0.38593423 0.23852047 0.14741376
0.039999999 0.0074161189 0.017003084 0.38593423 0.23852047 0.14741376
0.039999999 0.008238744 0.017138496 0.38593423 0.23852047 0.14741376
0.039999999 0.0090595772 0.017273623 0.38593423 0.23852047 0.14741376
0.039999999 0.009878628 0.017408468 0.38593423 0.23852047 0.14741376
0.039999999 0.010695906 0.017543033 0.38593423 0.23852047 0.14741376
0.039999999 0.011511422 0.01767732 0.38593423 0.23852047 0.14741376
0.039999999 0.012325184 0.017811328 0.38593423 0.23852047 0.14741376
0.039999999 0.013137204 0.017945062 0.38593423 0.23852047 0.14741376
0.039999999 0.013947489 0.018078521 0.38593423 0.23852047 0.14741376
0.039999999 0.01475605 0.018211709 0.38593423 0.23852047 0.14741376
0.039999999 0.015562896 0.018344624 0.38593423 0.23852047 0.14741376
0.039999999 0.016368035 0.01847727 0.38593423 0.23852047 0.14741376
0.039999999 0.01717148 0.018609649 0.38593423 0.23852047 0.14741376
0.039999999 0.017973239 0.018741759 0.38593423 0.23852047 0.14741376
0.039999999 0.018773317 0.018873606 0.38593423 0.23852047 0.14741376
0.039999999 0.019571729 0.019005189 0.38593423 0.23852047 0.14741376
0.039999999 0.020368481 0.019136509 0.38593423 0.23852047 0.14741376
0.039999999 0.021163583 0.019267568 0.38593423 0.23852047 0.14741376
0.039999999 0.021957044 0.019398369 0.38593423 0.23852047 0.14741376
0.039999999 0.022748871 0.019528912 0.38593423 0.23852047 0.14741376
0.039999999 0.023539076 0.019659199 0.38593423 0.23852047 0.14741376
0.039999999 0.024327667 0.01978923 0.38593423 0.23852047 0.14741376
0.039999999 0.025114652 0.019919008 0.38593423 0.23852047 0.14741376
0.039999999 0.025900038 0.020048534 0.38593423 0.23852047 0.14741376
0.039999999 0.026683837 0.02017781 0.38593423 0.23852047 0.14741376
0.039999999 0.027466057 0.020306835 0.38593423 0.23852047 0.14741376
0.039999999 0.028246706 0.020435613 0.38593423 0.23852047 0.14741376
0.039999999 0.029025793 0.020564144 0.38593423 0.23852047 0.14741376
0.039999999 0.029803324 0.02069243 0.38593423 0.23852047 0.14741376
0.039999999 0.030579312 0.020820472 0.38593423 0.23852047 0.14741376
0.039999999 0.031353761 0.020948272 0.38593423 0.23852047 0.14741376
0.039999999 0.032126684 0.02107583 0.38593423 0.23852047 0.14741376
0.039999999 0.032898083 0.021203149 0.38593423 0.23852047 0.14741376
0.039999999 0.03366797 0.02133023 0.38593423 0.23852047 0.14741376
0.039999999 0.034436356 0.021457072 0.38593423 0.23852047 0.14741376
0.039999999 0.035203245 0.02158368 0.38593423 0.23852047 0.14741376
0.039999999 0.035968643 0.021710053 0.38593423 0.23852047 0.14741376
0.039999999 0.036732566 0.021836193 0.38593423 0.23852047 0.14741376
0.039999999 0.037495013 0.021962101 0.38593423 0.23852047 0.14741376
0.039999999 0.038256001 0.022087779 0.38593423 0.23852047 0.14741376
0.039999999 0.039015532 0.022213226 0.38593423 0.23852047 0.14741376
0.039999999 0.039773613 0.022338446 0.38593423 0.23852047 0.14741376
0.039999999 0.040530253 0.022463439 0.38593423 0.23852047 0.14741376
0.039999999 0.041285466 0.022588206 0.38593423 0.23852047 0.14741376
0.039999999 0.042039249 0.022712748 0.38593423 0.23852047 0.14741376
0.039999999 0.04279162 0.022837069 0.38593423 0.23852047 0.14741376
0.039999999 0.043542579 0.022961168 0.38593423 0.23852047 0.14741376
0.039999999 0.044292137 0.023085045 0.38593423 0.23852047 0.14741376
0.039999999 0.045040302 0.023208702 0.38593423 0.23852047 0.14741376
0.039999999 0.045787081 0.023332143 0.38593423 0.23852047 0.14741376
0.039999999 0.046532482 0.023455365 0.38593423 0.23852047 0.14741376
0.039999999 0.047276512 0.023578372 0.38593423 0.23852047 0.14741376
0.039999999 0.048019174 0.023701165 0.38593423 0.23852047 0.14741376
0.039999999 0.048760485 0.023823746 0.38593423 0.23852047 0.14741376
0.039999999 0.049500443 0.023946112 0.38593423 0.23852047 0.14741376
0.039999999 0.05023906 0.024068268 0.38593423 0.23852047 0.14741376
0.039999999 0.050976343 0.024190214 0.38593423 0.23852047 0.14741376
0.039999999 0.051712301 0.024311952 0.38593423 0.23852047 0.14741376
0.039999999 0.052446935 0.024433482 0.38593423 0.23852047 0.14741376
0.039999999 0.053180259 0.024554806 0.38593423 0.23852047 0.14741376
0.039999999 0.053912275 0.024675924 0.38593423 0.23852047 0.14741376
0.039999999 0.054642994 0.02479684 0.38593423 0.23852047 0.14741376
0.039999999 0.055372421 0.02491755 0.38593423 0.23852047 0.14741376
0.039999999 0.056100562 0.02503806 0.38593423 0.23852047 0.14741376
0.039999999 0.056827426 0.02515837 0.38593423 0.23852047 0.14741376
0.039999999 0.057553016 0.025278479 0.38593423 0.23852047 0.14741376
0.039999999 0.058277346 0.02539839 0.38593423 0.23852047 0.14741376
0.039999999 0.059000418 0.025518104 0.38593423 0.23852047 0.14741376
0.039999999 0.059722237 0.025637623 0.38593423 0.23852047 0.14741376
0.039999999 0.060442816 0.025756944 0.38593423 0.23852047 0.14741376
0.039999999 0.061162155 0.025876073 0.38593423 0.23852047 0.14741376
0.039999999 0.061880268 0.025995009 0.38593423 0.23852047 0.14741376
0.039999999 0.062597156 0.026113752 0.38593423 0.23852047 0.14741376
0.039999999 0.063312821 0.026232304 0.38593423 0.23852047 0.14741376
0.039999999 0.064027287 0.026350668 0.38593423 0.23852047 0.14741376
0.039999999 0.064740539 0.026468841 0.38593423 0.23852047 0.14741376
0.039999999 0.065452598 0.026586829 0.38593423 0.23852047 0.14741376
0.039999999 0.066163465 0.026704628 0.38593423 0.23852047 0.14741376
0.039999999 0.066873156 0.026822243 0.38593423 0.23852047 0.14741376
0.039999999 0.067581661 0.026939673 0.38593423 0.23852047 0.14741376
0.039999999 0.068288997 0.027056919 0.38593423 0.23852047 0.14741376
0.039999999 0.068995163 0.027173983 0.38593423 0.23852047 0.14741376
0.039999999 0.069700181 0.027290866 0.38593423 0.23852047 0.14741376
0.039999999 0.070404038 0.027407568 0.38593423 0.23852047 0.14741376
0.039999999 0.071106754 0.027524091 0.38593423 0.23852047 0.14741376
0.039999999 0.071808323 0.027640434 0.38593423 0.23852047 0.14741376
0.039999999 0.072508767 0.027756602 0.38593423 0.23852047 0.14741376
0.039999999 0.073208079 0.027872592 0.38593423 0.23852047 0.14741376
0.039999999 0.073906265 0.027988408 0.38593423 0.23852047 0.14741376
0.039999999 0.074603342 0.028104048 0.38593423 0.23852047 0.14741376
0.039999999 0.075299308 0.028219515 0.38593423 0.23852047 0.14741376
0.039999999 0.075994171 0.028334811 0.38593423 0.23852047 0.14741376
0.039999999 0.076687939 0.028449934 0.38593423 0.23852047 0.14741376
0.039999999 0.07738062 0.028564887 0.38593423 0.23852047 0.14741376
0.039999999 0.078072205 0.028679671 0.38593423 0.23852047 0.14741376
0.039999999 0.078762718 0.028794287 0.38593423 0.23852047 0.14741376
0.039999999 0.079452157 0.028908733 0.38593423 0.23852047 0.14741376
0.03969305 0.079999998 0.028917965 0.38593423 0.23852047 0.14741376
0.038183942 0.079999998 0.028516211 0.38593423 0.23852047 0.14741376
0.036663972 0.079999998 0.028111573 0.38593423 0.23852047 0.14741376
0.035133012 0.079999998 0.027704023 0.38593423 0.23852047 0.14741376
0.033590935 0.079999998 0.027293524 0.38593423 0.23852047 0.14741376
0.032037616 0.079999998 0.026880041 0.38593423 0.23852047 0.14741376
0.030472914 0.079999998 0.02646354 0.38593423 0.23852047 0.14741376
0.028896704 0.079999998 0.026043985 0.38593423 0.23852047 0.14741376
0.02730885 0.079999998 0.025621343 0.38593423 0.23852047 0.14741376
0.025709212 0.079999998 0.025195576 0.38593423 0.23852047 0.14741376
0.024097651 0.079999998 0.024766644 0.38593423 0.23852047 0.14741376
0.022474026 0.079999998 0.024334515 0.38593423 0.23852047 0.14741376
0.020838192 0.079999998 0.023899145 0.38593423 0.23852047 0.14741376
0.019190004 0.079999998 0.0234605 0.38593423 0.23852047 0.14741376
0.017529313 0.079999998 0.023018537 0.38593423 0.23852047 0.14741376
0.015855966 0.079999998 0.022573218 0.38593423 0.23852047 0.14741376
0.014169811 0.079999998 0.022124501 0.38593423 0.23852047 0.14741376
0.012470693 0.079999998 0.021672346 0.38593423 0.23852047 0.14741376
0.010758452 0.079999998 0.021216711 0.38593423 0.23852047 0.14741376
0.0090329275 0.079999998 0.02075755 0.38593423 0.23852047 0.14741376
0.0072939554 0.079999998 0.020294825 0.38593423 0.23852047 0.14741376
0.0055413698 0.079999998 0.019828487 0.38593423 0.23852047 0.14741376
0.0037750008 0.079999998 0.019358493 0.38593423 0.23852047 0.14741376
0.0019946769 0.079999998 0.018884797 0.38593423 0.23852047 0.14741376
0.00020022286 0.079999998 0.018407354 0.38593423 0.23852047 0.14741376
0.039999999 0.00075681094 0.015182808 0.38593423 0.23852047 0.14741376
0.039999999 0.0015945898 0.015321433 0.38593423 0.23852047 0.14741376
0.039999999 0.0024304932 0.015459757 0.38593423 0.23852047 0.14741376
0.039999999 0.0032645317 0.015597783 0.38593423 0.23852047 0.14741376
0.039999999 0.0040967157 0.015735511 0.38593423 0.23852047 0.14741376
0.039999999 0.004927055 0.015872944 0.38593423 0.23852047 0.14741376
0.039999999 0.00575556 0.016010083 0.38593423 0.23852047 0.14741376
0.039999999 0.006582241 0.01614693 0.38593423 0.23852047 0.14741376
0.039999999 0.0074071083 0.016283486 0.38593423 0.23852047 0.14741376
0.039999999 0.0082301712 0.016419753 0.38593423 0.23852047 0.14741376
0.039999999 0.0090514403 0.016555734 0.38593423 0.23852047 0.14741376
0.039999999 0.009870925 0.016691428 0.38593423 0.23852047 0.14741376
0.039999999 0.010688636 0.016826838 0.38593423 0.23852047 0.14741376
0.039999999 0.011504581 0.016961968 0.38593423 0.23852047 0.14741376
0.039999999 0.012318772 0.017096814 0.38593423 0.23852047 0.14741376
0.039999999 0.013131217 0.017231381 0.38593423 0.23852047 0.14741376
0.039999999 0.013941927 0.017365672 0.38593423 0.23852047 0.14741376
0.039999999 0.014750911 0.017499685 0.38593423 0.23852047 0.14741376
0.039999999 0.015558178 0.017633423 0.38593423 0.23852047 0.14741376
0.039999999 0.016363738 0.017766889 0.38593423 0.23852047 0.14741376
0.039999999 0.0171676 0.017900083 0.38593423 0.23852047 0.14741376
0.039999999 0.017969772 0.018033005 0.38593423 0.23852047 0.14741376
0.039999999 0.018770266 0.018165661 0.38593423 0.23852047 0.14741376
0.039999999 0.01956909 0.018298049 0.38593423 0.23852047 0.14741376
0.039999999 0.020366253 0.018430172 0.38593423 0.23852047 0.14741376
0.039999999 0.021161763 0.018562028 0.38593423 0.23852047 0.14741376
0.039999999 0.021955632 0.018693624 0.38593423 0.23852047 0.14741376
0.039999999 0.022747865 0.018824957 0.38593423 0.23852047 0.14741376
0.039999999 0.023538474 0.018956032 0.38593423 0.23852047 0.14741376
0.039999999 0.024327466 0.019086847 0.38593423 0.23852047 0.14741376
0.039999999 0.025114851 0.019217405 0.38593423 0.23852047 0.14741376
0.039999999 0.025900638 0.019347709 0.38593423 0.23852047 0.14741376
0.039999999 0.026684834 0.019477757 0.38593423 0.23852047 0.14741376
0.039999999 0.02746745 0.019607553 0.38593423 0.23852047 0.14741376
0.039999999 0.028248493 0.019737098 0.38593423 0.23852047 0.14741376
0.039999999 0.029027972 0.019866394 0.38593423 0.23852047 0.14741376
0.039999999 0.029805895 0.01999544 0.38593423 0.23852047 0.14741376
0.039999999 0.030582272 0.020124238 0.38593423 0.23852047 0.14741376
0.039999999 0.03135711 0.020252792 0.38593423 0.23852047 0.14741376
0.039999999 0.032130416 0.0203811 0.38593423 0.23852047 0.14741376
0.039999999 0.0329022 0.020509167 0.38593423 0.23852047 0.14741376
0.039999999 0.033672471 0.020636991 0.38593423 0.23852047 0.14741376
0.039999999 0.03444124 0.020764574 0.38593423 0.23852047 0.14741376
0.039999999 0.035208508 0.02089192 0.38593423 0.23852047 0.14741376
0.039999999 0.035974286 0.021019025 0.38593423 0.23852047 0.14741376
0.039999999 0.036738586 0.021145895 0.38593423 0.23852047 0.14741376
0.039999999 0.03750141 0.021272531 0.38593423 0.23852047 0.14741376
0.039999999 0.03826277 0.021398932 0.38593423 0.23852047 0.14741376
0.039999999 0.039022673 0.021525102 0.38593423 0.23852047 0.14741376
0.039999999 0.039781127 0.021651039 0.38593423 0.23852047 0.14741376
0.039999999 0.04053814 0.021776747 0.38593423 0.23852047 0.14741376
0.039999999 0.041293722 0.021902226 0.38593423 0.23852047 0.14741376
0.039999999 0.042047873 0.022027476 0.38593423 0.23852047 0.14741376
0.039999999 0.042800609 0.022152502 0.38593423 0.23852047 0.14741376
0.039999999 0.043551933 0.022277301 0.38593423 0.23852047 0.14741376
0.039999999 0.044301856 0.022401879 0.38593423 0.23852047 0.14741376
0.039999999 0.045050383 0.022526233 0.38593423 0.23852047 0.14741376
0.039999999 0.045797523 0.022650365 0.38593423 0.23852047 0.14741376
0.039999999 0.046543282 0.022774277 0.38593423 0.23852047 0.14741376
0.039999999 0.047287669 0.022897972 0.38593423 0.23852047 0.14741376
0.039999999 0.048030689 0.023021448 0.38593423 0.23852047 0.14741376
0.039999999 0.048772354 0.023144709 0.38593423 0.23852047 0.14741376
0.039999999 0.049512669 0.023267753 0.38593423 0.23852047 0.14741376
0.039999999 0.05025164 0.023390584 0.38593423 0.23852047 0.14741376
0.039999999 0.050989274 0.023513202 0.38593423 0.23852047 0.14741376
0.039999999 0.051725581 0.023635607 0.38593423 0.23852047 0.14741376
0.039999999 0.052460566 0.023757804 0.38593423 0.23852047 0.14741376
0.039999999 0.053194236 0.023879791 0.38593423 0.23852047 0.14741376
0.039999999 0.053926598 0.024001569 0.38593423 0.23852047 0.14741376
0.039999999 0.05465766 0.02412314 0.38593423 0.23852047 0.14741376
0.039999999 0.055387434 0.024244506 0.38593423 0.23852047 0.14741376
0.039999999 0.056115918 0.024365667 0.38593423 0.23852047 0.14741376
0.039999999 0.056843124 0.024486624 0.38593423 0.23852047 0.14741376
0.039999999 0.057569057 0.024607379 0.38593423 0.23852047 0.14741376
0.039999999 0.058293726 0.024727933 0.38593423 0.23852047 0.14741376
0.039999999 0.059017133 0.024848286 0.38593423 0.23852047 0.14741376
0.039999999 0.059739292 0.02496844 0.38593423 0.23852047 0.14741376
0.039999999 0.060460206 0.025088396 0.38593423 0.23852047 0.14741376
0.039999999 0.061179884 0.025208157 0.38593423 0.23852047 0.14741376
0.039999999 0.061898328 0.02532772 0.38593423 0.23852047 0.14741376
0.039999999 0.062615544 0.025447089 0.38593423 0.23852047 0.14741376
0.039999999 0.063331552 0.025566263 0.38593423 0.23852047 0.14741376
0.039999999 0.064046338 0.025685247 0.38593423 0.23852047 0.14741376
0.039999999 0.064759925 0.025804037 0.38593423 0.23852047 0.14741376
0.039999999 0.065472312 0.025922639 0.38593423 0.23852047 0.14741376
0.039999999 0.066183507 0.026041051 0.38593423 0.23852047 0.14741376
0.039999999 0.066893518 0.026159273 0.38593423 0.23852047 0.14741376
0.039999999 0.067602351 0.026277309 0.38593423 0.23852047 0.14741376
0.039999999 0.068310007 0.026395159 0.38593423 0.23852047 0.14741376
0.039999999 0.069016501 0.026512824 0.38593423 0.23852047 0.14741376
0.039999999 0.06972184 0.026630305 0.38593423 0.23852047 0.14741376
0.039999999 0.070426017 0.026747603 0.38593423 0.23852047 0.14741376
0.039999999 0.071129054 0.026864717 0.38593423 0.23852047 0.14741376
0.039999999 0.071830943 0.026981652 0.38593423 0.23852047 0.14741376
0.039999999 0.0725317 0.027098406 0.38593423 0.23852047 0.14741376
0.039999999 0.073231332 0.027214982 0.38593423 0.23852047 0.14741376
0.039999999 0.073929839 0.027331378 0.38593423 0.23852047 0.14741376
0.039999999 0.074627228 0.027447598 0.38593423 0.23852047 0.14741376
0.039999999 0.075323507 0.027563643 0.38593423 0.23852047 0.14741376
0.039999999 0.076018691 0.027679512 0.38593423 0.23852047 0.14741376
0.039999999 0.076712765 0.027795207 0.38593423 0.23852047 0.14741376
0.039999999 0.077405751 0.02791073 0.38593423 0.23852047 0.14741376
0.039999999 0.078097656 0.02802608 0.38593423 0.23852047 0.14741376
0.039999999 0.078788474 0.028141258 0.38593423 0.23852047 0.14741376
0.039999999 0.079478219 0.028256265 0.38593423 0.23852047 0.14741376
0.03963539 0.079999998 0.028245635 0.38593423 0.23852047 0.14741376
0.038125101 0.079999998 0.02784121 0.38593423 0.23852047 0.14741376
0.036603935 0.079999998 0.02743388 0.38593423 0.23852047 0.14741376
0.035071764 0.079999998 0.027023612 0.38593423 0.23852047 0.14741376
0.033528462 0.079999998 0.026610371 0.38593423 0.23852047 0.14741376
0.031973895 0.079999998 0.026194124 0.38593423 0.23852047 0.14741376
0.030407934 0.079999998 0.025774835 0.38593423 0.23852047 0.14741376
0.028830446 0.079999998 0.025352469 0.38593423 0.23852047 0.14741376
0.027241295 0.079999998 0.02492699 0.38593423 0.23852047 0.14741376
0.025640344 0.079999998 0.02449836 0.38593423 0.23852047 0.14741376
0.024027454 0.079999998 0.024066543 0.38593423 0.23852047 0.14741376
0.022402478 0.079999998 0.0236315 0.38593423 0.23852047 0.14741376
0.020765278 0.079999998 0.023193192 0.38593423 0.23852047 0.14741376
0.019115703 0.079999998 0.022751583 0.38593423 0.23852047 0.14741376
0.017453605 0.079999998 0.022306629 0.38593423 0.23852047 0.14741376
0.015778834 0.079999998 0.021858292 0.38593423 0.23852047 0.14741376
0.014091236 0.079999998 0.021406531 0.38593423 0.23852047 0.14741376
0.012390652 0.079999998 0.020951303 0.38593423 0.23852047 0.14741376
0.010676926 0.079999998 0.020492567 0.38593423 0.23852047 0.14741376
0.0089498945 0.079999998 0.020030279 0.38593423 0.23852047 0.14741376
0.0072093951 0.079999998 0.019564394 0.38593423 0.23852047 0.14741376
0.0054552597 0.079999998 0.019094869 0.38593423 0.23852047 0.14741376
0.0036873193 0.079999998 0.018621661 0.38593423 0.23852047 0.14741376
0.0019054015 0.079999998 0.018144719 0.38593423 0.23852047 0.14741376
0.00010933088 0.079999998 0.017664 0.38593423 0.23852047 0.14741376
0.039999999 0.00074421533 0.014455476 0.38593423 0.23852047 0.14741376
0.039999999 0.0015824481 0.01459499 0.38593423 0.23852047 0.14741376
0.039999999 0.0024188035 0.014734199 0.38593423 0.23852047 0.14741376
0.039999999 0.0032532921 0.014873106 0.38593423 0.23852047 0.14741376
0.039999999 0.0040859235 0.015011712 0.38593423 0.23852047 0.14741376
0.039999999 0.0049167089 0.015150018 0.38593423 0.23852047 0.14741376
0.039999999 0.0057456582 0.015288027 0.38593423 0.23852047 0.14741376
0.039999999 0.0065727811 0.01542574 0.38593423 0.23852047 0.14741376
0.039999999 0.0073980885 0.015563158 0.38593423 0.23852047 0.14741376
0.039999999 0.00822159 0.015700284 0.38593423 0.23852047 0.14741376
0.039999999 0.0090432949 0.015837118 0.38593423 0.23852047 0.14741376
0.039999999 0.0098632136 0.015973663 0.38593423 0.23852047 0.14741376
0.039999999 0.010681356 0.016109921 0.38593423 0.23852047 0.14741376
0.039999999 0.011497733 0.016245892 0.38593423 0.23852047 0.14741376
0.039999999 0.012312353 0.016381579 0.38593423 0.23852047 0.14741376
0.039999999 0.013125225 0.016516982 0.38593423 0.23852047 0.14741376
0.039999999 0.01393636 0.016652104 0.38593423 0.23852047 0.14741376
0.039999999 0.014745767 0.016786944 0.38593423 0.23852047 0.14741376
0.039999999 0.015553456 0.016921509 0.38593423 0.23852047 0.14741376
0.039999999 0.016359435 0.017055795 0.38593423 0.23852047 0.14741376
0.039999999 0.017163714 0.017189806 0.38593423 0.23852047 0.14741376
0.039999999 0.017966304 0.017323544 0.38593423 0.23852047 0.14741376
0.039999999 0.018767213 0.017457008 0.38593423 0.23852047 0.14741376
0.039999999 0.019566448 0.017590202 0.38593423 0.23852047 0.14741376
0.039999999 0.020364022 0.017723128 0.38593423 0.23852047 0.14741376
0.039999999 0.021159943 0.017855786 0.38593423 0.23852047 0.14741376
0.039999999 0.021954218 0.017988177 0.38593423 0.23852047 0.14741376
0.039999999 0.022746857 0.018120304 0.38593423 0.23852047 0.14741376
0.039999999 0.02353787 0.018252166 0.38593423 0.23852047 0.14741376
0.039999999 0.024327265 0.018383767 0.38593423 0.23852047 0.14741376
0.039999999 0.025115052 0.018515108 0.38593423 0.23852047 0.14741376
0.039999999 0.025901238 0.01864619 0.38593423 0.23852047 0.14741376
0.039999999 0.026685832 0.018777015 0.38593423 0.23852047 0.14741376
0.039999999 0.027468843 0.018907582 0.38593423 0.23852047 0.14741376
0.039999999 0.028250281 0.019037895 0.38593423 0.23852047 0.14741376
0.039999999 0.029030152 0.019167956 0.38593423 0.23852047 0.14741376
0.039999999 0.029808467 0.019297764 0.38593423 0.23852047 0.14741376
0.039999999 0.030585233 0.01942732 0.38593423 0.23852047 0.14741376
0.039999999 0.031360459 0.019556629 0.38593423 0.23852047 0.14741376
0.039999999 0.032134153 0.019685689 0.38593423 0.23852047 0.14741376
0.039999999 0.032906324 0.019814504 0.38593423 0.23852047 0.14741376
0.039999999 0.033676978 0.019943073 0.38593423 0.23852047 0.14741376
0.039999999 0.034446128 0.020071398 0.38593423 0.23852047 0.14741376
0.039999999 0.035213776 0.020199481 0.38593423 0.23852047 0.14741376
0.039999999 0.035979934 0.020327322 0.38593423 0.23852047 0.14741376
0.039999999 0.036744613 0.020454925 0.38593423 0.23852047 0.14741376
0.039999999 0.037507813 0.020582289 0.38593423 0.23852047 0.14741376
0.039999999 0.03826955 0.020709416 0.38593423 0.23852047 0.14741376
0.039999999 0.039029825 0.020836307 0.38593423 0.23852047 0.14741376
0.039999999 0.039788652 0.020962963 0.38593423 0.23852047 0.14741376
0.039999999 0.040546034 0.021089388 0.38593423 0.23852047 0.14741376
0.039999999 0.041301984 0.021215579 0.38593423 0.23852047 0.14741376
0.039999999 0.042056505 0.02134154 0.38593423 0.23852047 0.14741376
0.039999999 0.042809606 0.021467272 0.38593423 0.23852047 0.14741376
0.039999999 0.043561295 0.021592775 0.38593423 0.23852047 0.14741376
0.039999999 0.044311583 0.021718051 0.38593423 0.23852047 0.14741376
0.039999999 0.045060471 0.021843104 0.38593423 0.23852047 0.14741376
0.039999999 0.045807973 0.021967931 0.38593423 0.23852047 0.14741376
0.039999999 0.046554092 0.022092534 0.38593423 0.23852047 0.14741376
0.039999999 0.047298837 0.022216916 0.38593423 0.23852047 0.14741376
0.039999999 0.048042215 0.022341076 0.38593423 0.23852047 0.14741376
0.039999999 0.048784237 0.022465019 0.38593423 0.23852047 0.14741376
0.039999999 0.049524903 0.022588743 0.38593423 0.23852047 0.14741376
0.039999999 0.050264228 0.022712249 0.38593423 0.23852047 0.14741376
0.039999999 0.051002216 0.02283554 0.38593423 0.23852047 0.14741376
0.039999999 0.051738873 0.022958616 0.38593423 0.23852047 0.14741376
0.039999999 0.052474204 0.02308148 0.38593423 0.23852047 0.14741376
0.039999999 0.053208224 0.023204129 0.38593423 0.23852047 0.14741376
0.039999999 0.053940937 0.02332657 0.38593423 0.23852047 0.14741376
0.039999999 0.054672346 0.023448799 0.38593423 0.23852047 0.14741376
0.039999999 0.055402461 0.023570821 0.38593423 0.23852047 0.14741376
0.039999999 0.056131288 0.023692634 0.38593423 0.23852047 0.14741376
0.039999999 0.056858838 0.02381424 0.38593423 0.23852047 0.14741376
0.039999999 0.057585109 0.02393564 0.38593423 0.23852047 0.14741376
0.039999999 0.058310118 0.024056839 0.38593423 0.23852047 0.14741376
0.039999999 0.059033867 0.024177833 0.38593423 0.23852047 0.14741376
0.039999999 0.059756365 0.024298625 0.38593423 0.23852047 0.14741376
0.039999999 0.060477614 0.024419216 0.38593423 0.23852047 0.14741376
0.039999999 0.061197624 0.024539607 0.38593423 0.23852047 0.14741376
0.039999999 0.061916403 0.024659801 0.38593423 0.23852047 0.14741376
0.039999999 0.062633954 0.024779797 0.38593423 0.23852047 0.14741376
0.039999999 0.06335029 0.024899594 0.38593423 0.23852047 0.14741376
0.039999999 0.064065412 0.025019199 0.38593423 0.23852047 0.14741376
0.039999999 0.064779326 0.025138609 0.38593423 0.23852047 0.14741376
0.039999999 0.065492041 0.025257824 0.38593423 0.23852047 0.14741376
0.039999999 0.066203564 0.025376849 0.38593423 0.23852047 0.14741376
0.039999999 0.066913903 0.025495682 0.38593423 0.23852047 0.14741376
0.039999999 0.067623064 0.025614325 0.38593423 0.23852047 0.14741376
0.039999999 0.068331048 0.02573278 0.38593423 0.23852047 0.14741376
0.039999999 0.069037862 0.025851047 0.38593423 0.23852047 0.14741376
0.039999999 0.069743514 0.025969125 0.38593423 0.23852047 0.14741376
0.039999999 0.070448019 0.02608702 0.38593423 0.23852047 0.14741376
0.039999999 0.071151376 0.026204728 0.38593423 0.23852047 0.14741376
0.039999999 0.071853586 0.026322253 0.38593423 0.23852047 0.14741376
0.039999999 0.072554663 0.026439596 0.38593423 0.23852047 0.14741376
0.039999999 0.073254608 0.026556756 0.38593423 0.23852047 0.14741376
0.039999999 0.073953427 0.026673738 0.38593423 0.23852047 0.14741376
0.039999999 0.074651137 0.026790539 0.38593423 0.23852047 0.14741376
0.039999999 0.075347729 0.026907159 0.38593423 0.23852047 0.14741376
0.039999999 0.076043226 0.027023604 0.38593423 0.23852047 0.14741376
0.039999999 0.076737612 0.027139872 0.38593423 0.23852047 0.14741376
0.039999999 0.077430911 0.027255964 0.38593423 0.23852047 0.14741376
0.039999999 0.078123122 0.027371882 0.38593423 0.23852047 0.14741376
0.039999999 0.078814253 0.027487624 0.38593423 0.23852047 0.14741376
0.039999999 0.079504311 0.027603196 0.38593423 0.23852047 0.14741376
0.039577655 0.079999998 0.02757246 0.38593423 0.23852047 0.14741376
0.038066186 0.079999998 0.027165357 0.38593423 0.23852047 0.14741376
0.036543824 0.079999998 0.026755325 0.38593423 0.23852047 0.14741376
0.035010438 0.079999998 0.026342334 0.38593423 0.23852047 0.14741376
0.033465907 0.079999998 0.025926346 0.38593423 0.23852047 0.14741376
0.031910092 0.079999998 0.025507327 0.38593423 0.23852047 0.14741376
0.030342869 0.079999998 0.025085244 0.38593423 0.23852047 0.14741376
0.028764103 0.079999998 0.024660058 0.38593423 0.23852047 0.14741376
0.027173655 0.079999998 0.024231736 0.38593423 0.23852047 0.14741376
0.025571389 0.079999998 0.023800237 0.38593423 0.23852047 0.14741376
0.023957165 0.079999998 0.023365526 0.38593423 0.23852047 0.14741376
0.022330839 0.079999998 0.022927562 0.38593423 0.23852047 0.14741376
0.020692268 0.079999998 0.02248631 0.38593423 0.23852047 0.14741376
0.019041305 0.079999998 0.022041727 0.38593423 0.23852047 0.14741376
0.017377799 0.079999998 0.021593776 0.38593423 0.23852047 0.14741376
0.015701601 0.079999998 0.021142414 0.38593423 0.23852047 0.14741376
0.014012555 0.079999998 0.020687599 0.38593423 0.23852047 0.14741376
0.012310504 0.079999998 0.020229291 0.38593423 0.23852047 0.14741376
0.010595289 0.079999998 0.019767446 0.38593423 0.23852047 0.14741376
0.0088667497 0.079999998 0.019302022 0.38593423 0.23852047 0.14741376
0.0071247192 0.079999998 0.018832972 0.38593423 0.23852047 0.14741376
0.0053690323 0.079999998 0.018360253 0.38593423 0.23852047 0.14741376
0.0035995177 0.079999998 0.017883819 0.38593423 0.23852047 0.14741376
0.0018160035 0.079999998 0.017403623 0.38593423 0.23852047 0.14741376
1.8313445e-05 0.079999998 0.016919618 0.38593423 0.23852047 0.14741376
0.039999999 0.00073160679 0.013727395 0.38593423 0.23852047 0.14741376
0.039999999 0.001570294 0.0138678 0.38593423 0.23852047 0.14741376
0.039999999 0.0024071019 0.014007896 0.38593423 0.23852047 0.14741376
0.039999999 0.0032420408 0.014147686 0.38593423 0.23852047 0.14741376
0.039999999 0.0040751207 0.014287171 0.38593423 0.23852047 0.14741376
0.039999999 0.0049063526 0.014426352 0.38593423 0.23852047 0.14741376
0.039999999 0.0057357461 0.014565233 0.38593423 0.23852047 0.14741376
0.039999999 0.0065633119 0.014703813 0.38593423 0.23852047 0.14741376
0.039999999 0.0073890593 0.014842096 0.38593423 0.23852047 0.14741376
0.039999999 0.0082129994 0.014980081 0.38593423 0.23852047 0.14741376
0.039999999 0.0090351412 0.015117772 0.38593423 0.23852047 0.14741376
0.039999999 0.0098554948 0.015255169 0.38593423 0.23852047 0.14741376
0.039999999 0.010674071 0.015392275 0.38593423 0.23852047 0.14741376
0.039999999 0.011490879 0.015529091 0.38593423 0.23852047 0.14741376
0.039999999 0.012305927 0.015665619 0.38593423 0.23852047 0.14741376
0.039999999 0.013119227 0.015801858 0.38593423 0.23852047 0.14741376
0.039999999 0.013930787 0.015937814 0.38593423 0.23852047 0.14741376
0.039999999 0.014740618 0.016073486 0.38593423 0.23852047 0.14741376
0.039999999 0.015548728 0.016208876 0.38593423 0.23852047 0.14741376
0.039999999 0.016355129 0.016343985 0.38593423 0.23852047 0.14741376
0.039999999 0.017159827 0.016478814 0.38593423 0.23852047 0.14741376
0.039999999 0.017962832 0.016613368 0.38593423 0.23852047 0.14741376
0.039999999 0.018764155 0.016747644 0.38593423 0.23852047 0.14741376
0.039999999 0.019563805 0.016881647 0.38593423 0.23852047 0.14741376
0.039999999 0.02036179 0.017015377 0.38593423 0.23852047 0.14741376
0.039999999 0.02115812 0.017148836 0.38593423 0.23852047 0.14741376
0.039999999 0.021952802 0.017282024 0.38593423 0.23852047 0.14741376
0.039999999 0.02274585 0.017414944 0.38593423 0.23852047 0.14741376
0.039999999 0.023537267 0.017547598 0.38593423 0.23852047 0.14741376
0.039999999 0.024327064 0.017679987 0.38593423 0.23852047 0.14741376
0.039999999 0.025115252 0.01781211 0.38593423 0.23852047 0.14741376
0.039999999 0.025901837 0.017943973 0.38593423 0.23852047 0.14741376
0.039999999 0.02668683 0.018075574 0.38593423 0.23852047 0.14741376
0.039999999 0.027470239 0.018206915 0.38593423 0.23852047 0.14741376
0.039999999 0.028252071 0.018337999 0.38593423 0.23852047 0.14741376
0.039999999 0.029032337 0.018468825 0.38593423 0.23852047 0.14741376
0.039999999 0.029811041 0.018599397 0.38593423 0.23852047 0.14741376
0.039999999 0.030588198 0.018729713 0.38593423 0.23852047 0.14741376
0.039999999 0.031363811 0.018859778 0.38593423 0.23852047 0.14741376
0.039999999 0.032137893 0.018989591 0.38593423 0.23852047 0.14741376
0.039999999 0.032910451 0.019119155 0.38593423 0.23852047 0.14741376
0.039999999 0.03368149 0.019248471 0.38593423 0.23852047 0.14741376
0.039999999 0.034451019 0.019377539 0.38593423 0.23852047 0.14741376
0.039999999 0.035219051 0.019506361 0.38593423 0.23852047 0.14741376
0.039999999 0.035985589 0.019634942 0.38593423 0.23852047 0.14741376
0.039999999 0.036750644 0.019763276 0.38593423 0.23852047 0.14741376
0.039999999 0.037514221 0.01989137 0.38593423 0.23852047 0.14741376
0.039999999 0.038276333 0.020019224 0.38593423 0.23852047 0.14741376
0.039999999 0.039036982 0.020146839 0.38593423 0.23852047 0.14741376
0.039999999 0.039796181 0.020274216 0.38593423 0.23852047 0.14741376
0.039999999 0.040553935 0.020401357 0.38593423 0.23852047 0.14741376
0.039999999 0.041310254 0.020528262 0.38593423 0.23852047 0.14741376
0.039999999 0.042065144 0.020654935 0.38593423 0.23852047 0.14741376
0.039999999 0.042818613 0.020781374 0.38593423 0.23852047 0.14741376
0.039999999 0.043570668 0.020907583 0.38593423 0.23852047 0.14741376
0.039999999 0.044321317 0.021033561 0.38593423 0.23852047 0.14741376
0.039999999 0.04507057 0.021159312 0.38593423 0.23852047 0.14741376
0.039999999 0.045818433 0.021284834 0.38593423 0.23852047 0.14741376
0.039999999 0.046564911 0.02141013 0.38593423 0.23852047 0.14741376
0.039999999 0.047310017 0.021535201 0.38593423 0.23852047 0.14741376
0.039999999 0.048053753 0.021660049 0.38593423 0.23852047 0.14741376
0.039999999 0.048796128 0.021784673 0.38593423 0.23852047 0.14741376
0.039999999 0.049537152 0.021909077 0.38593423 0.23852047 0.14741376
0.039999999 0.050276831 0.022033261 0.38593423 0.23852047 0.14741376
0.039999999 0.051015168 0.022157226 0.38593423 0.23852047 0.14741376
0.039999999 0.051752176 0.022280974 0.38593423 0.23852047 0.14741376
0.039999999 0.052487861 0.022404505 0.38593423 0.23852047 0.14741376
0.039999999 0.053222228 0.022527819 0.38593423 0.23852047 0.14741376
0.039999999 0.053955287 0.022650922 0.38593423 0.23852047 0.14741376
0.039999999 0.054687042 0.022773812 0.38593423 0.23852047 0.14741376
0.039999999 0.0554175 0.022896487 0.38593423 0.23852047 0.14741376
0.039999999 0.056146674 0.023018954 0.38593423 0.23852047 0.14741376
0.039999999 0.056874566 0.023141213 0.38593423 0.23852047 0.14741376
0.039999999 0.05760118 0.023263261 0.38593423 0.23852047 0.14741376
0.039999999 0.058326527 0.023385104 0.38593423 0.23852047 0.14741376
0.039999999 0.059050616 0.023506738 0.38593423 0.23852047 0.14741376
0.039999999 0.059773449 0.02362817 0.38593423 0.23852047 0.14741376
0.039999999 0.060495038 0.023749398 0.38593423 0.23852047 0.14741376
0.039999999 0.061215382 0.023870423 0.38593423 0.23852047 0.14741376
0.039999999 0.061934497 0.023991246 0.38593423 0.23852047 0.14741376
0.039999999 0.062652379 0.024111869 0.38593423 0.23852047 0.14741376
0.039999999 0.063369051 0.024232294 0.38593423 0.23852047 0.14741376
0.039999999 0.0640845 0.024352519 0.38593423 0.23852047 0.14741376
0.039999999 0.06479875 0.024472548 0.38593423 0.23852047 0.14741376
0.039999999 0.065511793 0.024592381 0.38593423 0.23852047 0.14741376
0.039999999 0.066223644 0.024712019 0.38593423 0.23852047 0.14741376
0.039999999 0.06693431 0.024831463 0.38593423 0.23852047 0.14741376
0.039999999 0.067643791 0.024950715 0.38593423 0.23852047 0.14741376
0.039999999 0.068352096 0.025069775 0.38593423 0.23852047 0.14741376
0.039999999 0.069059238 0.025188643 0.38593423 0.23852047 0.14741376
0.039999999 0.069765218 0.025307324 0.38593423 0.23852047 0.14741376
0.039999999 0.070470043 0.025425814 0.38593423 0.23852047 0.14741376
0.039999999 0.071173713 0.025544118 0.38593423 0.23852047 0.14741376
0.039999999 0.07187625 0.025662236 0.38593423 0.23852047 0.14741376
0.039999999 0.07257764 0.025780167 0.38593423 0.23852047 0.14741376
0.039999999 0.073277906 0.025897916 0.38593423 0.23852047 0.14741376
0.039999999 0.073977046 0.026015479 0.38593423 0.23852047 0.14741376
0.039999999 0.074675068 0.026132861 0.38593423 0.23852047 0.14741376
0.039999999 0.075371981 0.026250063 0.38593423 0.23852047 0.14741376
0.039999999 0.076067783 0.026367083 0.38593423 0.23852047 0.14741376
0.039999999 0.076762483 0.026483925 0.38593423 0.23852047 0.14741376
0.039999999 0.077456094 0.026600588 0.38593423 0.23852047 0.14741376
0.039999999 0.078148618 0.026717072 0.38593423 0.23852047 0.14741376
0.039999999 0.078840055 0.026833382 0.38593423 0.23852047 0.14741376
0.039999999 0.079530425 0.026949516 0.38593423 0.23852047 0.14741376
0.03951985 0.079999998 0.026898434 0.38593423 0.23852047 0.14741376
0.0380072 0.079999998 0.026488647 0.38593423 0.23852047 0.14741376
0.036483634 0.079999998 0.026075909 0.38593423 0.23852047 0.14741376
0.034949034 0.079999998 0.025660185 0.38593423 0.23852047 0.14741376
0.03340327 0.079999998 0.025241444 0.38593423 0.23852047 0.14741376
0.03184621 0.079999998 0.024819648 0.38593423 0.23852047 0.14741376
0.030277722 0.079999998 0.024394762 0.38593423 0.23852047 0.14741376
0.028697673 0.079999998 0.02396675 0.38593423 0.23852047 0.14741376
0.027105926 0.079999998 0.023535576 0.38593423 0.23852047 0.14741376
0.025502343 0.079999998 0.023101201 0.38593423 0.23852047 0.14741376
0.023886783 0.079999998 0.022663588 0.38593423 0.23852047 0.14741376
0.022259105 0.079999998 0.022222698 0.38593423 0.23852047 0.14741376
0.020619161 0.079999998 0.021778492 0.38593423 0.23852047 0.14741376
0.018966807 0.079999998 0.02133093 0.38593423 0.23852047 0.14741376
0.017301893 0.079999998 0.020879973 0.38593423 0.23852047 0.14741376
0.015624264 0.079999998 0.020425577 0.38593423 0.23852047 0.14741376
0.013933768 0.079999998 0.019967703 0.38593423 0.23852047 0.14741376
0.012230247 0.079999998 0.019506305 0.38593423 0.23852047 0.14741376
0.010513542 0.079999998 0.019041345 0.38593423 0.23852047 0.14741376
0.0087834913 0.079999998 0.018572776 0.38593423 0.23852047 0.14741376
0.0070399283 0.079999998 0.018100552 0.38593423 0.23852047 0.14741376
0.0052826866 0.079999998 0.01762463 0.38593423 0.23852047 0.14741376
0.0035115955 0.079999998 0.017144963 0.38593423 0.23852047 0.14741376
0.0017264819 0.079999998 0.016661504 0.38593423 0.23852047 0.14741376
0.039999999 0.00071898516 0.01299856 0.38593423 0.23852047 0.14741376
0.039999999 0.0015581275 0.013139858 0.38593423 0.23852047 0.14741376
0.039999999 0.0023953882 0.013280843 0.38593423 0.23852047 0.14741376
0.039999999 0.0032307778 0.013421518 0.38593423 0.23852047 0.14741376
0.039999999 0.0040643071 0.013561884 0.38593423 0.23852047 0.14741376
0.039999999 0.0048959856 0.013701943 0.38593423 0.23852047 0.14741376
0.039999999 0.0057258238 0.013841696 0.38593423 0.23852047 0.14741376
0.039999999 0.0065538324 0.013981145 0.38593423 0.23852047 0.14741376
0.039999999 0.0073800213 0.014120293 0.38593423 0.23852047 0.14741376
0.039999999 0.0082044005 0.01425914 0.38593423 0.23852047 0.14741376
0.039999999 0.0090269791 0.014397688 0.38593423 0.23852047 0.14741376
0.039999999 0.0098477686 0.014535939 0.38593423 0.23852047 0.14741376
0.039999999 0.010666777 0.014673896 0.38593423 0.23852047 0.14741376
0.039999999 0.011484017 0.014811558 0.38593423 0.23852047 0.14741376
0.039999999 0.012299495 0.014948928 0.38593423 0.23852047 0.14741376
0.039999999 0.013113222 0.015086007 0.38593423 0.23852047 0.14741376
0.039999999 0.013925209 0.015222798 0.38593423 0.23852047 0.14741376
0.039999999 0.014735464 0.015359301 0.38593423 0.23852047 0.14741376
0.039999999 0.015543996 0.015495519 0.38593423 0.23852047 0.14741376
0.039999999 0.016350817 0.015631452 0.38593423 0.23852047 0.14741376
0.039999999 0.017155934 0.015767103 0.38593423 0.23852047 0.14741376
0.039999999 0.017959356 0.015902473 0.38593423 0.23852047 0.14741376
0.039999999 0.018761095 0.016037565 0.38593423 0.23852047 0.14741376
0.039999999 0.019561158 0.016172376 0.38593423 0.23852047 0.14741376
0.039999999 0.020359555 0.016306913 0.38593423 0.23852047 0.14741376
0.039999999 0.021156294 0.016441174 0.38593423 0.23852047 0.14741376
0.039999999 0.021951387 0.016575161 0.38593423 0.23852047 0.14741376
0.039999999 0.02274484 0.016708877 0.38593423 0.23852047 0.14741376
0.039999999 0.023536662 0.016842324 0.38593423 0.23852047 0.14741376
0.039999999 0.024326863 0.0169755 0.38593423 0.23852047 0.14741376
0.039999999 0.025115453 0.017108411 0.38593423 0.23852047 0.14741376
0.039999999 0.025902439 0.017241053 0.38593423 0.23852047 0.14741376
0.039999999 0.026687829 0.017373433 0.38593423 0.23852047 0.14741376
0.039999999 0.027471634 0.017505549 0.38593423 0.23852047 0.14741376
0.039999999 0.028253863 0.017637404 0.38593423 0.23852047 0.14741376
0.039999999 0.029034521 0.017768998 0.38593423 0.23852047 0.14741376
0.039999999 0.029813619 0.017900333 0.38593423 0.23852047 0.14741376
0.039999999 0.030591166 0.018031411 0.38593423 0.23852047 0.14741376
0.039999999 0.031367172 0.018162234 0.38593423 0.23852047 0.14741376
0.039999999 0.032141637 0.018292803 0.38593423 0.23852047 0.14741376
0.039999999 0.032914579 0.018423118 0.38593423 0.23852047 0.14741376
0.039999999 0.033686005 0.018553181 0.38593423 0.23852047 0.14741376
0.039999999 0.034455918 0.018682994 0.38593423 0.23852047 0.14741376
0.039999999 0.03522433 0.018812558 0.38593423 0.23852047 0.14741376
0.039999999 0.035991248 0.018941876 0.38593423 0.23852047 0.14741376
0.039999999 0.036756683 0.019070946 0.38593423 0.23852047 0.14741376
0.039999999 0.037520636 0.019199772 0.38593423 0.23852047 0.14741376
0.039999999 0.038283125 0.019328354 0.38593423 0.23852047 0.14741376
0.039999999 0.039044149 0.019456692 0.38593423 0.23852047 0.14741376
0.039999999 0.039803721 0.019584792 0.38593423 0.23852047 0.14741376
0.039999999 0.040561847 0.019712651 0.38593423 0.23852047 0.14741376
0.039999999 0.041318532 0.019840272 0.38593423 0.23852047 0.14741376
0.039999999 0.04207379 0.019967657 0.38593423 0.23852047 0.14741376
0.039999999 0.042827629 0.020094806 0.38593423 0.23852047 0.14741376
0.039999999 0.043580048 0.02022172 0.38593423 0.23852047 0.14741376
0.039999999 0.044331063 0.020348402 0.38593423 0.23852047 0.14741376
0.039999999 0.04508068 0.020474851 0.38593423 0.23852047 0.14741376
0.039999999 0.045828901 0.02060107 0.38593423 0.23852047 0.14741376
0.039999999 0.046575744 0.020727061 0.38593423 0.23852047 0.14741376
0.039999999 0.047321208 0.020852823 0.38593423 0.23852047 0.14741376
0.039999999 0.048065301 0.020978358 0.38593423 0.23852047 0.14741376
0.039999999 0.048808035 0.021103667 0.38593423 0.23852047 0.14741376
0.039999999 0.049549412 0.021228751 0.38593423 0.23852047 0.14741376
0.039999999 0.050289445 0.021353614 0.38593423 0.23852047 0.14741376
0.039999999 0.051028136 0.021478254 0.38593423 0.23852047 0.14741376
0.039999999 0.051765494 0.021602675 0.38593423 0.23852047 0.14741376
0.039999999 0.052501529 0.021726875 0.38593423 0.23852047 0.14741376
0.039999999 0.053236246 0.021850858 0.38593423 0.23852047 0.14741376
0.039999999 0.053969651 0.021974623 0.38593423 0.23852047 0.14741376
0.039999999 0.054701753 0.022098172 0.38593423 0.23852047 0.14741376
0.039999999 0.055432558 0.022221506 0.38593423 0.23852047 0.14741376
0.039999999 0.056162074 0.022344628 0.38593423 0.23852047 0.14741376
0.039999999 0.056890309 0.022467537 0.38593423 0.23852047 0.14741376
0.039999999 0.057617266 0.022590235 0.38593423 0.23852047 0.14741376
0.039999999 0.058342952 0.022712722 0.38593423 0.23852047 0.14741376
0.039999999 0.05906738 0.022835001 0.38593423 0.23852047 0.14741376
0.039999999 0.059790552 0.022957074 0.38593423 0.23852047 0.14741376
0.039999999 0.060512476 0.023078939 0.38593423 0.23852047 0.14741376
0.039999999 0.061233159 0.023200598 0.38593423 0.23852047 0.14741376
0.039999999 0.061952606 0.023322053 0.38593423 0.23852047 0.14741376
0.039999999 0.062670827 0.023443306 0.38593423 0.23852047 0.14741376
0.039999999 0.063387826 0.023564355 0.38593423 0.23852047 0.14741376
0.039999999 0.064103611 0.023685204 0.38593423 0.23852047 0.14741376
0.039999999 0.064818189 0.023805853 0.38593423 0.23852047 0.14741376
0.039999999 0.065531559 0.023926305 0.38593423 0.23852047 0.14741376
0.039999999 0.066243738 0.024046557 0.38593423 0.23852047 0.14741376
0.039999999 0.066954732 0.024166614 0.38593423 0.23852047 0.14741376
0.039999999 0.067664541 0.024286475 0.38593423 0.23852047 0.14741376
0.039999999 0.068373173 0.024406141 0.38593423 0.23852047 0.14741376
0.039999999 0.069080636 0.024525614 0.38593423 0.23852047 0.14741376
0.039999999 0.069786936 0.024644895 0.38593423 0.23852047 0.14741376
0.039999999 0.070492081 0.024763985 0.38593423 0.23852047 0.14741376
0.039999999 0.071196079 0.024882885 0.38593423 0.23852047 0.14741376
0.039999999 0.07189893 0.025001595 0.38593423 0.23852047 0.14741376
0.039999999 0.07260064 0.025120117 0.38593423 0.23852047 0.14741376
0.039999999 0.073301226 0.025238452 0.38593423 0.23852047 0.14741376
0.039999999 0.074000679 0.025356602 0.38593423 0.23852047 0.14741376
0.039999999 0.074699022 0.025474567 0.38593423 0.23852047 0.14741376
0.039999999 0.075396247 0.025592348 0.38593423 0.23852047 0.14741376
0.039999999 0.076092362 0.025709946 0.38593423 0.23852047 0.14741376
0.039999999 0.076787382 0.025827361 0.38593423 0.23852047 0.14741376
0.039999999 0.0774813 0.025944596 0.38593423 0.23852047 0.14741376
0.039999999 0.078174137 0.02606165 0.38593423 0.23852047 0.14741376
0.039999999 0.078865886 0.026178528 0.38593423 0.23852047 0.14741376
0.039999999 0.079556562 0.026295224 0.38593423 0.23852047 0.14741376
0.03946197 0.079999998 0.026223553 0.38593423 0.23852047 0.14741376
0.037948132 0.079999998 0.025811074 0.38593423 0.23852047 0.14741376
0.03642337 0.079999998 0.025395621 0.38593423 0.23852047 0.14741376
0.034887552 0.079999998 0.024977161 0.38593423 0.23852047 0.14741376
0.033340555 0.079999998 0.024555659 0.38593423 0.23852047 0.14741376
0.031782243 0.079999998 0.024131078 0.38593423 0.23852047 0.14741376
0.03021249 0.079999998 0.023703383 0.38593423 0.23852047 0.14741376
0.028631156 0.079999998 0.023272539 0.38593423 0.23852047 0.14741376
0.027038107 0.079999998 0.022838507 0.38593423 0.23852047 0.14741376
0.025433205 0.079999998 0.022401247 0.38593423 0.23852047 0.14741376
0.023816308 0.079999998 0.021960726 0.38593423 0.23852047 0.14741376
0.022187276 0.079999998 0.021516902 0.38593423 0.23852047 0.14741376
0.020545958 0.079999998 0.021069735 0.38593423 0.23852047 0.14741376
0.018892212 0.079999998 0.020619188 0.38593423 0.23852047 0.14741376
0.017225884 0.079999998 0.020165214 0.38593423 0.23852047 0.14741376
0.015546823 0.079999998 0.019707778 0.38593423 0.23852047 0.14741376
0.013854875 0.079999998 0.019246835 0.38593423 0.23852047 0.14741376
0.012149883 0.079999998 0.018782342 0.38593423 0.23852047 0.14741376
0.010431685 0.079999998 0.018314257 0.38593423 0.23852047 0.14741376
0.0087001193 0.079999998 0.017842533 0.38593423 0.23852047 0.14741376
0.0069550211 0.079999998 0.017367128 0.38593423 0.23852047 0.14741376
0.0051962221 0.079999998 0.016887994 0.38593423 0.23852047 0.14741376
0.0034235518 0.079999998 0.016405087 0.38593423 0.23852047 0.14741376
0.0016368363 0.079999998 0.015918357 0.38593423 0.23852047 0.14741376
0.039999999 0.00070635043 0.012268968 0.38593423 0.23852047 0.14741376
0.039999999 0.0015459481 0.012411159 0.38593423 0.23852047 0.14741376
0.039999999 0.0023836622 0.012553035 0.38593423 0.23852047 0.14741376
0.039999999 0.0032195032 0.012694596 0.38593423 0.23852047 0.14741376
0.039999999 0.0040534819 0.012835845 0.38593423 0.23852047 0.14741376
0.039999999 0.0048856079 0.012976782 0.38593423 0.23852047 0.14741376
0.039999999 0.0057158917 0.013117411 0.38593423 0.23852047 0.14741376
0.039999999 0.0065443437 0.013257732 0.38593423 0.23852047 0.14741376
0.039999999 0.0073709735 0.013397746 0.38593423 0.23852047 0.14741376
0.039999999 0.0081957923 0.013537456 0.38593423 0.23852047 0.14741376
0.039999999 0.0090188086 0.013676864 0.38593423 0.23852047 0.14741376
