# .PCD v0.7 - Point Cloud Data file format
VERSION 0.7
FIELDS x y z vp_x vp_y vp_z
SIZE 4 4 4 4 4 4
TYPE F F F F F F
COUNT 1 1 1 1 1 1
WIDTH 684
HEIGHT 1
VIEWPOINT 0 0 0 1 0 0 0
POINTS 684
DATA ascii
0.039999999 0.048994422 0.033869356 0.38593423 0.23852047 -0.14741376
0.039999999 0.049765803 0.033686955 0.38593423 0.23852047 -0.14741376
0.039999999 0.050535727 0.033505041 0.38593423 0.23852047 -0.14741376
0.039999999 0.051304199 0.033323601 0.38593423 0.23852047 -0.14741376
0.039999999 0.052071229 0.033142641 0.38593423 0.23852047 -0.14741376
0.039999999 0.05283682 0.032962155 0.38593423 0.23852047 -0.14741376
0.039999999 0.053600986 0.032782145 0.38593423 0.23852047 -0.14741376
0.039999999 0.054363731 0.032602601 0.38593423 0.23852047 -0.14741376
0.039999999 0.055125065 0.032423526 0.38593423 0.23852047 -0.14741376
0.039999999 0.055884995 0.032244917 0.38593423 0.23852047 -0.14741376
0.039999999 0.056643531 0.03206677 0.38593423 0.23852047 -0.14741376
0.039999999 0.057400677 0.031889085 0.38593423 0.23852047 -0.14741376
0.039999999 0.058156442 0.031711861 0.38593423 0.23852047 -0.14741376
0.039999999 0.058910836 0.031535093 0.38593423 0.23852047 -0.14741376
0.039999999 0.059663862 0.031358778 0.38593423 0.23852047 -0.14741376
0.039999999 0.060415532 0.031182919 0.38593423 0.23852047 -0.14741376
0.039999999 0.061165854 0.031007508 0.38593423 0.23852047 -0.14741376
0.039999999 0.061914831 0.030832548 0.38593423 0.23852047 -0.14741376
0.039999999 0.062662475 0.030658031 0.38593423 0.23852047 -0.14741376
0.039999999 0.063408792 0.030483959 0.38593423 0.23852047 -0.14741376
0.039999999 0.06415379 0.030310331 0.38593423 0.23852047 -0.14741376
0.039999999 0.06489747 0.03013714 0.38593423 0.23852047 -0.14741376
0.039999999 0.065639853 0.029964389 0.38593423 0.23852047 -0.14741376
0.039999999 0.066380933 0.029792074 0.38593423 0.23852047 -0.14741376
0.039999999 0.067120723 0.029620191 0.38593423 0.23852047 -0.14741376
0.039999999 0.067859232 0.029448742 0.38593423 0.23852047 -0.14741376
0.039999999 0.06859646 0.029277721 0.38593423 0.23852047 -0.14741376
0.039999999 0.069332428 0.029107129 0.38593423 0.23852047 -0.14741376
0.039999999 0.070067123 0.028936962 0.38593423 0.23852047 -0.14741376
0.039999999 0.070800573 0.028767219 0.38593423 0.23852047 -0.14741376
0.039999999 0.071532771 0.028597899 0.38593423 0.23852047 -0.14741376
0.039999999 0.072263725 0.028428998 0.38593423 0.23852047 -0.14741376
0.039999999 0.07299345 0.028260514 0.38593423 0.23852047 -0.14741376
0.039999999 0.073721945 0.028092448 0.38593423 0.23852047 -0.14741376
0.039999999 0.074449219 0.027924793 0.38593423 0.23852047 -0.14741376
0.039999999 0.075175285 0.027757553 0.38593423 0.23852047 -0.14741376
0.039999999 0.075900145 0.027590722 0.38593423 0.23852047 -0.14741376
0.039999999 0.076623797 0.0274243 0.38593423 0.23852047 -0.14741376
0.039999999 0.077346265 0.027258283 0.38593423 0.23852047 -0.14741376
0.039999999 0.078067541 0.027092671 0.38593423 0.23852047 -0.14741376
0.039999999 0.07878764 0.026927464 0.38593423 0.23852047 -0.14741376
0.039999999 0.079506569 0.026762655 0.38593423 0.23852047 -0.14741376
0.039509762 0.079999998 0.026844846 0.38593423 0.23852047 -0.14741376
0.037934382 0.079999998 0.027472304 0.38593423 0.23852047 -0.14741376
0.036347173 0.079999998 0.028104605 0.38593423 0.23852047 -0.14741376
0.034748003 0.079999998 0.028741807 0.38593423 0.23852047 -0.14741376
0.033136722 0.079999998 0.029383967 0.38593423 0.23852047 -0.14741376
0.031513181 0.079999998 0.030031146 0.38593423 0.23852047 -0.14741376
0.029877236 0.079999998 0.030683406 0.38593423 0.23852047 -0.14741376
0.028228736 0.079999998 0.031340808 0.38593423 0.23852047 -0.14741376
0.026567521 0.079999998 0.032003414 0.38593423 0.23852047 -0.14741376
0.02489344 0.079999998 0.032671291 0.38593423 0.23852047 -0.14741376
0.023206333 0.079999998 0.0333445 0.38593423 0.23852047 -0.14741376
0.021506038 0.079999998 0.03402311 0.38593423 0.23852047 -0.14741376
0.019792391 0.079999998 0.034707189 0.38593423 0.23852047 -0.14741376
0.018065223 0.079999998 0.035396799 0.38593423 0.23852047 -0.14741376
0.016324367 0.079999998 0.036092017 0.38593423 0.23852047 -0.14741376
0.01456965 0.079999998 0.036792912 0.38593423 0.23852047 -0.14741376
0.012800896 0.079999998 0.037499551 0.38593423 0.23852047 -0.14741376
0.011017925 0.079999998 0.038212009 0.38593423 0.23852047 -0.14741376
0.0092205582 0.079999998 0.038930364 0.38593423 0.23852047 -0.14741376
0.0074086096 0.079999998 0.039654687 0.38593423 0.23852047 -0.14741376
0.039999999 0.020181937 0.039998639 0.38593423 0.23852047 -0.14741376
0.039999999 0.021011278 0.039798178 0.38593423 0.23852047 -0.14741376
0.039999999 0.021838833 0.03959829 0.38593423 0.23852047 -0.14741376
0.039999999 0.022664612 0.039398972 0.38593423 0.23852047 -0.14741376
0.039999999 0.023488626 0.039200217 0.38593423 0.23852047 -0.14741376
0.039999999 0.024310885 0.039002024 0.38593423 0.23852047 -0.14741376
0.039999999 0.025131399 0.03880439 0.38593423 0.23852047 -0.14741376
0.039999999 0.025950175 0.038607314 0.38593423 0.23852047 -0.14741376
0.039999999 0.026767226 0.03841079 0.38593423 0.23852047 -0.14741376
0.039999999 0.027582562 0.038214821 0.38593423 0.23852047 -0.14741376
0.039999999 0.028396189 0.0380194 0.38593423 0.23852047 -0.14741376
0.039999999 0.02920812 0.037824523 0.38593423 0.23852047 -0.14741376
0.039999999 0.030018365 0.037630189 0.38593423 0.23852047 -0.14741376
0.039999999 0.03082693 0.037436396 0.38593423 0.23852047 -0.14741376
0.039999999 0.031633828 0.037243139 0.38593423 0.23852047 -0.14741376
0.039999999 0.032439064 0.037050419 0.38593423 0.23852047 -0.14741376
0.039999999 0.03324265 0.036858231 0.38593423 0.23852047 -0.14741376
0.039999999 0.034044597 0.036666572 0.38593423 0.23852047 -0.14741376
0.039999999 0.034844913 0.036475439 0.38593423 0.23852047 -0.14741376
0.039999999 0.035643607 0.036284834 0.38593423 0.23852047 -0.14741376
0.039999999 0.036440685 0.036094747 0.38593423 0.23852047 -0.14741376
0.039999999 0.037236162 0.035905182 0.38593423 0.23852047 -0.14741376
0.039999999 0.038030043 0.035716131 0.38593423 0.23852047 -0.14741376
0.039999999 0.038822334 0.035527598 0.38593423 0.23852047 -0.14741376
0.039999999 0.039613053 0.035339572 0.38593423 0.23852047 -0.14741376
0.039999999 0.0404022 0.035152059 0.38593423 0.23852047 -0.14741376
0.039999999 0.041189786 0.034965053 0.38593423 0.23852047 -0.14741376
0.039999999 0.041975822 0.034778547 0.38593423 0.23852047 -0.14741376
0.039999999 0.042760316 0.034592547 0.38593423 0.23852047 -0.14741376
0.039999999 0.043543279 0.034407046 0.38593423 0.23852047 -0.14741376
0.039999999 0.044324715 0.03422204 0.38593423 0.23852047 -0.14741376
0.039999999 0.04510463 0.034037527 0.38593423 0.23852047 -0.14741376
0.039999999 0.045883041 0.033853509 0.38593423 0.23852047 -0.14741376
0.039999999 0.04665995 0.033669978 0.38593423 0.23852047 -0.14741376
0.039999999 0.047435369 0.033486936 0.38593423 0.23852047 -0.14741376
0.039999999 0.048209306 0.033304382 0.38593423 0.23852047 -0.14741376
0.039999999 0.048981767 0.033122305 0.38593423 0.23852047 -0.14741376
0.039999999 0.049752761 0.032940712 0.38593423 0.23852047 -0.14741376
0.039999999 0.050522294 0.032759596 0.38593423 0.23852047 -0.14741376
0.039999999 0.051290382 0.032578956 0.38593423 0.23852047 -0.14741376
0.039999999 0.052057024 0.03239879 0.38593423 0.23852047 -0.14741376
0.039999999 0.052822232 0.032219093 0.38593423 0.23852047 -0.14741376
0.039999999 0.053586014 0.032039866 0.38593423 0.23852047 -0.14741376
0.039999999 0.054348379 0.031861104 0.38593423 0.23852047 -0.14741376
0.039999999 0.055109333 0.031682812 0.38593423 0.23852047 -0.14741376
0.039999999 0.055868883 0.031504977 0.38593423 0.23852047 -0.14741376
0.039999999 0.056627043 0.031327602 0.38593423 0.23852047 -0.14741376
0.039999999 0.057383813 0.031150686 0.38593423 0.23852047 -0.14741376
0.039999999 0.058139205 0.030974226 0.38593423 0.23852047 -0.14741376
0.039999999 0.058893222 0.030798219 0.38593423 0.23852047 -0.14741376
0.039999999 0.05964588 0.030622663 0.38593423 0.23852047 -0.14741376
0.039999999 0.060397182 0.030447556 0.38593423 0.23852047 -0.14741376
0.039999999 0.061147131 0.030272897 0.38593423 0.23852047 -0.14741376
0.039999999 0.061895743 0.030098682 0.38593423 0.23852047 -0.14741376
0.039999999 0.062643021 0.029924911 0.38593423 0.23852047 -0.14741376
0.039999999 0.063388973 0.02975158 0.38593423 0.23852047 -0.14741376
0.039999999 0.064133607 0.029578688 0.38593423 0.23852047 -0.14741376
0.039999999 0.064876929 0.029406231 0.38593423 0.23852047 -0.14741376
0.039999999 0.065618947 0.02923421 0.38593423 0.23852047 -0.14741376
0.039999999 0.066359669 0.029062621 0.38593423 0.23852047 -0.14741376
0.039999999 0.067099094 0.028891463 0.38593423 0.23852047 -0.14741376
0.039999999 0.067837246 0.028720733 0.38593423 0.23852047 -0.14741376
0.039999999 0.068574123 0.028550429 0.38593423 0.23852047 -0.14741376
0.039999999 0.069309726 0.02838055 0.38593423 0.23852047 -0.14741376
0.039999999 0.070044078 0.028211094 0.38593423 0.23852047 -0.14741376
0.039999999 0.07077717 0.028042058 0.38593423 0.23852047 -0.14741376
0.039999999 0.071509011 0.02787344 0.38593423 0.23852047 -0.14741376
0.039999999 0.072239622 0.027705239 0.38593423 0.23852047 -0.14741376
0.039999999 0.072968997 0.027537454 0.38593423 0.23852047 -0.14741376
0.039999999 0.073697142 0.02737008 0.38593423 0.23852047 -0.14741376
0.039999999 0.074424073 0.027203118 0.38593423 0.23852047 -0.14741376
0.039999999 0.075149789 0.027036564 0.38593423 0.23852047 -0.14741376
0.039999999 0.075874299 0.026870418 0.38593423 0.23852047 -0.14741376
0.039999999 0.076597616 0.026704676 0.38593423 0.23852047 -0.14741376
0.039999999 0.077319734 0.026539339 0.38593423 0.23852047 -0.14741376
0.039999999 0.078040674 0.026374402 0.38593423 0.23852047 -0.14741376
0.039999999 0.07876043 0.026209865 0.38593423 0.23852047 -0.14741376
0.039999999 0.079479016 0.026045725 0.38593423 0.23852047 -0.14741376
0.039570779 0.079999998 0.026097 0.38593423 0.23852047 -0.14741376
0.037996698 0.079999998 0.026721241 0.38593423 0.23852047 -0.14741376
0.036410809 0.079999998 0.027350293 0.38593423 0.23852047 -0.14741376
0.034812976 0.079999998 0.027984219 0.38593423 0.23852047 -0.14741376
0.03320305 0.079999998 0.028623072 0.38593423 0.23852047 -0.14741376
0.031580884 0.079999998 0.029266914 0.38593423 0.23852047 -0.14741376
0.029946333 0.079999998 0.029915804 0.38593423 0.23852047 -0.14741376
0.028299244 0.079999998 0.030569807 0.38593423 0.23852047 -0.14741376
0.026639463 0.079999998 0.031228982 0.38593423 0.23852047 -0.14741376
0.024966836 0.079999998 0.031893395 0.38593423 0.23852047 -0.14741376
0.023281204 0.079999998 0.032563109 0.38593423 0.23852047 -0.14741376
0.021582402 0.079999998 0.033238187 0.38593423 0.23852047 -0.14741376
0.019870272 0.079999998 0.033918701 0.38593423 0.23852047 -0.14741376
0.018144643 0.079999998 0.034604717 0.38593423 0.23852047 -0.14741376
0.016405348 0.079999998 0.035296302 0.38593423 0.23852047 -0.14741376
0.014652214 0.079999998 0.035993528 0.38593423 0.23852047 -0.14741376
0.012885066 0.079999998 0.036696464 0.38593423 0.23852047 -0.14741376
0.011103725 0.079999998 0.037405185 0.38593423 0.23852047 -0.14741376
0.0093080113 0.079999998 0.038119763 0.38593423 0.23852047 -0.14741376
0.0074977404 0.079999998 0.038840275 0.38593423 0.23852047 -0.14741376
0.0056727245 0.079999998 0.039566796 0.38593423 0.23852047 -0.14741376
0.039999999 0.017686917 0.03982313 0.38593423 0.23852047 -0.14741376
0.039999999 0.018521218 0.039621897 0.38593423 0.23852047 -0.14741376
0.039999999 0.019353706 0.039421242 0.38593423 0.23852047 -0.14741376
0.039999999 0.02018439 0.03922116 0.38593423 0.23852047 -0.14741376
0.039999999 0.02101328 0.039021648 0.38593423 0.23852047 -0.14741376
0.039999999 0.021840386 0.038822699 0.38593423 0.23852047 -0.14741376
0.039999999 0.02266572 0.03862432 0.38593423 0.23852047 -0.14741376
0.039999999 0.023489289 0.038426496 0.38593423 0.23852047 -0.14741376
0.039999999 0.024311105 0.038229235 0.38593423 0.23852047 -0.14741376
0.039999999 0.025131177 0.038032524 0.38593423 0.23852047 -0.14741376
0.039999999 0.025949515 0.037836369 0.38593423 0.23852047 -0.14741376
0.039999999 0.026766131 0.037640765 0.38593423 0.23852047 -0.14741376
0.039999999 0.027581031 0.037445705 0.38593423 0.23852047 -0.14741376
0.039999999 0.028394224 0.037251193 0.38593423 0.23852047 -0.14741376
0.039999999 0.029205725 0.037057221 0.38593423 0.23852047 -0.14741376
0.039999999 0.030015538 0.036863785 0.38593423 0.23852047 -0.14741376
0.039999999 0.030823676 0.03667089 0.38593423 0.23852047 -0.14741376
0.039999999 0.031630147 0.036478523 0.38593423 0.23852047 -0.14741376
0.039999999 0.032434959 0.036286689 0.38593423 0.23852047 -0.14741376
0.039999999 0.033238124 0.036095385 0.38593423 0.23852047 -0.14741376
0.039999999 0.03403965 0.035904609 0.38593423 0.23852047 -0.14741376
0.039999999 0.034839548 0.035714351 0.38593423 0.23852047 -0.14741376
0.039999999 0.035637822 0.035524614 0.38593423 0.23852047 -0.14741376
0.039999999 0.036434487 0.035335395 0.38593423 0.23852047 -0.14741376
0.039999999 0.037229545 0.035146695 0.38593423 0.23852047 -0.14741376
0.039999999 0.038023014 0.034958504 0.38593423 0.23852047 -0.14741376
0.039999999 0.038814899 0.034770824 0.38593423 0.23852047 -0.14741376
0.039999999 0.039605204 0.034583654 0.38593423 0.23852047 -0.14741376
0.039999999 0.040393945 0.034396987 0.38593423 0.23852047 -0.14741376
0.039999999 0.041181125 0.034210823 0.38593423 0.23852047 -0.14741376
0.039999999 0.041966759 0.034025159 0.38593423 0.23852047 -0.14741376
0.039999999 0.04275085 0.033839993 0.38593423 0.23852047 -0.14741376
0.039999999 0.043533407 0.033655323 0.38593423 0.23852047 -0.14741376
0.039999999 0.044314444 0.033471148 0.38593423 0.23852047 -0.14741376
0.039999999 0.045093961 0.033287462 0.38593423 0.23852047 -0.14741376
0.039999999 0.045871977 0.033104263 0.38593423 0.23852047 -0.14741376
0.039999999 0.046648491 0.032921553 0.38593423 0.23852047 -0.14741376
0.039999999 0.047423515 0.032739323 0.38593423 0.23852047 -0.14741376
0.039999999 0.048197057 0.032557577 0.38593423 0.23852047 -0.14741376
0.039999999 0.048969127 0.032376308 0.38593423 0.23852047 -0.14741376
0.039999999 0.049739733 0.032195516 0.38593423 0.23852047 -0.14741376
0.039999999 0.050508879 0.032015201 0.38593423 0.23852047 -0.14741376
0.039999999 0.051276579 0.031835355 0.38593423 0.23852047 -0.14741376
0.039999999 0.052042838 0.031655978 0.38593423 0.23852047 -0.14741376
0.039999999 0.052807663 0.031477071 0.38593423 0.23852047 -0.14741376
0.039999999 0.053571064 0.03129863 0.38593423 0.23852047 -0.14741376
0.039999999 0.054333046 0.031120649 0.38593423 0.23852047 -0.14741376
0.039999999 0.055093624 0.030943129 0.38593423 0.23852047 -0.14741376
0.039999999 0.055852797 0.03076607 0.38593423 0.23852047 -0.14741376
0.039999999 0.056610577 0.030589465 0.38593423 0.23852047 -0.14741376
0.039999999 0.057366971 0.030413317 0.38593423 0.23852047 -0.14741376
0.039999999 0.05812199 0.030237619 0.38593423 0.23852047 -0.14741376
0.039999999 0.058875639 0.030062372 0.38593423 0.23852047 -0.14741376
0.039999999 0.059627924 0.029887572 0.38593423 0.23852047 -0.14741376
0.039999999 0.060378853 0.029713217 0.38593423 0.23852047 -0.14741376
0.039999999 0.061128438 0.029539308 0.38593423 0.23852047 -0.14741376
0.039999999 0.061876681 0.029365838 0.38593423 0.23852047 -0.14741376
0.039999999 0.06262359 0.029192807 0.38593423 0.23852047 -0.14741376
0.039999999 0.063369177 0.029020216 0.38593423 0.23852047 -0.14741376
0.039999999 0.064113446 0.028848058 0.38593423 0.23852047 -0.14741376
0.039999999 0.06485641 0.028676335 0.38593423 0.23852047 -0.14741376
0.039999999 0.065598063 0.028505042 0.38593423 0.23852047 -0.14741376
0.039999999 0.066338427 0.028334178 0.38593423 0.23852047 -0.14741376
0.039999999 0.067077503 0.028163742 0.38593423 0.23852047 -0.14741376
0.039999999 0.067815289 0.027993729 0.38593423 0.23852047 -0.14741376
0.039999999 0.068551809 0.027824141 0.38593423 0.23852047 -0.14741376
0.039999999 0.069287062 0.027654976 0.38593423 0.23852047 -0.14741376
0.039999999 0.070021056 0.027486227 0.38593423 0.23852047 -0.14741376
0.039999999 0.070753798 0.027317896 0.38593423 0.23852047 -0.14741376
0.039999999 0.071485288 0.027149981 0.38593423 0.23852047 -0.14741376
0.039999999 0.07221555 0.026982479 0.38593423 0.23852047 -0.14741376
0.039999999 0.072944574 0.026815388 0.38593423 0.23852047 -0.14741376
0.039999999 0.073672377 0.026648708 0.38593423 0.23852047 -0.14741376
0.039999999 0.074398957 0.026482433 0.38593423 0.23852047 -0.14741376
0.039999999 0.075124331 0.026316566 0.38593423 0.23852047 -0.14741376
0.039999999 0.075848497 0.026151102 0.38593423 0.23852047 -0.14741376
0.039999999 0.076571465 0.02598604 0.38593423 0.23852047 -0.14741376
0.039999999 0.077293247 0.025821378 0.38593423 0.23852047 -0.14741376
0.039999999 0.078013845 0.025657116 0.38593423 0.23852047 -0.14741376
0.039999999 0.078733258 0.025493247 0.38593423 0.23852047 -0.14741376
0.039999999 0.079451509 0.025329776 0.38593423 0.23852047 -0.14741376
0.039631691 0.079999998 0.025350438 0.38593423 0.23852047 -0.14741376
0.038058907 0.079999998 0.025971472 0.38593423 0.23852047 -0.14741376
0.036474336 0.079999998 0.026597288 0.38593423 0.23852047 -0.14741376
0.034877837 0.079999998 0.027227944 0.38593423 0.23852047 -0.14741376
0.03326926 0.079999998 0.027863501 0.38593423 0.23852047 -0.14741376
0.031648468 0.079999998 0.028504014 0.38593423 0.23852047 -0.14741376
0.030015308 0.079999998 0.029149547 0.38593423 0.23852047 -0.14741376
0.02836963 0.079999998 0.02980016 0.38593423 0.23852047 -0.14741376
0.02671128 0.079999998 0.030455913 0.38593423 0.23852047 -0.14741376
0.025040103 0.079999998 0.031116871 0.38593423 0.23852047 -0.14741376
0.02335594 0.079999998 0.031783096 0.38593423 0.23852047 -0.14741376
0.021658633 0.079999998 0.032454658 0.38593423 0.23852047 -0.14741376
0.019948015 0.079999998 0.033131618 0.38593423 0.23852047 -0.14741376
0.018223921 0.079999998 0.033814047 0.38593423 0.23852047 -0.14741376
0.016486183 0.079999998 0.034502011 0.38593423 0.23852047 -0.14741376
0.01473463 0.079999998 0.035195582 0.38593423 0.23852047 -0.14741376
0.012969083 0.079999998 0.035894826 0.38593423 0.23852047 -0.14741376
0.011189369 0.079999998 0.036599822 0.38593423 0.23852047 -0.14741376
0.0093953051 0.079999998 0.037310638 0.38593423 0.23852047 -0.14741376
0.0075867083 0.079999998 0.03802735 0.38593423 0.23852047 -0.14741376
0.005763391 0.079999998 0.03875003 0.38593423 0.23852047 -0.14741376
0.0039251638 0.079999998 0.039478764 0.38593423 0.23852047 -0.14741376
0.039999999 0.014337011 0.039850771 0.38593423 0.23852047 -0.14741376
0.039999999 0.015178209 0.039648186 0.38593423 0.23852047 -0.14741376
0.039999999 0.016017554 0.039446183 0.38593423 0.23852047 -0.14741376
0.039999999 0.016855055 0.039244756 0.38593423 0.23852047 -0.14741376
0.039999999 0.017690726 0.039043911 0.38593423 0.23852047 -0.14741376
0.039999999 0.018524572 0.038843635 0.38593423 0.23852047 -0.14741376
0.039999999 0.019356607 0.038643934 0.38593423 0.23852047 -0.14741376
0.039999999 0.02018684 0.038444802 0.38593423 0.23852047 -0.14741376
0.039999999 0.021015279 0.038246233 0.38593423 0.23852047 -0.14741376
0.039999999 0.021841938 0.038048226 0.38593423 0.23852047 -0.14741376
0.039999999 0.022666827 0.037850779 0.38593423 0.23852047 -0.14741376
0.039999999 0.023489952 0.03765389 0.38593423 0.23852047 -0.14741376
0.039999999 0.024311326 0.037457552 0.38593423 0.23852047 -0.14741376
0.039999999 0.025130957 0.037261765 0.38593423 0.23852047 -0.14741376
0.039999999 0.025948858 0.03706653 0.38593423 0.23852047 -0.14741376
0.039999999 0.026765035 0.036871839 0.38593423 0.23852047 -0.14741376
0.039999999 0.027579501 0.036677692 0.38593423 0.23852047 -0.14741376
0.039999999 0.028392263 0.036484081 0.38593423 0.23852047 -0.14741376
0.039999999 0.029203331 0.036291011 0.38593423 0.23852047 -0.14741376
0.039999999 0.030012717 0.036098476 0.38593423 0.23852047 -0.14741376
0.039999999 0.030820427 0.035906471 0.38593423 0.23852047 -0.14741376
0.039999999 0.03162647 0.035714995 0.38593423 0.23852047 -0.14741376
0.039999999 0.032430861 0.035524048 0.38593423 0.23852047 -0.14741376
0.039999999 0.033233605 0.035333626 0.38593423 0.23852047 -0.14741376
0.039999999 0.03403471 0.035143722 0.38593423 0.23852047 -0.14741376
0.039999999 0.034834187 0.034954339 0.38593423 0.23852047 -0.14741376
0.039999999 0.035632044 0.034765474 0.38593423 0.23852047 -0.14741376
0.039999999 0.036428295 0.034577124 0.38593423 0.23852047 -0.14741376
0.039999999 0.03722294 0.03438928 0.38593423 0.23852047 -0.14741376
0.039999999 0.038015995 0.03420195 0.38593423 0.23852047 -0.14741376
0.039999999 0.03880747 0.034015123 0.38593423 0.23852047 -0.14741376
0.039999999 0.039597366 0.033828802 0.38593423 0.23852047 -0.14741376
0.039999999 0.040385701 0.033642981 0.38593423 0.23852047 -0.14741376
0.039999999 0.041172475 0.033457659 0.38593423 0.23852047 -0.14741376
0.039999999 0.041957702 0.033272833 0.38593423 0.23852047 -0.14741376
0.039999999 0.042741392 0.033088502 0.38593423 0.23852047 -0.14741376
0.039999999 0.04352355 0.032904662 0.38593423 0.23852047 -0.14741376
0.039999999 0.044304188 0.032721315 0.38593423 0.23852047 -0.14741376
0.039999999 0.04508331 0.032538451 0.38593423 0.23852047 -0.14741376
0.039999999 0.045860928 0.032356072 0.38593423 0.23852047 -0.14741376
0.039999999 0.046637047 0.032174174 0.38593423 0.23852047 -0.14741376
0.039999999 0.047411676 0.03199276 0.38593423 0.23852047 -0.14741376
0.039999999 0.048184831 0.031811818 0.38593423 0.23852047 -0.14741376
0.039999999 0.04895651 0.031631354 0.38593423 0.23852047 -0.14741376
0.039999999 0.049726725 0.031451363 0.38593423 0.23852047 -0.14741376
0.039999999 0.050495487 0.031271845 0.38593423 0.23852047 -0.14741376
0.039999999 0.0512628 0.031092793 0.38593423 0.23852047 -0.14741376
0.039999999 0.052028671 0.030914206 0.38593423 0.23852047 -0.14741376
0.039999999 0.052793115 0.030736085 0.38593423 0.23852047 -0.14741376
0.039999999 0.053556133 0.030558424 0.38593423 0.23852047 -0.14741376
0.039999999 0.054317735 0.030381223 0.38593423 0.23852047 -0.14741376
0.039999999 0.055077933 0.030204481 0.38593423 0.23852047 -0.14741376
0.039999999 0.05583673 0.03002819 0.38593423 0.23852047 -0.14741376
0.039999999 0.056594133 0.029852355 0.38593423 0.23852047 -0.14741376
0.039999999 0.057350155 0.02967697 0.38593423 0.23852047 -0.14741376
0.039999999 0.058104798 0.029502034 0.38593423 0.23852047 -0.14741376
0.039999999 0.058858074 0.029327545 0.38593423 0.23852047 -0.14741376
0.039999999 0.059609991 0.0291535 0.38593423 0.23852047 -0.14741376
0.039999999 0.060360551 0.028979896 0.38593423 0.23852047 -0.14741376
0.039999999 0.061109766 0.028806733 0.38593423 0.23852047 -0.14741376
0.039999999 0.061857644 0.028634006 0.38593423 0.23852047 -0.14741376
0.039999999 0.062604189 0.028461717 0.38593423 0.23852047 -0.14741376
0.039999999 0.063349411 0.028289862 0.38593423 0.23852047 -0.14741376
0.039999999 0.064093322 0.028118439 0.38593423 0.23852047 -0.14741376
0.039999999 0.064835921 0.027947444 0.38593423 0.23852047 -0.14741376
0.039999999 0.065577216 0.02777688 0.38593423 0.23852047 -0.14741376
0.039999999 0.066317216 0.027606739 0.38593423 0.23852047 -0.14741376
0.039999999 0.067055933 0.027437022 0.38593423 0.23852047 -0.14741376
0.039999999 0.067793369 0.027267728 0.38593423 0.23852047 -0.14741376
0.039999999 0.068529531 0.027098853 0.38593423 0.23852047 -0.14741376
0.039999999 0.069264427 0.026930397 0.38593423 0.23852047 -0.14741376
0.039999999 0.069998071 0.026762355 0.38593423 0.23852047 -0.14741376
0.039999999 0.070730455 0.026594728 0.38593423 0.23852047 -0.14741376
0.039999999 0.071461603 0.026427515 0.38593423 0.23852047 -0.14741376
0.039999999 0.072191507 0.026260709 0.38593423 0.23852047 -0.14741376
0.039999999 0.072920188 0.026094312 0.38593423 0.23852047 -0.14741376
0.039999999 0.073647641 0.025928322 0.38593423 0.23852047 -0.14741376
0.039999999 0.074373879 0.025762737 0.38593423 0.23852047 -0.14741376
0.039999999 0.075098902 0.025597554 0.38593423 0.23852047 -0.14741376
0.039999999 0.075822726 0.025432771 0.38593423 0.23852047 -0.14741376
0.039999999 0.07654535 0.025268387 0.38593423 0.23852047 -0.14741376
0.039999999 0.07726679 0.0251044 0.38593423 0.23852047 -0.14741376
0.039999999 0.077987045 0.024940807 0.38593423 0.23852047 -0.14741376
0.039999999 0.078706123 0.02477761 0.38593423 0.23852047 -0.14741376
0.039999999 0.079424039 0.024614803 0.38593423 0.23852047 -0.14741376
0.039692499 0.079999998 0.024605157 0.38593423 0.23852047 -0.14741376
0.038121011 0.079999998 0.025222991 0.38593423 0.23852047 -0.14741376
0.036537752 0.079999998 0.025845578 0.38593423 0.23852047 -0.14741376
0.034942582 0.079999998 0.026472978 0.38593423 0.23852047 -0.14741376
0.033335358 0.079999998 0.027105246 0.38593423 0.23852047 -0.14741376
0.031715937 0.079999998 0.027742442 0.38593423 0.23852047 -0.14741376
0.030084163 0.079999998 0.028384626 0.38593423 0.23852047 -0.14741376
0.028439892 0.079999998 0.029031858 0.38593423 0.23852047 -0.14741376
0.026782969 0.079999998 0.029684201 0.38593423 0.23852047 -0.14741376
0.02511324 0.079999998 0.030341715 0.38593423 0.23852047 -0.14741376
0.023430547 0.079999998 0.031004466 0.38593423 0.23852047 -0.14741376
0.021734728 0.079999998 0.031672519 0.38593423 0.23852047 -0.14741376
0.02002562 0.079999998 0.032345936 0.38593423 0.23852047 -0.14741376
0.018303059 0.079999998 0.033024788 0.38593423 0.23852047 -0.14741376
0.016566874 0.079999998 0.033709142 0.38593423 0.23852047 -0.14741376
0.014816897 0.079999998 0.034399066 0.38593423 0.23852047 -0.14741376
0.013052951 0.079999998 0.035094634 0.38593423 0.23852047 -0.14741376
0.011274858 0.079999998 0.035795912 0.38593423 0.23852047 -0.14741376
0.0094824415 0.079999998 0.036502976 0.38593423 0.23852047 -0.14741376
0.0076755146 0.079999998 0.037215896 0.38593423 0.23852047 -0.14741376
0.0058538923 0.079999998 0.037934754 0.38593423 0.23852047 -0.14741376
0.0040173852 0.079999998 0.038659621 0.38593423 0.23852047 -0.14741376
0.0021658004 0.079999998 0.039390579 0.38593423 0.23852047 -0.14741376
0.039999999 0.010960982 0.039881106 0.38593423 0.23852047 -0.14741376
0.039999999 0.011809231 0.039677151 0.38593423 0.23852047 -0.14741376
0.039999999 0.012655585 0.039473783 0.38593423 0.23852047 -0.14741376
0.039999999 0.013500056 0.039271004 0.38593423 0.23852047 -0.14741376
0.039999999 0.014342654 0.039068807 0.38593423 0.23852047 -0.14741376
0.039999999 0.01518339 0.038867194 0.38593423 0.23852047 -0.14741376
0.039999999 0.016022274 0.038666159 0.38593423 0.23852047 -0.14741376
0.039999999 0.016859317 0.038465697 0.38593423 0.23852047 -0.14741376
0.039999999 0.017694529 0.038265809 0.38593423 0.23852047 -0.14741376
0.039999999 0.018527921 0.038066491 0.38593423 0.23852047 -0.14741376
0.039999999 0.019359503 0.03786774 0.38593423 0.23852047 -0.14741376
0.039999999 0.020189283 0.037669554 0.38593423 0.23852047 -0.14741376
0.039999999 0.021017276 0.037471928 0.38593423 0.23852047 -0.14741376
0.039999999 0.021843487 0.037274856 0.38593423 0.23852047 -0.14741376
0.039999999 0.02266793 0.037078343 0.38593423 0.23852047 -0.14741376
0.039999999 0.023490613 0.036882382 0.38593423 0.23852047 -0.14741376
0.039999999 0.024311546 0.036686972 0.38593423 0.23852047 -0.14741376
0.039999999 0.025130739 0.036492106 0.38593423 0.23852047 -0.14741376
0.039999999 0.0259482 0.036297787 0.38593423 0.23852047 -0.14741376
0.039999999 0.026763944 0.036104009 0.38593423 0.23852047 -0.14741376
0.039999999 0.027577974 0.035910767 0.38593423 0.23852047 -0.14741376
0.039999999 0.028390305 0.035718061 0.38593423 0.23852047 -0.14741376
0.039999999 0.029200943 0.035525892 0.38593423 0.23852047 -0.14741376
0.039999999 0.030009899 0.035334252 0.38593423 0.23852047 -0.14741376
0.039999999 0.030817183 0.035143137 0.38593423 0.23852047 -0.14741376
0.039999999 0.031622801 0.034952551 0.38593423 0.23852047 -0.14741376
0.039999999 0.032426767 0.034762487 0.38593423 0.23852047 -0.14741376
0.039999999 0.03322909 0.034572944 0.38593423 0.23852047 -0.14741376
0.039999999 0.034029774 0.034383915 0.38593423 0.23852047 -0.14741376
0.039999999 0.034828834 0.034195404 0.38593423 0.23852047 -0.14741376
0.039999999 0.035626277 0.034007404 0.38593423 0.23852047 -0.14741376
0.039999999 0.036422111 0.033819918 0.38593423 0.23852047 -0.14741376
0.039999999 0.037216343 0.033632934 0.38593423 0.23852047 -0.14741376
0.039999999 0.038008988 0.033446457 0.38593423 0.23852047 -0.14741376
0.039999999 0.03880005 0.033260483 0.38593423 0.23852047 -0.14741376
0.039999999 0.039589539 0.033075009 0.38593423 0.23852047 -0.14741376
0.039999999 0.040377468 0.032890033 0.38593423 0.23852047 -0.14741376
0.039999999 0.041163839 0.032705553 0.38593423 0.23852047 -0.14741376
0.039999999 0.041948661 0.032521565 0.38593423 0.23852047 -0.14741376
0.039999999 0.042731948 0.032338064 0.38593423 0.23852047 -0.14741376
0.039999999 0.043513708 0.032155052 0.38593423 0.23852047 -0.14741376
0.039999999 0.044293944 0.031972528 0.38593423 0.23852047 -0.14741376
0.039999999 0.045072671 0.031790487 0.38593423 0.23852047 -0.14741376
0.039999999 0.04584989 0.031608924 0.38593423 0.23852047 -0.14741376
0.039999999 0.046625618 0.031427842 0.38593423 0.23852047 -0.14741376
0.039999999 0.047399856 0.031247236 0.38593423 0.23852047 -0.14741376
0.039999999 0.048172615 0.031067101 0.38593423 0.23852047 -0.14741376
0.039999999 0.048943907 0.03088744 0.38593423 0.23852047 -0.14741376
0.039999999 0.049713735 0.030708248 0.38593423 0.23852047 -0.14741376
0.039999999 0.050482109 0.030529523 0.38593423 0.23852047 -0.14741376
0.039999999 0.051249035 0.030351263 0.38593423 0.23852047 -0.14741376
0.039999999 0.052014526 0.030173466 0.38593423 0.23852047 -0.14741376
0.039999999 0.052778587 0.029996127 0.38593423 0.23852047 -0.14741376
0.039999999 0.053541224 0.029819248 0.38593423 0.23852047 -0.14741376
0.039999999 0.054302447 0.029642824 0.38593423 0.23852047 -0.14741376
0.039999999 0.055062264 0.029466854 0.38593423 0.23852047 -0.14741376
0.039999999 0.055820685 0.029291335 0.38593423 0.23852047 -0.14741376
0.039999999 0.056577716 0.029116265 0.38593423 0.23852047 -0.14741376
0.039999999 0.057333361 0.028941644 0.38593423 0.23852047 -0.14741376
0.039999999 0.058087632 0.028767467 0.38593423 0.23852047 -0.14741376
0.039999999 0.058840536 0.028593734 0.38593423 0.23852047 -0.14741376
0.039999999 0.059592083 0.028420439 0.38593423 0.23852047 -0.14741376
0.039999999 0.060342275 0.028247586 0.38593423 0.23852047 -0.14741376
0.039999999 0.061091121 0.028075168 0.38593423 0.23852047 -0.14741376
0.039999999 0.061838634 0.027903184 0.38593423 0.23852047 -0.14741376
0.039999999 0.062584817 0.027731635 0.38593423 0.23852047 -0.14741376
0.039999999 0.063329674 0.027560513 0.38593423 0.23852047 -0.14741376
0.039999999 0.06407322 0.027389823 0.38593423 0.23852047 -0.14741376
0.039999999 0.064815454 0.027219558 0.38593423 0.23852047 -0.14741376
0.039999999 0.065556392 0.027049717 0.38593423 0.23852047 -0.14741376
0.039999999 0.066296034 0.026880298 0.38593423 0.23852047 -0.14741376
0.039999999 0.067034394 0.026711302 0.38593423 0.23852047 -0.14741376
0.039999999 0.067771472 0.026542721 0.38593423 0.23852047 -0.14741376
0.039999999 0.068507284 0.02637456 0.38593423 0.23852047 -0.14741376
0.039999999 0.069241829 0.02620681 0.38593423 0.23852047 -0.14741376
0.039999999 0.069975115 0.026039476 0.38593423 0.23852047 -0.14741376
0.039999999 0.07070715 0.025872551 0.38593423 0.23852047 -0.14741376
0.039999999 0.071437947 0.025706034 0.38593423 0.23852047 -0.14741376
0.039999999 0.072167501 0.025539925 0.38593423 0.23852047 -0.14741376
0.039999999 0.072895832 0.025374221 0.38593423 0.23852047 -0.14741376
0.039999999 0.073622935 0.02520892 0.38593423 0.23852047 -0.14741376
0.039999999 0.07434883 0.02504402 0.38593423 0.23852047 -0.14741376
0.039999999 0.07507351 0.024879519 0.38593423 0.23852047 -0.14741376
0.039999999 0.075796992 0.024715416 0.38593423 0.23852047 -0.14741376
0.039999999 0.076519273 0.024551708 0.38593423 0.23852047 -0.14741376
0.039999999 0.07724037 0.024388395 0.38593423 0.23852047 -0.14741376
0.039999999 0.07796029 0.024225473 0.38593423 0.23852047 -0.14741376
0.039999999 0.078679025 0.024062943 0.38593423 0.23852047 -0.14741376
0.039999999 0.079396598 0.023900799 0.38593423 0.23852047 -0.14741376
0.039753202 0.079999998 0.023861147 0.38593423 0.23852047 -0.14741376
0.038183007 0.079999998 0.024475791 0.38593423 0.23852047 -0.14741376
0.036601059 0.079999998 0.025095159 0.38593423 0.23852047 -0.14741376
0.03500722 0.079999998 0.025719311 0.38593423 0.23852047 -0.14741376
0.033401344 0.079999998 0.0263483 0.38593423 0.23852047 -0.14741376
0.031783286 0.079999998 0.026982188 0.38593423 0.23852047 -0.14741376
0.030152898 0.079999998 0.027621035 0.38593423 0.23852047 -0.14741376
0.028510032 0.079999998 0.028264895 0.38593423 0.23852047 -0.14741376
0.026854534 0.079999998 0.028913837 0.38593423 0.23852047 -0.14741376
0.02518625 0.079999998 0.029567918 0.38593423 0.23852047 -0.14741376
0.023505021 0.079999998 0.030227203 0.38593423 0.23852047 -0.14741376
0.021810688 0.079999998 0.030891757 0.38593423 0.23852047 -0.14741376
0.020103088 0.079999998 0.031561643 0.38593423 0.23852047 -0.14741376
0.018382056 0.079999998 0.03223693 0.38593423 0.23852047 -0.14741376
0.016647423 0.079999998 0.032917686 0.38593423 0.23852047 -0.14741376
0.014899017 0.079999998 0.033603977 0.38593423 0.23852047 -0.14741376
0.013136667 0.079999998 0.034295872 0.38593423 0.23852047 -0.14741376
0.011360195 0.079999998 0.034993447 0.38593423 0.23852047 -0.14741376
0.0095694195 0.079999998 0.035696771 0.38593423 0.23852047 -0.14741376
0.0077641602 0.079999998 0.036405917 0.38593423 0.23852047 -0.14741376
0.0059442297 0.079999998 0.037120957 0.38593423 0.23852047 -0.14741376
0.004109439 0.079999998 0.037841976 0.38593423 0.23852047 -0.14741376
0.0022595956 0.079999998 0.038569041 0.38593423 0.23852047 -0.14741376
0.00039450408 0.079999998 0.039302237 0.38593423 0.23852047 -0.14741376
0.039999999 0.0075582373 0.039914135 0.38593423 0.23852047 -0.14741376
0.039999999 0.008413692 0.039708793 0.38593423 0.23852047 -0.14741376
0.039999999 0.0092672119 0.039504047 0.38593423 0.23852047 -0.14741376
0.039999999 0.010118807 0.039299898 0.38593423 0.23852047 -0.14741376
0.039999999 0.010968488 0.039096341 0.38593423 0.23852047 -0.14741376
0.039999999 0.011816265 0.038893372 0.38593423 0.23852047 -0.14741376
0.039999999 0.012662151 0.038690988 0.38593423 0.23852047 -0.14741376
0.039999999 0.013506155 0.038489189 0.38593423 0.23852047 -0.14741376
0.039999999 0.01434829 0.038287967 0.38593423 0.23852047 -0.14741376
0.039999999 0.015188564 0.038087323 0.38593423 0.23852047 -0.14741376
0.039999999 0.016026987 0.037887253 0.38593423 0.23852047 -0.14741376
0.039999999 0.016863571 0.037687756 0.38593423 0.23852047 -0.14741376
0.039999999 0.017698329 0.037488826 0.38593423 0.23852047 -0.14741376
0.039999999 0.018531265 0.037290458 0.38593423 0.23852047 -0.14741376
0.039999999 0.019362396 0.037092656 0.38593423 0.23852047 -0.14741376
0.039999999 0.020191727 0.036895413 0.38593423 0.23852047 -0.14741376
0.039999999 0.021019271 0.036698725 0.38593423 0.23852047 -0.14741376
0.039999999 0.021845035 0.036502592 0.38593423 0.23852047 -0.14741376
0.039999999 0.022669034 0.036307007 0.38593423 0.23852047 -0.14741376
0.039999999 0.023491273 0.036111973 0.38593423 0.23852047 -0.14741376
0.039999999 0.024311766 0.035917487 0.38593423 0.23852047 -0.14741376
0.039999999 0.02513052 0.035723541 0.38593423 0.23852047 -0.14741376
0.039999999 0.025947545 0.035530131 0.38593423 0.23852047 -0.14741376
0.039999999 0.026762852 0.035337262 0.38593423 0.23852047 -0.14741376
0.039999999 0.02757645 0.035144929 0.38593423 0.23852047 -0.14741376
0.039999999 0.028388347 0.034953125 0.38593423 0.23852047 -0.14741376
0.039999999 0.029198557 0.034761854 0.38593423 0.23852047 -0.14741376
0.039999999 0.030007085 0.034571107 0.38593423 0.23852047 -0.14741376
0.039999999 0.030813942 0.034380883 0.38593423 0.23852047 -0.14741376
0.039999999 0.031619139 0.03419118 0.38593423 0.23852047 -0.14741376
0.039999999 0.03242268 0.034001999 0.38593423 0.23852047 -0.14741376
0.039999999 0.033224583 0.033813331 0.38593423 0.23852047 -0.14741376
0.039999999 0.03402485 0.033625178 0.38593423 0.23852047 -0.14741376
0.039999999 0.034823488 0.033437535 0.38593423 0.23852047 -0.14741376
0.039999999 0.035620514 0.033250403 0.38593423 0.23852047 -0.14741376
0.039999999 0.036415935 0.033063773 0.38593423 0.23852047 -0.14741376
0.039999999 0.037209757 0.03287765 0.38593423 0.23852047 -0.14741376
0.039999999 0.038001992 0.032692026 0.38593423 0.23852047 -0.14741376
0.039999999 0.038792644 0.032506902 0.38593423 0.23852047 -0.14741376
0.039999999 0.039581727 0.032322276 0.38593423 0.23852047 -0.14741376
0.039999999 0.040369246 0.032138139 0.38593423 0.23852047 -0.14741376
0.039999999 0.041155212 0.031954497 0.38593423 0.23852047 -0.14741376
0.039999999 0.041939635 0.031771343 0.38593423 0.23852047 -0.14741376
0.039999999 0.042722519 0.031588674 0.38593423 0.23852047 -0.14741376
0.039999999 0.043503877 0.031406488 0.38593423 0.23852047 -0.14741376
0.039999999 0.044283718 0.031224787 0.38593423 0.23852047 -0.14741376
0.039999999 0.045062046 0.031043565 0.38593423 0.23852047 -0.14741376
0.039999999 0.045838874 0.030862818 0.38593423 0.23852047 -0.14741376
0.039999999 0.046614204 0.030682547 0.38593423 0.23852047 -0.14741376
0.039999999 0.047388051 0.030502748 0.38593423 0.23852047 -0.14741376
0.039999999 0.048160423 0.03032342 0.38593423 0.23852047 -0.14741376
0.039999999 0.048931323 0.030144559 0.38593423 0.23852047 -0.14741376
0.039999999 0.049700763 0.029966163 0.38593423 0.23852047 -0.14741376
0.039999999 0.05046875 0.029788231 0.38593423 0.23852047 -0.14741376
0.039999999 0.051235292 0.029610761 0.38593423 0.23852047 -0.14741376
0.039999999 0.0520004 0.029433748 0.38593423 0.23852047 -0.14741376
0.039999999 0.052764077 0.029257193 0.38593423 0.23852047 -0.14741376
0.039999999 0.053526334 0.029081093 0.38593423 0.23852047 -0.14741376
0.039999999 0.05428718 0.028905444 0.38593423 0.23852047 -0.14741376
0.039999999 0.055046622 0.028730245 0.38593423 0.23852047 -0.14741376
0.039999999 0.055804662 0.028555496 0.38593423 0.23852047 -0.14741376
0.039999999 0.056561317 0.028381191 0.38593423 0.23852047 -0.14741376
0.039999999 0.05731659 0.02820733 0.38593423 0.23852047 -0.14741376
0.039999999 0.058070492 0.02803391 0.38593423 0.23852047 -0.14741376
0.039999999 0.058823023 0.02786093 0.38593423 0.23852047 -0.14741376
0.039999999 0.059574198 0.027688388 0.38593423 0.23852047 -0.14741376
0.039999999 0.060324024 0.027516281 0.38593423 0.23852047 -0.14741376
0.039999999 0.061072502 0.027344609 0.38593423 0.23852047 -0.14741376
0.039999999 0.06181965 0.027173365 0.38593423 0.23852047 -0.14741376
0.039999999 0.062565468 0.027002553 0.38593423 0.23852047 -0.14741376
0.039999999 0.06330996 0.026832165 0.38593423 0.23852047 -0.14741376
0.039999999 0.064053148 0.026662204 0.38593423 0.23852047 -0.14741376
0.039999999 0.064795017 0.026492666 0.38593423 0.23852047 -0.14741376
0.039999999 0.065535598 0.026323549 0.38593423 0.23852047 -0.14741376
0.039999999 0.066274881 0.026154852 0.38593423 0.23852047 -0.14741376
0.039999999 0.067012884 0.025986571 0.38593423 0.23852047 -0.14741376
0.039999999 0.067749612 0.025818704 0.38593423 0.23852047 -0.14741376
0.039999999 0.068485066 0.025651252 0.38593423 0.23852047 -0.14741376
0.039999999 0.069219254 0.025484212 0.38593423 0.23852047 -0.14741376
0.039999999 0.06995219 0.02531758 0.38593423 0.23852047 -0.14741376
0.039999999 0.070683874 0.025151355 0.38593423 0.23852047 -0.14741376
0.039999999 0.071414322 0.024985537 0.38593423 0.23852047 -0.14741376
0.039999999 0.072143532 0.024820121 0.38593423 0.23852047 -0.14741376
0.039999999 0.072871514 0.024655107 0.38593423 0.23852047 -0.14741376
0.039999999 0.073598273 0.024490494 0.38593423 0.23852047 -0.14741376
0.039999999 0.074323818 0.02432628 0.38593423 0.23852047 -0.14741376
0.039999999 0.075048156 0.02416246 0.38593423 0.23852047 -0.14741376
0.039999999 0.075771295 0.023999035 0.38593423 0.23852047 -0.14741376
0.039999999 0.076493233 0.023836002 0.38593423 0.23852047 -0.14741376
0.039999999 0.077213988 0.023673361 0.38593423 0.23852047 -0.14741376
0.039999999 0.077933565 0.023511108 0.38593423 0.23852047 -0.14741376
0.039999999 0.078651965 0.023349242 0.38593423 0.23852047 -0.14741376
0.039999999 0.079369202 0.023187762 0.38593423 0.23852047 -0.14741376
0.039813802 0.079999998 0.023118403 0.38593423 0.23852047 -0.14741376
0.038244899 0.079999998 0.023729866 0.38593423 0.23852047 -0.14741376
0.036664259 0.079999998 0.024346026 0.38593423 0.23852047 -0.14741376
0.035071746 0.079999998 0.024966937 0.38593423 0.23852047 -0.14741376
0.033467215 0.079999998 0.025592659 0.38593423 0.23852047 -0.14741376
0.031850521 0.079999998 0.026223248 0.38593423 0.23852047 -0.14741376
0.030221514 0.079999998 0.026858764 0.38593423 0.23852047 -0.14741376
0.028580049 0.079999998 0.027499266 0.38593423 0.23852047 -0.14741376
0.026925974 0.079999998 0.028144814 0.38593423 0.23852047 -0.14741376
0.025259132 0.079999998 0.028795473 0.38593423 0.23852047 -0.14741376
0.023579365 0.079999998 0.029451303 0.38593423 0.23852047 -0.14741376
0.021886514 0.079999998 0.030112369 0.38593423 0.23852047 -0.14741376
0.020180419 0.079999998 0.030778734 0.38593423 0.23852047 -0.14741376
0.018460911 0.079999998 0.031450469 0.38593423 0.23852047 -0.14741376
0.016727826 0.079999998 0.032127634 0.38593423 0.23852047 -0.14741376
0.014980991 0.079999998 0.032810301 0.38593423 0.23852047 -0.14741376
0.013220234 0.079999998 0.033498541 0.38593423 0.23852047 -0.14741376
0.011445377 0.079999998 0.034192421 0.38593423 0.23852047 -0.14741376
0.0096562421 0.079999998 0.034892015 0.38593423 0.23852047 -0.14741376
0.0078526456 0.079999998 0.035597395 0.38593423 0.23852047 -0.14741376
0.0060344031 0.079999998 0.036308635 0.38593423 0.23852047 -0.14741376
0.0042013251 0.079999998 0.037025809 0.38593423 0.23852047 -0.14741376
0.00235322 0.079999998 0.037748996 0.38593423 0.23852047 -0.14741376
0.00048989244 0.079999998 0.038478278 0.38593423 0.23852047 -0.14741376
0.039999999 0.0041281688 0.039949853 0.38593423 0.23852047 -0.14741376
0.039999999 0.0049909907 0.039743111 0.38593423 0.23852047 -0.14741376
0.039999999 0.0058518341 0.039536975 0.38593423 0.23852047 -0.14741376
0.039999999 0.0067107109 0.03933144 0.38593423 0.23852047 -0.14741376
0.039999999 0.007567632 0.039126504 0.38593423 0.23852047 -0.14741376
0.039999999 0.0084226085 0.038922165 0.38593423 0.23852047 -0.14741376
0.039999999 0.0092756515 0.038718421 0.38593423 0.23852047 -0.14741376
0.039999999 0.010126772 0.038515266 0.38593423 0.23852047 -0.14741376
0.039999999 0.010975981 0.0383127 0.38593423 0.23852047 -0.14741376
0.039999999 0.01182329 0.038110714 0.38593423 0.23852047 -0.14741376
0.039999999 0.012668707 0.037909314 0.38593423 0.23852047 -0.14741376
0.039999999 0.013512246 0.037708491 0.38593423 0.23852047 -0.14741376
0.039999999 0.014353917 0.037508242 0.38593423 0.23852047 -0.14741376
0.039999999 0.015193729 0.037308566 0.38593423 0.23852047 -0.14741376
0.039999999 0.016031694 0.037109461 0.38593423 0.23852047 -0.14741376
0.039999999 0.01686782 0.036910921 0.38593423 0.23852047 -0.14741376
0.039999999 0.017702121 0.036712945 0.38593423 0.23852047 -0.14741376
0.039999999 0.018534604 0.03651553 0.38593423 0.23852047 -0.14741376
0.039999999 0.019365283 0.036318675 0.38593423 0.23852047 -0.14741376
0.039999999 0.020194165 0.036122371 0.38593423 0.23852047 -0.14741376
0.039999999 0.02102126 0.035926621 0.38593423 0.23852047 -0.14741376
0.039999999 0.021846581 0.03573142 0.38593423 0.23852047 -0.14741376
0.039999999 0.022670135 0.035536766 0.38593423 0.23852047 -0.14741376
0.039999999 0.023491932 0.035342656 0.38593423 0.23852047 -0.14741376
0.039999999 0.024311984 0.03514909 0.38593423 0.23852047 -0.14741376
0.039999999 0.0251303 0.034956057 0.38593423 0.23852047 -0.14741376
0.039999999 0.025946889 0.034763563 0.38593423 0.23852047 -0.14741376
0.039999999 0.026761763 0.034571603 0.38593423 0.23852047 -0.14741376
0.039999999 0.027574927 0.034380171 0.38593423 0.23852047 -0.14741376
0.039999999 0.028386395 0.034189269 0.38593423 0.23852047 -0.14741376
0.039999999 0.029196175 0.033998892 0.38593423 0.23852047 -0.14741376
0.039999999 0.030004276 0.033809036 0.38593423 0.23852047 -0.14741376
0.039999999 0.030810706 0.033619698 0.38593423 0.23852047 -0.14741376
0.039999999 0.031615477 0.033430882 0.38593423 0.23852047 -0.14741376
0.039999999 0.032418601 0.033242576 0.38593423 0.23852047 -0.14741376
0.039999999 0.033220079 0.033054788 0.38593423 0.23852047 -0.14741376
0.039999999 0.034019928 0.032867502 0.38593423 0.23852047 -0.14741376
0.039999999 0.034818154 0.032680728 0.38593423 0.23852047 -0.14741376
0.039999999 0.035614762 0.032494459 0.38593423 0.23852047 -0.14741376
0.039999999 0.036409769 0.03230869 0.38593423 0.23852047 -0.14741376
0.039999999 0.037203178 0.03212342 0.38593423 0.23852047 -0.14741376
0.039999999 0.037995003 0.03193865 0.38593423 0.23852047 -0.14741376
0.039999999 0.038785245 0.031754375 0.38593423 0.23852047 -0.14741376
0.039999999 0.039573923 0.031570587 0.38593423 0.23852047 -0.14741376
0.039999999 0.040361036 0.031387296 0.38593423 0.23852047 -0.14741376
0.039999999 0.041146599 0.031204486 0.38593423 0.23852047 -0.14741376
0.039999999 0.04193062 0.031022165 0.38593423 0.23852047 -0.14741376
0.039999999 0.042713106 0.030840324 0.38593423 0.23852047 -0.14741376
0.039999999 0.043494064 0.030658966 0.38593423 0.23852047 -0.14741376
0.039999999 0.044273503 0.030478084 0.38593423 0.23852047 -0.14741376
0.039999999 0.045051437 0.030297678 0.38593423 0.23852047 -0.14741376
0.039999999 0.045827869 0.030117746 0.38593423 0.23852047 -0.14741376
0.039999999 0.046602808 0.029938284 0.38593423 0.23852047 -0.14741376
0.039999999 0.047376264 0.029759292 0.38593423 0.23852047 -0.14741376
0.039999999 0.048148245 0.029580764 0.38593423 0.23852047 -0.14741376
0.039999999 0.048918754 0.029402703 0.38593423 0.23852047 -0.14741376
0.039999999 0.049687807 0.029225104 0.38593423 0.23852047 -0.14741376
0.039999999 0.05045541 0.029047962 0.38593423 0.23852047 -0.14741376
0.039999999 0.051221568 0.028871279 0.38593423 0.23852047 -0.14741376
0.039999999 0.051986292 0.028695052 0.38593423 0.23852047 -0.14741376
0.039999999 0.052749589 0.028519277 0.38593423 0.23852047 -0.14741376
0.039999999 0.053511467 0.028343953 0.38593423 0.23852047 -0.14741376
0.039999999 0.054271933 0.028169079 0.38593423 0.23852047 -0.14741376
0.039999999 0.055030998 0.027994649 0.38593423 0.23852047 -0.14741376
0.039999999 0.055788662 0.027820667 0.38593423 0.23852047 -0.14741376
0.039999999 0.056544945 0.027647125 0.38593423 0.23852047 -0.14741376
0.039999999 0.057299845 0.027474023 0.38593423 0.23852047 -0.14741376
0.039999999 0.058053371 0.02730136 0.38593423 0.23852047 -0.14741376
0.039999999 0.058805533 0.027129132 0.38593423 0.23852047 -0.14741376
0.039999999 0.059556339 0.026957341 0.38593423 0.23852047 -0.14741376
0.039999999 0.060305797 0.026785979 0.38593423 0.23852047 -0.14741376
0.039999999 0.061053909 0.026615046 0.38593423 0.23852047 -0.14741376
0.039999999 0.061800692 0.026444543 0.38593423 0.23852047 -0.14741376
0.039999999 0.062546141 0.026274465 0.38593423 0.23852047 -0.14741376
0.039999999 0.063290276 0.02610481 0.38593423 0.23852047 -0.14741376
0.039999999 0.064033099 0.025935577 0.38593423 0.23852047 -0.14741376
0.039999999 0.064774618 0.025766766 0.38593423 0.23852047 -0.14741376
0.039999999 0.065514833 0.02559837 0.38593423 0.23852047 -0.14741376
0.039999999 0.066253759 0.025430391 0.38593423 0.23852047 -0.14741376
0.039999999 0.066991404 0.025262825 0.38593423 0.23852047 -0.14741376
0.039999999 0.067727774 0.025095671 0.38593423 0.23852047 -0.14741376
0.039999999 0.068462871 0.024928927 0.38593423 0.23852047 -0.14741376
