# .PCD v0.7 - Point Cloud Data file format
VERSION 0.7
FIELDS x y z vp_x vp_y vp_z
SIZE 4 4 4 4 4 4
TYPE F F F F F F
COUNT 1 1 1 1 1 1
WIDTH 922
HEIGHT 1
VIEWPOINT 0 0 0 1 0 0 0
POINTS 922
DATA ascii
0.039999999 0.034050513 0.010675142 0.47704095 0 0
0.039999999 0.034741268 0.010676462 0.47704095 0 0
0.039999999 0.035432193 0.010677808 0.47704095 0 0
0.039999999 0.036123298 0.010679182 0.47704095 0 0
0.039999999 0.036814578 0.010680581 0.47704095 0 0
0.039999999 0.037506044 0.010682008 0.47704095 0 0
0.039999999 0.038197696 0.010683461 0.47704095 0 0
0.039999999 0.038889538 0.010684941 0.47704095 0 0
0.039999999 0.039581574 0.010686448 0.47704095 0 0
0.039999999 0.040273808 0.010687982 0.47704095 0 0
0.039999999 0.040966239 0.010689543 0.47704095 0 0
0.039999999 0.041658875 0.01069113 0.47704095 0 0
0.039999999 0.042351719 0.010692744 0.47704095 0 0
0.039999999 0.043044776 0.010694386 0.47704095 0 0
0.039999999 0.043738045 0.010696054 0.47704095 0 0
0.039999999 0.044431534 0.010697748 0.47704095 0 0
0.039999999 0.045125242 0.01069947 0.47704095 0 0
0.039999999 0.045819174 0.010701219 0.47704095 0 0
0.039999999 0.046513338 0.010702995 0.47704095 0 0
0.039999999 0.047207732 0.010704797 0.47704095 0 0
0.039999999 0.047902364 0.010706627 0.47704095 0 0
0.039999999 0.048597235 0.010708484 0.47704095 0 0
0.039999999 0.049292345 0.010710368 0.47704095 0 0
0.039999999 0.049987704 0.010712279 0.47704095 0 0
0.039999999 0.050683312 0.010714217 0.47704095 0 0
0.039999999 0.051379178 0.010716182 0.47704095 0 0
0.039999999 0.052075297 0.010718175 0.47704095 0 0
0.039999999 0.052771676 0.010720194 0.47704095 0 0
0.039999999 0.053468321 0.010722241 0.47704095 0 0
0.039999999 0.054165233 0.010724315 0.47704095 0 0
0.039999999 0.054862414 0.010726417 0.47704095 0 0
0.039999999 0.055559874 0.010728545 0.47704095 0 0
0.039999999 0.056257609 0.010730701 0.47704095 0 0
0.039999999 0.056955628 0.010732885 0.47704095 0 0
0.039999999 0.057653934 0.010735096 0.47704095 0 0
0.039999999 0.05835253 0.010737334 0.47704095 0 0
0.039999999 0.059051417 0.0107396 0.47704095 0 0
0.039999999 0.059750602 0.010741893 0.47704095 0 0
0.039999999 0.060450085 0.010744214 0.47704095 0 0
0.039999999 0.061149877 0.010746562 0.47704095 0 0
0.039999999 0.06184997 0.010748938 0.47704095 0 0
0.039999999 0.062550381 0.010751341 0.47704095 0 0
0.039999999 0.0632511 0.010753771 0.47704095 0 0
0.039999999 0.063952141 0.01075623 0.47704095 0 0
0.039999999 0.064653508 0.010758717 0.47704095 0 0
0.039999999 0.065355197 0.01076123 0.47704095 0 0
0.039999999 0.066057213 0.010763772 0.47704095 0 0
0.039999999 0.066759571 0.010766341 0.47704095 0 0
0.039999999 0.067462258 0.010768939 0.47704095 0 0
0.039999999 0.068165287 0.010771564 0.47704095 0 0
0.039999999 0.068868667 0.010774217 0.47704095 0 0
0.039999999 0.069572389 0.010776898 0.47704095 0 0
0.039999999 0.070276469 0.010779606 0.47704095 0 0
0.039999999 0.070980899 0.010782343 0.47704095 0 0
0.039999999 0.071685687 0.010785108 0.47704095 0 0
0.039999999 0.072390839 0.010787901 0.47704095 0 0
0.039999999 0.073096365 0.010790722 0.47704095 0 0
0.039999999 0.073802255 0.01079357 0.47704095 0 0
0.039999999 0.074508525 0.010796447 0.47704095 0 0
0.039999999 0.075215168 0.010799353 0.47704095 0 0
0.039999999 0.075922199 0.010802287 0.47704095 0 0
0.039999999 0.076629609 0.010805248 0.47704095 0 0
0.039999999 0.077337414 0.010808239 0.47704095 0 0
0.039999999 0.078045607 0.010811257 0.47704095 0 0
0.039999999 0.078754202 0.010814304 0.47704095 0 0
0.039999999 0.079463199 0.010817379 0.47704095 0 0
0.039999999 0.00034325122 0.0099560078 0.47704095 0 0
0.039999999 0.0010297553 0.009956033 0.47704095 0 0
0.039999999 0.0017162645 0.0099560814 0.47704095 0 0
0.039999999 0.0024027822 0.0099561559 0.47704095 0 0
0.039999999 0.0030893118 0.0099562537 0.47704095 0 0
0.039999999 0.0037758565 0.0099563766 0.47704095 0 0
0.039999999 0.00446242 0.0099565238 0.47704095 0 0
0.039999999 0.0051490054 0.0099566961 0.47704095 0 0
0.039999999 0.0058356165 0.0099568926 0.47704095 0 0
0.039999999 0.0065222559 0.0099571133 0.47704095 0 0
0.039999999 0.007208928 0.0099573592 0.47704095 0 0
0.039999999 0.0078956354 0.0099576293 0.47704095 0 0
0.039999999 0.0085823815 0.0099579245 0.47704095 0 0
0.039999999 0.0092691705 0.0099582439 0.47704095 0 0
0.039999999 0.009956005 0.0099585876 0.47704095 0 0
0.039999999 0.010642889 0.0099589564 0.47704095 0 0
0.039999999 0.011329825 0.0099593503 0.47704095 0 0
0.039999999 0.012016817 0.0099597676 0.47704095 0 0
0.039999999 0.012703869 0.00996021 0.47704095 0 0
0.039999999 0.013390983 0.0099606775 0.47704095 0 0
0.039999999 0.014078164 0.0099611692 0.47704095 0 0
0.039999999 0.014765413 0.0099616852 0.47704095 0 0
0.039999999 0.015452736 0.0099622263 0.47704095 0 0
0.039999999 0.016140135 0.0099627916 0.47704095 0 0
0.039999999 0.016827615 0.009963382 0.47704095 0 0
0.039999999 0.017515177 0.0099639967 0.47704095 0 0
0.039999999 0.018202826 0.0099646365 0.47704095 0 0
0.039999999 0.018890565 0.0099653006 0.47704095 0 0
0.039999999 0.019578397 0.0099659897 0.47704095 0 0
0.039999999 0.020266326 0.0099667041 0.47704095 0 0
0.039999999 0.020954354 0.0099674417 0.47704095 0 0
0.039999999 0.021642487 0.0099682054 0.47704095 0 0
0.039999999 0.022330727 0.0099689923 0.47704095 0 0
0.039999999 0.023019077 0.0099698054 0.47704095 0 0
0.039999999 0.023707543 0.0099706426 0.47704095 0 0
0.039999999 0.024396123 0.0099715041 0.47704095 0 0
0.039999999 0.025084825 0.0099723907 0.47704095 0 0
0.039999999 0.025773652 0.0099733025 0.47704095 0 0
0.039999999 0.026462607 0.0099742385 0.47704095 0 0
0.039999999 0.027151693 0.0099751996 0.47704095 0 0
0.039999999 0.027840912 0.0099761859 0.47704095 0 0
0.039999999 0.02853027 0.0099771963 0.47704095 0 0
0.039999999 0.029219769 0.009978232 0.47704095 0 0
0.039999999 0.029909413 0.0099792918 0.47704095 0 0
0.039999999 0.030599205 0.0099803777 0.47704095 0 0
0.039999999 0.031289149 0.0099814879 0.47704095 0 0
0.039999999 0.031979248 0.0099826222 0.47704095 0 0
0.039999999 0.032669507 0.0099837827 0.47704095 0 0
0.039999999 0.033359926 0.0099849673 0.47704095 0 0
0.039999999 0.034050513 0.0099861771 0.47704095 0 0
0.039999999 0.034741268 0.0099874111 0.47704095 0 0
0.039999999 0.035432193 0.0099886712 0.47704095 0 0
0.039999999 0.036123298 0.0099899555 0.47704095 0 0
0.039999999 0.036814578 0.0099912649 0.47704095 0 0
0.039999999 0.037506044 0.0099925995 0.47704095 0 0
0.039999999 0.038197696 0.0099939592 0.47704095 0 0
0.039999999 0.038889538 0.0099953432 0.47704095 0 0
0.039999999 0.039581574 0.0099967532 0.47704095 0 0
0.039999999 0.040273808 0.0099981884 0.47704095 0 0
0.039999999 0.040966239 0.0099996477 0.47704095 0 0
0.039999999 0.041658875 0.010001132 0.47704095 0 0
0.039999999 0.042351719 0.010002643 0.47704095 0 0
0.039999999 0.043044776 0.010004178 0.47704095 0 0
0.039999999 0.043738045 0.010005739 0.47704095 0 0
0.039999999 0.044431534 0.010007324 0.47704095 0 0
0.039999999 0.045125242 0.010008934 0.47704095 0 0
0.039999999 0.045819174 0.01001057 0.47704095 0 0
0.039999999 0.046513338 0.010012232 0.47704095 0 0
0.039999999 0.047207732 0.010013918 0.47704095 0 0
0.039999999 0.047902364 0.010015629 0.47704095 0 0
0.039999999 0.048597235 0.010017367 0.47704095 0 0
0.039999999 0.049292345 0.010019129 0.47704095 0 0
0.039999999 0.049987704 0.010020916 0.47704095 0 0
0.039999999 0.050683312 0.01002273 0.47704095 0 0
0.039999999 0.051379178 0.010024568 0.47704095 0 0
0.039999999 0.052075297 0.010026433 0.47704095 0 0
0.039999999 0.052771676 0.010028321 0.47704095 0 0
0.039999999 0.053468321 0.010030236 0.47704095 0 0
0.039999999 0.054165233 0.010032177 0.47704095 0 0
0.039999999 0.054862414 0.010034143 0.47704095 0 0
0.039999999 0.055559874 0.010036134 0.47704095 0 0
0.039999999 0.056257609 0.01003815 0.47704095 0 0
0.039999999 0.056955628 0.010040193 0.47704095 0 0
0.039999999 0.057653934 0.010042261 0.47704095 0 0
0.039999999 0.05835253 0.010044355 0.47704095 0 0
0.039999999 0.059051417 0.010046475 0.47704095 0 0
0.039999999 0.059750602 0.010048619 0.47704095 0 0
0.039999999 0.060450085 0.01005079 0.47704095 0 0
0.039999999 0.061149877 0.010052987 0.47704095 0 0
0.039999999 0.06184997 0.01005521 0.47704095 0 0
0.039999999 0.062550381 0.010057458 0.47704095 0 0
0.039999999 0.0632511 0.010059732 0.47704095 0 0
0.039999999 0.063952141 0.010062031 0.47704095 0 0
0.039999999 0.064653508 0.010064357 0.47704095 0 0
0.039999999 0.065355197 0.010066709 0.47704095 0 0
0.039999999 0.066057213 0.010069086 0.47704095 0 0
0.039999999 0.066759571 0.01007149 0.47704095 0 0
0.039999999 0.067462258 0.01007392 0.47704095 0 0
0.039999999 0.068165287 0.010076376 0.47704095 0 0
0.039999999 0.068868667 0.010078857 0.47704095 0 0
0.039999999 0.069572389 0.010081365 0.47704095 0 0
0.039999999 0.070276469 0.010083899 0.47704095 0 0
0.039999999 0.070980899 0.010086459 0.47704095 0 0
0.039999999 0.071685687 0.010089045 0.47704095 0 0
0.039999999 0.072390839 0.010091658 0.47704095 0 0
0.039999999 0.073096365 0.010094297 0.47704095 0 0
0.039999999 0.073802255 0.010096962 0.47704095 0 0
0.039999999 0.074508525 0.010099653 0.47704095 0 0
0.039999999 0.075215168 0.010102372 0.47704095 0 0
0.039999999 0.075922199 0.010105115 0.47704095 0 0
0.039999999 0.076629609 0.010107886 0.47704095 0 0
0.039999999 0.077337414 0.010110684 0.47704095 0 0
0.039999999 0.078045607 0.010113507 0.47704095 0 0
0.039999999 0.078754202 0.010116357 0.47704095 0 0
0.039999999 0.079463199 0.010119234 0.47704095 0 0
0.039999999 0.00034325122 0.0092691733 0.47704095 0 0
0.039999999 0.0010297553 0.0092691965 0.47704095 0 0
0.039999999 0.0017162645 0.0092692422 0.47704095 0 0
0.039999999 0.0024027822 0.0092693102 0.47704095 0 0
0.039999999 0.0030893118 0.0092694024 0.47704095 0 0
0.039999999 0.0037758565 0.009269516 0.47704095 0 0
0.039999999 0.00446242 0.0092696538 0.47704095 0 0
0.039999999 0.0051490054 0.009269814 0.47704095 0 0
0.039999999 0.0058356165 0.0092699965 0.47704095 0 0
0.039999999 0.0065222559 0.0092702024 0.47704095 0 0
0.039999999 0.007208928 0.0092704315 0.47704095 0 0
0.039999999 0.0078956354 0.0092706829 0.47704095 0 0
0.039999999 0.0085823815 0.0092709577 0.47704095 0 0
0.039999999 0.0092691705 0.0092712548 0.47704095 0 0
0.039999999 0.009956005 0.0092715751 0.47704095 0 0
0.039999999 0.010642889 0.0092719188 0.47704095 0 0
0.039999999 0.011329825 0.0092722848 0.47704095 0 0
0.039999999 0.012016817 0.0092726732 0.47704095 0 0
0.039999999 0.012703869 0.0092730857 0.47704095 0 0
0.039999999 0.013390983 0.0092735207 0.47704095 0 0
0.039999999 0.014078164 0.009273978 0.47704095 0 0
0.039999999 0.014765413 0.0092744585 0.47704095 0 0
0.039999999 0.015452736 0.0092749624 0.47704095 0 0
0.039999999 0.016140135 0.0092754895 0.47704095 0 0
0.039999999 0.016827615 0.009276039 0.47704095 0 0
0.039999999 0.017515177 0.0092766117 0.47704095 0 0
0.039999999 0.018202826 0.0092772068 0.47704095 0 0
0.039999999 0.018890565 0.0092778252 0.47704095 0 0
0.039999999 0.019578397 0.0092784669 0.47704095 0 0
0.039999999 0.020266326 0.009279131 0.47704095 0 0
0.039999999 0.020954354 0.0092798183 0.47704095 0 0
0.039999999 0.021642487 0.0092805289 0.47704095 0 0
0.039999999 0.022330727 0.0092812618 0.47704095 0 0
0.039999999 0.023019077 0.009282019 0.47704095 0 0
0.039999999 0.023707543 0.0092827985 0.47704095 0 0
0.039999999 0.024396123 0.0092836004 0.47704095 0 0
0.039999999 0.025084825 0.0092844265 0.47704095 0 0
0.039999999 0.025773652 0.0092852749 0.47704095 0 0
0.039999999 0.026462607 0.0092861466 0.47704095 0 0
0.039999999 0.027151693 0.0092870416 0.47704095 0 0
0.039999999 0.027840912 0.009287959 0.47704095 0 0
0.039999999 0.02853027 0.0092888996 0.47704095 0 0
0.039999999 0.029219769 0.0092898645 0.47704095 0 0
0.039999999 0.029909413 0.0092908517 0.47704095 0 0
0.039999999 0.030599205 0.0092918612 0.47704095 0 0
0.039999999 0.031289149 0.009292895 0.47704095 0 0
0.039999999 0.031979248 0.009293952 0.47704095 0 0
0.039999999 0.032669507 0.0092950314 0.47704095 0 0
0.039999999 0.033359926 0.0092961341 0.47704095 0 0
0.039999999 0.034050513 0.009297261 0.47704095 0 0
0.039999999 0.034741268 0.0092984103 0.47704095 0 0
0.039999999 0.035432193 0.0092995828 0.47704095 0 0
0.039999999 0.036123298 0.0093007786 0.47704095 0 0
0.039999999 0.036814578 0.0093019977 0.47704095 0 0
0.039999999 0.037506044 0.0093032401 0.47704095 0 0
0.039999999 0.038197696 0.0093045058 0.47704095 0 0
0.039999999 0.038889538 0.0093057957 0.47704095 0 0
0.039999999 0.039581574 0.0093071079 0.47704095 0 0
0.039999999 0.040273808 0.0093084434 0.47704095 0 0
0.039999999 0.040966239 0.0093098022 0.47704095 0 0
0.039999999 0.041658875 0.0093111852 0.47704095 0 0
0.039999999 0.042351719 0.0093125906 0.47704095 0 0
0.039999999 0.043044776 0.0093140202 0.47704095 0 0
0.039999999 0.043738045 0.009315473 0.47704095 0 0
0.039999999 0.044431534 0.0093169492 0.47704095 0 0
0.039999999 0.045125242 0.0093184486 0.47704095 0 0
0.039999999 0.045819174 0.0093199713 0.47704095 0 0
0.039999999 0.046513338 0.0093215182 0.47704095 0 0
0.039999999 0.047207732 0.0093230885 0.47704095 0 0
0.039999999 0.047902364 0.0093246819 0.47704095 0 0
0.039999999 0.048597235 0.0093262987 0.47704095 0 0
0.039999999 0.049292345 0.0093279397 0.47704095 0 0
0.039999999 0.049987704 0.009329604 0.47704095 0 0
0.039999999 0.050683312 0.0093312925 0.47704095 0 0
0.039999999 0.051379178 0.0093330042 0.47704095 0 0
0.039999999 0.052075297 0.0093347393 0.47704095 0 0
0.039999999 0.052771676 0.0093364986 0.47704095 0 0
0.039999999 0.053468321 0.0093382811 0.47704095 0 0
0.039999999 0.054165233 0.009340087 0.47704095 0 0
0.039999999 0.054862414 0.0093419179 0.47704095 0 0
0.039999999 0.055559874 0.0093437713 0.47704095 0 0
0.039999999 0.056257609 0.0093456488 0.47704095 0 0
0.039999999 0.056955628 0.0093475506 0.47704095 0 0
0.039999999 0.057653934 0.0093494765 0.47704095 0 0
0.039999999 0.05835253 0.0093514258 0.47704095 0 0
0.039999999 0.059051417 0.0093533993 0.47704095 0 0
0.039999999 0.059750602 0.009355396 0.47704095 0 0
0.039999999 0.060450085 0.009357417 0.47704095 0 0
0.039999999 0.061149877 0.0093594622 0.47704095 0 0
0.039999999 0.06184997 0.0093615316 0.47704095 0 0
0.039999999 0.062550381 0.0093636243 0.47704095 0 0
0.039999999 0.0632511 0.0093657412 0.47704095 0 0
0.039999999 0.063952141 0.0093678823 0.47704095 0 0
0.039999999 0.064653508 0.0093700476 0.47704095 0 0
0.039999999 0.065355197 0.0093722371 0.47704095 0 0
0.039999999 0.066057213 0.0093744509 0.47704095 0 0
0.039999999 0.066759571 0.0093766889 0.47704095 0 0
0.039999999 0.067462258 0.009378951 0.47704095 0 0
0.039999999 0.068165287 0.0093812365 0.47704095 0 0
0.039999999 0.068868667 0.0093835471 0.47704095 0 0
0.039999999 0.069572389 0.0093858819 0.47704095 0 0
0.039999999 0.070276469 0.009388241 0.47704095 0 0
0.039999999 0.070980899 0.0093906252 0.47704095 0 0
0.039999999 0.071685687 0.0093930326 0.47704095 0 0
0.039999999 0.072390839 0.0093954653 0.47704095 0 0
0.039999999 0.073096365 0.0093979221 0.47704095 0 0
0.039999999 0.073802255 0.0094004031 0.47704095 0 0
0.039999999 0.074508525 0.0094029093 0.47704095 0 0
0.039999999 0.075215168 0.0094054397 0.47704095 0 0
0.039999999 0.075922199 0.0094079943 0.47704095 0 0
0.039999999 0.076629609 0.0094105741 0.47704095 0 0
0.039999999 0.077337414 0.0094131781 0.47704095 0 0
0.039999999 0.078045607 0.0094158072 0.47704095 0 0
0.039999999 0.078754202 0.0094184605 0.47704095 0 0
0.039999999 0.079463199 0.009421139 0.47704095 0 0
0.039999999 0.00034325122 0.0085823843 0.47704095 0 0
0.039999999 0.0010297553 0.0085824057 0.47704095 0 0
0.039999999 0.0017162645 0.0085824477 0.47704095 0 0
0.039999999 0.0024027822 0.008582511 0.47704095 0 0
0.039999999 0.0030893118 0.0085825957 0.47704095 0 0
0.039999999 0.0037758565 0.0085827019 0.47704095 0 0
0.039999999 0.00446242 0.0085828286 0.47704095 0 0
0.039999999 0.0051490054 0.0085829776 0.47704095 0 0
0.039999999 0.0058356165 0.0085831471 0.47704095 0 0
0.039999999 0.0065222559 0.0085833371 0.47704095 0 0
0.039999999 0.007208928 0.0085835494 0.47704095 0 0
0.039999999 0.0078956354 0.0085837822 0.47704095 0 0
0.039999999 0.0085823815 0.0085840365 0.47704095 0 0
0.039999999 0.0092691705 0.0085843112 0.47704095 0 0
0.039999999 0.009956005 0.0085846083 0.47704095 0 0
0.039999999 0.010642889 0.0085849259 0.47704095 0 0
0.039999999 0.011329825 0.0085852649 0.47704095 0 0
0.039999999 0.012016817 0.0085856253 0.47704095 0 0
0.039999999 0.012703869 0.0085860062 0.47704095 0 0
0.039999999 0.013390983 0.0085864095 0.47704095 0 0
0.039999999 0.014078164 0.0085868333 0.47704095 0 0
0.039999999 0.014765413 0.0085872784 0.47704095 0 0
0.039999999 0.015452736 0.008587745 0.47704095 0 0
0.039999999 0.016140135 0.0085882321 0.47704095 0 0
0.039999999 0.016827615 0.0085887415 0.47704095 0 0
0.039999999 0.017515177 0.0085892715 0.47704095 0 0
0.039999999 0.018202826 0.0085898228 0.47704095 0 0
0.039999999 0.018890565 0.0085903956 0.47704095 0 0
0.039999999 0.019578397 0.0085909888 0.47704095 0 0
0.039999999 0.020266326 0.0085916044 0.47704095 0 0
0.039999999 0.020954354 0.0085922405 0.47704095 0 0
0.039999999 0.021642487 0.008592898 0.47704095 0 0
0.039999999 0.022330727 0.0085935779 0.47704095 0 0
0.039999999 0.023019077 0.0085942782 0.47704095 0 0
0.039999999 0.023707543 0.008595 0.47704095 0 0
0.039999999 0.024396123 0.0085957423 0.47704095 0 0
0.039999999 0.025084825 0.0085965069 0.47704095 0 0
0.039999999 0.025773652 0.0085972929 0.47704095 0 0
0.039999999 0.026462607 0.0085980995 0.47704095 0 0
0.039999999 0.027151693 0.0085989283 0.47704095 0 0
0.039999999 0.027840912 0.0085997777 0.47704095 0 0
0.039999999 0.02853027 0.0086006494 0.47704095 0 0
0.039999999 0.029219769 0.0086015416 0.47704095 0 0
0.039999999 0.029909413 0.0086024562 0.47704095 0 0
0.039999999 0.030599205 0.0086033912 0.47704095 0 0
0.039999999 0.031289149 0.0086043486 0.47704095 0 0
0.039999999 0.031979248 0.0086053265 0.47704095 0 0
0.039999999 0.032669507 0.0086063268 0.47704095 0 0
0.039999999 0.033359926 0.0086073475 0.47704095 0 0
0.039999999 0.034050513 0.0086083906 0.47704095 0 0
0.039999999 0.034741268 0.0086094551 0.47704095 0 0
0.039999999 0.035432193 0.008610541 0.47704095 0 0
0.039999999 0.036123298 0.0086116483 0.47704095 0 0
0.039999999 0.036814578 0.0086127771 0.47704095 0 0
0.039999999 0.037506044 0.0086139273 0.47704095 0 0
0.039999999 0.038197696 0.0086150989 0.47704095 0 0
0.039999999 0.038889538 0.0086162928 0.47704095 0 0
0.039999999 0.039581574 0.0086175082 0.47704095 0 0
0.039999999 0.040273808 0.008618745 0.47704095 0 0
0.039999999 0.040966239 0.0086200032 0.47704095 0 0
0.039999999 0.041658875 0.0086212829 0.47704095 0 0
0.039999999 0.042351719 0.0086225849 0.47704095 0 0
0.039999999 0.043044776 0.0086239083 0.47704095 0 0
0.039999999 0.043738045 0.0086252531 0.47704095 0 0
0.039999999 0.044431534 0.0086266203 0.47704095 0 0
0.039999999 0.045125242 0.0086280089 0.47704095 0 0
0.039999999 0.045819174 0.0086294189 0.47704095 0 0
0.039999999 0.046513338 0.0086308504 0.47704095 0 0
0.039999999 0.047207732 0.0086323041 0.47704095 0 0
0.039999999 0.047902364 0.0086337803 0.47704095 0 0
0.039999999 0.048597235 0.0086352769 0.47704095 0 0
0.039999999 0.049292345 0.0086367968 0.47704095 0 0
0.039999999 0.049987704 0.0086383373 0.47704095 0 0
0.039999999 0.050683312 0.0086399009 0.47704095 0 0
0.039999999 0.051379178 0.0086414851 0.47704095 0 0
0.039999999 0.052075297 0.0086430926 0.47704095 0 0
0.039999999 0.052771676 0.0086447205 0.47704095 0 0
0.039999999 0.053468321 0.0086463718 0.47704095 0 0
0.039999999 0.054165233 0.0086480444 0.47704095 0 0
0.039999999 0.054862414 0.0086497385 0.47704095 0 0
0.039999999 0.055559874 0.0086514549 0.47704095 0 0
0.039999999 0.056257609 0.0086531937 0.47704095 0 0
0.039999999 0.056955628 0.0086549548 0.47704095 0 0
0.039999999 0.057653934 0.0086567374 0.47704095 0 0
0.039999999 0.05835253 0.0086585423 0.47704095 0 0
0.039999999 0.059051417 0.0086603696 0.47704095 0 0
0.039999999 0.059750602 0.0086622182 0.47704095 0 0
0.039999999 0.060450085 0.0086640902 0.47704095 0 0
0.039999999 0.061149877 0.0086659836 0.47704095 0 0
0.039999999 0.06184997 0.0086678993 0.47704095 0 0
0.039999999 0.062550381 0.0086698374 0.47704095 0 0
0.039999999 0.0632511 0.0086717969 0.47704095 0 0
0.039999999 0.063952141 0.0086737797 0.47704095 0 0
0.039999999 0.064653508 0.0086757848 0.47704095 0 0
0.039999999 0.065355197 0.0086778123 0.47704095 0 0
0.039999999 0.066057213 0.0086798612 0.47704095 0 0
0.039999999 0.066759571 0.0086819334 0.47704095 0 0
0.039999999 0.067462258 0.0086840279 0.47704095 0 0
0.039999999 0.068165287 0.0086861448 0.47704095 0 0
0.039999999 0.068868667 0.0086882841 0.47704095 0 0
0.039999999 0.069572389 0.0086904457 0.47704095 0 0
0.039999999 0.070276469 0.0086926306 0.47704095 0 0
0.039999999 0.070980899 0.0086948369 0.47704095 0 0
0.039999999 0.071685687 0.0086970665 0.47704095 0 0
0.039999999 0.072390839 0.0086993184 0.47704095 0 0
0.039999999 0.073096365 0.0087015936 0.47704095 0 0
0.039999999 0.073802255 0.0087038912 0.47704095 0 0
0.039999999 0.074508525 0.0087062111 0.47704095 0 0
0.039999999 0.075215168 0.0087085543 0.47704095 0 0
0.039999999 0.075922199 0.0087109199 0.47704095 0 0
0.039999999 0.076629609 0.0087133078 0.47704095 0 0
0.039999999 0.077337414 0.008715719 0.47704095 0 0
0.039999999 0.078045607 0.0087181535 0.47704095 0 0
0.039999999 0.078754202 0.0087206103 0.47704095 0 0
0.039999999 0.079463199 0.0087230904 0.47704095 0 0
0.039999999 0.00034325122 0.0078956373 0.47704095 0 0
0.039999999 0.0010297553 0.0078956569 0.47704095 0 0
0.039999999 0.0017162645 0.007895696 0.47704095 0 0
0.039999999 0.0024027822 0.0078957547 0.47704095 0 0
0.039999999 0.0030893118 0.0078958329 0.47704095 0 0
0.039999999 0.0037758565 0.0078959297 0.47704095 0 0
0.039999999 0.00446242 0.0078960471 0.47704095 0 0
0.039999999 0.0051490054 0.0078961831 0.47704095 0 0
0.039999999 0.0058356165 0.0078963395 0.47704095 0 0
0.039999999 0.0065222559 0.0078965146 0.47704095 0 0
0.039999999 0.007208928 0.0078967093 0.47704095 0 0
0.039999999 0.0078956354 0.0078969235 0.47704095 0 0
0.039999999 0.0085823815 0.0078971572 0.47704095 0 0
0.039999999 0.0092691705 0.0078974105 0.47704095 0 0
0.039999999 0.009956005 0.0078976834 0.47704095 0 0
0.039999999 0.010642889 0.0078979759 0.47704095 0 0
0.039999999 0.011329825 0.0078982878 0.47704095 0 0
0.039999999 0.012016817 0.0078986194 0.47704095 0 0
0.039999999 0.012703869 0.0078989705 0.47704095 0 0
0.039999999 0.013390983 0.0078993402 0.47704095 0 0
0.039999999 0.014078164 0.0078997305 0.47704095 0 0
0.039999999 0.014765413 0.0079001402 0.47704095 0 0
0.039999999 0.015452736 0.0079005687 0.47704095 0 0
0.039999999 0.016140135 0.0079010176 0.47704095 0 0
0.039999999 0.016827615 0.007901486 0.47704095 0 0
0.039999999 0.017515177 0.0079019731 0.47704095 0 0
0.039999999 0.018202826 0.0079024807 0.47704095 0 0
0.039999999 0.018890565 0.0079030078 0.47704095 0 0
0.039999999 0.019578397 0.0079035535 0.47704095 0 0
0.039999999 0.020266326 0.0079041198 0.47704095 0 0
0.039999999 0.020954354 0.0079047056 0.47704095 0 0
0.039999999 0.021642487 0.00790531 0.47704095 0 0
0.039999999 0.022330727 0.0079059349 0.47704095 0 0
0.039999999 0.023019077 0.0079065794 0.47704095 0 0
0.039999999 0.023707543 0.0079072434 0.47704095 0 0
0.039999999 0.024396123 0.007907927 0.47704095 0 0
0.039999999 0.025084825 0.0079086302 0.47704095 0 0
0.039999999 0.025773652 0.0079093529 0.47704095 0 0
0.039999999 0.026462607 0.0079100961 0.47704095 0 0
0.039999999 0.027151693 0.0079108579 0.47704095 0 0
0.039999999 0.027840912 0.0079116393 0.47704095 0 0
0.039999999 0.02853027 0.0079124412 0.47704095 0 0
0.039999999 0.029219769 0.0079132626 0.47704095 0 0
0.039999999 0.029909413 0.0079141036 0.47704095 0 0
0.039999999 0.030599205 0.0079149641 0.47704095 0 0
0.039999999 0.031289149 0.0079158442 0.47704095 0 0
0.039999999 0.031979248 0.0079167439 0.47704095 0 0
0.039999999 0.032669507 0.007917664 0.47704095 0 0
0.039999999 0.033359926 0.0079186037 0.47704095 0 0
0.039999999 0.034050513 0.007919563 0.47704095 0 0
0.039999999 0.034741268 0.0079205418 0.47704095 0 0
0.039999999 0.035432193 0.0079215411 0.47704095 0 0
0.039999999 0.036123298 0.00792256 0.47704095 0 0
0.039999999 0.036814578 0.0079235984 0.47704095 0 0
0.039999999 0.037506044 0.0079246564 0.47704095 0 0
0.039999999 0.038197696 0.0079257349 0.47704095 0 0
0.039999999 0.038889538 0.0079268329 0.47704095 0 0
0.039999999 0.039581574 0.0079279505 0.47704095 0 0
0.039999999 0.040273808 0.0079290885 0.47704095 0 0
0.039999999 0.040966239 0.0079302462 0.47704095 0 0
0.039999999 0.041658875 0.0079314243 0.47704095 0 0
0.039999999 0.042351719 0.0079326211 0.47704095 0 0
0.039999999 0.043044776 0.0079338392 0.47704095 0 0
0.039999999 0.043738045 0.007935076 0.47704095 0 0
0.039999999 0.044431534 0.0079363333 0.47704095 0 0
0.039999999 0.045125242 0.0079376111 0.47704095 0 0
0.039999999 0.045819174 0.0079389084 0.47704095 0 0
0.039999999 0.046513338 0.0079402262 0.47704095 0 0
0.039999999 0.047207732 0.0079415636 0.47704095 0 0
0.039999999 0.047902364 0.0079429206 0.47704095 0 0
0.039999999 0.048597235 0.007944298 0.47704095 0 0
0.039999999 0.049292345 0.0079456959 0.47704095 0 0
0.039999999 0.049987704 0.0079471134 0.47704095 0 0
0.039999999 0.050683312 0.0079485513 0.47704095 0 0
0.039999999 0.051379178 0.0079500098 0.47704095 0 0
0.039999999 0.052075297 0.0079514878 0.47704095 0 0
0.039999999 0.052771676 0.0079529863 0.47704095 0 0
0.039999999 0.053468321 0.0079545043 0.47704095 0 0
0.039999999 0.054165233 0.0079560438 0.47704095 0 0
0.039999999 0.054862414 0.0079576029 0.47704095 0 0
0.039999999 0.055559874 0.0079591814 0.47704095 0 0
0.039999999 0.056257609 0.0079607815 0.47704095 0 0
0.039999999 0.056955628 0.007962401 0.47704095 0 0
0.039999999 0.057653934 0.0079640411 0.47704095 0 0
0.039999999 0.05835253 0.0079657016 0.47704095 0 0
0.039999999 0.059051417 0.0079673827 0.47704095 0 0
0.039999999 0.059750602 0.0079690833 0.47704095 0 0
0.039999999 0.060450085 0.0079708053 0.47704095 0 0
0.039999999 0.061149877 0.0079725469 0.47704095 0 0
0.039999999 0.06184997 0.0079743098 0.47704095 0 0
0.039999999 0.062550381 0.0079760924 0.47704095 0 0
0.039999999 0.0632511 0.0079778964 0.47704095 0 0
0.039999999 0.063952141 0.0079797199 0.47704095 0 0
0.039999999 0.064653508 0.0079815639 0.47704095 0 0
0.039999999 0.065355197 0.0079834294 0.47704095 0 0
0.039999999 0.066057213 0.0079853153 0.47704095 0 0
0.039999999 0.066759571 0.0079872208 0.47704095 0 0
0.039999999 0.067462258 0.0079891477 0.47704095 0 0
0.039999999 0.068165287 0.0079910951 0.47704095 0 0
0.039999999 0.068868667 0.0079930639 0.47704095 0 0
0.039999999 0.069572389 0.0079950523 0.47704095 0 0
0.039999999 0.070276469 0.0079970621 0.47704095 0 0
0.039999999 0.070980899 0.0079990923 0.47704095 0 0
0.039999999 0.071685687 0.0080011431 0.47704095 0 0
0.039999999 0.072390839 0.0080032153 0.47704095 0 0
0.039999999 0.073096365 0.008005308 0.47704095 0 0
0.039999999 0.073802255 0.0080074212 0.47704095 0 0
0.039999999 0.074508525 0.0080095557 0.47704095 0 0
0.039999999 0.075215168 0.0080117118 0.47704095 0 0
0.039999999 0.075922199 0.0080138873 0.47704095 0 0
0.039999999 0.076629609 0.0080160853 0.47704095 0 0
0.039999999 0.077337414 0.0080183037 0.47704095 0 0
0.039999999 0.078045607 0.0080205426 0.47704095 0 0
0.039999999 0.078754202 0.0080228029 0.47704095 0 0
0.039999999 0.079463199 0.0080250846 0.47704095 0 0
0.039999999 0.00034325122 0.0072089299 0.47704095 0 0
0.039999999 0.0010297553 0.007208948 0.47704095 0 0
0.039999999 0.0017162645 0.0072089834 0.47704095 0 0
0.039999999 0.0024027822 0.007209037 0.47704095 0 0
0.039999999 0.0030893118 0.0072091077 0.47704095 0 0
0.039999999 0.0037758565 0.0072091967 0.47704095 0 0
0.039999999 0.00446242 0.0072093038 0.47704095 0 0
0.039999999 0.0051490054 0.0072094281 0.47704095 0 0
0.039999999 0.0058356165 0.0072095706 0.47704095 0 0
0.039999999 0.0065222559 0.0072097303 0.47704095 0 0
0.039999999 0.007208928 0.0072099082 0.47704095 0 0
0.039999999 0.0078956354 0.0072101043 0.47704095 0 0
0.039999999 0.0085823815 0.0072103175 0.47704095 0 0
0.039999999 0.0092691705 0.007210549 0.47704095 0 0
0.039999999 0.009956005 0.0072107981 0.47704095 0 0
0.039999999 0.010642889 0.0072110649 0.47704095 0 0
0.039999999 0.011329825 0.0072113499 0.47704095 0 0
0.039999999 0.012016817 0.0072116521 0.47704095 0 0
0.039999999 0.012703869 0.007211973 0.47704095 0 0
0.039999999 0.013390983 0.007212311 0.47704095 0 0
0.039999999 0.014078164 0.0072126668 0.47704095 0 0
0.039999999 0.014765413 0.0072130407 0.47704095 0 0
0.039999999 0.015452736 0.0072134323 0.47704095 0 0
0.039999999 0.016140135 0.0072138421 0.47704095 0 0
0.039999999 0.016827615 0.0072142696 0.47704095 0 0
0.039999999 0.017515177 0.0072147148 0.47704095 0 0
0.039999999 0.018202826 0.0072151781 0.47704095 0 0
0.039999999 0.018890565 0.0072156587 0.47704095 0 0
0.039999999 0.019578397 0.0072161579 0.47704095 0 0
0.039999999 0.020266326 0.0072166743 0.47704095 0 0
0.039999999 0.020954354 0.0072172089 0.47704095 0 0
0.039999999 0.021642487 0.0072177616 0.47704095 0 0
0.039999999 0.022330727 0.007218332 0.47704095 0 0
0.039999999 0.023019077 0.0072189202 0.47704095 0 0
0.039999999 0.023707543 0.0072195265 0.47704095 0 0
0.039999999 0.024396123 0.0072201504 0.47704095 0 0
0.039999999 0.025084825 0.0072207926 0.47704095 0 0
0.039999999 0.025773652 0.0072214524 0.47704095 0 0
0.039999999 0.026462607 0.0072221304 0.47704095 0 0
0.039999999 0.027151693 0.0072228266 0.47704095 0 0
0.039999999 0.027840912 0.0072235405 0.47704095 0 0
0.039999999 0.02853027 0.007224272 0.47704095 0 0
0.039999999 0.029219769 0.0072250217 0.47704095 0 0
0.039999999 0.029909413 0.0072257896 0.47704095 0 0
0.039999999 0.030599205 0.0072265752 0.47704095 0 0
0.039999999 0.031289149 0.0072273794 0.47704095 0 0
0.039999999 0.031979248 0.0072282008 0.47704095 0 0
0.039999999 0.032669507 0.0072290408 0.47704095 0 0
0.039999999 0.033359926 0.0072298986 0.47704095 0 0
0.039999999 0.034050513 0.0072307745 0.47704095 0 0
0.039999999 0.034741268 0.0072316686 0.47704095 0 0
0.039999999 0.035432193 0.0072325803 0.47704095 0 0
0.039999999 0.036123298 0.0072335107 0.47704095 0 0
0.039999999 0.036814578 0.0072344588 0.47704095 0 0
0.039999999 0.037506044 0.0072354251 0.47704095 0 0
0.039999999 0.038197696 0.0072364095 0.47704095 0 0
0.039999999 0.038889538 0.007237412 0.47704095 0 0
0.039999999 0.039581574 0.0072384328 0.47704095 0 0
0.039999999 0.040273808 0.0072394717 0.47704095 0 0
0.039999999 0.040966239 0.0072405287 0.47704095 0 0
0.039999999 0.041658875 0.0072416039 0.47704095 0 0
0.039999999 0.042351719 0.0072426973 0.47704095 0 0
0.039999999 0.043044776 0.0072438088 0.47704095 0 0
0.039999999 0.043738045 0.0072449385 0.47704095 0 0
0.039999999 0.044431534 0.0072460864 0.47704095 0 0
0.039999999 0.045125242 0.0072472529 0.47704095 0 0
0.039999999 0.045819174 0.0072484375 0.47704095 0 0
0.039999999 0.046513338 0.0072496403 0.47704095 0 0
0.039999999 0.047207732 0.0072508613 0.47704095 0 0
0.039999999 0.047902364 0.0072521009 0.47704095 0 0
0.039999999 0.048597235 0.0072533586 0.47704095 0 0
0.039999999 0.049292345 0.0072546345 0.47704095 0 0
0.039999999 0.049987704 0.0072559291 0.47704095 0 0
0.039999999 0.050683312 0.0072572418 0.47704095 0 0
0.039999999 0.051379178 0.0072585731 0.47704095 0 0
0.039999999 0.052075297 0.0072599226 0.47704095 0 0
0.039999999 0.052771676 0.0072612907 0.47704095 0 0
0.039999999 0.053468321 0.0072626774 0.47704095 0 0
0.039999999 0.054165233 0.0072640823 0.47704095 0 0
0.039999999 0.054862414 0.0072655054 0.47704095 0 0
0.039999999 0.055559874 0.0072669475 0.47704095 0 0
0.039999999 0.056257609 0.0072684078 0.47704095 0 0
0.039999999 0.056955628 0.0072698868 0.47704095 0 0
0.039999999 0.057653934 0.0072713844 0.47704095 0 0
0.039999999 0.05835253 0.0072729001 0.47704095 0 0
0.039999999 0.059051417 0.0072744349 0.47704095 0 0
0.039999999 0.059750602 0.0072759883 0.47704095 0 0
0.039999999 0.060450085 0.00727756 0.47704095 0 0
0.039999999 0.061149877 0.0072791507 0.47704095 0 0
0.039999999 0.06184997 0.0072807595 0.47704095 0 0
0.039999999 0.062550381 0.0072823875 0.47704095 0 0
0.039999999 0.0632511 0.007284034 0.47704095 0 0
0.039999999 0.063952141 0.0072856992 0.47704095 0 0
0.039999999 0.064653508 0.0072873835 0.47704095 0 0
0.039999999 0.065355197 0.007289086 0.47704095 0 0
0.039999999 0.066057213 0.0072908076 0.47704095 0 0
0.039999999 0.066759571 0.0072925482 0.47704095 0 0
0.039999999 0.067462258 0.0072943075 0.47704095 0 0
0.039999999 0.068165287 0.0072960854 0.47704095 0 0
0.039999999 0.068868667 0.0072978823 0.47704095 0 0
0.039999999 0.069572389 0.0072996984 0.47704095 0 0
0.039999999 0.070276469 0.0073015331 0.47704095 0 0
0.039999999 0.070980899 0.0073033869 0.47704095 0 0
0.039999999 0.071685687 0.0073052594 0.47704095 0 0
0.039999999 0.072390839 0.0073071513 0.47704095 0 0
0.039999999 0.073096365 0.0073090619 0.47704095 0 0
0.039999999 0.073802255 0.0073109916 0.47704095 0 0
0.039999999 0.074508525 0.0073129404 0.47704095 0 0
0.039999999 0.075215168 0.0073149083 0.47704095 0 0
0.039999999 0.075922199 0.0073168953 0.47704095 0 0
0.039999999 0.076629609 0.0073189018 0.47704095 0 0
0.039999999 0.077337414 0.007320927 0.47704095 0 0
0.039999999 0.078045607 0.0073229717 0.47704095 0 0
0.039999999 0.078754202 0.0073250355 0.47704095 0 0
0.039999999 0.079463199 0.0073271184 0.47704095 0 0
0.039999999 0.00034325122 0.0065222578 0.47704095 0 0
0.039999999 0.0010297553 0.0065222741 0.47704095 0 0
0.039999999 0.0017162645 0.0065223062 0.47704095 0 0
0.039999999 0.0024027822 0.0065223547 0.47704095 0 0
0.039999999 0.0030893118 0.0065224189 0.47704095 0 0
0.039999999 0.0037758565 0.0065224995 0.47704095 0 0
0.039999999 0.00446242 0.0065225959 0.47704095 0 0
0.039999999 0.0051490054 0.0065227086 0.47704095 0 0
0.039999999 0.0058356165 0.0065228376 0.47704095 0 0
0.039999999 0.0065222559 0.0065229824 0.47704095 0 0
0.039999999 0.007208928 0.006523143 0.47704095 0 0
0.039999999 0.0078956354 0.0065233205 0.47704095 0 0
0.039999999 0.0085823815 0.0065235132 0.47704095 0 0
0.039999999 0.0092691705 0.0065237228 0.47704095 0 0
0.039999999 0.009956005 0.0065239482 0.47704095 0 0
0.039999999 0.010642889 0.0065241894 0.47704095 0 0
0.039999999 0.011329825 0.0065244474 0.47704095 0 0
0.039999999 0.012016817 0.0065247212 0.47704095 0 0
0.039999999 0.012703869 0.0065250108 0.47704095 0 0
0.039999999 0.013390983 0.0065253167 0.47704095 0 0
0.039999999 0.014078164 0.006525639 0.47704095 0 0
0.039999999 0.014765413 0.006525977 0.47704095 0 0
0.039999999 0.015452736 0.0065263314 0.47704095 0 0
0.039999999 0.016140135 0.0065267021 0.47704095 0 0
0.039999999 0.016827615 0.006527089 0.47704095 0 0
0.039999999 0.017515177 0.0065274918 0.47704095 0 0
0.039999999 0.018202826 0.0065279105 0.47704095 0 0
0.039999999 0.018890565 0.0065283459 0.47704095 0 0
0.039999999 0.019578397 0.0065287971 0.47704095 0 0
0.039999999 0.020266326 0.0065292646 0.47704095 0 0
0.039999999 0.020954354 0.0065297484 0.47704095 0 0
0.039999999 0.021642487 0.0065302481 0.47704095 0 0
0.039999999 0.022330727 0.0065307645 0.47704095 0 0
0.039999999 0.023019077 0.0065312968 0.47704095 0 0
0.039999999 0.023707543 0.0065318448 0.47704095 0 0
0.039999999 0.024396123 0.0065324097 0.47704095 0 0
0.039999999 0.025084825 0.0065329908 0.47704095 0 0
0.039999999 0.025773652 0.0065335878 0.47704095 0 0
0.039999999 0.026462607 0.0065342011 0.47704095 0 0
0.039999999 0.027151693 0.0065348307 0.47704095 0 0
0.039999999 0.027840912 0.0065354765 0.47704095 0 0
0.039999999 0.02853027 0.0065361387 0.47704095 0 0
0.039999999 0.029219769 0.0065368172 0.47704095 0 0
0.039999999 0.029909413 0.0065375115 0.47704095 0 0
0.039999999 0.030599205 0.0065382225 0.47704095 0 0
0.039999999 0.031289149 0.0065389499 0.47704095 0 0
0.039999999 0.031979248 0.0065396931 0.47704095 0 0
0.039999999 0.032669507 0.0065404531 0.47704095 0 0
0.039999999 0.033359926 0.0065412293 0.47704095 0 0
0.039999999 0.034050513 0.0065420219 0.47704095 0 0
0.039999999 0.034741268 0.0065428307 0.47704095 0 0
0.039999999 0.035432193 0.0065436559 0.47704095 0 0
0.039999999 0.036123298 0.0065444973 0.47704095 0 0
0.039999999 0.036814578 0.0065453551 0.47704095 0 0
0.039999999 0.037506044 0.0065462291 0.47704095 0 0
0.039999999 0.038197696 0.0065471199 0.47704095 0 0
0.039999999 0.038889538 0.006548027 0.47704095 0 0
0.039999999 0.039581574 0.0065489504 0.47704095 0 0
0.039999999 0.040273808 0.0065498902 0.47704095 0 0
0.039999999 0.040966239 0.0065508466 0.47704095 0 0
0.039999999 0.041658875 0.0065518194 0.47704095 0 0
0.039999999 0.042351719 0.0065528085 0.47704095 0 0
0.039999999 0.043044776 0.0065538143 0.47704095 0 0
0.039999999 0.043738045 0.0065548364 0.47704095 0 0
0.039999999 0.044431534 0.0065558753 0.47704095 0 0
0.039999999 0.045125242 0.0065569305 0.47704095 0 0
0.039999999 0.045819174 0.006558002 0.47704095 0 0
0.039999999 0.046513338 0.0065590902 0.47704095 0 0
0.039999999 0.047207732 0.0065601952 0.47704095 0 0
0.039999999 0.047902364 0.0065613165 0.47704095 0 0
0.039999999 0.048597235 0.0065624546 0.47704095 0 0
0.039999999 0.049292345 0.006563609 0.47704095 0 0
0.039999999 0.049987704 0.0065647801 0.47704095 0 0
0.039999999 0.050683312 0.006565968 0.47704095 0 0
0.039999999 0.051379178 0.0065671722 0.47704095 0 0
0.039999999 0.052075297 0.0065683932 0.47704095 0 0
0.039999999 0.052771676 0.0065696309 0.47704095 0 0
0.039999999 0.053468321 0.0065708854 0.47704095 0 0
0.039999999 0.054165233 0.0065721567 0.47704095 0 0
0.039999999 0.054862414 0.0065734447 0.47704095 0 0
0.039999999 0.055559874 0.006574749 0.47704095 0 0
0.039999999 0.056257609 0.0065760701 0.47704095 0 0
0.039999999 0.056955628 0.0065774084 0.47704095 0 0
0.039999999 0.057653934 0.006578763 0.47704095 0 0
0.039999999 0.05835253 0.0065801349 0.47704095 0 0
0.039999999 0.059051417 0.0065815235 0.47704095 0 0
0.039999999 0.059750602 0.0065829284 0.47704095 0 0
0.039999999 0.060450085 0.006584351 0.47704095 0 0
0.039999999 0.061149877 0.0065857898 0.47704095 0 0
0.039999999 0.06184997 0.0065872455 0.47704095 0 0
0.039999999 0.062550381 0.0065887184 0.47704095 0 0
0.039999999 0.0632511 0.006590208 0.47704095 0 0
0.039999999 0.063952141 0.0065917149 0.47704095 0 0
0.039999999 0.064653508 0.0065932386 0.47704095 0 0
0.039999999 0.065355197 0.006594779 0.47704095 0 0
0.039999999 0.066057213 0.0065963366 0.47704095 0 0
0.039999999 0.066759571 0.006597911 0.47704095 0 0
0.039999999 0.067462258 0.0065995026 0.47704095 0 0
0.039999999 0.068165287 0.0066011115 0.47704095 0 0
0.039999999 0.068868667 0.0066027376 0.47704095 0 0
0.039999999 0.069572389 0.0066043804 0.47704095 0 0
0.039999999 0.070276469 0.0066060405 0.47704095 0 0
0.039999999 0.070980899 0.0066077174 0.47704095 0 0
0.039999999 0.071685687 0.0066094119 0.47704095 0 0
0.039999999 0.072390839 0.0066111232 0.47704095 0 0
0.039999999 0.073096365 0.0066128522 0.47704095 0 0
0.039999999 0.073802255 0.006614598 0.47704095 0 0
0.039999999 0.074508525 0.006616361 0.47704095 0 0
0.039999999 0.075215168 0.0066181417 0.47704095 0 0
0.039999999 0.075922199 0.0066199396 0.47704095 0 0
0.039999999 0.076629609 0.0066217547 0.47704095 0 0
0.039999999 0.077337414 0.0066235871 0.47704095 0 0
0.039999999 0.078045607 0.0066254367 0.47704095 0 0
0.039999999 0.078754202 0.006627304 0.47704095 0 0
0.039999999 0.079463199 0.0066291885 0.47704095 0 0
0.039999999 0.00034325122 0.0058356179 0.47704095 0 0
0.039999999 0.0010297553 0.0058356323 0.47704095 0 0
0.039999999 0.0017162645 0.0058356612 0.47704095 0 0
0.039999999 0.0024027822 0.0058357045 0.47704095 0 0
0.039999999 0.0030893118 0.0058357622 0.47704095 0 0
0.039999999 0.0037758565 0.005835834 0.47704095 0 0
0.039999999 0.00446242 0.0058359206 0.47704095 0 0
0.039999999 0.0051490054 0.0058360212 0.47704095 0 0
0.039999999 0.0058356165 0.0058361366 0.47704095 0 0
0.039999999 0.0065222559 0.0058362661 0.47704095 0 0
0.039999999 0.007208928 0.00583641 0.47704095 0 0
0.039999999 0.0078956354 0.0058365688 0.47704095 0 0
0.039999999 0.0085823815 0.0058367415 0.47704095 0 0
0.039999999 0.0092691705 0.0058369287 0.47704095 0 0
0.039999999 0.009956005 0.0058371304 0.47704095 0 0
0.039999999 0.010642889 0.0058373464 0.47704095 0 0
0.039999999 0.011329825 0.0058375769 0.47704095 0 0
0.039999999 0.012016817 0.0058378219 0.47704095 0 0
0.039999999 0.012703869 0.0058380812 0.47704095 0 0
0.039999999 0.013390983 0.005838355 0.47704095 0 0
0.039999999 0.014078164 0.0058386433 0.47704095 0 0
0.039999999 0.014765413 0.005838946 0.47704095 0 0
0.039999999 0.015452736 0.0058392631 0.47704095 0 0
0.039999999 0.016140135 0.0058395946 0.47704095 0 0
0.039999999 0.016827615 0.0058399406 0.47704095 0 0
0.039999999 0.017515177 0.005840301 0.47704095 0 0
0.039999999 0.018202826 0.0058406759 0.47704095 0 0
0.039999999 0.018890565 0.0058410652 0.47704095 0 0
0.039999999 0.019578397 0.0058414689 0.47704095 0 0
0.039999999 0.020266326 0.0058418871 0.47704095 0 0
0.039999999 0.020954354 0.0058423202 0.47704095 0 0
0.039999999 0.021642487 0.0058427672 0.47704095 0 0
0.039999999 0.022330727 0.0058432291 0.47704095 0 0
0.039999999 0.023019077 0.005843705 0.47704095 0 0
0.039999999 0.023707543 0.0058441958 0.47704095 0 0
0.039999999 0.024396123 0.0058447011 0.47704095 0 0
0.039999999 0.025084825 0.0058452208 0.47704095 0 0
0.039999999 0.025773652 0.0058457553 0.47704095 0 0
0.039999999 0.026462607 0.0058463039 0.47704095 0 0
0.039999999 0.027151693 0.0058468673 0.47704095 0 0
0.039999999 0.027840912 0.0058474452 0.47704095 0 0
0.039999999 0.02853027 0.0058480375 0.47704095 0 0
0.039999999 0.029219769 0.0058486443 0.47704095 0 0
0.039999999 0.029909413 0.005849266 0.47704095 0 0
0.039999999 0.030599205 0.0058499021 0.47704095 0 0
0.039999999 0.031289149 0.0058505526 0.47704095 0 0
0.039999999 0.031979248 0.005851218 0.47704095 0 0
0.039999999 0.032669507 0.0058518979 0.47704095 0 0
0.039999999 0.033359926 0.0058525922 0.47704095 0 0
0.039999999 0.034050513 0.0058533014 0.47704095 0 0
0.039999999 0.034741268 0.005854025 0.47704095 0 0
0.039999999 0.035432193 0.0058547631 0.47704095 0 0
0.039999999 0.036123298 0.0058555161 0.47704095 0 0
0.039999999 0.036814578 0.0058562835 0.47704095 0 0
0.039999999 0.037506044 0.0058570658 0.47704095 0 0
0.039999999 0.038197696 0.0058578625 0.47704095 0 0
0.039999999 0.038889538 0.0058586742 0.47704095 0 0
0.039999999 0.039581574 0.0058595007 0.47704095 0 0
0.039999999 0.040273808 0.0058603412 0.47704095 0 0
0.039999999 0.040966239 0.0058611971 0.47704095 0 0
0.039999999 0.041658875 0.0058620675 0.47704095 0 0
0.039999999 0.042351719 0.0058629527 0.47704095 0 0
0.039999999 0.043044776 0.0058638523 0.47704095 0 0
0.039999999 0.043738045 0.0058647669 0.47704095 0 0
0.039999999 0.044431534 0.0058656964 0.47704095 0 0
0.039999999 0.045125242 0.0058666402 0.47704095 0 0
0.039999999 0.045819174 0.005867599 0.47704095 0 0
0.039999999 0.046513338 0.0058685727 0.47704095 0 0
0.039999999 0.047207732 0.0058695613 0.47704095 0 0
0.039999999 0.047902364 0.0058705648 0.47704095 0 0
0.039999999 0.048597235 0.0058715828 0.47704095 0 0
0.039999999 0.049292345 0.0058726161 0.47704095 0 0
0.039999999 0.049987704 0.0058736638 0.47704095 0 0
0.039999999 0.050683312 0.0058747265 0.47704095 0 0
0.039999999 0.051379178 0.005875804 0.47704095 0 0
0.039999999 0.052075297 0.0058768964 0.47704095 0 0
0.039999999 0.052771676 0.0058780038 0.47704095 0 0
0.039999999 0.053468321 0.0058791265 0.47704095 0 0
0.039999999 0.054165233 0.0058802636 0.47704095 0 0
0.039999999 0.054862414 0.0058814157 0.47704095 0 0
0.039999999 0.055559874 0.0058825831 0.47704095 0 0
0.039999999 0.056257609 0.0058837654 0.47704095 0 0
0.039999999 0.056955628 0.0058849626 0.47704095 0 0
0.039999999 0.057653934 0.0058861747 0.47704095 0 0
0.039999999 0.05835253 0.0058874018 0.47704095 0 0
0.039999999 0.059051417 0.0058886441 0.47704095 0 0
0.039999999 0.059750602 0.0058899014 0.47704095 0 0
0.039999999 0.060450085 0.0058911741 0.47704095 0 0
0.039999999 0.061149877 0.0058924616 0.47704095 0 0
0.039999999 0.06184997 0.0058937641 0.47704095 0 0
0.039999999 0.062550381 0.0058950819 0.47704095 0 0
0.039999999 0.0632511 0.0058964146 0.47704095 0 0
0.039999999 0.063952141 0.0058977627 0.47704095 0 0
0.039999999 0.064653508 0.0058991262 0.47704095 0 0
0.039999999 0.065355197 0.0059005045 0.47704095 0 0
0.039999999 0.066057213 0.0059018978 0.47704095 0 0
0.039999999 0.066759571 0.0059033069 0.47704095 0 0
0.039999999 0.067462258 0.0059047309 0.47704095 0 0
0.039999999 0.068165287 0.0059061702 0.47704095 0 0
0.039999999 0.068868667 0.005907625 0.47704095 0 0
0.039999999 0.069572389 0.0059090951 0.47704095 0 0
0.039999999 0.070276469 0.00591058 0.47704095 0 0
0.039999999 0.070980899 0.0059120809 0.47704095 0 0
0.039999999 0.071685687 0.0059135966 0.47704095 0 0
0.039999999 0.072390839 0.0059151282 0.47704095 0 0
0.039999999 0.073096365 0.0059166746 0.47704095 0 0
0.039999999 0.073802255 0.0059182369 0.47704095 0 0
0.039999999 0.074508525 0.0059198146 0.47704095 0 0
0.039999999 0.075215168 0.0059214076 0.47704095 0 0
0.039999999 0.075922199 0.005923016 0.47704095 0 0
0.039999999 0.076629609 0.0059246402 0.47704095 0 0
0.039999999 0.077337414 0.0059262794 0.47704095 0 0
0.039999999 0.078045607 0.0059279348 0.47704095 0 0
0.039999999 0.078754202 0.0059296051 0.47704095 0 0
0.039999999 0.079463199 0.0059312913 0.47704095 0 0
0.039999999 0.00034325122 0.0051490068 0.47704095 0 0
0.039999999 0.0010297553 0.0051490199 0.47704095 0 0
0.039999999 0.0017162645 0.005149045 0.47704095 0 0
0.039999999 0.0024027822 0.0051490832 0.47704095 0 0
0.039999999 0.0030893118 0.005149134 0.47704095 0 0
0.039999999 0.0037758565 0.0051491978 0.47704095 0 0
0.039999999 0.00446242 0.0051492737 0.47704095 0 0
0.039999999 0.0051490054 0.0051493626 0.47704095 0 0
0.039999999 0.0058356165 0.0051494646 0.47704095 0 0
0.039999999 0.0065222559 0.0051495787 0.47704095 0 0
0.039999999 0.007208928 0.0051497058 0.47704095 0 0
0.039999999 0.0078956354 0.0051498455 0.47704095 0 0
0.039999999 0.0085823815 0.0051499982 0.47704095 0 0
0.039999999 0.0092691705 0.0051501635 0.47704095 0 0
0.039999999 0.009956005 0.0051503414 0.47704095 0 0
0.039999999 0.010642889 0.0051505319 0.47704095 0 0
0.039999999 0.011329825 0.0051507354 0.47704095 0 0
0.039999999 0.012016817 0.0051509514 0.47704095 0 0
0.039999999 0.012703869 0.0051511801 0.47704095 0 0
0.039999999 0.013390983 0.0051514218 0.47704095 0 0
0.039999999 0.014078164 0.005151676 0.47704095 0 0
0.039999999 0.014765413 0.0051519433 0.47704095 0 0
0.039999999 0.015452736 0.0051522232 0.47704095 0 0
0.039999999 0.016140135 0.0051525156 0.47704095 0 0
0.039999999 0.016827615 0.0051528206 0.47704095 0 0
0.039999999 0.017515177 0.0051531387 0.47704095 0 0
0.039999999 0.018202826 0.0051534697 0.47704095 0 0
0.039999999 0.018890565 0.0051538129 0.47704095 0 0
0.039999999 0.019578397 0.0051541696 0.47704095 0 0
0.039999999 0.020266326 0.0051545384 0.47704095 0 0
0.039999999 0.020954354 0.0051549203 0.47704095 0 0
0.039999999 0.021642487 0.0051553152 0.47704095 0 0
0.039999999 0.022330727 0.0051557226 0.47704095 0 0
0.039999999 0.023019077 0.0051561426 0.47704095 0 0
0.039999999 0.023707543 0.0051565757 0.47704095 0 0
0.039999999 0.024396123 0.0051570213 0.47704095 0 0
0.039999999 0.025084825 0.00515748 0.47704095 0 0
0.039999999 0.025773652 0.0051579513 0.47704095 0 0
0.039999999 0.026462607 0.0051584356 0.47704095 0 0
0.039999999 0.027151693 0.0051589324 0.47704095 0 0
0.039999999 0.027840912 0.0051594423 0.47704095 0 0
0.039999999 0.02853027 0.0051599653 0.47704095 0 0
0.039999999 0.029219769 0.0051605008 0.47704095 0 0
0.039999999 0.029909413 0.0051610488 0.47704095 0 0
0.039999999 0.030599205 0.0051616104 0.47704095 0 0
0.039999999 0.031289149 0.0051621846 0.47704095 0 0
0.039999999 0.031979248 0.0051627713 0.47704095 0 0
0.039999999 0.032669507 0.0051633711 0.47704095 0 0
0.039999999 0.033359926 0.0051639839 0.47704095 0 0
0.039999999 0.034050513 0.0051646098 0.47704095 0 0
0.039999999 0.034741268 0.0051652482 0.47704095 0 0
