# .PCD v0.7 - Point Cloud Data file format
VERSION 0.7
FIELDS x y z vp_x vp_y vp_z
SIZE 4 4 4 4 4 4
TYPE F F F F F F
COUNT 1 1 1 1 1 1
WIDTH 904
HEIGHT 1
VIEWPOINT 0 0 0 1 0 0 0
POINTS 904
DATA ascii
0.0030862421 0 0.023647251 -0.25019264 -0.4048202 0
0.0039719208 5.5511151e-17 0.023670543 -0.25019264 -0.4048202 0
0.0048593488 5.5511151e-17 0.02369394 -0.25019264 -0.4048202 0
0.0057485341 0 0.023717441 -0.25019264 -0.4048202 0
0.006639488 0 0.023741048 -0.25019264 -0.4048202 0
0.0075322189 0 0.023764759 -0.25019264 -0.4048202 0
0.008426738 5.5511151e-17 0.023788579 -0.25019264 -0.4048202 0
0.0093230531 0 0.023812504 -0.25019264 -0.4048202 0
0.039999999 0.046291973 0.02656229 -0.25019264 -0.4048202 0
0.011121116 0 0.023860676 -0.25019264 -0.4048202 0
0.012022882 0 0.023884924 -0.25019264 -0.4048202 0
0.012926484 0 0.02390928 -0.25019264 -0.4048202 0
0.013831935 0 0.023933746 -0.25019264 -0.4048202 0
0.014739242 5.5511151e-17 0.02395832 -0.25019264 -0.4048202 0
0.039999999 0.037082355 0.026179895 -0.25019264 -0.4048202 0
0.016559469 0 0.024007797 -0.25019264 -0.4048202 0
0.017472409 0 0.024032703 -0.25019264 -0.4048202 0
0.039999999 0.032576073 0.025993655 -0.25019264 -0.4048202 0
0.019303996 0 0.024082847 -0.25019264 -0.4048202 0
0.020222662 0 0.024108086 -0.25019264 -0.4048202 0
0.021143259 0 0.024133438 -0.25019264 -0.4048202 0
0.022065796 0 0.024158904 -0.25019264 -0.4048202 0
0.022990284 0 0.024184482 -0.25019264 -0.4048202 0
0.023916734 0 0.024210175 -0.25019264 -0.4048202 0
0.039999999 0.022305975 0.02557141 -0.25019264 -0.4048202 0
0.025775565 0 0.024261905 -0.25019264 -0.4048202 0
0.026707966 0 0.024287943 -0.25019264 -0.4048202 0
0.027642375 0 0.024314098 -0.25019264 -0.4048202 0
0.028578799 5.5511151e-17 0.024340369 -0.25019264 -0.4048202 0
0.02951725 0 0.024366755 -0.25019264 -0.4048202 0
0.030457743 0 0.02439326 -0.25019264 -0.4048202 0
0.031400286 0 0.024419883 -0.25019264 -0.4048202 0
0.032344889 0 0.024446625 -0.25019264 -0.4048202 0
0.033291567 0 0.024473486 -0.25019264 -0.4048202 0
0.034240328 0 0.024500467 -0.25019264 -0.4048202 0
0.035191189 0 0.024527567 -0.25019264 -0.4048202 0
0.039999999 0.0054513537 0.024885446 -0.25019264 -0.4048202 0
0.039999999 0.0040874262 0.024830334 -0.25019264 -0.4048202 0
0.038056463 0 0.024609596 -0.25019264 -0.4048202 0
0.039015826 0 0.024637181 -0.25019264 -0.4048202 0
0.039977346 5.5511151e-17 0.02466489 -0.25019264 -0.4048202 0
0 0.078831822 0.026108142 -0.25019264 -0.4048202 0
0 0.07697583 0.026029136 -0.25019264 -0.4048202 0
0 0.075131029 0.02595067 -0.25019264 -0.4048202 0
0 0.073297314 0.025872739 -0.25019264 -0.4048202 0
0 0.071474575 0.025795339 -0.25019264 -0.4048202 0
0 0.069662705 0.025718464 -0.25019264 -0.4048202 0
0 0.067861594 0.025642108 -0.25019264 -0.4048202 0
0 0.066071145 0.025566269 -0.25019264 -0.4048202 0
0 0.064291254 0.025490938 -0.25019264 -0.4048202 0
0 0.062521815 0.025416113 -0.25019264 -0.4048202 0
0 0.060762726 0.025341788 -0.25019264 -0.4048202 0
0 0.059013896 0.025267959 -0.25019264 -0.4048202 0
0 0.057275217 0.025194621 -0.25019264 -0.4048202 0
0 0.0555466 0.025121767 -0.25019264 -0.4048202 0
0 0.053827949 0.025049398 -0.25019264 -0.4048202 0
0 0.052119162 0.024977503 -0.25019264 -0.4048202 0
0 0.050420158 0.024906084 -0.25019264 -0.4048202 0
0 0.048730832 0.024835132 -0.25019264 -0.4048202 0
0 0.047051102 0.024764644 -0.25019264 -0.4048202 0
0 0.045380879 0.024694616 -0.25019264 -0.4048202 0
0 0.043720067 0.024625042 -0.25019264 -0.4048202 0
0 0.042068586 0.024555922 -0.25019264 -0.4048202 0
0 0.040426344 0.024487248 -0.25019264 -0.4048202 0
0 0.038793258 0.024419015 -0.25019264 -0.4048202 0
0 0.037169244 0.024351224 -0.25019264 -0.4048202 0
0 0.035554215 0.024283867 -0.25019264 -0.4048202 0
0 0.033948097 0.024216941 -0.25019264 -0.4048202 0
0 0.032350801 0.024150442 -0.25019264 -0.4048202 0
0 0.03076225 0.024084369 -0.25019264 -0.4048202 0
0 0.029182363 0.024018712 -0.25019264 -0.4048202 0
0 0.027611064 0.023953473 -0.25019264 -0.4048202 0
0 0.026048273 0.023888646 -0.25019264 -0.4048202 0
0 0.024493914 0.023824228 -0.25019264 -0.4048202 0
0 0.022947913 0.023760214 -0.25019264 -0.4048202 0
0 0.021410193 0.023696603 -0.25019264 -0.4048202 0
0 0.01988068 0.023633389 -0.25019264 -0.4048202 0
0 0.018359303 0.023570567 -0.25019264 -0.4048202 0
0 0.01684599 0.023508139 -0.25019264 -0.4048202 0
0 0.015340666 0.023446098 -0.25019264 -0.4048202 0
0 0.013843264 0.023384441 -0.25019264 -0.4048202 0
0 0.012353714 0.023323163 -0.25019264 -0.4048202 0
0 0.010871945 0.023262264 -0.25019264 -0.4048202 0
0 0.0093978914 0.023201739 -0.25019264 -0.4048202 0
0 0.0079314839 0.023141587 -0.25019264 -0.4048202 0
0 0.0064726574 0.023081802 -0.25019264 -0.4048202 0
0 0.0050213458 0.02302238 -0.25019264 -0.4048202 0
0 0.0035774834 0.022963321 -0.25019264 -0.4048202 0
0 0.0021410065 0.02290462 -0.25019264 -0.4048202 0
0 0.00071185152 0.022846276 -0.25019264 -0.4048202 0
0.00043960271 5.5511151e-17 0.022828324 -0.25019264 -0.4048202 0
0.0013200925 5.5511151e-17 0.022850573 -0.25019264 -0.4048202 0
0.0022023025 0 0.022872925 -0.25019264 -0.4048202 0
0.0030862421 0 0.022895375 -0.25019264 -0.4048202 0
0.039999999 0.057383668 0.026166566 -0.25019264 -0.4048202 0
0.0048593488 5.5511151e-17 0.02294058 -0.25019264 -0.4048202 0
0.0057485341 0 0.022963334 -0.25019264 -0.4048202 0
0.006639488 0 0.02298619 -0.25019264 -0.4048202 0
0.0075322189 0 0.023009149 -0.25019264 -0.4048202 0
0.008426738 0 0.023032211 -0.25019264 -0.4048202 0
0.0093230531 0 0.023055375 -0.25019264 -0.4048202 0
0.010221176 0 0.023078643 -0.25019264 -0.4048202 0
0.011121116 0 0.023102015 -0.25019264 -0.4048202 0
0.012022882 0 0.023125492 -0.25019264 -0.4048202 0
0.012926484 0 0.023149073 -0.25019264 -0.4048202 0
0.013831935 0 0.02317276 -0.25019264 -0.4048202 0
0.014739242 5.5511151e-17 0.023196554 -0.25019264 -0.4048202 0
0.015648417 0 0.023220453 -0.25019264 -0.4048202 0
0.016559469 0 0.023244459 -0.25019264 -0.4048202 0
0.017472409 0 0.023268571 -0.25019264 -0.4048202 0
0.018387249 0 0.023292793 -0.25019264 -0.4048202 0
0.039999999 0.031088183 0.02510776 -0.25019264 -0.4048202 0
0.039999999 0.029607296 0.025048688 -0.25019264 -0.4048202 0
0.021143259 0 0.023366105 -0.25019264 -0.4048202 0
0.022065796 0 0.023390761 -0.25019264 -0.4048202 0
0.022990284 0 0.023415526 -0.25019264 -0.4048202 0
0.023916734 5.5511151e-17 0.023440402 -0.25019264 -0.4048202 0
0.024845157 0 0.023465389 -0.25019264 -0.4048202 0
0.039999999 0.020865949 0.024701275 -0.25019264 -0.4048202 0
0.026707966 0 0.023515698 -0.25019264 -0.4048202 0
0.027642375 0 0.02354102 -0.25019264 -0.4048202 0
0.028578799 0 0.023566455 -0.25019264 -0.4048202 0
0.02951725 0 0.023592003 -0.25019264 -0.4048202 0
0.030457743 5.5511151e-17 0.023617666 -0.25019264 -0.4048202 0
0.031400286 0 0.023643441 -0.25019264 -0.4048202 0
0.032344889 0 0.023669334 -0.25019264 -0.4048202 0
0.033291567 0 0.02369534 -0.25019264 -0.4048202 0
0.034240328 0 0.023721462 -0.25019264 -0.4048202 0
0.035191189 0 0.023747701 -0.25019264 -0.4048202 0
0.036144156 0 0.023774058 -0.25019264 -0.4048202 0
0.037099242 5.5511151e-17 0.02380053 -0.25019264 -0.4048202 0
0.038056463 5.5511151e-17 0.023827121 -0.25019264 -0.4048202 0
0.039015826 0 0.023853831 -0.25019264 -0.4048202 0
0.039977346 5.5511151e-17 0.023880659 -0.25019264 -0.4048202 0
0 0.078831822 0.025250889 -0.25019264 -0.4048202 0
0 0.07697583 0.025174478 -0.25019264 -0.4048202 0
0 0.075131029 0.025098588 -0.25019264 -0.4048202 0
0 0.073297314 0.025023216 -0.25019264 -0.4048202 0
0 0.071474575 0.024948359 -0.25019264 -0.4048202 0
0 0.069662705 0.024874007 -0.25019264 -0.4048202 0
0 0.067861594 0.024800159 -0.25019264 -0.4048202 0
0 0.066071145 0.024726808 -0.25019264 -0.4048202 0
0 0.064291254 0.024653951 -0.25019264 -0.4048202 0
0 0.062521815 0.024581583 -0.25019264 -0.4048202 0
0 0.060762726 0.024509698 -0.25019264 -0.4048202 0
0 0.059013896 0.024438294 -0.25019264 -0.4048202 0
0 0.057275217 0.024367362 -0.25019264 -0.4048202 0
0 0.0555466 0.024296902 -0.25019264 -0.4048202 0
0 0.053827949 0.02422691 -0.25019264 -0.4048202 0
0 0.052119162 0.024157377 -0.25019264 -0.4048202 0
0 0.050420158 0.024088301 -0.25019264 -0.4048202 0
0 0.048730832 0.024019679 -0.25019264 -0.4048202 0
0 0.047051102 0.023951504 -0.25019264 -0.4048202 0
0 0.045380879 0.023883777 -0.25019264 -0.4048202 0
0 0.043720067 0.023816487 -0.25019264 -0.4048202 0
0 0.042068586 0.023749636 -0.25019264 -0.4048202 0
0 0.040426344 0.023683216 -0.25019264 -0.4048202 0
0 0.038793258 0.023617227 -0.25019264 -0.4048202 0
0 0.037169244 0.02355166 -0.25019264 -0.4048202 0
0 0.035554215 0.023486514 -0.25019264 -0.4048202 0
0 0.033948097 0.023421787 -0.25019264 -0.4048202 0
0 0.032350801 0.023357471 -0.25019264 -0.4048202 0
0 0.03076225 0.023293566 -0.25019264 -0.4048202 0
0 0.029182363 0.023230067 -0.25019264 -0.4048202 0
0 0.027611064 0.023166969 -0.25019264 -0.4048202 0
0 0.026048273 0.023104271 -0.25019264 -0.4048202 0
0 0.024493914 0.023041967 -0.25019264 -0.4048202 0
0 0.022947913 0.022980057 -0.25019264 -0.4048202 0
0 0.021410193 0.022918532 -0.25019264 -0.4048202 0
0 0.01988068 0.022857394 -0.25019264 -0.4048202 0
0 0.018359303 0.022796636 -0.25019264 -0.4048202 0
0 0.01684599 0.022736257 -0.25019264 -0.4048202 0
0 0.015340666 0.022676254 -0.25019264 -0.4048202 0
0 0.013843264 0.022616619 -0.25019264 -0.4048202 0
0 0.012353714 0.022557355 -0.25019264 -0.4048202 0
0 0.010871945 0.022498457 -0.25019264 -0.4048202 0
0 0.0093978914 0.022439919 -0.25019264 -0.4048202 0
0 0.0079314839 0.02238174 -0.25019264 -0.4048202 0
0 0.0064726574 0.022323918 -0.25019264 -0.4048202 0
0 0.0050213458 0.022266448 -0.25019264 -0.4048202 0
0 0.0035774834 0.022209328 -0.25019264 -0.4048202 0
0 0.0021410065 0.022152554 -0.25019264 -0.4048202 0
0 0.00071185152 0.022096125 -0.25019264 -0.4048202 0
0.00043960271 0 0.022078764 -0.25019264 -0.4048202 0
0.0013200925 5.5511151e-17 0.022100283 -0.25019264 -0.4048202 0
0.0022023025 5.5511151e-17 0.022121899 -0.25019264 -0.4048202 0
0.039999999 0.058999926 0.025370901 -0.25019264 -0.4048202 0
0.0039719208 0 0.022165425 -0.25019264 -0.4048202 0
0.039999999 0.055775475 0.025244268 -0.25019264 -0.4048202 0
0.039999999 0.054175284 0.025181517 -0.25019264 -0.4048202 0
0.006639488 0 0.022231447 -0.25019264 -0.4048202 0
0.0075322189 0 0.022253651 -0.25019264 -0.4048202 0
0.039999999 0.049422029 0.024995491 -0.25019264 -0.4048202 0
0.0093230531 0 0.022298358 -0.25019264 -0.4048202 0
0.010221176 0 0.022320863 -0.25019264 -0.4048202 0
0.011121116 0 0.022343468 -0.25019264 -0.4048202 0
0.012022882 0 0.022366174 -0.25019264 -0.4048202 0
0.012926484 0 0.022388982 -0.25019264 -0.4048202 0
0.039999999 0.040122632 0.024633184 -0.25019264 -0.4048202 0
0.014739242 0 0.022434903 -0.25019264 -0.4048202 0
0.015648417 0 0.022458017 -0.25019264 -0.4048202 0
0.016559469 0 0.022481235 -0.25019264 -0.4048202 0
0.017472409 0 0.022504555 -0.25019264 -0.4048202 0
0.018387249 0 0.022527982 -0.25019264 -0.4048202 0
0.019303996 0 0.02255151 -0.25019264 -0.4048202 0
0.020222662 0 0.022575146 -0.25019264 -0.4048202 0
0.021143259 0 0.022598887 -0.25019264 -0.4048202 0
0.039999999 0.02666631 0.024112936 -0.25019264 -0.4048202 0
0.022990284 0 0.022646684 -0.25019264 -0.4048202 0
0.023916734 0 0.022670744 -0.25019264 -0.4048202 0
0.024845157 5.5511151e-17 0.02269491 -0.25019264 -0.4048202 0
0.025775565 0 0.022719186 -0.25019264 -0.4048202 0
0.026707966 0 0.022743568 -0.25019264 -0.4048202 0
0.027642375 5.5511151e-17 0.022768058 -0.25019264 -0.4048202 0
0.028578799 5.5511151e-17 0.022792658 -0.25019264 -0.4048202 0
0.02951725 0 0.022817368 -0.25019264 -0.4048202 0
0.039999999 0.013764095 0.023618834 -0.25019264 -0.4048202 0
0.031400286 0 0.022867117 -0.25019264 -0.4048202 0
0.032344889 5.5511151e-17 0.022892158 -0.25019264 -0.4048202 0
0.033291567 0 0.022917312 -0.25019264 -0.4048202 0
0.034240328 0 0.022942577 -0.25019264 -0.4048202 0
0.039999999 0.0068213521 0.023354972 -0.25019264 -0.4048202 0
0.039999999 0.0054513537 0.023303077 -0.25019264 -0.4048202 0
0.037099242 5.5511151e-17 0.023019047 -0.25019264 -0.4048202 0
0.039999999 0.0027295237 0.023200147 -0.25019264 -0.4048202 0
0.039015826 0 0.023070598 -0.25019264 -0.4048202 0
0.039977346 5.5511151e-17 0.023096545 -0.25019264 -0.4048202 0
0 0.078831822 0.024393763 -0.25019264 -0.4048202 0
0 0.07697583 0.024319945 -0.25019264 -0.4048202 0
0 0.075131029 0.024246631 -0.25019264 -0.4048202 0
0 0.073297314 0.024173819 -0.25019264 -0.4048202 0
0 0.071474575 0.024101499 -0.25019264 -0.4048202 0
0 0.069662705 0.024029672 -0.25019264 -0.4048202 0
0 0.067861594 0.023958331 -0.25019264 -0.4048202 0
0 0.066071145 0.02388747 -0.25019264 -0.4048202 0
0 0.064291254 0.023817087 -0.25019264 -0.4048202 0
0 0.062521815 0.023747176 -0.25019264 -0.4048202 0
0 0.060762726 0.023677731 -0.25019264 -0.4048202 0
0 0.059013896 0.02360875 -0.25019264 -0.4048202 0
0 0.057275217 0.023540227 -0.25019264 -0.4048202 0
0 0.0555466 0.023472158 -0.25019264 -0.4048202 0
0 0.053827949 0.02340454 -0.25019264 -0.4048202 0
0 0.052119162 0.023337368 -0.25019264 -0.4048202 0
0 0.050420158 0.023270637 -0.25019264 -0.4048202 0
0 0.048730832 0.023204343 -0.25019264 -0.4048202 0
0 0.047051102 0.023138484 -0.25019264 -0.4048202 0
0 0.045380879 0.023073055 -0.25019264 -0.4048202 0
0 0.043720067 0.02300805 -0.25019264 -0.4048202 0
0 0.042068586 0.022943469 -0.25019264 -0.4048202 0
0 0.040426344 0.022879303 -0.25019264 -0.4048202 0
0 0.038793258 0.022815552 -0.25019264 -0.4048202 0
0 0.037169244 0.022752212 -0.25019264 -0.4048202 0
0 0.035554215 0.022689277 -0.25019264 -0.4048202 0
0 0.033948097 0.022626746 -0.25019264 -0.4048202 0
0 0.032350801 0.022564616 -0.25019264 -0.4048202 0
0 0.03076225 0.022502879 -0.25019264 -0.4048202 0
0 0.029182363 0.022441534 -0.25019264 -0.4048202 0
0 0.027611064 0.022380579 -0.25019264 -0.4048202 0
0 0.026048273 0.02232001 -0.25019264 -0.4048202 0
0 0.024493914 0.02225982 -0.25019264 -0.4048202 0
0 0.022947913 0.022200011 -0.25019264 -0.4048202 0
0 0.021410193 0.022140576 -0.25019264 -0.4048202 0
0 0.01988068 0.022081513 -0.25019264 -0.4048202 0
0 0.018359303 0.022022817 -0.25019264 -0.4048202 0
0 0.01684599 0.021964489 -0.25019264 -0.4048202 0
0 0.015340666 0.021906521 -0.25019264 -0.4048202 0
0 0.013843264 0.021848911 -0.25019264 -0.4048202 0
0 0.012353714 0.021791659 -0.25019264 -0.4048202 0
0 0.010871945 0.021734759 -0.25019264 -0.4048202 0
0 0.0093978914 0.021678209 -0.25019264 -0.4048202 0
0 0.0079314839 0.021622006 -0.25019264 -0.4048202 0
0 0.0064726574 0.021566145 -0.25019264 -0.4048202 0
0 0.0050213458 0.021510625 -0.25019264 -0.4048202 0
0 0.0035774834 0.021455444 -0.25019264 -0.4048202 0
0 0.0021410065 0.021400599 -0.25019264 -0.4048202 0
0 0.00071185152 0.021346085 -0.25019264 -0.4048202 0
0.00043960271 0 0.021329312 -0.25019264 -0.4048202 0
0.0013200925 0 0.021350101 -0.25019264 -0.4048202 0
0.0022023025 0 0.021370985 -0.25019264 -0.4048202 0
0.0030862421 0 0.021391962 -0.25019264 -0.4048202 0
0.039999999 0.057383668 0.02444835 -0.25019264 -0.4048202 0
0.0048593488 5.5511151e-17 0.021434197 -0.25019264 -0.4048202 0
0.0057485341 0 0.021455457 -0.25019264 -0.4048202 0
0.006639488 0 0.021476813 -0.25019264 -0.4048202 0
0.039999999 0.050998624 0.024206581 -0.25019264 -0.4048202 0
0.039999999 0.049422029 0.024147032 -0.25019264 -0.4048202 0
0.0093230531 0 0.021541454 -0.25019264 -0.4048202 0
0.010221176 5.5511151e-17 0.021563195 -0.25019264 -0.4048202 0
0.011121116 0 0.021585032 -0.25019264 -0.4048202 0
0.012022882 0 0.021606967 -0.25019264 -0.4048202 0
0.012926484 0 0.021629 -0.25019264 -0.4048202 0
0.013831935 0 0.021651132 -0.25019264 -0.4048202 0
0.039999999 0.038598847 0.023739876 -0.25019264 -0.4048202 0
0.015648417 0 0.021695692 -0.25019264 -0.4048202 0
0.039999999 0.035573103 0.023626577 -0.25019264 -0.4048202 0
0.017472409 0 0.021740651 -0.25019264 -0.4048202 0
0.039999999 0.032576073 0.023514584 -0.25019264 -0.4048202 0
0.019303996 0 0.021786014 -0.25019264 -0.4048202 0
0.039999999 0.029607296 0.023403877 -0.25019264 -0.4048202 0
0.021143259 0 0.021831781 -0.25019264 -0.4048202 0
0.022065796 0 0.021854816 -0.25019264 -0.4048202 0
0.022990284 0 0.021877956 -0.25019264 -0.4048202 0
0.023916734 0 0.0219012 -0.25019264 -0.4048202 0
0.024845157 5.5511151e-17 0.021924544 -0.25019264 -0.4048202 0
0.039999999 0.020865949 0.023079276 -0.25019264 -0.4048202 0
0.026707966 0 0.02197155 -0.25019264 -0.4048202 0
0.027642375 0 0.021995209 -0.25019264 -0.4048202 0
0.028578799 0 0.022018975 -0.25019264 -0.4048202 0
0.02951725 5.5511151e-17 0.022042844 -0.25019264 -0.4048202 0
0.039999999 0.013764095 0.022817105 -0.25019264 -0.4048202 0
0.039999999 0.012363018 0.022765553 -0.25019264 -0.4048202 0
0.032344889 0 0.022115098 -0.25019264 -0.4048202 0
0.033291567 0 0.022139397 -0.25019264 -0.4048202 0
0.034240328 0 0.022163805 -0.25019264 -0.4048202 0
0.035191189 0 0.022188319 -0.25019264 -0.4048202 0
0.036144156 0 0.022212945 -0.25019264 -0.4048202 0
0.039999999 0.0040874262 0.022462212 -0.25019264 -0.4048202 0
0.038056463 5.5511151e-17 0.022262525 -0.25019264 -0.4048202 0
0.039015826 0 0.022287481 -0.25019264 -0.4048202 0
0.039999999 3.1606312e-05 0.022314288 -0.25019264 -0.4048202 0
0 0.078831822 0.023536757 -0.25019264 -0.4048202 0
0 0.07697583 0.023465531 -0.25019264 -0.4048202 0
0 0.075131029 0.023394793 -0.25019264 -0.4048202 0
0 0.073297314 0.023324538 -0.25019264 -0.4048202 0
0 0.071474575 0.023254761 -0.25019264 -0.4048202 0
0 0.069662705 0.023185458 -0.25019264 -0.4048202 0
0 0.067861594 0.023116622 -0.25019264 -0.4048202 0
0 0.066071145 0.023048252 -0.25019264 -0.4048202 0
0 0.064291254 0.02298034 -0.25019264 -0.4048202 0
0 0.062521815 0.022912884 -0.25019264 -0.4048202 0
0 0.060762726 0.022845879 -0.25019264 -0.4048202 0
0 0.059013896 0.022779321 -0.25019264 -0.4048202 0
0 0.057275217 0.022713207 -0.25019264 -0.4048202 0
0 0.0555466 0.02264753 -0.25019264 -0.4048202 0
0 0.053827949 0.022582287 -0.25019264 -0.4048202 0
0 0.052119162 0.022517474 -0.25019264 -0.4048202 0
0 0.050420158 0.022453088 -0.25019264 -0.4048202 0
0 0.048730832 0.022389125 -0.25019264 -0.4048202 0
0 0.047051102 0.022325579 -0.25019264 -0.4048202 0
0 0.045380879 0.022262448 -0.25019264 -0.4048202 0
0 0.043720067 0.022199728 -0.25019264 -0.4048202 0
0 0.042068586 0.022137413 -0.25019264 -0.4048202 0
0 0.040426344 0.022075502 -0.25019264 -0.4048202 0
0 0.038793258 0.022013992 -0.25019264 -0.4048202 0
0 0.037169244 0.021952877 -0.25019264 -0.4048202 0
0 0.035554215 0.021892155 -0.25019264 -0.4048202 0
0 0.033948097 0.02183182 -0.25019264 -0.4048202 0
0 0.032350801 0.021771871 -0.25019264 -0.4048202 0
0 0.03076225 0.021712303 -0.25019264 -0.4048202 0
0 0.029182363 0.021653114 -0.25019264 -0.4048202 0
0 0.027611064 0.021594301 -0.25019264 -0.4048202 0
0 0.026048273 0.021535859 -0.25019264 -0.4048202 0
0 0.024493914 0.021477785 -0.25019264 -0.4048202 0
0 0.022947913 0.021420076 -0.25019264 -0.4048202 0
0 0.021410193 0.021362729 -0.25019264 -0.4048202 0
0 0.01988068 0.02130574 -0.25019264 -0.4048202 0
0 0.018359303 0.021249108 -0.25019264 -0.4048202 0
0 0.01684599 0.021192826 -0.25019264 -0.4048202 0
0 0.015340666 0.021136897 -0.25019264 -0.4048202 0
0 0.013843264 0.021081312 -0.25019264 -0.4048202 0
0 0.012353714 0.021026069 -0.25019264 -0.4048202 0
0 0.010871945 0.02097117 -0.25019264 -0.4048202 0
0 0.0093978914 0.020916605 -0.25019264 -0.4048202 0
0 0.0079314839 0.020862376 -0.25019264 -0.4048202 0
0 0.0064726574 0.020808479 -0.25019264 -0.4048202 0
0 0.0050213458 0.020754911 -0.25019264 -0.4048202 0
0 0.0035774834 0.020701667 -0.25019264 -0.4048202 0
0 0.0021410065 0.02064875 -0.25019264 -0.4048202 0
0 0.00071185152 0.02059615 -0.25019264 -0.4048202 0
0.00043960271 5.5511151e-17 0.020579966 -0.25019264 -0.4048202 0
0.0013200925 0 0.020600025 -0.25019264 -0.4048202 0
0.0022023025 0 0.020620175 -0.25019264 -0.4048202 0
0.0030862421 0 0.020640414 -0.25019264 -0.4048202 0
0.0039719208 0 0.020660745 -0.25019264 -0.4048202 0
0.0048593488 0 0.020681167 -0.25019264 -0.4048202 0
0.0057485341 5.5511151e-17 0.02070168 -0.25019264 -0.4048202 0
0.039999999 0.05258302 0.023413949 -0.25019264 -0.4048202 0
0.0075322189 0 0.020742983 -0.25019264 -0.4048202 0
0.008426738 5.5511151e-17 0.020763772 -0.25019264 -0.4048202 0
0.0093230531 5.5511151e-17 0.020784656 -0.25019264 -0.4048202 0
0.010221176 0 0.020805631 -0.25019264 -0.4048202 0
0.011121116 0 0.020826701 -0.25019264 -0.4048202 0
0.039999999 0.043192342 0.023072232 -0.25019264 -0.4048202 0
0.012926484 0 0.020869127 -0.25019264 -0.4048202 0
0.013831935 5.5511151e-17 0.02089048 -0.25019264 -0.4048202 0
0.014739242 5.5511151e-17 0.02091193 -0.25019264 -0.4048202 0
0.015648417 0 0.020933475 -0.25019264 -0.4048202 0
0.016559469 0 0.020955116 -0.25019264 -0.4048202 0
0.039999999 0.034071028 0.022742337 -0.25019264 -0.4048202 0
0.018387249 0 0.02099869 -0.25019264 -0.4048202 0
0.019303996 0 0.021020623 -0.25019264 -0.4048202 0
0.020222662 0 0.021042652 -0.25019264 -0.4048202 0
0.021143259 5.5511151e-17 0.021064781 -0.25019264 -0.4048202 0
0.022065796 0 0.021087009 -0.25019264 -0.4048202 0
0.022990284 0 0.021109335 -0.25019264 -0.4048202 0
0.023916734 0 0.021131761 -0.25019264 -0.4048202 0
0.024845157 0 0.021154288 -0.25019264 -0.4048202 0
0.025775565 5.5511151e-17 0.021176914 -0.25019264 -0.4048202 0
0.026707966 5.5511151e-17 0.021199642 -0.25019264 -0.4048202 0
0.027642375 0 0.021222468 -0.25019264 -0.4048202 0
0.039999999 0.016585389 0.022115819 -0.25019264 -0.4048202 0
0.02951725 0 0.021268431 -0.25019264 -0.4048202 0
0.030457743 0 0.021291567 -0.25019264 -0.4048202 0
0.039999999 0.012363018 0.021965748 -0.25019264 -0.4048202 0
0.032344889 0 0.021338146 -0.25019264 -0.4048202 0
0.033291567 0 0.021361591 -0.25019264 -0.4048202 0
0.034240328 5.5511151e-17 0.021385141 -0.25019264 -0.4048202 0
0.035191189 5.5511151e-17 0.021408794 -0.25019264 -0.4048202 0
0.036144156 0 0.021432554 -0.25019264 -0.4048202 0
0.037099242 0 0.02145642 -0.25019264 -0.4048202 0
0.038056463 0 0.021480393 -0.25019264 -0.4048202 0
0.039015826 5.5511151e-17 0.021504471 -0.25019264 -0.4048202 0
0.039977346 0 0.021528658 -0.25019264 -0.4048202 0
0 0.078831822 0.022679865 -0.25019264 -0.4048202 0
0 0.07697583 0.022611234 -0.25019264 -0.4048202 0
0 0.075131029 0.022543073 -0.25019264 -0.4048202 0
0 0.073297314 0.022475375 -0.25019264 -0.4048202 0
0 0.071474575 0.022408137 -0.25019264 -0.4048202 0
0 0.069662705 0.022341358 -0.25019264 -0.4048202 0
0 0.067861594 0.022275029 -0.25019264 -0.4048202 0
0 0.066071145 0.022209147 -0.25019264 -0.4048202 0
0 0.064291254 0.022143707 -0.25019264 -0.4048202 0
0 0.062521815 0.022078708 -0.25019264 -0.4048202 0
0 0.060762726 0.022014143 -0.25019264 -0.4048202 0
0 0.059013896 0.021950006 -0.25019264 -0.4048202 0
0 0.057275217 0.021886298 -0.25019264 -0.4048202 0
0 0.0555466 0.021823013 -0.25019264 -0.4048202 0
0 0.053827949 0.021760145 -0.25019264 -0.4048202 0
0 0.052119162 0.021697693 -0.25019264 -0.4048202 0
0 0.050420158 0.021635652 -0.25019264 -0.4048202 0
0 0.048730832 0.021574015 -0.25019264 -0.4048202 0
0 0.047051102 0.021512784 -0.25019264 -0.4048202 0
0 0.045380879 0.02145195 -0.25019264 -0.4048202 0
0 0.043720067 0.021391513 -0.25019264 -0.4048202 0
0 0.042068586 0.021331469 -0.25019264 -0.4048202 0
0 0.040426344 0.021271812 -0.25019264 -0.4048202 0
0 0.038793258 0.021212541 -0.25019264 -0.4048202 0
0 0.037169244 0.021153649 -0.25019264 -0.4048202 0
0 0.035554215 0.021095138 -0.25019264 -0.4048202 0
0 0.033948097 0.021036999 -0.25019264 -0.4048202 0
0 0.032350801 0.020979233 -0.25019264 -0.4048202 0
0 0.03076225 0.020921836 -0.25019264 -0.4048202 0
0 0.029182363 0.020864801 -0.25019264 -0.4048202 0
0 0.027611064 0.020808129 -0.25019264 -0.4048202 0
0 0.026048273 0.020751813 -0.25019264 -0.4048202 0
0 0.024493914 0.020695854 -0.25019264 -0.4048202 0
0 0.022947913 0.020640247 -0.25019264 -0.4048202 0
0 0.021410193 0.020584987 -0.25019264 -0.4048202 0
0 0.01988068 0.020530073 -0.25019264 -0.4048202 0
0 0.018359303 0.020475503 -0.25019264 -0.4048202 0
0 0.01684599 0.02042127 -0.25019264 -0.4048202 0
0 0.015340666 0.020367377 -0.25019264 -0.4048202 0
0 0.013843264 0.020313816 -0.25019264 -0.4048202 0
0 0.012353714 0.020260585 -0.25019264 -0.4048202 0
0 0.010871945 0.020207683 -0.25019264 -0.4048202 0
0 0.0093978914 0.020155106 -0.25019264 -0.4048202 0
0 0.0079314839 0.020102851 -0.25019264 -0.4048202 0
0 0.0064726574 0.020050915 -0.25019264 -0.4048202 0
0 0.0050213458 0.019999297 -0.25019264 -0.4048202 0
0 0.0035774834 0.019947993 -0.25019264 -0.4048202 0
0 0.0021410065 0.019897001 -0.25019264 -0.4048202 0
0 0.00071185152 0.019846316 -0.25019264 -0.4048202 0
0.00043960271 0 0.019830722 -0.25019264 -0.4048202 0
0.0013200925 0 0.019850051 -0.25019264 -0.4048202 0
0.0022023025 0 0.019869467 -0.25019264 -0.4048202 0
0.0030862421 0 0.019888969 -0.25019264 -0.4048202 0
0.0039719208 5.5511151e-17 0.01990856 -0.25019264 -0.4048202 0
0.0048593488 5.5511151e-17 0.019928237 -0.25019264 -0.4048202 0
0.039999999 0.054175284 0.022617556 -0.25019264 -0.4048202 0
0.039999999 0.05258302 0.02256153 -0.25019264 -0.4048202 0
0.039999999 0.050998624 0.022505837 -0.25019264 -0.4048202 0
0.008426738 0 0.020007836 -0.25019264 -0.4048202 0
0.0093230531 5.5511151e-17 0.02002796 -0.25019264 -0.4048202 0
0.010221176 0 0.020048171 -0.25019264 -0.4048202 0
0.039999999 0.044738386 0.022286328 -0.25019264 -0.4048202 0
0.012022882 0 0.02008887 -0.25019264 -0.4048202 0
0.012926484 0 0.020109355 -0.25019264 -0.4048202 0
0.013831935 5.5511151e-17 0.020129932 -0.25019264 -0.4048202 0
0.014739242 5.5511151e-17 0.0201506 -0.25019264 -0.4048202 0
0.015648417 5.5511151e-17 0.020171361 -0.25019264 -0.4048202 0
0.016559469 0 0.020192215 -0.25019264 -0.4048202 0
0.017472409 0 0.020213161 -0.25019264 -0.4048202 0
0.018387249 0 0.020234201 -0.25019264 -0.4048202 0
0.019303996 0 0.020255337 -0.25019264 -0.4048202 0
0.020222662 0 0.020276563 -0.25019264 -0.4048202 0
0.039999999 0.028133357 0.021708507 -0.25019264 -0.4048202 0
0.022065796 5.5511151e-17 0.020319305 -0.25019264 -0.4048202 0
0.022990284 5.5511151e-17 0.020340819 -0.25019264 -0.4048202 0
0.023916734 0 0.020362429 -0.25019264 -0.4048202 0
0.024845157 0 0.020384135 -0.25019264 -0.4048202 0
0.025775565 0 0.020405937 -0.25019264 -0.4048202 0
0.026707966 0 0.020427836 -0.25019264 -0.4048202 0
0.027642375 0 0.020449834 -0.25019264 -0.4048202 0
0.028578799 0 0.020471929 -0.25019264 -0.4048202 0
0.02951725 5.5511151e-17 0.020494124 -0.25019264 -0.4048202 0
0.030457743 0 0.020516416 -0.25019264 -0.4048202 0
0.039999999 0.012363018 0.021166053 -0.25019264 -0.4048202 0
0.032344889 0 0.020561298 -0.25019264 -0.4048202 0
0.033291567 0 0.02058389 -0.25019264 -0.4048202 0
0.034240328 0 0.020606583 -0.25019264 -0.4048202 0
0.035191189 0 0.020629376 -0.25019264 -0.4048202 0
0.036144156 0 0.020652272 -0.25019264 -0.4048202 0
0.037099242 5.5511151e-17 0.020675268 -0.25019264 -0.4048202 0
0.038056463 0 0.020698367 -0.25019264 -0.4048202 0
0.039015826 0 0.02072157 -0.25019264 -0.4048202 0
0.039977346 0 0.020744875 -0.25019264 -0.4048202 0
0 0.078831822 0.021823088 -0.25019264 -0.4048202 0
0 0.07697583 0.021757049 -0.25019264 -0.4048202 0
0 0.075131029 0.021691462 -0.25019264 -0.4048202 0
0 0.073297314 0.021626322 -0.25019264 -0.4048202 0
0 0.071474575 0.021561624 -0.25019264 -0.4048202 0
0 0.069662705 0.021497367 -0.25019264 -0.4048202 0
0 0.067861594 0.021433543 -0.25019264 -0.4048202 0
0 0.066071145 0.02137015 -0.25019264 -0.4048202 0
0 0.064291254 0.021307183 -0.25019264 -0.4048202 0
0 0.062521815 0.02124464 -0.25019264 -0.4048202 0
0 0.060762726 0.021182513 -0.25019264 -0.4048202 0
0 0.059013896 0.021120802 -0.25019264 -0.4048202 0
0 0.057275217 0.0210595 -0.25019264 -0.4048202 0
0 0.0555466 0.020998605 -0.25019264 -0.4048202 0
0 0.053827949 0.020938111 -0.25019264 -0.4048202 0
0 0.052119162 0.020878019 -0.25019264 -0.4048202 0
0 0.050420158 0.020818319 -0.25019264 -0.4048202 0
0 0.048730832 0.020759013 -0.25019264 -0.4048202 0
0 0.047051102 0.020700093 -0.25019264 -0.4048202 0
0 0.045380879 0.02064156 -0.25019264 -0.4048202 0
0 0.043720067 0.020583406 -0.25019264 -0.4048202 0
0 0.042068586 0.020525629 -0.25019264 -0.4048202 0
0 0.040426344 0.020468226 -0.25019264 -0.4048202 0
0 0.038793258 0.020411193 -0.25019264 -0.4048202 0
0 0.037169244 0.020354528 -0.25019264 -0.4048202 0
0 0.035554215 0.020298226 -0.25019264 -0.4048202 0
0 0.033948097 0.020242285 -0.25019264 -0.4048202 0
0 0.032350801 0.0201867 -0.25019264 -0.4048202 0
0 0.03076225 0.020131471 -0.25019264 -0.4048202 0
0 0.029182363 0.020076592 -0.25019264 -0.4048202 0
0 0.027611064 0.020022059 -0.25019264 -0.4048202 0
0 0.026048273 0.019967873 -0.25019264 -0.4048202 0
0 0.024493914 0.019914025 -0.25019264 -0.4048202 0
0 0.022947913 0.019860519 -0.25019264 -0.4048202 0
0 0.021410193 0.019807348 -0.25019264 -0.4048202 0
0 0.01988068 0.019754509 -0.25019264 -0.4048202 0
0 0.018359303 0.019701999 -0.25019264 -0.4048202 0
0 0.01684599 0.019649817 -0.25019264 -0.4048202 0
0 0.015340666 0.019597957 -0.25019264 -0.4048202 0
0 0.013843264 0.019546419 -0.25019264 -0.4048202 0
0 0.012353714 0.0194952 -0.25019264 -0.4048202 0
0 0.010871945 0.019444296 -0.25019264 -0.4048202 0
0 0.0093978914 0.019393705 -0.25019264 -0.4048202 0
0 0.0079314839 0.019343425 -0.25019264 -0.4048202 0
0 0.0064726574 0.019293452 -0.25019264 -0.4048202 0
0 0.0050213458 0.019243784 -0.25019264 -0.4048202 0
0 0.0035774834 0.019194417 -0.25019264 -0.4048202 0
0 0.0021410065 0.019145351 -0.25019264 -0.4048202 0
0 0.00071185152 0.019096581 -0.25019264 -0.4048202 0
0.00043960271 5.5511151e-17 0.019081576 -0.25019264 -0.4048202 0
0.0013200925 5.5511151e-17 0.019100174 -0.25019264 -0.4048202 0
0.039999999 0.06062432 0.021982023 -0.25019264 -0.4048202 0
0.0030862421 0 0.019137623 -0.25019264 -0.4048202 0
0.0039719208 5.5511151e-17 0.019156473 -0.25019264 -0.4048202 0
0.0048593488 0 0.019175408 -0.25019264 -0.4048202 0
0.0057485341 0 0.019194428 -0.25019264 -0.4048202 0
0.006639488 5.5511151e-17 0.019213533 -0.25019264 -0.4048202 0
0.0075322189 5.5511151e-17 0.019232724 -0.25019264 -0.4048202 0
0.008426738 0 0.019252 -0.25019264 -0.4048202 0
0.0093230531 0 0.019271363 -0.25019264 -0.4048202 0
0.010221176 0 0.019290812 -0.25019264 -0.4048202 0
0.039999999 0.044738386 0.021444416 -0.25019264 -0.4048202 0
0.012022882 0 0.019329971 -0.25019264 -0.4048202 0
0.012926484 0 0.019349683 -0.25019264 -0.4048202 0
0.013831935 5.5511151e-17 0.019369483 -0.25019264 -0.4048202 0
0.014739242 0 0.01938937 -0.25019264 -0.4048202 0
0.015648417 0 0.019409347 -0.25019264 -0.4048202 0
0.016559469 0 0.019429412 -0.25019264 -0.4048202 0
0.017472409 0 0.019449567 -0.25019264 -0.4048202 0
0.018387249 0 0.019469814 -0.25019264 -0.4048202 0
0.019303996 5.5511151e-17 0.019490149 -0.25019264 -0.4048202 0
0.020222662 0 0.019510577 -0.25019264 -0.4048202 0
0.021143259 0 0.019531094 -0.25019264 -0.4048202 0
0.022065796 0 0.019551702 -0.25019264 -0.4048202 0
0.022990284 0 0.019572403 -0.25019264 -0.4048202 0
0.023916734 0 0.019593196 -0.25019264 -0.4048202 0
0.024845157 0 0.019614082 -0.25019264 -0.4048202 0
0.025775565 5.5511151e-17 0.019635061 -0.25019264 -0.4048202 0
0.026707966 0 0.019656133 -0.25019264 -0.4048202 0
0.027642375 0 0.0196773 -0.25019264 -0.4048202 0
0.039999999 0.016585389 0.020505605 -0.25019264 -0.4048202 0
0.02951725 0 0.019719915 -0.25019264 -0.4048202 0
0.030457743 0 0.019741366 -0.25019264 -0.4048202 0
0.031400286 0 0.019762913 -0.25019264 -0.4048202 0
0.032344889 0 0.019784555 -0.25019264 -0.4048202 0
0.039999999 0.0095797544 0.020274993 -0.25019264 -0.4048202 0
0.034240328 5.5511151e-17 0.019828128 -0.25019264 -0.4048202 0
0.035191189 0 0.01985006 -0.25019264 -0.4048202 0
0.036144156 0 0.01987209 -0.25019264 -0.4048202 0
0.037099242 5.5511151e-17 0.019894218 -0.25019264 -0.4048202 0
0.038056463 0 0.019916445 -0.25019264 -0.4048202 0
0.039015826 0 0.019938771 -0.25019264 -0.4048202 0
0.039977346 5.5511151e-17 0.019961195 -0.25019264 -0.4048202 0
0 0.078831822 0.020966418 -0.25019264 -0.4048202 0
0 0.07697583 0.020902971 -0.25019264 -0.4048202 0
0 0.075131029 0.020839958 -0.25019264 -0.4048202 0
0 0.073297314 0.020777375 -0.25019264 -0.4048202 0
0 0.071474575 0.020715218 -0.25019264 -0.4048202 0
0 0.069662705 0.020653483 -0.25019264 -0.4048202 0
0 0.067861594 0.020592164 -0.25019264 -0.4048202 0
0 0.066071145 0.020531259 -0.25019264 -0.4048202 0
0 0.064291254 0.020470766 -0.25019264 -0.4048202 0
0 0.062521815 0.020410676 -0.25019264 -0.4048202 0
0 0.060762726 0.020350989 -0.25019264 -0.4048202 0
0 0.059013896 0.020291699 -0.25019264 -0.4048202 0
0 0.057275217 0.020232804 -0.25019264 -0.4048202 0
0 0.0555466 0.0201743 -0.25019264 -0.4048202 0
0 0.053827949 0.020116182 -0.25019264 -0.4048202 0
0 0.052119162 0.020058447 -0.25019264 -0.4048202 0
0 0.050420158 0.020001093 -0.25019264 -0.4048202 0
0 0.048730832 0.019944113 -0.25019264 -0.4048202 0
0 0.047051102 0.019887507 -0.25019264 -0.4048202 0
0 0.045380879 0.01983127 -0.25019264 -0.4048202 0
0 0.043720067 0.0197754 -0.25019264 -0.4048202 0
0 0.042068586 0.019719891 -0.25019264 -0.4048202 0
0 0.040426344 0.01966474 -0.25019264 -0.4048202 0
0 0.038793258 0.019609947 -0.25019264 -0.4048202 0
0 0.037169244 0.019555505 -0.25019264 -0.4048202 0
0 0.035554215 0.019501414 -0.25019264 -0.4048202 0
0 0.033948097 0.019447669 -0.25019264 -0.4048202 0
0 0.032350801 0.019394267 -0.25019264 -0.4048202 0
0 0.03076225 0.019341204 -0.25019264 -0.4048202 0
0 0.029182363 0.01928848 -0.25019264 -0.4048202 0
0 0.027611064 0.019236088 -0.25019264 -0.4048202 0
0 0.026048273 0.019184029 -0.25019264 -0.4048202 0
0 0.024493914 0.019132297 -0.25019264 -0.4048202 0
0 0.022947913 0.01908089 -0.25019264 -0.4048202 0
0 0.021410193 0.019029805 -0.25019264 -0.4048202 0
0 0.01988068 0.018979041 -0.25019264 -0.4048202 0
0 0.018359303 0.018928593 -0.25019264 -0.4048202 0
0 0.01684599 0.018878458 -0.25019264 -0.4048202 0
0 0.015340666 0.018828634 -0.25019264 -0.4048202 0
0 0.013843264 0.018779121 -0.25019264 -0.4048202 0
0 0.012353714 0.018729912 -0.25019264 -0.4048202 0
0 0.010871945 0.018681007 -0.25019264 -0.4048202 0
0 0.0093978914 0.018632401 -0.25019264 -0.4048202 0
0 0.0079314839 0.018584095 -0.25019264 -0.4048202 0
0 0.0064726574 0.018536083 -0.25019264 -0.4048202 0
0 0.0050213458 0.018488364 -0.25019264 -0.4048202 0
0 0.0035774834 0.018440936 -0.25019264 -0.4048202 0
0 0.0021410065 0.018393796 -0.25019264 -0.4048202 0
0 0.00071185152 0.018346941 -0.25019264 -0.4048202 0
0.039999999 0.063897796 0.021226175 -0.25019264 -0.4048202 0
0.0013200925 0 0.018350393 -0.25019264 -0.4048202 0
0.0022023025 0 0.018368343 -0.25019264 -0.4048202 0
0.0030862421 5.5511151e-17 0.018386371 -0.25019264 -0.4048202 0
0.0039719208 0 0.018404482 -0.25019264 -0.4048202 0
0.0048593488 0 0.018422673 -0.25019264 -0.4048202 0
0.0057485341 0 0.018440947 -0.25019264 -0.4048202 0
0.006639488 0 0.018459301 -0.25019264 -0.4048202 0
0.0075322189 0 0.018477738 -0.25019264 -0.4048202 0
0.008426738 5.5511151e-17 0.018496258 -0.25019264 -0.4048202 0
0.039999999 0.047853168 0.020703474 -0.25019264 -0.4048202 0
0.039999999 0.046291973 0.020652894 -0.25019264 -0.4048202 0
0.011121116 0 0.018552316 -0.25019264 -0.4048202 0
0.012022882 0 0.018571168 -0.25019264 -0.4048202 0
0.012926484 0 0.018590108 -0.25019264 -0.4048202 0
0.013831935 0 0.018609129 -0.25019264 -0.4048202 0
0.014739242 5.5511151e-17 0.018628236 -0.25019264 -0.4048202 0
0.039999999 0.037082355 0.020355571 -0.25019264 -0.4048202 0
0.016559469 0 0.018666707 -0.25019264 -0.4048202 0
0.017472409 0 0.018686071 -0.25019264 -0.4048202 0
0.039999999 0.032576073 0.020210763 -0.25019264 -0.4048202 0
0.019303996 5.5511151e-17 0.01872506 -0.25019264 -0.4048202 0
0.020222662 0 0.018744683 -0.25019264 -0.4048202 0
0.021143259 0 0.018764395 -0.25019264 -0.4048202 0
0.022065796 0 0.018784195 -0.25019264 -0.4048202 0
0.022990284 0 0.018804085 -0.25019264 -0.4048202 0
0.023916734 0 0.018824061 -0.25019264 -0.4048202 0
0.039999999 0.022305975 0.019882455 -0.25019264 -0.4048202 0
0.039999999 0.020865949 0.019836618 -0.25019264 -0.4048202 0
0.026707966 0 0.018884528 -0.25019264 -0.4048202 0
0.027642375 5.5511151e-17 0.018904863 -0.25019264 -0.4048202 0
0.028578799 0 0.018925289 -0.25019264 -0.4048202 0
0.02951725 0 0.018945806 -0.25019264 -0.4048202 0
0.030457743 0 0.018966414 -0.25019264 -0.4048202 0
0.031400286 0 0.018987115 -0.25019264 -0.4048202 0
0.032344889 0 0.019007906 -0.25019264 -0.4048202 0
0.033291567 0 0.019028792 -0.25019264 -0.4048202 0
0.034240328 0 0.019049769 -0.25019264 -0.4048202 0
0.035191189 0 0.019070841 -0.25019264 -0.4048202 0
0.039999999 0.0054513537 0.019349102 -0.25019264 -0.4048202 0
0.037099242 0 0.019113267 -0.25019264 -0.4048202 0
0.038056463 0 0.01913462 -0.25019264 -0.4048202 0
0.039999999 0.0013775991 0.019221257 -0.25019264 -0.4048202 0
0.039977346 0 0.019177614 -0.25019264 -0.4048202 0
0 0.078831822 0.020109851 -0.25019264 -0.4048202 0
0 0.07697583 0.020048996 -0.25019264 -0.4048202 0
0 0.075131029 0.019988557 -0.25019264 -0.4048202 0
0 0.073297314 0.019928532 -0.25019264 -0.4048202 0
0 0.071474575 0.019868914 -0.25019264 -0.4048202 0
0 0.069662705 0.019809701 -0.25019264 -0.4048202 0
0 0.067861594 0.019750888 -0.25019264 -0.4048202 0
0 0.066071145 0.019692471 -0.25019264 -0.4048202 0
0 0.064291254 0.019634448 -0.25019264 -0.4048202 0
0 0.062521815 0.019576814 -0.25019264 -0.4048202 0
0 0.060762726 0.019519566 -0.25019264 -0.4048202 0
0 0.059013896 0.019462697 -0.25019264 -0.4048202 0
0 0.057275217 0.019406209 -0.25019264 -0.4048202 0
0 0.0555466 0.019350095 -0.25019264 -0.4048202 0
0 0.053827949 0.019294351 -0.25019264 -0.4048202 0
0 0.052119162 0.019238975 -0.25019264 -0.4048202 0
0 0.050420158 0.019183964 -0.25019264 -0.4048202 0
0 0.048730832 0.019129312 -0.25019264 -0.4048202 0
0 0.047051102 0.019075019 -0.25019264 -0.4048202 0
0 0.045380879 0.019021079 -0.25019264 -0.4048202 0
0 0.043720067 0.018967491 -0.25019264 -0.4048202 0
0 0.042068586 0.018914251 -0.25019264 -0.4048202 0
0 0.040426344 0.018861353 -0.25019264 -0.4048202 0
0 0.038793258 0.018808799 -0.25019264 -0.4048202 0
0 0.037169244 0.018756581 -0.25019264 -0.4048202 0
0 0.035554215 0.018704699 -0.25019264 -0.4048202 0
0 0.033948097 0.018653151 -0.25019264 -0.4048202 0
0 0.032350801 0.01860193 -0.25019264 -0.4048202 0
0 0.03076225 0.018551035 -0.25019264 -0.4048202 0
0 0.029182363 0.018500464 -0.25019264 -0.4048202 0
0 0.027611064 0.018450214 -0.25019264 -0.4048202 0
0 0.026048273 0.01840028 -0.25019264 -0.4048202 0
0 0.024493914 0.018350661 -0.25019264 -0.4048202 0
0 0.022947913 0.018301355 -0.25019264 -0.4048202 0
0 0.021410193 0.018252358 -0.25019264 -0.4048202 0
0 0.01988068 0.018203666 -0.25019264 -0.4048202 0
0 0.018359303 0.018155279 -0.25019264 -0.4048202 0
0 0.01684599 0.018107193 -0.25019264 -0.4048202 0
0 0.015340666 0.018059406 -0.25019264 -0.4048202 0
0 0.013843264 0.018011915 -0.25019264 -0.4048202 0
0 0.012353714 0.017964715 -0.25019264 -0.4048202 0
0 0.010871945 0.017917808 -0.25019264 -0.4048202 0
0 0.0093978914 0.01787119 -0.25019264 -0.4048202 0
0 0.0079314839 0.017824857 -0.25019264 -0.4048202 0
0 0.0064726574 0.017778806 -0.25019264 -0.4048202 0
0 0.0050213458 0.017733037 -0.25019264 -0.4048202 0
0 0.0035774834 0.017687546 -0.25019264 -0.4048202 0
0 0.0021410065 0.017642332 -0.25019264 -0.4048202 0
0 0.00071185152 0.017597392 -0.25019264 -0.4048202 0
0.00043960271 0 0.017583564 -0.25019264 -0.4048202 0
0.0013200925 0 0.017600702 -0.25019264 -0.4048202 0
0.0022023025 0 0.017617919 -0.25019264 -0.4048202 0
0.0030862421 0 0.017635211 -0.25019264 -0.4048202 0
0.0039719208 0 0.017652581 -0.25019264 -0.4048202 0
0.0048593488 0 0.01767003 -0.25019264 -0.4048202 0
0.039999999 0.054175284 0.020054603 -0.25019264 -0.4048202 0
0.006639488 0 0.017705161 -0.25019264 -0.4048202 0
0.0075322189 0 0.017722845 -0.25019264 -0.4048202 0
0.008426738 5.5511151e-17 0.017740607 -0.25019264 -0.4048202 0
0.0093230531 0 0.017758451 -0.25019264 -0.4048202 0
0.039999999 0.046291973 0.019809136 -0.25019264 -0.4048202 0
0.011121116 0 0.017794376 -0.25019264 -0.4048202 0
0.039999999 0.043192342 0.01971296 -0.25019264 -0.4048202 0
0.012926484 0 0.017830621 -0.25019264 -0.4048202 0
0.013831935 0 0.017848868 -0.25019264 -0.4048202 0
0.039999999 0.038598847 0.019570798 -0.25019264 -0.4048202 0
0.015648417 0 0.017885603 -0.25019264 -0.4048202 0
0.016559469 0 0.017904093 -0.25019264 -0.4048202 0
0.039999999 0.034071028 0.019431097 -0.25019264 -0.4048202 0
0.018387249 0 0.017941322 -0.25019264 -0.4048202 0
0.019303996 0 0.017960062 -0.25019264 -0.4048202 0
0.020222662 0 0.017978884 -0.25019264 -0.4048202 0
0.039999999 0.028133357 0.019248564 -0.25019264 -0.4048202 0
0.022065796 5.5511151e-17 0.018016782 -0.25019264 -0.4048202 0
0.039999999 0.025206102 0.019158859 -0.25019264 -0.4048202 0
0.023916734 0 0.018055018 -0.25019264 -0.4048202 0
0.024845157 0 0.018074265 -0.25019264 -0.4048202 0
0.025775565 5.5511151e-17 0.018093597 -0.25019264 -0.4048202 0
0.026707966 0 0.018113015 -0.25019264 -0.4048202 0
0.039999999 0.01800571 0.018939024 -0.25019264 -0.4048202 0
0.028578799 0 0.018152112 -0.25019264 -0.4048202 0
0.02951725 0 0.018171791 -0.25019264 -0.4048202 0
0.039999999 0.013764095 0.018810079 -0.25019264 -0.4048202 0
0.031400286 5.5511151e-17 0.018211411 -0.25019264 -0.4048202 0
0.032344889 0 0.018231355 -0.25019264 -0.4048202 0
0.039999999 0.0095797544 0.01868329 -0.25019264 -0.4048202 0
0.034240328 5.5511151e-17 0.018271506 -0.25019264 -0.4048202 0
0.035191189 0 0.018291717 -0.25019264 -0.4048202 0
0.036144156 5.5511151e-17 0.018312018 -0.25019264 -0.4048202 0
0.037099242 0 0.018332409 -0.25019264 -0.4048202 0
0.038056463 5.5511151e-17 0.01835289 -0.25019264 -0.4048202 0
0.039015826 0 0.018373463 -0.25019264 -0.4048202 0
0.039977346 0 0.018394127 -0.25019264 -0.4048202 0
0 0.078831822 0.019253384 -0.25019264 -0.4048202 0
0 0.07697583 0.019195121 -0.25019264 -0.4048202 0
0 0.075131029 0.019137256 -0.25019264 -0.4048202 0
0 0.073297314 0.019079788 -0.25019264 -0.4048202 0
0 0.071474575 0.019022709 -0.25019264 -0.4048202 0
0 0.069662705 0.018966017 -0.25019264 -0.4048202 0
0 0.067861594 0.01890971 -0.25019264 -0.4048202 0
0 0.066071145 0.01885378 -0.25019264 -0.4048202 0
0 0.064291254 0.018798228 -0.25019264 -0.4048202 0
0 0.062521815 0.018743049 -0.25019264 -0.4048202 0
0 0.060762726 0.018688237 -0.25019264 -0.4048202 0
0 0.059013896 0.018633792 -0.25019264 -0.4048202 0
0 0.057275217 0.018579708 -0.25019264 -0.4048202 0
0 0.0555466 0.018525984 -0.25019264 -0.4048202 0
0 0.053827949 0.018472616 -0.25019264 -0.4048202 0
0 0.052119162 0.018419597 -0.25019264 -0.4048202 0
0 0.050420158 0.018366929 -0.25019264 -0.4048202 0
0 0.048730832 0.018314606 -0.25019264 -0.4048202 0
0 0.047051102 0.018262625 -0.25019264 -0.4048202 0
0 0.045380879 0.018210983 -0.25019264 -0.4048202 0
0 0.043720067 0.018159676 -0.25019264 -0.4048202 0
0 0.042068586 0.018108703 -0.25019264 -0.4048202 0
0 0.040426344 0.01805806 -0.25019264 -0.4048202 0
0 0.038793258 0.018007742 -0.25019264 -0.4048202 0
0 0.037169244 0.017957749 -0.25019264 -0.4048202 0
0 0.035554215 0.017908078 -0.25019264 -0.4048202 0
0 0.033948097 0.017858723 -0.25019264 -0.4048202 0
0 0.032350801 0.017809683 -0.25019264 -0.4048202 0
0 0.03076225 0.017760957 -0.25019264 -0.4048202 0
0 0.029182363 0.017712539 -0.25019264 -0.4048202 0
0 0.027611064 0.017664429 -0.25019264 -0.4048202 0
0 0.026048273 0.017616622 -0.25019264 -0.4048202 0
0 0.024493914 0.017569117 -0.25019264 -0.4048202 0
0 0.022947913 0.01752191 -0.25019264 -0.4048202 0
0 0.021410193 0.017475 -0.25019264 -0.4048202 0
0 0.01988068 0.017428383 -0.25019264 -0.4048202 0
0 0.018359303 0.017382056 -0.25019264 -0.4048202 0
0 0.01684599 0.017336018 -0.25019264 -0.4048202 0
0 0.015340666 0.017290266 -0.25019264 -0.4048202 0
0 0.013843264 0.017244797 -0.25019264 -0.4048202 0
0 0.012353714 0.017199609 -0.25019264 -0.4048202 0
0 0.010871945 0.017154699 -0.25019264 -0.4048202 0
0 0.0093978914 0.017110065 -0.25019264 -0.4048202 0
0 0.0079314839 0.017065706 -0.25019264 -0.4048202 0
0 0.0064726574 0.017021617 -0.25019264 -0.4048202 0
0 0.0050213458 0.016977796 -0.25019264 -0.4048202 0
0 0.0035774834 0.016934244 -0.25019264 -0.4048202 0
0 0.0021410065 0.016890954 -0.25019264 -0.4048202 0
0 0.00071185152 0.016847929 -0.25019264 -0.4048202 0
0.00043960271 0 0.016834689 -0.25019264 -0.4048202 0
0.0013200925 0 0.016851099 -0.25019264 -0.4048202 0
0.0022023025 0 0.01686758 -0.25019264 -0.4048202 0
0.0030862421 0 0.016884137 -0.25019264 -0.4048202 0
0.0039719208 0 0.016900769 -0.25019264 -0.4048202 0
0.0048593488 0 0.016917473 -0.25019264 -0.4048202 0
0.0057485341 5.5511151e-17 0.016934253 -0.25019264 -0.4048202 0
0.006639488 0 0.016951108 -0.25019264 -0.4048202 0
0.0075322189 0 0.01696804 -0.25019264 -0.4048202 0
0.008426738 0 0.016985046 -0.25019264 -0.4048202 0
0.0093230531 0 0.017002128 -0.25019264 -0.4048202 0
0.010221176 0 0.017019287 -0.25019264 -0.4048202 0
0.011121116 5.5511151e-17 0.017036524 -0.25019264 -0.4048202 0
0.012022882 5.5511151e-17 0.017053835 -0.25019264 -0.4048202 0
0.012926484 0 0.017071227 -0.25019264 -0.4048202 0
0.013831935 0 0.017088694 -0.25019264 -0.4048202 0
0.014739242 5.5511151e-17 0.017106241 -0.25019264 -0.4048202 0
0.015648417 0 0.017123865 -0.25019264 -0.4048202 0
0.016559469 0 0.017141568 -0.25019264 -0.4048202 0
0.039999999 0.034071028 0.018603539 -0.25019264 -0.4048202 0
0.018387249 5.5511151e-17 0.017177211 -0.25019264 -0.4048202 0
0.019303996 0 0.017195152 -0.25019264 -0.4048202 0
0.020222662 0 0.017213173 -0.25019264 -0.4048202 0
0.021143259 0 0.017231274 -0.25019264 -0.4048202 0
0.022065796 0 0.017249458 -0.25019264 -0.4048202 0
0.022990284 0 0.017267721 -0.25019264 -0.4048202 0
0.023916734 5.5511151e-17 0.017286066 -0.25019264 -0.4048202 0
0.024845157 0 0.017304493 -0.25019264 -0.4048202 0
0.039999999 0.020865949 0.018215893 -0.25019264 -0.4048202 0
0.026707966 5.5511151e-17 0.017341591 -0.25019264 -0.4048202 0
0.027642375 0 0.017360266 -0.25019264 -0.4048202 0
0.028578799 0 0.017379023 -0.25019264 -0.4048202 0
0.02951725 0 0.017397864 -0.25019264 -0.4048202 0
0.039999999 0.013764095 0.018008968 -0.25019264 -0.4048202 0
0.031400286 0 0.017435797 -0.25019264 -0.4048202 0
0.032344889 0 0.017454891 -0.25019264 -0.4048202 0
0.033291567 0 0.01747407 -0.25019264 -0.4048202 0
0.034240328 5.5511151e-17 0.017493334 -0.25019264 -0.4048202 0
0.035191189 0 0.017512683 -0.25019264 -0.4048202 0
0.036144156 0 0.01753212 -0.25019264 -0.4048202 0
0.037099242 0 0.017551642 -0.25019264 -0.4048202 0
0.038056463 5.5511151e-17 0.01757125 -0.25019264 -0.4048202 0
0.039015826 5.5511151e-17 0.017590947 -0.25019264 -0.4048202 0
0.039977346 0 0.017610732 -0.25019264 -0.4048202 0
0 0.078831822 0.018397013 -0.25019264 -0.4048202 0
0 0.07697583 0.01834134 -0.25019264 -0.4048202 0
0 0.075131029 0.018286049 -0.25019264 -0.4048202 0
0 0.073297314 0.018231137 -0.25019264 -0.4048202 0
0 0.071474575 0.018176597 -0.25019264 -0.4048202 0
0 0.069662705 0.018122427 -0.25019264 -0.4048202 0
0 0.067861594 0.018068623 -0.25019264 -0.4048202 0
0 0.066071145 0.018015182 -0.25019264 -0.4048202 0
0 0.064291254 0.017962102 -0.25019264 -0.4048202 0
0 0.062521815 0.017909376 -0.25019264 -0.4048202 0
0 0.060762726 0.017857002 -0.25019264 -0.4048202 0
0 0.059013896 0.017804978 -0.25019264 -0.4048202 0
0 0.057275217 0.017753301 -0.25019264 -0.4048202 0
0 0.0555466 0.017701967 -0.25019264 -0.4048202 0
0 0.053827949 0.017650971 -0.25019264 -0.4048202 0
0 0.052119162 0.017600311 -0.25019264 -0.4048202 0
0 0.050420158 0.017549986 -0.25019264 -0.4048202 0
0 0.048730832 0.017499989 -0.25019264 -0.4048202 0
0 0.047051102 0.01745032 -0.25019264 -0.4048202 0
0 0.045380879 0.017400974 -0.25019264 -0.4048202 0
0 0.043720067 0.017351951 -0.25019264 -0.4048202 0
0 0.042068586 0.017303245 -0.25019264 -0.4048202 0
0 0.040426344 0.017254854 -0.25019264 -0.4048202 0
0 0.038793258 0.017206775 -0.25019264 -0.4048202 0
0 0.037169244 0.017159006 -0.25019264 -0.4048202 0
0 0.035554215 0.017111544 -0.25019264 -0.4048202 0
