# .PCD v0.7 - Point Cloud Data file format
VERSION 0.7
FIELDS x y z vp_x vp_y vp_z
SIZE 4 4 4 4 4 4
TYPE F F F F F F
COUNT 1 1 1 1 1 1
WIDTH 686
HEIGHT 1
VIEWPOINT 0 0 0 1 0 0 0
POINTS 686
DATA ascii
0.039999999 0.010577118 0.032344013 0.38593423 -0.23852047 -0.14741376
0.025673168 0.021823552 0.039999999 0.38593423 -0.23852047 -0.14741376
0.039999999 0.012365477 0.032750472 0.38593423 -0.23852047 -0.14741376
0.039999999 0.013262925 0.032954607 0.38593423 -0.23852047 -0.14741376
0.039999999 0.014162569 0.033159342 0.38593423 -0.23852047 -0.14741376
0.027302796 0.024372026 0.039999999 0.38593423 -0.23852047 -0.14741376
0.027710916 0.025009047 0.039999999 0.38593423 -0.23852047 -0.14741376
0.039999999 0.016874805 0.033777222 0.38593423 -0.23852047 -0.14741376
0.039999999 0.017783361 0.033984415 0.38593423 -0.23852047 -0.14741376
0.039999999 0.018694177 0.034192231 0.38593423 -0.23852047 -0.14741376
0.039999999 0.019607268 0.034400672 0.38593423 -0.23852047 -0.14741376
0.039999999 0.020522645 0.034609739 0.38593423 -0.23852047 -0.14741376
0.039999999 0.021440322 0.034819443 0.38593423 -0.23852047 -0.14741376
0.039999999 0.022360312 0.03502978 0.38593423 -0.23852047 -0.14741376
0.039999999 0.02328263 0.035240758 0.38593423 -0.23852047 -0.14741376
0.039999999 0.024207288 0.035452377 0.38593423 -0.23852047 -0.14741376
0.039999999 0.025134301 0.035664644 0.38593423 -0.23852047 -0.14741376
0.032219533 0.032014489 0.039999999 0.38593423 -0.23852047 -0.14741376
0.039999999 0.026995445 0.036091134 0.38593423 -0.23852047 -0.14741376
0.039999999 0.027929604 0.03630536 0.38593423 -0.23852047 -0.14741376
0.039999999 0.028866172 0.03652025 0.38593423 -0.23852047 -0.14741376
0.039999999 0.029805165 0.036735803 0.38593423 -0.23852047 -0.14741376
0.039999999 0.030746598 0.036952026 0.38593423 -0.23852047 -0.14741376
0.039999999 0.031690482 0.03716892 0.38593423 -0.23852047 -0.14741376
0.039999999 0.032636836 0.037386488 0.38593423 -0.23852047 -0.14741376
0.039999999 0.033585668 0.037604738 0.38593423 -0.23852047 -0.14741376
0.039999999 0.034536999 0.037823673 0.38593423 -0.23852047 -0.14741376
0.039999999 0.035490841 0.03804329 0.38593423 -0.23852047 -0.14741376
0.039999999 0.036447212 0.038263604 0.38593423 -0.23852047 -0.14741376
0.039999999 0.03740612 0.038484607 0.38593423 -0.23852047 -0.14741376
0.039999999 0.038367588 0.038706314 0.38593423 -0.23852047 -0.14741376
0.039999999 0.039331626 0.038928721 0.38593423 -0.23852047 -0.14741376
0.039999999 0.04029825 0.039151832 0.38593423 -0.23852047 -0.14741376
0.039999999 0.041267477 0.039375659 0.38593423 -0.23852047 -0.14741376
0.039999999 0.042239323 0.039600197 0.38593423 -0.23852047 -0.14741376
0.039999999 0.043213803 0.039825458 0.38593423 -0.23852047 -0.14741376
0.035734992 0.047676463 0.042362686 0.38593423 -0.23852047 -0.14741376
0.036191419 0.048294034 0.042344552 0.38593423 -0.23852047 -0.14741376
0.036623679 0.048931614 0.042339683 0.38593423 -0.23852047 -0.14741376
0.037056055 0.049569361 0.042334922 0.38593423 -0.23852047 -0.14741376
0.037435319 0.050251391 0.042359259 0.38593423 -0.23852047 -0.14741376
0.03780254 0.050944012 0.04239041 0.38593423 -0.23852047 -0.14741376
0.038166549 0.05163997 0.042423576 0.38593423 -0.23852047 -0.14741376
0.038465746 0.052390877 0.042492434 0.38593423 -0.23852047 -0.14741376
0.038765263 0.053142581 0.042561483 0.38593423 -0.23852047 -0.14741376
0.039037578 0.053918291 0.04264579 0.38593423 -0.23852047 -0.14741376
0.039264049 0.054734021 0.042755648 0.38593423 -0.23852047 -0.14741376
0.039490864 0.055550985 0.042865787 0.38593423 -0.23852047 -0.14741376
0.039651338 0.056425977 0.043012872 0.38593423 -0.23852047 -0.14741376
0.039797179 0.057315405 0.043168575 0.38593423 -0.23852047 -0.14741376
0.039904602 0.058239814 0.043346044 0.38593423 -0.23852047 -0.14741376
0.039957374 0.059213519 0.043554317 0.38593423 -0.23852047 -0.14741376
0.039988708 0.060208339 0.04377516 0.38593423 -0.23852047 -0.14741376
0.039930433 0.061283559 0.044046342 0.38593423 -0.23852047 -0.14741376
0.039846387 0.062384482 0.044332683 0.38593423 -0.23852047 -0.14741376
0.039649103 0.063587673 0.044682767 0.38593423 -0.23852047 -0.14741376
0.03937649 0.06486097 0.045075778 0.38593423 -0.23852047 -0.14741376
0.038995191 0.066234387 0.045530431 0.38593423 -0.23852047 -0.14741376
0.038383093 0.067816563 0.046114959 0.38593423 -0.23852047 -0.14741376
0.037481494 0.06966152 0.046862587 0.38593423 -0.23852047 -0.14741376
0.03592965 0.072092071 0.04797532 0.38593423 -0.23852047 -0.14741376
0.010769298 0 0.039590277 0.38593423 -0.23852047 -0.14741376
0.012172597 0 0.039088968 0.38593423 -0.23852047 -0.14741376
0.010746599 0.0018075412 0.039999999 0.38593423 -0.23852047 -0.14741376
0.014956892 2.7755576e-17 0.038094644 0.38593423 -0.23852047 -0.14741376
0.016338022 2.7755576e-17 0.037601575 0.38593423 -0.23852047 -0.14741376
0.017711893 0 0.037111208 0.38593423 -0.23852047 -0.14741376
0.012347956 0.0043760785 0.039999999 0.38593423 -0.23852047 -0.14741376
0.020438114 2.7755576e-17 0.036138467 0.38593423 -0.23852047 -0.14741376
0.021790592 0 0.03565605 0.38593423 -0.23852047 -0.14741376
0.023136061 0 0.035176236 0.38593423 -0.23852047 -0.14741376
0.024474584 0 0.034699008 0.38593423 -0.23852047 -0.14741376
0.025806222 0 0.034224335 0.38593423 -0.23852047 -0.14741376
0.027131036 0 0.033752203 0.38593423 -0.23852047 -0.14741376
0.028449083 0 0.033282585 0.38593423 -0.23852047 -0.14741376
0.029760422 2.7755576e-17 0.032815464 0.38593423 -0.23852047 -0.14741376
0.03106511 2.7755576e-17 0.032350812 0.38593423 -0.23852047 -0.14741376
0.032363206 2.7755576e-17 0.031888615 0.38593423 -0.23852047 -0.14741376
0.016771536 0.011431254 0.039999999 0.38593423 -0.23852047 -0.14741376
0.034939844 2.7755576e-17 0.03097149 0.38593423 -0.23852047 -0.14741376
0.036218498 0 0.03051652 0.38593423 -0.23852047 -0.14741376
0.037490781 0 0.030063922 0.38593423 -0.23852047 -0.14741376
0.038756747 0 0.029613674 0.38593423 -0.23852047 -0.14741376
0.039999999 1.1341505e-05 0.029174149 0.38593423 -0.23852047 -0.14741376
0.039999999 0.00087884523 0.029369121 0.38593423 -0.23852047 -0.14741376
0.039999999 0.001748373 0.029564651 0.38593423 -0.23852047 -0.14741376
0.039999999 0.0026199368 0.029760739 0.38593423 -0.23852047 -0.14741376
0.039999999 0.0034935479 0.029957391 0.38593423 -0.23852047 -0.14741376
0.039999999 0.0043692179 0.03015461 0.38593423 -0.23852047 -0.14741376
0.0212257 0.018476535 0.039999999 0.38593423 -0.23852047 -0.14741376
0.039999999 0.0061267833 0.030550759 0.38593423 -0.23852047 -0.14741376
0.039999999 0.007008702 0.030749694 0.38593423 -0.23852047 -0.14741376
0.022446027 0.020396637 0.039999999 0.38593423 -0.23852047 -0.14741376
0.039999999 0.0087788729 0.031149304 0.38593423 -0.23852047 -0.14741376
0.02326094 0.021676445 0.039999999 0.38593423 -0.23852047 -0.14741376
0.039999999 0.010557568 0.031551249 0.38593423 -0.23852047 -0.14741376
0.024076957 0.022956066 0.039999999 0.38593423 -0.23852047 -0.14741376
0.039999999 0.012344887 0.031955563 0.38593423 -0.23852047 -0.14741376
0.039999999 0.013241811 0.032158609 0.38593423 -0.23852047 -0.14741376
0.025303073 0.024875183 0.039999999 0.38593423 -0.23852047 -0.14741376
0.025712343 0.025514811 0.039999999 0.38593423 -0.23852047 -0.14741376
0.039999999 0.015945794 0.032771379 0.38593423 -0.23852047 -0.14741376
0.039999999 0.016851569 0.032976851 0.38593423 -0.23852047 -0.14741376
0.039999999 0.017759588 0.033182934 0.38593423 -0.23852047 -0.14741376
0.039999999 0.018669866 0.033389635 0.38593423 -0.23852047 -0.14741376
0.039999999 0.019582413 0.033596959 0.38593423 -0.23852047 -0.14741376
0.039999999 0.020497244 0.033804908 0.38593423 -0.23852047 -0.14741376
0.028585277 0.02999139 0.039999999 0.38593423 -0.23852047 -0.14741376
0.039999999 0.022333814 0.034222685 0.38593423 -0.23852047 -0.14741376
0.039999999 0.023255579 0.034432527 0.38593423 -0.23852047 -0.14741376
0.039999999 0.02417968 0.034643002 0.38593423 -0.23852047 -0.14741376
0.030233409 0.032548975 0.039999999 0.38593423 -0.23852047 -0.14741376
0.039999999 0.026034953 0.035065882 0.38593423 -0.23852047 -0.14741376
0.031059273 0.033827696 0.039999999 0.38593423 -0.23852047 -0.14741376
0.039999999 0.027899744 0.035491355 0.38593423 -0.23852047 -0.14741376
0.039999999 0.028835742 0.035705075 0.38593423 -0.23852047 -0.14741376
0.039999999 0.029774163 0.03591945 0.38593423 -0.23852047 -0.14741376
0.039999999 0.030715019 0.036134493 0.38593423 -0.23852047 -0.14741376
0.039999999 0.031658325 0.036350198 0.38593423 -0.23852047 -0.14741376
0.039999999 0.032604095 0.036566574 0.38593423 -0.23852047 -0.14741376
0.039999999 0.033552341 0.036783624 0.38593423 -0.23852047 -0.14741376
0.039999999 0.034503084 0.037001353 0.38593423 -0.23852047 -0.14741376
0.039999999 0.035456337 0.037219763 0.38593423 -0.23852047 -0.14741376
0.039999999 0.036412112 0.037438858 0.38593423 -0.23852047 -0.14741376
0.039999999 0.037370425 0.037658643 0.38593423 -0.23852047 -0.14741376
0.03604041 0.041500155 0.039999999 0.38593423 -0.23852047 -0.14741376
0.039999999 0.039294723 0.038100298 0.38593423 -0.23852047 -0.14741376
0.039999999 0.04026074 0.038322173 0.38593423 -0.23852047 -0.14741376
0.039999999 0.04122936 0.038544752 0.38593423 -0.23852047 -0.14741376
0.039999999 0.042200591 0.038768042 0.38593423 -0.23852047 -0.14741376
0.039999999 0.043174453 0.038992044 0.38593423 -0.23852047 -0.14741376
0.038548212 0.045337252 0.039999999 0.38593423 -0.23852047 -0.14741376
0.039999999 0.04513013 0.039442204 0.38593423 -0.23852047 -0.14741376
0.039999999 0.046111979 0.03966837 0.38593423 -0.23852047 -0.14741376
0.039999999 0.047096521 0.039895266 0.38593423 -0.23852047 -0.14741376
0.037419554 0.050221652 0.041521795 0.38593423 -0.23852047 -0.14741376
0.037786569 0.050913893 0.041552659 0.38593423 -0.23852047 -0.14741376
0.038153391 0.051606953 0.041583885 0.38593423 -0.23852047 -0.14741376
0.03845242 0.052357432 0.041652266 0.38593423 -0.23852047 -0.14741376
0.038751766 0.053108707 0.04172083 0.38593423 -0.23852047 -0.14741376
0.039027266 0.05388115 0.041802753 0.38593423 -0.23852047 -0.14741376
0.039253604 0.0546964 0.041911919 0.38593423 -0.23852047 -0.14741376
0.039480284 0.055512875 0.04202136 0.38593423 -0.23852047 -0.14741376
0.039644472 0.056384094 0.042165477 0.38593423 -0.23852047 -0.14741376
0.039790221 0.057272978 0.042320251 0.38593423 -0.23852047 -0.14741376
0.039902061 0.058192961 0.042494215 0.38593423 -0.23852047 -0.14741376
0.0399548 0.059166037 0.042701282 0.38593423 -0.23852047 -0.14741376
0.039991572 0.0601555 0.042917851 0.38593423 -0.23852047 -0.14741376
0.039933335 0.061229985 0.043187495 0.38593423 -0.23852047 -0.14741376
0.039856285 0.062324125 0.043468393 0.38593423 -0.23852047 -0.14741376
0.039659142 0.063526444 0.043816518 0.38593423 -0.23852047 -0.14741376
0.039396007 0.064790681 0.044202216 0.38593423 -0.23852047 -0.14741376
0.039015003 0.066163026 0.04465434 0.38593423 -0.23852047 -0.14741376
0.038416721 0.067732163 0.045228262 0.38593423 -0.23852047 -0.14741376
0.037537005 0.069556817 0.04596005 0.38593423 -0.23852047 -0.14741376
0.036025923 0.071950071 0.047044776 0.38593423 -0.23852047 -0.14741376
0.0074856263 0.00028414841 0.039999999 0.38593423 -0.23852047 -0.14741376
0.0078862244 0.00092942675 0.039999999 0.38593423 -0.23852047 -0.14741376
0.010763725 0 0.038770907 0.38593423 -0.23852047 -0.14741376
0.012166314 2.7755576e-17 0.038272042 0.38593423 -0.23852047 -0.14741376
0.013561455 2.7755576e-17 0.03777593 0.38593423 -0.23852047 -0.14741376
0.014949214 0 0.037282549 0.38593423 -0.23852047 -0.14741376
0.016329657 0 0.036791872 0.38593423 -0.23852047 -0.14741376
0.010294595 0.0047986675 0.039999999 0.38593423 -0.23852047 -0.14741376
0.010696799 0.0054431572 0.039999999 0.38593423 -0.23852047 -0.14741376
0.020427732 2.7755576e-17 0.035335846 0.38593423 -0.23852047 -0.14741376
0.02177955 0 0.034855757 0.38593423 -0.23852047 -0.14741376
0.023124367 0 0.03437826 0.38593423 -0.23852047 -0.14741376
0.012307984 0.0080200974 0.039999999 0.38593423 -0.23852047 -0.14741376
0.012711379 0.0086640893 0.039999999 0.38593423 -0.23852047 -0.14741376
0.027117429 2.7755576e-17 0.032961078 0.38593423 -0.23852047 -0.14741376
0.028434852 0 0.032493714 0.38593423 -0.23852047 -0.14741376
0.01392302 0.010595516 0.039999999 0.38593423 -0.23852047 -0.14741376
0.014327391 0.011239151 0.039999999 0.38593423 -0.23852047 -0.14741376
0.032347139 0 0.031106416 0.38593423 -0.23852047 -0.14741376
0.033638101 0 0.030648844 0.38593423 -0.23852047 -0.14741376
0.034922585 0 0.030193668 0.38593423 -0.23852047 -0.14741376
0.036200654 0 0.029740866 0.38593423 -0.23852047 -0.14741376
0.037472352 0 0.029290421 0.38593423 -0.23852047 -0.14741376
0.038737744 0 0.028842311 0.38593423 -0.23852047 -0.14741376
0.039996877 0 0.028396519 0.38593423 -0.23852047 -0.14741376
0.039999999 0.00086486153 0.028588891 0.38593423 -0.23852047 -0.14741376
0.039999999 0.0017338976 0.028783403 0.38593423 -0.23852047 -0.14741376
0.039999999 0.0026049672 0.028978471 0.38593423 -0.23852047 -0.14741376
0.039999999 0.0034780817 0.029174097 0.38593423 -0.23852047 -0.14741376
0.039999999 0.0043532532 0.029370286 0.38593423 -0.23852047 -0.14741376
0.039999999 0.0052304934 0.029567037 0.38593423 -0.23852047 -0.14741376
0.039999999 0.0061098137 0.029764356 0.38593423 -0.23852047 -0.14741376
0.039999999 0.0069912267 0.029962247 0.38593423 -0.23852047 -0.14741376
0.039999999 0.007874744 0.03016071 0.38593423 -0.23852047 -0.14741376
0.021240782 0.022169849 0.039999999 0.38593423 -0.23852047 -0.14741376
0.039999999 0.0096481405 0.03055937 0.38593423 -0.23852047 -0.14741376
0.039999999 0.010538044 0.030759573 0.38593423 -0.23852047 -0.14741376
0.039999999 0.011430101 0.030960362 0.38593423 -0.23852047 -0.14741376
0.039999999 0.012324324 0.03116174 0.38593423 -0.23852047 -0.14741376
0.039999999 0.013220726 0.031363711 0.38593423 -0.23852047 -0.14741376
0.039999999 0.014119317 0.031566277 0.38593423 -0.23852047 -0.14741376
0.039999999 0.015020113 0.031769443 0.38593423 -0.23852047 -0.14741376
0.039999999 0.015923124 0.031973209 0.38593423 -0.23852047 -0.14741376
0.039999999 0.016828366 0.032177582 0.38593423 -0.23852047 -0.14741376
0.039999999 0.017735848 0.032382563 0.38593423 -0.23852047 -0.14741376
0.039999999 0.018645586 0.032588154 0.38593423 -0.23852047 -0.14741376
0.039999999 0.019557592 0.032794364 0.38593423 -0.23852047 -0.14741376
0.039999999 0.02047188 0.033001188 0.38593423 -0.23852047 -0.14741376
0.039999999 0.021388462 0.033208638 0.38593423 -0.23852047 -0.14741376
0.039999999 0.022307353 0.033416715 0.38593423 -0.23852047 -0.14741376
0.039999999 0.023228565 0.033625416 0.38593423 -0.23852047 -0.14741376
0.039999999 0.024152111 0.033834752 0.38593423 -0.23852047 -0.14741376
0.028646803 0.033729032 0.039999999 0.38593423 -0.23852047 -0.14741376
0.039999999 0.026006266 0.034255333 0.38593423 -0.23852047 -0.14741376
0.039999999 0.0269369 0.034466587 0.38593423 -0.23852047 -0.14741376
0.039999999 0.027869925 0.034678489 0.38593423 -0.23852047 -0.14741376
0.039999999 0.028805355 0.034891039 0.38593423 -0.23852047 -0.14741376
0.039999999 0.029743202 0.035104241 0.38593423 -0.23852047 -0.14741376
0.039999999 0.030683482 0.035318103 0.38593423 -0.23852047 -0.14741376
0.03155262 0.038222931 0.039999999 0.38593423 -0.23852047 -0.14741376
0.039999999 0.032571398 0.035747811 0.38593423 -0.23852047 -0.14741376
0.039999999 0.033519063 0.035963666 0.38593423 -0.23852047 -0.14741376
0.039999999 0.034469221 0.036180194 0.38593423 -0.23852047 -0.14741376
0.039999999 0.035421878 0.036397398 0.38593423 -0.23852047 -0.14741376
0.039999999 0.036377061 0.036615282 0.38593423 -0.23852047 -0.14741376
0.034055389 0.042075135 0.039999999 0.38593423 -0.23852047 -0.14741376
0.039999999 0.038295042 0.037053101 0.38593423 -0.23852047 -0.14741376
0.039999999 0.039257873 0.037273046 0.38593423 -0.23852047 -0.14741376
0.039999999 0.040223286 0.037493687 0.38593423 -0.23852047 -0.14741376
0.035730265 0.044643667 0.039999999 0.38593423 -0.23852047 -0.14741376
0.039999999 0.042161912 0.037937067 0.38593423 -0.23852047 -0.14741376
0.039999999 0.043135159 0.038159817 0.38593423 -0.23852047 -0.14741376
0.039999999 0.044111047 0.038383279 0.38593423 -0.23852047 -0.14741376
0.037410352 0.047212686 0.039999999 0.38593423 -0.23852047 -0.14741376
0.039999999 0.046070818 0.038832348 0.38593423 -0.23852047 -0.14741376
0.039999999 0.047054727 0.039057966 0.38593423 -0.23852047 -0.14741376
0.039999999 0.048041347 0.039284311 0.38593423 -0.23852047 -0.14741376
0.039999999 0.049030688 0.03951139 0.38593423 -0.23852047 -0.14741376
0.039999999 0.05002277 0.039739203 0.38593423 -0.23852047 -0.14741376
0.039999999 0.051017605 0.039967753 0.38593423 -0.23852047 -0.14741376
0.038738284 0.053074878 0.040881317 0.38593423 -0.23852047 -0.14741376
0.03901697 0.053844061 0.040960878 0.38593423 -0.23852047 -0.14741376
0.039243173 0.054658826 0.041069355 0.38593423 -0.23852047 -0.14741376
0.039469719 0.055474821 0.041178104 0.38593423 -0.23852047 -0.14741376
0.039637614 0.056342274 0.04131927 0.38593423 -0.23852047 -0.14741376
0.039783273 0.057230607 0.041473117 0.38593423 -0.23852047 -0.14741376
0.039899524 0.058146179 0.041643605 0.38593423 -0.23852047 -0.14741376
0.03995223 0.059118625 0.041849472 0.38593423 -0.23852047 -0.14741376
0.03999443 0.060102738 0.042061798 0.38593423 -0.23852047 -0.14741376
0.039936237 0.061176494 0.042329911 0.38593423 -0.23852047 -0.14741376
0.039866164 0.062263858 0.042605411 0.38593423 -0.23852047 -0.14741376
0.039669167 0.063465305 0.04295158 0.38593423 -0.23852047 -0.14741376
0.03941549 0.064720504 0.043330021 0.38593423 -0.23852047 -0.14741376
0.039034784 0.066091776 0.043779626 0.38593423 -0.23852047 -0.14741376
0.038450293 0.067647904 0.044343032 0.38593423 -0.23852047 -0.14741376
0.037592418 0.069452301 0.045059118 0.38593423 -0.23852047 -0.14741376
0.036122005 0.071808353 0.046116106 0.38593423 -0.23852047 -0.14741376
0.0050748819 0 0.039966188 0.38593423 -0.23852047 -0.14741376
0.0065072016 0 0.039458562 0.38593423 -0.23852047 -0.14741376
0.0058097774 0.0013390069 0.039999999 0.38593423 -0.23852047 -0.14741376
0.0093487715 0 0.038451791 0.38593423 -0.23852047 -0.14741376
0.010758159 0 0.037952598 0.38593423 -0.23852047 -0.14741376
0.01216004 0 0.037456166 0.38593423 -0.23852047 -0.14741376
0.013554479 0 0.036962476 0.38593423 -0.23852047 -0.14741376
0.0078227147 0.004576874 0.039999999 0.38593423 -0.23852047 -0.14741376
0.016321301 0 0.035983209 0.38593423 -0.23852047 -0.14741376
0.017693814 2.7755576e-17 0.035497587 0.38593423 -0.23852047 -0.14741376
0.019059146 2.7755576e-17 0.035014607 0.38593423 -0.23852047 -0.14741376
0.0094371708 0.0071651973 0.039999999 0.38593423 -0.23852047 -0.14741376
0.021768522 2.7755576e-17 0.034056485 0.38593423 -0.23852047 -0.14741376
0.02311269 0 0.033581294 0.38593423 -0.23852047 -0.14741376
0.024449926 2.7755576e-17 0.033108659 0.38593423 -0.23852047 -0.14741376
0.025780289 0 0.03263855 0.38593423 -0.23852047 -0.14741376
0.027103839 2.7755576e-17 0.032170948 0.38593423 -0.23852047 -0.14741376
0.028420638 0 0.031705834 0.38593423 -0.23852047 -0.14741376
0.029730743 0 0.031243185 0.38593423 -0.23852047 -0.14741376
0.031034209 0 0.030782979 0.38593423 -0.23852047 -0.14741376
0.013083537 0.012983303 0.039999999 0.38593423 -0.23852047 -0.14741376
0.033621456 0 0.029869813 0.38593423 -0.23852047 -0.14741376
0.034905348 0 0.029416814 0.38593423 -0.23852047 -0.14741376
0.036182828 2.7755576e-17 0.028966177 0.38593423 -0.23852047 -0.14741376
0.037453949 0 0.028517881 0.38593423 -0.23852047 -0.14741376
0.038718767 0 0.028071906 0.38593423 -0.23852047 -0.14741376
0.039977331 0 0.027628234 0.38593423 -0.23852047 -0.14741376
0.039999999 0.00085089676 0.027809715 0.38593423 -0.23852047 -0.14741376
0.039999999 0.0017194416 0.028003212 0.38593423 -0.23852047 -0.14741376
0.039999999 0.0025900179 0.028197261 0.38593423 -0.23852047 -0.14741376
0.039999999 0.0034626366 0.028391864 0.38593423 -0.23852047 -0.14741376
0.039999999 0.0043373099 0.028587023 0.38593423 -0.23852047 -0.14741376
0.039999999 0.0052140495 0.028782742 0.38593423 -0.23852047 -0.14741376
0.018386118 0.021376245 0.039999999 0.38593423 -0.23852047 -0.14741376
0.039999999 0.0069737751 0.02917587 0.38593423 -0.23852047 -0.14741376
0.039999999 0.0078567853 0.029373286 0.38593423 -0.23852047 -0.14741376
0.039999999 0.0087419087 0.029571274 0.38593423 -0.23852047 -0.14741376
0.039999999 0.0096291592 0.029769838 0.38593423 -0.23852047 -0.14741376
0.039999999 0.010518548 0.029968979 0.38593423 -0.23852047 -0.14741376
0.039999999 0.011410087 0.030168699 0.38593423 -0.23852047 -0.14741376
0.039999999 0.01230379 0.030369006 0.38593423 -0.23852047 -0.14741376
0.039999999 0.013199668 0.0305699 0.38593423 -0.23852047 -0.14741376
0.039999999 0.014097735 0.030771384 0.38593423 -0.23852047 -0.14741376
0.039999999 0.014998004 0.030973462 0.38593423 -0.23852047 -0.14741376
0.039999999 0.015900485 0.031176137 0.38593423 -0.23852047 -0.14741376
0.039999999 0.016805192 0.031379413 0.38593423 -0.23852047 -0.14741376
0.039999999 0.01771214 0.031583291 0.38593423 -0.23852047 -0.14741376
0.039999999 0.01862134 0.031787775 0.38593423 -0.23852047 -0.14741376
0.039999999 0.019532805 0.031992871 0.38593423 -0.23852047 -0.14741376
0.024974432 0.031694718 0.039999999 0.38593423 -0.23852047 -0.14741376
0.039999999 0.021362586 0.032404907 0.38593423 -0.23852047 -0.14741376
0.025803063 0.032984063 0.039999999 0.38593423 -0.23852047 -0.14741376
0.026217818 0.033628717 0.039999999 0.38593423 -0.23852047 -0.14741376
0.039999999 0.024124581 0.033027623 0.38593423 -0.23852047 -0.14741376
0.027048212 0.034918003 0.039999999 0.38593423 -0.23852047 -0.14741376
0.027463853 0.035562638 0.039999999 0.38593423 -0.23852047 -0.14741376
0.027879795 0.03620727 0.039999999 0.38593423 -0.23852047 -0.14741376
0.039999999 0.027840149 0.033866752 0.38593423 -0.23852047 -0.14741376
0.039999999 0.02877501 0.034078136 0.38593423 -0.23852047 -0.14741376
0.039999999 0.029712286 0.034290168 0.38593423 -0.23852047 -0.14741376
0.039999999 0.030651992 0.034502856 0.38593423 -0.23852047 -0.14741376
0.039999999 0.031594142 0.034716196 0.38593423 -0.23852047 -0.14741376
0.039999999 0.032538749 0.034930196 0.38593423 -0.23852047 -0.14741376
0.039999999 0.03348583 0.035144858 0.38593423 -0.23852047 -0.14741376
0.039999999 0.034435399 0.035360187 0.38593423 -0.23852047 -0.14741376
0.039999999 0.035387471 0.035576187 0.38593423 -0.23852047 -0.14741376
0.039999999 0.036342058 0.035792861 0.38593423 -0.23852047 -0.14741376
0.039999999 0.037299179 0.036010209 0.38593423 -0.23852047 -0.14741376
0.039999999 0.038258847 0.036228243 0.38593423 -0.23852047 -0.14741376
0.039999999 0.039221074 0.036446963 0.38593423 -0.23852047 -0.14741376
0.039999999 0.040185884 0.036666371 0.38593423 -0.23852047 -0.14741376
0.039999999 0.041153282 0.036886472 0.38593423 -0.23852047 -0.14741376
0.039999999 0.042123288 0.03710727 0.38593423 -0.23852047 -0.14741376
0.039999999 0.04309592 0.037328769 0.38593423 -0.23852047 -0.14741376
0.039999999 0.04407119 0.037550971 0.38593423 -0.23852047 -0.14741376
0.039999999 0.045049116 0.037773885 0.38593423 -0.23852047 -0.14741376
0.039999999 0.046029713 0.037997514 0.38593423 -0.23852047 -0.14741376
0.039999999 0.047012996 0.038221858 0.38593423 -0.23852047 -0.14741376
0.039999999 0.047998983 0.038446922 0.38593423 -0.23852047 -0.14741376
0.039999999 0.04898769 0.038672715 0.38593423 -0.23852047 -0.14741376
0.039999999 0.049979132 0.038899235 0.38593423 -0.23852047 -0.14741376
0.0091579063 0.076783419 0.05575766 0.38593423 -0.23852047 -0.14741376
0.039999999 0.051970292 0.039354481 0.38593423 -0.23852047 -0.14741376
0.039999999 0.052970041 0.039583217 0.38593423 -0.23852047 -0.14741376
0.039999999 0.053972591 0.039812699 0.38593423 -0.23852047 -0.14741376
0.039459165 0.055436816 0.040336002 0.38593423 -0.23852047 -0.14741376
0.039630767 0.05630051 0.040474247 0.38593423 -0.23852047 -0.14741376
0.039776336 0.057188299 0.040627167 0.38593423 -0.23852047 -0.14741376
0.039896995 0.05809946 0.040794205 0.38593423 -0.23852047 -0.14741376
0.039949663 0.05907128 0.040998872 0.38593423 -0.23852047 -0.14741376
0.039997287 0.060050055 0.041206997 0.38593423 -0.23852047 -0.14741376
0.039939132 0.061123077 0.041473579 0.38593423 -0.23852047 -0.14741376
0.039876033 0.062203683 0.041743726 0.38593423 -0.23852047 -0.14741376
0.039679177 0.063404262 0.042087946 0.38593423 -0.23852047 -0.14741376
0.03943494 0.064650439 0.042459194 0.38593423 -0.23852047 -0.14741376
0.039054535 0.06602063 0.042906284 0.38593423 -0.23852047 -0.14741376
0.03848381 0.067563787 0.043459255 0.38593423 -0.23852047 -0.14741376
0.037647732 0.06934797 0.044159785 0.38593423 -0.23852047 -0.14741376
0.036217891 0.071666919 0.045189295 0.38593423 -0.23852047 -0.14741376
0.0036328752 0 0.039647024 0.38593423 -0.23852047 -0.14741376
0.0050722314 2.7755576e-17 0.039139047 0.38593423 -0.23852047 -0.14741376
0.0037177822 0.0017513757 0.039999999 0.38593423 -0.23852047 -0.14741376
0.0079276878 0 0.038131602 0.38593423 -0.23852047 -0.14741376
0.0093439277 2.7755576e-17 0.037632085 0.38593423 -0.23852047 -0.14741376
0.0049288562 0.0037024261 0.039999999 0.38593423 -0.23852047 -0.14741376
0.012153773 0 0.036641344 0.38593423 -0.23852047 -0.14741376
0.013547513 2.7755576e-17 0.036150064 0.38593423 -0.23852047 -0.14741376
0.014933886 2.7755576e-17 0.035661485 0.38593423 -0.23852047 -0.14741376
0.0065467348 0.0063022454 0.039999999 0.38593423 -0.23852047 -0.14741376
0.0069517703 0.0069519333 0.039999999 0.38593423 -0.23852047 -0.14741376
0.019049454 2.7755576e-17 0.034211695 0.38593423 -0.23852047 -0.14741376
0.020407004 0 0.03373367 0.38593423 -0.23852047 -0.14741376
0.0081682559 0.0089003909 0.039999999 0.38593423 -0.23852047 -0.14741376
0.0085742157 0.009549682 0.039999999 0.38593423 -0.23852047 -0.14741376
0.0089804102 0.01019888 0.039999999 0.38593423 -0.23852047 -0.14741376
0.025767347 0 0.031847157 0.38593423 -0.23852047 -0.14741376
0.0097935097 0.011497006 0.039999999 0.38593423 -0.23852047 -0.14741376
0.010200418 0.012145936 0.039999999 0.38593423 -0.23852047 -0.14741376
0.010607566 0.012794783 0.039999999 0.38593423 -0.23852047 -0.14741376
0.011014956 0.013443548 0.039999999 0.38593423 -0.23852047 -0.14741376
0.032315068 2.7755576e-17 0.02954495 0.38593423 -0.23852047 -0.14741376
0.033604831 0 0.029091753 0.38593423 -0.23852047 -0.14741376
0.034888133 0 0.028640926 0.38593423 -0.23852047 -0.14741376
0.036165029 2.7755576e-17 0.028192447 0.38593423 -0.23852047 -0.14741376
0.037435569 0 0.027746296 0.38593423 -0.23852047 -0.14741376
0.038699813 0 0.027302451 0.38593423 -0.23852047 -0.14741376
0.03995781 0 0.026860896 0.38593423 -0.23852047 -0.14741376
0.039999999 0.00083695079 0.027031587 0.38593423 -0.23852047 -0.14741376
0.039999999 0.0017050052 0.027224073 0.38593423 -0.23852047 -0.14741376
0.039999999 0.0025750885 0.027417105 0.38593423 -0.23852047 -0.14741376
0.039999999 0.0034472123 0.027610686 0.38593423 -0.23852047 -0.14741376
0.039999999 0.0043213884 0.027804818 0.38593423 -0.23852047 -0.14741376
0.039999999 0.0051976284 0.027999507 0.38593423 -0.23852047 -0.14741376
0.039999999 0.0060759438 0.028194752 0.38593423 -0.23852047 -0.14741376
0.039999999 0.0069563473 0.028390558 0.38593423 -0.23852047 -0.14741376
0.039999999 0.0078388499 0.02858693 0.38593423 -0.23852047 -0.14741376
0.039999999 0.0087234648 0.028783869 0.38593423 -0.23852047 -0.14741376
0.039999999 0.0096102031 0.028981376 0.38593423 -0.23852047 -0.14741376
0.039999999 0.010499078 0.029179458 0.38593423 -0.23852047 -0.14741376
0.039999999 0.0113901 0.029378114 0.38593423 -0.23852047 -0.14741376
0.039999999 0.012283284 0.029577352 0.38593423 -0.23852047 -0.14741376
0.039999999 0.013178641 0.029777171 0.38593423 -0.23852047 -0.14741376
0.020455081 0.028347628 0.039999999 0.38593423 -0.23852047 -0.14741376
0.020868719 0.028995095 0.039999999 0.38593423 -0.23852047 -0.14741376
0.039999999 0.015877876 0.030380154 0.38593423 -0.23852047 -0.14741376
0.039999999 0.016782053 0.030582335 0.38593423 -0.23852047 -0.14741376
0.039999999 0.017688466 0.030785115 0.38593423 -0.23852047 -0.14741376
0.039999999 0.018597128 0.030988496 0.38593423 -0.23852047 -0.14741376
0.039999999 0.019508054 0.031192482 0.38593423 -0.23852047 -0.14741376
0.039999999 0.020421255 0.031397078 0.38593423 -0.23852047 -0.14741376
0.039999999 0.021336747 0.031602282 0.38593423 -0.23852047 -0.14741376
0.039999999 0.02225454 0.031808104 0.38593423 -0.23852047 -0.14741376
0.039999999 0.023174649 0.032014545 0.38593423 -0.23852047 -0.14741376
0.039999999 0.024097089 0.032221604 0.38593423 -0.23852047 -0.14741376
0.039999999 0.025021872 0.032429293 0.38593423 -0.23852047 -0.14741376
0.039999999 0.025949011 0.032637607 0.38593423 -0.23852047 -0.14741376
0.039999999 0.026878519 0.032846555 0.38593423 -0.23852047 -0.14741376
0.039999999 0.027810413 0.03305614 0.38593423 -0.23852047 -0.14741376
0.039999999 0.028744707 0.033266362 0.38593423 -0.23852047 -0.14741376
0.027525913 0.039352536 0.039999999 0.38593423 -0.23852047 -0.14741376
0.039999999 0.030620545 0.033688739 0.38593423 -0.23852047 -0.14741376
0.028363397 0.040647209 0.039999999 0.38593423 -0.23852047 -0.14741376
0.039999999 0.032506146 0.034113716 0.38593423 -0.23852047 -0.14741376
0.039999999 0.033452645 0.03432719 0.38593423 -0.23852047 -0.14741376
0.039999999 0.034401629 0.034541324 0.38593423 -0.23852047 -0.14741376
0.039999999 0.035353109 0.03475612 0.38593423 -0.23852047 -0.14741376
0.039999999 0.036307108 0.034971587 0.38593423 -0.23852047 -0.14741376
0.039999999 0.037263632 0.035187729 0.38593423 -0.23852047 -0.14741376
0.039999999 0.0382227 0.035404544 0.38593423 -0.23852047 -0.14741376
0.039999999 0.039184328 0.035622038 0.38593423 -0.23852047 -0.14741376
0.039999999 0.04014853 0.035840217 0.38593423 -0.23852047 -0.14741376
0.039999999 0.041115325 0.036059082 0.38593423 -0.23852047 -0.14741376
0.039999999 0.04208472 0.036278639 0.38593423 -0.23852047 -0.14741376
0.0041746893 0.072217166 0.055545077 0.38593423 -0.23852047 -0.14741376
0.039999999 0.044031389 0.036719844 0.38593423 -0.23852047 -0.14741376
0.039999999 0.045008697 0.036941499 0.38593423 -0.23852047 -0.14741376
0.039999999 0.045988668 0.037163861 0.38593423 -0.23852047 -0.14741376
0.039999999 0.046971325 0.037386931 0.38593423 -0.23852047 -0.14741376
0.039999999 0.047956683 0.037610721 0.38593423 -0.23852047 -0.14741376
0.039999999 0.048944753 0.037835229 0.38593423 -0.23852047 -0.14741376
0.039999999 0.049935557 0.03806046 0.38593423 -0.23852047 -0.14741376
0.039999999 0.05092911 0.038286421 0.38593423 -0.23852047 -0.14741376
0.039999999 0.051925432 0.038513113 0.38593423 -0.23852047 -0.14741376
0.039999999 0.052924532 0.038740542 0.38593423 -0.23852047 -0.14741376
0.039999999 0.053926431 0.038968708 0.38593423 -0.23852047 -0.14741376
0.039999999 0.054931149 0.039197624 0.38593423 -0.23852047 -0.14741376
0.039999999 0.055938695 0.039427284 0.38593423 -0.23852047 -0.14741376
0.014087356 0.079081617 0.053670526 0.38593423 -0.23852047 -0.14741376
0.039999999 0.057962362 0.039888874 0.38593423 -0.23852047 -0.14741376
0.039947104 0.059024002 0.040149484 0.38593423 -0.23852047 -0.14741376
0.039999872 0.059997674 0.040353581 0.38593423 -0.23852047 -0.14741376
0.039942022 0.061069742 0.040618494 0.38593423 -0.23852047 -0.14741376
0.039883718 0.062145479 0.040884506 0.38593423 -0.23852047 -0.14741376
0.039689168 0.063343301 0.041225608 0.38593423 -0.23852047 -0.14741376
0.039454363 0.064580485 0.041589722 0.38593423 -0.23852047 -0.14741376
0.039074257 0.065949596 0.042034306 0.38593423 -0.23852047 -0.14741376
0.038517274 0.067479804 0.042576931 0.38593423 -0.23852047 -0.14741376
0.037702948 0.069243826 0.043262038 0.38593423 -0.23852047 -0.14741376
0.036313586 0.071525767 0.044264339 0.38593423 -0.23852047 -0.14741376
0.00073016778 0 0.039837971 0.38593423 -0.23852047 -0.14741376
0.0021845258 2.7755576e-17 0.039326765 0.38593423 -0.23852047 -0.14741376
0.001205434 0.0015133037 0.039999999 0.38593423 -0.23852047 -0.14741376
0.0050695841 0 0.038312972 0.38593423 -0.23852047 -0.14741376
0.0020148654 0.0028197232 0.039999999 0.38593423 -0.23852047 -0.14741376
0.0079235733 2.7755576e-17 0.037310496 0.38593423 -0.23852047 -0.14741376
0.0093390904 0 0.036813438 0.38593423 -0.23852047 -0.14741376
0.010747049 0 0.036319133 0.38593423 -0.23852047 -0.14741376
0.012147515 0 0.035827558 0.38593423 -0.23852047 -0.14741376
0.0040422352 0.0060837334 0.039999999 0.38593423 -0.23852047 -0.14741376
0.0044483705 0.006736204 0.039999999 0.38593423 -0.23852047 -0.14741376
0.0048547294 0.0073885699 0.039999999 0.38593423 -0.23852047 -0.14741376
0.017675782 2.7755576e-17 0.033888079 0.38593423 -0.23852047 -0.14741376
0.019039772 2.7755576e-17 0.033409797 0.38593423 -0.23852047 -0.14741376
0.0060751634 0.0093450602 0.039999999 0.38593423 -0.23852047 -0.14741376
0.0064824321 0.0099970279 0.039999999 0.38593423 -0.23852047 -0.14741376
0.023089377 0 0.031990383 0.38593423 -0.23852047 -0.14741376
0.0072976635 0.011300686 0.039999999 0.38593423 -0.23852047 -0.14741376
0.02575442 2.7755576e-17 0.031056752 0.38593423 -0.23852047 -0.14741376
0.027076712 0 0.030593663 0.38593423 -0.23852047 -0.14741376
0.028392266 0 0.030133033 0.38593423 -0.23852047 -0.14741376
0.029701136 0 0.029674837 0.38593423 -0.23852047 -0.14741376
0.031003382 0 0.029219056 0.38593423 -0.23852047 -0.14741376
0.03229906 0 0.028765669 0.38593423 -0.23852047 -0.14741376
0.033588227 0 0.028314656 0.38593423 -0.23852047 -0.14741376
0.034870941 2.7755576e-17 0.027865997 0.38593423 -0.23852047 -0.14741376
0.036147248 0 0.027419671 0.38593423 -0.23852047 -0.14741376
0.037417211 0 0.02697566 0.38593423 -0.23852047 -0.14741376
0.038680881 0 0.026533943 0.38593423 -0.23852047 -0.14741376
0.039938312 0 0.0260945 0.38593423 -0.23852047 -0.14741376
0.039999999 0.00082302344 0.026254501 0.38593423 -0.23852047 -0.14741376
0.039999999 0.0016905881 0.026445977 0.38593423 -0.23852047 -0.14741376
0.039999999 0.0025601794 0.026637996 0.38593423 -0.23852047 -0.14741376
0.039999999 0.0034318089 0.026830556 0.38593423 -0.23852047 -0.14741376
0.039999999 0.004305488 0.027023666 0.38593423 -0.23852047 -0.14741376
0.039999999 0.0051812287 0.027217325 0.38593423 -0.23852047 -0.14741376
0.015090679 0.023670223 0.039999999 0.38593423 -0.23852047 -0.14741376
0.015503367 0.024320655 0.039999999 0.38593423 -0.23852047 -0.14741376
0.039999999 0.0078209396 0.027801635 0.38593423 -0.23852047 -0.14741376
0.039999999 0.0087050451 0.027997525 0.38593423 -0.23852047 -0.14741376
0.039999999 0.009591273 0.028193982 0.38593423 -0.23852047 -0.14741376
0.039999999 0.010479634 0.028391005 0.38593423 -0.23852047 -0.14741376
0.039999999 0.01137014 0.0285886 0.38593423 -0.23852047 -0.14741376
0.039999999 0.012262805 0.028786771 0.38593423 -0.23852047 -0.14741376
0.039999999 0.013157642 0.028985517 0.38593423 -0.23852047 -0.14741376
0.018814489 0.029522724 0.039999999 0.38593423 -0.23852047 -0.14741376
0.039999999 0.014953876 0.029384758 0.38593423 -0.23852047 -0.14741376
0.039999999 0.015855299 0.029585257 0.38593423 -0.23852047 -0.14741376
0.039999999 0.016758945 0.029786346 0.38593423 -0.23852047 -0.14741376
0.039999999 0.017664824 0.029988028 0.38593423 -0.23852047 -0.14741376
0.039999999 0.018572949 0.030190308 0.38593423 -0.23852047 -0.14741376
0.039999999 0.019483335 0.030393187 0.38593423 -0.23852047 -0.14741376
0.039999999 0.020395996 0.03059667 0.38593423 -0.23852047 -0.14741376
0.039999999 0.021310942 0.030800758 0.38593423 -0.23852047 -0.14741376
0.022560623 0.035373155 0.039999999 0.38593423 -0.23852047 -0.14741376
0.039999999 0.023147747 0.031210769 0.38593423 -0.23852047 -0.14741376
0.023396241 0.036673136 0.039999999 0.38593423 -0.23852047 -0.14741376
0.023814488 0.037323125 0.039999999 0.38593423 -0.23852047 -0.14741376
0.039999999 0.025920441 0.031830419 0.38593423 -0.23852047 -0.14741376
0.039999999 0.026849389 0.032038216 0.38593423 -0.23852047 -0.14741376
0.039999999 0.027780719 0.032246646 0.38593423 -0.23852047 -0.14741376
0.039999999 0.028714446 0.032455709 0.38593423 -0.23852047 -0.14741376
0.039999999 0.029650582 0.032665409 0.38593423 -0.23852047 -0.14741376
0.039999999 0.030589141 0.03287575 0.38593423 -0.23852047 -0.14741376
0.039999999 0.031530138 0.033086739 0.38593423 -0.23852047 -0.14741376
0.039999999 0.032473586 0.033298373 0.38593423 -0.23852047 -0.14741376
0.039999999 0.033419505 0.033510659 0.38593423 -0.23852047 -0.14741376
0.039999999 0.034367904 0.0337236 0.38593423 -0.23852047 -0.14741376
0.039999999 0.035318799 0.033937201 0.38593423 -0.23852047 -0.14741376
0.001297693 0.067015357 0.054464553 0.38593423 -0.23852047 -0.14741376
0.039999999 0.037228134 0.034366392 0.38593423 -0.23852047 -0.14741376
0.039999999 0.038186606 0.034581993 0.38593423 -0.23852047 -0.14741376
0.039999999 0.039147634 0.034798265 0.38593423 -0.23852047 -0.14741376
0.039999999 0.040111233 0.035015218 0.38593423 -0.23852047 -0.14741376
0.039999999 0.04107742 0.035232849 0.38593423 -0.23852047 -0.14741376
0.039999999 0.042046204 0.03545117 0.38593423 -0.23852047 -0.14741376
0.039999999 0.043017611 0.03567018 0.38593423 -0.23852047 -0.14741376
0.039999999 0.043991648 0.035889879 0.38593423 -0.23852047 -0.14741376
0.039999999 0.044968333 0.036110278 0.38593423 -0.23852047 -0.14741376
0.0058078859 0.074064493 0.054492738 0.38593423 -0.23852047 -0.14741376
0.039999999 0.04692971 0.036553185 0.38593423 -0.23852047 -0.14741376
0.039999999 0.047914438 0.036775701 0.38593423 -0.23852047 -0.14741376
0.039999999 0.048901878 0.036998931 0.38593423 -0.23852047 -0.14741376
0.039999999 0.049892046 0.037222877 0.38593423 -0.23852047 -0.14741376
0.039999999 0.050884958 0.037447542 0.38593423 -0.23852047 -0.14741376
0.039999999 0.051880635 0.037672937 0.38593423 -0.23852047 -0.14741376
0.039999999 0.052879088 0.037899062 0.38593423 -0.23852047 -0.14741376
0.039999999 0.053880338 0.038125917 0.38593423 -0.23852047 -0.14741376
0.039999999 0.054884396 0.038353514 0.38593423 -0.23852047 -0.14741376
0.039999999 0.05589129 0.038581856 0.38593423 -0.23852047 -0.14741376
0.01404397 0.079066999 0.052783694 0.38593423 -0.23852047 -0.14741376
0.039999999 0.057913627 0.039040778 0.38593423 -0.23852047 -0.14741376
0.039999999 0.058929108 0.039271373 0.38593423 -0.23852047 -0.14741376
0.039999999 0.059947491 0.039502725 0.38593423 -0.23852047 -0.14741376
0.018147923 0.07988701 0.051556706 0.38593423 -0.23852047 -0.14741376
0.039940432 0.062044762 0.039999999 0.38593423 -0.23852047 -0.14741376
0.039699148 0.063282445 0.04036456 0.38593423 -0.23852047 -0.14741376
0.039473757 0.064510629 0.040721595 0.38593423 -0.23852047 -0.14741376
0.039093945 0.065878682 0.041163679 0.38593423 -0.23852047 -0.14741376
0.038550682 0.067395955 0.041696053 0.38593423 -0.23852047 -0.14741376
0.037758067 0.069139868 0.042365875 0.38593423 -0.23852047 -0.14741376
0.036409091 0.071384907 0.043341223 0.38593423 -0.23852047 -0.14741376
0.0007297839 0 0.039005399 0.38593423 -0.23852047 -0.14741376
0.0021833803 2.7755576e-17 0.038496729 0.38593423 -0.23852047 -0.14741376
0.0036290754 2.7755576e-17 0.037990928 0.38593423 -0.23852047 -0.14741376
0.0050669406 2.7755576e-17 0.037487961 0.38593423 -0.23852047 -0.14741376
0.00029895472 0.0038962227 0.039999999 0.38593423 -0.23852047 -0.14741376
0.0079194633 2.7755576e-17 0.03649044 0.38593423 -0.23852047 -0.14741376
0.0011124004 0.0052073337 0.039999999 0.38593423 -0.23852047 -0.14741376
0.010741504 0 0.035503969 0.38593423 -0.23852047 -0.14741376
0.012141264 0 0.035014816 0.38593423 -0.23852047 -0.14741376
0.013533607 0 0.034528349 0.38593423 -0.23852047 -0.14741376
0.014918597 0 0.034044549 0.38593423 -0.23852047 -0.14741376
0.016296301 2.7755576e-17 0.03356339 0.38593423 -0.23852047 -0.14741376
0.017666781 0 0.033084851 0.38593423 -0.23852047 -0.14741376
0.019030103 0 0.032608908 0.38593423 -0.23852047 -0.14741376
0.020386331 2.7755576e-17 0.032135535 0.38593423 -0.23852047 -0.14741376
0.0047837417 0.011102036 0.039999999 0.38593423 -0.23852047 -0.14741376
0.023077743 2.7755576e-17 0.031196423 0.38593423 -0.23852047 -0.14741376
0.024413053 0 0.030730637 0.38593423 -0.23852047 -0.14741376
0.02574151 0 0.030267335 0.38593423 -0.23852047 -0.14741376
0.0064213295 0.01371942 0.039999999 0.38593423 -0.23852047 -0.14741376
0.028378105 0 0.0293481 0.38593423 -0.23852047 -0.14741376
0.029686362 0 0.028892124 0.38593423 -0.23852047 -0.14741376
0.030987998 2.7755576e-17 0.028438548 0.38593423 -0.23852047 -0.14741376
0.0080626681 0.016335484 0.039999999 0.38593423 -0.23852047 -0.14741376
0.033571646 0 0.027538516 0.38593423 -0.23852047 -0.14741376
0.0088847745 0.017643068 0.039999999 0.38593423 -0.23852047 -0.14741376
0.0092961919 0.018296754 0.039999999 0.38593423 -0.23852047 -0.14741376
0.037398875 0 0.026205966 0.38593423 -0.23852047 -0.14741376
0.038661975 0 0.025766371 0.38593423 -0.23852047 -0.14741376
0.039918836 0 0.025329037 0.38593423 -0.23852047 -0.14741376
0.039999999 0.00080911472 0.025478452 0.38593423 -0.23852047 -0.14741376
0.039999999 0.0016761903 0.025668921 0.38593423 -0.23852047 -0.14741376
0.039999999 0.0025452902 0.025859926 0.38593423 -0.23852047 -0.14741376
0.039999999 0.0034164258 0.026051471 0.38593423 -0.23852047 -0.14741376
0.039999999 0.0042896089 0.026243558 0.38593423 -0.23852047 -0.14741376
0.039999999 0.0051648514 0.026436193 0.38593423 -0.23852047 -0.14741376
0.039999999 0.0060421652 0.026629373 0.38593423 -0.23852047 -0.14741376
0.039999999 0.0069215614 0.026823107 0.38593423 -0.23852047 -0.14741376
0.039999999 0.0078030527 0.027017396 0.38593423 -0.23852047 -0.14741376
0.039999999 0.0086866505 0.027212242 0.38593423 -0.23852047 -0.14741376
0.039999999 0.0095723681 0.027407646 0.38593423 -0.23852047 -0.14741376
0.039999999 0.010460216 0.027603617 0.38593423 -0.23852047 -0.14741376
0.015913187 0.028748278 0.039999999 0.38593423 -0.23852047 -0.14741376
0.016328972 0.029401148 0.039999999 0.38593423 -0.23852047 -0.14741376
0.039999999 0.013136671 0.028194936 0.38593423 -0.23852047 -0.14741376
0.039999999 0.014033167 0.028393188 0.38593423 -0.23852047 -0.14741376
0.017577954 0.031359602 0.039999999 0.38593423 -0.23852047 -0.14741376
0.039999999 0.015832752 0.028791437 0.38593423 -0.23852047 -0.14741376
0.039999999 0.016735867 0.028991437 0.38593423 -0.23852047 -0.14741376
0.039999999 0.017641213 0.029192025 0.38593423 -0.23852047 -0.14741376
0.039999999 0.018548803 0.029393205 0.38593423 -0.23852047 -0.14741376
0.039999999 0.019458652 0.02959498 0.38593423 -0.23852047 -0.14741376
0.039999999 0.02037077 0.029797353 0.38593423 -0.23852047 -0.14741376
0.039999999 0.021285173 0.030000327 0.38593423 -0.23852047 -0.14741376
0.039999999 0.022201871 0.030203905 0.38593423 -0.23852047 -0.14741376
0.039999999 0.023120882 0.030408092 0.38593423 -0.23852047 -0.14741376
0.039999999 0.024042217 0.030612892 0.38593423 -0.23852047 -0.14741376
0.039999999 0.024965888 0.030818304 0.38593423 -0.23852047 -0.14741376
0.039999999 0.025891911 0.031024335 0.38593423 -0.23852047 -0.14741376
0.039999999 0.0268203 0.031230988 0.38593423 -0.23852047 -0.14741376
8.261951e-05 0.058476161 0.052076016 0.38593423 -0.23852047 -0.14741376
0.039999999 0.028684227 0.031646173 0.38593423 -0.23852047 -0.14741376
0.039999999 0.029619792 0.031854711 0.38593423 -0.23852047 -0.14741376
0.039999999 0.03055778 0.032063887 0.38593423 -0.23852047 -0.14741376
0.039999999 0.031498201 0.032273699 0.38593423 -0.23852047 -0.14741376
0.039999999 0.032441076 0.032484155 0.38593423 -0.23852047 -0.14741376
0.039999999 0.033386409 0.032695256 0.38593423 -0.23852047 -0.14741376
0.039999999 0.034334224 0.032907005 0.38593423 -0.23852047 -0.14741376
0.039999999 0.035284534 0.03311941 0.38593423 -0.23852047 -0.14741376
0.039999999 0.036237348 0.033332475 0.38593423 -0.23852047 -0.14741376
0.039999999 0.037192687 0.033546198 0.38593423 -0.23852047 -0.14741376
0.0019473562 0.068584278 0.0536897 0.38593423 -0.23852047 -0.14741376
0.039999999 0.039110992 0.033975642 0.38593423 -0.23852047 -0.14741376
0.039999999 0.040073987 0.03419137 0.38593423 -0.23852047 -0.14741376
0.039999999 0.041039567 0.034407772 0.38593423 -0.23852047 -0.14741376
0.039999999 0.042007744 0.034624856 0.38593423 -0.23852047 -0.14741376
0.039999999 0.042978536 0.034842625 0.38593423 -0.23852047 -0.14741376
0.039999999 0.043951958 0.03506108 0.38593423 -0.23852047 -0.14741376
0.039999999 0.044928025 0.035280228 0.38593423 -0.23852047 -0.14741376
0.039999999 0.045906752 0.035500068 0.38593423 -0.23852047 -0.14741376
0.039999999 0.046888158 0.035720609 0.38593423 -0.23852047 -0.14741376
0.039999999 0.047872253 0.035941854 0.38593423 -0.23852047 -0.14741376
0.039999999 0.04885906 0.036163807 0.38593423 -0.23852047 -0.14741376
0.039999999 0.049848594 0.036386471 0.38593423 -0.23852047 -0.14741376
0.039999999 0.050840866 0.036609851 0.38593423 -0.23852047 -0.14741376
0.0098098684 0.077175677 0.052913487 0.38593423 -0.23852047 -0.14741376
0.039999999 0.052833706 0.037058771 0.38593423 -0.23852047 -0.14741376
0.039999999 0.053834308 0.037284322 0.38593423 -0.23852047 -0.14741376
0.039999999 0.054837715 0.037510604 0.38593423 -0.23852047 -0.14741376
0.039999999 0.055843949 0.037737627 0.38593423 -0.23852047 -0.14741376
0.039999999 0.056853026 0.037965383 0.38593423 -0.23852047 -0.14741376
0.039999999 0.05786496 0.038193889 0.38593423 -0.23852047 -0.14741376
0.039999999 0.058879778 0.038423147 0.38593423 -0.23852047 -0.14741376
0.039999999 0.059897486 0.038653154 0.38593423 -0.23852047 -0.14741376
0.039999999 0.060918108 0.038883921 0.38593423 -0.23852047 -0.14741376
0.019232605 0.079979233 0.05031332 0.38593423 -0.23852047 -0.14741376
0.039999999 0.062968157 0.039347749 0.38593423 -0.23852047 -0.14741376
0.039999999 0.063997626 0.039580818 0.38593423 -0.23852047 -0.14741376
0.039999999 0.065030076 0.039814662 0.38593423 -0.23852047 -0.14741376
0.038584035 0.067312248 0.040816601 0.38593423 -0.23852047 -0.14741376
0.03781309 0.069036081 0.04147128 0.38593423 -0.23852047 -0.14741376
0.036504406 0.071244314 0.04241994 0.38593423 -0.23852047 -0.14741376
0.00072940055 2.7755576e-17 0.038173899 0.38593423 -0.23852047 -0.14741376
0.0021822364 2.7755576e-17 0.037667762 0.38593423 -0.23852047 -0.14741376
0.0036271792 0 0.037164476 0.38593423 -0.23852047 -0.14741376
0.0050643003 0 0.036664005 0.38593423 -0.23852047 -0.14741376
0.0064936699 0 0.036166333 0.38593423 -0.23852047 -0.14741376
0.007915359 0 0.035671432 0.38593423 -0.23852047 -0.14741376
0.0093294345 0 0.035179276 0.38593423 -0.23852047 -0.14741376
0 0.0068250527 0.039900571 0.38593423 -0.23852047 -0.14741376
0.00020398961 0.0076131662 0.039999999 0.38593423 -0.23852047 -0.14741376
0.00061305007 0.0082709435 0.039999999 0.38593423 -0.23852047 -0.14741376
0.014910967 2.7755576e-17 0.033237614 0.38593423 -0.23852047 -0.14741376
0.016287988 0 0.032758825 0.38593423 -0.23852047 -0.14741376
0.017657794 0 0.032282636 0.38593423 -0.23852047 -0.14741376
0.019020448 0 0.031809025 0.38593423 -0.23852047 -0.14741376
0.020376014 2.7755576e-17 0.031337973 0.38593423 -0.23852047 -0.14741376
0.021724552 0 0.030869456 0.38593423 -0.23852047 -0.14741376
0.003482641 0.012872616 0.039999999 0.38593423 -0.23852047 -0.14741376
0.024400793 0 0.02993994 0.38593423 -0.23852047 -0.14741376
0.025728615 2.7755576e-17 0.029478898 0.38593423 -0.23852047 -0.14741376
0.027049653 0 0.029020304 0.38593423 -0.23852047 -0.14741376
0.028363964 0 0.028564136 0.38593423 -0.23852047 -0.14741376
0.029671604 0 0.028110376 0.38593423 -0.23852047 -0.14741376
0.030972634 0 0.027659001 0.38593423 -0.23852047 -0.14741376
0.0063633872 0.01747001 0.039999999 0.38593423 -0.23852047 -0.14741376
0.0067758625 0.018126477 0.039999999 0.38593423 -0.23852047 -0.14741376
0.034836613 0 0.02631899 0.38593423 -0.23852047 -0.14741376
0.036111757 0 0.025876958 0.38593423 -0.23852047 -0.14741376
0.037380565 0 0.025437212 0.38593423 -0.23852047 -0.14741376
0.038643088 0 0.024999734 0.38593423 -0.23852047 -0.14741376
0.039899386 0 0.024564505 0.38593423 -0.23852047 -0.14741376
