# .PCD v0.7 - Point Cloud Data file format
VERSION 0.7
FIELDS x y z vp_x vp_y vp_z
SIZE 4 4 4 4 4 4
TYPE F F F F F F
COUNT 1 1 1 1 1 1
WIDTH 704
HEIGHT 1
VIEWPOINT 0 0 0 1 0 0 0
POINTS 704
DATA ascii
0.039999999 0.024350345 0.01253144 0.38593423 -0.23852047 0.14741376
0.039999999 0.025248514 0.012384988 0.38593423 -0.23852047 0.14741376
0.039999999 0.026148912 0.012238187 0.38593423 -0.23852047 0.14741376
0.039999999 0.027051548 0.012091034 0.38593423 -0.23852047 0.14741376
0.039999999 0.027956437 0.011943527 0.38593423 -0.23852047 0.14741376
0.039999999 0.028863592 0.011795666 0.38593423 -0.23852047 0.14741376
0.039999999 0.029773025 0.011647447 0.38593423 -0.23852047 0.14741376
0.010732772 0.053460442 0 0.38593423 -0.23852047 0.14741376
0.039999999 0.031598784 0.011349929 0.38593423 -0.23852047 0.14741376
0.039999999 0.032515131 0.011200625 0.38593423 -0.23852047 0.14741376
0.039999999 0.033433814 0.011050954 0.38593423 -0.23852047 0.14741376
0.012376225 0.056144662 0 0.38593423 -0.23852047 0.14741376
0.039999999 0.035278223 0.010750509 0.38593423 -0.23852047 0.14741376
0.013198592 0.057488378 0 0.38593423 -0.23852047 0.14741376
0.039999999 0.037132122 0.010448573 0.38593423 -0.23852047 0.14741376
0.039999999 0.038062666 0.010297041 0.38593423 -0.23852047 0.14741376
0.039999999 0.03899562 0.010145131 0.38593423 -0.23852047 0.14741376
0.014844694 0.060179163 2.7755576e-17 0.38593423 -0.23852047 0.14741376
0.039999999 0.04086883 0.0098401643 0.38593423 -0.23852047 0.14741376
0.039999999 0.041809112 0.0096871043 0.38593423 -0.23852047 0.14741376
0.039999999 0.042751864 0.0095336558 0.38593423 -0.23852047 0.14741376
0.039999999 0.0436971 0.0093798172 0.38593423 -0.23852047 0.14741376
0.039999999 0.044644833 0.0092255855 0.38593423 -0.23852047 0.14741376
0.039999999 0.045595083 0.0090709599 0.38593423 -0.23852047 0.14741376
0.039999999 0.04654786 0.0089159366 0.38593423 -0.23852047 0.14741376
0.039999999 0.047503181 0.0087605137 0.38593423 -0.23852047 0.14741376
0.039999999 0.048461061 0.0086046895 0.38593423 -0.23852047 0.14741376
0.039999999 0.049421512 0.0084484601 0.38593423 -0.23852047 0.14741376
0.039999999 0.050384551 0.0082918257 0.38593423 -0.23852047 0.14741376
0.039999999 0.051350195 0.0081347805 0.38593423 -0.23852047 0.14741376
0.039999999 0.052318458 0.0079773245 0.38593423 -0.23852047 0.14741376
0.020622296 0.06963525 0 0.38593423 -0.23852047 0.14741376
0.039999999 0.054262903 0.0076611685 0.38593423 -0.23852047 0.14741376
0.039999999 0.055239115 0.0075024632 0.38593423 -0.23852047 0.14741376
0.039999999 0.056218006 0.0073433369 0.38593423 -0.23852047 0.14741376
0.039999999 0.057199597 0.007183786 0.38593423 -0.23852047 0.14741376
0.039999999 0.058183901 0.007023809 0.38593423 -0.23852047 0.14741376
0.039999999 0.059170932 0.0068634031 0.38593423 -0.23852047 0.14741376
0.039999999 0.060160711 0.0067025656 0.38593423 -0.23852047 0.14741376
0.039999999 0.061153252 0.0065412936 0.38593423 -0.23852047 0.14741376
0.039999999 0.062148567 0.0063795848 0.38593423 -0.23852047 0.14741376
0.039999999 0.063146681 0.0062174369 0.38593423 -0.23852047 0.14741376
0.025182549 0.077111825 0 0.38593423 -0.23852047 0.14741376
0.039999999 0.065151356 0.0058918116 0.38593423 -0.23852047 0.14741376
0.039999999 0.066157952 0.0057283291 0.38593423 -0.23852047 0.14741376
0.039999999 0.067167416 0.0055643963 0.38593423 -0.23852047 0.14741376
0.039999999 0.068179756 0.0054000109 0.38593423 -0.23852047 0.14741376
0.039999999 0.069194995 0.0052351695 0.38593423 -0.23852047 0.14741376
0.039999999 0.070213147 0.00506987 0.38593423 -0.23852047 0.14741376
0.039999999 0.072258256 0.0047378843 0.38593423 -0.23852047 0.14741376
0.039999999 0.073285259 0.0045711924 0.38593423 -0.23852047 0.14741376
0.039999999 0.076384246 0.0040682871 0.38593423 -0.23852047 0.14741376
0.039999999 0.077423297 0.0038996993 0.38593423 -0.23852047 0.14741376
0.039999999 0.07846541 0.0037306298 0.38593423 -0.23852047 0.14741376
0.039999999 0.079510592 0.0035610762 0.38593423 -0.23852047 0.14741376
0.00070935808 0 0.0052938447 0.38593423 -0.23852047 0.14741376
0.002122432 0 0.0056708972 0.38593423 -0.23852047 0.14741376
0.0035280383 0 0.0060459692 0.38593423 -0.23852047 0.14741376
0.0049262429 0 0.0064190789 0.38593423 -0.23852047 0.14741376
0 0.003969158 0.0044501629 0.38593423 -0.23852047 0.14741376
0.0077007073 0 0.007159479 0.38593423 -0.23852047 0.14741376
0 0.0057450761 0.004157444 0.38593423 -0.23852047 0.14741376
0.010446337 0 0.0078922333 0.38593423 -0.23852047 0.14741376
0.011808495 2.7755576e-17 0.0082557853 0.38593423 -0.23852047 0.14741376
0.013163632 2.7755576e-17 0.0086174747 0.38593423 -0.23852047 0.14741376
0.014511807 2.7755576e-17 0.0089773191 0.38593423 -0.23852047 0.14741376
0 0.010217447 0.0034204994 0.38593423 -0.23852047 0.14741376
0.017187513 0 0.0096915336 0.38593423 -0.23852047 0.14741376
0.018515162 0 0.010045935 0.38593423 -0.23852047 0.14741376
0.019836087 0 0.010398554 0.38593423 -0.23852047 0.14741376
0.021150343 0 0.010749405 0.38593423 -0.23852047 0.14741376
0.022457989 0 0.011098503 0.38593423 -0.23852047 0.14741376
0.02375908 0 0.011445863 0.38593423 -0.23852047 0.14741376
0.025053672 0 0.0117915 0.38593423 -0.23852047 0.14741376
0.02634182 0 0.012135428 0.38593423 -0.23852047 0.14741376
0.027623579 0 0.012477662 0.38593423 -0.23852047 0.14741376
0.028898999 0 0.012818216 0.38593423 -0.23852047 0.14741376
0.030168137 0 0.013157105 0.38593423 -0.23852047 0.14741376
0.031431045 0 0.013494342 0.38593423 -0.23852047 0.14741376
0.032687772 0 0.01382994 0.38593423 -0.23852047 0.14741376
0.033938374 0 0.014163913 0.38593423 -0.23852047 0.14741376
0.035182897 0 0.014496276 0.38593423 -0.23852047 0.14741376
0.036421396 0 0.014827041 0.38593423 -0.23852047 0.14741376
0.037653916 0 0.015156222 0.38593423 -0.23852047 0.14741376
0.038880512 0 0.015483831 0.38593423 -0.23852047 0.14741376
0.039999999 6.9815498e-05 0.015771361 0.38593423 -0.23852047 0.14741376
0.039999999 0.00091091893 0.015633024 0.38593423 -0.23852047 0.14741376
0.039999999 0.0017539272 0.015494388 0.38593423 -0.23852047 0.14741376
0.039999999 0.002598851 0.015355447 0.38593423 -0.23852047 0.14741376
0.039999999 0.003445701 0.015216202 0.38593423 -0.23852047 0.14741376
0.039999999 0.0042944876 0.015076648 0.38593423 -0.23852047 0.14741376
0.039999999 0.0051452224 0.014936788 0.38593423 -0.23852047 0.14741376
0.039999999 0.0059979158 0.014796617 0.38593423 -0.23852047 0.14741376
0.039999999 0.0068525788 0.014656133 0.38593423 -0.23852047 0.14741376
0.039999999 0.0077092224 0.014515336 0.38593423 -0.23852047 0.14741376
0.039999999 0.0085678576 0.014374224 0.38593423 -0.23852047 0.14741376
0.039999999 0.0094284965 0.014232793 0.38593423 -0.23852047 0.14741376
0.039999999 0.010291149 0.014091044 0.38593423 -0.23852047 0.14741376
0.039999999 0.011155828 0.013948973 0.38593423 -0.23852047 0.14741376
0.039999999 0.012022543 0.01380658 0.38593423 -0.23852047 0.14741376
0.039999999 0.012891307 0.013663862 0.38593423 -0.23852047 0.14741376
0.039999999 0.01376213 0.013520817 0.38593423 -0.23852047 0.14741376
0.039999999 0.014635026 0.013377444 0.38593423 -0.23852047 0.14741376
0.039999999 0.015510005 0.013233741 0.38593423 -0.23852047 0.14741376
0.039999999 0.016387079 0.013089705 0.38593423 -0.23852047 0.14741376
0.039999999 0.01726626 0.012945335 0.38593423 -0.23852047 0.14741376
0.039999999 0.01814756 0.012800629 0.38593423 -0.23852047 0.14741376
0.039999999 0.01903099 0.012655586 0.38593423 -0.23852047 0.14741376
0.039999999 0.019916564 0.012510202 0.38593423 -0.23852047 0.14741376
0.039999999 0.020804293 0.012364477 0.38593423 -0.23852047 0.14741376
0.039999999 0.021694191 0.012218407 0.38593423 -0.23852047 0.14741376
0.039999999 0.022586266 0.012071992 0.38593423 -0.23852047 0.14741376
0.039999999 0.023480535 0.01192523 0.38593423 -0.23852047 0.14741376
0.039999999 0.024377009 0.011778116 0.38593423 -0.23852047 0.14741376
0.039999999 0.025275698 0.011630652 0.38593423 -0.23852047 0.14741376
0.039999999 0.026176618 0.011482834 0.38593423 -0.23852047 0.14741376
0.039999999 0.027079782 0.01133466 0.38593423 -0.23852047 0.14741376
0.039999999 0.0279852 0.011186128 0.38593423 -0.23852047 0.14741376
0.039999999 0.028892888 0.011037235 0.38593423 -0.23852047 0.14741376
0.039999999 0.029802857 0.01088798 0.38593423 -0.23852047 0.14741376
0.039999999 0.030715119 0.010738362 0.38593423 -0.23852047 0.14741376
0.039999999 0.031629689 0.010588377 0.38593423 -0.23852047 0.14741376
0.039999999 0.032546584 0.010438023 0.38593423 -0.23852047 0.14741376
0.039999999 0.03346581 0.010287299 0.38593423 -0.23852047 0.14741376
0.039999999 0.034387384 0.010136202 0.38593423 -0.23852047 0.14741376
0.039999999 0.035311319 0.0099847298 0.38593423 -0.23852047 0.14741376
0.039999999 0.036237631 0.0098328814 0.38593423 -0.23852047 0.14741376
0.039999999 0.037166327 0.009680653 0.38593423 -0.23852047 0.14741376
0.039999999 0.03809743 0.0095280427 0.38593423 -0.23852047 0.14741376
0.039999999 0.039030951 0.0093750488 0.38593423 -0.23852047 0.14741376
0.039999999 0.0399669 0.0092216693 0.38593423 -0.23852047 0.14741376
0.039999999 0.040905293 0.0090679005 0.38593423 -0.23852047 0.14741376
0.039999999 0.041846145 0.0089137424 0.38593423 -0.23852047 0.14741376
0.039999999 0.04278947 0.0087591903 0.38593423 -0.23852047 0.14741376
0.039999999 0.043735284 0.0086042434 0.38593423 -0.23852047 0.14741376
0.039999999 0.044683598 0.0084488988 0.38593423 -0.23852047 0.14741376
0.039999999 0.046587795 0.0081370082 0.38593423 -0.23852047 0.14741376
0.039999999 0.047543705 0.0079804566 0.38593423 -0.23852047 0.14741376
0.039999999 0.048502177 0.007823498 0.38593423 -0.23852047 0.14741376
0.039999999 0.049463224 0.0076661306 0.38593423 -0.23852047 0.14741376
0.039999999 0.050426863 0.007508351 0.38593423 -0.23852047 0.14741376
0.039999999 0.05139311 0.007350157 0.38593423 -0.23852047 0.14741376
0.039999999 0.053333484 0.0070325164 0.38593423 -0.23852047 0.14741376
0.023082279 0.068628237 0 0.38593423 -0.23852047 0.14741376
0.023494581 0.069302663 0 0.38593423 -0.23852047 0.14741376
0.023907047 0.069977432 0 0.38593423 -0.23852047 0.14741376
0.039999999 0.05724619 0.0063921539 0.38593423 -0.23852047 0.14741376
0.039999999 0.058231119 0.0062309895 0.38593423 -0.23852047 0.14741376
0.025145428 0.072003841 0 0.38593423 -0.23852047 0.14741376
0.039999999 0.060209189 0.0059073553 0.38593423 -0.23852047 0.14741376
0.039999999 0.061202366 0.0057448796 0.38593423 -0.23852047 0.14741376
0.039999999 0.062198322 0.0055819619 0.38593423 -0.23852047 0.14741376
0.039999999 0.063197076 0.0054185987 0.38593423 -0.23852047 0.14741376
0.039999999 0.06419865 0.0052547883 0.38593423 -0.23852047 0.14741376
0.039999999 0.065203048 0.0050905268 0.38593423 -0.23852047 0.14741376
0.039999999 0.0662103 0.0049258126 0.38593423 -0.23852047 0.14741376
0.039999999 0.06722042 0.0047606421 0.38593423 -0.23852047 0.14741376
0.039999999 0.068233415 0.0045950133 0.38593423 -0.23852047 0.14741376
0.039999999 0.069249317 0.0044289231 0.38593423 -0.23852047 0.14741376
0.039999999 0.070268139 0.0042623682 0.38593423 -0.23852047 0.14741376
0.039999999 0.07128989 0.0040953462 0.38593423 -0.23852047 0.14741376
0.039999999 0.073342279 0.0037598901 0.38593423 -0.23852047 0.14741376
0.039999999 0.074372947 0.0035914499 0.38593423 -0.23852047 0.14741376
0.039999999 0.075406626 0.0034225311 0.38593423 -0.23852047 0.14741376
0.039999999 0.076443329 0.0032531307 0.38593423 -0.23852047 0.14741376
0.039999999 0.077483073 0.0030832458 0.38593423 -0.23852047 0.14741376
0.039999999 0.078525886 0.0029128736 0.38593423 -0.23852047 0.14741376
0.039999999 0.079571776 0.0027420109 0.38593423 -0.23852047 0.14741376
0.00070971862 0 0.0045118202 0.38593423 -0.23852047 0.14741376
0.0021235079 0 0.0048911376 0.38593423 -0.23852047 0.14741376
0 0.0022016871 0.0039563733 0.38593423 -0.23852047 0.14741376
0.0063202884 0 0.0060171895 0.38593423 -0.23852047 0.14741376
0.0077045704 0 0.0063886316 0.38593423 -0.23852047 0.14741376
0.0090816366 2.7755576e-17 0.0067581483 0.38593423 -0.23852047 0.14741376
0 0.006639211 0.0032208429 0.38593423 -0.23852047 0.14741376
0.011814374 2.7755576e-17 0.0074914712 0.38593423 -0.23852047 0.14741376
0.014518993 2.7755576e-17 0.008217291 0.38593423 -0.23852047 0.14741376
0 0.01022271 0.0026270631 0.38593423 -0.23852047 0.14741376
0.018524261 0 0.0092922319 0.38593423 -0.23852047 0.14741376
0.01984581 0 0.0096469326 0.38593423 -0.23852047 0.14741376
0.021160685 0 0.0099998517 0.38593423 -0.23852047 0.14741376
0.022468943 0 0.010351005 0.38593423 -0.23852047 0.14741376
0.02377064 0 0.010700407 0.38593423 -0.23852047 0.14741376
0.02506583 0 0.011048075 0.38593423 -0.23852047 0.14741376
0.026354572 0 0.011394019 0.38593423 -0.23852047 0.14741376
0.027636917 0 0.011738257 0.38593423 -0.23852047 0.14741376
0.028912919 0 0.012080804 0.38593423 -0.23852047 0.14741376
0.030182634 0 0.012421671 0.38593423 -0.23852047 0.14741376
0.03144611 0 0.012760875 0.38593423 -0.23852047 0.14741376
0.032703403 0 0.013098427 0.38593423 -0.23852047 0.14741376
0.033954561 0 0.013434344 0.38593423 -0.23852047 0.14741376
0.035199638 0 0.013768637 0.38593423 -0.23852047 0.14741376
0.036438685 0 0.01410132 0.38593423 -0.23852047 0.14741376
0.037671749 0 0.014432408 0.38593423 -0.23852047 0.14741376
0.038898878 0 0.014761912 0.38593423 -0.23852047 0.14741376
0.039999999 8.2853738e-05 0.015043881 0.38593423 -0.23852047 0.14741376
0.039999999 0.00092441478 0.01490465 0.38593423 -0.23852047 0.14741376
0.039999999 0.0017678827 0.014765114 0.38593423 -0.23852047 0.14741376
0.039999999 0.0026132683 0.01462527 0.38593423 -0.23852047 0.14741376
0.039999999 0.0034605821 0.014485117 0.38593423 -0.23852047 0.14741376
0.039999999 0.0043098349 0.014344653 0.38593423 -0.23852047 0.14741376
0.039999999 0.0051610377 0.014203876 0.38593423 -0.23852047 0.14741376
0.039999999 0.0060142013 0.014062786 0.38593423 -0.23852047 0.14741376
0.039999999 0.0068693366 0.013921379 0.38593423 -0.23852047 0.14741376
0.039999999 0.0077264551 0.013779654 0.38593423 -0.23852047 0.14741376
0.039999999 0.0085855676 0.013637609 0.38593423 -0.23852047 0.14741376
0.039999999 0.0094466852 0.013495243 0.38593423 -0.23852047 0.14741376
0.039999999 0.010309819 0.013352553 0.38593423 -0.23852047 0.14741376
0.039999999 0.011174981 0.013209539 0.38593423 -0.23852047 0.14741376
0.039999999 0.012042182 0.013066197 0.38593423 -0.23852047 0.14741376
0.039999999 0.012911434 0.012922525 0.38593423 -0.23852047 0.14741376
0.039999999 0.013782749 0.012778524 0.38593423 -0.23852047 0.14741376
0.039999999 0.014656137 0.01263419 0.38593423 -0.23852047 0.14741376
0.039999999 0.015531611 0.01248952 0.38593423 -0.23852047 0.14741376
0.039999999 0.016409183 0.012344515 0.38593423 -0.23852047 0.14741376
0.039999999 0.017288864 0.012199171 0.38593423 -0.23852047 0.14741376
0.039999999 0.018170666 0.012053486 0.38593423 -0.23852047 0.14741376
0.039999999 0.019054601 0.011907459 0.38593423 -0.23852047 0.14741376
0.039999999 0.019940682 0.011761088 0.38593423 -0.23852047 0.14741376
0.039999999 0.020828921 0.011614371 0.38593423 -0.23852047 0.14741376
0.039999999 0.021719329 0.011467305 0.38593423 -0.23852047 0.14741376
0.039999999 0.02261192 0.01131989 0.38593423 -0.23852047 0.14741376
0.039999999 0.023506707 0.011172121 0.38593423 -0.23852047 0.14741376
0.039999999 0.024403699 0.011023998 0.38593423 -0.23852047 0.14741376
0.039999999 0.025302911 0.010875519 0.38593423 -0.23852047 0.14741376
0.039999999 0.026204357 0.010726682 0.38593423 -0.23852047 0.14741376
0.039999999 0.027108047 0.010577484 0.38593423 -0.23852047 0.14741376
0.039999999 0.028013995 0.010427923 0.38593423 -0.23852047 0.14741376
0.039999999 0.028922215 0.010277999 0.38593423 -0.23852047 0.14741376
0.039999999 0.029832719 0.010127706 0.38593423 -0.23852047 0.14741376
0.039999999 0.030745521 0.0099770455 0.38593423 -0.23852047 0.14741376
0.039999999 0.031660631 0.0098260129 0.38593423 -0.23852047 0.14741376
0.039999999 0.032578066 0.0096746078 0.38593423 -0.23852047 0.14741376
0.039999999 0.03349784 0.0095228273 0.38593423 -0.23852047 0.14741376
0.039999999 0.034419961 0.0093706688 0.38593423 -0.23852047 0.14741376
0.016924979 0.053612195 0 0.38593423 -0.23852047 0.14741376
0.039999999 0.036271315 0.0090652108 0.38593423 -0.23852047 0.14741376
0.039999999 0.037200574 0.0089119067 0.38593423 -0.23852047 0.14741376
0.039999999 0.038132235 0.0087582162 0.38593423 -0.23852047 0.14741376
0.039999999 0.039066315 0.0086041372 0.38593423 -0.23852047 0.14741376
0.039999999 0.04000283 0.0084496662 0.38593423 -0.23852047 0.14741376
0.039999999 0.040941793 0.0082948031 0.38593423 -0.23852047 0.14741376
0.039999999 0.041883219 0.0081395432 0.38593423 -0.23852047 0.14741376
0.039999999 0.042827118 0.0079838866 0.38593423 -0.23852047 0.14741376
0.039999999 0.04377351 0.0078278286 0.38593423 -0.23852047 0.14741376
0.039999999 0.044722408 0.0076713688 0.38593423 -0.23852047 0.14741376
0.039999999 0.045673825 0.0075145038 0.38593423 -0.23852047 0.14741376
0.039999999 0.046627775 0.0073572309 0.38593423 -0.23852047 0.14741376
0.039999999 0.047584273 0.0071995487 0.38593423 -0.23852047 0.14741376
0.039999999 0.048543338 0.0070414543 0.38593423 -0.23852047 0.14741376
0.039999999 0.049504984 0.0068829451 0.38593423 -0.23852047 0.14741376
0.023466682 0.064280979 0 0.38593423 -0.23852047 0.14741376
0.023876749 0.064950317 0 0.38593423 -0.23852047 0.14741376
0.024286972 0.06561999 0 0.38593423 -0.23852047 0.14741376
0.039999999 0.053377658 0.0062447125 0.38593423 -0.23852047 0.14741376
0.039999999 0.054352429 0.0060840929 0.38593423 -0.23852047 0.14741376
0.039999999 0.05532987 0.0059230435 0.38593423 -0.23852047 0.14741376
0.02592947 0.068301938 0 0.38593423 -0.23852047 0.14741376
0.026340505 0.068973266 0 0.38593423 -0.23852047 0.14741376
0.039999999 0.058278389 0.0054372917 0.38593423 -0.23852047 0.14741376
0.039999999 0.059266683 0.0052744979 0.38593423 -0.23852047 0.14741376
0.039999999 0.060257725 0.0051112617 0.38593423 -0.23852047 0.14741376
0.039999999 0.061251536 0.0049475799 0.38593423 -0.23852047 0.14741376
0.039999999 0.062248133 0.0047834502 0.38593423 -0.23852047 0.14741376
0.039999999 0.063247532 0.0046188696 0.38593423 -0.23852047 0.14741376
0.039999999 0.064249747 0.004453836 0.38593423 -0.23852047 0.14741376
0.029635064 0.074356563 0 0.38593423 -0.23852047 0.14741376
0.030047704 0.075031109 0 0.38593423 -0.23852047 0.14741376
0.039999999 0.067273483 0.0039559864 0.38593423 -0.23852047 0.14741376
0.039999999 0.068287142 0.0037891113 0.38593423 -0.23852047 0.14741376
0.039999999 0.069303706 0.0036217689 0.38593423 -0.23852047 0.14741376
0.039999999 0.070323192 0.0034539562 0.38593423 -0.23852047 0.14741376
0.039999999 0.07134562 0.0032856709 0.38593423 -0.23852047 0.14741376
0.039999999 0.072371006 0.0031169094 0.38593423 -0.23852047 0.14741376
0.039999999 0.073399365 0.0029476695 0.38593423 -0.23852047 0.14741376
0.039999999 0.074430719 0.0027779476 0.38593423 -0.23852047 0.14741376
0.039999999 0.075465083 0.0026077412 0.38593423 -0.23852047 0.14741376
0.039999999 0.07650248 0.0024370472 0.38593423 -0.23852047 0.14741376
0.039999999 0.077542916 0.0022658627 0.38593423 -0.23852047 0.14741376
0.039999999 0.078586429 0.0020941843 0.38593423 -0.23852047 0.14741376
0.039999999 0.07963302 0.0019220095 0.38593423 -0.23852047 0.14741376
0.00071007956 2.7755576e-17 0.0037290214 0.38593423 -0.23852047 0.14741376
0 0.0013203343 0.003317351 0.38593423 -0.23852047 0.14741376
0 0.0022028112 0.0031702407 0.38593423 -0.23852047 0.14741376
0.0049312143 0 0.0048677693 0.38593423 -0.23852047 0.14741376
0.0063234689 0 0.0052433792 0.38593423 -0.23852047 0.14741376
0.0077084373 0 0.0056170318 0.38593423 -0.23852047 0.14741376
0 0.0057509667 0.0025788457 0.38593423 -0.23852047 0.14741376
0.010456769 2.7755576e-17 0.0063585336 0.38593423 -0.23852047 0.14741376
0.011820257 0 0.0067264168 0.38593423 -0.23852047 0.14741376
0.013176709 0 0.0070924098 0.38593423 -0.23852047 0.14741376
0.014526187 0 0.0074565294 0.38593423 -0.23852047 0.14741376
0.015868749 0 0.007818792 0.38593423 -0.23852047 0.14741376
0.017204458 0 0.0081792129 0.38593423 -0.23852047 0.14741376
0.01853337 0 0.0085378084 0.38593423 -0.23852047 0.14741376
0 0.012936982 0.0013815283 0.38593423 -0.23852047 0.14741376
0.021171037 0 0.0092495857 0.38593423 -0.23852047 0.14741376
0.022479907 0 0.0096027991 0.38593423 -0.23852047 0.14741376
0.023782209 0 0.0099542476 0.38593423 -0.23852047 0.14741376
0.025078001 0 0.010303947 0.38593423 -0.23852047 0.14741376
0.026367335 0 0.010651913 0.38593423 -0.23852047 0.14741376
0.027650269 0 0.010998159 0.38593423 -0.23852047 0.14741376
0.028926853 0 0.0113427 0.38593423 -0.23852047 0.14741376
0.030197142 0 0.01168555 0.38593423 -0.23852047 0.14741376
0.03146119 0 0.012026723 0.38593423 -0.23852047 0.14741376
0.032719046 0 0.012366234 0.38593423 -0.23852047 0.14741376
0.033970766 0 0.012704097 0.38593423 -0.23852047 0.14741376
0.035216395 0 0.013040324 0.38593423 -0.23852047 0.14741376
0.036455989 0 0.01337493 0.38593423 -0.23852047 0.14741376
0.037689593 0 0.013707927 0.38593423 -0.23852047 0.14741376
0.038917262 0 0.01403933 0.38593423 -0.23852047 0.14741376
0.039999999 9.590535e-05 0.014315655 0.38593423 -0.23852047 0.14741376
0.039999999 0.00093792443 0.014175528 0.38593423 -0.23852047 0.14741376
0.039999999 0.0017818526 0.01403509 0.38593423 -0.23852047 0.14741376
0.039999999 0.0026277003 0.013894341 0.38593423 -0.23852047 0.14741376
0.039999999 0.0034754784 0.013753279 0.38593423 -0.23852047 0.14741376
0.039999999 0.004325198 0.013611902 0.38593423 -0.23852047 0.14741376
0.039999999 0.0051768692 0.013470208 0.38593423 -0.23852047 0.14741376
0.039999999 0.0060305037 0.013328196 0.38593423 -0.23852047 0.14741376
0.039999999 0.006886112 0.013185863 0.38593423 -0.23852047 0.14741376
0.039999999 0.0077437055 0.013043209 0.38593423 -0.23852047 0.14741376
0.039999999 0.0086032953 0.012900231 0.38593423 -0.23852047 0.14741376
0.039999999 0.0094648926 0.012756927 0.38593423 -0.23852047 0.14741376
0.039999999 0.010328508 0.012613296 0.38593423 -0.23852047 0.14741376
0.039999999 0.011194155 0.012469335 0.38593423 -0.23852047 0.14741376
0.039999999 0.012061842 0.012325042 0.38593423 -0.23852047 0.14741376
0.039999999 0.012931583 0.012180416 0.38593423 -0.23852047 0.14741376
0.039999999 0.013803388 0.012035456 0.38593423 -0.23852047 0.14741376
0.039999999 0.014677269 0.011890157 0.38593423 -0.23852047 0.14741376
0.039999999 0.01555324 0.011744521 0.38593423 -0.23852047 0.14741376
0.039999999 0.016431309 0.011598543 0.38593423 -0.23852047 0.14741376
0.039999999 0.017311491 0.011452223 0.38593423 -0.23852047 0.14741376
0.039999999 0.018193794 0.011305558 0.38593423 -0.23852047 0.14741376
0.039999999 0.019078236 0.011158546 0.38593423 -0.23852047 0.14741376
0.039999999 0.019964825 0.011011185 0.38593423 -0.23852047 0.14741376
0.039999999 0.020853573 0.010863474 0.38593423 -0.23852047 0.14741376
0.039999999 0.021744495 0.010715409 0.38593423 -0.23852047 0.14741376
0.039999999 0.0226376 0.010566991 0.38593423 -0.23852047 0.14741376
0.039999999 0.023532905 0.010418215 0.38593423 -0.23852047 0.14741376
0.039999999 0.024430417 0.01026908 0.38593423 -0.23852047 0.14741376
0.039999999 0.025330152 0.010119584 0.38593423 -0.23852047 0.14741376
0.039999999 0.026232123 0.0099697262 0.38593423 -0.23852047 0.14741376
0.039999999 0.027136343 0.009819502 0.38593423 -0.23852047 0.14741376
0.039999999 0.028042821 0.0096689109 0.38593423 -0.23852047 0.14741376
0.039999999 0.028951574 0.0095179509 0.38593423 -0.23852047 0.14741376
0.016528061 0.04807264 0 0.38593423 -0.23852047 0.14741376
0.039999999 0.030775953 0.0092149144 0.38593423 -0.23852047 0.14741376
0.039999999 0.031691607 0.0090628332 0.38593423 -0.23852047 0.14741376
0.039999999 0.032609586 0.0089103738 0.38593423 -0.23852047 0.14741376
0.039999999 0.033529904 0.0087575344 0.38593423 -0.23852047 0.14741376
0.039999999 0.03445258 0.0086043123 0.38593423 -0.23852047 0.14741376
0.039999999 0.035377618 0.0084507065 0.38593423 -0.23852047 0.14741376
0.039999999 0.036305036 0.0082967132 0.38593423 -0.23852047 0.14741376
0.039999999 0.037234854 0.0081423307 0.38593423 -0.23852047 0.14741376
0.039999999 0.038167074 0.007987557 0.38593423 -0.23852047 0.14741376
0.039999999 0.040038802 0.0076768268 0.38593423 -0.23852047 0.14741376
0.039999999 0.040978335 0.0075208652 0.38593423 -0.23852047 0.14741376
0.039999999 0.041920334 0.0073645031 0.38593423 -0.23852047 0.14741376
0.022216147 0.057330318 0 0.38593423 -0.23852047 0.14741376
0.039999999 0.043811779 0.0070505678 0.38593423 -0.23852047 0.14741376
0.039999999 0.044761255 0.0068929894 0.38593423 -0.23852047 0.14741376
0.039999999 0.045713257 0.0067350012 0.38593423 -0.23852047 0.14741376
0.023846086 0.059985086 0 0.38593423 -0.23852047 0.14741376
0.039999999 0.047624886 0.0064177848 0.38593423 -0.23852047 0.14741376
0.024661938 0.061314233 0 0.38593423 -0.23852047 0.14741376
0.039999999 0.049546786 0.0060988986 0.38593423 -0.23852047 0.14741376
0.039999999 0.050511625 0.0059388233 0.38593423 -0.23852047 0.14741376
0.039999999 0.051479079 0.0057783229 0.38593423 -0.23852047 0.14741376
0.039999999 0.052449159 0.0056173955 0.38593423 -0.23852047 0.14741376
0.02670428 0.064642467 0 0.38593423 -0.23852047 0.14741376
0.039999999 0.054397266 0.0052942475 0.38593423 -0.23852047 0.14741376
0.039999999 0.055375326 0.0051320223 0.38593423 -0.23852047 0.14741376
0.039999999 0.056356076 0.0049693598 0.38593423 -0.23852047 0.14741376
0.039999999 0.057339534 0.0048062564 0.38593423 -0.23852047 0.14741376
0.039999999 0.058325715 0.0046427106 0.38593423 -0.23852047 0.14741376
0.039999999 0.059314635 0.0044787191 0.38593423 -0.23852047 0.14741376
0.039999999 0.060306311 0.0043142792 0.38593423 -0.23852047 0.14741376
0.039999999 0.061300758 0.0041493885 0.38593423 -0.23852047 0.14741376
0.030390991 0.070653826 0 0.38593423 -0.23852047 0.14741376
0.039999999 0.063298039 0.0038182437 0.38593423 -0.23852047 0.14741376
0.039999999 0.064300902 0.003651984 0.38593423 -0.23852047 0.14741376
0.039999999 0.065306604 0.0034852626 0.38593423 -0.23852047 0.14741376
0.039999999 0.066315167 0.0033180765 0.38593423 -0.23852047 0.14741376
0.039999999 0.067326598 0.0031504228 0.38593423 -0.23852047 0.14741376
0.039999999 0.068340927 0.0029822988 0.38593423 -0.23852047 0.14741376
0.039999999 0.069358155 0.0028137018 0.38593423 -0.23852047 0.14741376
0.039999999 0.070378311 0.0026446288 0.38593423 -0.23852047 0.14741376
0.039999999 0.071401417 0.0024750768 0.38593423 -0.23852047 0.14741376
0.039999999 0.072427474 0.0023050429 0.38593423 -0.23852047 0.14741376
0.039999999 0.073456518 0.0021345245 0.38593423 -0.23852047 0.14741376
0.039999999 0.074488558 0.0019635183 0.38593423 -0.23852047 0.14741376
0.035742931 0.079388238 0 0.38593423 -0.23852047 0.14741376
0.039999999 0.076561697 0.001620031 0.38593423 -0.23852047 0.14741376
0.039999999 0.07864704 0.0012745567 0.38593423 -0.23852047 0.14741376
0.039999999 0.079694346 0.0011010669 0.38593423 -0.23852047 0.14741376
0.00071044086 0 0.0029454434 0.38593423 -0.23852047 0.14741376
0.0021256632 2.7755576e-17 0.0033293038 0.38593423 -0.23852047 0.14741376
0.0035333952 0 0.0037111391 0.38593423 -0.23852047 0.14741376
0 0.0030886815 0.0022350326 0.38593423 -0.23852047 0.14741376
0.0063266526 0 0.0044688066 0.38593423 -0.23852047 0.14741376
0.0077123083 0 0.0048446739 0.38593423 -0.23852047 0.14741376
0.0090907337 0 0.0052185864 0.38593423 -0.23852047 0.14741376
0.010461992 2.7755576e-17 0.0055905618 0.38593423 -0.23852047 0.14741376
0.011826146 0 0.0059606167 0.38593423 -0.23852047 0.14741376
0.013183258 0 0.0063287676 0.38593423 -0.23852047 0.14741376
0.014533387 0 0.0066950307 0.38593423 -0.23852047 0.14741376
0 0.010233252 0.0010377963 0.38593423 -0.23852047 0.14741376
0.017212942 0 0.0074219611 0.38593423 -0.23852047 0.14741376
0.018542485 0 0.0077826595 0.38593423 -0.23852047 0.14741376
0.019865286 2.7755576e-17 0.0081415344 0.38593423 -0.23852047 0.14741376
0.021181397 0 0.0084986025 0.38593423 -0.23852047 0.14741376
0.02249088 0 0.0088538779 0.38593423 -0.23852047 0.14741376
0.02379379 0 0.0092073763 0.38593423 -0.23852047 0.14741376
0.025090182 0 0.0095591135 0.38593423 -0.23852047 0.14741376
0.026380111 0 0.0099091027 0.38593423 -0.23852047 0.14741376
0.027663631 0 0.010257361 0.38593423 -0.23852047 0.14741376
0.028940799 0 0.0106039 0.38593423 -0.23852047 0.14741376
0.030211665 0 0.010948737 0.38593423 -0.23852047 0.14741376
0.031476282 0 0.011291885 0.38593423 -0.23852047 0.14741376
0.032734703 0 0.011633358 0.38593423 -0.23852047 0.14741376
0.033986982 0 0.01197317 0.38593423 -0.23852047 0.14741376
0.035233166 0 0.012311334 0.38593423 -0.23852047 0.14741376
0.036473308 0 0.012647865 0.38593423 -0.23852047 0.14741376
0.037707455 0 0.012982776 0.38593423 -0.23852047 0.14741376
0.038935661 0 0.013316081 0.38593423 -0.23852047 0.14741376
0.039999999 0.00010897041 0.013586679 0.38593423 -0.23852047 0.14741376
0.039999999 0.00095144811 0.013445653 0.38593423 -0.23852047 0.14741376
0.039999999 0.0017958368 0.013304313 0.38593423 -0.23852047 0.14741376
0.039999999 0.0026421472 0.013162657 0.38593423 -0.23852047 0.14741376
0.039999999 0.0034903903 0.013020683 0.38593423 -0.23852047 0.14741376
0.039999999 0.0043405765 0.012878392 0.38593423 -0.23852047 0.14741376
0.039999999 0.0051927171 0.012735778 0.38593423 -0.23852047 0.14741376
0.039999999 0.0060468228 0.012592844 0.38593423 -0.23852047 0.14741376
0.039999999 0.0069029047 0.012449584 0.38593423 -0.23852047 0.14741376
0.039999999 0.0077609741 0.012305998 0.38593423 -0.23852047 0.14741376
0.039999999 0.0086210417 0.012162084 0.38593423 -0.23852047 0.14741376
0.039999999 0.0094831185 0.012017841 0.38593423 -0.23852047 0.14741376
0.039999999 0.010347217 0.011873265 0.38593423 -0.23852047 0.14741376
0.039999999 0.011213348 0.011728355 0.38593423 -0.23852047 0.14741376
0.039999999 0.012081522 0.01158311 0.38593423 -0.23852047 0.14741376
0.039999999 0.012951752 0.011437528 0.38593423 -0.23852047 0.14741376
0.039999999 0.013824049 0.011291606 0.38593423 -0.23852047 0.14741376
0.039999999 0.014698424 0.011145343 0.38593423 -0.23852047 0.14741376
0.039999999 0.01557489 0.010998737 0.38593423 -0.23852047 0.14741376
0.039999999 0.016453458 0.010851786 0.38593423 -0.23852047 0.14741376
0.039999999 0.017334141 0.010704487 0.38593423 -0.23852047 0.14741376
0.039999999 0.018216949 0.010556838 0.38593423 -0.23852047 0.14741376
0.039999999 0.019101895 0.010408839 0.38593423 -0.23852047 0.14741376
0.039999999 0.019988993 0.010260487 0.38593423 -0.23852047 0.14741376
0.039999999 0.020878254 0.01011178 0.38593423 -0.23852047 0.14741376
0.039999999 0.021769688 0.0099627152 0.38593423 -0.23852047 0.14741376
0.039999999 0.022663308 0.009813291 0.38593423 -0.23852047 0.14741376
0.039999999 0.023559131 0.0096635055 0.38593423 -0.23852047 0.14741376
0.039999999 0.024457164 0.0095133567 0.38593423 -0.23852047 0.14741376
0.039999999 0.025357423 0.0093628429 0.38593423 -0.23852047 0.14741376
0.039999999 0.02625992 0.0092119612 0.38593423 -0.23852047 0.14741376
0.039999999 0.027164668 0.0090607097 0.38593423 -0.23852047 0.14741376
0.039999999 0.028071677 0.0089090858 0.38593423 -0.23852047 0.14741376
0.039999999 0.028980965 0.0087570883 0.38593423 -0.23852047 0.14741376
0.039999999 0.029892541 0.0086047146 0.38593423 -0.23852047 0.14741376
0.039999999 0.03080642 0.0084519628 0.38593423 -0.23852047 0.14741376
0.039999999 0.031722616 0.0082988301 0.38593423 -0.23852047 0.14741376
0.039999999 0.032641139 0.0081453146 0.38593423 -0.23852047 0.14741376
0.039999999 0.033562005 0.0079914145 0.38593423 -0.23852047 0.14741376
0.039999999 0.034485228 0.0078371279 0.38593423 -0.23852047 0.14741376
0.039999999 0.035410821 0.0076824506 0.38593423 -0.23852047 0.14741376
0.039999999 0.036338799 0.0075273821 0.38593423 -0.23852047 0.14741376
0.039999999 0.037269171 0.0073719197 0.38593423 -0.23852047 0.14741376
0.039999999 0.038201954 0.0072160605 0.38593423 -0.23852047 0.14741376
0.023004601 0.053761918 0 0.38593423 -0.23852047 0.14741376
0.039999999 0.041014917 0.006746083 0.38593423 -0.23852047 0.14741376
0.039999999 0.041957486 0.0065886159 0.38593423 -0.23852047 0.14741376
0.039999999 0.04290254 0.0064307405 0.38593423 -0.23852047 0.14741376
0.039999999 0.04385009 0.0062724547 0.38593423 -0.23852047 0.14741376
0.039999999 0.044800151 0.0061137564 0.38593423 -0.23852047 0.14741376
0.039999999 0.045752738 0.0059546428 0.38593423 -0.23852047 0.14741376
0.039999999 0.046707865 0.0057951114 0.38593423 -0.23852047 0.14741376
0.039999999 0.047665544 0.0056351596 0.38593423 -0.23852047 0.14741376
0.039999999 0.048625797 0.0054747853 0.38593423 -0.23852047 0.14741376
0.027063388 0.060362812 0 0.38593423 -0.23852047 0.14741376
0.039999999 0.050554078 0.0051527591 0.38593423 -0.23852047 0.14741376
0.027876979 0.061686471 0 0.38593423 -0.23852047 0.14741376
0.039999999 0.052492823 0.0048290119 0.38593423 -0.23852047 0.14741376
0.039999999 0.053466156 0.0046664868 0.38593423 -0.23852047 0.14741376
0.039999999 0.054442156 0.0045035239 0.38593423 -0.23852047 0.14741376
0.039999999 0.055420831 0.0043401201 0.38593423 -0.23852047 0.14741376
0.039999999 0.056402203 0.0041762735 0.38593423 -0.23852047 0.14741376
0.039999999 0.057386283 0.0040119812 0.38593423 -0.23852047 0.14741376
0.039999999 0.058373094 0.0038472405 0.38593423 -0.23852047 0.14741376
0.039999999 0.059362642 0.0036820485 0.38593423 -0.23852047 0.14741376
0.039999999 0.060354955 0.0035164028 0.38593423 -0.23852047 0.14741376
0.039999999 0.06135004 0.0033503007 0.38593423 -0.23852047 0.14741376
0.039999999 0.062347919 0.0031837393 0.38593423 -0.23852047 0.14741376
0.039999999 0.063348606 0.0030167159 0.38593423 -0.23852047 0.14741376
0.033181969 0.070321448 0 0.38593423 -0.23852047 0.14741376
0.033591323 0.070988044 0 0.38593423 -0.23852047 0.14741376
0.03400087 0.071655005 0 0.38593423 -0.23852047 0.14741376
0.034410615 0.072322324 0 0.38593423 -0.23852047 0.14741376
0.039999999 0.068394773 0.0021745707 0.38593423 -0.23852047 0.14741376
0.039999999 0.069412671 0.0020047163 0.38593423 -0.23852047 0.14741376
0.039999999 0.070433497 0.0018343799 0.38593423 -0.23852047 0.14741376
0.039999999 0.071457267 0.0016635587 0.38593423 -0.23852047 0.14741376
0.036462344 0.075664461 0 0.38593423 -0.23852047 0.14741376
0.039999999 0.073513731 0.00132045 0.38593423 -0.23852047 0.14741376
0.039999999 0.074546456 0.0011481565 0.38593423 -0.23852047 0.14741376
0.037695874 0.077674307 0 0.38593423 -0.23852047 0.14741376
0.039999999 0.076620981 0.00080207636 0.38593423 -0.23852047 0.14741376
0.039999999 0.077662818 0.0006282836 0.38593423 -0.23852047 0.14741376
0.039999999 0.078707725 0.00045398495 0.38593423 -0.23852047 0.14741376
0.039999999 0.079755731 0.00027917724 0.38593423 -0.23852047 0.14741376
0.00071080256 0 0.0021610812 0.38593423 -0.23852047 0.14741376
0 0.0013216824 0.0017444894 0.38593423 -0.23852047 0.14741376
0.0035351845 0 0.002931318 0.38593423 -0.23852047 0.14741376
0.004936195 0 0.0033133945 0.38593423 -0.23852047 0.14741376
0.0063298396 0 0.0036934672 0.38593423 -0.23852047 0.14741376
0 0.0048661549 0.0011471695 0.38593423 -0.23852047 0.14741376
0.0090952888 0 0.0044476702 0.38593423 -0.23852047 0.14741376
0 0.0066494429 0.00084667635 0.38593423 -0.23852047 0.14741376
0.011832041 2.7755576e-17 0.0051940666 0.38593423 -0.23852047 0.14741376
0.013189812 0 0.005564379 0.38593423 -0.23852047 0.14741376
0 0.009338419 0.00039360693 0.38593423 -0.23852047 0.14741376
0.015884448 0 0.0062993169 0.38593423 -0.23852047 0.14741376
0.017221434 2.7755576e-17 0.0066639748 0.38593423 -0.23852047 0.14741376
0.01855161 2.7755576e-17 0.0070267799 0.38593423 -0.23852047 0.14741376
0.019875037 0 0.0073877489 0.38593423 -0.23852047 0.14741376
0.021191768 0 0.0077468967 0.38593423 -0.23852047 0.14741376
0.022501865 0 0.0081042387 0.38593423 -0.23852047 0.14741376
0.023805382 0 0.0084597915 0.38593423 -0.23852047 0.14741376
0.025102375 0 0.0088135684 0.38593423 -0.23852047 0.14741376
0.026392898 0 0.009165586 0.38593423 -0.23852047 0.14741376
0.027677009 0 0.0095158592 0.38593423 -0.23852047 0.14741376
0.028954757 0 0.0098644011 0.38593423 -0.23852047 0.14741376
0.030226201 0 0.010211228 0.38593423 -0.23852047 0.14741376
0.031491391 0 0.010556353 0.38593423 -0.23852047 0.14741376
0.032750379 0 0.010899791 0.38593423 -0.23852047 0.14741376
0.034003217 0 0.011241556 0.38593423 -0.23852047 0.14741376
0.035249952 0 0.011581662 0.38593423 -0.23852047 0.14741376
0.036490645 0 0.011920122 0.38593423 -0.23852047 0.14741376
0.037725337 0 0.01225695 0.38593423 -0.23852047 0.14741376
0.038954079 0 0.01259216 0.38593423 -0.23852047 0.14741376
0.039999999 0.00012204901 0.012856948 0.38593423 -0.23852047 0.14741376
0.039999999 0.00096498575 0.012715021 0.38593423 -0.23852047 0.14741376
0.039999999 0.0018098357 0.012572776 0.38593423 -0.23852047 0.14741376
0.039999999 0.0026566093 0.012430212 0.38593423 -0.23852047 0.14741376
0.039999999 0.0035053177 0.012287325 0.38593423 -0.23852047 0.14741376
0.039999999 0.0043559717 0.012144117 0.38593423 -0.23852047 0.14741376
0.039999999 0.0052085817 0.012000583 0.38593423 -0.23852047 0.14741376
0.039999999 0.0060631591 0.011856723 0.38593423 -0.23852047 0.14741376
0.039999999 0.0069197151 0.011712533 0.38593423 -0.23852047 0.14741376
0.039999999 0.0077782604 0.011568015 0.38593423 -0.23852047 0.14741376
0.039999999 0.0086388066 0.011423163 0.38593423 -0.23852047 0.14741376
0.039999999 0.009501365 0.011277977 0.38593423 -0.23852047 0.14741376
0.039999999 0.010365946 0.011132456 0.38593423 -0.23852047 0.14741376
0.039999999 0.011232561 0.010986596 0.38593423 -0.23852047 0.14741376
0.039999999 0.012101224 0.010840397 0.38593423 -0.23852047 0.14741376
0.039999999 0.012971943 0.010693857 0.38593423 -0.23852047 0.14741376
0.039999999 0.013844732 0.010546972 0.38593423 -0.23852047 0.14741376
0.039999999 0.014719602 0.010399741 0.38593423 -0.23852047 0.14741376
0.039999999 0.015596565 0.010252164 0.38593423 -0.23852047 0.14741376
0.039999999 0.016475633 0.010104236 0.38593423 -0.23852047 0.14741376
0.039999999 0.017356817 0.0099559566 0.38593423 -0.23852047 0.14741376
0.039999999 0.018240128 0.009807324 0.38593423 -0.23852047 0.14741376
0.039999999 0.019125581 0.0096583357 0.38593423 -0.23852047 0.14741376
0.039999999 0.020013187 0.0095089898 0.38593423 -0.23852047 0.14741376
0.039999999 0.020902958 0.0093592843 0.38593423 -0.23852047 0.14741376
0.039999999 0.021794906 0.0092092175 0.38593423 -0.23852047 0.14741376
0.039999999 0.022689044 0.0090587856 0.38593423 -0.23852047 0.14741376
0.039999999 0.023585385 0.0089079887 0.38593423 -0.23852047 0.14741376
0.039999999 0.02448394 0.0087568238 0.38593423 -0.23852047 0.14741376
0.039999999 0.025384724 0.0086052893 0.38593423 -0.23852047 0.14741376
0.039999999 0.026287746 0.0084533822 0.38593423 -0.23852047 0.14741376
0.039999999 0.027193023 0.0083011007 0.38593423 -0.23852047 0.14741376
0.039999999 0.028100565 0.008148442 0.38593423 -0.23852047 0.14741376
0.039999999 0.029010387 0.0079954052 0.38593423 -0.23852047 0.14741376
0.039999999 0.0299225 0.0078419875 0.38593423 -0.23852047 0.14741376
0.039999999 0.030836919 0.0076881866 0.38593423 -0.23852047 0.14741376
0.039999999 0.031753656 0.0075340006 0.38593423 -0.23852047 0.14741376
0.039999999 0.032672726 0.0073794271 0.38593423 -0.23852047 0.14741376
0.039999999 0.033594139 0.0072244639 0.38593423 -0.23852047 0.14741376
0.022575419 0.048270758 0 0.38593423 -0.23852047 0.14741376
0.039999999 0.035444062 0.0069133588 0.38593423 -0.23852047 0.14741376
0.039999999 0.036372595 0.0067572123 0.38593423 -0.23852047 0.14741376
0.039999999 0.037303526 0.0066006673 0.38593423 -0.23852047 0.14741376
0.039999999 0.038236871 0.0064437212 0.38593423 -0.23852047 0.14741376
0.039999999 0.039172649 0.006286371 0.38593423 -0.23852047 0.14741376
0.039999999 0.040110864 0.0061286152 0.38593423 -0.23852047 0.14741376
0.039999999 0.041051541 0.005970451 0.38593423 -0.23852047 0.14741376
0.039999999 0.041994683 0.0058118762 0.38593423 -0.23852047 0.14741376
0.039999999 0.042940311 0.0056528887 0.38593423 -0.23852047 0.14741376
0.039999999 0.043888442 0.0054934849 0.38593423 -0.23852047 0.14741376
0.039999999 0.044839084 0.0053336639 0.38593423 -0.23852047 0.14741376
0.039999999 0.045792259 0.0051734219 0.38593423 -0.23852047 0.14741376
0.027822526 0.056789909 0 0.38593423 -0.23852047 0.14741376
0.039999999 0.04770625 0.0048516677 0.38593423 -0.23852047 0.14741376
0.039999999 0.048667096 0.0046901498 0.38593423 -0.23852047 0.14741376
0.039999999 0.049630534 0.0045282017 0.38593423 -0.23852047 0.14741376
0.039999999 0.050596576 0.0043658209 0.38593423 -0.23852047 0.14741376
0.039999999 0.051565237 0.0042030043 0.38593423 -0.23852047 0.14741376
0.039999999 0.052536532 0.0040397495 0.38593423 -0.23852047 0.14741376
0.039999999 0.05351048 0.0038760544 0.38593423 -0.23852047 0.14741376
0.039999999 0.054487094 0.0037119158 0.38593423 -0.23852047 0.14741376
0.039999999 0.055466387 0.0035473313 0.38593423 -0.23852047 0.14741376
0.039999999 0.056448381 0.0033822984 0.38593423 -0.23852047 0.14741376
0.039999999 0.057433087 0.003216814 0.38593423 -0.23852047 0.14741376
0.039999999 0.058420524 0.0030508759 0.38593423 -0.23852047 0.14741376
0.039999999 0.059410706 0.0028844811 0.38593423 -0.23852047 0.14741376
0.039999999 0.060403652 0.0027176267 0.38593423 -0.23852047 0.14741376
0.033909854 0.06667944 0 0.38593423 -0.23852047 0.14741376
0.039999999 0.062397897 0.0023825292 0.38593423 -0.23852047 0.14741376
0.039999999 0.063399225 0.0022142804 0.38593423 -0.23852047 0.14741376
0.039999999 0.064403392 0.0020455609 0.38593423 -0.23852047 0.14741376
0.039999999 0.065410398 0.0018763682 0.38593423 -0.23852047 0.14741376
0.035947993 0.06999211 0 0.38593423 -0.23852047 0.14741376
0.036356211 0.070655689 0 0.38593423 -0.23852047 0.14741376
0.039999999 0.068448678 0.0013659215 0.38593423 -0.23852047 0.14741376
0.039999999 0.069467239 0.0011948068 0.38593423 -0.23852047 0.14741376
0.039999999 0.070488743 0.0010232042 0.38593423 -0.23852047 0.14741376
0.039999999 0.071513191 0.00085111085 0.38593423 -0.23852047 0.14741376
0.039999999 0.072540611 0.00067852385 0.38593423 -0.23852047 0.14741376
0.039999999 0.073571011 0.00050544005 0.38593423 -0.23852047 0.14741376
0.039999999 0.074604422 0.00033185648 0.38593423 -0.23852047 0.14741376
0.039999999 0.075640857 0.00015777012 0.38593423 -0.23852047 0.14741376
0 0.00044033528 0.0011063276 0.38593423 -0.23852047 0.14741376
0.0021278227 0 0.0017643505 0.38593423 -0.23852047 0.14741376
0.0049386891 2.7755576e-17 0.0025350456 0.38593423 -0.23852047 0.14741376
0.0063330294 0 0.0029173559 0.38593423 -0.23852047 0.14741376
0 0.0048686508 0.00035598487 0.38593423 -0.23852047 0.14741376
0.0090998486 2.7755576e-17 0.0036759907 0.38593423 -0.23852047 0.14741376
0.010472454 0 0.0040523503 0.38593423 -0.23852047 0.14741376
0.00025622625 0.007384399 0 0.38593423 -0.23852047 0.14741376
0.00065306271 0.0080266502 0 0.38593423 -0.23852047 0.14741376
0.0010499102 0.0086689359 0 0.38593423 -0.23852047 0.14741376
0.01589231 2.7755576e-17 0.0055384673 0.38593423 -0.23852047 0.14741376
0.017229935 2.7755576e-17 0.0059052496 0.38593423 -0.23852047 0.14741376
0.0022405391 0.010596038 0 0.38593423 -0.23852047 0.14741376
0.019884797 2.7755576e-17 0.0066332319 0.38593423 -0.23852047 0.14741376
0.0030343831 0.011881007 0 0.38593423 -0.23852047 0.14741376
0.022512861 0 0.0073538763 0.38593423 -0.23852047 0.14741376
0.023816984 0 0.0077114864 0.38593423 -0.23852047 0.14741376
0.025114579 0 0.008067308 0.38593423 -0.23852047 0.14741376
0.026405698 0 0.0084213577 0.38593423 -0.23852047 0.14741376
0.027690398 0 0.0087736491 0.38593423 -0.23852047 0.14741376
0.028968731 0 0.009124198 0.38593423 -0.23852047 0.14741376
0.030240752 0 0.0094730174 0.38593423 -0.23852047 0.14741376
0.031506512 0 0.0098201241 0.38593423 -0.23852047 0.14741376
0.032766066 0 0.010165531 0.38593423 -0.23852047 0.14741376
0.034019463 0 0.010509253 0.38593423 -0.23852047 0.14741376
0.035266757 0 0.010851303 0.38593423 -0.23852047 0.14741376
0.036507998 0 0.011191696 0.38593423 -0.23852047 0.14741376
0.037743233 0 0.011530445 0.38593423 -0.23852047 0.14741376
0.038972512 0 0.011867563 0.38593423 -0.23852047 0.14741376
0.039999999 0.00013514124 0.012126457 0.38593423 -0.23852047 0.14741376
0.039999999 0.00097853749 0.011983627 0.38593423 -0.23852047 0.14741376
0.039999999 0.001823849 0.011840476 0.38593423 -0.23852047 0.14741376
0.039999999 0.0026710865 0.011697 0.38593423 -0.23852047 0.14741376
0.039999999 0.0035202608 0.0115532 0.38593423 -0.23852047 0.14741376
0.039999999 0.0043713828 0.011409072 0.38593423 -0.23852047 0.14741376
0.039999999 0.0052244631 0.011264616 0.38593423 -0.23852047 0.14741376
0.039999999 0.0060795126 0.011119829 0.38593423 -0.23852047 0.14741376
0.039999999 0.0069365432 0.010974709 0.38593423 -0.23852047 0.14741376
0.039999999 0.0077955653 0.010829254 0.38593423 -0.23852047 0.14741376
0.039999999 0.0086565902 0.010683464 0.38593423 -0.23852047 0.14741376
0.039999999 0.0095196292 0.010537335 0.38593423 -0.23852047 0.14741376
0.039999999 0.010384694 0.010390865 0.38593423 -0.23852047 0.14741376
0.039999999 0.011251796 0.010244054 0.38593423 -0.23852047 0.14741376
0.039999999 0.012120945 0.010096898 0.38593423 -0.23852047 0.14741376
0.039999999 0.012992156 0.0099493964 0.38593423 -0.23852047 0.14741376
0.039999999 0.013865437 0.009801547 0.38593423 -0.23852047 0.14741376
0.039999999 0.014740802 0.0096533475 0.38593423 -0.23852047 0.14741376
0.039999999 0.015618262 0.009504796 0.38593423 -0.23852047 0.14741376
0.039999999 0.016497828 0.0093558906 0.38593423 -0.23852047 0.14741376
0.039999999 0.017379515 0.0092066284 0.38593423 -0.23852047 0.14741376
0.039999999 0.018263333 0.0090570096 0.38593423 -0.23852047 0.14741376
0.039999999 0.019149292 0.0089070294 0.38593423 -0.23852047 0.14741376
0.039999999 0.020037407 0.0087566879 0.38593423 -0.23852047 0.14741376
0.039999999 0.02092769 0.0086059822 0.38593423 -0.23852047 0.14741376
0.039999999 0.021820152 0.0084549105 0.38593423 -0.23852047 0.14741376
0.039999999 0.022714809 0.00830347 0.38593423 -0.23852047 0.14741376
0.039999999 0.023611668 0.0081516597 0.38593423 -0.23852047 0.14741376
0.039999999 0.024510745 0.007999476 0.38593423 -0.23852047 0.14741376
0.039999999 0.025412053 0.007846918 0.38593423 -0.23852047 0.14741376
0.039999999 0.026315603 0.0076939836 0.38593423 -0.23852047 0.14741376
0.039999999 0.02722141 0.0075406698 0.38593423 -0.23852047 0.14741376
0.039999999 0.028129485 0.007386975 0.38593423 -0.23852047 0.14741376
0.039999999 0.029039841 0.0072328965 0.38593423 -0.23852047 0.14741376
0.039999999 0.029952493 0.0070784325 0.38593423 -0.23852047 0.14741376
0.039999999 0.030867452 0.0069235805 0.38593423 -0.23852047 0.14741376
0.023352461 0.044792742 0 0.38593423 -0.23852047 0.14741376
0.039999999 0.032704346 0.0066127046 0.38593423 -0.23852047 0.14741376
0.039999999 0.033626311 0.0064566759 0.38593423 -0.23852047 0.14741376
0.024555184 0.046742354 0 0.38593423 -0.23852047 0.14741376
0.039999999 0.035477336 0.0061434256 0.38593423 -0.23852047 0.14741376
0.039999999 0.036406428 0.0059861997 0.38593423 -0.23852047 0.14741376
0.025759092 0.048694048 0 0.38593423 -0.23852047 0.14741376
0.039999999 0.038271829 0.0056705335 0.38593423 -0.23852047 0.14741376
0.039999999 0.03920817 0.0055120885 0.38593423 -0.23852047 0.14741376
0.039999999 0.040146954 0.0053532328 0.38593423 -0.23852047 0.14741376
0.039999999 0.041088201 0.0051939641 0.38593423 -0.23852047 0.14741376
0.039999999 0.042031921 0.0050342795 0.38593423 -0.23852047 0.14741376
0.039999999 0.042978127 0.0048741763 0.38593423 -0.23852047 0.14741376
0.039999999 0.043926835 0.0047136531 0.38593423 -0.23852047 0.14741376
0.039999999 0.044878062 0.0045527066 0.38593423 -0.23852047 0.14741376
0.039999999 0.045831822 0.0043913345 0.38593423 -0.23852047 0.14741376
0.039999999 0.04678813 0.0042295344 0.38593423 -0.23852047 0.14741376
