# .PCD v0.7 - Point Cloud Data file format
VERSION 0.7
FIELDS x y z vp_x vp_y vp_z
SIZE 4 4 4 4 4 4
TYPE F F F F F F
COUNT 1 1 1 1 1 1
WIDTH 810
HEIGHT 1
VIEWPOINT 0 0 0 1 0 0 0
POINTS 810
DATA ascii
0.003975831 0.079999998 0.015693709 0.25019264 0.4048202 0
0.0031714812 0.079999998 0.015712438 0.25019264 0.4048202 0
0.0023652073 0.079999998 0.015731249 0.25019264 0.4048202 0
0.0015569986 0.079999998 0.015750144 0.25019264 0.4048202 0
0.00074684399 0.079999998 0.015769124 0.25019264 0.4048202 0
0.039999999 5.2183485e-05 0.016843626 0.25019264 0.4048202 0
0.039999999 0.0016020423 0.016792851 0.25019264 0.4048202 0
0.039999999 0.0031425888 0.016742421 0.25019264 0.4048202 0
0.039999999 0.0046739141 0.016692335 0.25019264 0.4048202 0
0.039999999 0.0061961086 0.016642589 0.25019264 0.4048202 0
0.039999999 0.0077092606 0.016593179 0.25019264 0.4048202 0
0.039999999 0.0092134578 0.016544102 0.25019264 0.4048202 0
0.039999999 0.010708787 0.016495354 0.25019264 0.4048202 0
0.039999999 0.012195336 0.016446935 0.25019264 0.4048202 0
0.039999999 0.013673184 0.01639884 0.25019264 0.4048202 0
0.039999999 0.015142419 0.016351065 0.25019264 0.4048202 0
0.039999999 0.016603122 0.016303606 0.25019264 0.4048202 0
0.039999999 0.018055374 0.016256463 0.25019264 0.4048202 0
0.039999999 0.019499253 0.016209632 0.25019264 0.4048202 0
0.039999999 0.020934843 0.016163109 0.25019264 0.4048202 0
0.039999999 0.022362219 0.016116893 0.25019264 0.4048202 0
0.039999999 0.023781458 0.016070979 0.25019264 0.4048202 0
0.039999999 0.025192639 0.016025366 0.25019264 0.4048202 0
0.039999999 0.026595835 0.01598005 0.25019264 0.4048202 0
0.039999999 0.02799112 0.015935028 0.25019264 0.4048202 0
0.039999999 0.029378569 0.0158903 0.25019264 0.4048202 0
0.039999999 0.030758254 0.015845861 0.25019264 0.4048202 0
0.039999999 0.032130245 0.015801707 0.25019264 0.4048202 0
0.039999999 0.033494618 0.015757838 0.25019264 0.4048202 0
0.039999999 0.034851439 0.015714252 0.25019264 0.4048202 0
0.039999999 0.036200777 0.015670944 0.25019264 0.4048202 0
0.039999999 0.037542704 0.015627913 0.25019264 0.4048202 0
0.039999999 0.038877282 0.015585155 0.25019264 0.4048202 0
0.039999999 0.040204581 0.015542669 0.25019264 0.4048202 0
0.039999999 0.041524667 0.015500452 0.25019264 0.4048202 0
0.039999999 0.042837601 0.015458502 0.25019264 0.4048202 0
0.039999999 0.044143457 0.015416817 0.25019264 0.4048202 0
0.039999999 0.045442287 0.015375393 0.25019264 0.4048202 0
0.039999999 0.046734162 0.015334229 0.25019264 0.4048202 0
0.039999999 0.048019141 0.015293323 0.25019264 0.4048202 0
0.039999999 0.049297284 0.015252671 0.25019264 0.4048202 0
0.039999999 0.050568655 0.015212273 0.25019264 0.4048202 0
0.039999999 0.051833313 0.015172126 0.25019264 0.4048202 0
0.039999999 0.053091314 0.015132227 0.25019264 0.4048202 0
0.039999999 0.054342721 0.015092574 0.25019264 0.4048202 0
0.039999999 0.05558759 0.015053166 0.25019264 0.4048202 0
0.039999999 0.056825977 0.015014 0.25019264 0.4048202 0
0.039999999 0.058057938 0.014975075 0.25019264 0.4048202 0
0.039999999 0.059283532 0.014936387 0.25019264 0.4048202 0
0.039999999 0.060502812 0.014897935 0.25019264 0.4048202 0
0.039999999 0.061715834 0.014859717 0.25019264 0.4048202 0
0.039999999 0.062922649 0.014821732 0.25019264 0.4048202 0
0.039999999 0.064123318 0.014783977 0.25019264 0.4048202 0
0.039999999 0.065317884 0.014746449 0.25019264 0.4048202 0
0.039999999 0.066506408 0.014709149 0.25019264 0.4048202 0
0.039999999 0.067688935 0.014672072 0.25019264 0.4048202 0
0.039999999 0.068865515 0.014635217 0.25019264 0.4048202 0
0.039999999 0.07003621 0.014598584 0.25019264 0.4048202 0
0.039999999 0.071201056 0.014562169 0.25019264 0.4048202 0
0.039999999 0.072360106 0.014525971 0.25019264 0.4048202 0
0.039999999 0.073513418 0.014489988 0.25019264 0.4048202 0
0.039999999 0.074661024 0.014454219 0.25019264 0.4048202 0
0.039999999 0.075802989 0.014418662 0.25019264 0.4048202 0
0.039999999 0.076939352 0.014383313 0.25019264 0.4048202 0
0.039999999 0.078070156 0.014348174 0.25019264 0.4048202 0
0.039999999 0.079195447 0.014313241 0.25019264 0.4048202 0
0.039795779 0.079999998 0.014292385 0.25019264 0.4048202 0
0.039070744 0.079999998 0.01430696 0.25019264 0.4048202 0
0.038344227 0.079999998 0.014321599 0.25019264 0.4048202 0
0.037616223 0.079999998 0.014336304 0.25019264 0.4048202 0
0.036886718 0.079999998 0.014351075 0.25019264 0.4048202 0
0.036155704 0.079999998 0.014365911 0.25019264 0.4048202 0
0.035423178 0.079999998 0.014380814 0.25019264 0.4048202 0
0.034689128 0.079999998 0.014395784 0.25019264 0.4048202 0
0.033953547 0.079999998 0.014410819 0.25019264 0.4048202 0
0.033216428 0.079999998 0.014425922 0.25019264 0.4048202 0
0.032477759 0.079999998 0.014441092 0.25019264 0.4048202 0
0.031737532 0.079999998 0.014456331 0.25019264 0.4048202 0
0.03099574 0.079999998 0.014471637 0.25019264 0.4048202 0
0.030252373 0.079999998 0.014487011 0.25019264 0.4048202 0
0.029507423 0.079999998 0.014502455 0.25019264 0.4048202 0
0.028760882 0.079999998 0.014517966 0.25019264 0.4048202 0
0.028012739 0.079999998 0.014533547 0.25019264 0.4048202 0
0.027262989 0.079999998 0.014549197 0.25019264 0.4048202 0
0.026511619 0.079999998 0.014564916 0.25019264 0.4048202 0
0.025758622 0.079999998 0.014580706 0.25019264 0.4048202 0
0.02500399 0.079999998 0.014596567 0.25019264 0.4048202 0
0.024247712 0.079999998 0.014612498 0.25019264 0.4048202 0
0.023489779 0.079999998 0.0146285 0.25019264 0.4048202 0
0.022730181 0.079999998 0.014644573 0.25019264 0.4048202 0
0.021968912 0.079999998 0.014660717 0.25019264 0.4048202 0
0.02120596 0.079999998 0.014676934 0.25019264 0.4048202 0
0.020441316 0.079999998 0.014693222 0.25019264 0.4048202 0
0.019674972 0.079999998 0.014709583 0.25019264 0.4048202 0
0.018906917 0.079999998 0.014726018 0.25019264 0.4048202 0
0.018137142 0.079999998 0.014742525 0.25019264 0.4048202 0
0.017365638 0.079999998 0.014759106 0.25019264 0.4048202 0
0.016592395 0.079999998 0.01477576 0.25019264 0.4048202 0
0.015817402 0.079999998 0.01479249 0.25019264 0.4048202 0
0.01504065 0.079999998 0.014809293 0.25019264 0.4048202 0
0.01426213 0.079999998 0.014826171 0.25019264 0.4048202 0
0.013481831 0.079999998 0.014843124 0.25019264 0.4048202 0
0.012699744 0.079999998 0.014860153 0.25019264 0.4048202 0
0.011915858 0.079999998 0.014877258 0.25019264 0.4048202 0
0.011130164 0.079999998 0.014894439 0.25019264 0.4048202 0
0.010342651 0.079999998 0.014911696 0.25019264 0.4048202 0
0.0095533086 0.079999998 0.014929031 0.25019264 0.4048202 0
0.0087621277 0.079999998 0.014946442 0.25019264 0.4048202 0
0.0079690972 0.079999998 0.014963931 0.25019264 0.4048202 0
0.007174206 0.079999998 0.014981499 0.25019264 0.4048202 0
0.0063774446 0.079999998 0.014999145 0.25019264 0.4048202 0
0.005578802 0.079999998 0.015016869 0.25019264 0.4048202 0
0.0047782678 0.079999998 0.015034673 0.25019264 0.4048202 0
0.003975831 0.079999998 0.015052555 0.25019264 0.4048202 0
0.0031714812 0.079999998 0.015070518 0.25019264 0.4048202 0
0.0023652073 0.079999998 0.015088561 0.25019264 0.4048202 0
0.0015569986 0.079999998 0.015106685 0.25019264 0.4048202 0
0.00074684399 0.079999998 0.015124889 0.25019264 0.4048202 0
0.039999999 5.2183485e-05 0.016126266 0.25019264 0.4048202 0
0.039999999 0.0016020423 0.016077653 0.25019264 0.4048202 0
0.039999999 0.0031425888 0.016029371 0.25019264 0.4048202 0
0.039999999 0.0046739141 0.015981419 0.25019264 0.4048202 0
0.039999999 0.0061961086 0.015933791 0.25019264 0.4048202 0
0.039999999 0.0077092606 0.015886486 0.25019264 0.4048202 0
0.039999999 0.0092134578 0.015839498 0.25019264 0.4048202 0
0.039999999 0.010708787 0.015792828 0.25019264 0.4048202 0
0.039999999 0.012195336 0.015746471 0.25019264 0.4048202 0
0.039999999 0.013673184 0.015700422 0.25019264 0.4048202 0
0.039999999 0.015142419 0.015654681 0.25019264 0.4048202 0
0.039999999 0.016603122 0.015609245 0.25019264 0.4048202 0
0.039999999 0.018055374 0.015564109 0.25019264 0.4048202 0
0.039999999 0.019499253 0.015519273 0.25019264 0.4048202 0
0.039999999 0.020934843 0.015474731 0.25019264 0.4048202 0
0.039999999 0.022362219 0.015430483 0.25019264 0.4048202 0
0.039999999 0.023781458 0.015386525 0.25019264 0.4048202 0
0.039999999 0.025192639 0.015342854 0.25019264 0.4048202 0
0.039999999 0.026595835 0.015299468 0.25019264 0.4048202 0
0.039999999 0.02799112 0.015256365 0.25019264 0.4048202 0
0.039999999 0.029378569 0.015213541 0.25019264 0.4048202 0
0.039999999 0.030758254 0.015170994 0.25019264 0.4048202 0
0.039999999 0.032130245 0.015128721 0.25019264 0.4048202 0
0.039999999 0.033494618 0.015086722 0.25019264 0.4048202 0
0.039999999 0.034851439 0.015044991 0.25019264 0.4048202 0
0.039999999 0.036200777 0.015003528 0.25019264 0.4048202 0
0.039999999 0.037542704 0.014962329 0.25019264 0.4048202 0
0.039999999 0.038877282 0.014921391 0.25019264 0.4048202 0
0.039999999 0.040204581 0.014880715 0.25019264 0.4048202 0
0.039999999 0.041524667 0.014840296 0.25019264 0.4048202 0
0.039999999 0.042837601 0.014800133 0.25019264 0.4048202 0
0.039999999 0.044143457 0.014760223 0.25019264 0.4048202 0
0.039999999 0.045442287 0.014720564 0.25019264 0.4048202 0
0.039999999 0.046734162 0.014681153 0.25019264 0.4048202 0
0.039999999 0.048019141 0.014641989 0.25019264 0.4048202 0
0.039999999 0.049297284 0.014603069 0.25019264 0.4048202 0
0.039999999 0.050568655 0.014564391 0.25019264 0.4048202 0
0.039999999 0.051833313 0.014525954 0.25019264 0.4048202 0
0.039999999 0.053091314 0.014487754 0.25019264 0.4048202 0
0.039999999 0.054342721 0.01444979 0.25019264 0.4048202 0
0.039999999 0.05558759 0.01441206 0.25019264 0.4048202 0
0.039999999 0.056825977 0.014374563 0.25019264 0.4048202 0
0.039999999 0.058057938 0.014337295 0.25019264 0.4048202 0
0.039999999 0.059283532 0.014300255 0.25019264 0.4048202 0
0.039999999 0.060502812 0.014263441 0.25019264 0.4048202 0
0.039999999 0.061715834 0.014226851 0.25019264 0.4048202 0
0.039999999 0.062922649 0.014190483 0.25019264 0.4048202 0
0.039999999 0.064123318 0.014154335 0.25019264 0.4048202 0
0.039999999 0.065317884 0.014118406 0.25019264 0.4048202 0
0.039999999 0.066506408 0.014082694 0.25019264 0.4048202 0
0.039999999 0.067688935 0.014047196 0.25019264 0.4048202 0
0.039999999 0.068865515 0.014011912 0.25019264 0.4048202 0
0.039999999 0.07003621 0.013976838 0.25019264 0.4048202 0
0.039999999 0.071201056 0.013941974 0.25019264 0.4048202 0
0.039999999 0.072360106 0.013907318 0.25019264 0.4048202 0
0.039999999 0.073513418 0.013872867 0.25019264 0.4048202 0
0.039999999 0.074661024 0.013838622 0.25019264 0.4048202 0
0.039999999 0.075802989 0.013804578 0.25019264 0.4048202 0
0.039999999 0.076939352 0.013770736 0.25019264 0.4048202 0
0.039999999 0.078070156 0.013737094 0.25019264 0.4048202 0
0.039999999 0.079195447 0.013703648 0.25019264 0.4048202 0
0.039795779 0.079999998 0.01368368 0.25019264 0.4048202 0
0.039070744 0.079999998 0.013697634 0.25019264 0.4048202 0
0.038344227 0.079999998 0.013711651 0.25019264 0.4048202 0
0.037616223 0.079999998 0.013725729 0.25019264 0.4048202 0
0.036886718 0.079999998 0.013739871 0.25019264 0.4048202 0
0.036155704 0.079999998 0.013754075 0.25019264 0.4048202 0
0.035423178 0.079999998 0.013768343 0.25019264 0.4048202 0
0.034689128 0.079999998 0.013782675 0.25019264 0.4048202 0
0.033953547 0.079999998 0.013797071 0.25019264 0.4048202 0
0.033216428 0.079999998 0.013811531 0.25019264 0.4048202 0
0.032477759 0.079999998 0.013826055 0.25019264 0.4048202 0
0.031737532 0.079999998 0.013840644 0.25019264 0.4048202 0
0.03099574 0.079999998 0.013855298 0.25019264 0.4048202 0
0.030252373 0.079999998 0.013870018 0.25019264 0.4048202 0
0.029507423 0.079999998 0.013884803 0.25019264 0.4048202 0
0.028760882 0.079999998 0.013899654 0.25019264 0.4048202 0
0.028012739 0.079999998 0.013914571 0.25019264 0.4048202 0
0.027262989 0.079999998 0.013929554 0.25019264 0.4048202 0
0.026511619 0.079999998 0.013944605 0.25019264 0.4048202 0
0.025758622 0.079999998 0.013959723 0.25019264 0.4048202 0
0.02500399 0.079999998 0.013974907 0.25019264 0.4048202 0
0.024247712 0.079999998 0.013990159 0.25019264 0.4048202 0
0.023489779 0.079999998 0.01400548 0.25019264 0.4048202 0
0.022730181 0.079999998 0.014020869 0.25019264 0.4048202 0
0.021968912 0.079999998 0.014036326 0.25019264 0.4048202 0
0.02120596 0.079999998 0.014051851 0.25019264 0.4048202 0
0.020441316 0.079999998 0.014067446 0.25019264 0.4048202 0
0.019674972 0.079999998 0.014083111 0.25019264 0.4048202 0
0.018906917 0.079999998 0.014098845 0.25019264 0.4048202 0
0.018137142 0.079999998 0.014114649 0.25019264 0.4048202 0
0.017365638 0.079999998 0.014130524 0.25019264 0.4048202 0
0.016592395 0.079999998 0.01414647 0.25019264 0.4048202 0
0.015817402 0.079999998 0.014162485 0.25019264 0.4048202 0
0.01504065 0.079999998 0.014178573 0.25019264 0.4048202 0
0.01426213 0.079999998 0.014194733 0.25019264 0.4048202 0
0.013481831 0.079999998 0.014210964 0.25019264 0.4048202 0
0.012699744 0.079999998 0.014227267 0.25019264 0.4048202 0
0.011915858 0.079999998 0.014243644 0.25019264 0.4048202 0
0.011130164 0.079999998 0.014260093 0.25019264 0.4048202 0
0.010342651 0.079999998 0.014276615 0.25019264 0.4048202 0
0.0095533086 0.079999998 0.014293212 0.25019264 0.4048202 0
0.0087621277 0.079999998 0.014309882 0.25019264 0.4048202 0
0.0079690972 0.079999998 0.014326626 0.25019264 0.4048202 0
0.007174206 0.079999998 0.014343445 0.25019264 0.4048202 0
0.0063774446 0.079999998 0.014360339 0.25019264 0.4048202 0
0.005578802 0.079999998 0.014377309 0.25019264 0.4048202 0
0.0047782678 0.079999998 0.014394354 0.25019264 0.4048202 0
0.003975831 0.079999998 0.014411476 0.25019264 0.4048202 0
0.0031714812 0.079999998 0.014428673 0.25019264 0.4048202 0
0.0023652073 0.079999998 0.014445947 0.25019264 0.4048202 0
0.0015569986 0.079999998 0.0144633 0.25019264 0.4048202 0
0.00074684399 0.079999998 0.014480729 0.25019264 0.4048202 0
0.039999999 5.2183485e-05 0.015408985 0.25019264 0.4048202 0
0.039999999 0.0016020423 0.015362535 0.25019264 0.4048202 0
0.039999999 0.0031425888 0.015316401 0.25019264 0.4048202 0
0.039999999 0.0046739141 0.015270581 0.25019264 0.4048202 0
0.039999999 0.0061961086 0.015225071 0.25019264 0.4048202 0
0.039999999 0.0077092606 0.01517987 0.25019264 0.4048202 0
0.039999999 0.0092134578 0.015134973 0.25019264 0.4048202 0
0.039999999 0.010708787 0.015090378 0.25019264 0.4048202 0
0.039999999 0.012195336 0.015046082 0.25019264 0.4048202 0
0.039999999 0.013673184 0.015002082 0.25019264 0.4048202 0
0.039999999 0.015142419 0.014958376 0.25019264 0.4048202 0
0.039999999 0.016603122 0.014914961 0.25019264 0.4048202 0
0.039999999 0.018055374 0.014871833 0.25019264 0.4048202 0
0.039999999 0.019499253 0.01482899 0.25019264 0.4048202 0
0.039999999 0.020934843 0.01478643 0.25019264 0.4048202 0
0.039999999 0.022362219 0.01474415 0.25019264 0.4048202 0
0.039999999 0.023781458 0.014702147 0.25019264 0.4048202 0
0.039999999 0.025192639 0.014660419 0.25019264 0.4048202 0
0.039999999 0.026595835 0.014618963 0.25019264 0.4048202 0
0.039999999 0.02799112 0.014577776 0.25019264 0.4048202 0
0.039999999 0.029378569 0.014536858 0.25019264 0.4048202 0
0.039999999 0.030758254 0.014496203 0.25019264 0.4048202 0
0.039999999 0.032130245 0.014455811 0.25019264 0.4048202 0
0.039999999 0.033494618 0.014415679 0.25019264 0.4048202 0
0.039999999 0.034851439 0.014375804 0.25019264 0.4048202 0
0.039999999 0.036200777 0.014336185 0.25019264 0.4048202 0
0.039999999 0.037542704 0.014296819 0.25019264 0.4048202 0
0.039999999 0.038877282 0.014257703 0.25019264 0.4048202 0
0.039999999 0.040204581 0.014218835 0.25019264 0.4048202 0
0.039999999 0.041524667 0.014180214 0.25019264 0.4048202 0
0.039999999 0.042837601 0.014141837 0.25019264 0.4048202 0
0.039999999 0.044143457 0.014103702 0.25019264 0.4048202 0
0.039999999 0.045442287 0.014065807 0.25019264 0.4048202 0
0.039999999 0.046734162 0.014028149 0.25019264 0.4048202 0
0.039999999 0.048019141 0.013990727 0.25019264 0.4048202 0
0.039999999 0.049297284 0.013953539 0.25019264 0.4048202 0
0.039999999 0.050568655 0.013916581 0.25019264 0.4048202 0
0.039999999 0.051833313 0.013879853 0.25019264 0.4048202 0
0.039999999 0.053091314 0.013843352 0.25019264 0.4048202 0
0.039999999 0.054342721 0.013807077 0.25019264 0.4048202 0
0.039999999 0.05558759 0.013771025 0.25019264 0.4048202 0
0.039999999 0.056825977 0.013735196 0.25019264 0.4048202 0
0.039999999 0.058057938 0.013699586 0.25019264 0.4048202 0
0.039999999 0.059283532 0.013664193 0.25019264 0.4048202 0
0.039999999 0.060502812 0.013629016 0.25019264 0.4048202 0
0.039999999 0.061715834 0.013594054 0.25019264 0.4048202 0
0.039999999 0.062922649 0.013559304 0.25019264 0.4048202 0
0.039999999 0.064123318 0.013524764 0.25019264 0.4048202 0
0.039999999 0.065317884 0.013490433 0.25019264 0.4048202 0
0.039999999 0.066506408 0.013456309 0.25019264 0.4048202 0
0.039999999 0.067688935 0.01342239 0.25019264 0.4048202 0
0.039999999 0.068865515 0.013388676 0.25019264 0.4048202 0
0.039999999 0.07003621 0.013355162 0.25019264 0.4048202 0
0.039999999 0.071201056 0.013321849 0.25019264 0.4048202 0
0.039999999 0.072360106 0.013288734 0.25019264 0.4048202 0
0.039999999 0.073513418 0.013255816 0.25019264 0.4048202 0
0.039999999 0.074661024 0.013223093 0.25019264 0.4048202 0
0.039999999 0.075802989 0.013190564 0.25019264 0.4048202 0
0.039999999 0.076939352 0.013158227 0.25019264 0.4048202 0
0.039999999 0.078070156 0.013126081 0.25019264 0.4048202 0
0.039999999 0.079195447 0.013094123 0.25019264 0.4048202 0
0.039795779 0.079999998 0.013075043 0.25019264 0.4048202 0
0.039070744 0.079999998 0.013088377 0.25019264 0.4048202 0
0.038344227 0.079999998 0.01310177 0.25019264 0.4048202 0
0.037616223 0.079999998 0.013115222 0.25019264 0.4048202 0
0.036886718 0.079999998 0.013128734 0.25019264 0.4048202 0
0.036155704 0.079999998 0.013142307 0.25019264 0.4048202 0
0.035423178 0.079999998 0.013155941 0.25019264 0.4048202 0
0.034689128 0.079999998 0.013169635 0.25019264 0.4048202 0
0.033953547 0.079999998 0.01318339 0.25019264 0.4048202 0
0.033216428 0.079999998 0.013197207 0.25019264 0.4048202 0
0.032477759 0.079999998 0.013211085 0.25019264 0.4048202 0
0.031737532 0.079999998 0.013225025 0.25019264 0.4048202 0
0.03099574 0.079999998 0.013239028 0.25019264 0.4048202 0
0.030252373 0.079999998 0.013253093 0.25019264 0.4048202 0
0.029507423 0.079999998 0.01326722 0.25019264 0.4048202 0
0.028760882 0.079999998 0.013281411 0.25019264 0.4048202 0
0.028012739 0.079999998 0.013295664 0.25019264 0.4048202 0
0.027262989 0.079999998 0.013309982 0.25019264 0.4048202 0
0.026511619 0.079999998 0.013324362 0.25019264 0.4048202 0
0.025758622 0.079999998 0.013338807 0.25019264 0.4048202 0
0.02500399 0.079999998 0.013353317 0.25019264 0.4048202 0
0.024247712 0.079999998 0.01336789 0.25019264 0.4048202 0
0.023489779 0.079999998 0.01338253 0.25019264 0.4048202 0
0.022730181 0.079999998 0.013397234 0.25019264 0.4048202 0
0.021968912 0.079999998 0.013412003 0.25019264 0.4048202 0
0.02120596 0.079999998 0.013426838 0.25019264 0.4048202 0
0.020441316 0.079999998 0.01344174 0.25019264 0.4048202 0
0.019674972 0.079999998 0.013456708 0.25019264 0.4048202 0
0.018906917 0.079999998 0.013471742 0.25019264 0.4048202 0
0.018137142 0.079999998 0.013486844 0.25019264 0.4048202 0
0.017365638 0.079999998 0.013502012 0.25019264 0.4048202 0
0.016592395 0.079999998 0.013517248 0.25019264 0.4048202 0
0.015817402 0.079999998 0.013532552 0.25019264 0.4048202 0
0.01504065 0.079999998 0.013547924 0.25019264 0.4048202 0
0.01426213 0.079999998 0.013563365 0.25019264 0.4048202 0
0.013481831 0.079999998 0.013578874 0.25019264 0.4048202 0
0.012699744 0.079999998 0.013594452 0.25019264 0.4048202 0
0.011915858 0.079999998 0.0136101 0.25019264 0.4048202 0
0.011130164 0.079999998 0.013625817 0.25019264 0.4048202 0
0.010342651 0.079999998 0.013641605 0.25019264 0.4048202 0
0.0095533086 0.079999998 0.013657464 0.25019264 0.4048202 0
0.0087621277 0.079999998 0.013673392 0.25019264 0.4048202 0
0.0079690972 0.079999998 0.013689391 0.25019264 0.4048202 0
0.007174206 0.079999998 0.013705463 0.25019264 0.4048202 0
0.0063774446 0.079999998 0.013721606 0.25019264 0.4048202 0
0.005578802 0.079999998 0.01373782 0.25019264 0.4048202 0
0.0047782678 0.079999998 0.013754107 0.25019264 0.4048202 0
0.003975831 0.079999998 0.013770467 0.25019264 0.4048202 0
0.0031714812 0.079999998 0.0137869 0.25019264 0.4048202 0
0.0023652073 0.079999998 0.013803406 0.25019264 0.4048202 0
0.0015569986 0.079999998 0.013819986 0.25019264 0.4048202 0
0.00074684399 0.079999998 0.01383664 0.25019264 0.4048202 0
0.039999999 5.2183485e-05 0.01469178 0.25019264 0.4048202 0
0.039999999 0.0016020423 0.014647491 0.25019264 0.4048202 0
0.039999999 0.0031425888 0.014603505 0.25019264 0.4048202 0
0.039999999 0.0046739141 0.014559818 0.25019264 0.4048202 0
0.039999999 0.0061961086 0.014516426 0.25019264 0.4048202 0
0.039999999 0.0077092606 0.014473328 0.25019264 0.4048202 0
0.039999999 0.0092134578 0.014430522 0.25019264 0.4048202 0
0.039999999 0.010708787 0.014388002 0.25019264 0.4048202 0
0.039999999 0.012195336 0.014345768 0.25019264 0.4048202 0
0.039999999 0.013673184 0.014303816 0.25019264 0.4048202 0
0.039999999 0.015142419 0.014262144 0.25019264 0.4048202 0
0.039999999 0.016603122 0.01422075 0.25019264 0.4048202 0
0.039999999 0.018055374 0.014179629 0.25019264 0.4048202 0
0.039999999 0.019499253 0.014138781 0.25019264 0.4048202 0
0.039999999 0.020934843 0.014098202 0.25019264 0.4048202 0
0.039999999 0.022362219 0.01405789 0.25019264 0.4048202 0
0.039999999 0.023781458 0.014017842 0.25019264 0.4048202 0
0.039999999 0.025192639 0.013978056 0.25019264 0.4048202 0
0.039999999 0.026595835 0.013938529 0.25019264 0.4048202 0
0.039999999 0.02799112 0.01389926 0.25019264 0.4048202 0
0.039999999 0.029378569 0.013860245 0.25019264 0.4048202 0
0.039999999 0.030758254 0.013821483 0.25019264 0.4048202 0
0.039999999 0.032130245 0.013782971 0.25019264 0.4048202 0
0.039999999 0.033494618 0.013744707 0.25019264 0.4048202 0
0.039999999 0.034851439 0.013706688 0.25019264 0.4048202 0
0.039999999 0.036200777 0.013668913 0.25019264 0.4048202 0
0.039999999 0.037542704 0.013631379 0.25019264 0.4048202 0
0.039999999 0.038877282 0.013594083 0.25019264 0.4048202 0
0.039999999 0.040204581 0.013557025 0.25019264 0.4048202 0
0.039999999 0.041524667 0.013520203 0.25019264 0.4048202 0
0.039999999 0.042837601 0.013483612 0.25019264 0.4048202 0
0.039999999 0.044143457 0.013447251 0.25019264 0.4048202 0
0.039999999 0.045442287 0.01341112 0.25019264 0.4048202 0
0.039999999 0.046734162 0.013375215 0.25019264 0.4048202 0
0.039999999 0.048019141 0.013339534 0.25019264 0.4048202 0
0.039999999 0.049297284 0.013304076 0.25019264 0.4048202 0
0.039999999 0.050568655 0.01326884 0.25019264 0.4048202 0
0.039999999 0.051833313 0.013233821 0.25019264 0.4048202 0
0.039999999 0.053091314 0.013199019 0.25019264 0.4048202 0
0.039999999 0.054342721 0.013164433 0.25019264 0.4048202 0
0.039999999 0.05558759 0.013130059 0.25019264 0.4048202 0
0.039999999 0.056825977 0.013095897 0.25019264 0.4048202 0
0.039999999 0.058057938 0.013061944 0.25019264 0.4048202 0
0.039999999 0.059283532 0.013028199 0.25019264 0.4048202 0
0.039999999 0.060502812 0.012994659 0.25019264 0.4048202 0
0.039999999 0.061715834 0.012961324 0.25019264 0.4048202 0
0.039999999 0.062922649 0.012928192 0.25019264 0.4048202 0
0.039999999 0.064123318 0.01289526 0.25019264 0.4048202 0
0.039999999 0.065317884 0.012862527 0.25019264 0.4048202 0
0.039999999 0.066506408 0.012829991 0.25019264 0.4048202 0
0.039999999 0.067688935 0.012797651 0.25019264 0.4048202 0
0.039999999 0.068865515 0.012765505 0.25019264 0.4048202 0
0.039999999 0.07003621 0.012733552 0.25019264 0.4048202 0
0.039999999 0.071201056 0.012701789 0.25019264 0.4048202 0
0.039999999 0.072360106 0.012670215 0.25019264 0.4048202 0
0.039999999 0.073513418 0.01263883 0.25019264 0.4048202 0
0.039999999 0.074661024 0.012607629 0.25019264 0.4048202 0
0.039999999 0.075802989 0.012576615 0.25019264 0.4048202 0
0.039999999 0.076939352 0.012545783 0.25019264 0.4048202 0
0.039999999 0.078070156 0.012515132 0.25019264 0.4048202 0
0.039999999 0.079195447 0.012484662 0.25019264 0.4048202 0
0.039795779 0.079999998 0.012466472 0.25019264 0.4048202 0
0.039070744 0.079999998 0.012479184 0.25019264 0.4048202 0
0.038344227 0.079999998 0.012491953 0.25019264 0.4048202 0
0.037616223 0.079999998 0.01250478 0.25019264 0.4048202 0
0.036886718 0.079999998 0.012517663 0.25019264 0.4048202 0
0.036155704 0.079999998 0.012530604 0.25019264 0.4048202 0
0.035423178 0.079999998 0.012543603 0.25019264 0.4048202 0
0.034689128 0.079999998 0.01255666 0.25019264 0.4048202 0
0.033953547 0.079999998 0.012569775 0.25019264 0.4048202 0
0.033216428 0.079999998 0.012582948 0.25019264 0.4048202 0
0.032477759 0.079999998 0.012596181 0.25019264 0.4048202 0
0.031737532 0.079999998 0.012609472 0.25019264 0.4048202 0
0.03099574 0.079999998 0.012622823 0.25019264 0.4048202 0
0.030252373 0.079999998 0.012636233 0.25019264 0.4048202 0
0.029507423 0.079999998 0.012649703 0.25019264 0.4048202 0
0.028760882 0.079999998 0.012663233 0.25019264 0.4048202 0
0.028012739 0.079999998 0.012676823 0.25019264 0.4048202 0
0.027262989 0.079999998 0.012690474 0.25019264 0.4048202 0
0.026511619 0.079999998 0.012704185 0.25019264 0.4048202 0
0.025758622 0.079999998 0.012717959 0.25019264 0.4048202 0
0.02500399 0.079999998 0.012731792 0.25019264 0.4048202 0
0.024247712 0.079999998 0.012745688 0.25019264 0.4048202 0
0.023489779 0.079999998 0.012759645 0.25019264 0.4048202 0
0.022730181 0.079999998 0.012773665 0.25019264 0.4048202 0
0.021968912 0.079999998 0.012787747 0.25019264 0.4048202 0
0.02120596 0.079999998 0.012801892 0.25019264 0.4048202 0
0.020441316 0.079999998 0.012816099 0.25019264 0.4048202 0
0.019674972 0.079999998 0.012830371 0.25019264 0.4048202 0
0.018906917 0.079999998 0.012844705 0.25019264 0.4048202 0
0.018137142 0.079999998 0.012859103 0.25019264 0.4048202 0
0.017365638 0.079999998 0.012873566 0.25019264 0.4048202 0
0.016592395 0.079999998 0.012888093 0.25019264 0.4048202 0
0.015817402 0.079999998 0.012902685 0.25019264 0.4048202 0
0.01504065 0.079999998 0.012917342 0.25019264 0.4048202 0
0.01426213 0.079999998 0.012932063 0.25019264 0.4048202 0
0.013481831 0.079999998 0.012946851 0.25019264 0.4048202 0
0.012699744 0.079999998 0.012961704 0.25019264 0.4048202 0
0.011915858 0.079999998 0.012976624 0.25019264 0.4048202 0
0.011130164 0.079999998 0.01299161 0.25019264 0.4048202 0
0.010342651 0.079999998 0.013006663 0.25019264 0.4048202 0
0.0095533086 0.079999998 0.013021782 0.25019264 0.4048202 0
0.0087621277 0.079999998 0.01303697 0.25019264 0.4048202 0
0.0079690972 0.079999998 0.013052225 0.25019264 0.4048202 0
0.007174206 0.079999998 0.013067548 0.25019264 0.4048202 0
0.0063774446 0.079999998 0.013082939 0.25019264 0.4048202 0
0.005578802 0.079999998 0.013098399 0.25019264 0.4048202 0
0.0047782678 0.079999998 0.013113928 0.25019264 0.4048202 0
0.003975831 0.079999998 0.013129527 0.25019264 0.4048202 0
0.0031714812 0.079999998 0.013145194 0.25019264 0.4048202 0
0.0023652073 0.079999998 0.013160932 0.25019264 0.4048202 0
0.0015569986 0.079999998 0.01317674 0.25019264 0.4048202 0
0.00074684399 0.079999998 0.013192619 0.25019264 0.4048202 0
0.039999999 5.2183485e-05 0.013974648 0.25019264 0.4048202 0
0.039999999 0.0016020423 0.013932521 0.25019264 0.4048202 0
0.039999999 0.0031425888 0.013890682 0.25019264 0.4048202 0
0.039999999 0.0046739141 0.013849127 0.25019264 0.4048202 0
0.039999999 0.0061961086 0.013807854 0.25019264 0.4048202 0
0.039999999 0.0077092606 0.01376686 0.25019264 0.4048202 0
0.039999999 0.0092134578 0.013726142 0.25019264 0.4048202 0
0.039999999 0.010708787 0.013685698 0.25019264 0.4048202 0
0.039999999 0.012195336 0.013645525 0.25019264 0.4048202 0
0.039999999 0.013673184 0.013605622 0.25019264 0.4048202 0
0.039999999 0.015142419 0.013565984 0.25019264 0.4048202 0
0.039999999 0.016603122 0.013526609 0.25019264 0.4048202 0
0.039999999 0.018055374 0.013487496 0.25019264 0.4048202 0
0.039999999 0.019499253 0.013448642 0.25019264 0.4048202 0
0.039999999 0.020934843 0.013410043 0.25019264 0.4048202 0
0.039999999 0.022362219 0.013371699 0.25019264 0.4048202 0
0.039999999 0.023781458 0.013333606 0.25019264 0.4048202 0
0.039999999 0.025192639 0.013295761 0.25019264 0.4048202 0
0.039999999 0.026595835 0.013258165 0.25019264 0.4048202 0
0.039999999 0.02799112 0.013220812 0.25019264 0.4048202 0
0.039999999 0.029378569 0.013183702 0.25019264 0.4048202 0
0.039999999 0.030758254 0.013146832 0.25019264 0.4048202 0
0.039999999 0.032130245 0.0131102 0.25019264 0.4048202 0
0.039999999 0.033494618 0.013073803 0.25019264 0.4048202 0
0.039999999 0.034851439 0.01303764 0.25019264 0.4048202 0
0.039999999 0.036200777 0.013001708 0.25019264 0.4048202 0
0.039999999 0.037542704 0.012966007 0.25019264 0.4048202 0
0.039999999 0.038877282 0.012930532 0.25019264 0.4048202 0
0.039999999 0.040204581 0.012895283 0.25019264 0.4048202 0
0.039999999 0.041524667 0.012860257 0.25019264 0.4048202 0
0.039999999 0.042837601 0.012825452 0.25019264 0.4048202 0
0.039999999 0.044143457 0.012790867 0.25019264 0.4048202 0
0.039999999 0.045442287 0.012756499 0.25019264 0.4048202 0
0.039999999 0.046734162 0.012722347 0.25019264 0.4048202 0
0.039999999 0.048019141 0.012688408 0.25019264 0.4048202 0
0.039999999 0.049297284 0.012654681 0.25019264 0.4048202 0
0.039999999 0.050568655 0.012621163 0.25019264 0.4048202 0
0.039999999 0.051833313 0.012587855 0.25019264 0.4048202 0
0.039999999 0.053091314 0.012554752 0.25019264 0.4048202 0
0.039999999 0.054342721 0.012521853 0.25019264 0.4048202 0
0.039999999 0.05558759 0.012489158 0.25019264 0.4048202 0
0.039999999 0.056825977 0.012456663 0.25019264 0.4048202 0
0.039999999 0.058057938 0.012424367 0.25019264 0.4048202 0
0.039999999 0.059283532 0.012392269 0.25019264 0.4048202 0
0.039999999 0.060502812 0.012360367 0.25019264 0.4048202 0
0.039999999 0.061715834 0.012328659 0.25019264 0.4048202 0
0.039999999 0.062922649 0.012297143 0.25019264 0.4048202 0
0.039999999 0.064123318 0.012265819 0.25019264 0.4048202 0
0.039999999 0.065317884 0.012234684 0.25019264 0.4048202 0
0.039999999 0.066506408 0.012203736 0.25019264 0.4048202 0
0.039999999 0.067688935 0.012172975 0.25019264 0.4048202 0
0.039999999 0.068865515 0.012142397 0.25019264 0.4048202 0
0.039999999 0.07003621 0.012112004 0.25019264 0.4048202 0
0.039999999 0.071201056 0.012081792 0.25019264 0.4048202 0
0.039999999 0.072360106 0.012051759 0.25019264 0.4048202 0
0.039999999 0.073513418 0.012021906 0.25019264 0.4048202 0
0.039999999 0.074661024 0.011992229 0.25019264 0.4048202 0
0.039999999 0.075802989 0.011962728 0.25019264 0.4048202 0
0.039999999 0.076939352 0.0119334 0.25019264 0.4048202 0
0.039999999 0.078070156 0.011904246 0.25019264 0.4048202 0
0.039999999 0.079195447 0.011875263 0.25019264 0.4048202 0
0.039795779 0.079999998 0.01185796 0.25019264 0.4048202 0
0.039070744 0.079999998 0.011870053 0.25019264 0.4048202 0
0.038344227 0.079999998 0.011882198 0.25019264 0.4048202 0
0.037616223 0.079999998 0.011894398 0.25019264 0.4048202 0
0.036886718 0.079999998 0.011906654 0.25019264 0.4048202 0
0.036155704 0.079999998 0.011918963 0.25019264 0.4048202 0
0.035423178 0.079999998 0.011931327 0.25019264 0.4048202 0
0.034689128 0.079999998 0.011943746 0.25019264 0.4048202 0
0.033953547 0.079999998 0.011956221 0.25019264 0.4048202 0
0.033216428 0.079999998 0.011968752 0.25019264 0.4048202 0
0.032477759 0.079999998 0.011981338 0.25019264 0.4048202 0
0.031737532 0.079999998 0.011993981 0.25019264 0.4048202 0
0.03099574 0.079999998 0.01200668 0.25019264 0.4048202 0
0.030252373 0.079999998 0.012019436 0.25019264 0.4048202 0
0.029507423 0.079999998 0.012032248 0.25019264 0.4048202 0
0.028760882 0.079999998 0.012045118 0.25019264 0.4048202 0
0.028012739 0.079999998 0.012058045 0.25019264 0.4048202 0
0.027262989 0.079999998 0.012071029 0.25019264 0.4048202 0
0.026511619 0.079999998 0.012084072 0.25019264 0.4048202 0
0.025758622 0.079999998 0.012097172 0.25019264 0.4048202 0
0.02500399 0.079999998 0.01211033 0.25019264 0.4048202 0
0.024247712 0.079999998 0.012123547 0.25019264 0.4048202 0
0.023489779 0.079999998 0.012136824 0.25019264 0.4048202 0
0.022730181 0.079999998 0.012150159 0.25019264 0.4048202 0
0.021968912 0.079999998 0.012163554 0.25019264 0.4048202 0
0.02120596 0.079999998 0.012177008 0.25019264 0.4048202 0
0.020441316 0.079999998 0.012190523 0.25019264 0.4048202 0
0.019674972 0.079999998 0.012204098 0.25019264 0.4048202 0
0.018906917 0.079999998 0.012217732 0.25019264 0.4048202 0
0.018137142 0.079999998 0.012231428 0.25019264 0.4048202 0
0.017365638 0.079999998 0.012245185 0.25019264 0.4048202 0
0.016592395 0.079999998 0.012259002 0.25019264 0.4048202 0
0.015817402 0.079999998 0.012272881 0.25019264 0.4048202 0
0.01504065 0.079999998 0.012286823 0.25019264 0.4048202 0
0.01426213 0.079999998 0.012300826 0.25019264 0.4048202 0
0.013481831 0.079999998 0.012314891 0.25019264 0.4048202 0
0.012699744 0.079999998 0.012329021 0.25019264 0.4048202 0
0.011915858 0.079999998 0.012343211 0.25019264 0.4048202 0
0.011130164 0.079999998 0.012357466 0.25019264 0.4048202 0
0.010342651 0.079999998 0.012371784 0.25019264 0.4048202 0
0.0095533086 0.079999998 0.012386166 0.25019264 0.4048202 0
0.0087621277 0.079999998 0.012400612 0.25019264 0.4048202 0
0.0079690972 0.079999998 0.012415122 0.25019264 0.4048202 0
0.007174206 0.079999998 0.012429697 0.25019264 0.4048202 0
0.0063774446 0.079999998 0.012444337 0.25019264 0.4048202 0
0.005578802 0.079999998 0.012459042 0.25019264 0.4048202 0
0.0047782678 0.079999998 0.012473813 0.25019264 0.4048202 0
0.003975831 0.079999998 0.01248865 0.25019264 0.4048202 0
0.0031714812 0.079999998 0.012503554 0.25019264 0.4048202 0
0.0023652073 0.079999998 0.012518523 0.25019264 0.4048202 0
0.0015569986 0.079999998 0.012533559 0.25019264 0.4048202 0
0.00074684399 0.079999998 0.012548664 0.25019264 0.4048202 0
0.039999999 5.2183485e-05 0.013257585 0.25019264 0.4048202 0
0.039999999 0.0016020423 0.01321762 0.25019264 0.4048202 0
0.039999999 0.0031425888 0.013177927 0.25019264 0.4048202 0
0.039999999 0.0046739141 0.013138505 0.25019264 0.4048202 0
0.039999999 0.0061961086 0.013099349 0.25019264 0.4048202 0
0.039999999 0.0077092606 0.013060458 0.25019264 0.4048202 0
0.039999999 0.0092134578 0.01302183 0.25019264 0.4048202 0
0.039999999 0.010708787 0.012983462 0.25019264 0.4048202 0
0.039999999 0.012195336 0.01294535 0.25019264 0.4048202 0
0.039999999 0.013673184 0.012907494 0.25019264 0.4048202 0
0.039999999 0.015142419 0.01286989 0.25019264 0.4048202 0
0.039999999 0.016603122 0.012832536 0.25019264 0.4048202 0
0.039999999 0.018055374 0.01279543 0.25019264 0.4048202 0
0.039999999 0.019499253 0.012758569 0.25019264 0.4048202 0
0.039999999 0.020934843 0.012721951 0.25019264 0.4048202 0
0.039999999 0.022362219 0.012685574 0.25019264 0.4048202 0
0.039999999 0.023781458 0.012649436 0.25019264 0.4048202 0
0.039999999 0.025192639 0.012613533 0.25019264 0.4048202 0
0.039999999 0.026595835 0.012577865 0.25019264 0.4048202 0
0.039999999 0.02799112 0.012542429 0.25019264 0.4048202 0
0.039999999 0.029378569 0.012507224 0.25019264 0.4048202 0
0.039999999 0.030758254 0.012472245 0.25019264 0.4048202 0
0.039999999 0.032130245 0.012437493 0.25019264 0.4048202 0
0.039999999 0.033494618 0.012402964 0.25019264 0.4048202 0
0.039999999 0.034851439 0.012368657 0.25019264 0.4048202 0
0.039999999 0.036200777 0.012334568 0.25019264 0.4048202 0
0.039999999 0.037542704 0.012300699 0.25019264 0.4048202 0
0.039999999 0.038877282 0.012267045 0.25019264 0.4048202 0
0.039999999 0.040204581 0.012233604 0.25019264 0.4048202 0
0.039999999 0.041524667 0.012200375 0.25019264 0.4048202 0
0.039999999 0.042837601 0.012167356 0.25019264 0.4048202 0
0.039999999 0.044143457 0.012134545 0.25019264 0.4048202 0
0.039999999 0.045442287 0.012101941 0.25019264 0.4048202 0
0.039999999 0.046734162 0.012069541 0.25019264 0.4048202 0
0.039999999 0.048019141 0.012037344 0.25019264 0.4048202 0
0.039999999 0.049297284 0.012005348 0.25019264 0.4048202 0
0.039999999 0.050568655 0.01197355 0.25019264 0.4048202 0
0.039999999 0.051833313 0.01194195 0.25019264 0.4048202 0
0.039999999 0.053091314 0.011910546 0.25019264 0.4048202 0
0.039999999 0.054342721 0.011879335 0.25019264 0.4048202 0
0.039999999 0.05558759 0.011848317 0.25019264 0.4048202 0
0.039999999 0.056825977 0.01181749 0.25019264 0.4048202 0
0.039999999 0.058057938 0.011786851 0.25019264 0.4048202 0
0.039999999 0.059283532 0.011756401 0.25019264 0.4048202 0
0.039999999 0.060502812 0.011726135 0.25019264 0.4048202 0
0.039999999 0.061715834 0.011696055 0.25019264 0.4048202 0
0.039999999 0.062922649 0.011666156 0.25019264 0.4048202 0
0.039999999 0.064123318 0.011636439 0.25019264 0.4048202 0
0.039999999 0.065317884 0.011606901 0.25019264 0.4048202 0
0.039999999 0.066506408 0.011577541 0.25019264 0.4048202 0
0.039999999 0.067688935 0.011548358 0.25019264 0.4048202 0
0.039999999 0.068865515 0.01151935 0.25019264 0.4048202 0
0.039999999 0.07003621 0.011490516 0.25019264 0.4048202 0
0.039999999 0.071201056 0.011461854 0.25019264 0.4048202 0
0.039999999 0.072360106 0.011433363 0.25019264 0.4048202 0
0.039999999 0.073513418 0.011405041 0.25019264 0.4048202 0
0.039999999 0.074661024 0.011376887 0.25019264 0.4048202 0
0.039999999 0.075802989 0.011348899 0.25019264 0.4048202 0
0.039999999 0.076939352 0.011321077 0.25019264 0.4048202 0
0.039999999 0.078070156 0.01129342 0.25019264 0.4048202 0
0.039999999 0.079195447 0.011265923 0.25019264 0.4048202 0
0.039795779 0.079999998 0.011249508 0.25019264 0.4048202 0
0.039070744 0.079999998 0.01126098 0.25019264 0.4048202 0
0.038344227 0.079999998 0.011272502 0.25019264 0.4048202 0
0.037616223 0.079999998 0.011284077 0.25019264 0.4048202 0
0.036886718 0.079999998 0.011295702 0.25019264 0.4048202 0
0.036155704 0.079999998 0.01130738 0.25019264 0.4048202 0
0.035423178 0.079999998 0.01131911 0.25019264 0.4048202 0
0.034689128 0.079999998 0.011330892 0.25019264 0.4048202 0
0.033953547 0.079999998 0.011342728 0.25019264 0.4048202 0
0.033216428 0.079999998 0.011354615 0.25019264 0.4048202 0
0.032477759 0.079999998 0.011366555 0.25019264 0.4048202 0
0.031737532 0.079999998 0.011378549 0.25019264 0.4048202 0
0.03099574 0.079999998 0.011390597 0.25019264 0.4048202 0
0.030252373 0.079999998 0.011402698 0.25019264 0.4048202 0
0.029507423 0.079999998 0.011414853 0.25019264 0.4048202 0
0.028760882 0.079999998 0.011427062 0.25019264 0.4048202 0
0.028012739 0.079999998 0.011439325 0.25019264 0.4048202 0
0.027262989 0.079999998 0.011451644 0.25019264 0.4048202 0
0.026511619 0.079999998 0.011464017 0.25019264 0.4048202 0
0.025758622 0.079999998 0.011476445 0.25019264 0.4048202 0
0.02500399 0.079999998 0.011488928 0.25019264 0.4048202 0
0.024247712 0.079999998 0.011501468 0.25019264 0.4048202 0
0.023489779 0.079999998 0.011514063 0.25019264 0.4048202 0
0.022730181 0.079999998 0.011526714 0.25019264 0.4048202 0
0.021968912 0.079999998 0.011539421 0.25019264 0.4048202 0
0.02120596 0.079999998 0.011552186 0.25019264 0.4048202 0
0.020441316 0.079999998 0.011565006 0.25019264 0.4048202 0
0.019674972 0.079999998 0.011577884 0.25019264 0.4048202 0
0.018906917 0.079999998 0.01159082 0.25019264 0.4048202 0
0.018137142 0.079999998 0.011603813 0.25019264 0.4048202 0
0.017365638 0.079999998 0.011616863 0.25019264 0.4048202 0
0.016592395 0.079999998 0.011629972 0.25019264 0.4048202 0
0.015817402 0.079999998 0.011643139 0.25019264 0.4048202 0
0.01504065 0.079999998 0.011656364 0.25019264 0.4048202 0
0.01426213 0.079999998 0.01166965 0.25019264 0.4048202 0
0.013481831 0.079999998 0.011682994 0.25019264 0.4048202 0
0.012699744 0.079999998 0.011696397 0.25019264 0.4048202 0
0.011915858 0.079999998 0.011709861 0.25019264 0.4048202 0
0.011130164 0.079999998 0.011723383 0.25019264 0.4048202 0
0.010342651 0.079999998 0.011736967 0.25019264 0.4048202 0
0.0095533086 0.079999998 0.011750611 0.25019264 0.4048202 0
0.0087621277 0.079999998 0.011764315 0.25019264 0.4048202 0
0.0079690972 0.079999998 0.011778081 0.25019264 0.4048202 0
0.007174206 0.079999998 0.011791908 0.25019264 0.4048202 0
0.0063774446 0.079999998 0.011805797 0.25019264 0.4048202 0
0.005578802 0.079999998 0.011819748 0.25019264 0.4048202 0
0.0047782678 0.079999998 0.011833761 0.25019264 0.4048202 0
0.003975831 0.079999998 0.011847837 0.25019264 0.4048202 0
0.0031714812 0.079999998 0.011861975 0.25019264 0.4048202 0
0.0023652073 0.079999998 0.011876176 0.25019264 0.4048202 0
0.0015569986 0.079999998 0.011890441 0.25019264 0.4048202 0
0.00074684399 0.079999998 0.011904771 0.25019264 0.4048202 0
0.039999999 5.2183485e-05 0.012540587 0.25019264 0.4048202 0
0.039999999 0.0016020423 0.012502784 0.25019264 0.4048202 0
0.039999999 0.0031425888 0.012465238 0.25019264 0.4048202 0
0.039999999 0.0046739141 0.012427947 0.25019264 0.4048202 0
0.039999999 0.0061961086 0.012390909 0.25019264 0.4048202 0
0.039999999 0.0077092606 0.012354122 0.25019264 0.4048202 0
0.039999999 0.0092134578 0.012317582 0.25019264 0.4048202 0
0.039999999 0.010708787 0.012281289 0.25019264 0.4048202 0
0.039999999 0.012195336 0.012245239 0.25019264 0.4048202 0
0.039999999 0.013673184 0.012209429 0.25019264 0.4048202 0
0.039999999 0.015142419 0.012173859 0.25019264 0.4048202 0
0.039999999 0.016603122 0.012138526 0.25019264 0.4048202 0
0.039999999 0.018055374 0.012103426 0.25019264 0.4048202 0
0.039999999 0.019499253 0.012068559 0.25019264 0.4048202 0
0.039999999 0.020934843 0.012033922 0.25019264 0.4048202 0
0.039999999 0.022362219 0.011999512 0.25019264 0.4048202 0
0.039999999 0.023781458 0.011965328 0.25019264 0.4048202 0
0.039999999 0.025192639 0.011931367 0.25019264 0.4048202 0
0.039999999 0.026595835 0.011897628 0.25019264 0.4048202 0
0.039999999 0.02799112 0.011864109 0.25019264 0.4048202 0
0.039999999 0.029378569 0.011830807 0.25019264 0.4048202 0
0.039999999 0.030758254 0.011797721 0.25019264 0.4048202 0
0.039999999 0.032130245 0.011764848 0.25019264 0.4048202 0
0.039999999 0.033494618 0.011732186 0.25019264 0.4048202 0
0.039999999 0.034851439 0.011699734 0.25019264 0.4048202 0
0.039999999 0.036200777 0.01166749 0.25019264 0.4048202 0
0.039999999 0.037542704 0.011635452 0.25019264 0.4048202 0
0.039999999 0.038877282 0.011603617 0.25019264 0.4048202 0
0.039999999 0.040204581 0.011571985 0.25019264 0.4048202 0
0.039999999 0.041524667 0.011540554 0.25019264 0.4048202 0
0.039999999 0.042837601 0.011509321 0.25019264 0.4048202 0
0.039999999 0.044143457 0.011478284 0.25019264 0.4048202 0
0.039999999 0.045442287 0.011447443 0.25019264 0.4048202 0
0.039999999 0.046734162 0.011416796 0.25019264 0.4048202 0
0.039999999 0.048019141 0.01138634 0.25019264 0.4048202 0
0.039999999 0.049297284 0.011356073 0.25019264 0.4048202 0
0.039999999 0.050568655 0.011325995 0.25019264 0.4048202 0
0.039999999 0.051833313 0.011296105 0.25019264 0.4048202 0
0.039999999 0.053091314 0.011266399 0.25019264 0.4048202 0
0.039999999 0.054342721 0.011236876 0.25019264 0.4048202 0
0.039999999 0.05558759 0.011207536 0.25019264 0.4048202 0
0.039999999 0.056825977 0.011178375 0.25019264 0.4048202 0
0.039999999 0.058057938 0.011149394 0.25019264 0.4048202 0
0.039999999 0.059283532 0.01112059 0.25019264 0.4048202 0
0.039999999 0.060502812 0.011091962 0.25019264 0.4048202 0
0.039999999 0.061715834 0.011063508 0.25019264 0.4048202 0
0.039999999 0.062922649 0.011035226 0.25019264 0.4048202 0
0.039999999 0.064123318 0.011007116 0.25019264 0.4048202 0
0.039999999 0.065317884 0.010979176 0.25019264 0.4048202 0
0.039999999 0.066506408 0.010951404 0.25019264 0.4048202 0
0.039999999 0.067688935 0.010923799 0.25019264 0.4048202 0
0.039999999 0.068865515 0.010896361 0.25019264 0.4048202 0
0.039999999 0.07003621 0.010869086 0.25019264 0.4048202 0
0.039999999 0.071201056 0.010841973 0.25019264 0.4048202 0
0.039999999 0.072360106 0.010815023 0.25019264 0.4048202 0
0.039999999 0.073513418 0.010788233 0.25019264 0.4048202 0
0.039999999 0.074661024 0.010761601 0.25019264 0.4048202 0
0.039999999 0.075802989 0.010735128 0.25019264 0.4048202 0
0.039999999 0.076939352 0.01070881 0.25019264 0.4048202 0
0.039999999 0.078070156 0.010682648 0.25019264 0.4048202 0
0.039999999 0.079195447 0.010656639 0.25019264 0.4048202 0
0.039795779 0.079999998 0.010641111 0.25019264 0.4048202 0
0.039070744 0.079999998 0.010651963 0.25019264 0.4048202 0
0.038344227 0.079999998 0.010662862 0.25019264 0.4048202 0
0.037616223 0.079999998 0.010673811 0.25019264 0.4048202 0
0.036886718 0.079999998 0.010684808 0.25019264 0.4048202 0
0.036155704 0.079999998 0.010695853 0.25019264 0.4048202 0
0.035423178 0.079999998 0.010706949 0.25019264 0.4048202 0
0.034689128 0.079999998 0.010718094 0.25019264 0.4048202 0
0.033953547 0.079999998 0.010729289 0.25019264 0.4048202 0
0.033216428 0.079999998 0.010740533 0.25019264 0.4048202 0
0.032477759 0.079999998 0.010751829 0.25019264 0.4048202 0
0.031737532 0.079999998 0.010763174 0.25019264 0.4048202 0
0.03099574 0.079999998 0.01077457 0.25019264 0.4048202 0
0.030252373 0.079999998 0.010786016 0.25019264 0.4048202 0
0.029507423 0.079999998 0.010797514 0.25019264 0.4048202 0
0.028760882 0.079999998 0.010809063 0.25019264 0.4048202 0
0.028012739 0.079999998 0.010820664 0.25019264 0.4048202 0
0.027262989 0.079999998 0.010832315 0.25019264 0.4048202 0
0.026511619 0.079999998 0.010844019 0.25019264 0.4048202 0
0.025758622 0.079999998 0.010855775 0.25019264 0.4048202 0
0.02500399 0.079999998 0.010867584 0.25019264 0.4048202 0
0.024247712 0.079999998 0.010879445 0.25019264 0.4048202 0
0.023489779 0.079999998 0.010891358 0.25019264 0.4048202 0
0.022730181 0.079999998 0.010903325 0.25019264 0.4048202 0
0.021968912 0.079999998 0.010915346 0.25019264 0.4048202 0
0.02120596 0.079999998 0.010927419 0.25019264 0.4048202 0
0.020441316 0.079999998 0.010939547 0.25019264 0.4048202 0
0.019674972 0.079999998 0.010951729 0.25019264 0.4048202 0
0.018906917 0.079999998 0.010963964 0.25019264 0.4048202 0
0.018137142 0.079999998 0.010976254 0.25019264 0.4048202 0
0.017365638 0.079999998 0.010988599 0.25019264 0.4048202 0
0.016592395 0.079999998 0.011000999 0.25019264 0.4048202 0
0.015817402 0.079999998 0.011013454 0.25019264 0.4048202 0
0.01504065 0.079999998 0.011025964 0.25019264 0.4048202 0
0.01426213 0.079999998 0.011038531 0.25019264 0.4048202 0
0.013481831 0.079999998 0.011051153 0.25019264 0.4048202 0
0.012699744 0.079999998 0.011063832 0.25019264 0.4048202 0
0.011915858 0.079999998 0.011076567 0.25019264 0.4048202 0
0.011130164 0.079999998 0.011089358 0.25019264 0.4048202 0
0.010342651 0.079999998 0.011102207 0.25019264 0.4048202 0
0.0095533086 0.079999998 0.011115113 0.25019264 0.4048202 0
0.0087621277 0.079999998 0.011128076 0.25019264 0.4048202 0
0.0079690972 0.079999998 0.011141098 0.25019264 0.4048202 0
0.007174206 0.079999998 0.011154178 0.25019264 0.4048202 0
0.0063774446 0.079999998 0.011167315 0.25019264 0.4048202 0
0.005578802 0.079999998 0.011180512 0.25019264 0.4048202 0
0.0047782678 0.079999998 0.011193766 0.25019264 0.4048202 0
0.003975831 0.079999998 0.011207081 0.25019264 0.4048202 0
0.0031714812 0.079999998 0.011220455 0.25019264 0.4048202 0
0.0023652073 0.079999998 0.011233889 0.25019264 0.4048202 0
0.0015569986 0.079999998 0.011247382 0.25019264 0.4048202 0
0.00074684399 0.079999998 0.011260935 0.25019264 0.4048202 0
0.039999999 5.2183485e-05 0.011823651 0.25019264 0.4048202 0
0.039999999 0.0016020423 0.011788009 0.25019264 0.4048202 0
0.039999999 0.0031425888 0.011752609 0.25019264 0.4048202 0
0.039999999 0.0046739141 0.011717451 0.25019264 0.4048202 0
0.039999999 0.0061961086 0.01168253 0.25019264 0.4048202 0
0.039999999 0.0077092606 0.011647846 0.25019264 0.4048202 0
0.039999999 0.0092134578 0.011613396 0.25019264 0.4048202 0
0.039999999 0.010708787 0.011579177 0.25019264 0.4048202 0
0.039999999 0.012195336 0.011545188 0.25019264 0.4048202 0
0.039999999 0.013673184 0.011511426 0.25019264 0.4048202 0
0.039999999 0.015142419 0.011477889 0.25019264 0.4048202 0
0.039999999 0.016603122 0.011444575 0.25019264 0.4048202 0
0.039999999 0.018055374 0.011411482 0.25019264 0.4048202 0
0.039999999 0.019499253 0.011378609 0.25019264 0.4048202 0
