# .PCD v0.7 - Point Cloud Data file format
VERSION 0.7
FIELDS x y z vp_x vp_y vp_z
SIZE 4 4 4 4 4 4
TYPE F F F F F F
COUNT 1 1 1 1 1 1
WIDTH 856
HEIGHT 1
VIEWPOINT 0 0 0 1 0 0 0
POINTS 856
DATA ascii
0.026051309 0 0.028747633 0.25019264 -0.4048202 0
0.026881419 5.5511151e-17 0.028722689 0.25019264 -0.4048202 0
0 0.050420158 0.03227216 0.25019264 -0.4048202 0
0.028537333 0 0.02867314 0.25019264 -0.4048202 0
0 0.053827949 0.032457862 0.25019264 -0.4048202 0
0 0.0555466 0.032551635 0.25019264 -0.4048202 0
0.031010559 5.5511151e-17 0.028599665 0.25019264 -0.4048202 0
0.031832162 5.5511151e-17 0.028575396 0.25019264 -0.4048202 0
0.032652371 5.5511151e-17 0.028551241 0.25019264 -0.4048202 0
0.033471197 5.5511151e-17 0.028527196 0.25019264 -0.4048202 0
0 0.064291254 0.033029988 0.25019264 -0.4048202 0
0.035104733 0 0.028479438 0.25019264 -0.4048202 0
0.035919454 0 0.028455725 0.25019264 -0.4048202 0
0 0.069662705 0.033324808 0.25019264 -0.4048202 0
0.037544843 0 0.028408624 0.25019264 -0.4048202 0
0.038355522 0 0.028385239 0.25019264 -0.4048202 0
0.039164875 0 0.028361961 0.25019264 -0.4048202 0
0.039972901 0 0.028338792 0.25019264 -0.4048202 0
0.039999999 0.00150708 0.028421143 0.25019264 -0.4048202 0
0.039999999 0.003075842 0.028507743 0.25019264 -0.4048202 0
0.039999999 0.004654197 0.028594943 0.25019264 -0.4048202 0
0.039999999 0.0062422417 0.02868275 0.25019264 -0.4048202 0
0.039999999 0.0078400727 0.028771168 0.25019264 -0.4048202 0
0.039999999 0.011065492 0.028949866 0.25019264 -0.4048202 0
0.039999999 0.01433126 0.029131087 0.25019264 -0.4048202 0
0.039999999 0.015979532 0.029222658 0.25019264 -0.4048202 0
0.039999999 0.017638205 0.029314881 0.25019264 -0.4048202 0
0.039999999 0.019307382 0.02940776 0.25019264 -0.4048202 0
0.039999999 0.020987175 0.029501302 0.25019264 -0.4048202 0
0.039999999 0.022677694 0.029595515 0.25019264 -0.4048202 0
0.039999999 0.024379047 0.029690405 0.25019264 -0.4048202 0
0.039999999 0.02609135 0.02978598 0.25019264 -0.4048202 0
0.039999999 0.027814718 0.029882245 0.25019264 -0.4048202 0
0.039999999 0.029549263 0.029979208 0.25019264 -0.4048202 0
0.039999999 0.03129511 0.030076878 0.25019264 -0.4048202 0
0.039999999 0.03305237 0.030175259 0.25019264 -0.4048202 0
0.039999999 0.034821171 0.030274363 0.25019264 -0.4048202 0
0.039999999 0.036601629 0.030374195 0.25019264 -0.4048202 0
0.039999999 0.038393877 0.030474763 0.25019264 -0.4048202 0
0.039999999 0.040198036 0.030576074 0.25019264 -0.4048202 0
0.039999999 0.042014234 0.030678138 0.25019264 -0.4048202 0
0.039999999 0.043842603 0.030780962 0.25019264 -0.4048202 0
0.039999999 0.045683276 0.030884553 0.25019264 -0.4048202 0
0.02491541 0.079999998 0.033212855 0.25019264 -0.4048202 0
0.039999999 0.049402058 0.031094072 0.25019264 -0.4048202 0
0.039999999 0.051280446 0.031200018 0.25019264 -0.4048202 0
0.039999999 0.053171683 0.031306766 0.25019264 -0.4048202 0
0.039999999 0.05507591 0.031414323 0.25019264 -0.4048202 0
0.039999999 0.056993268 0.031522702 0.25019264 -0.4048202 0
0.030447233 0.079999998 0.033069506 0.25019264 -0.4048202 0
0.031364586 0.079999998 0.033046018 0.25019264 -0.4048202 0
0.039999999 0.062825628 0.031852845 0.25019264 -0.4048202 0
0.039999999 0.064797007 0.031964593 0.25019264 -0.4048202 0
0.039999999 0.066782273 0.032077208 0.25019264 -0.4048202 0
0.039999999 0.068781577 0.032190699 0.25019264 -0.4048202 0
0.039999999 0.070795089 0.032305077 0.25019264 -0.4048202 0
0.039999999 0.072822966 0.032420348 0.25019264 -0.4048202 0
0.037750062 0.079999998 0.032884803 0.25019264 -0.4048202 0
0.039999999 0.076922469 0.032653622 0.25019264 -0.4048202 0
0.039999999 0.078994431 0.032771647 0.25019264 -0.4048202 0
0.00043917613 0 0.02880121 0.25019264 -0.4048202 0
0.0013162533 0 0.028773362 0.25019264 -0.4048202 0
0.0021916383 0 0.028745636 0.25019264 -0.4048202 0
0.00306534 0 0.028718038 0.25019264 -0.4048202 0
0.0039373678 0 0.028690562 0.25019264 -0.4048202 0
0.0048077307 5.5511151e-17 0.028663207 0.25019264 -0.4048202 0
0.0056764376 0 0.028635977 0.25019264 -0.4048202 0
0.0065434976 0 0.02860887 0.25019264 -0.4048202 0
0.0074089197 5.5511151e-17 0.028581882 0.25019264 -0.4048202 0
0 0.013843264 0.029531486 0.25019264 -0.4048202 0
0.0091348859 0 0.028528273 0.25019264 -0.4048202 0
0.0099954475 0 0.028501648 0.25019264 -0.4048202 0
0.010854406 5.5511151e-17 0.028475145 0.25019264 -0.4048202 0
0.011711772 5.5511151e-17 0.028448759 0.25019264 -0.4048202 0
0.012567552 5.5511151e-17 0.028422493 0.25019264 -0.4048202 0
0.013421754 0 0.028396346 0.25019264 -0.4048202 0
0.014274389 5.5511151e-17 0.028370317 0.25019264 -0.4048202 0
0.015125465 0 0.028344404 0.25019264 -0.4048202 0
0 0.027611064 0.030250102 0.25019264 -0.4048202 0
0.016822971 5.5511151e-17 0.028292932 0.25019264 -0.4048202 0
0.017669417 5.5511151e-17 0.028267369 0.25019264 -0.4048202 0
0.018514339 0 0.028241923 0.25019264 -0.4048202 0
0.019357743 0 0.028216593 0.25019264 -0.4048202 0
0.020199636 0 0.028191376 0.25019264 -0.4048202 0
0.021040028 0 0.028166275 0.25019264 -0.4048202 0
0.021878928 0 0.028141286 0.25019264 -0.4048202 0
0 0.040426344 0.030924188 0.25019264 -0.4048202 0
0 0.042068586 0.031010915 0.25019264 -0.4048202 0
0 0.043720067 0.031098206 0.25019264 -0.4048202 0
0.025219755 0 0.028042469 0.25019264 -0.4048202 0
0.026051309 0 0.028018044 0.25019264 -0.4048202 0
0.026881419 0 0.027993733 0.25019264 -0.4048202 0
0.027710091 0 0.027969532 0.25019264 -0.4048202 0
0.028537333 0 0.027945442 0.25019264 -0.4048202 0
0.029363154 0 0.027921461 0.25019264 -0.4048202 0
0.03018756 0 0.027897591 0.25019264 -0.4048202 0
0.031010559 0 0.027873831 0.25019264 -0.4048202 0
0.031832162 0 0.027850179 0.25019264 -0.4048202 0
0.032652371 0 0.027826637 0.25019264 -0.4048202 0
0.033471197 0 0.027803201 0.25019264 -0.4048202 0
0.034288649 5.5511151e-17 0.027779875 0.25019264 -0.4048202 0
0.035104733 0 0.027756656 0.25019264 -0.4048202 0
0.035919454 0 0.027733544 0.25019264 -0.4048202 0
0.036732819 5.5511151e-17 0.027710538 0.25019264 -0.4048202 0
0.037544843 5.5511151e-17 0.027687641 0.25019264 -0.4048202 0
0.038355522 0 0.027664848 0.25019264 -0.4048202 0
0.039164875 0 0.027642161 0.25019264 -0.4048202 0
0.039972901 0 0.027619578 0.25019264 -0.4048202 0
0.039999999 0.00150708 0.027699841 0.25019264 -0.4048202 0
0.039999999 0.003075842 0.027784243 0.25019264 -0.4048202 0
0.039999999 0.004654197 0.02786923 0.25019264 -0.4048202 0
0.039999999 0.0062422417 0.027954808 0.25019264 -0.4048202 0
0.039999999 0.0078400727 0.028040983 0.25019264 -0.4048202 0
0.039999999 0.0094477898 0.028127758 0.25019264 -0.4048202 0
0.039999999 0.011065492 0.028215144 0.25019264 -0.4048202 0
0.039999999 0.012693281 0.028303144 0.25019264 -0.4048202 0
0.039999999 0.01433126 0.028391765 0.25019264 -0.4048202 0
0.039999999 0.015979532 0.028481014 0.25019264 -0.4048202 0
0.039999999 0.017638205 0.028570896 0.25019264 -0.4048202 0
0.039999999 0.019307382 0.028661417 0.25019264 -0.4048202 0
0.039999999 0.020987175 0.028752586 0.25019264 -0.4048202 0
0.039999999 0.022677694 0.028844407 0.25019264 -0.4048202 0
0.039999999 0.024379047 0.028936889 0.25019264 -0.4048202 0
0.013704115 0.079999998 0.032661803 0.25019264 -0.4048202 0
0.039999999 0.027814718 0.029123859 0.25019264 -0.4048202 0
0.015586744 0.079999998 0.032611988 0.25019264 -0.4048202 0
0.039999999 0.03129511 0.029313553 0.25019264 -0.4048202 0
0.039999999 0.03305237 0.02940944 0.25019264 -0.4048202 0
0.039999999 0.034821171 0.029506028 0.25019264 -0.4048202 0
0.039999999 0.036601629 0.029603325 0.25019264 -0.4048202 0
0.039999999 0.038393877 0.029701341 0.25019264 -0.4048202 0
0.039999999 0.040198036 0.029800082 0.25019264 -0.4048202 0
0.039999999 0.042014234 0.029899554 0.25019264 -0.4048202 0
0.023060735 0.079999998 0.032417428 0.25019264 -0.4048202 0
0.039999999 0.047536381 0.03020245 0.25019264 -0.4048202 0
0.039999999 0.049402058 0.030304933 0.25019264 -0.4048202 0
0.039999999 0.051280446 0.030408191 0.25019264 -0.4048202 0
0.039999999 0.053171683 0.030512229 0.25019264 -0.4048202 0
0.039999999 0.05507591 0.030617058 0.25019264 -0.4048202 0
0.039999999 0.056993268 0.030722685 0.25019264 -0.4048202 0
0.039999999 0.058923911 0.03082912 0.25019264 -0.4048202 0
0.039999999 0.06086798 0.030936372 0.25019264 -0.4048202 0
0.039999999 0.062825628 0.03104445 0.25019264 -0.4048202 0
0.033195399 0.079999998 0.032161895 0.25019264 -0.4048202 0
0.039999999 0.066782273 0.031263117 0.25019264 -0.4048202 0
0.039999999 0.068781577 0.031373728 0.25019264 -0.4048202 0
0.039999999 0.070795089 0.031485204 0.25019264 -0.4048202 0
0.039999999 0.072822966 0.031597551 0.25019264 -0.4048202 0
0.039999999 0.074865364 0.031710781 0.25019264 -0.4048202 0
0.039999999 0.076922469 0.031824905 0.25019264 -0.4048202 0
0.039999999 0.078994431 0.031939931 0.25019264 -0.4048202 0
0.00043917613 0 0.028051371 0.25019264 -0.4048202 0
0 0.0021410065 0.028172461 0.25019264 -0.4048202 0
0.0021916383 0 0.027997244 0.25019264 -0.4048202 0
0.00306534 0 0.027970362 0.25019264 -0.4048202 0
0.0039373678 0 0.027943602 0.25019264 -0.4048202 0
0.0048077307 0 0.02791696 0.25019264 -0.4048202 0
0.0056764376 0 0.02789044 0.25019264 -0.4048202 0
0.0065434976 5.5511151e-17 0.027864037 0.25019264 -0.4048202 0
0.0074089197 5.5511151e-17 0.027837753 0.25019264 -0.4048202 0
0.0082727131 0 0.027811587 0.25019264 -0.4048202 0
0 0.015340666 0.028838472 0.25019264 -0.4048202 0
0.0099954475 0 0.027759608 0.25019264 -0.4048202 0
0 0.018359303 0.028991571 0.25019264 -0.4048202 0
0.011711772 0 0.027708096 0.25019264 -0.4048202 0
0.012567552 0 0.027682513 0.25019264 -0.4048202 0
0.013421754 0 0.027657047 0.25019264 -0.4048202 0
0.014274389 5.5511151e-17 0.027631694 0.25019264 -0.4048202 0
0.015125465 0 0.027606457 0.25019264 -0.4048202 0
0.015974989 0 0.027581334 0.25019264 -0.4048202 0
0.016822971 0 0.027556324 0.25019264 -0.4048202 0
0.017669417 0 0.027531428 0.25019264 -0.4048202 0
0 0.032350801 0.029704811 0.25019264 -0.4048202 0
0.019357743 0 0.027481973 0.25019264 -0.4048202 0
0 0.035554215 0.029868921 0.25019264 -0.4048202 0
0 0.037169244 0.02995177 0.25019264 -0.4048202 0
0.021878928 0 0.027408628 0.25019264 -0.4048202 0
0.022716343 0 0.027384402 0.25019264 -0.4048202 0
0.02355228 0 0.027360287 0.25019264 -0.4048202 0
0.024386749 0 0.027336279 0.25019264 -0.4048202 0
0.025219755 0 0.027312383 0.25019264 -0.4048202 0
0.026051309 5.5511151e-17 0.027288595 0.25019264 -0.4048202 0
0.026881419 0 0.027264915 0.25019264 -0.4048202 0
0.027710091 0 0.027241345 0.25019264 -0.4048202 0
0.028537333 0 0.027217882 0.25019264 -0.4048202 0
0.029363154 0 0.027194526 0.25019264 -0.4048202 0
0.03018756 0 0.027171277 0.25019264 -0.4048202 0
0.031010559 5.5511151e-17 0.027148135 0.25019264 -0.4048202 0
0.031832162 0 0.0271251 0.25019264 -0.4048202 0
0.032652371 5.5511151e-17 0.027102169 0.25019264 -0.4048202 0
0.033471197 0 0.027079346 0.25019264 -0.4048202 0
0.034288649 0 0.027056625 0.25019264 -0.4048202 0
0 0.066071145 0.031446263 0.25019264 -0.4048202 0
0.035919454 0 0.027011501 0.25019264 -0.4048202 0
0.036732819 5.5511151e-17 0.026989095 0.25019264 -0.4048202 0
0 0.071474575 0.031728018 0.25019264 -0.4048202 0
0.038355522 0 0.026944593 0.25019264 -0.4048202 0
0.039164875 0 0.026922496 0.25019264 -0.4048202 0
0.039972901 0 0.026900502 0.25019264 -0.4048202 0
0.039999999 0.00150708 0.026978675 0.25019264 -0.4048202 0
0.00036026465 0.079999998 0.032164227 0.25019264 -0.4048202 0
0.039999999 0.004654197 0.027143653 0.25019264 -0.4048202 0
0.039999999 0.0062422417 0.027227003 0.25019264 -0.4048202 0
0.039999999 0.0078400727 0.027310934 0.25019264 -0.4048202 0
0.0042029917 0.079999998 0.032061055 0.25019264 -0.4048202 0
0.039999999 0.011065492 0.027480563 0.25019264 -0.4048202 0
0.039999999 0.01433126 0.027652586 0.25019264 -0.4048202 0
0.039999999 0.017638205 0.027827052 0.25019264 -0.4048202 0
0.0099214539 0.079999998 0.031909883 0.25019264 -0.4048202 0
0.039999999 0.020987175 0.028004011 0.25019264 -0.4048202 0
0.039999999 0.022677694 0.028093442 0.25019264 -0.4048202 0
0.039999999 0.024379047 0.028183516 0.25019264 -0.4048202 0
0.039999999 0.02609135 0.02827424 0.25019264 -0.4048202 0
0.039999999 0.027814718 0.028365619 0.25019264 -0.4048202 0
0.039999999 0.029549263 0.028457662 0.25019264 -0.4048202 0
0.039999999 0.03129511 0.028550375 0.25019264 -0.4048202 0
0.039999999 0.03305237 0.028643765 0.25019264 -0.4048202 0
0.039999999 0.034821171 0.028737837 0.25019264 -0.4048202 0
0.039999999 0.036601629 0.028832603 0.25019264 -0.4048202 0
0.039999999 0.038393877 0.028928066 0.25019264 -0.4048202 0
0.039999999 0.040198036 0.029024236 0.25019264 -0.4048202 0
0.039999999 0.042014234 0.02912112 0.25019264 -0.4048202 0
0.039999999 0.043842603 0.029218724 0.25019264 -0.4048202 0
0.039999999 0.045683276 0.029317059 0.25019264 -0.4048202 0
0.039999999 0.047536381 0.029416129 0.25019264 -0.4048202 0
0.039999999 0.049402058 0.029515944 0.25019264 -0.4048202 0
0.026764678 0.079999998 0.031481393 0.25019264 -0.4048202 0
0.039999999 0.053171683 0.029717842 0.25019264 -0.4048202 0
0.039999999 0.05507591 0.029819941 0.25019264 -0.4048202 0
0.039999999 0.056993268 0.029922819 0.25019264 -0.4048202 0
0.039999999 0.058923911 0.030026484 0.25019264 -0.4048202 0
0.039999999 0.06086798 0.030130943 0.25019264 -0.4048202 0
0.039999999 0.062825628 0.030236207 0.25019264 -0.4048202 0
0.039999999 0.064797007 0.030342285 0.25019264 -0.4048202 0
0.034108873 0.079999998 0.03130259 0.25019264 -0.4048202 0
0.039999999 0.068781577 0.030556913 0.25019264 -0.4048202 0
0.039999999 0.070795089 0.030665485 0.25019264 -0.4048202 0
0.036841657 0.079999998 0.03123733 0.25019264 -0.4048202 0
0.037750062 0.079999998 0.031215791 0.25019264 -0.4048202 0
0.039999999 0.076922469 0.030996343 0.25019264 -0.4048202 0
0.039563131 0.079999998 0.031173032 0.25019264 -0.4048202 0
0.00043917613 0 0.027301669 0.25019264 -0.4048202 0
0.0013162533 0 0.02727527 0.25019264 -0.4048202 0
0.0021916383 5.5511151e-17 0.02724899 0.25019264 -0.4048202 0
0 0.0050213458 0.027560497 0.25019264 -0.4048202 0
0.0039373678 5.5511151e-17 0.027196782 0.25019264 -0.4048202 0
0 0.0079314839 0.0277032 0.25019264 -0.4048202 0
0.0056764376 0 0.027145039 0.25019264 -0.4048202 0
0.0065434976 0 0.027119342 0.25019264 -0.4048202 0
0.0074089197 0 0.027093761 0.25019264 -0.4048202 0
0.0082727131 5.5511151e-17 0.027068295 0.25019264 -0.4048202 0
0.0091348859 0 0.027042942 0.25019264 -0.4048202 0
0.0099954475 5.5511151e-17 0.027017705 0.25019264 -0.4048202 0
0 0.018359303 0.028216742 0.25019264 -0.4048202 0
0.011711772 0 0.02696757 0.25019264 -0.4048202 0
0.012567552 0 0.02694267 0.25019264 -0.4048202 0
0 0.022947913 0.02844377 0.25019264 -0.4048202 0
0.014274389 0 0.02689321 0.25019264 -0.4048202 0
0.015125465 5.5511151e-17 0.026868647 0.25019264 -0.4048202 0
0 0.027611064 0.028675124 0.25019264 -0.4048202 0
0.016822971 0 0.026819855 0.25019264 -0.4048202 0
0 0.03076225 0.028831821 0.25019264 -0.4048202 0
0.018514339 0 0.026771503 0.25019264 -0.4048202 0
0 0.033948097 0.028990526 0.25019264 -0.4048202 0
0.020199636 0 0.026723586 0.25019264 -0.4048202 0
0.021040028 0 0.026699793 0.25019264 -0.4048202 0
0.021878928 0 0.026676105 0.25019264 -0.4048202 0
0.022716343 0 0.026652526 0.25019264 -0.4048202 0
0.02355228 0 0.026629055 0.25019264 -0.4048202 0
0.024386749 0 0.02660569 0.25019264 -0.4048202 0
0.025219755 0 0.026582433 0.25019264 -0.4048202 0
0.026051309 0 0.02655928 0.25019264 -0.4048202 0
0.026881419 0 0.026536234 0.25019264 -0.4048202 0
0.027710091 0 0.026513293 0.25019264 -0.4048202 0
0.028537333 5.5511151e-17 0.026490457 0.25019264 -0.4048202 0
0.029363154 0 0.026467726 0.25019264 -0.4048202 0
0.03018756 5.5511151e-17 0.026445098 0.25019264 -0.4048202 0
0 0.057275217 0.030160923 0.25019264 -0.4048202 0
0.031832162 0 0.026400154 0.25019264 -0.4048202 0
0.032652371 0 0.026377836 0.25019264 -0.4048202 0
0.033471197 0 0.026355622 0.25019264 -0.4048202 0
0.034288649 5.5511151e-17 0.026333511 0.25019264 -0.4048202 0
0.035104733 0 0.0263115 0.25019264 -0.4048202 0
0.035919454 0 0.026289592 0.25019264 -0.4048202 0
0.036732819 0 0.026267784 0.25019264 -0.4048202 0
0.037544843 5.5511151e-17 0.026246078 0.25019264 -0.4048202 0
0.038355522 0 0.026224472 0.25019264 -0.4048202 0
0.039164875 0 0.026202966 0.25019264 -0.4048202 0
0.039972901 0 0.02618156 0.25019264 -0.4048202 0
0.039999999 0.00150708 0.026257643 0.25019264 -0.4048202 0
0.039999999 0.003075842 0.026337652 0.25019264 -0.4048202 0
0.039999999 0.004654197 0.026418213 0.25019264 -0.4048202 0
0.039999999 0.0062422417 0.026499335 0.25019264 -0.4048202 0
0.039999999 0.0078400727 0.026581023 0.25019264 -0.4048202 0
0.039999999 0.0094477898 0.026663281 0.25019264 -0.4048202 0
0.039999999 0.011065492 0.026746117 0.25019264 -0.4048202 0
0.039999999 0.012693281 0.026829535 0.25019264 -0.4048202 0
0.039999999 0.01433126 0.026913542 0.25019264 -0.4048202 0
0.039999999 0.015979532 0.026998144 0.25019264 -0.4048202 0
0.039999999 0.017638205 0.027083347 0.25019264 -0.4048202 0
0.039999999 0.019307382 0.027169155 0.25019264 -0.4048202 0
0.039999999 0.020987175 0.027255576 0.25019264 -0.4048202 0
0.039999999 0.022677694 0.027342618 0.25019264 -0.4048202 0
0.039999999 0.024379047 0.027430285 0.25019264 -0.4048202 0
0.039999999 0.02609135 0.027518583 0.25019264 -0.4048202 0
0.039999999 0.027814718 0.027607521 0.25019264 -0.4048202 0
0.039999999 0.029549263 0.027697103 0.25019264 -0.4048202 0
0.039999999 0.03129511 0.027787337 0.25019264 -0.4048202 0
0.017463658 0.079999998 0.030867267 0.25019264 -0.4048202 0
0.039999999 0.034821171 0.027969791 0.25019264 -0.4048202 0
0.01933492 0.079999998 0.03082094 0.25019264 -0.4048202 0
0.039999999 0.038393877 0.028154936 0.25019264 -0.4048202 0
0.039999999 0.040198036 0.028248534 0.25019264 -0.4048202 0
0.039999999 0.042014234 0.028342828 0.25019264 -0.4048202 0
0.039999999 0.043842603 0.028437825 0.25019264 -0.4048202 0
0.039999999 0.045683276 0.028533529 0.25019264 -0.4048202 0
0.039999999 0.047536381 0.028629953 0.25019264 -0.4048202 0
0.039999999 0.049402058 0.028727101 0.25019264 -0.4048202 0
0.039999999 0.051280446 0.028824981 0.25019264 -0.4048202 0
0.039999999 0.053171683 0.028923603 0.25019264 -0.4048202 0
0.039999999 0.05507591 0.029022975 0.25019264 -0.4048202 0
0.039999999 0.056993268 0.029123101 0.25019264 -0.4048202 0
0.039999999 0.06086798 0.029325664 0.25019264 -0.4048202 0
0.039999999 0.062825628 0.029428113 0.25019264 -0.4048202 0
0.039999999 0.064797007 0.029531356 0.25019264 -0.4048202 0
0.034108873 0.079999998 0.030465998 0.25019264 -0.4048202 0
0.039999999 0.068781577 0.02974025 0.25019264 -0.4048202 0
0.039999999 0.070795089 0.029845919 0.25019264 -0.4048202 0
0.039999999 0.072822966 0.029952418 0.25019264 -0.4048202 0
0.039999999 0.074865364 0.030059753 0.25019264 -0.4048202 0
0.039999999 0.076922469 0.030167934 0.25019264 -0.4048202 0
0.039999999 0.078994431 0.030276973 0.25019264 -0.4048202 0
0 0.00071185152 0.026598794 0.25019264 -0.4048202 0
0.0013162533 5.5511151e-17 0.026526429 0.25019264 -0.4048202 0
0.0021916383 0 0.02650087 0.25019264 -0.4048202 0
0.00306534 0 0.026475426 0.25019264 -0.4048202 0
0.0039373678 5.5511151e-17 0.026450096 0.25019264 -0.4048202 0
0.0048077307 0 0.026424877 0.25019264 -0.4048202 0
0.0056764376 0 0.026399774 0.25019264 -0.4048202 0
0.0065434976 0 0.026374783 0.25019264 -0.4048202 0
0 0.012353714 0.027154012 0.25019264 -0.4048202 0
0.0082727131 0 0.026325136 0.25019264 -0.4048202 0
0.0091348859 0 0.026300481 0.25019264 -0.4048202 0
0 0.01684599 0.027369369 0.25019264 -0.4048202 0
0.010854406 0 0.0262515 0.25019264 -0.4048202 0
0.011711772 0 0.026227176 0.25019264 -0.4048202 0
0.012567552 0 0.026202962 0.25019264 -0.4048202 0
0.013421754 0 0.026178855 0.25019264 -0.4048202 0
0.014274389 0 0.026154859 0.25019264 -0.4048202 0
0.015125465 0 0.026130971 0.25019264 -0.4048202 0
0.015974989 0 0.02610719 0.25019264 -0.4048202 0
0.016822971 0 0.026083518 0.25019264 -0.4048202 0
0.017669417 0 0.026059952 0.25019264 -0.4048202 0
0.018514339 0 0.026036492 0.25019264 -0.4048202 0
0.019357743 0 0.02601314 0.25019264 -0.4048202 0
0 0.035554215 0.028272511 0.25019264 -0.4048202 0
0.021040028 0 0.02596675 0.25019264 -0.4048202 0
0.021878928 0 0.025943715 0.25019264 -0.4048202 0
0.022716343 0 0.025920782 0.25019264 -0.4048202 0
0.02355228 5.5511151e-17 0.025897956 0.25019264 -0.4048202 0
0.024386749 0 0.025875233 0.25019264 -0.4048202 0
0.025219755 0 0.025852613 0.25019264 -0.4048202 0
0.026051309 0 0.025830097 0.25019264 -0.4048202 0
0.026881419 0 0.025807682 0.25019264 -0.4048202 0
0.027710091 0 0.025785372 0.25019264 -0.4048202 0
0.028537333 0 0.025763163 0.25019264 -0.4048202 0
0.029363154 0 0.025741056 0.25019264 -0.4048202 0
0.03018756 0 0.025719048 0.25019264 -0.4048202 0
0.031010559 0 0.025697144 0.25019264 -0.4048202 0
0.031832162 0 0.02567534 0.25019264 -0.4048202 0
0.032652371 0 0.025653634 0.25019264 -0.4048202 0
0.033471197 0 0.025632031 0.25019264 -0.4048202 0
0.034288649 0 0.025610525 0.25019264 -0.4048202 0
0.035104733 5.5511151e-17 0.02558912 0.25019264 -0.4048202 0
0 0.067861594 0.029853845 0.25019264 -0.4048202 0
0.036732819 0 0.025546603 0.25019264 -0.4048202 0
0.037544843 0 0.025525494 0.25019264 -0.4048202 0
0.038355522 0 0.025504481 0.25019264 -0.4048202 0
0.039164875 0 0.025483565 0.25019264 -0.4048202 0
0.039972901 0 0.025462747 0.25019264 -0.4048202 0
0.039999999 0.00150708 0.025536742 0.25019264 -0.4048202 0
0.00036026465 0.079999998 0.03044514 0.25019264 -0.4048202 0
0.039999999 0.004654197 0.025692903 0.25019264 -0.4048202 0
0.0022847147 0.079999998 0.030396083 0.25019264 -0.4048202 0
0.039999999 0.0078400727 0.025851242 0.25019264 -0.4048202 0
0.039999999 0.0094477898 0.025931243 0.25019264 -0.4048202 0
0.0051598363 0.079999998 0.030323351 0.25019264 -0.4048202 0
0.039999999 0.012693281 0.026092932 0.25019264 -0.4048202 0
0.039999999 0.01433126 0.026174633 0.25019264 -0.4048202 0
0.0080212951 0.079999998 0.030251637 0.25019264 -0.4048202 0
0.039999999 0.017638205 0.026339775 0.25019264 -0.4048202 0
0.039999999 0.019307382 0.026423227 0.25019264 -0.4048202 0
0.039999999 0.020987175 0.026507277 0.25019264 -0.4048202 0
0.039999999 0.022677694 0.026591929 0.25019264 -0.4048202 0
0.039999999 0.024379047 0.026677188 0.25019264 -0.4048202 0
0.039999999 0.02609135 0.026763061 0.25019264 -0.4048202 0
0.039999999 0.027814718 0.026849557 0.25019264 -0.4048202 0
0.039999999 0.029549263 0.02693668 0.25019264 -0.4048202 0
0.039999999 0.03129511 0.027024439 0.25019264 -0.4048202 0
0.039999999 0.03305237 0.027112836 0.25019264 -0.4048202 0
0.039999999 0.034821171 0.027201882 0.25019264 -0.4048202 0
0.039999999 0.036601629 0.027291581 0.25019264 -0.4048202 0
0.039999999 0.038393877 0.027381944 0.25019264 -0.4048202 0
0.039999999 0.040198036 0.027472973 0.25019264 -0.4048202 0
0.039999999 0.042014234 0.027564678 0.25019264 -0.4048202 0
0.039999999 0.043842603 0.027657066 0.25019264 -0.4048202 0
0.039999999 0.045683276 0.027750144 0.25019264 -0.4048202 0
0.039999999 0.047536381 0.027843919 0.25019264 -0.4048202 0
0.039999999 0.049402058 0.027938399 0.25019264 -0.4048202 0
0.039999999 0.051280446 0.028033594 0.25019264 -0.4048202 0
0.039999999 0.053171683 0.028129507 0.25019264 -0.4048202 0
0.039999999 0.05507591 0.02822615 0.25019264 -0.4048202 0
0.039999999 0.056993268 0.028323529 0.25019264 -0.4048202 0
0.039999999 0.058923911 0.028421653 0.25019264 -0.4048202 0
0.039999999 0.06086798 0.02852053 0.25019264 -0.4048202 0
0.032280639 0.079999998 0.029671248 0.25019264 -0.4048202 0
0.039999999 0.064797007 0.028720574 0.25019264 -0.4048202 0
0.039999999 0.066782273 0.028821761 0.25019264 -0.4048202 0
0.039999999 0.068781577 0.028923733 0.25019264 -0.4048202 0
0.039999999 0.070795089 0.029026501 0.25019264 -0.4048202 0
0.039999999 0.072822966 0.029130075 0.25019264 -0.4048202 0
0.039999999 0.074865364 0.029234463 0.25019264 -0.4048202 0
0.039999999 0.076922469 0.029339675 0.25019264 -0.4048202 0
0.039999999 0.078994431 0.029445719 0.25019264 -0.4048202 0
0 0.00071185152 0.025848042 0.25019264 -0.4048202 0
0.0013162533 5.5511151e-17 0.02577772 0.25019264 -0.4048202 0
0.0021916383 0 0.025752882 0.25019264 -0.4048202 0
0.00306534 0 0.025728155 0.25019264 -0.4048202 0
0 0.0064726574 0.026114512 0.25019264 -0.4048202 0
0.0048077307 0 0.025679035 0.25019264 -0.4048202 0
0.0056764376 0 0.02565464 0.25019264 -0.4048202 0
0.0065434976 5.5511151e-17 0.025630353 0.25019264 -0.4048202 0
0 0.012353714 0.026387589 0.25019264 -0.4048202 0
0 0.013843264 0.026456917 0.25019264 -0.4048202 0
0.0091348859 0 0.025558148 0.25019264 -0.4048202 0
0.0099954475 0 0.025534296 0.25019264 -0.4048202 0
0.010854406 5.5511151e-17 0.025510551 0.25019264 -0.4048202 0
0 0.01988068 0.026738573 0.25019264 -0.4048202 0
0.012567552 0 0.025463382 0.25019264 -0.4048202 0
0.013421754 0 0.025439957 0.25019264 -0.4048202 0
0.014274389 0 0.025416637 0.25019264 -0.4048202 0
0.015125465 0 0.025393423 0.25019264 -0.4048202 0
0.015974989 0 0.025370313 0.25019264 -0.4048202 0
0 0.029182363 0.027174525 0.25019264 -0.4048202 0
0.017669417 0 0.025324408 0.25019264 -0.4048202 0
0 0.032350801 0.027323565 0.25019264 -0.4048202 0
0.019357743 0 0.025278917 0.25019264 -0.4048202 0
0.020199636 0 0.025256326 0.25019264 -0.4048202 0
0.021040028 0 0.025233839 0.25019264 -0.4048202 0
0.021878928 0 0.025211452 0.25019264 -0.4048202 0
0.022716343 0 0.025189169 0.25019264 -0.4048202 0
0.02355228 0 0.025166985 0.25019264 -0.4048202 0
0.024386749 5.5511151e-17 0.025144903 0.25019264 -0.4048202 0
0.025219755 0 0.025122922 0.25019264 -0.4048202 0
0.026051309 0 0.025101041 0.25019264 -0.4048202 0
0 0.048730832 0.028098213 0.25019264 -0.4048202 0
0.027710091 5.5511151e-17 0.025057578 0.25019264 -0.4048202 0
0.028537333 5.5511151e-17 0.025035996 0.25019264 -0.4048202 0
0.029363154 0 0.025014512 0.25019264 -0.4048202 0
0.03018756 0 0.024993127 0.25019264 -0.4048202 0
0.031010559 0 0.024971841 0.25019264 -0.4048202 0
0.031832162 0 0.024950651 0.25019264 -0.4048202 0
0.032652371 5.5511151e-17 0.024929561 0.25019264 -0.4048202 0
0.033471197 0 0.024908565 0.25019264 -0.4048202 0
0.034288649 5.5511151e-17 0.024887668 0.25019264 -0.4048202 0
0.035104733 0 0.024866866 0.25019264 -0.4048202 0
0.035919454 0 0.024846159 0.25019264 -0.4048202 0
0.036732819 5.5511151e-17 0.024825551 0.25019264 -0.4048202 0
0.037544843 0 0.024805035 0.25019264 -0.4048202 0
0.038355522 0 0.024784615 0.25019264 -0.4048202 0
0.039164875 0 0.02476429 0.25019264 -0.4048202 0
0.039972901 0 0.02474406 0.25019264 -0.4048202 0
0.039999999 0.00150708 0.024815965 0.25019264 -0.4048202 0
0.039999999 0.003075842 0.024891581 0.25019264 -0.4048202 0
0.039999999 0.004654197 0.024967719 0.25019264 -0.4048202 0
0.0022847147 0.079999998 0.029538153 0.25019264 -0.4048202 0
0.0032446205 0.079999998 0.029514482 0.25019264 -0.4048202 0
0.039999999 0.0094477898 0.025199333 0.25019264 -0.4048202 0
0.039999999 0.011065492 0.02527762 0.25019264 -0.4048202 0
0.039999999 0.012693281 0.025356459 0.25019264 -0.4048202 0
0.0070689796 0.079999998 0.029420905 0.25019264 -0.4048202 0
0.039999999 0.015979532 0.02551581 0.25019264 -0.4048202 0
0.039999999 0.017638205 0.025596334 0.25019264 -0.4048202 0
0.039999999 0.019307382 0.025677431 0.25019264 -0.4048202 0
0.039999999 0.020987175 0.025759108 0.25019264 -0.4048202 0
0.039999999 0.022677694 0.02584137 0.25019264 -0.4048202 0
0.039999999 0.024379047 0.025924223 0.25019264 -0.4048202 0
0.039999999 0.02609135 0.026007673 0.25019264 -0.4048202 0
0.039999999 0.027814718 0.026091728 0.25019264 -0.4048202 0
0.039999999 0.029549263 0.026176391 0.25019264 -0.4048202 0
0.039999999 0.03129511 0.026261672 0.25019264 -0.4048202 0
0.039999999 0.03305237 0.026347576 0.25019264 -0.4048202 0
0.039999999 0.034821171 0.026434107 0.25019264 -0.4048202 0
0.01933492 0.079999998 0.029128714 0.25019264 -0.4048202 0
0.020268451 0.079999998 0.029106978 0.25019264 -0.4048202 0
0.039999999 0.040198036 0.026697546 0.25019264 -0.4048202 0
0.039999999 0.042014234 0.026786665 0.25019264 -0.4048202 0
0.039999999 0.043842603 0.026876444 0.25019264 -0.4048202 0
0.023988752 0.079999998 0.029021075 0.25019264 -0.4048202 0
0.039999999 0.047536381 0.027058024 0.25019264 -0.4048202 0
0.039999999 0.049402058 0.027149837 0.25019264 -0.4048202 0
0.039999999 0.051280446 0.027242344 0.25019264 -0.4048202 0
0.039999999 0.053171683 0.027335551 0.25019264 -0.4048202 0
0.039999999 0.056993268 0.027524097 0.25019264 -0.4048202 0
0.039999999 0.058923911 0.027619451 0.25019264 -0.4048202 0
0.039999999 0.06086798 0.027715536 0.25019264 -0.4048202 0
0.039999999 0.062825628 0.027812362 0.25019264 -0.4048202 0
0.039999999 0.064797007 0.027909935 0.25019264 -0.4048202 0
0.039999999 0.066782273 0.028008265 0.25019264 -0.4048202 0
0.039999999 0.068781577 0.02810736 0.25019264 -0.4048202 0
0.039999999 0.070795089 0.028207228 0.25019264 -0.4048202 0
0.039999999 0.072822966 0.028307877 0.25019264 -0.4048202 0
0.039999999 0.074865364 0.028409319 0.25019264 -0.4048202 0
0.039999999 0.076922469 0.028511561 0.25019264 -0.4048202 0
0.039999999 0.078994431 0.028614612 0.25019264 -0.4048202 0
0.00043917613 0 0.025053363 0.25019264 -0.4048202 0
0.0013162533 0 0.025029138 0.25019264 -0.4048202 0
0.0021916383 0 0.025005022 0.25019264 -0.4048202 0
0.00306534 0 0.024981013 0.25019264 -0.4048202 0
0.0039373678 0 0.024957113 0.25019264 -0.4048202 0
0.0048077307 0 0.024933318 0.25019264 -0.4048202 0
0.0056764376 0 0.024909632 0.25019264 -0.4048202 0
0.0065434976 0 0.024886051 0.25019264 -0.4048202 0
0.0074089197 5.5511151e-17 0.024862576 0.25019264 -0.4048202 0
0.0082727131 0 0.024839208 0.25019264 -0.4048202 0
0.0091348859 5.5511151e-17 0.024815943 0.25019264 -0.4048202 0
0.0099954475 0 0.024792783 0.25019264 -0.4048202 0
0.010854406 5.5511151e-17 0.024769727 0.25019264 -0.4048202 0
0.011711772 5.5511151e-17 0.024746776 0.25019264 -0.4048202 0
0.012567552 0 0.024723928 0.25019264 -0.4048202 0
0.013421754 0 0.024701184 0.25019264 -0.4048202 0
0.014274389 0 0.024678541 0.25019264 -0.4048202 0
0.015125465 0 0.024656001 0.25019264 -0.4048202 0
0.015974989 0 0.024633562 0.25019264 -0.4048202 0
0.016822971 0 0.024611225 0.25019264 -0.4048202 0
0.017669417 0 0.024588989 0.25019264 -0.4048202 0
0.018514339 0 0.024566855 0.25019264 -0.4048202 0
0.019357743 0 0.02454482 0.25019264 -0.4048202 0
0.020199636 0 0.024522886 0.25019264 -0.4048202 0
0.021040028 0 0.02450105 0.25019264 -0.4048202 0
0 0.038793258 0.026825126 0.25019264 -0.4048202 0
0.022716343 0 0.024457678 0.25019264 -0.4048202 0
0.02355228 0 0.024436139 0.25019264 -0.4048202 0
0.024386749 0 0.024414698 0.25019264 -0.4048202 0
0.025219755 0 0.024393355 0.25019264 -0.4048202 0
0.026051309 0 0.02437211 0.25019264 -0.4048202 0
0.026881419 0 0.024350962 0.25019264 -0.4048202 0
0.027710091 0 0.02432991 0.25019264 -0.4048202 0
0.028537333 0 0.024308953 0.25019264 -0.4048202 0
0.029363154 0 0.024288094 0.25019264 -0.4048202 0
0 0.0555466 0.027597124 0.25019264 -0.4048202 0
0.031010559 0 0.024246661 0.25019264 -0.4048202 0
0.031832162 0 0.024226088 0.25019264 -0.4048202 0
0.032652371 0 0.024205608 0.25019264 -0.4048202 0
0.033471197 0 0.024185224 0.25019264 -0.4048202 0
0.034288649 5.5511151e-17 0.024164932 0.25019264 -0.4048202 0
0.035104733 0 0.024144735 0.25019264 -0.4048202 0
0.035919454 0 0.02412463 0.25019264 -0.4048202 0
0.036732819 0 0.024104619 0.25019264 -0.4048202 0
0.037544843 0 0.0240847 0.25019264 -0.4048202 0
0.038355522 0 0.024064872 0.25019264 -0.4048202 0
0.039164875 0 0.024045138 0.25019264 -0.4048202 0
0.039972901 0 0.024025494 0.25019264 -0.4048202 0
0.039999999 0.00150708 0.024095314 0.25019264 -0.4048202 0
0.039999999 0.003075842 0.024168732 0.25019264 -0.4048202 0
0.039999999 0.004654197 0.02424266 0.25019264 -0.4048202 0
0.039999999 0.0062422417 0.024317101 0.25019264 -0.4048202 0
0.0032446205 0.079999998 0.028657384 0.25019264 -0.4048202 0
0.039999999 0.0094477898 0.024467546 0.25019264 -0.4048202 0
0.039999999 0.011065492 0.024543561 0.25019264 -0.4048202 0
0.039999999 0.012693281 0.02462011 0.25019264 -0.4048202 0
0.039999999 0.01433126 0.024697198 0.25019264 -0.4048202 0
0.039999999 0.015979532 0.024774833 0.25019264 -0.4048202 0
0.0089721167 0.079999998 0.028521731 0.25019264 -0.4048202 0
0.039999999 0.019307382 0.024931761 0.25019264 -0.4048202 0
0.039999999 0.020987175 0.025011066 0.25019264 -0.4048202 0
0.039999999 0.022677694 0.025090938 0.25019264 -0.4048202 0
0.039999999 0.024379047 0.025171386 0.25019264 -0.4048202 0
0.039999999 0.02609135 0.025252413 0.25019264 -0.4048202 0
0.014646147 0.079999998 0.028389867 0.25019264 -0.4048202 0
0.039999999 0.029549263 0.025416233 0.25019264 -0.4048202 0
0.039999999 0.03129511 0.025499037 0.25019264 -0.4048202 0
0.039999999 0.03305237 0.025582444 0.25019264 -0.4048202 0
0.039999999 0.034821171 0.025666464 0.25019264 -0.4048202 0
0.039999999 0.036601629 0.025751101 0.25019264 -0.4048202 0
0.039999999 0.038393877 0.025836362 0.25019264 -0.4048202 0
0.039999999 0.042014234 0.026008783 0.25019264 -0.4048202 0
0.039999999 0.043842603 0.026095955 0.25019264 -0.4048202 0
0.023988752 0.079999998 0.028178306 0.25019264 -0.4048202 0
0.039999999 0.047536381 0.026272262 0.25019264 -0.4048202 0
0.025840716 0.079999998 0.028137203 0.25019264 -0.4048202 0
0.039999999 0.051280446 0.02645123 0.25019264 -0.4048202 0
0.039999999 0.053171683 0.02654173 0.25019264 -0.4048202 0
0.039999999 0.05507591 0.026632918 0.25019264 -0.4048202 0
0.039999999 0.056993268 0.0267248 0.25019264 -0.4048202 0
0.039999999 0.058923911 0.026817385 0.25019264 -0.4048202 0
0.039999999 0.06086798 0.026910679 0.25019264 -0.4048202 0
0.039999999 0.062825628 0.027004695 0.25019264 -0.4048202 0
0.033195399 0.079999998 0.027976727 0.25019264 -0.4048202 0
0.039999999 0.066782273 0.027194908 0.25019264 -0.4048202 0
0.039999999 0.068781577 0.027291125 0.25019264 -0.4048202 0
0.039999999 0.070795089 0.027388092 0.25019264 -0.4048202 0
0.036841657 0.079999998 0.02789882 0.25019264 -0.4048202 0
0.037750062 0.079999998 0.027879583 0.25019264 -0.4048202 0
0.039999999 0.078994431 0.027783649 0.25019264 -0.4048202 0
0.00043917613 0 0.024304179 0.25019264 -0.4048202 0
0 0.0021410065 0.024409095 0.25019264 -0.4048202 0
0.0021916383 0 0.024257284 0.25019264 -0.4048202 0
0.00306534 0 0.024233993 0.25019264 -0.4048202 0
0.0039373678 0 0.024210809 0.25019264 -0.4048202 0
0.0048077307 0 0.024187725 0.25019264 -0.4048202 0
0.0056764376 0 0.024164747 0.25019264 -0.4048202 0
0.0065434976 5.5511151e-17 0.024141872 0.25019264 -0.4048202 0
0.0074089197 0 0.0241191 0.25019264 -0.4048202 0
0.0082727131 0 0.024096427 0.25019264 -0.4048202 0
0.0091348859 0 0.02407386 0.25019264 -0.4048202 0
0 0.01684599 0.025052255 0.25019264 -0.4048202 0
0.010854406 0 0.024029028 0.25019264 -0.4048202 0
0.011711772 5.5511151e-17 0.024006762 0.25019264 -0.4048202 0
0.012567552 0 0.023984596 0.25019264 -0.4048202 0
0 0.022947913 0.025320888 0.25019264 -0.4048202 0
0.014274389 0 0.023940567 0.25019264 -0.4048202 0
0.015125465 0 0.023918701 0.25019264 -0.4048202 0
0.015974989 0 0.023896933 0.25019264 -0.4048202 0
0.016822971 0 0.023875264 0.25019264 -0.4048202 0
0 0.03076225 0.025666334 0.25019264 -0.4048202 0
0.018514339 0 0.023832221 0.25019264 -0.4048202 0
0 0.033948097 0.025807615 0.25019264 -0.4048202 0
0.020199636 0 0.023789566 0.25019264 -0.4048202 0
0.021040028 5.5511151e-17 0.023768384 0.25019264 -0.4048202 0
0 0.038793258 0.026022963 0.25019264 -0.4048202 0
0.022716343 0 0.023726309 0.25019264 -0.4048202 0
0.02355228 0 0.023705414 0.25019264 -0.4048202 0
0.024386749 0 0.023684613 0.25019264 -0.4048202 0
0.025219755 0 0.02366391 0.25019264 -0.4048202 0
0.026051309 0 0.0236433 0.25019264 -0.4048202 0
0.026881419 5.5511151e-17 0.023622783 0.25019264 -0.4048202 0
0.027710091 5.5511151e-17 0.023602361 0.25019264 -0.4048202 0
0.028537333 0 0.023582032 0.25019264 -0.4048202 0
0.029363154 0 0.023561796 0.25019264 -0.4048202 0
0 0.0555466 0.026771873 0.25019264 -0.4048202 0
0.031010559 0 0.023521602 0.25019264 -0.4048202 0
0.031832162 5.5511151e-17 0.023501644 0.25019264 -0.4048202 0
0.032652371 0 0.023481777 0.25019264 -0.4048202 0
0 0.062521815 0.027085552 0.25019264 -0.4048202 0
0.034288649 5.5511151e-17 0.023442317 0.25019264 -0.4048202 0
0.035104733 5.5511151e-17 0.023422724 0.25019264 -0.4048202 0
0.035919454 0 0.02340322 0.25019264 -0.4048202 0
0.036732819 5.5511151e-17 0.023383807 0.25019264 -0.4048202 0
0.037544843 5.5511151e-17 0.023364484 0.25019264 -0.4048202 0
0.038355522 0 0.023345249 0.25019264 -0.4048202 0
0.039164875 0 0.023326105 0.25019264 -0.4048202 0
0.039972901 0 0.02330705 0.25019264 -0.4048202 0
0.039999999 0.00150708 0.023374779 0.25019264 -0.4048202 0
0.039999999 0.003075842 0.023446003 0.25019264 -0.4048202 0
0.039999999 0.004654197 0.02351772 0.25019264 -0.4048202 0
0.039999999 0.0062422417 0.023589935 0.25019264 -0.4048202 0
0.039999999 0.0078400727 0.023662655 0.25019264 -0.4048202 0
0.039999999 0.0094477898 0.023735883 0.25019264 -0.4048202 0
0.039999999 0.011065492 0.023809623 0.25019264 -0.4048202 0
0.039999999 0.012693281 0.023883883 0.25019264 -0.4048202 0
0.039999999 0.01433126 0.023958666 0.25019264 -0.4048202 0
0.039999999 0.015979532 0.024033979 0.25019264 -0.4048202 0
0.039999999 0.017638205 0.024109827 0.25019264 -0.4048202 0
0.039999999 0.019307382 0.024186214 0.25019264 -0.4048202 0
0.039999999 0.022677694 0.024340633 0.25019264 -0.4048202 0
0.039999999 0.024379047 0.024418674 0.25019264 -0.4048202 0
0.013704115 0.079999998 0.027561979 0.25019264 -0.4048202 0
0.039999999 0.027814718 0.024576452 0.25019264 -0.4048202 0
0.039999999 0.029549263 0.024656199 0.25019264 -0.4048202 0
0.039999999 0.03129511 0.024736525 0.25019264 -0.4048202 0
0.039999999 0.03305237 0.024817441 0.25019264 -0.4048202 0
0.039999999 0.036601629 0.024981054 0.25019264 -0.4048202 0
0.039999999 0.038393877 0.025063764 0.25019264 -0.4048202 0
0.039999999 0.040198036 0.025147088 0.25019264 -0.4048202 0
0.039999999 0.042014234 0.02523103 0.25019264 -0.4048202 0
0.039999999 0.043842603 0.025315596 0.25019264 -0.4048202 0
0.023988752 0.079999998 0.027335677 0.25019264 -0.4048202 0
0.039999999 0.047536381 0.025486629 0.25019264 -0.4048202 0
0.039999999 0.049402058 0.025573112 0.25019264 -0.4048202 0
0.026764678 0.079999998 0.027276009 0.25019264 -0.4048202 0
0.039999999 0.053171683 0.025748041 0.25019264 -0.4048202 0
0.039999999 0.05507591 0.025836501 0.25019264 -0.4048202 0
0.029528575 0.079999998 0.027217206 0.25019264 -0.4048202 0
0.039999999 0.058923911 0.026015451 0.25019264 -0.4048202 0
0.039999999 0.06086798 0.026105957 0.25019264 -0.4048202 0
0.039999999 0.062825628 0.02619716 0.25019264 -0.4048202 0
0.033195399 0.079999998 0.027140126 0.25019264 -0.4048202 0
0.039999999 0.066782273 0.026381686 0.25019264 -0.4048202 0
0.03502107 0.079999998 0.027102152 0.25019264 -0.4048202 0
0.039999999 0.070795089 0.026569095 0.25019264 -0.4048202 0
0.039999999 0.072822966 0.026663899 0.25019264 -0.4048202 0
0.039999999 0.074865364 0.026759449 0.25019264 -0.4048202 0
0.039999999 0.076922469 0.026855754 0.25019264 -0.4048202 0
0.039563131 0.079999998 0.027008839 0.25019264 -0.4048202 0
0.00043917613 5.5511151e-17 0.023555119 0.25019264 -0.4048202 0
0.0013162533 0 0.023532342 0.25019264 -0.4048202 0
0 0.0035774834 0.023717428 0.25019264 -0.4048202 0
0.00306534 0 0.023487095 0.25019264 -0.4048202 0
0.0039373678 0 0.023464624 0.25019264 -0.4048202 0
0.0048077307 0 0.023442252 0.25019264 -0.4048202 0
0.0056764376 0 0.023419982 0.25019264 -0.4048202 0
0 0.010871945 0.024026189 0.25019264 -0.4048202 0
0.0074089197 5.5511151e-17 0.02337574 0.25019264 -0.4048202 0
0.0082727131 0 0.023353769 0.25019264 -0.4048202 0
0.0091348859 0 0.023331895 0.25019264 -0.4048202 0
0.0099954475 0 0.023310121 0.25019264 -0.4048202 0
0.010854406 0 0.023288446 0.25019264 -0.4048202 0
0.011711772 0 0.023266865 0.25019264 -0.4048202 0
0.012567552 0 0.023245385 0.25019264 -0.4048202 0
0.013421754 0 0.023224 0.25019264 -0.4048202 0
0 0.024493914 0.024606606 0.25019264 -0.4048202 0
0.015125465 0 0.023181519 0.25019264 -0.4048202 0
0.015974989 0 0.023160422 0.25019264 -0.4048202 0
0 0.029182363 0.024807477 0.25019264 -0.4048202 0
0.017669417 0 0.023118516 0.25019264 -0.4048202 0
0.018514339 0 0.023097705 0.25019264 -0.4048202 0
0.019357743 0 0.023076987 0.25019264 -0.4048202 0
0.020199636 0 0.023056364 0.25019264 -0.4048202 0
0.021040028 0 0.023035835 0.25019264 -0.4048202 0
0.021878928 5.5511151e-17 0.023015399 0.25019264 -0.4048202 0
0.022716343 0 0.022995057 0.25019264 -0.4048202 0
0.02355228 0 0.022974806 0.25019264 -0.4048202 0
0.024386749 0 0.022954646 0.25019264 -0.4048202 0
0.025219755 5.5511151e-17 0.02293458 0.25019264 -0.4048202 0
0.026051309 0 0.022914605 0.25019264 -0.4048202 0
0.026881419 0 0.022894721 0.25019264 -0.4048202 0
0.027710091 0 0.022874929 0.25019264 -0.4048202 0
0.028537333 5.5511151e-17 0.022855226 0.25019264 -0.4048202 0
0.029363154 0 0.022835614 0.25019264 -0.4048202 0
0 0.0555466 0.025946757 0.25019264 -0.4048202 0
0.031010559 5.5511151e-17 0.022796659 0.25019264 -0.4048202 0
0.031832162 5.5511151e-17 0.022777315 0.25019264 -0.4048202 0
0.032652371 5.5511151e-17 0.022758061 0.25019264 -0.4048202 0
0.033471197 5.5511151e-17 0.022738894 0.25019264 -0.4048202 0
0.034288649 0 0.022719817 0.25019264 -0.4048202 0
0.035104733 0 0.022700828 0.25019264 -0.4048202 0
0.035919454 0 0.022681925 0.25019264 -0.4048202 0
0.036732819 0 0.022663111 0.25019264 -0.4048202 0
0 0.071474575 0.026642449 0.25019264 -0.4048202 0
0.038355522 0 0.022625742 0.25019264 -0.4048202 0
0.039164875 0 0.022607187 0.25019264 -0.4048202 0
0.039972901 0 0.022588719 0.25019264 -0.4048202 0
0.039999999 0.00150708 0.022654362 0.25019264 -0.4048202 0
0.039999999 0.003075842 0.02272339 0.25019264 -0.4048202 0
0.039999999 0.004654197 0.022792896 0.25019264 -0.4048202 0
0.0022847147 0.079999998 0.02696522 0.25019264 -0.4048202 0
0.039999999 0.0078400727 0.022933364 0.25019264 -0.4048202 0
0.039999999 0.0094477898 0.023004334 0.25019264 -0.4048202 0
0.0051598363 0.079999998 0.026900697 0.25019264 -0.4048202 0
0.039999999 0.012693281 0.023147775 0.25019264 -0.4048202 0
0.0070689796 0.079999998 0.026858186 0.25019264 -0.4048202 0
0.039999999 0.015979532 0.023293246 0.25019264 -0.4048202 0
0.039999999 0.017638205 0.023366755 0.25019264 -0.4048202 0
0.039999999 0.019307382 0.023440788 0.25019264 -0.4048202 0
0.039999999 0.020987175 0.023515351 0.25019264 -0.4048202 0
0.039999999 0.022677694 0.023590447 0.25019264 -0.4048202 0
0.039999999 0.024379047 0.023666084 0.25019264 -0.4048202 0
0.039999999 0.02609135 0.023742264 0.25019264 -0.4048202 0
0.039999999 0.027814718 0.023818998 0.25019264 -0.4048202 0
0.039999999 0.029549263 0.023896286 0.25019264 -0.4048202 0
0.039999999 0.03129511 0.023974139 0.25019264 -0.4048202 0
0.039999999 0.03305237 0.02405256 0.25019264 -0.4048202 0
0.039999999 0.034821171 0.024131555 0.25019264 -0.4048202 0
0.039999999 0.036601629 0.024211129 0.25019264 -0.4048202 0
0.039999999 0.038393877 0.024291292 0.25019264 -0.4048202 0
0.039999999 0.040198036 0.024372047 0.25019264 -0.4048202 0
0.039999999 0.042014234 0.024453402 0.25019264 -0.4048202 0
0.023060735 0.079999998 0.026512647 0.25019264 -0.4048202 0
0.039999999 0.045683276 0.024617933 0.25019264 -0.4048202 0
0.039999999 0.047536381 0.024701124 0.25019264 -0.4048202 0
0.039999999 0.049402058 0.024784941 0.25019264 -0.4048202 0
0.039999999 0.051280446 0.02486939 0.25019264 -0.4048202 0
0.039999999 0.053171683 0.024954477 0.25019264 -0.4048202 0
0.039999999 0.05507591 0.025040211 0.25019264 -0.4048202 0
0.039999999 0.056993268 0.025126599 0.25019264 -0.4048202 0
0.039999999 0.058923911 0.025213648 0.25019264 -0.4048202 0
0.039999999 0.06086798 0.025301363 0.25019264 -0.4048202 0
0.039999999 0.062825628 0.025389755 0.25019264 -0.4048202 0
0.039999999 0.064797007 0.025478829 0.25019264 -0.4048202 0
0.039999999 0.066782273 0.025568593 0.25019264 -0.4048202 0
0.039999999 0.068781577 0.025659056 0.25019264 -0.4048202 0
0.039999999 0.072822966 0.02584211 0.25019264 -0.4048202 0
0.039999999 0.074865364 0.025934715 0.25019264 -0.4048202 0
0.039999999 0.076922469 0.026028052 0.25019264 -0.4048202 0
0.039563131 0.079999998 0.026176419 0.25019264 -0.4048202 0
0.00043917613 5.5511151e-17 0.022806171 0.25019264 -0.4048202 0
0.0013162533 0 0.022784119 0.25019264 -0.4048202 0
0.0021916383 0 0.022762166 0.25019264 -0.4048202 0
0.00306534 5.5511151e-17 0.022740312 0.25019264 -0.4048202 0
0.0039373678 5.5511151e-17 0.022718554 0.25019264 -0.4048202 0
0.0048077307 0 0.022696896 0.25019264 -0.4048202 0
0.0056764376 0 0.022675334 0.25019264 -0.4048202 0
0.0065434976 5.5511151e-17 0.022653867 0.25019264 -0.4048202 0
0.0074089197 5.5511151e-17 0.022632498 0.25019264 -0.4048202 0
0.0082727131 0 0.022611225 0.25019264 -0.4048202 0
0.0091348859 0 0.022590047 0.25019264 -0.4048202 0
0.0099954475 5.5511151e-17 0.022568965 0.25019264 -0.4048202 0
0.010854406 0 0.022547977 0.25019264 -0.4048202 0
0.011711772 0 0.022527086 0.25019264 -0.4048202 0
0 0.021410193 0.023696603 0.25019264 -0.4048202 0
0.013421754 0 0.022485582 0.25019264 -0.4048202 0
0.014274389 5.5511151e-17 0.02246497 0.25019264 -0.4048202 0
0.015125465 5.5511151e-17 0.022444451 0.25019264 -0.4048202 0
0 0.027611064 0.023953473 0.25019264 -0.4048202 0
0.016822971 0 0.022403693 0.25019264 -0.4048202 0
0.017669417 0 0.022383451 0.25019264 -0.4048202 0
0.018514339 0 0.022363301 0.25019264 -0.4048202 0
0.019357743 0 0.022343244 0.25019264 -0.4048202 0
0.020199636 0 0.022323277 0.25019264 -0.4048202 0
0.021040028 0 0.022303401 0.25019264 -0.4048202 0
0.021878928 0 0.022283614 0.25019264 -0.4048202 0
0.022716343 5.5511151e-17 0.022263918 0.25019264 -0.4048202 0
0.02355228 5.5511151e-17 0.02224431 0.25019264 -0.4048202 0
0 0.043720067 0.024625042 0.25019264 -0.4048202 0
0 0.045380879 0.024694616 0.25019264 -0.4048202 0
0.026051309 0 0.022186024 0.25019264 -0.4048202 0
0.026881419 0 0.022166774 0.25019264 -0.4048202 0
0.027710091 0 0.022147609 0.25019264 -0.4048202 0
0 0.052119162 0.024977503 0.25019264 -0.4048202 0
0.029363154 0 0.022109546 0.25019264 -0.4048202 0
0.03018756 5.5511151e-17 0.022090644 0.25019264 -0.4048202 0
0.031010559 5.5511151e-17 0.022071829 0.25019264 -0.4048202 0
0.031832162 0 0.0220531 0.25019264 -0.4048202 0
0.032652371 0 0.022034459 0.25019264 -0.4048202 0
0.033471197 5.5511151e-17 0.022015901 0.25019264 -0.4048202 0
0 0.064291254 0.025490938 0.25019264 -0.4048202 0
0.035104733 0 0.021979045 0.25019264 -0.4048202 0
0.035919454 0 0.021960743 0.25019264 -0.4048202 0
0 0.069662705 0.025718464 0.25019264 -0.4048202 0
0.037544843 0 0.021924395 0.25019264 -0.4048202 0
0.038355522 0 0.021906346 0.25019264 -0.4048202 0
0.039164875 0 0.021888381 0.25019264 -0.4048202 0
0.039972901 0 0.021870499 0.25019264 -0.4048202 0
0.039999999 0.00150708 0.021934055 0.25019264 -0.4048202 0
0.039999999 0.003075842 0.022000888 0.25019264 -0.4048202 0
0.0013232655 0.079999998 0.026128868 0.25019264 -0.4048202 0
0.039999999 0.0062422417 0.022135951 0.25019264 -0.4048202 0
0.039999999 0.0078400727 0.022204187 0.25019264 -0.4048202 0
0.039999999 0.0094477898 0.022272902 0.25019264 -0.4048202 0
0.039999999 0.011065492 0.022342097 0.25019264 -0.4048202 0
0.039999999 0.012693281 0.02241178 0.25019264 -0.4048202 0
0.039999999 0.01433126 0.022481954 0.25019264 -0.4048202 0
0.039999999 0.015979532 0.022552626 0.25019264 -0.4048202 0
0.039999999 0.017638205 0.022623798 0.25019264 -0.4048202 0
0.039999999 0.020987175 0.022767669 0.25019264 -0.4048202 0
0.039999999 0.022677694 0.022840379 0.25019264 -0.4048202 0
0.012760636 0.079999998 0.025883038 0.25019264 -0.4048202 0
0.039999999 0.02609135 0.022987369 0.25019264 -0.4048202 0
0.039999999 0.029549263 0.023136493 0.25019264 -0.4048202 0
0.039999999 0.03129511 0.02321187 0.25019264 -0.4048202 0
0.039999999 0.03305237 0.023287797 0.25019264 -0.4048202 0
0.039999999 0.034821171 0.023364281 0.25019264 -0.4048202 0
0.039999999 0.036601629 0.023441326 0.25019264 -0.4048202 0
0.020268451 0.079999998 0.025726747 0.25019264 -0.4048202 0
0.039999999 0.040198036 0.023597127 0.25019264 -0.4048202 0
