# .PCD v0.7 - Point Cloud Data file format
VERSION 0.7
FIELDS x y z vp_x vp_y vp_z
SIZE 4 4 4 4 4 4
TYPE F F F F F F
COUNT 1 1 1 1 1 1
WIDTH 885
HEIGHT 1
VIEWPOINT 0 0 0 1 0 0 0
POINTS 885
DATA ascii
0.03175417 0 0.012380591 0 -0.25019264 -0.4048202
0.032521654 0 0.012381904 0 -0.25019264 -0.4048202
0.03328931 0 0.012383249 0 -0.25019264 -0.4048202
0.034057133 0 0.012384625 0 -0.25019264 -0.4048202
0.034825131 0 0.012386033 0 -0.25019264 -0.4048202
0.035593309 0 0.012387472 0 -0.25019264 -0.4048202
0.036361668 0 0.012388944 0 -0.25019264 -0.4048202
0.037130214 0 0.012390447 0 -0.25019264 -0.4048202
0.03789895 0 0.012391981 0 -0.25019264 -0.4048202
0.03866788 0 0.012393547 0 -0.25019264 -0.4048202
0.039437007 0 0.012395144 0 -0.25019264 -0.4048202
0.00038103043 0 0.010871949 0 -0.25019264 -0.4048202
0.0011430932 0 0.010871976 0 -0.25019264 -0.4048202
0.0019051618 0 0.010872031 0 -0.25019264 -0.4048202
0.0026672401 0 0.010872113 0 -0.25019264 -0.4048202
0.0034293318 0 0.010872222 0 -0.25019264 -0.4048202
0.004191441 0 0.010872358 0 -0.25019264 -0.4048202
0.0049535716 0 0.010872523 0 -0.25019264 -0.4048202
0.0057157273 0 0.010872714 0 -0.25019264 -0.4048202
0.006477912 0 0.010872933 0 -0.25019264 -0.4048202
0.0072401296 0 0.010873179 0 -0.25019264 -0.4048202
0.0080023846 0 0.010873453 0 -0.25019264 -0.4048202
0.0087646795 0 0.010873754 0 -0.25019264 -0.4048202
0.0095270183 0 0.010874082 0 -0.25019264 -0.4048202
0.010289406 0 0.010874438 0 -0.25019264 -0.4048202
0.011051847 0 0.010874821 0 -0.25019264 -0.4048202
0.011814344 0 0.010875231 0 -0.25019264 -0.4048202
0.012576899 0 0.010875669 0 -0.25019264 -0.4048202
0.01333952 0 0.010876134 0 -0.25019264 -0.4048202
0.014102208 0 0.010876627 0 -0.25019264 -0.4048202
0.014864968 0 0.010877146 0 -0.25019264 -0.4048202
0.015627803 0 0.010877694 0 -0.25019264 -0.4048202
0.016390719 0 0.010878269 0 -0.25019264 -0.4048202
0.017153718 0 0.010878871 0 -0.25019264 -0.4048202
0.017916802 0 0.010879501 0 -0.25019264 -0.4048202
0.018679978 0 0.010880158 0 -0.25019264 -0.4048202
0.019443251 0 0.010880843 0 -0.25019264 -0.4048202
0.020206621 0 0.010881554 0 -0.25019264 -0.4048202
0.020970095 0 0.010882294 0 -0.25019264 -0.4048202
0.021733675 0 0.010883061 0 -0.25019264 -0.4048202
0.022497365 0 0.010883856 0 -0.25019264 -0.4048202
0.023261171 0 0.010884677 0 -0.25019264 -0.4048202
0.024025094 0 0.010885526 0 -0.25019264 -0.4048202
0.02478914 0 0.010886404 0 -0.25019264 -0.4048202
0.025553312 0 0.010887308 0 -0.25019264 -0.4048202
0.026317613 0 0.01088824 0 -0.25019264 -0.4048202
0.02708205 0 0.0108892 0 -0.25019264 -0.4048202
0.027846625 0 0.010890187 0 -0.25019264 -0.4048202
0.02861134 0 0.010891202 0 -0.25019264 -0.4048202
0.029376203 0 0.010892244 0 -0.25019264 -0.4048202
0.030141214 0 0.010893314 0 -0.25019264 -0.4048202
0.030906379 0 0.010894412 0 -0.25019264 -0.4048202
0.031671703 0 0.010895537 0 -0.25019264 -0.4048202
0.032437187 0 0.01089669 0 -0.25019264 -0.4048202
0.033202838 0 0.01089787 0 -0.25019264 -0.4048202
0.033968657 0 0.010899078 0 -0.25019264 -0.4048202
0.034734651 0 0.010900314 0 -0.25019264 -0.4048202
0.035500821 0 0.010901578 0 -0.25019264 -0.4048202
0.036267173 0 0.01090287 0 -0.25019264 -0.4048202
0.037033707 0 0.010904188 0 -0.25019264 -0.4048202
0.037800435 0 0.010905535 0 -0.25019264 -0.4048202
0.038567353 0 0.01090691 0 -0.25019264 -0.4048202
0.039334469 0 0.010908312 0 -0.25019264 -0.4048202
0.00038004562 0 0.0093978941 0 -0.25019264 -0.4048202
0.0011401387 0 0.0093979174 0 -0.25019264 -0.4048202
0.0019002376 0 0.0093979649 0 -0.25019264 -0.4048202
0.0026603462 0 0.0093980357 0 -0.25019264 -0.4048202
0.0034204682 0 0.0093981298 0 -0.25019264 -0.4048202
0.0041806074 0 0.009398248 0 -0.25019264 -0.4048202
0.0049407678 0 0.0093983896 0 -0.25019264 -0.4048202
0.0057009533 0 0.0093985545 0 -0.25019264 -0.4048202
0.0064611677 0 0.0093987426 0 -0.25019264 -0.4048202
0.0072214147 0 0.0093989549 0 -0.25019264 -0.4048202
0.007981698 0 0.0093991915 0 -0.25019264 -0.4048202
0.0087420223 0 0.0093994504 0 -0.25019264 -0.4048202
0.0095023904 0 0.0093997335 0 -0.25019264 -0.4048202
0.010262807 0 0.0094000399 0 -0.25019264 -0.4048202
0.011023275 0 0.0094003705 0 -0.25019264 -0.4048202
0.011783799 0 0.0094007244 0 -0.25019264 -0.4048202
0.012544382 0 0.0094011016 0 -0.25019264 -0.4048202
0.01330503 0 0.009401503 0 -0.25019264 -0.4048202
0.014065744 0 0.0094019277 0 -0.25019264 -0.4048202
0.01482653 0 0.0094023757 0 -0.25019264 -0.4048202
0.01558739 0 0.0094028478 0 -0.25019264 -0.4048202
0.01634833 0 0.0094033433 0 -0.25019264 -0.4048202
0.017109353 0 0.009403863 0 -0.25019264 -0.4048202
0.017870462 0 0.009404405 0 -0.25019264 -0.4048202
0.018631661 0 0.0094049722 0 -0.25019264 -0.4048202
0.019392956 0 0.0094055627 0 -0.25019264 -0.4048202
0.02015435 0 0.0094061764 0 -0.25019264 -0.4048202
0.020915844 0 0.0094068134 0 -0.25019264 -0.4048202
0.021677444 0 0.0094074747 0 -0.25019264 -0.4048202
0.022439154 0 0.0094081601 0 -0.25019264 -0.4048202
0.023200979 0 0.0094088688 0 -0.25019264 -0.4048202
0.023962921 0 0.0094096009 0 -0.25019264 -0.4048202
0.024724985 0 0.0094103571 0 -0.25019264 -0.4048202
0.025487173 0 0.0094111366 0 -0.25019264 -0.4048202
0.026249491 0 0.0094119404 0 -0.25019264 -0.4048202
0.027011942 0 0.0094127683 0 -0.25019264 -0.4048202
0.027774531 0 0.0094136186 0 -0.25019264 -0.4048202
0.02853726 0 0.009414494 0 -0.25019264 -0.4048202
0.029300135 0 0.0094153928 0 -0.25019264 -0.4048202
0.030063158 0 0.0094163148 0 -0.25019264 -0.4048202
0.030826334 0 0.009417261 0 -0.25019264 -0.4048202
0.031589668 0 0.0094182314 0 -0.25019264 -0.4048202
0.032353159 0 0.0094192252 0 -0.25019264 -0.4048202
0.033116817 0 0.0094202431 0 -0.25019264 -0.4048202
0.033880644 0 0.0094212852 0 -0.25019264 -0.4048202
0.034644641 0 0.0094223507 0 -0.25019264 -0.4048202
0.035408814 0 0.0094234394 0 -0.25019264 -0.4048202
0.036173169 0 0.0094245533 0 -0.25019264 -0.4048202
0.036937706 0 0.0094256904 0 -0.25019264 -0.4048202
0.037702434 0 0.0094268518 0 -0.25019264 -0.4048202
0.038467351 0 0.0094280364 0 -0.25019264 -0.4048202
0.039232466 0 0.0094292453 0 -0.25019264 -0.4048202
0.039997779 0 0.0094304783 0 -0.25019264 -0.4048202
0.0003790659 0 0.0079314867 0 -0.25019264 -0.4048202
0.0011371996 0 0.0079315063 0 -0.25019264 -0.4048202
0.0018953391 0 0.0079315463 0 -0.25019264 -0.4048202
0.0026534882 0 0.0079316059 0 -0.25019264 -0.4048202
0.0034116504 0 0.0079316851 0 -0.25019264 -0.4048202
0.0041698301 0 0.0079317847 0 -0.25019264 -0.4048202
0.0049280305 0 0.007931903 0 -0.25019264 -0.4048202
0.0056862561 0 0.0079320427 0 -0.25019264 -0.4048202
0.0064445101 0 0.007932201 0 -0.25019264 -0.4048202
0.0072027966 0 0.0079323798 0 -0.25019264 -0.4048202
0.0079611195 0 0.0079325782 0 -0.25019264 -0.4048202
0.0087194825 0 0.0079327971 0 -0.25019264 -0.4048202
0.0094778892 0 0.0079330346 0 -0.25019264 -0.4048202
0.010236344 0 0.0079332935 0 -0.25019264 -0.4048202
0.010994851 0 0.007933571 0 -0.25019264 -0.4048202
0.011753413 0 0.007933869 0 -0.25019264 -0.4048202
0.012512034 0 0.0079341866 0 -0.25019264 -0.4048202
0.013270718 0 0.0079345247 0 -0.25019264 -0.4048202
0.014029469 0 0.0079348814 0 -0.25019264 -0.4048202
0.01478829 0 0.0079352595 0 -0.25019264 -0.4048202
0.015547187 0 0.0079356562 0 -0.25019264 -0.4048202
0.016306162 0 0.0079360735 0 -0.25019264 -0.4048202
0.01706522 0 0.0079365112 0 -0.25019264 -0.4048202
0.017824363 0 0.0079369675 0 -0.25019264 -0.4048202
0.018583596 0 0.0079374444 0 -0.25019264 -0.4048202
0.019342924 0 0.0079379417 0 -0.25019264 -0.4048202
0.020102348 0 0.0079384586 0 -0.25019264 -0.4048202
0.020861873 0 0.007938995 0 -0.25019264 -0.4048202
0.021621505 0 0.007939552 0 -0.25019264 -0.4048202
0.022381246 0 0.0079401284 0 -0.25019264 -0.4048202
0.023141099 0 0.0079407245 0 -0.25019264 -0.4048202
0.023901071 0 0.007941341 0 -0.25019264 -0.4048202
0.024661163 0 0.0079419781 0 -0.25019264 -0.4048202
0.025421377 0 0.0079426346 0 -0.25019264 -0.4048202
0.026181722 0 0.0079433108 0 -0.25019264 -0.4048202
0.026942199 0 0.0079440074 0 -0.25019264 -0.4048202
0.027702812 0 0.0079447236 0 -0.25019264 -0.4048202
0.028463567 0 0.0079454603 0 -0.25019264 -0.4048202
0.029224463 0 0.0079462165 0 -0.25019264 -0.4048202
0.029985508 0 0.0079469932 0 -0.25019264 -0.4048202
0.030746704 0 0.0079477895 0 -0.25019264 -0.4048202
0.031508058 0 0.0079486063 0 -0.25019264 -0.4048202
0.032269567 0 0.0079494426 0 -0.25019264 -0.4048202
0.033031244 0 0.0079502994 0 -0.25019264 -0.4048202
0.033793084 0 0.0079511767 0 -0.25019264 -0.4048202
0.0345551 0 0.0079520736 0 -0.25019264 -0.4048202
0.035317287 0 0.0079529909 0 -0.25019264 -0.4048202
0.036079656 0 0.0079539279 0 -0.25019264 -0.4048202
0.036842205 0 0.0079548853 0 -0.25019264 -0.4048202
0.037604943 0 0.0079558622 0 -0.25019264 -0.4048202
0.038367871 0 0.0079568597 0 -0.25019264 -0.4048202
0.039130993 0 0.0079578776 0 -0.25019264 -0.4048202
0.039894316 0 0.007958916 0 -0.25019264 -0.4048202
0.00037809127 0 0.0064726598 0 -0.25019264 -0.4048202
0.0011342757 0 0.0064726756 0 -0.25019264 -0.4048202
0.0018904659 0 0.0064727082 0 -0.25019264 -0.4048202
0.0026466653 0 0.0064727566 0 -0.25019264 -0.4048202
0.0034028783 0 0.0064728213 0 -0.25019264 -0.4048202
0.0041591083 0 0.0064729019 0 -0.25019264 -0.4048202
0.004915359 0 0.0064729988 0 -0.25019264 -0.4048202
0.0056716348 0 0.0064731119 0 -0.25019264 -0.4048202
0.0064279386 0 0.0064732414 0 -0.25019264 -0.4048202
0.007184275 0 0.0064733867 0 -0.25019264 -0.4048202
0.0079406472 0 0.0064735482 0 -0.25019264 -0.4048202
0.0086970599 0 0.0064737261 0 -0.25019264 -0.4048202
0.0094535155 0 0.0064739198 0 -0.25019264 -0.4048202
0.010210019 0 0.0064741299 0 -0.25019264 -0.4048202
0.010966574 0 0.0064743562 0 -0.25019264 -0.4048202
0.011723183 0 0.0064745988 0 -0.25019264 -0.4048202
0.012479852 0 0.0064748572 0 -0.25019264 -0.4048202
0.013236583 0 0.006475132 0 -0.25019264 -0.4048202
0.013993382 0 0.006475423 0 -0.25019264 -0.4048202
0.01475025 0 0.0064757303 0 -0.25019264 -0.4048202
0.015507192 0 0.0064760535 0 -0.25019264 -0.4048202
0.016264211 0 0.0064763934 0 -0.25019264 -0.4048202
0.017021313 0 0.0064767492 0 -0.25019264 -0.4048202
0.017778501 0 0.0064771213 0 -0.25019264 -0.4048202
0.018535778 0 0.0064775092 0 -0.25019264 -0.4048202
0.019293148 0 0.0064779138 0 -0.25019264 -0.4048202
0.020050615 0 0.0064783343 0 -0.25019264 -0.4048202
0.020808185 0 0.0064787711 0 -0.25019264 -0.4048202
0.021565856 0 0.0064792242 0 -0.25019264 -0.4048202
0.022323638 0 0.0064796936 0 -0.25019264 -0.4048202
0.023081532 0 0.0064801793 0 -0.25019264 -0.4048202
0.023839541 0 0.0064806808 0 -0.25019264 -0.4048202
0.024597671 0 0.0064811991 0 -0.25019264 -0.4048202
0.025355924 0 0.0064817336 0 -0.25019264 -0.4048202
0.026114305 0 0.0064822841 0 -0.25019264 -0.4048202
0.026872817 0 0.0064828508 0 -0.25019264 -0.4048202
0.027631465 0 0.0064834342 0 -0.25019264 -0.4048202
0.028390253 0 0.0064840335 0 -0.25019264 -0.4048202
0.029149182 0 0.0064846491 0 -0.25019264 -0.4048202
0.02990826 0 0.0064852815 0 -0.25019264 -0.4048202
0.030667488 0 0.0064859297 0 -0.25019264 -0.4048202
0.031426869 0 0.0064865942 0 -0.25019264 -0.4048202
0.032186411 0 0.0064872755 0 -0.25019264 -0.4048202
0.032946113 0 0.006487973 0 -0.25019264 -0.4048202
0.033705983 0 0.0064886864 0 -0.25019264 -0.4048202
0.034466021 0 0.0064894166 0 -0.25019264 -0.4048202
0.035226237 0 0.006490163 0 -0.25019264 -0.4048202
0.035986628 0 0.0064909258 0 -0.25019264 -0.4048202
0.036747199 0 0.0064917048 0 -0.25019264 -0.4048202
0.037507959 0 0.0064925007 0 -0.25019264 -0.4048202
0.038268905 0 0.0064933128 0 -0.25019264 -0.4048202
0.039030049 0 0.0064941412 0 -0.25019264 -0.4048202
0.039791387 0 0.0064949859 0 -0.25019264 -0.4048202
0.00037712164 0 0.0050213472 0 -0.25019264 -0.4048202
0.0011313668 0 0.0050213598 0 -0.25019264 -0.4048202
0.0018856176 0 0.0050213849 0 -0.25019264 -0.4048202
0.0026398778 0 0.0050214222 0 -0.25019264 -0.4048202
0.0033941513 0 0.0050214725 0 -0.25019264 -0.4048202
0.0041484418 0 0.0050215349 0 -0.25019264 -0.4048202
0.004902753 0 0.0050216098 0 -0.25019264 -0.4048202
0.0056570889 0 0.0050216974 0 -0.25019264 -0.4048202
0.0064114528 0 0.0050217975 0 -0.25019264 -0.4048202
0.0071658487 0 0.0050219097 0 -0.25019264 -0.4048202
0.007920281 0 0.005022035 0 -0.25019264 -0.4048202
0.008674752 0 0.0050221724 0 -0.25019264 -0.4048202
0.0094292676 0 0.0050223223 0 -0.25019264 -0.4048202
0.01018383 0 0.0050224848 0 -0.25019264 -0.4048202
0.010938442 0 0.0050226599 0 -0.25019264 -0.4048202
0.011693111 0 0.0050228476 0 -0.25019264 -0.4048202
0.012447837 0 0.0050230478 0 -0.25019264 -0.4048202
0.013202625 0 0.0050232606 0 -0.25019264 -0.4048202
0.01395748 0 0.0050234855 0 -0.25019264 -0.4048202
0.014712404 0 0.0050237235 0 -0.25019264 -0.4048202
0.015467403 0 0.0050239735 0 -0.25019264 -0.4048202
0.016222479 0 0.0050242362 0 -0.25019264 -0.4048202
0.016977636 0 0.0050245118 0 -0.25019264 -0.4048202
0.017732877 0 0.0050247996 0 -0.25019264 -0.4048202
0.018488208 0 0.0050251 0 -0.25019264 -0.4048202
0.019243632 0 0.0050254129 0 -0.25019264 -0.4048202
0.01999915 0 0.0050257384 0 -0.25019264 -0.4048202
0.020754771 0 0.0050260765 0 -0.25019264 -0.4048202
0.021510495 0 0.0050264271 0 -0.25019264 -0.4048202
0.022266326 0 0.0050267898 0 -0.25019264 -0.4048202
0.02302227 0 0.0050271656 0 -0.25019264 -0.4048202
0.023778329 0 0.005027554 0 -0.25019264 -0.4048202
0.024534507 0 0.0050279549 0 -0.25019264 -0.4048202
0.025290808 0 0.0050283684 0 -0.25019264 -0.4048202
0.026047235 0 0.0050287945 0 -0.25019264 -0.4048202
0.026803793 0 0.0050292332 0 -0.25019264 -0.4048202
0.027560486 0 0.0050296844 0 -0.25019264 -0.4048202
0.028317317 0 0.0050301482 0 -0.25019264 -0.4048202
0.029074291 0 0.0050306246 0 -0.25019264 -0.4048202
0.029831409 0 0.005031114 0 -0.25019264 -0.4048202
0.030588679 0 0.0050316155 0 -0.25019264 -0.4048202
0.031346101 0 0.0050321296 0 -0.25019264 -0.4048202
0.032103684 0 0.0050326567 0 -0.25019264 -0.4048202
0.032861423 0 0.0050331964 0 -0.25019264 -0.4048202
0.033619329 0 0.0050337487 0 -0.25019264 -0.4048202
0.034377407 0 0.0050343135 0 -0.25019264 -0.4048202
0.035135653 0 0.005034891 0 -0.25019264 -0.4048202
0.035894077 0 0.0050354814 0 -0.25019264 -0.4048202
0.036652684 0 0.0050360844 0 -0.25019264 -0.4048202
0.037411474 0 0.0050367001 0 -0.25019264 -0.4048202
0.038170453 0 0.0050373282 0 -0.25019264 -0.4048202
0.038929623 0 0.0050379694 0 -0.25019264 -0.4048202
0.03968899 0 0.0050386228 0 -0.25019264 -0.4048202
0.000376157 0 0.0035774845 0 -0.25019264 -0.4048202
0.0011284729 0 0.0035774934 0 -0.25019264 -0.4048202
0.0018807944 0 0.0035775113 0 -0.25019264 -0.4048202
0.0026331253 0 0.0035775378 0 -0.25019264 -0.4048202
0.0033854693 0 0.0035775735 0 -0.25019264 -0.4048202
0.0041378299 0 0.0035776177 0 -0.25019264 -0.4048202
0.0048902114 0 0.003577671 0 -0.25019264 -0.4048202
0.0056426176 0 0.0035777332 0 -0.25019264 -0.4048202
0.0063950513 0 0.0035778044 0 -0.25019264 -0.4048202
0.0071475171 0 0.0035778843 0 -0.25019264 -0.4048202
0.0079000182 0 0.0035779732 0 -0.25019264 -0.4048202
0.0086525595 0 0.003578071 0 -0.25019264 -0.4048202
0.0094051436 0 0.0035781777 0 -0.25019264 -0.4048202
0.010157774 0 0.0035782931 0 -0.25019264 -0.4048202
0.010910455 0 0.0035784175 0 -0.25019264 -0.4048202
0.011663191 0 0.0035785509 0 -0.25019264 -0.4048202
0.012415986 0 0.0035786931 0 -0.25019264 -0.4048202
0.013168842 0 0.0035788442 0 -0.25019264 -0.4048202
0.013921763 0 0.0035790042 0 -0.25019264 -0.4048202
0.014674754 0 0.003579173 0 -0.25019264 -0.4048202
0.015427818 0 0.0035793509 0 -0.25019264 -0.4048202
0.016180959 0 0.0035795376 0 -0.25019264 -0.4048202
0.016934181 0 0.0035797332 0 -0.25019264 -0.4048202
0.017687486 0 0.0035799379 0 -0.25019264 -0.4048202
0.018440882 0 0.0035801514 0 -0.25019264 -0.4048202
0.019194368 0 0.0035803737 0 -0.25019264 -0.4048202
0.01994795 0 0.0035806049 0 -0.25019264 -0.4048202
0.020701632 0 0.0035808452 0 -0.25019264 -0.4048202
0.021455416 0 0.0035810943 0 -0.25019264 -0.4048202
0.022209309 0 0.0035813523 0 -0.25019264 -0.4048202
0.022963313 0 0.0035816194 0 -0.25019264 -0.4048202
0.023717431 0 0.0035818953 0 -0.25019264 -0.4048202
0.024471667 0 0.0035821802 0 -0.25019264 -0.4048202
0.025226025 0 0.0035824741 0 -0.25019264 -0.4048202
0.02598051 0 0.0035827768 0 -0.25019264 -0.4048202
0.026735125 0 0.0035830885 0 -0.25019264 -0.4048202
0.027489873 0 0.0035834091 0 -0.25019264 -0.4048202
0.028244758 0 0.0035837388 0 -0.25019264 -0.4048202
0.028999785 0 0.0035840773 0 -0.25019264 -0.4048202
0.029754955 0 0.003584425 0 -0.25019264 -0.4048202
0.030510277 0 0.0035847814 0 -0.25019264 -0.4048202
0.031265751 0 0.003585147 0 -0.25019264 -0.4048202
0.032021381 0 0.0035855214 0 -0.25019264 -0.4048202
0.032777168 0 0.0035859048 0 -0.25019264 -0.4048202
0.033533122 0 0.0035862974 0 -0.25019264 -0.4048202
0.034289245 0 0.0035866988 0 -0.25019264 -0.4048202
0.035045538 0 0.0035871093 0 -0.25019264 -0.4048202
0.035802007 0 0.0035875286 0 -0.25019264 -0.4048202
0.036558654 0 0.003587957 0 -0.25019264 -0.4048202
0.037315488 0 0.0035883945 0 -0.25019264 -0.4048202
0.038072504 0 0.0035888411 0 -0.25019264 -0.4048202
0.038829714 0 0.0035892965 0 -0.25019264 -0.4048202
0.039587121 0 0.0035897612 0 -0.25019264 -0.4048202
0.0003751973 0 0.0021410072 0 -0.25019264 -0.4048202
0.0011255938 0 0.0021410126 0 -0.25019264 -0.4048202
0.0018759958 0 0.0021410231 0 -0.25019264 -0.4048202
0.0026264072 0 0.0021410391 0 -0.25019264 -0.4048202
0.0033768315 0 0.0021410603 0 -0.25019264 -0.4048202
0.0041272724 0 0.0021410869 0 -0.25019264 -0.4048202
0.004877734 0 0.0021411185 0 -0.25019264 -0.4048202
0.0056282203 0 0.0021411558 0 -0.25019264 -0.4048202
0.006378734 0 0.0021411981 0 -0.25019264 -0.4048202
0.0071292794 0 0.0021412459 0 -0.25019264 -0.4048202
0.0078798598 0 0.002141299 0 -0.25019264 -0.4048202
0.0086304797 0 0.0021413572 0 -0.25019264 -0.4048202
0.0093811424 0 0.002141421 0 -0.25019264 -0.4048202
0.010131852 0 0.0021414899 0 -0.25019264 -0.4048202
0.010882612 0 0.0021415642 0 -0.25019264 -0.4048202
0.011633426 0 0.0021416438 0 -0.25019264 -0.4048202
0.012384297 0 0.0021417285 0 -0.25019264 -0.4048202
0.01313523 0 0.0021418189 0 -0.25019264 -0.4048202
0.013886228 0 0.0021419143 0 -0.25019264 -0.4048202
0.014637295 0 0.0021420151 0 -0.25019264 -0.4048202
0.015388436 0 0.0021421213 0 -0.25019264 -0.4048202
0.016139653 0 0.0021422328 0 -0.25019264 -0.4048202
0.016890949 0 0.0021423495 0 -0.25019264 -0.4048202
0.017642329 0 0.0021424717 0 -0.25019264 -0.4048202
0.018393798 0 0.0021425991 0 -0.25019264 -0.4048202
0.019145356 0 0.0021427318 0 -0.25019264 -0.4048202
0.019897012 0 0.0021428699 0 -0.25019264 -0.4048202
0.020648764 0 0.0021430133 0 -0.25019264 -0.4048202
0.021400621 0 0.0021431621 0 -0.25019264 -0.4048202
0.022152584 0 0.002143316 0 -0.25019264 -0.4048202
0.022904657 0 0.0021434755 0 -0.25019264 -0.4048202
0.023656845 0 0.0021436401 0 -0.25019264 -0.4048202
0.024409149 0 0.0021438103 0 -0.25019264 -0.4048202
0.025161576 0 0.0021439856 0 -0.25019264 -0.4048202
0.025914127 0 0.0021441663 0 -0.25019264 -0.4048202
0.026666807 0 0.0021443525 0 -0.25019264 -0.4048202
0.027419619 0 0.0021445439 0 -0.25019264 -0.4048202
0.028172569 0 0.0021447407 0 -0.25019264 -0.4048202
0.028925659 0 0.0021449428 0 -0.25019264 -0.4048202
0.029678894 0 0.0021451502 0 -0.25019264 -0.4048202
0.030432276 0 0.002145363 0 -0.25019264 -0.4048202
0.03118581 0 0.0021455812 0 -0.25019264 -0.4048202
0.031939499 0 0.0021458047 0 -0.25019264 -0.4048202
0.032693345 0 0.0021460336 0 -0.25019264 -0.4048202
0.033447359 0 0.0021462678 0 -0.25019264 -0.4048202
0.034201536 0 0.0021465076 0 -0.25019264 -0.4048202
0.034955885 0 0.0021467526 0 -0.25019264 -0.4048202
0.035710409 0 0.0021470028 0 -0.25019264 -0.4048202
0.036465108 0 0.0021472587 0 -0.25019264 -0.4048202
0.037219994 0 0.0021475197 0 -0.25019264 -0.4048202
0.037975062 0 0.0021477863 0 -0.25019264 -0.4048202
0.03873032 0 0.0021480583 0 -0.25019264 -0.4048202
0.039485775 0 0.0021483356 0 -0.25019264 -0.4048202
0.00037424246 0 0.00071185175 0 -0.25019264 -0.4048202
0.0011227293 0 0.0007118535 0 -0.25019264 -0.4048202
0.0018712216 0 0.00071185699 0 -0.25019264 -0.4048202
0.0026197231 0 0.00071186229 0 -0.25019264 -0.4048202
0.0033682378 0 0.00071186933 0 -0.25019264 -0.4048202
0.0041167689 0 0.00071187812 0 -0.25019264 -0.4048202
0.0048653204 0 0.00071188866 0 -0.25019264 -0.4048202
0.0056138961 0 0.000711901 0 -0.25019264 -0.4048202
0.0063624997 0 0.00071191503 0 -0.25019264 -0.4048202
0.0071111345 0 0.00071193086 0 -0.25019264 -0.4048202
0.0078598047 0 0.00071194844 0 -0.25019264 -0.4048202
0.0086085135 0 0.00071196782 0 -0.25019264 -0.4048202
0.0093572643 0 0.00071198895 0 -0.25019264 -0.4048202
0.010106063 0 0.00071201177 0 -0.25019264 -0.4048202
0.01085491 0 0.00071203645 0 -0.25019264 -0.4048202
0.011603812 0 0.00071206281 0 -0.25019264 -0.4048202
0.01235277 0 0.00071209099 0 -0.25019264 -0.4048202
0.01310179 0 0.00071212091 0 -0.25019264 -0.4048202
0.013850875 0 0.00071215257 0 -0.25019264 -0.4048202
0.014600028 0 0.00071218598 0 -0.25019264 -0.4048202
0.015349254 0 0.0007122212 0 -0.25019264 -0.4048202
0.016098555 0 0.00071225816 0 -0.25019264 -0.4048202
0.016847936 0 0.00071229693 0 -0.25019264 -0.4048202
0.017597402 0 0.00071233738 0 -0.25019264 -0.4048202
0.018346952 0 0.00071237964 0 -0.25019264 -0.4048202
0.019096596 0 0.0007124237 0 -0.25019264 -0.4048202
0.019846333 0 0.00071246945 0 -0.25019264 -0.4048202
0.020596169 0 0.00071251701 0 -0.25019264 -0.4048202
0.021346105 0 0.00071256631 0 -0.25019264 -0.4048202
0.02209615 0 0.00071261742 0 -0.25019264 -0.4048202
0.022846302 0 0.00071267027 0 -0.25019264 -0.4048202
0.023596568 0 0.00071272493 0 -0.25019264 -0.4048202
0.024346951 0 0.00071278133 0 -0.25019264 -0.4048202
0.025097454 0 0.00071283948 0 -0.25019264 -0.4048202
0.025848081 0 0.00071289943 0 -0.25019264 -0.4048202
0.026598839 0 0.00071296113 0 -0.25019264 -0.4048202
0.027349727 0 0.00071302458 0 -0.25019264 -0.4048202
0.028100749 0 0.00071308983 0 -0.25019264 -0.4048202
0.028851913 0 0.00071315689 0 -0.25019264 -0.4048202
0.029603221 0 0.00071322569 0 -0.25019264 -0.4048202
0.030354673 0 0.00071329629 0 -0.25019264 -0.4048202
0.031106276 0 0.00071336864 0 -0.25019264 -0.4048202
0.031858034 0 0.00071344274 0 -0.25019264 -0.4048202
0.032609951 0 0.00071351865 0 -0.25019264 -0.4048202
0.033362031 0 0.00071359635 0 -0.25019264 -0.4048202
0.034114275 0 0.00071367581 0 -0.25019264 -0.4048202
0.034866691 0 0.00071375706 0 -0.25019264 -0.4048202
0.035619278 0 0.00071384013 0 -0.25019264 -0.4048202
0.036372039 0 0.00071392494 0 -0.25019264 -0.4048202
0.037124988 0 0.00071401155 0 -0.25019264 -0.4048202
0.037878115 0 0.00071409991 0 -0.25019264 -0.4048202
0.038631435 0 0.00071419007 0 -0.25019264 -0.4048202
0.039384946 0 0.00071428204 0 -0.25019264 -0.4048202
0.00041089798 0.025204398 0.039999999 0 -0.25019264 -0.4048202
0.0011218471 0.00043960393 0 0 -0.25019264 -0.4048202
0.0018697513 0.00043960608 0 0 -0.25019264 -0.4048202
0.0026176646 0.00043960934 0 0 -0.25019264 -0.4048202
0.0033655909 0.00043961368 0 0 -0.25019264 -0.4048202
0.004113534 0.00043961912 0 0 -0.25019264 -0.4048202
0.0048614973 0.00043962564 0 0 -0.25019264 -0.4048202
0.0056094844 0.00043963324 0 0 -0.25019264 -0.4048202
0.0069856797 0.025204441 0.039999999 0 -0.25019264 -0.4048202
0.0071055461 0.00043965169 0 0 -0.25019264 -0.4048202
0.0086296387 0.025204463 0.039999999 0 -0.25019264 -0.4048202
0.0086017475 0.00043967448 0 0 -0.25019264 -0.4048202
0.0093499105 0.00043968749 0 0 -0.25019264 -0.4048202
0.010098119 0.0004397016 0 0 -0.25019264 -0.4048202
0.010846378 0.00043971679 0 0 -0.25019264 -0.4048202
0.01159469 0.00043973309 0 0 -0.25019264 -0.4048202
0.01234306 0.00043975047 0 0 -0.25019264 -0.4048202
0.014385052 0.02520458 0.039999999 0 -0.25019264 -0.4048202
0.013839987 0.00043978848 0 0 -0.25019264 -0.4048202
0.014588551 0.00043980911 0 0 -0.25019264 -0.4048202
0.016852643 0.025204647 0.039999999 0 -0.25019264 -0.4048202
0.016085899 0.00043985364 0 0 -0.25019264 -0.4048202
0.016834689 0.00043987753 0 0 -0.25019264 -0.4048202
0.017583564 0.00043990253 0 0 -0.25019264 -0.4048202
0.018332526 0.00043992861 0 0 -0.25019264 -0.4048202
0.019081578 0.00043995577 0 0 -0.25019264 -0.4048202
0.019830724 0.00043998403 0 0 -0.25019264 -0.4048202
0.02057997 0.00044001336 5.5511151e-17 0 -0.25019264 -0.4048202
0.021329315 0.0004400438 5.5511151e-17 0 -0.25019264 -0.4048202
0.022078767 0.00044007532 0 0 -0.25019264 -0.4048202
0.022828329 0.00044010795 5.5511151e-17 0 -0.25019264 -0.4048202
0.023578003 0.00044014165 0 0 -0.25019264 -0.4048202
0.024327794 0.00044017646 0 0 -0.25019264 -0.4048202
0.027555617 0.025205066 0.039999999 0 -0.25019264 -0.4048202
0.025827741 0.00044024934 0 0 -0.25019264 -0.4048202
0.026577905 0.0004402874 0 0 -0.25019264 -0.4048202
0.027328201 0.00044032658 0 0 -0.25019264 -0.4048202
0.028078631 0.00044036683 0 0 -0.25019264 -0.4048202
0.0288292 0.00044040821 5.5511151e-17 0 -0.25019264 -0.4048202
0.029579913 0.00044045065 0 0 -0.25019264 -0.4048202
0.030330773 0.00044049422 0 0 -0.25019264 -0.4048202
0.031081783 0.00044053886 0 0 -0.25019264 -0.4048202
0.031832945 0.00044058461 0 0 -0.25019264 -0.4048202
0.032584269 0.00044063144 0 0 -0.25019264 -0.4048202
0.033335753 0.00044067937 0 0 -0.25019264 -0.4048202
0.037455551 0.025205635 0.039999999 0 -0.25019264 -0.4048202
0.034839217 0.00044077856 0 0 -0.25019264 -0.4048202
0.035591211 0.00044082978 0 0 -0.25019264 -0.4048202
0.036343377 0.00044088214 0 0 -0.25019264 -0.4048202
0.037095726 0.00044093558 5.5511151e-17 0 -0.25019264 -0.4048202
0.037848257 0.00044099012 0 0 -0.25019264 -0.4048202
0.038600978 0.00044104576 5.5511151e-17 0 -0.25019264 -0.4048202
0.039353892 0.00044110249 0 0 -0.25019264 -0.4048202
0.00037431196 0.0013200928 0 0 -0.25019264 -0.4048202
0.0011229378 0.0013200961 0 0 -0.25019264 -0.4048202
0.0020564974 0.026171898 0.039999999 0 -0.25019264 -0.4048202
0.0026202097 0.0013201124 0 0 -0.25019264 -0.4048202
0.0033688631 0.0013201255 5.5511151e-17 0 -0.25019264 -0.4048202
0.0041175336 0.0013201418 0 0 -0.25019264 -0.4048202
0.0048662238 0.0013201614 5.5511151e-17 0 -0.25019264 -0.4048202
0.0056149387 0.0013201842 0 0 -0.25019264 -0.4048202
0.0063636811 0.0013202103 0 0 -0.25019264 -0.4048202
0.0071124551 0.0013202396 0 0 -0.25019264 -0.4048202
0.0078612641 0.0013202723 0 0 -0.25019264 -0.4048202
0.0086101117 0.0013203082 0 0 -0.25019264 -0.4048202
0.0093590021 0.0013203473 0 0 -0.25019264 -0.4048202
0.010107939 0.0013203898 0 0 -0.25019264 -0.4048202
0.010856926 0.0013204354 0 0 -0.25019264 -0.4048202
0.012752744 0.026172318 0.039999999 0 -0.25019264 -0.4048202
0.012355065 0.0013205366 0 0 -0.25019264 -0.4048202
0.013104224 0.0013205921 0 0 -0.25019264 -0.4048202
0.013853448 0.0013206508 5.5511151e-17 0 -0.25019264 -0.4048202
0.01460274 0.0013207129 0 0 -0.25019264 -0.4048202
0.015352106 0.0013207782 0 0 -0.25019264 -0.4048202
0.017692529 0.026172716 0.039999999 0 -0.25019264 -0.4048202
0.016851068 0.0013209186 0 0 -0.25019264 -0.4048202
0.01760067 0.0013209936 0 0 -0.25019264 -0.4048202
0.018350363 0.001321072 0 0 -0.25019264 -0.4048202
0.019100145 0.0013211537 0 0 -0.25019264 -0.4048202
0.019850021 0.0013212386 0 0 -0.25019264 -0.4048202
0.020599997 0.0013213268 0 0 -0.25019264 -0.4048202
0.021350073 0.0013214183 0 0 -0.25019264 -0.4048202
0.022100257 0.0013215131 5.5511151e-17 0 -0.25019264 -0.4048202
0.022850549 0.0013216111 0 0 -0.25019264 -0.4048202
0.025932949 0.026173668 0.039999999 0 -0.25019264 -0.4048202
0.024351478 0.001321817 0 0 -0.25019264 -0.4048202
0.02510212 0.001321925 0 0 -0.25019264 -0.4048202
0.025852889 0.0013220361 0 0 -0.25019264 -0.4048202
0.026603784 0.0013221506 5.5511151e-17 0 -0.25019264 -0.4048202
0.030057723 0.026174279 0.039999999 0 -0.25019264 -0.4048202
0.028105978 0.0013223893 5.5511151e-17 0 -0.25019264 -0.4048202
0.028857281 0.0013225137 0 0 -0.25019264 -0.4048202
0.029608727 0.0013226413 0 0 -0.25019264 -0.4048202
0.030360321 0.0013227722 0 0 -0.25019264 -0.4048202
0.034186225 0.026174979 0.039999999 0 -0.25019264 -0.4048202
0.031863965 0.0013230438 0 0 -0.25019264 -0.4048202
0.032616023 0.0013231847 5.5511151e-17 0 -0.25019264 -0.4048202
0.033368241 0.0013233288 5.5511151e-17 0 -0.25019264 -0.4048202
0.034120627 0.0013234762 0 0 -0.25019264 -0.4048202
0.03487318 0.0013236268 0 0 -0.25019264 -0.4048202
0.035625909 0.0013237809 0 0 -0.25019264 -0.4048202
0.039973378 0.026176114 0.039999999 0 -0.25019264 -0.4048202
0.037131902 0.0013240989 5.5511151e-17 0 -0.25019264 -0.4048202
0.03788517 0.0013242628 5.5511151e-17 0 -0.25019264 -0.4048202
0.038638633 0.00132443 0 0 -0.25019264 -0.4048202
0.039392281 0.0013246007 0 0 -0.25019264 -0.4048202
0.00041169772 0.027141269 0.039999999 0 -0.25019264 -0.4048202
0.0011240306 0.0022023085 0 0 -0.25019264 -0.4048202
0.0018733904 0.0022023194 0 0 -0.25019264 -0.4048202
0.0026227597 0.0022023357 0 0 -0.25019264 -0.4048202
0.0033721419 0.0022023576 0 0 -0.25019264 -0.4048202
0.0041215406 0.0022023849 0 0 -0.25019264 -0.4048202
0.00487096 0.0022024175 0 0 -0.25019264 -0.4048202
0.0056204032 0.0022024557 0 0 -0.25019264 -0.4048202
0.0063698743 0.0022024992 0 0 -0.25019264 -0.4048202
0.0078228377 0.027141538 0.039999999 0 -0.25019264 -0.4048202
0.0078689158 0.0022026028 5.5511151e-17 0 -0.25019264 -0.4048202
0.0086184926 0.0022026626 0 0 -0.25019264 -0.4048202
0.0093681123 0.0022027281 0 0 -0.25019264 -0.4048202
0.010117779 0.0022027988 0 0 -0.25019264 -0.4048202
0.010867495 0.0022028752 0 0 -0.25019264 -0.4048202
0.011617265 0.0022029569 0 0 -0.25019264 -0.4048202
0.013589077 0.027142083 0.039999999 0 -0.25019264 -0.4048202
0.013116982 0.0022031369 0 0 -0.25019264 -0.4048202
0.013866936 0.0022032349 0 0 -0.25019264 -0.4048202
0.014616959 0.0022033385 0 0 -0.25019264 -0.4048202
0.015367053 0.0022034475 0 0 -0.25019264 -0.4048202
0.017709756 0.027142651 0.039999999 0 -0.25019264 -0.4048202
0.016867476 0.002203682 0 0 -0.25019264 -0.4048202
0.017617811 0.0022038075 0 0 -0.25019264 -0.4048202
0.018368233 0.0022039383 0 0 -0.25019264 -0.4048202
0.021007856 0.027143216 0.039999999 0 -0.25019264 -0.4048202
0.019869355 0.0022042166 5.5511151e-17 0 -0.25019264 -0.4048202
0.022657515 0.027143532 0.039999999 0 -0.25019264 -0.4048202
0.021370871 0.0022045167 0 0 -0.25019264 -0.4048202
0.022121787 0.0022046748 5.5511151e-17 0 -0.25019264 -0.4048202
0.025132859 0.027144054 0.039999999 0 -0.25019264 -0.4048202
0.025958216 0.02714424 0.039999999 0 -0.25019264 -0.4048202
0.024375206 0.0022051823 0 0 -0.25019264 -0.4048202
0.025126584 0.0022053625 5.5511151e-17 0 -0.25019264 -0.4048202
0.025878085 0.0022055481 0 0 -0.25019264 -0.4048202
0.026629716 0.0022057393 0 0 -0.25019264 -0.4048202
0.027381478 0.002205936 5.5511151e-17 0 -0.25019264 -0.4048202
0.028133377 0.0022061381 0 0 -0.25019264 -0.4048202
0.031739563 0.027145712 0.039999999 0 -0.25019264 -0.4048202
0.029637598 0.0022065588 0 0 -0.25019264 -0.4048202
0.030389927 0.0022067775 0 0 -0.25019264 -0.4048202
0.031142408 0.0022070014 0 0 -0.25019264 -0.4048202
0.031895041 0.0022072312 5.5511151e-17 0 -0.25019264 -0.4048202
0.035873748 0.027146943 0.039999999 0 -0.25019264 -0.4048202
0.033400793 0.0022077069 0 0 -0.25019264 -0.4048202
0.034153916 0.002207953 0 0 -0.25019264 -0.4048202
0.034907211 0.0022082047 0 0 -0.25019264 -0.4048202
0.035660677 0.002208462 0 0 -0.25019264 -0.4048202
0.036414322 0.0022087246 0 0 -0.25019264 -0.4048202
0.037168145 0.0022089928 0 0 -0.25019264 -0.4048202
0.037922159 0.0022092666 5.5511151e-17 0 -0.25019264 -0.4048202
0.038676359 0.0022095458 0 0 -0.25019264 -0.4048202
0.039430749 0.0022098308 0 0 -0.25019264 -0.4048202
0.00037504121 0.0030862431 0 0 -0.25019264 -0.4048202
0.0011251256 0.0030862507 0 0 -0.25019264 -0.4048202
0.0020605042 0.028112575 0.039999999 0 -0.25019264 -0.4048202
0.00288472 0.028112601 0.039999999 0 -0.25019264 -0.4048202
0.0033754269 0.0030863194 0 0 -0.25019264 -0.4048202
0.0041255555 0.0030863578 0 0 -0.25019264 -0.4048202
0.0048757051 0.0030864037 0 0 -0.25019264 -0.4048202
0.0056258789 0.003086457 5.5511151e-17 0 -0.25019264 -0.4048202
0.0063760802 0.0030865183 0 0 -0.25019264 -0.4048202
0.0071263132 0.0030865869 0 0 -0.25019264 -0.4048202
0.0078765815 0.0030866633 0 0 -0.25019264 -0.4048202
0.0094793066 0.028113104 0.039999999 0 -0.25019264 -0.4048202
0.0093772402 0.0030868391 0 0 -0.25019264 -0.4048202
0.010127637 0.0030869385 0 0 -0.25019264 -0.4048202
0.011952939 0.028113432 0.039999999 0 -0.25019264 -0.4048202
0.011628585 0.0030871602 0 0 -0.25019264 -0.4048202
0.013602318 0.028113693 0.039999999 0 -0.25019264 -0.4048202
0.013129764 0.0030874126 0 0 -0.25019264 -0.4048202
0.013880449 0.0030875502 0 0 -0.25019264 -0.4048202
0.014631204 0.0030876955 0 0 -0.25019264 -0.4048202
0.016901918 0.028114315 0.039999999 0 -0.25019264 -0.4048202
0.016132934 0.0030880091 0 0 -0.25019264 -0.4048202
0.018552206 0.028114676 0.039999999 0 -0.25019264 -0.4048202
0.017634986 0.0030883532 0 0 -0.25019264 -0.4048202
0.01838614 0.0030885369 0 0 -0.25019264 -0.4048202
0.019137386 0.0030887281 0 0 -0.25019264 -0.4048202
0.021853918 0.0281155 0.039999999 0 -0.25019264 -0.4048202
0.022679608 0.028115727 0.039999999 0 -0.25019264 -0.4048202
0.02139171 0.0030893479 5.5511151e-17 0 -0.25019264 -0.4048202
0.02214336 0.00308957 0 0 -0.25019264 -0.4048202
0.022895118 0.0030897995 0 0 -0.25019264 -0.4048202
0.023646992 0.003090037 0 0 -0.25019264 -0.4048202
0.024398983 0.003090282 0 0 -0.25019264 -0.4048202
0.025151094 0.0030905346 0 0 -0.25019264 -0.4048202
0.028462822 0.028117552 0.039999999 0 -0.25019264 -0.4048202
0.026655696 0.0030910631 0 0 -0.25019264 -0.4048202
0.027408196 0.003091339 0 0 -0.25019264 -0.4048202
0.028160831 0.0030916226 0 0 -0.25019264 -0.4048202
0.028913606 0.0030919136 5.5511151e-17 0 -0.25019264 -0.4048202
0.029666524 0.0030922126 0 0 -0.25019264 -0.4048202
0.030419592 0.0030925192 0 0 -0.25019264 -0.4048202
0.031172808 0.0030928338 0 0 -0.25019264 -0.4048202
0.035080787 0.028120145 0.039999999 0 -0.25019264 -0.4048202
0.032679714 0.0030934857 0 0 -0.25019264 -0.4048202
0.033433411 0.0030938231 0 0 -0.25019264 -0.4048202
0.034187272 0.0030941684 0 0 -0.25019264 -0.4048202
0.038393829 0.028121646 0.039999999 0 -0.25019264 -0.4048202
0.035695512 0.0030948822 0 0 -0.25019264 -0.4048202
0.036449898 0.0030952508 0 0 -0.25019264 -0.4048202
0.039999999 0.022127656 0.030418109 0 -0.25019264 -0.4048202
0.037959214 0.003096011 0 0 -0.25019264 -0.4048202
0.038714156 0.0030964029 0 0 -0.25019264 -0.4048202
0.039469291 0.0030968024 0 0 -0.25019264 -0.4048202
0.00041250061 0.029085742 0.039999999 0 -0.25019264 -0.4048202
0.0011262227 0.003971932 0 0 -0.25019264 -0.4048202
0.001877044 0.003971952 0 0 -0.25019264 -0.4048202
0.0026278745 0.0039719814 0 0 -0.25019264 -0.4048202
0.0033787182 0.0039720205 0 0 -0.25019264 -0.4048202
0.0041295788 0.0039720698 0 0 -0.25019264 -0.4048202
0.0048804595 0.003972129 0 0 -0.25019264 -0.4048202
0.0056313649 0.0039721979 0 0 -0.25019264 -0.4048202
0.0063822982 0.0039722766 0 0 -0.25019264 -0.4048202
0.0071332632 0.0039723651 0 0 -0.25019264 -0.4048202
0.0078842631 0.0039724638 0 0 -0.25019264 -0.4048202
0.008635303 0.0039725718 0 0 -0.25019264 -0.4048202
0.0093863858 0.0039726901 0 0 -0.25019264 -0.4048202
0.010137514 0.0039728181 0 0 -0.25019264 -0.4048202
0.010888694 0.003972956 0 0 -0.25019264 -0.4048202
0.012790061 0.029087041 0.039999999 0 -0.25019264 -0.4048202
0.012391219 0.0039732615 5.5511151e-17 0 -0.25019264 -0.4048202
0.013142572 0.0039734286 0 0 -0.25019264 -0.4048202
0.01389399 0.003973606 0 0 -0.25019264 -0.4048202
0.016092587 0.029087799 0.039999999 0 -0.25019264 -0.4048202
0.015397038 0.0039739902 5.5511151e-17 0 -0.25019264 -0.4048202
0.017744314 0.029088242 0.039999999 0 -0.25019264 -0.4048202
0.016900392 0.003974414 5.5511151e-17 0 -0.25019264 -0.4048202
0.019396394 0.02908873 0.039999999 0 -0.25019264 -0.4048202
0.018404081 0.0039748773 5.5511151e-17 0 -0.25019264 -0.4048202
0.021048859 0.029089261 0.039999999 0 -0.25019264 -0.4048202
0.019908138 0.0039753797 5.5511151e-17 0 -0.25019264 -0.4048202
0.022701744 0.029089835 0.039999999 0 -0.25019264 -0.4048202
0.023528354 0.029090138 0.039999999 0 -0.25019264 -0.4048202
0.022164974 0.0039762082 5.5511151e-17 0 -0.25019264 -0.4048202
0.02291747 0.0039765039 0 0 -0.25019264 -0.4048202
0.023670079 0.0039768093 0 0 -0.25019264 -0.4048202
0.024422806 0.003977125 0 0 -0.25019264 -0.4048202
0.025175653 0.0039774505 0 0 -0.25019264 -0.4048202
0.028490616 0.029092187 0.039999999 0 -0.25019264 -0.4048202
0.026681731 0.0039781318 0 0 -0.25019264 -0.4048202
0.027434966 0.0039784871 0 0 -0.25019264 -0.4048202
0.028188339 0.0039788522 0 0 -0.25019264 -0.4048202
0.028941851 0.0039792275 0 0 -0.25019264 -0.4048202
0.029695509 0.0039796126 0 0 -0.25019264 -0.4048202
0.030449314 0.0039800075 0 0 -0.25019264 -0.4048202
0.031203272 0.0039804126 0 0 -0.25019264 -0.4048202
0.031957384 0.0039808275 0 0 -0.25019264 -0.4048202
0.032711655 0.0039812522 5.5511151e-17 0 -0.25019264 -0.4048202
0.033466093 0.0039816871 0 0 -0.25019264 -0.4048202
0.037602019 0.029096961 0.039999999 0 -0.25019264 -0.4048202
0.038431369 0.02909746 0.039999999 0 -0.25019264 -0.4048202
0.035730418 0.0039830515 0 0 -0.25019264 -0.4048202
0.036485542 0.003983526 0 0 -0.25019264 -0.4048202
0.037240852 0.0039840108 0 0 -0.25019264 -0.4048202
0.037996348 0.0039845058 5.5511151e-17 0 -0.25019264 -0.4048202
0.038752031 0.0039850106 0 0 -0.25019264 -0.4048202
0.039507911 0.0039855251 0 0 -0.25019264 -0.4048202
0.00037577335 0.0048593502 0 0 -0.25019264 -0.4048202
0.001127322 0.0048593623 0 0 -0.25019264 -0.4048202
0.0018788761 0.004859386 0 0 -0.25019264 -0.4048202
0.0026304396 0.0048594223 0 0 -0.25019264 -0.4048202
0.0033820162 0.0048594708 5.5511151e-17 0 -0.25019264 -0.4048202
0.0041336096 0.0048595308 0 0 -0.25019264 -0.4048202
0.0048852237 0.004859603 0 0 -0.25019264 -0.4048202
0.005636862 0.0048596878 0 0 -0.25019264 -0.4048202
0.0063885283 0.0048597842 0 0 -0.25019264 -0.4048202
0.0078457473 0.030061454 0.039999999 0 -0.25019264 -0.4048202
0.0078919604 0.0048600133 0 0 -0.25019264 -0.4048202
0.0086437333 0.004860146 5.5511151e-17 0 -0.25019264 -0.4048202
0.0093955491 0.0048602903 0 0 -0.25019264 -0.4048202
0.01115007 0.030062063 0.039999999 0 -0.25019264 -0.4048202
0.010899325 0.0048606158 0 0 -0.25019264 -0.4048202
0.011651292 0.004860797 0 0 -0.25019264 -0.4048202
0.012403318 0.0048609897 0 0 -0.25019264 -0.4048202
0.013155404 0.0048611951 0 0 -0.25019264 -0.4048202
0.015281754 0.030063123 0.039999999 0 -0.25019264 -0.4048202
0.014659779 0.0048616412 0 0 -0.25019264 -0.4048202
0.015412075 0.0048618824 0 0 -0.25019264 -0.4048202
0.016164446 0.0048621357 0 0 -0.25019264 -0.4048202
0.016916899 0.0048624012 0 0 -0.25019264 -0.4048202
0.019415339 0.030064514 0.039999999 0 -0.25019264 -0.4048202
0.01842206 0.0048629688 0 0 -0.25019264 -0.4048202
0.019174775 0.0048632706 0 0 -0.25019264 -0.4048202
0.019927587 0.0048635844 5.5511151e-17 0 -0.25019264 -0.4048202
0.022723924 0.030065868 0.039999999 0 -0.25019264 -0.4048202
0.021433512 0.0048642484 0 0 -0.25019264 -0.4048202
0.022186633 0.0048645986 0 0 -0.25019264 -0.4048202
0.022939865 0.0048649609 0 0 -0.25019264 -0.4048202
0.023693211 0.0048653353 0 0 -0.25019264 -0.4048202
0.024446676 0.0048657218 0 0 -0.25019264 -0.4048202
0.025200261 0.0048661204 5.5511151e-17 0 -0.25019264 -0.4048202
0.025953973 0.0048665311 0 0 -0.25019264 -0.4048202
0.029346794 0.030069211 0.039999999 0 -0.25019264 -0.4048202
0.027461788 0.0048673893 0 0 -0.25019264 -0.4048202
0.0282159 0.0048678364 0 0 -0.25019264 -0.4048202
0.028970152 0.004868296 5.5511151e-17 0 -0.25019264 -0.4048202
0.02972455 0.0048687677 0 0 -0.25019264 -0.4048202
0.030479096 0.0048692515 5.5511151e-17 0 -0.25019264 -0.4048202
0.031233793 0.0048697474 5.5511151e-17 0 -0.25019264 -0.4048202
0.031988647 0.0048702555 5.5511151e-17 0 -0.25019264 -0.4048202
0.032743659 0.0048707756 0 0 -0.25019264 -0.4048202
0.033498839 0.0048713083 5.5511151e-17 0 -0.25019264 -0.4048202
0.034254182 0.0048718532 0 0 -0.25019264 -0.4048202
0.035009697 0.0048724101 0 0 -0.25019264 -0.4048202
0.035765391 0.0048729791 0 0 -0.25019264 -0.4048202
0.03652126 0.0048735607 0 0 -0.25019264 -0.4048202
0.037277311 0.004874154 0 0 -0.25019264 -0.4048202
0.038033552 0.0048747598 0 0 -0.25019264 -0.4048202
0.03878998 0.0048753782 0 0 -0.25019264 -0.4048202
0.039546605 0.0048760083 0 0 -0.25019264 -0.4048202
0.0003761405 0.005748536 0 0 -0.25019264 -0.4048202
0.0011284234 0.0057485504 0 0 -0.25019264 -0.4048202
0.0020665438 0.031037949 0.039999999 0 -0.25019264 -0.4048202
0.0026330098 0.0057486217 0 0 -0.25019264 -0.4048202
0.0033853208 0.0057486789 0 0 -0.25019264 -0.4048202
0.0045464868 0.031038137 0.039999999 0 -0.25019264 -0.4048202
0.0048899972 0.0057488359 5.5511151e-17 0 -0.25019264 -0.4048202
0.0056423699 0.005748936 5.5511151e-17 0 -0.25019264 -0.4048202
0.0063947709 0.0057490501 0 0 -0.25019264 -0.4048202
0.0071472037 0.0057491786 5.5511151e-17 0 -0.25019264 -0.4048202
0.0078996718 0.0057493211 5.5511151e-17 0 -0.25019264 -0.4048202
0.0095070954 0.031038938 0.039999999 0 -0.25019264 -0.4048202
0.009404731 0.0057496498 0 0 -0.25019264 -0.4048202
0.010157328 0.0057498352 0 0 -0.25019264 -0.4048202
0.010909976 0.0057500354 5.5511151e-17 0 -0.25019264 -0.4048202
0.01166268 0.0057502496 0 0 -0.25019264 -0.4048202
0.012415441 0.0057504778 0 0 -0.25019264 -0.4048202
0.013168263 0.0057507209 5.5511151e-17 0 -0.25019264 -0.4048202
0.013921152 0.0057509779 5.5511151e-17 0 -0.25019264 -0.4048202
0.014674109 0.0057512494 0 0 -0.25019264 -0.4048202
0.015427141 0.0057515348 0 0 -0.25019264 -0.4048202
0.017779008 0.031041527 0.039999999 0 -0.25019264 -0.4048202
0.016933437 0.0057521495 0 0 -0.25019264 -0.4048202
0.01768671 0.0057524778 0 0 -0.25019264 -0.4048202
0.018440071 0.005752821 0 0 -0.25019264 -0.4048202
0.019193524 0.0057531781 0 0 -0.25019264 -0.4048202
0.02191803 0.031043412 0.039999999 0 -0.25019264 -0.4048202
0.020700723 0.0057539358 0 0 -0.25019264 -0.4048202
0.021454476 0.0057543362 0 0 -0.25019264 -0.4048202
0.022208335 0.0057547507 5.5511151e-17 0 -0.25019264 -0.4048202
0.022962304 0.00575518 0 0 -0.25019264 -0.4048202
0.023716388 0.0057556233 5.5511151e-17 0 -0.25019264 -0.4048202
0.024470592 0.0057560811 0 0 -0.25019264 -0.4048202
0.025224917 0.0057565533 5.5511151e-17 0 -0.25019264 -0.4048202
0.025979368 0.0057570394 0 0 -0.25019264 -0.4048202
0.029375512 0.031047797 0.039999999 0 -0.25019264 -0.4048202
0.030204801 0.031048363 0.039999999 0 -0.25019264 -0.4048202
0.028243518 0.0057585854 0 0 -0.25019264 -0.4048202
0.031863831 0.031049542 0.039999999 0 -0.25019264 -0.4048202
0.032693587 0.031050157 0.039999999 0 -0.25019264 -0.4048202
0.030508935 0.0057602609 0 0 -0.25019264 -0.4048202
0.031264376 0.0057608481 0 0 -0.25019264 -0.4048202
0.032019973 0.0057614497 0 0 -0.25019264 -0.4048202
0.036014274 0.03105277 0.039999999 0 -0.25019264 -0.4048202
0.033531647 0.0057626963 0 0 -0.25019264 -0.4048202
0.034287736 0.0057633417 0 0 -0.25019264 -0.4048202
0.035043996 0.005764001 0 0 -0.25019264 -0.4048202
0.035800431 0.0057646749 0 0 -0.25019264 -0.4048202
0.036557049 0.0057653631 5.5511151e-17 0 -0.25019264 -0.4048202
0.039999999 0.02419205 0.029142244 0 -0.25019264 -0.4048202
0.038070831 0.0057667838 0 0 -0.25019264 -0.4048202
0.038828008 0.0057675154 0 0 -0.25019264 -0.4048202
0.039585378 0.0057682618 0 0 -0.25019264 -0.4048202
0.0003765084 0.0066394899 5.5511151e-17 0 -0.25019264 -0.4048202
0.001129527 0.0066395067 0 0 -0.25019264 -0.4048202
0.0018825514 0.0066395397 0 0 -0.25019264 -0.4048202
0.0028960053 0.032017 0.039999999 0 -0.25019264 -0.4048202
0.0033886319 0.0066396552 0 0 -0.25019264 -0.4048202
0.0041416953 0.0066397376 0 0 -0.25019264 -0.4048202
0.00489478 0.0066398364 5.5511151e-17 0 -0.25019264 -0.4048202
0.0056478889 0.0066399523 5.5511151e-17 0 -0.25019264 -0.4048202
0.0064010257 0.0066400841 0 0 -0.25019264 -0.4048202
0.0071541946 0.0066402326 0 0 -0.25019264 -0.4048202
0.0086887237 0.03201789 0.039999999 0 -0.25019264 -0.4048202
0.0095163956 0.032018088 0.039999999 0 -0.25019264 -0.4048202
0.010344115 0.032018304 0.039999999 0 -0.25019264 -0.4048202
0.010167265 0.0066409921 5.5511151e-17 0 -0.25019264 -0.4048202
0.01092065 0.0066412231 5.5511151e-17 0 -0.25019264 -0.4048202
0.011674089 0.0066414708 5.5511151e-17 0 -0.25019264 -0.4048202
0.013655549 0.032019358 0.039999999 0 -0.25019264 -0.4048202
0.013181147 0.0066420157 0 0 -0.25019264 -0.4048202
0.013934773 0.0066423127 0 0 -0.25019264 -0.4048202
0.014688469 0.0066426266 0 0 -0.25019264 -0.4048202
0.015442237 0.0066429572 5.5511151e-17 0 -0.25019264 -0.4048202
0.016196083 0.0066433041 0 0 -0.25019264 -0.4048202
0.016950009 0.0066436674 0 0 -0.25019264 -0.4048202
0.017704021 0.0066440473 5.5511151e-17 0 -0.25019264 -0.4048202
0.020281954 0.032022335 0.039999999 0 -0.25019264 -0.4048202
0.019212313 0.0066448571 5.5511151e-17 0 -0.25019264 -0.4048202
0.0199666 0.0066452865 0 0 -0.25019264 -0.4048202
0.020720989 0.006645733 0 0 -0.25019264 -0.4048202
0.021475479 0.0066461954 0 0 -0.25019264 -0.4048202
0.024426617 0.032024786 0.039999999 0 -0.25019264 -0.4048202
0.022984788 0.006647171 0 0 -0.25019264 -0.4048202
0.023739614 0.0066476837 0 0 -0.25019264 -0.4048202
0.024494557 0.0066482127 5.5511151e-17 0 -0.25019264 -0.4048202
0.025249623 0.0066487589 5.5511151e-17 0 -0.25019264 -0.4048202
0.026004815 0.0066493209 5.5511151e-17 0 -0.25019264 -0.4048202
0.026760139 0.0066499002 0 0 -0.25019264 -0.4048202
0.027515594 0.0066504958 0 0 -0.25019264 -0.4048202
0.031064644 0.032029659 0.039999999 0 -0.25019264 -0.4048202
0.029026924 0.0066517373 0 0 -0.25019264 -0.4048202
0.032725625 0.032031059 0.039999999 0 -0.25019264 -0.4048202
0.030538836 0.0066530453 0 0 -0.25019264 -0.4048202
0.03129502 0.0066537242 0 0 -0.25019264 -0.4048202
0.032051358 0.0066544195 0 0 -0.25019264 -0.4048202
0.036049582 0.03203408 0.039999999 0 -0.25019264 -0.4048202
0.033564527 0.0066558612 0 0 -0.25019264 -0.4048202
0.034321357 0.0066566067 0 0 -0.25019264 -0.4048202
0.038544431 0.032036535 0.039999999 0 -0.25019264 -0.4048202
0.035835546 0.0066581485 0 0 -0.25019264 -0.4048202
0.037350453 0.0066597569 0 0 -0.25019264 -0.4048202
0.038108185 0.0066605862 0 0 -0.25019264 -0.4048202
0.038866106 0.0066614328 5.5511151e-17 0 -0.25019264 -0.4048202
0.039999999 0.0090981536 0.0038390714 0 -0.25019264 -0.4048202
0.000376877 0.0075322217 0 0 -0.25019264 -0.4048202
0.0011306329 0.0075322404 5.5511151e-17 0 -0.25019264 -0.4048202
0.0018843944 0.0075322776 0 0 -0.25019264 -0.4048202
0.0026381654 0.007532334 0 0 -0.25019264 -0.4048202
0.0033919495 0.0075324089 0 0 -0.25019264 -0.4048202
0.0041457508 0.0075325025 0 0 -0.25019264 -0.4048202
0.0048995726 0.0075326152 5.5511151e-17 0 -0.25019264 -0.4048202
0.0056534186 0.0075327461 0 0 -0.25019264 -0.4048202
0.006407293 0.007532896 0 0 -0.25019264 -0.4048202
0.0071611996 0.007533065 5.5511151e-17 0 -0.25019264 -0.4048202
0.007915142 0.0075332522 5.5511151e-17 0 -0.25019264 -0.4048202
0.008669124 0.0075334585 0 0 -0.25019264 -0.4048202
0.0094231488 0.0075336834 5.5511151e-17 0 -0.25019264 -0.4048202
0.011182826 0.032999706 0.039999999 0 -0.25019264 -0.4048202
0.010931345 0.0075341896 5.5511151e-17 0 -0.25019264 -0.4048202
0.011685522 0.0075344709 0 0 -0.25019264 -0.4048202
0.012439759 0.0075347708 5.5511151e-17 0 -0.25019264 -0.4048202
0.014497752 0.033000983 0.039999999 0 -0.25019264 -0.4048202
0.013948422 0.0075354273 0 0 -0.25019264 -0.4048202
0.014702856 0.0075357836 0 0 -0.25019264 -0.4048202
0.015457364 0.0075361584 0 0 -0.25019264 -0.4048202
0.016211949 0.0075365524 5.5511151e-17 0 -0.25019264 -0.4048202
0.016966615 0.007536965 0 0 -0.25019264 -0.4048202
0.017721366 0.0075373966 0 0 -0.25019264 -0.4048202
0.018476205 0.0075378469 0 0 -0.25019264 -0.4048202
0.019231137 0.0075383158 5.5511151e-17 0 -0.25019264 -0.4048202
0.019986166 0.0075388039 5.5511151e-17 0 -0.25019264 -0.4048202
0.020741295 0.0075393105 5.5511151e-17 0 -0.25019264 -0.4048202
