# .PCD v0.7 - Point Cloud Data file format
VERSION 0.7
FIELDS x y z vp_x vp_y vp_z
SIZE 4 4 4 4 4 4
TYPE F F F F F F
COUNT 1 1 1 1 1 1
WIDTH 880
HEIGHT 1
VIEWPOINT 0 0 0 1 0 0 0
POINTS 880
DATA ascii
0.021817066 0.04010918 0.069527604 0.4048202 0 0.25019264
0.022801809 0.040671006 0.07 0.4048202 0 0.25019264
0.022784809 0.041337982 0.07 0.4048202 0 0.25019264
0.022767527 0.042005233 0.07 0.4048202 0 0.25019264
0.022749966 0.042672765 0.07 0.4048202 0 0.25019264
0.022732124 0.043340582 0.07 0.4048202 0 0.25019264
0.022714002 0.044008687 0.07 0.4048202 0 0.25019264
0.022695599 0.04467709 0.07 0.4048202 0 0.25019264
0.022676915 0.045345787 0.07 0.4048202 0 0.25019264
0.022657948 0.046014789 0.07 0.4048202 0 0.25019264
0.022638699 0.046684097 0.07 0.4048202 0 0.25019264
0.022619169 0.047353718 0.07 0.4048202 0 0.25019264
0.022599356 0.04802366 0.07 0.4048202 0 0.25019264
0.022579262 0.048693918 0.07 0.4048202 0 0.25019264
0.022558883 0.049364507 0.07 0.4048202 0 0.25019264
0.022538221 0.050035425 0.07 0.4048202 0 0.25019264
0.022517275 0.050706677 0.07 0.4048202 0 0.25019264
0.022496045 0.051378269 0.07 0.4048202 0 0.25019264
0.022474529 0.052050207 0.07 0.4048202 0 0.25019264
0.022452731 0.052722495 0.07 0.4048202 0 0.25019264
0.022430645 0.053395137 0.07 0.4048202 0 0.25019264
0.022408275 0.054068141 0.07 0.4048202 0 0.25019264
0.02238562 0.054741506 0.07 0.4048202 0 0.25019264
0.022362677 0.055415235 0.07 0.4048202 0 0.25019264
0.022339448 0.056089345 0.07 0.4048202 0 0.25019264
0.022315932 0.056763828 0.07 0.4048202 0 0.25019264
0.02229213 0.057438694 0.07 0.4048202 0 0.25019264
0.022268038 0.058113948 0.07 0.4048202 0 0.25019264
0.02224366 0.058789596 0.07 0.4048202 0 0.25019264
0.022218993 0.059465639 0.07 0.4048202 0 0.25019264
0.022194035 0.060142085 0.07 0.4048202 0 0.25019264
0.022168791 0.060818937 0.07 0.4048202 0 0.25019264
0.022143254 0.061496198 0.07 0.4048202 0 0.25019264
0.022117428 0.062173881 0.07 0.4048202 0 0.25019264
0.022091312 0.06285198 0.07 0.4048202 0 0.25019264
0.022064906 0.063530505 0.07 0.4048202 0 0.25019264
0.022038206 0.064209461 0.07 0.4048202 0 0.25019264
0.022011217 0.064888857 0.07 0.4048202 0 0.25019264
0.021983933 0.065568686 0.07 0.4048202 0 0.25019264
0.021956358 0.066248968 0.07 0.4048202 0 0.25019264
0.021928489 0.066929698 0.07 0.4048202 0 0.25019264
0.021900326 0.067610882 0.07 0.4048202 0 0.25019264
0.02187187 0.068292521 0.07 0.4048202 0 0.25019264
0.021843119 0.068974629 0.07 0.4048202 0 0.25019264
0.021814074 0.069657214 0.07 0.4048202 0 0.25019264
0.021784732 0.070340261 0.07 0.4048202 0 0.25019264
0.021755094 0.071023799 0.07 0.4048202 0 0.25019264
0.021725161 0.071707815 0.07 0.4048202 0 0.25019264
0.02169493 0.07239233 0.07 0.4048202 0 0.25019264
0.021664402 0.073077329 0.07 0.4048202 0 0.25019264
0.021633575 0.073762834 0.07 0.4048202 0 0.25019264
0.02160245 0.074448839 0.07 0.4048202 0 0.25019264
0.021571027 0.075135358 0.07 0.4048202 0 0.25019264
0.021539304 0.075822398 0.07 0.4048202 0 0.25019264
0.021507282 0.076509953 0.07 0.4048202 0 0.25019264
0.021474957 0.077198029 0.07 0.4048202 0 0.25019264
0.021442333 0.077886641 0.07 0.4048202 0 0.25019264
0.021409407 0.078575782 0.07 0.4048202 0 0.25019264
0.021376178 0.079265468 0.07 0.4048202 0 0.25019264
0.021990502 0.040128049 0.068870462 0.4048202 0 0.25019264
0.024358939 0.040542647 0.07 0.4048202 0 0.25019264
0.024342284 0.041207496 0.07 0.4048202 0 0.25019264
0.024325354 0.041872617 0.07 0.4048202 0 0.25019264
0.024308149 0.042538013 0.07 0.4048202 0 0.25019264
0.02429067 0.043203693 0.07 0.4048202 0 0.25019264
0.024272915 0.043869663 0.07 0.4048202 0 0.25019264
0.024254886 0.04453592 0.07 0.4048202 0 0.25019264
0.024236582 0.045202479 0.07 0.4048202 0 0.25019264
0.024218 0.045869336 0.07 0.4048202 0 0.25019264
0.024199145 0.046536498 0.07 0.4048202 0 0.25019264
0.024180012 0.047203969 0.07 0.4048202 0 0.25019264
0.024160601 0.047871757 0.07 0.4048202 0 0.25019264
0.024140913 0.048539862 0.07 0.4048202 0 0.25019264
0.024120949 0.049208295 0.07 0.4048202 0 0.25019264
0.024100708 0.049877051 0.07 0.4048202 0 0.25019264
0.024080187 0.050546143 0.07 0.4048202 0 0.25019264
0.024059389 0.051215574 0.07 0.4048202 0 0.25019264
0.024038311 0.051885344 0.07 0.4048202 0 0.25019264
0.024016956 0.05255546 0.07 0.4048202 0 0.25019264
0.023995321 0.053225931 0.07 0.4048202 0 0.25019264
0.023973405 0.053896759 0.07 0.4048202 0 0.25019264
0.02395121 0.054567948 0.07 0.4048202 0 0.25019264
0.023928735 0.055239499 0.07 0.4048202 0 0.25019264
0.023905979 0.055911422 0.07 0.4048202 0 0.25019264
0.023882942 0.056583721 0.07 0.4048202 0 0.25019264
0.023859622 0.057256401 0.07 0.4048202 0 0.25019264
0.023836022 0.05792946 0.07 0.4048202 0 0.25019264
0.023812139 0.058602914 0.07 0.4048202 0 0.25019264
0.023787973 0.05927676 0.07 0.4048202 0 0.25019264
0.023763526 0.059951004 0.07 0.4048202 0 0.25019264
0.023738794 0.06062565 0.07 0.4048202 0 0.25019264
0.023713777 0.061300706 0.07 0.4048202 0 0.25019264
0.023688478 0.061976176 0.07 0.4048202 0 0.25019264
0.023662893 0.062652066 0.07 0.4048202 0 0.25019264
0.023637025 0.06332837 0.07 0.4048202 0 0.25019264
0.023610869 0.064005114 0.07 0.4048202 0 0.25019264
0.023584429 0.064682283 0.07 0.4048202 0 0.25019264
0.023557702 0.065359883 0.07 0.4048202 0 0.25019264
0.023530688 0.066037938 0.07 0.4048202 0 0.25019264
0.023503387 0.066716433 0.07 0.4048202 0 0.25019264
0.023475798 0.067395374 0.07 0.4048202 0 0.25019264
0.023447921 0.068074778 0.07 0.4048202 0 0.25019264
0.023419756 0.068754643 0.07 0.4048202 0 0.25019264
0.023391303 0.069434978 0.07 0.4048202 0 0.25019264
0.023362558 0.070115782 0.07 0.4048202 0 0.25019264
0.023333525 0.070797063 0.07 0.4048202 0 0.25019264
0.023304202 0.071478821 0.07 0.4048202 0 0.25019264
0.023274587 0.072161071 0.07 0.4048202 0 0.25019264
0.023244683 0.072843805 0.07 0.4048202 0 0.25019264
0.023214485 0.073527038 0.07 0.4048202 0 0.25019264
0.023183994 0.074210778 0.07 0.4048202 0 0.25019264
0.023153212 0.074895017 0.07 0.4048202 0 0.25019264
0.023122136 0.07557977 0.07 0.4048202 0 0.25019264
0.023090767 0.076265037 0.07 0.4048202 0 0.25019264
0.023059102 0.076950826 0.07 0.4048202 0 0.25019264
0.023027144 0.077637143 0.07 0.4048202 0 0.25019264
0.022994889 0.07832399 0.07 0.4048202 0 0.25019264
0.022962339 0.079011381 0.07 0.4048202 0 0.25019264
0.022929493 0.079699308 0.07 0.4048202 0 0.25019264
0.022164043 0.040146925 0.068212934 0.4048202 0 0.25019264
0.024571275 0.040557474 0.069365397 0.4048202 0 0.25019264
0.025889417 0.041077875 0.07 0.4048202 0 0.25019264
0.025872834 0.041740876 0.07 0.4048202 0 0.25019264
0.025855983 0.042404156 0.07 0.4048202 0 0.25019264
0.025838861 0.043067716 0.07 0.4048202 0 0.25019264
0.025821472 0.043731559 0.07 0.4048202 0 0.25019264
0.025803812 0.044395693 0.07 0.4048202 0 0.25019264
0.025785882 0.045060121 0.07 0.4048202 0 0.25019264
0.025767682 0.045724846 0.07 0.4048202 0 0.25019264
0.025749212 0.046389878 0.07 0.4048202 0 0.25019264
0.025730472 0.047055215 0.07 0.4048202 0 0.25019264
0.02571146 0.047720864 0.07 0.4048202 0 0.25019264
0.025692176 0.048386831 0.07 0.4048202 0 0.25019264
0.02567262 0.049053121 0.07 0.4048202 0 0.25019264
0.025652794 0.049719732 0.07 0.4048202 0 0.25019264
0.025632694 0.050386678 0.07 0.4048202 0 0.25019264
0.025612323 0.05105396 0.07 0.4048202 0 0.25019264
0.025591679 0.051721577 0.07 0.4048202 0 0.25019264
0.02557076 0.052389544 0.07 0.4048202 0 0.25019264
0.025549568 0.053057853 0.07 0.4048202 0 0.25019264
0.025528103 0.05372652 0.07 0.4048202 0 0.25019264
0.025506364 0.054395545 0.07 0.4048202 0 0.25019264
0.02548435 0.055064932 0.07 0.4048202 0 0.25019264
0.025462059 0.055734687 0.07 0.4048202 0 0.25019264
0.025439495 0.056404814 0.07 0.4048202 0 0.25019264
0.025416655 0.057075318 0.07 0.4048202 0 0.25019264
0.025393538 0.057746205 0.07 0.4048202 0 0.25019264
0.025370147 0.058417477 0.07 0.4048202 0 0.25019264
0.025346477 0.059089139 0.07 0.4048202 0 0.25019264
0.02532253 0.0597612 0.07 0.4048202 0 0.25019264
0.025298307 0.06043366 0.07 0.4048202 0 0.25019264
0.025273804 0.061106522 0.07 0.4048202 0 0.25019264
0.025249023 0.061779797 0.07 0.4048202 0 0.25019264
0.025223965 0.062453486 0.07 0.4048202 0 0.25019264
0.025198627 0.063127592 0.07 0.4048202 0 0.25019264
0.025173008 0.063802123 0.07 0.4048202 0 0.25019264
0.025147112 0.064477086 0.07 0.4048202 0 0.25019264
0.025120933 0.065152481 0.07 0.4048202 0 0.25019264
0.025094474 0.065828316 0.07 0.4048202 0 0.25019264
0.025067735 0.066504598 0.07 0.4048202 0 0.25019264
0.025040712 0.067181319 0.07 0.4048202 0 0.25019264
0.02501341 0.067858502 0.07 0.4048202 0 0.25019264
0.024985824 0.068536133 0.07 0.4048202 0 0.25019264
0.024957955 0.069214232 0.07 0.4048202 0 0.25019264
0.024929801 0.069892801 0.07 0.4048202 0 0.25019264
0.024901366 0.070571847 0.07 0.4048202 0 0.25019264
0.024872644 0.071251363 0.07 0.4048202 0 0.25019264
0.024843639 0.071931362 0.07 0.4048202 0 0.25019264
0.024814349 0.072611846 0.07 0.4048202 0 0.25019264
0.024784772 0.073292829 0.07 0.4048202 0 0.25019264
0.02475491 0.073974304 0.07 0.4048202 0 0.25019264
0.024724759 0.074656285 0.07 0.4048202 0 0.25019264
0.024694324 0.075338773 0.07 0.4048202 0 0.25019264
0.024663599 0.076021776 0.07 0.4048202 0 0.25019264
0.024632586 0.076705292 0.07 0.4048202 0 0.25019264
0.024601286 0.07738933 0.07 0.4048202 0 0.25019264
0.024569696 0.078073896 0.07 0.4048202 0 0.25019264
0.024537815 0.078758992 0.07 0.4048202 0 0.25019264
0.024505645 0.079444632 0.07 0.4048202 0 0.25019264
0.022337686 0.040165816 0.067555018 0.4048202 0 0.25019264
0.024686037 0.040582735 0.068683922 0.4048202 0 0.25019264
0.026350316 0.041065861 0.069486246 0.4048202 0 0.25019264
0.027410083 0.04161001 0.07 0.4048202 0 0.25019264
0.027393578 0.042271182 0.07 0.4048202 0 0.25019264
0.027376812 0.042932633 0.07 0.4048202 0 0.25019264
0.02735978 0.043594368 0.07 0.4048202 0 0.25019264
0.027342485 0.044256393 0.07 0.4048202 0 0.25019264
0.027324928 0.044918709 0.07 0.4048202 0 0.25019264
0.027307104 0.045581318 0.07 0.4048202 0 0.25019264
0.027289016 0.04624423 0.07 0.4048202 0 0.25019264
0.027270662 0.046907447 0.07 0.4048202 0 0.25019264
0.027252043 0.047570974 0.07 0.4048202 0 0.25019264
0.027233159 0.048234817 0.07 0.4048202 0 0.25019264
0.027214007 0.048898976 0.07 0.4048202 0 0.25019264
0.027194591 0.04956346 0.07 0.4048202 0 0.25019264
0.027174907 0.050228272 0.07 0.4048202 0 0.25019264
0.027154958 0.050893415 0.07 0.4048202 0 0.25019264
0.027134739 0.051558897 0.07 0.4048202 0 0.25019264
0.027114255 0.052224722 0.07 0.4048202 0 0.25019264
0.027093502 0.052890893 0.07 0.4048202 0 0.25019264
0.02707248 0.053557415 0.07 0.4048202 0 0.25019264
0.02705119 0.05422429 0.07 0.4048202 0 0.25019264
0.027029632 0.054891527 0.07 0.4048202 0 0.25019264
0.027007803 0.055559129 0.07 0.4048202 0 0.25019264
0.026985707 0.056227099 0.07 0.4048202 0 0.25019264
0.026963338 0.056895442 0.07 0.4048202 0 0.25019264
0.026940702 0.057564165 0.07 0.4048202 0 0.25019264
0.026917793 0.058233276 0.07 0.4048202 0 0.25019264
0.026894614 0.05890277 0.07 0.4048202 0 0.25019264
0.026871163 0.059572656 0.07 0.4048202 0 0.25019264
0.026847441 0.060242943 0.07 0.4048202 0 0.25019264
0.026823446 0.06091363 0.07 0.4048202 0 0.25019264
0.02679918 0.061584722 0.07 0.4048202 0 0.25019264
0.026774639 0.062256228 0.07 0.4048202 0 0.25019264
0.026749825 0.062928155 0.07 0.4048202 0 0.25019264
0.026724739 0.063600495 0.07 0.4048202 0 0.25019264
0.026699377 0.064273261 0.07 0.4048202 0 0.25019264
0.026673744 0.064946465 0.07 0.4048202 0 0.25019264
0.026647832 0.065620095 0.07 0.4048202 0 0.25019264
0.026621647 0.066294171 0.07 0.4048202 0 0.25019264
0.026595185 0.066968694 0.07 0.4048202 0 0.25019264
0.026568448 0.067643657 0.07 0.4048202 0 0.25019264
0.026541432 0.068319082 0.07 0.4048202 0 0.25019264
0.026514143 0.068994969 0.07 0.4048202 0 0.25019264
0.026486574 0.069671318 0.07 0.4048202 0 0.25019264
0.026458727 0.070348129 0.07 0.4048202 0 0.25019264
0.026430601 0.071025424 0.07 0.4048202 0 0.25019264
0.026402198 0.071703196 0.07 0.4048202 0 0.25019264
0.026373515 0.072381444 0.07 0.4048202 0 0.25019264
0.026344551 0.073060185 0.07 0.4048202 0 0.25019264
0.026315309 0.073739424 0.07 0.4048202 0 0.25019264
0.026285784 0.074419156 0.07 0.4048202 0 0.25019264
0.02625598 0.075099394 0.07 0.4048202 0 0.25019264
0.026225893 0.075780138 0.07 0.4048202 0 0.25019264
0.026195524 0.076461397 0.07 0.4048202 0 0.25019264
0.026164873 0.077143177 0.07 0.4048202 0 0.25019264
0.02613394 0.077825479 0.07 0.4048202 0 0.25019264
0.02610272 0.07850831 0.07 0.4048202 0 0.25019264
0.022511434 0.040184718 0.066896699 0.4048202 0 0.25019264
0.024800904 0.040608015 0.068001829 0.4048202 0 0.25019264
0.026435621 0.041094605 0.068793103 0.4048202 0 0.25019264
0.027802147 0.04160526 0.069455869 0.4048202 0 0.25019264
0.028921044 0.042139087 0.07 0.4048202 0 0.25019264
0.028904626 0.042798445 0.07 0.4048202 0 0.25019264
0.028887952 0.043458086 0.07 0.4048202 0 0.25019264
0.028871017 0.04411801 0.07 0.4048202 0 0.25019264
0.028853824 0.044778224 0.07 0.4048202 0 0.25019264
0.028836373 0.045438733 0.07 0.4048202 0 0.25019264
0.028818661 0.04609954 0.07 0.4048202 0 0.25019264
0.028800692 0.046760652 0.07 0.4048202 0 0.25019264
0.028782461 0.04742207 0.07 0.4048202 0 0.25019264
0.02876397 0.048083801 0.07 0.4048202 0 0.25019264
0.028745219 0.048745848 0.07 0.4048202 0 0.25019264
0.028726209 0.049408216 0.07 0.4048202 0 0.25019264
0.028706936 0.050070912 0.07 0.4048202 0 0.25019264
0.028687403 0.050733935 0.07 0.4048202 0 0.25019264
0.028667606 0.051397294 0.07 0.4048202 0 0.25019264
0.028647549 0.052060992 0.07 0.4048202 0 0.25019264
0.02862723 0.052725032 0.07 0.4048202 0 0.25019264
0.028606648 0.053389423 0.07 0.4048202 0 0.25019264
0.028585801 0.054054167 0.07 0.4048202 0 0.25019264
0.028564693 0.054719266 0.07 0.4048202 0 0.25019264
0.028543321 0.055384729 0.07 0.4048202 0 0.25019264
0.028521685 0.056050558 0.07 0.4048202 0 0.25019264
0.028499786 0.056716759 0.07 0.4048202 0 0.25019264
0.02847762 0.057383336 0.07 0.4048202 0 0.25019264
0.02845519 0.05805029 0.07 0.4048202 0 0.25019264
0.028432496 0.058717635 0.07 0.4048202 0 0.25019264
0.028409535 0.059385363 0.07 0.4048202 0 0.25019264
0.028386308 0.06005349 0.07 0.4048202 0 0.25019264
0.028362814 0.060722016 0.07 0.4048202 0 0.25019264
0.028339054 0.061390944 0.07 0.4048202 0 0.25019264
0.028315028 0.062060282 0.07 0.4048202 0 0.25019264
0.028290734 0.062730029 0.07 0.4048202 0 0.25019264
0.028266171 0.063400201 0.07 0.4048202 0 0.25019264
0.02824134 0.064070791 0.07 0.4048202 0 0.25019264
0.028216241 0.064741813 0.07 0.4048202 0 0.25019264
0.028190872 0.065413259 0.07 0.4048202 0 0.25019264
0.028165234 0.066085145 0.07 0.4048202 0 0.25019264
0.028139327 0.066757478 0.07 0.4048202 0 0.25019264
0.028113147 0.06743025 0.07 0.4048202 0 0.25019264
0.028086698 0.068103477 0.07 0.4048202 0 0.25019264
0.028059978 0.068777159 0.07 0.4048202 0 0.25019264
0.028032986 0.069451302 0.07 0.4048202 0 0.25019264
0.028005721 0.070125908 0.07 0.4048202 0 0.25019264
0.027978186 0.07080099 0.07 0.4048202 0 0.25019264
0.027950376 0.071476541 0.07 0.4048202 0 0.25019264
0.027922293 0.072152577 0.07 0.4048202 0 0.25019264
0.027893936 0.072829098 0.07 0.4048202 0 0.25019264
0.027865306 0.073506102 0.07 0.4048202 0 0.25019264
0.027836399 0.074183606 0.07 0.4048202 0 0.25019264
0.027807219 0.074861608 0.07 0.4048202 0 0.25019264
0.027777763 0.075540118 0.07 0.4048202 0 0.25019264
0.02774803 0.076219134 0.07 0.4048202 0 0.25019264
0.027718021 0.076898664 0.07 0.4048202 0 0.25019264
0.027687734 0.077578716 0.07 0.4048202 0 0.25019264
0.02765717 0.078259297 0.07 0.4048202 0 0.25019264
0.022685288 0.040203631 0.066237979 0.4048202 0 0.25019264
0.024915874 0.040633321 0.067319117 0.4048202 0 0.25019264
0.026521016 0.041123379 0.068099231 0.4048202 0 0.25019264
0.027869387 0.04163637 0.068755805 0.4048202 0 0.25019264
0.029017068 0.042167347 0.069315858 0.4048202 0 0.25019264
0.030004662 0.042712741 0.069798939 0.4048202 0 0.25019264
0.030406089 0.043322694 0.07 0.4048202 0 0.25019264
0.030389514 0.043980535 0.07 0.4048202 0 0.25019264
0.030372683 0.044638664 0.07 0.4048202 0 0.25019264
0.030355599 0.045297086 0.07 0.4048202 0 0.25019264
0.030338259 0.045955803 0.07 0.4048202 0 0.25019264
0.030320669 0.046614822 0.07 0.4048202 0 0.25019264
0.030302823 0.047274146 0.07 0.4048202 0 0.25019264
0.030284721 0.04793378 0.07 0.4048202 0 0.25019264
0.030266365 0.04859373 0.07 0.4048202 0 0.25019264
0.030247753 0.049253996 0.07 0.4048202 0 0.25019264
0.030228887 0.049914584 0.07 0.4048202 0 0.25019264
0.030209765 0.050575502 0.07 0.4048202 0 0.25019264
0.030190386 0.051236752 0.07 0.4048202 0 0.25019264
0.030170752 0.051898338 0.07 0.4048202 0 0.25019264
0.030150859 0.052560266 0.07 0.4048202 0 0.25019264
0.03013071 0.053222541 0.07 0.4048202 0 0.25019264
0.030110305 0.053885162 0.07 0.4048202 0 0.25019264
0.030089641 0.054548141 0.07 0.4048202 0 0.25019264
0.03006872 0.055211481 0.07 0.4048202 0 0.25019264
0.03004754 0.055875182 0.07 0.4048202 0 0.25019264
0.030026101 0.056539252 0.07 0.4048202 0 0.25019264
0.030004404 0.057203695 0.07 0.4048202 0 0.25019264
0.029982448 0.057868514 0.07 0.4048202 0 0.25019264
0.02996023 0.058533717 0.07 0.4048202 0 0.25019264
0.029937753 0.059199307 0.07 0.4048202 0 0.25019264
0.029915018 0.059865288 0.07 0.4048202 0 0.25019264
0.02989202 0.060531668 0.07 0.4048202 0 0.25019264
0.029868761 0.061198447 0.07 0.4048202 0 0.25019264
0.02984524 0.061865628 0.07 0.4048202 0 0.25019264
0.029821459 0.062533222 0.07 0.4048202 0 0.25019264
0.029797414 0.063201234 0.07 0.4048202 0 0.25019264
0.029773107 0.063869663 0.07 0.4048202 0 0.25019264
0.029748537 0.064538509 0.07 0.4048202 0 0.25019264
0.029723704 0.065207794 0.07 0.4048202 0 0.25019264
0.029698607 0.065877505 0.07 0.4048202 0 0.25019264
0.029673245 0.066547662 0.07 0.4048202 0 0.25019264
0.02964762 0.067218252 0.07 0.4048202 0 0.25019264
0.02962173 0.067889296 0.07 0.4048202 0 0.25019264
0.029595573 0.068560794 0.07 0.4048202 0 0.25019264
0.029569151 0.069232747 0.07 0.4048202 0 0.25019264
0.029542463 0.069905162 0.07 0.4048202 0 0.25019264
0.029515507 0.070578039 0.07 0.4048202 0 0.25019264
0.029488286 0.071251392 0.07 0.4048202 0 0.25019264
0.029460795 0.071925223 0.07 0.4048202 0 0.25019264
0.029433038 0.072599538 0.07 0.4048202 0 0.25019264
0.029405011 0.073274337 0.07 0.4048202 0 0.25019264
0.029376717 0.07394962 0.07 0.4048202 0 0.25019264
0.029348152 0.07462541 0.07 0.4048202 0 0.25019264
0.029319318 0.075301692 0.07 0.4048202 0 0.25019264
0.029290214 0.07597848 0.07 0.4048202 0 0.25019264
0.029260838 0.076655783 0.07 0.4048202 0 0.25019264
0.029231193 0.077333599 0.07 0.4048202 0 0.25019264
0.028163845 0.078227401 0.069502324 0.4048202 0 0.25019264
0.022859247 0.040222555 0.065578863 0.4048202 0 0.25019264
0.02503095 0.040658649 0.066635773 0.4048202 0 0.25019264
0.026606502 0.041152183 0.067404605 0.4048202 0 0.25019264
0.027936706 0.041667514 0.068054929 0.4048202 0 0.25019264
0.029085048 0.0421988 0.068617433 0.4048202 0 0.25019264
0.030059986 0.04274603 0.069096215 0.4048202 0 0.25019264
0.030975569 0.043296907 0.069546394 0.4048202 0 0.25019264
0.031767171 0.043859351 0.069936745 0.4048202 0 0.25019264
0.031881608 0.044500019 0.07 0.4048202 0 0.25019264
0.031864885 0.045156367 0.07 0.4048202 0 0.25019264
0.031847917 0.045813009 0.07 0.4048202 0 0.25019264
0.031830698 0.046469949 0.07 0.4048202 0 0.25019264
0.03181323 0.047127191 0.07 0.4048202 0 0.25019264
0.031795513 0.047784742 0.07 0.4048202 0 0.25019264
0.03177755 0.048442606 0.07 0.4048202 0 0.25019264
0.031759333 0.049100783 0.07 0.4048202 0 0.25019264
0.031740867 0.049759284 0.07 0.4048202 0 0.25019264
0.031722151 0.050418109 0.07 0.4048202 0 0.25019264
0.031703185 0.051077262 0.07 0.4048202 0 0.25019264
0.03168397 0.051736753 0.07 0.4048202 0 0.25019264
0.031664498 0.052396581 0.07 0.4048202 0 0.25019264
0.03164478 0.05305675 0.07 0.4048202 0 0.25019264
0.031624809 0.05371727 0.07 0.4048202 0 0.25019264
0.031604584 0.054378141 0.07 0.4048202 0 0.25019264
0.031584106 0.055039365 0.07 0.4048202 0 0.25019264
0.031563379 0.055700954 0.07 0.4048202 0 0.25019264
0.031542394 0.056362908 0.07 0.4048202 0 0.25019264
0.03152116 0.057025235 0.07 0.4048202 0 0.25019264
0.031499669 0.057687934 0.07 0.4048202 0 0.25019264
0.031477928 0.05835101 0.07 0.4048202 0 0.25019264
0.03145593 0.059014473 0.07 0.4048202 0 0.25019264
0.031433675 0.059678327 0.07 0.4048202 0 0.25019264
0.031411167 0.060342569 0.07 0.4048202 0 0.25019264
0.031388406 0.061007213 0.07 0.4048202 0 0.25019264
0.031365383 0.061672255 0.07 0.4048202 0 0.25019264
0.031342108 0.062337708 0.07 0.4048202 0 0.25019264
0.031318575 0.06300357 0.07 0.4048202 0 0.25019264
0.031294789 0.063669853 0.07 0.4048202 0 0.25019264
0.031270742 0.064336553 0.07 0.4048202 0 0.25019264
0.031246437 0.065003678 0.07 0.4048202 0 0.25019264
0.031221874 0.065671235 0.07 0.4048202 0 0.25019264
0.031197052 0.066339225 0.07 0.4048202 0 0.25019264
0.031171974 0.067007653 0.07 0.4048202 0 0.25019264
0.031146634 0.067676529 0.07 0.4048202 0 0.25019264
0.031121036 0.068345852 0.07 0.4048202 0 0.25019264
0.031095177 0.06901563 0.07 0.4048202 0 0.25019264
0.031069057 0.069685869 0.07 0.4048202 0 0.25019264
0.031042676 0.07035657 0.07 0.4048202 0 0.25019264
0.031016035 0.071027733 0.07 0.4048202 0 0.25019264
0.030989131 0.071699381 0.07 0.4048202 0 0.25019264
0.030961964 0.072371498 0.07 0.4048202 0 0.25019264
0.030934537 0.073044099 0.07 0.4048202 0 0.25019264
0.030906845 0.073717184 0.07 0.4048202 0 0.25019264
0.03087889 0.074390769 0.07 0.4048202 0 0.25019264
0.030850671 0.075064845 0.07 0.4048202 0 0.25019264
0.030822188 0.075739421 0.07 0.4048202 0 0.25019264
0.03079344 0.076414511 0.07 0.4048202 0 0.25019264
0.030107226 0.077225551 0.06968341 0.4048202 0 0.25019264
0.02787593 0.078360602 0.068622746 0.4048202 0 0.25019264
0.023033313 0.040241495 0.064919338 0.4048202 0 0.25019264
0.025146132 0.040684 0.065951802 0.4048202 0 0.25019264
0.026692081 0.04118102 0.066709235 0.4048202 0 0.25019264
0.028004104 0.041698694 0.067353226 0.4048202 0 0.25019264
0.029153107 0.042230286 0.067918181 0.4048202 0 0.25019264
0.030115379 0.042779356 0.068392612 0.4048202 0 0.25019264
0.031031547 0.043330587 0.068844758 0.4048202 0 0.25019264
0.031813528 0.043894593 0.069231883 0.4048202 0 0.25019264
0.032557983 0.044460535 0.069600888 0.4048202 0 0.25019264
0.033238094 0.04503186 0.069938757 0.4048202 0 0.25019264
0.033347733 0.045671143 0.07 0.4048202 0 0.25019264
0.033330884 0.046326015 0.07 0.4048202 0 0.25019264
0.033313792 0.046981193 0.07 0.4048202 0 0.25019264
0.033296458 0.047636673 0.07 0.4048202 0 0.25019264
0.033278879 0.048292466 0.07 0.4048202 0 0.25019264
0.033261053 0.048948571 0.07 0.4048202 0 0.25019264
0.033242982 0.049604993 0.07 0.4048202 0 0.25019264
0.033224668 0.05026174 0.07 0.4048202 0 0.25019264
0.033206109 0.050918814 0.07 0.4048202 0 0.25019264
0.033187307 0.051576219 0.07 0.4048202 0 0.25019264
0.033168256 0.05223396 0.07 0.4048202 0 0.25019264
0.033148959 0.052892044 0.07 0.4048202 0 0.25019264
0.033129416 0.053550471 0.07 0.4048202 0 0.25019264
0.033109628 0.054209247 0.07 0.4048202 0 0.25019264
0.033089589 0.054868378 0.07 0.4048202 0 0.25019264
0.033069305 0.05552787 0.07 0.4048202 0 0.25019264
0.033048775 0.056187719 0.07 0.4048202 0 0.25019264
0.033027995 0.056847941 0.07 0.4048202 0 0.25019264
0.033006966 0.057508532 0.07 0.4048202 0 0.25019264
0.032985691 0.058169503 0.07 0.4048202 0 0.25019264
0.032964166 0.05883085 0.07 0.4048202 0 0.25019264
0.032942392 0.059492588 0.07 0.4048202 0 0.25019264
0.032920364 0.06015471 0.07 0.4048202 0 0.25019264
0.032898091 0.06081723 0.07 0.4048202 0 0.25019264
0.032875568 0.061480153 0.07 0.4048202 0 0.25019264
0.032852791 0.062143475 0.07 0.4048202 0 0.25019264
0.032829765 0.06280721 0.07 0.4048202 0 0.25019264
0.032806486 0.063471355 0.07 0.4048202 0 0.25019264
0.032782957 0.064135917 0.07 0.4048202 0 0.25019264
0.032759175 0.064800903 0.07 0.4048202 0 0.25019264
0.032735143 0.065466315 0.07 0.4048202 0 0.25019264
0.032710854 0.066132158 0.07 0.4048202 0 0.25019264
0.032686315 0.066798441 0.07 0.4048202 0 0.25019264
0.03266152 0.067465164 0.07 0.4048202 0 0.25019264
0.032636471 0.068132326 0.07 0.4048202 0 0.25019264
0.032611169 0.068799943 0.07 0.4048202 0 0.25019264
0.032585613 0.069468021 0.07 0.4048202 0 0.25019264
0.032559801 0.070136555 0.07 0.4048202 0 0.25019264
0.032533731 0.07080555 0.07 0.4048202 0 0.25019264
0.032507408 0.071475014 0.07 0.4048202 0 0.25019264
0.032480825 0.072144955 0.07 0.4048202 0 0.25019264
0.032453988 0.072815374 0.07 0.4048202 0 0.25019264
0.032426894 0.073486276 0.07 0.4048202 0 0.25019264
0.032399539 0.07415767 0.07 0.4048202 0 0.25019264
0.032371927 0.074829556 0.07 0.4048202 0 0.25019264
0.032344058 0.075501941 0.07 0.4048202 0 0.25019264
0.031503733 0.076340914 0.069607116 0.4048202 0 0.25019264
0.02992402 0.077335782 0.068856776 0.4048202 0 0.25019264
0.027587127 0.078494221 0.067740463 0.4048202 0 0.25019264
0.018986683 0.040029299 0.062195841 0.4048202 0 0.25019264
0.023207489 0.040260442 0.064259402 0.4048202 0 0.25019264
0.025261421 0.040709373 0.065267198 0.4048202 0 0.25019264
0.026777754 0.041209888 0.066013113 0.4048202 0 0.25019264
0.02807158 0.041729916 0.066650696 0.4048202 0 0.25019264
0.029221246 0.042261809 0.067218117 0.4048202 0 0.25019264
0.030170839 0.042812724 0.067688145 0.4048202 0 0.25019264
0.031087594 0.043364309 0.068142258 0.4048202 0 0.25019264
0.031859946 0.043929882 0.068526104 0.4048202 0 0.25019264
0.032604914 0.044496212 0.068896703 0.4048202 0 0.25019264
0.033277236 0.045068938 0.069232002 0.4048202 0 0.25019264
0.033887647 0.045647126 0.069537237 0.4048202 0 0.25019264
0.034496248 0.046223596 0.069841683 0.4048202 0 0.25019264
0.034804612 0.046836141 0.07 0.4048202 0 0.25019264
0.034787651 0.047489569 0.07 0.4048202 0 0.25019264
0.034770451 0.048143301 0.07 0.4048202 0 0.25019264
0.034753013 0.048797347 0.07 0.4048202 0 0.25019264
0.034735337 0.049451709 0.07 0.4048202 0 0.25019264
0.034717422 0.050106391 0.07 0.4048202 0 0.25019264
0.034699265 0.050761398 0.07 0.4048202 0 0.25019264
0.034680866 0.051416732 0.07 0.4048202 0 0.25019264
0.034662232 0.052072402 0.07 0.4048202 0 0.25019264
0.034643352 0.052728411 0.07 0.4048202 0 0.25019264
0.034624234 0.053384759 0.07 0.4048202 0 0.25019264
0.034604874 0.054041456 0.07 0.4048202 0 0.25019264
0.034585271 0.054698505 0.07 0.4048202 0 0.25019264
0.034565426 0.05535591 0.07 0.4048202 0 0.25019264
0.03454534 0.056013674 0.07 0.4048202 0 0.25019264
0.034525011 0.056671802 0.07 0.4048202 0 0.25019264
0.03450444 0.057330303 0.07 0.4048202 0 0.25019264
0.034483626 0.057989173 0.07 0.4048202 0 0.25019264
0.034462567 0.058648426 0.07 0.4048202 0 0.25019264
0.034441266 0.05930806 0.07 0.4048202 0 0.25019264
0.034419719 0.05996808 0.07 0.4048202 0 0.25019264
0.03439793 0.060628492 0.07 0.4048202 0 0.25019264
0.034375891 0.061289299 0.07 0.4048202 0 0.25019264
0.03435361 0.061950512 0.07 0.4048202 0 0.25019264
0.034331087 0.062612124 0.07 0.4048202 0 0.25019264
0.034308314 0.063274153 0.07 0.4048202 0 0.25019264
0.034285296 0.063936591 0.07 0.4048202 0 0.25019264
0.034262031 0.064599454 0.07 0.4048202 0 0.25019264
0.034238517 0.065262735 0.07 0.4048202 0 0.25019264
0.034214757 0.065926448 0.07 0.4048202 0 0.25019264
0.034190752 0.066590592 0.07 0.4048202 0 0.25019264
0.034166496 0.067255177 0.07 0.4048202 0 0.25019264
0.034141991 0.067920201 0.07 0.4048202 0 0.25019264
0.034117237 0.068585671 0.07 0.4048202 0 0.25019264
0.034092236 0.069251597 0.07 0.4048202 0 0.25019264
0.034066986 0.069917977 0.07 0.4048202 0 0.25019264
0.034041483 0.070584819 0.07 0.4048202 0 0.25019264
0.03401573 0.071252123 0.07 0.4048202 0 0.25019264
0.033989727 0.071919903 0.07 0.4048202 0 0.25019264
0.033963472 0.072588153 0.07 0.4048202 0 0.25019264
0.033936966 0.073256887 0.07 0.4048202 0 0.25019264
0.033910207 0.073926106 0.07 0.4048202 0 0.25019264
0.033563234 0.07466016 0.069844566 0.4048202 0 0.25019264
0.03257611 0.075525686 0.069378339 0.4048202 0 0.25019264
0.03137479 0.076438941 0.068808258 0.4048202 0 0.25019264
0.02974035 0.077446289 0.06802804 0.4048202 0 0.25019264
0.027194504 0.078649685 0.06680546 0.4048202 0 0.25019264
0.019344382 0.040029299 0.061617073 0.4048202 0 0.25019264
0.023331819 0.040284678 0.063574612 0.4048202 0 0.25019264
0.025369922 0.040735513 0.064578578 0.4048202 0 0.25019264
0.026863517 0.041238789 0.065316238 0.4048202 0 0.25019264
0.028139137 0.041761171 0.065947339 0.4048202 0 0.25019264
0.029289464 0.042293373 0.066517226 0.4048202 0 0.25019264
0.03022637 0.042846136 0.066982798 0.4048202 0 0.25019264
0.03114371 0.043398075 0.067438878 0.4048202 0 0.25019264
0.031906426 0.043965213 0.067819417 0.4048202 0 0.25019264
0.032651905 0.044531934 0.068191618 0.4048202 0 0.25019264
0.03331643 0.045106065 0.068524309 0.4048202 0 0.25019264
0.033927284 0.045684669 0.06883084 0.4048202 0 0.25019264
0.034533426 0.046261925 0.069135159 0.4048202 0 0.25019264
0.035033546 0.046850685 0.069387726 0.4048202 0 0.25019264
0.035532478 0.047438055 0.069639802 0.4048202 0 0.25019264
0.036010139 0.048026647 0.069881566 0.4048202 0 0.25019264
0.036235321 0.048647102 0.07 0.4048202 0 0.25019264
0.036218032 0.049299415 0.07 0.4048202 0 0.25019264
0.036200508 0.049952045 0.07 0.4048202 0 0.25019264
0.03618275 0.050604999 0.07 0.4048202 0 0.25019264
0.036164757 0.051258277 0.07 0.4048202 0 0.25019264
0.036146525 0.051911891 0.07 0.4048202 0 0.25019264
0.036128063 0.052565835 0.07 0.4048202 0 0.25019264
0.036109362 0.053220123 0.07 0.4048202 0 0.25019264
0.036090426 0.053874753 0.07 0.4048202 0 0.25019264
0.036071252 0.05452973 0.07 0.4048202 0 0.25019264
0.036051843 0.055185065 0.07 0.4048202 0 0.25019264
0.0360322 0.055840757 0.07 0.4048202 0 0.25019264
0.036012314 0.056496806 0.07 0.4048202 0 0.25019264
0.035992194 0.057153229 0.07 0.4048202 0 0.25019264
0.035971835 0.057810016 0.07 0.4048202 0 0.25019264
0.035951238 0.058467183 0.07 0.4048202 0 0.25019264
0.035930403 0.059124727 0.07 0.4048202 0 0.25019264
0.035909329 0.059782658 0.07 0.4048202 0 0.25019264
0.035888016 0.060440976 0.07 0.4048202 0 0.25019264
0.035866465 0.061099689 0.07 0.4048202 0 0.25019264
0.035844672 0.061758801 0.07 0.4048202 0 0.25019264
0.035822641 0.062418312 0.07 0.4048202 0 0.25019264
0.035800368 0.063078232 0.07 0.4048202 0 0.25019264
0.035777856 0.063738562 0.07 0.4048202 0 0.25019264
0.035755098 0.064399309 0.07 0.4048202 0 0.25019264
0.035732102 0.065060481 0.07 0.4048202 0 0.25019264
0.035708863 0.065722078 0.07 0.4048202 0 0.25019264
0.035685383 0.066384099 0.07 0.4048202 0 0.25019264
0.03566166 0.06704656 0.07 0.4048202 0 0.25019264
0.035637695 0.067709453 0.07 0.4048202 0 0.25019264
0.035613485 0.068372793 0.07 0.4048202 0 0.25019264
0.035589032 0.069036581 0.07 0.4048202 0 0.25019264
0.035564337 0.06970083 0.07 0.4048202 0 0.25019264
0.035539392 0.070365526 0.07 0.4048202 0 0.25019264
0.035514206 0.071030691 0.07 0.4048202 0 0.25019264
0.035488773 0.071696319 0.07 0.4048202 0 0.25019264
0.035463095 0.072362423 0.07 0.4048202 0 0.25019264
0.035074908 0.073100619 0.06982328 0.4048202 0 0.25019264
0.034359638 0.073905803 0.069487162 0.4048202 0 0.25019264
0.033469308 0.074749127 0.069065824 0.4048202 0 0.25019264
0.032448865 0.075622417 0.068581209 0.4048202 0 0.25019264
0.031245554 0.076537184 0.068007603 0.4048202 0 0.25019264
0.029556211 0.077557079 0.067197196 0.4048202 0 0.25019264
0.026619466 0.078843452 0.065778792 0.4048202 0 0.25019264
0.019701969 0.040029299 0.061038483 0.4048202 0 0.25019264
0.023446647 0.040309951 0.062884495 0.4048202 0 0.25019264
0.025455056 0.040764198 0.063877761 0.4048202 0 0.25019264
0.026949376 0.041267715 0.064618595 0.4048202 0 0.25019264
0.028206775 0.041792464 0.06524314 0.4048202 0 0.25019264
0.029357765 0.042324971 0.065815501 0.4048202 0 0.25019264
0.030281968 0.042879589 0.066276565 0.4048202 0 0.25019264
0.031199897 0.043431882 0.066734627 0.4048202 0 0.25019264
0.031952962 0.044000592 0.067111813 0.4048202 0 0.25019264
0.032698955 0.044567704 0.067485616 0.4048202 0 0.25019264
0.033355676 0.045143239 0.067815661 0.4048202 0 0.25019264
0.033966977 0.045722265 0.068123497 0.4048202 0 0.25019264
0.034566469 0.046300825 0.068425626 0.4048202 0 0.25019264
0.03506697 0.046890035 0.068679243 0.4048202 0 0.25019264
0.035566282 0.047477849 0.068932369 0.4048202 0 0.25019264
0.036037982 0.048067719 0.069172032 0.4048202 0 0.25019264
0.036442898 0.048664965 0.069379002 0.4048202 0 0.25019264
0.036847066 0.049261104 0.069585703 0.4048202 0 0.25019264
0.037227426 0.04985927 0.069780812 0.4048202 0 0.25019264
0.037548307 0.050464496 0.069946818 0.4048202 0 0.25019264
0.03763907 0.051100846 0.07 0.4048202 0 0.25019264
0.037621245 0.051752411 0.07 0.4048202 0 0.25019264
0.037603188 0.052404311 0.07 0.4048202 0 0.25019264
0.037584905 0.053056546 0.07 0.4048202 0 0.25019264
0.037566386 0.053709123 0.07 0.4048202 0 0.25019264
0.037547637 0.054362047 0.07 0.4048202 0 0.25019264
0.03752866 0.055015326 0.07 0.4048202 0 0.25019264
0.037509449 0.055668954 0.07 0.4048202 0 0.25019264
0.037490007 0.056322943 0.07 0.4048202 0 0.25019264
0.03747033 0.056977298 0.07 0.4048202 0 0.25019264
0.037450422 0.057632018 0.07 0.4048202 0 0.25019264
0.037430283 0.058287114 0.07 0.4048202 0 0.25019264
0.037409909 0.058942586 0.07 0.4048202 0 0.25019264
0.037389301 0.059598438 0.07 0.4048202 0 0.25019264
0.037368461 0.060254678 0.07 0.4048202 0 0.25019264
0.037347388 0.060911309 0.07 0.4048202 0 0.25019264
0.037326079 0.061568331 0.07 0.4048202 0 0.25019264
0.037304532 0.062225755 0.07 0.4048202 0 0.25019264
0.037282754 0.062883586 0.07 0.4048202 0 0.25019264
0.037260741 0.063541822 0.07 0.4048202 0 0.25019264
0.03723849 0.064200468 0.07 0.4048202 0 0.25019264
0.037216004 0.064859539 0.07 0.4048202 0 0.25019264
0.03719328 0.065519027 0.07 0.4048202 0 0.25019264
0.037170321 0.066178948 0.07 0.4048202 0 0.25019264
0.037147123 0.066839293 0.07 0.4048202 0 0.25019264
0.037123688 0.067500077 0.07 0.4048202 0 0.25019264
0.037100013 0.068161301 0.07 0.4048202 0 0.25019264
0.037076104 0.068822972 0.07 0.4048202 0 0.25019264
0.037051953 0.069485091 0.07 0.4048202 0 0.25019264
0.037027568 0.070147663 0.07 0.4048202 0 0.25019264
0.036767684 0.070855983 0.069884747 0.4048202 0 0.25019264
0.036253046 0.071615063 0.069644839 0.4048202 0 0.25019264
0.03568051 0.07238768 0.069376715 0.4048202 0 0.25019264
0.035004858 0.073183082 0.069058239 0.4048202 0 0.25019264
0.034266826 0.073993713 0.068709381 0.4048202 0 0.25019264
0.033375189 0.074838281 0.068285458 0.4048202 0 0.25019264
0.032321334 0.075719364 0.067782283 0.4048202 0 0.25019264
0.031072985 0.07664448 0.067184061 0.4048202 0 0.25019264
0.029371602 0.077668153 0.066364229 0.4048202 0 0.25019264
0.026041768 0.079038113 0.064747371 0.4048202 0 0.25019264
0.020059448 0.040029299 0.060460068 0.4048202 0 0.25019264
0.023561586 0.040335249 0.062193714 0.4048202 0 0.25019264
0.025540285 0.040792916 0.063176163 0.4048202 0 0.25019264
0.027035329 0.04129668 0.063920185 0.4048202 0 0.25019264
0.028274491 0.041823793 0.064538106 0.4048202 0 0.25019264
0.029414872 0.042357881 0.065107383 0.4048202 0 0.25019264
0.030337639 0.042913083 0.065569445 0.4048202 0 0.25019264
0.031250283 0.043466412 0.066026598 0.4048202 0 0.25019264
0.031999562 0.04403602 0.066403285 0.4048202 0 0.25019264
0.032746069 0.044603519 0.06677869 0.4048202 0 0.25019264
0.033394977 0.045180462 0.067106068 0.4048202 0 0.25019264
0.034006722 0.045759913 0.067415208 0.4048202 0 0.25019264
0.034599561 0.04633978 0.067715116 0.4048202 0 0.25019264
0.035100441 0.046929441 0.067969792 0.4048202 0 0.25019264
0.035600133 0.047517702 0.068223968 0.4048202 0 0.25019264
0.036065865 0.048108846 0.068461493 0.4048202 0 0.25019264
0.036471102 0.048706565 0.068669297 0.4048202 0 0.25019264
0.036875587 0.049303174 0.068876825 0.4048202 0 0.25019264
0.037250403 0.04990261 0.069069825 0.4048202 0 0.25019264
0.037571546 0.050508332 0.069236472 0.4048202 0 0.25019264
0.037892245 0.051113211 0.069403 0.4048202 0 0.25019264
0.038198147 0.051719274 0.069562331 0.4048202 0 0.25019264
0.038442783 0.052333247 0.069691569 0.4048202 0 0.25019264
0.038687184 0.052946627 0.069820791 0.4048202 0 0.25019264
0.038931351 0.053559419 0.069949999 0.4048202 0 0.25019264
0.039014526 0.054195445 0.07 0.4048202 0 0.25019264
0.03899597 0.054846674 0.07 0.4048202 0 0.25019264
0.038977191 0.055498257 0.07 0.4048202 0 0.25019264
0.038958184 0.056150198 0.07 0.4048202 0 0.25019264
0.038938947 0.0568025 0.07 0.4048202 0 0.25019264
0.038919486 0.057455167 0.07 0.4048202 0 0.25019264
0.038899798 0.058108203 0.07 0.4048202 0 0.25019264
0.038879879 0.058761615 0.07 0.4048202 0 0.25019264
0.038859732 0.059415404 0.07 0.4048202 0 0.25019264
0.038839359 0.06006958 0.07 0.4048202 0 0.25019264
0.038818758 0.060724139 0.07 0.4048202 0 0.25019264
0.038797926 0.061379094 0.07 0.4048202 0 0.25019264
0.038776863 0.062034443 0.07 0.4048202 0 0.25019264
0.038755573 0.062690191 0.07 0.4048202 0 0.25019264
0.038734052 0.063346349 0.07 0.4048202 0 0.25019264
0.0387123 0.064002916 0.07 0.4048202 0 0.25019264
0.038690317 0.064659894 0.07 0.4048202 0 0.25019264
0.038668104 0.065317295 0.07 0.4048202 0 0.25019264
0.038645655 0.065975115 0.07 0.4048202 0 0.25019264
0.038622979 0.066633366 0.07 0.4048202 0 0.25019264
0.038591452 0.067293637 0.069995761 0.4048202 0 0.25019264
0.038309701 0.068000756 0.06986852 0.4048202 0 0.25019264
0.037981819 0.068717837 0.069718726 0.4048202 0 0.25019264
0.037594926 0.06944757 0.069540031 0.4048202 0 0.25019264
0.037207026 0.070179209 0.069360971 0.4048202 0 0.25019264
0.036715832 0.070932463 0.069131255 0.4048202 0 0.25019264
0.036200553 0.071692489 0.068889834 0.4048202 0 0.25019264
0.035611231 0.072469234 0.068612143 0.4048202 0 0.25019264
0.03493467 0.073265709 0.068291709 0.4048202 0 0.25019264
0.034173824 0.074081801 0.067929983 0.4048202 0 0.25019264
0.033280872 0.074927613 0.067503475 0.4048202 0 0.25019264
0.032193512 0.075816534 0.066981547 0.4048202 0 0.25019264
0.030891221 0.07675384 0.066354148 0.4048202 0 0.25019264
0.029087704 0.077799976 0.065480553 0.4048202 0 0.25019264
0.025461387 0.079233676 0.063711166 0.4048202 0 0.25019264
0.02041682 0.040029299 0.059881829 0.4048202 0 0.25019264
0.023676632 0.04036057 0.061502274 0.4048202 0 0.25019264
0.025625607 0.040821664 0.062473796 0.4048202 0 0.25019264
0.027121376 0.041325673 0.063221008 0.4048202 0 0.25019264
0.028342292 0.04185516 0.063832223 0.4048202 0 0.25019264
0.029470017 0.042391062 0.064397372 0.4048202 0 0.25019264
0.030393379 0.042946622 0.064861432 0.4048202 0 0.25019264
0.031296425 0.043501489 0.065315515 0.4048202 0 0.25019264
0.032046221 0.044071488 0.065693825 0.4048202 0 0.25019264
0.032793242 0.044639383 0.06607084 0.4048202 0 0.25019264
0.033434331 0.045217738 0.066395514 0.4048202 0 0.25019264
0.03404652 0.045797609 0.066705965 0.4048202 0 0.25019264
0.034632698 0.046378788 0.06700363 0.4048202 0 0.25019264
0.035133958 0.0469689 0.067259356 0.4048202 0 0.25019264
0.03563403 0.047557607 0.067514583 0.4048202 0 0.25019264
0.036093786 0.048150029 0.067749955 0.4048202 0 0.25019264
0.036499344 0.048748221 0.067958593 0.4048202 0 0.25019264
0.036904149 0.049345303 0.068166956 0.4048202 0 0.25019264
0.037273414 0.04994601 0.068357825 0.4048202 0 0.25019264
0.037594821 0.050552227 0.068525106 0.4048202 0 0.25019264
0.037915781 0.051157601 0.068692267 0.4048202 0 0.25019264
0.038216349 0.051764954 0.068849429 0.4048202 0 0.25019264
0.038461193 0.052379448 0.068979122 0.4048202 0 0.25019264
0.0387058 0.052993346 0.069108799 0.4048202 0 0.25019264
0.038950171 0.053606655 0.069238462 0.4048202 0 0.25019264
0.039124064 0.0542298 0.069333352 0.4048202 0 0.25019264
0.039297003 0.054852717 0.069427885 0.4048202 0 0.25019264
0.039469846 0.055475287 0.069522463 0.4048202 0 0.25019264
0.039598592 0.056104276 0.069595337 0.4048202 0 0.25019264
0.03970233 0.05673695 0.069655947 0.4048202 0 0.25019264
0.039806049 0.057369519 0.069716655 0.4048202 0 0.25019264
0.039891865 0.058004834 0.069768608 0.4048202 0 0.25019264
0.039926741 0.058648296 0.069795489 0.4048202 0 0.25019264
0.039961621 0.059291903 0.069822475 0.4048202 0 0.25019264
0.039996512 0.059935659 0.069849573 0.4048202 0 0.25019264
0.039968017 0.060590096 0.069845453 0.4048202 0 0.25019264
0.039932463 0.061246097 0.06983795 0.4048202 0 0.25019264
0.039896887 0.061902516 0.069830552 0.4048202 0 0.25019264
0.039816454 0.062567033 0.069801092 0.4048202 0 0.25019264
0.039706562 0.063237227 0.069757193 0.4048202 0 0.25019264
0.039596558 0.06390813 0.069713354 0.4048202 0 0.25019264
0.039452925 0.064585663 0.069653012 0.4048202 0 0.25019264
0.039262265 0.065272413 0.06956955 0.4048202 0 0.25019264
0.039071314 0.065960191 0.069486074 0.4048202 0 0.25019264
0.038845815 0.066655256 0.069385648 0.4048202 0 0.25019264
0.038564317 0.067361735 0.069257684 0.4048202 0 0.25019264
0.038282257 0.068069637 0.069129571 0.4048202 0 0.25019264
0.037943862 0.06878943 0.068973757 0.4048202 0 0.25019264
0.037556518 0.069520019 0.0687939 0.4048202 0 0.25019264
0.03716816 0.070252508 0.068613686 0.4048202 0 0.25019264
0.036663886 0.071009085 0.068376355 0.4048202 0 0.25019264
0.036147963 0.071770065 0.068133421 0.4048202 0 0.25019264
0.035541818 0.072550952 0.067846075 0.4048202 0 0.25019264
0.034864347 0.0733485 0.067523673 0.4048202 0 0.25019264
0.034080628 0.074170083 0.067148969 0.4048202 0 0.25019264
0.033186361 0.075017139 0.066719845 0.4048202 0 0.25019264
0.032065403 0.075913928 0.066179 0.4048202 0 0.25019264
0.030708993 0.076863483 0.065522119 0.4048202 0 0.25019264
0.028801067 0.077932589 0.064593218 0.4048202 0 0.25019264
0.020774087 0.040029299 0.059303761 0.4048202 0 0.25019264
0.02379179 0.040385913 0.060810175 0.4048202 0 0.25019264
0.025711024 0.040850449 0.06177064 0.4048202 0 0.25019264
0.02720752 0.041354701 0.062521055 0.4048202 0 0.25019264
0.028410172 0.041886564 0.063125484 0.4048202 0 0.25019264
0.029525233 0.042424284 0.063686453 0.4048202 0 0.25019264
0.030449189 0.042980202 0.064152524 0.4048202 0 0.25019264
0.031342629 0.043536615 0.0646035 0.4048202 0 0.25019264
0.032092944 0.044107009 0.064983435 0.4048202 0 0.25019264
0.032840479 0.044675291 0.065362066 0.4048202 0 0.25019264
0.033473738 0.045255065 0.065683991 0.4048202 0 0.25019264
0.034086373 0.045835357 0.06599576 0.4048202 0 0.25019264
0.034665879 0.046417851 0.066291146 0.4048202 0 0.25019264
0.035167523 0.047008414 0.066547938 0.4048202 0 0.25019264
0.035667975 0.047597568 0.066804223 0.4048202 0 0.25019264
0.036121748 0.048191272 0.067037404 0.4048202 0 0.25019264
0.036527626 0.048789941 0.067246884 0.4048202 0 0.25019264
0.036932752 0.049387492 0.067456074 0.4048202 0 0.25019264
0.037296459 0.049989473 0.06764479 0.4048202 0 0.25019264
0.037618127 0.050596189 0.067812711 0.4048202 0 0.25019264
0.037939351 0.051202059 0.067980506 0.4048202 0 0.25019264
0.038234577 0.0518107 0.068135478 0.4048202 0 0.25019264
0.038479626 0.052425712 0.068265632 0.4048202 0 0.25019264
0.038724441 0.053040132 0.068395764 0.4048202 0 0.25019264
0.038964383 0.053654641 0.068523571 0.4048202 0 0.25019264
0.039137572 0.054278456 0.068618327 0.4048202 0 0.25019264
0.039310664 0.05490192 0.068713136 0.4048202 0 0.25019264
0.039483659 0.055525035 0.068807989 0.4048202 0 0.25019264
0.039606977 0.056155432 0.068878286 0.4048202 0 0.25019264
0.039710812 0.056788679 0.068939008 0.4048202 0 0.25019264
0.039814625 0.057421822 0.068999827 0.4048202 0 0.25019264
0.039894782 0.058058623 0.069049001 0.4048202 0 0.25019264
0.039929688 0.058702689 0.069075815 0.4048202 0 0.25019264
0.039964601 0.059346903 0.069102742 0.4048202 0 0.25019264
0.039999526 0.059991263 0.06912978 0.4048202 0 0.25019264
0.039964914 0.060647335 0.069122419 0.4048202 0 0.25019264
0.039929327 0.061303973 0.069114678 0.4048202 0 0.25019264
0.039893717 0.061961029 0.069107033 0.4048202 0 0.25019264
0.039806567 0.062627345 0.06907393 0.4048202 0 0.25019264
0.039696563 0.063298218 0.069029599 0.4048202 0 0.25019264
0.039586443 0.063969798 0.068985328 0.4048202 0 0.25019264
0.039435245 0.064649343 0.068920791 0.4048202 0 0.25019264
0.039244384 0.065336809 0.068836689 0.4048202 0 0.25019264
0.039053235 0.066025324 0.068752572 0.4048202 0 0.25019264
0.038818948 0.066722684 0.068647176 0.4048202 0 0.25019264
0.038537141 0.067429945 0.068518333 0.4048202 0 0.25019264
0.03825476 0.068138637 0.068389334 0.4048202 0 0.25019264
0.037905842 0.068861142 0.068227462 0.4048202 0 0.25019264
0.037518039 0.069592588 0.068046443 0.4048202 0 0.25019264
0.037126705 0.070326425 0.0678638 0.4048202 0 0.25019264
0.03661184 0.071085848 0.067620046 0.4048202 0 0.25019264
0.036095273 0.071847774 0.067375593 0.4048202 0 0.25019264
0.035472266 0.072632834 0.067078508 0.4048202 0 0.25019264
0.034793884 0.073431455 0.066754125 0.4048202 0 0.25019264
0.033987235 0.074258544 0.066366315 0.4048202 0 0.25019264
0.033091649 0.075106852 0.065934584 0.4048202 0 0.25019264
0.031936999 0.076011539 0.06537462 0.4048202 0 0.25019264
0.030526297 0.076973408 0.064687945 0.4048202 0 0.25019264
0.028513536 0.078065611 0.063703112 0.4048202 0 0.25019264
0.021106519 0.04003188 0.058713514 0.4048202 0 0.25019264
0.02390706 0.040411286 0.060117401 0.4048202 0 0.25019264
0.025796536 0.040879261 0.061066698 0.4048202 0 0.25019264
0.027293758 0.041383758 0.061820317 0.4048202 0 0.25019264
0.028478136 0.04191801 0.062417895 0.4048202 0 0.25019264
0.02958052 0.042457547 0.062974632 0.4048202 0 0.25019264
0.03050507 0.043013822 0.063442707 0.4048202 0 0.25019264
0.031388894 0.043571785 0.063890539 0.4048202 0 0.25019264
0.03213973 0.044142574 0.064272106 0.4048202 0 0.25019264
0.032887779 0.044711247 0.064652354 0.4048202 0 0.25019264
0.033513196 0.045292441 0.064971507 0.4048202 0 0.25019264
0.034126278 0.045873158 0.065284587 0.4048202 0 0.25019264
0.034699108 0.04645697 0.065577671 0.4048202 0 0.25019264
0.035201136 0.04704798 0.065835528 0.4048202 0 0.25019264
0.035701968 0.047637586 0.066092871 0.4048202 0 0.25019264
0.036149751 0.048232574 0.066323839 0.4048202 0 0.25019264
0.03655595 0.048831716 0.066534162 0.4048202 0 0.25019264
0.036961395 0.049429744 0.066744186 0.4048202 0 0.25019264
0.037319534 0.050032999 0.066930719 0.4048202 0 0.25019264
0.037641469 0.050640214 0.067099281 0.4048202 0 0.25019264
0.037962954 0.05124658 0.067267716 0.4048202 0 0.25019264
0.038252831 0.051856514 0.067420475 0.4048202 0 0.25019264
0.038498089 0.052472048 0.067551084 0.4048202 0 0.25019264
0.038743112 0.053086989 0.06768167 0.4048202 0 0.25019264
0.038977761 0.053702824 0.067807183 0.4048202 0 0.25019264
0.039151099 0.054327186 0.067902222 0.4048202 0 0.25019264
0.039324343 0.054951195 0.067997307 0.4048202 0 0.25019264
0.039497491 0.055574857 0.06809245 0.4048202 0 0.25019264
0.039615378 0.056206662 0.068160139 0.4048202 0 0.25019264
0.039719306 0.056840487 0.068220973 0.4048202 0 0.25019264
0.039823215 0.057474203 0.068281896 0.4048202 0 0.25019264
0.039897699 0.058112502 0.068328261 0.4048202 0 0.25019264
0.039932638 0.058757171 0.068355016 0.4048202 0 0.25019264
0.039967589 0.059401985 0.068381883 0.4048202 0 0.25019264
0.03999741 0.060047798 0.068406299 0.4048202 0 0.25019264
0.039961807 0.060704663 0.068398222 0.4048202 0 0.25019264
0.039926186 0.061361942 0.068390243 0.4048202 0 0.25019264
0.039890539 0.062019639 0.06838236 0.4048202 0 0.25019264
0.039796662 0.062687747 0.068345577 0.4048202 0 0.25019264
0.039686546 0.063359305 0.068300813 0.4048202 0 0.25019264
0.039576314 0.064031571 0.06825611 0.4048202 0 0.25019264
0.039417539 0.06471312 0.068187334 0.4048202 0 0.25019264
0.039226476 0.065401323 0.068102598 0.4048202 0 0.25019264
0.039035123 0.066090561 0.068017833 0.4048202 0 0.25019264
0.038792033 0.066790231 0.067907423 0.4048202 0 0.25019264
0.038509913 0.067498282 0.067777701 0.4048202 0 0.25019264
0.038227219 0.068207756 0.067647815 0.4048202 0 0.25019264
0.037867747 0.068932988 0.067479827 0.4048202 0 0.25019264
