# .PCD v0.7 - Point Cloud Data file format
VERSION 0.7
FIELDS x y z vp_x vp_y vp_z
SIZE 4 4 4 4 4 4
TYPE F F F F F F
COUNT 1 1 1 1 1 1
WIDTH 794
HEIGHT 1
VIEWPOINT 0 0 0 1 0 0 0
POINTS 794
DATA ascii
1.110223e-16 0.02624595 0.010871102 -0.4048202 0 0.25019264
0 0.025505183 0.010870174 -0.4048202 0 0.25019264
0 0.024764542 0.010869271 -0.4048202 0 0.25019264
5.5511151e-17 0.024024019 0.010868397 -0.4048202 0 0.25019264
0 0.023283614 0.010867548 -0.4048202 0 0.25019264
5.5511151e-17 0.02254332 0.010866726 -0.4048202 0 0.25019264
5.5511151e-17 0.021803139 0.01086593 -0.4048202 0 0.25019264
5.5511151e-17 0.021063061 0.010865162 -0.4048202 0 0.25019264
1.110223e-16 0.020323087 0.01086442 -0.4048202 0 0.25019264
0 0.01958321 0.010863705 -0.4048202 0 0.25019264
5.5511151e-17 0.018843429 0.010863015 -0.4048202 0 0.25019264
1.110223e-16 0.018103739 0.010862353 -0.4048202 0 0.25019264
5.5511151e-17 0.017364137 0.010861717 -0.4048202 0 0.25019264
0 0.01662462 0.010861108 -0.4048202 0 0.25019264
5.5511151e-17 0.015885184 0.010860525 -0.4048202 0 0.25019264
1.110223e-16 0.015145823 0.010859969 -0.4048202 0 0.25019264
5.5511151e-17 0.014406537 0.010859439 -0.4048202 0 0.25019264
5.5511151e-17 0.013667321 0.010858936 -0.4048202 0 0.25019264
5.5511151e-17 0.01292817 0.010858459 -0.4048202 0 0.25019264
5.5511151e-17 0.012189083 0.01085801 -0.4048202 0 0.25019264
0 0.011450055 0.010857586 -0.4048202 0 0.25019264
1.110223e-16 0.010711082 0.010857189 -0.4048202 0 0.25019264
5.5511151e-17 0.0099721607 0.010856818 -0.4048202 0 0.25019264
5.5511151e-17 0.0092332885 0.010856474 -0.4048202 0 0.25019264
5.5511151e-17 0.008494461 0.010856156 -0.4048202 0 0.25019264
5.5511151e-17 0.0077556744 0.010855866 -0.4048202 0 0.25019264
5.5511151e-17 0.0070169251 0.010855601 -0.4048202 0 0.25019264
5.5511151e-17 0.0062782103 0.010855363 -0.4048202 0 0.25019264
5.5511151e-17 0.0055395258 0.010855151 -0.4048202 0 0.25019264
5.5511151e-17 0.0048008678 0.010854966 -0.4048202 0 0.25019264
5.5511151e-17 0.0040622335 0.010854807 -0.4048202 0 0.25019264
5.5511151e-17 0.0033236188 0.010854675 -0.4048202 0 0.25019264
0 0.0025850201 0.010854568 -0.4048202 0 0.25019264
5.5511151e-17 0.001846434 0.010854489 -0.4048202 0 0.25019264
5.5511151e-17 0.0011078569 0.010854436 -0.4048202 0 0.25019264
0 0.000369285 0.01085441 -0.4048202 0 0.25019264
5.5511151e-17 0.079463601 0.010135379 -0.4048202 0 0.25019264
5.5511151e-17 0.078703791 0.010132733 -0.4048202 0 0.25019264
5.5511151e-17 0.077944376 0.010130114 -0.4048202 0 0.25019264
5.5511151e-17 0.077185348 0.010127521 -0.4048202 0 0.25019264
1.110223e-16 0.076426707 0.010124953 -0.4048202 0 0.25019264
5.5511151e-17 0.075668447 0.010122413 -0.4048202 0 0.25019264
5.5511151e-17 0.074910559 0.010119897 -0.4048202 0 0.25019264
0 0.074153043 0.010117408 -0.4048202 0 0.25019264
5.5511151e-17 0.0733959 0.010114945 -0.4048202 0 0.25019264
0 0.072639123 0.010112507 -0.4048202 0 0.25019264
5.5511151e-17 0.071882702 0.010110095 -0.4048202 0 0.25019264
1.110223e-16 0.07112664 0.010107709 -0.4048202 0 0.25019264
5.5511151e-17 0.070370935 0.010105349 -0.4048202 0 0.25019264
5.5511151e-17 0.069615573 0.010103015 -0.4048202 0 0.25019264
1.110223e-16 0.068860561 0.010100706 -0.4048202 0 0.25019264
5.5511151e-17 0.068105884 0.010098424 -0.4048202 0 0.25019264
1.110223e-16 0.06735155 0.010096166 -0.4048202 0 0.25019264
0 0.066597544 0.010093935 -0.4048202 0 0.25019264
0 0.065843873 0.010091729 -0.4048202 0 0.25019264
0 0.065090522 0.010089548 -0.4048202 0 0.25019264
1.110223e-16 0.064337499 0.010087393 -0.4048202 0 0.25019264
5.5511151e-17 0.06358479 0.010085263 -0.4048202 0 0.25019264
5.5511151e-17 0.0628324 0.010083159 -0.4048202 0 0.25019264
0 0.062080313 0.010081082 -0.4048202 0 0.25019264
5.5511151e-17 0.061328538 0.010079028 -0.4048202 0 0.25019264
5.5511151e-17 0.060577065 0.010077001 -0.4048202 0 0.25019264
0 0.059825886 0.010074998 -0.4048202 0 0.25019264
5.5511151e-17 0.059075009 0.010073022 -0.4048202 0 0.25019264
5.5511151e-17 0.058324419 0.01007107 -0.4048202 0 0.25019264
5.5511151e-17 0.057574116 0.010069144 -0.4048202 0 0.25019264
5.5511151e-17 0.056824099 0.010067243 -0.4048202 0 0.25019264
5.5511151e-17 0.056074359 0.010065367 -0.4048202 0 0.25019264
5.5511151e-17 0.055324897 0.010063518 -0.4048202 0 0.25019264
5.5511151e-17 0.054575704 0.010061692 -0.4048202 0 0.25019264
5.5511151e-17 0.053826783 0.010059892 -0.4048202 0 0.25019264
0 0.053078126 0.010058118 -0.4048202 0 0.25019264
5.5511151e-17 0.05232973 0.010056368 -0.4048202 0 0.25019264
1.110223e-16 0.051581591 0.010054643 -0.4048202 0 0.25019264
5.5511151e-17 0.050833702 0.010052945 -0.4048202 0 0.25019264
0 0.050086066 0.01005127 -0.4048202 0 0.25019264
5.5511151e-17 0.049338676 0.010049621 -0.4048202 0 0.25019264
5.5511151e-17 0.048591528 0.010047997 -0.4048202 0 0.25019264
0 0.047844615 0.010046398 -0.4048202 0 0.25019264
5.5511151e-17 0.04709794 0.010044823 -0.4048202 0 0.25019264
5.5511151e-17 0.046351492 0.010043275 -0.4048202 0 0.25019264
5.5511151e-17 0.045605276 0.010041751 -0.4048202 0 0.25019264
5.5511151e-17 0.044859283 0.010040252 -0.4048202 0 0.25019264
5.5511151e-17 0.044113506 0.010038777 -0.4048202 0 0.25019264
5.5511151e-17 0.043367945 0.010037328 -0.4048202 0 0.25019264
5.5511151e-17 0.0426226 0.010035904 -0.4048202 0 0.25019264
0 0.04187746 0.010034504 -0.4048202 0 0.25019264
5.5511151e-17 0.041132528 0.01003313 -0.4048202 0 0.25019264
5.5511151e-17 0.040387794 0.01003178 -0.4048202 0 0.25019264
5.5511151e-17 0.039643258 0.010030455 -0.4048202 0 0.25019264
5.5511151e-17 0.038898919 0.010029155 -0.4048202 0 0.25019264
1.110223e-16 0.038154766 0.01002788 -0.4048202 0 0.25019264
5.5511151e-17 0.037410803 0.010026629 -0.4048202 0 0.25019264
5.5511151e-17 0.036667019 0.010025403 -0.4048202 0 0.25019264
0 0.035923418 0.010024202 -0.4048202 0 0.25019264
5.5511151e-17 0.035179988 0.010023026 -0.4048202 0 0.25019264
5.5511151e-17 0.034436733 0.010021875 -0.4048202 0 0.25019264
5.5511151e-17 0.033693645 0.010020748 -0.4048202 0 0.25019264
5.5511151e-17 0.032950718 0.010019646 -0.4048202 0 0.25019264
5.5511151e-17 0.032207955 0.010018568 -0.4048202 0 0.25019264
5.5511151e-17 0.031465352 0.010017516 -0.4048202 0 0.25019264
0 0.030722897 0.010016488 -0.4048202 0 0.25019264
5.5511151e-17 0.029980594 0.010015484 -0.4048202 0 0.25019264
1.110223e-16 0.029238436 0.010014505 -0.4048202 0 0.25019264
5.5511151e-17 0.028496422 0.010013551 -0.4048202 0 0.25019264
5.5511151e-17 0.027754547 0.010012622 -0.4048202 0 0.25019264
5.5511151e-17 0.027012806 0.010011717 -0.4048202 0 0.25019264
5.5511151e-17 0.026271196 0.010010837 -0.4048202 0 0.25019264
1.110223e-16 0.025529716 0.010009981 -0.4048202 0 0.25019264
0 0.024788359 0.010009149 -0.4048202 0 0.25019264
5.5511151e-17 0.024047121 0.010008343 -0.4048202 0 0.25019264
0 0.023306003 0.01000756 -0.4048202 0 0.25019264
5.5511151e-17 0.022564996 0.010006803 -0.4048202 0 0.25019264
5.5511151e-17 0.021824101 0.01000607 -0.4048202 0 0.25019264
0 0.02108331 0.010005361 -0.4048202 0 0.25019264
5.5511151e-17 0.020342624 0.010004678 -0.4048202 0 0.25019264
5.5511151e-17 0.019602034 0.010004018 -0.4048202 0 0.25019264
5.5511151e-17 0.018861542 0.010003383 -0.4048202 0 0.25019264
5.5511151e-17 0.01812114 0.010002772 -0.4048202 0 0.25019264
5.5511151e-17 0.017380826 0.010002187 -0.4048202 0 0.25019264
5.5511151e-17 0.016640596 0.010001625 -0.4048202 0 0.25019264
5.5511151e-17 0.015900448 0.010001088 -0.4048202 0 0.25019264
0 0.015160377 0.010000575 -0.4048202 0 0.25019264
5.5511151e-17 0.01442038 0.010000086 -0.4048202 0 0.25019264
5.5511151e-17 0.013680452 0.0099996226 -0.4048202 0 0.25019264
5.5511151e-17 0.012940592 0.0099991839 -0.4048202 0 0.25019264
0 0.012200794 0.0099987686 -0.4048202 0 0.25019264
5.5511151e-17 0.011461055 0.0099983783 -0.4048202 0 0.25019264
1.110223e-16 0.010721372 0.0099980123 -0.4048202 0 0.25019264
0 0.0099817412 0.0099976705 -0.4048202 0 0.25019264
5.5511151e-17 0.0092421584 0.0099973539 -0.4048202 0 0.25019264
5.5511151e-17 0.0085026203 0.0099970605 -0.4048202 0 0.25019264
0 0.0077631241 0.0099967923 -0.4048202 0 0.25019264
5.5511151e-17 0.0070236651 0.0099965483 -0.4048202 0 0.25019264
1.110223e-16 0.0062842406 0.0099963285 -0.4048202 0 0.25019264
5.5511151e-17 0.0055448464 0.0099961339 -0.4048202 0 0.25019264
5.5511151e-17 0.0048054792 0.0099959625 -0.4048202 0 0.25019264
1.110223e-16 0.0040661353 0.0099958163 -0.4048202 0 0.25019264
1.110223e-16 0.0033268109 0.0099956943 -0.4048202 0 0.25019264
0 0.0025875028 0.0099955974 -0.4048202 0 0.25019264
5.5511151e-17 0.0018482073 0.0099955238 -0.4048202 0 0.25019264
0 0.0011089208 0.0099954754 -0.4048202 0 0.25019264
5.5511151e-17 0.00036963969 0.0099954503 -0.4048202 0 0.25019264
0 0.079541057 0.0092628943 -0.4048202 0 0.25019264
5.5511151e-17 0.078780495 0.0092604738 -0.4048202 0 0.25019264
5.5511151e-17 0.078020312 0.0092580784 -0.4048202 0 0.25019264
5.5511151e-17 0.077260531 0.0092557054 -0.4048202 0 0.25019264
1.110223e-16 0.076501131 0.0092533575 -0.4048202 0 0.25019264
5.5511151e-17 0.075742111 0.009251033 -0.4048202 0 0.25019264
1.110223e-16 0.07498347 0.0092487317 -0.4048202 0 0.25019264
0 0.074225202 0.0092464546 -0.4048202 0 0.25019264
5.5511151e-17 0.073467299 0.0092442008 -0.4048202 0 0.25019264
5.5511151e-17 0.072709769 0.0092419712 -0.4048202 0 0.25019264
1.110223e-16 0.071952596 0.0092397649 -0.4048202 0 0.25019264
5.5511151e-17 0.071195781 0.0092375828 -0.4048202 0 0.25019264
0 0.070439324 0.0092354231 -0.4048202 0 0.25019264
5.5511151e-17 0.069683217 0.0092332875 -0.4048202 0 0.25019264
0 0.068927452 0.0092311762 -0.4048202 0 0.25019264
5.5511151e-17 0.06817203 0.0092290873 -0.4048202 0 0.25019264
5.5511151e-17 0.067416944 0.0092270225 -0.4048202 0 0.25019264
0 0.066662192 0.0092249811 -0.4048202 0 0.25019264
5.5511151e-17 0.065907776 0.0092229629 -0.4048202 0 0.25019264
0 0.065153688 0.009220968 -0.4048202 0 0.25019264
0 0.064399913 0.0092189973 -0.4048202 0 0.25019264
5.5511151e-17 0.063646466 0.009217049 -0.4048202 0 0.25019264
5.5511151e-17 0.062893331 0.009215124 -0.4048202 0 0.25019264
1.110223e-16 0.062140502 0.0092132231 -0.4048202 0 0.25019264
0 0.061387986 0.0092113446 -0.4048202 0 0.25019264
0 0.060635772 0.0092094904 -0.4048202 0 0.25019264
1.110223e-16 0.059883855 0.0092076585 -0.4048202 0 0.25019264
1.110223e-16 0.059132237 0.0092058498 -0.4048202 0 0.25019264
5.5511151e-17 0.058380909 0.0092040645 -0.4048202 0 0.25019264
5.5511151e-17 0.057629872 0.0092023024 -0.4048202 0 0.25019264
5.5511151e-17 0.056879114 0.0092005637 -0.4048202 0 0.25019264
5.5511151e-17 0.05612864 0.0091988482 -0.4048202 0 0.25019264
0 0.055378441 0.0091971559 -0.4048202 0 0.25019264
0 0.054628517 0.0091954861 -0.4048202 0 0.25019264
1.110223e-16 0.053878862 0.0091938395 -0.4048202 0 0.25019264
1.110223e-16 0.053129472 0.0091922162 -0.4048202 0 0.25019264
0 0.052380342 0.0091906153 -0.4048202 0 0.25019264
0 0.051631469 0.0091890376 -0.4048202 0 0.25019264
1.110223e-16 0.05088285 0.0091874832 -0.4048202 0 0.25019264
5.5511151e-17 0.050134484 0.0091859521 -0.4048202 0 0.25019264
1.110223e-16 0.049386363 0.0091844434 -0.4048202 0 0.25019264
5.5511151e-17 0.048638482 0.009182957 -0.4048202 0 0.25019264
0 0.047890842 0.0091814948 -0.4048202 0 0.25019264
0 0.047143437 0.009180055 -0.4048202 0 0.25019264
5.5511151e-17 0.046396267 0.0091786375 -0.4048202 0 0.25019264
5.5511151e-17 0.04564932 0.0091772433 -0.4048202 0 0.25019264
1.110223e-16 0.044902597 0.0091758724 -0.4048202 0 0.25019264
5.5511151e-17 0.044156097 0.0091745239 -0.4048202 0 0.25019264
5.5511151e-17 0.043409809 0.0091731977 -0.4048202 0 0.25019264
5.5511151e-17 0.042663738 0.0091718948 -0.4048202 0 0.25019264
0 0.041917875 0.0091706142 -0.4048202 0 0.25019264
5.5511151e-17 0.041172218 0.0091693569 -0.4048202 0 0.25019264
5.5511151e-17 0.040426761 0.009168122 -0.4048202 0 0.25019264
5.5511151e-17 0.039681502 0.0091669103 -0.4048202 0 0.25019264
5.5511151e-17 0.038936436 0.009165721 -0.4048202 0 0.25019264
5.5511151e-17 0.038191564 0.0091645541 -0.4048202 0 0.25019264
0 0.037446875 0.0091634104 -0.4048202 0 0.25019264
0 0.036702372 0.0091622891 -0.4048202 0 0.25019264
5.5511151e-17 0.035958048 0.0091611901 -0.4048202 0 0.25019264
5.5511151e-17 0.035213899 0.0091601145 -0.4048202 0 0.25019264
5.5511151e-17 0.034469925 0.0091590611 -0.4048202 0 0.25019264
5.5511151e-17 0.033726115 0.0091580302 -0.4048202 0 0.25019264
5.5511151e-17 0.032982472 0.0091570225 -0.4048202 0 0.25019264
5.5511151e-17 0.03223899 0.0091560362 -0.4048202 0 0.25019264
5.5511151e-17 0.031495664 0.0091550732 -0.4048202 0 0.25019264
1.110223e-16 0.030752493 0.0091541335 -0.4048202 0 0.25019264
5.5511151e-17 0.030009473 0.0091532152 -0.4048202 0 0.25019264
5.5511151e-17 0.029266598 0.0091523202 -0.4048202 0 0.25019264
5.5511151e-17 0.028523866 0.0091514466 -0.4048202 0 0.25019264
5.5511151e-17 0.027781272 0.0091505963 -0.4048202 0 0.25019264
5.5511151e-17 0.027038816 0.0091497684 -0.4048202 0 0.25019264
0 0.026296491 0.0091489637 -0.4048202 0 0.25019264
5.5511151e-17 0.025554294 0.0091481805 -0.4048202 0 0.25019264
5.5511151e-17 0.02481222 0.0091474205 -0.4048202 0 0.25019264
5.5511151e-17 0.024070268 0.009146682 -0.4048202 0 0.25019264
1.110223e-16 0.023328435 0.0091459667 -0.4048202 0 0.25019264
5.5511151e-17 0.022586713 0.0091452738 -0.4048202 0 0.25019264
5.5511151e-17 0.021845102 0.0091446033 -0.4048202 0 0.25019264
0 0.021103598 0.0091439551 -0.4048202 0 0.25019264
0 0.020362196 0.0091433292 -0.4048202 0 0.25019264
5.5511151e-17 0.019620894 0.0091427257 -0.4048202 0 0.25019264
1.110223e-16 0.018879687 0.0091421446 -0.4048202 0 0.25019264
1.110223e-16 0.018138573 0.0091415867 -0.4048202 0 0.25019264
5.5511151e-17 0.017397545 0.0091410503 -0.4048202 0 0.25019264
5.5511151e-17 0.016656604 0.0091405362 -0.4048202 0 0.25019264
5.5511151e-17 0.015915742 0.0091400454 -0.4048202 0 0.25019264
5.5511151e-17 0.015174959 0.009139576 -0.4048202 0 0.25019264
5.5511151e-17 0.014434248 0.0091391299 -0.4048202 0 0.25019264
5.5511151e-17 0.013693609 0.0091387052 -0.4048202 0 0.25019264
5.5511151e-17 0.012953036 0.0091383038 -0.4048202 0 0.25019264
5.5511151e-17 0.012212526 0.0091379238 -0.4048202 0 0.25019264
5.5511151e-17 0.011472075 0.0091375671 -0.4048202 0 0.25019264
0 0.010731681 0.0091372319 -0.4048202 0 0.25019264
0 0.0099913385 0.0091369199 -0.4048202 0 0.25019264
5.5511151e-17 0.0092510441 0.0091366293 -0.4048202 0 0.25019264
5.5511151e-17 0.0085107954 0.009136362 -0.4048202 0 0.25019264
1.110223e-16 0.0077705877 0.0091361161 -0.4048202 0 0.25019264
5.5511151e-17 0.0070304177 0.0091358926 -0.4048202 0 0.25019264
5.5511151e-17 0.0062902821 0.0091356924 -0.4048202 0 0.25019264
0 0.0055501768 0.0091355136 -0.4048202 0 0.25019264
5.5511151e-17 0.0048100986 0.0091353571 -0.4048202 0 0.25019264
5.5511151e-17 0.004070044 0.0091352239 -0.4048202 0 0.25019264
5.5511151e-17 0.0033300091 0.0091351122 -0.4048202 0 0.25019264
5.5511151e-17 0.0025899902 0.0091350228 -0.4048202 0 0.25019264
5.5511151e-17 0.0018499841 0.0091349557 -0.4048202 0 0.25019264
5.5511151e-17 0.0011099868 0.009134911 -0.4048202 0 0.25019264
5.5511151e-17 0.00036999502 0.0091348886 -0.4048202 0 0.25019264
0 0.079618663 0.0083887521 -0.4048202 0 0.25019264
1.110223e-16 0.078857332 0.0083865589 -0.4048202 0 0.25019264
0 0.078096397 0.008384387 -0.4048202 0 0.25019264
5.5511151e-17 0.077335849 0.0083822366 -0.4048202 0 0.25019264
1.110223e-16 0.076575689 0.0083801076 -0.4048202 0 0.25019264
5.5511151e-17 0.075815916 0.008378 -0.4048202 0 0.25019264
0 0.075056516 0.0083759138 -0.4048202 0 0.25019264
0 0.074297488 0.00837385 -0.4048202 0 0.25019264
1.110223e-16 0.073538832 0.0083718067 -0.4048202 0 0.25019264
1.110223e-16 0.07278055 0.0083697857 -0.4048202 0 0.25019264
5.5511151e-17 0.072022624 0.0083677862 -0.4048202 0 0.25019264
5.5511151e-17 0.071265057 0.0083658071 -0.4048202 0 0.25019264
1.110223e-16 0.070507847 0.0083638504 -0.4048202 0 0.25019264
5.5511151e-17 0.069750987 0.0083619142 -0.4048202 0 0.25019264
5.5511151e-17 0.06899447 0.0083599994 -0.4048202 0 0.25019264
5.5511151e-17 0.068238296 0.0083581069 -0.4048202 0 0.25019264
0 0.067482464 0.008356235 -0.4048202 0 0.25019264
5.5511151e-17 0.066726968 0.0083543835 -0.4048202 0 0.25019264
5.5511151e-17 0.065971807 0.0083525544 -0.4048202 0 0.25019264
1.110223e-16 0.065216966 0.0083507467 -0.4048202 0 0.25019264
0 0.064462453 0.0083489595 -0.4048202 0 0.25019264
0 0.063708253 0.0083471937 -0.4048202 0 0.25019264
1.110223e-16 0.062954374 0.0083454484 -0.4048202 0 0.25019264
5.5511151e-17 0.062200807 0.0083437255 -0.4048202 0 0.25019264
5.5511151e-17 0.061447546 0.008342023 -0.4048202 0 0.25019264
5.5511151e-17 0.06069459 0.008340341 -0.4048202 0 0.25019264
5.5511151e-17 0.059941933 0.0083386805 -0.4048202 0 0.25019264
1.110223e-16 0.059189573 0.0083370414 -0.4048202 0 0.25019264
0 0.058437508 0.0083354237 -0.4048202 0 0.25019264
0 0.057685729 0.0083338264 -0.4048202 0 0.25019264
1.110223e-16 0.056934237 0.0083322497 -0.4048202 0 0.25019264
5.5511151e-17 0.056183025 0.0083306944 -0.4048202 0 0.25019264
5.5511151e-17 0.055432089 0.0083291596 -0.4048202 0 0.25019264
5.5511151e-17 0.054681428 0.0083276462 -0.4048202 0 0.25019264
5.5511151e-17 0.053931035 0.0083261542 -0.4048202 0 0.25019264
1.110223e-16 0.053180911 0.0083246818 -0.4048202 0 0.25019264
1.110223e-16 0.052431047 0.0083232317 -0.4048202 0 0.25019264
0 0.05168144 0.0083218012 -0.4048202 0 0.25019264
5.5511151e-17 0.050932091 0.0083203921 -0.4048202 0 0.25019264
5.5511151e-17 0.050182991 0.0083190035 -0.4048202 0 0.25019264
5.5511151e-17 0.049434137 0.0083176363 -0.4048202 0 0.25019264
0 0.048685528 0.0083162896 -0.4048202 0 0.25019264
0 0.047937158 0.0083149634 -0.4048202 0 0.25019264
0 0.047189023 0.0083136577 -0.4048202 0 0.25019264
5.5511151e-17 0.046441119 0.0083123734 -0.4048202 0 0.25019264
5.5511151e-17 0.045693446 0.0083111096 -0.4048202 0 0.25019264
5.5511151e-17 0.044945996 0.0083098663 -0.4048202 0 0.25019264
0 0.044198766 0.0083086444 -0.4048202 0 0.25019264
0 0.043451753 0.0083074421 -0.4048202 0 0.25019264
0 0.042704955 0.0083062612 -0.4048202 0 0.25019264
0 0.041958366 0.0083051007 -0.4048202 0 0.25019264
0 0.041211981 0.0083039608 -0.4048202 0 0.25019264
1.110223e-16 0.040465798 0.0083028413 -0.4048202 0 0.25019264
5.5511151e-17 0.039719816 0.0083017424 -0.4048202 0 0.25019264
5.5511151e-17 0.038974028 0.0083006648 -0.4048202 0 0.25019264
0 0.03822843 0.0082996069 -0.4048202 0 0.25019264
5.5511151e-17 0.037483018 0.0082985703 -0.4048202 0 0.25019264
5.5511151e-17 0.036737792 0.0082975533 -0.4048202 0 0.25019264
1.110223e-16 0.035992745 0.0082965577 -0.4048202 0 0.25019264
0 0.035247874 0.0082955826 -0.4048202 0 0.25019264
1.110223e-16 0.034503177 0.008294628 -0.4048202 0 0.25019264
0 0.033758648 0.008293693 -0.4048202 0 0.25019264
1.110223e-16 0.033014283 0.0082927793 -0.4048202 0 0.25019264
5.5511151e-17 0.032270081 0.0082918862 -0.4048202 0 0.25019264
5.5511151e-17 0.031526037 0.0082910126 -0.4048202 0 0.25019264
0 0.030782145 0.0082901604 -0.4048202 0 0.25019264
5.5511151e-17 0.030038405 0.0082893278 -0.4048202 0 0.25019264
0 0.029294811 0.0082885167 -0.4048202 0 0.25019264
5.5511151e-17 0.028551361 0.008287725 -0.4048202 0 0.25019264
5.5511151e-17 0.02780805 0.0082869548 -0.4048202 0 0.25019264
5.5511151e-17 0.027064875 0.0082862042 -0.4048202 0 0.25019264
0 0.02632183 0.008285474 -0.4048202 0 0.25019264
1.110223e-16 0.025578916 0.0082847644 -0.4048202 0 0.25019264
5.5511151e-17 0.024836127 0.0082840752 -0.4048202 0 0.25019264
5.5511151e-17 0.024093458 0.0082834065 -0.4048202 0 0.25019264
0 0.023350907 0.0082827574 -0.4048202 0 0.25019264
5.5511151e-17 0.02260847 0.0082821297 -0.4048202 0 0.25019264
5.5511151e-17 0.021866143 0.0082815215 -0.4048202 0 0.25019264
0 0.021123923 0.0082809338 -0.4048202 0 0.25019264
5.5511151e-17 0.020381806 0.0082803667 -0.4048202 0 0.25019264
5.5511151e-17 0.019639788 0.00827982 -0.4048202 0 0.25019264
1.110223e-16 0.018897867 0.0082792928 -0.4048202 0 0.25019264
1.110223e-16 0.018156037 0.0082787871 -0.4048202 0 0.25019264
1.110223e-16 0.017414296 0.008278301 -0.4048202 0 0.25019264
5.5511151e-17 0.016672639 0.0082778353 -0.4048202 0 0.25019264
5.5511151e-17 0.015931064 0.0082773902 -0.4048202 0 0.25019264
5.5511151e-17 0.015189567 0.0082769645 -0.4048202 0 0.25019264
5.5511151e-17 0.014448144 0.0082765603 -0.4048202 0 0.25019264
0 0.01370679 0.0082761757 -0.4048202 0 0.25019264
5.5511151e-17 0.012965504 0.0082758106 -0.4048202 0 0.25019264
1.110223e-16 0.01222428 0.008275467 -0.4048202 0 0.25019264
5.5511151e-17 0.011483117 0.0082751429 -0.4048202 0 0.25019264
5.5511151e-17 0.01074201 0.0082748393 -0.4048202 0 0.25019264
5.5511151e-17 0.010000953 0.0082745561 -0.4048202 0 0.25019264
5.5511151e-17 0.0092599466 0.0082742935 -0.4048202 0 0.25019264
5.5511151e-17 0.0085189855 0.0082740504 -0.4048202 0 0.25019264
1.110223e-16 0.0077780653 0.0082738278 -0.4048202 0 0.25019264
5.5511151e-17 0.0070371828 0.0082736257 -0.4048202 0 0.25019264
1.110223e-16 0.0062963348 0.0082734441 -0.4048202 0 0.25019264
0 0.0055555175 0.0082732821 -0.4048202 0 0.25019264
0 0.0048147272 0.0082731405 -0.4048202 0 0.25019264
5.5511151e-17 0.0040739602 0.0082730185 -0.4048202 0 0.25019264
5.5511151e-17 0.0033332133 0.0082729179 -0.4048202 0 0.25019264
5.5511151e-17 0.0025924824 0.0082728369 -0.4048202 0 0.25019264
5.5511151e-17 0.001851764 0.0082727764 -0.4048202 0 0.25019264
5.5511151e-17 0.0011110548 0.0082727354 -0.4048202 0 0.25019264
5.5511151e-17 0.00037035102 0.0082727158 -0.4048202 0 0.25019264
0 0.079696417 0.0075129448 -0.4048202 0 0.25019264
5.5511151e-17 0.078934327 0.0075109778 -0.4048202 0 0.25019264
5.5511151e-17 0.078172624 0.0075090309 -0.4048202 0 0.25019264
1.110223e-16 0.077411316 0.007507103 -0.4048202 0 0.25019264
5.5511151e-17 0.076650396 0.0075051943 -0.4048202 0 0.25019264
5.5511151e-17 0.075889856 0.0075033051 -0.4048202 0 0.25019264
5.5511151e-17 0.075129703 0.0075014355 -0.4048202 0 0.25019264
5.5511151e-17 0.074369915 0.0074995849 -0.4048202 0 0.25019264
5.5511151e-17 0.073610507 0.0074977535 -0.4048202 0 0.25019264
0 0.072851464 0.0074959416 -0.4048202 0 0.25019264
0 0.072092786 0.0074941483 -0.4048202 0 0.25019264
1.110223e-16 0.071334459 0.0074923746 -0.4048202 0 0.25019264
5.5511151e-17 0.070576496 0.0074906205 -0.4048202 0 0.25019264
5.5511151e-17 0.069818884 0.007488885 -0.4048202 0 0.25019264
5.5511151e-17 0.069061615 0.0074871685 -0.4048202 0 0.25019264
1.110223e-16 0.068304695 0.0074854712 -0.4048202 0 0.25019264
5.5511151e-17 0.067548111 0.0074837934 -0.4048202 0 0.25019264
5.5511151e-17 0.06679187 0.0074821343 -0.4048202 0 0.25019264
0 0.066035949 0.0074804942 -0.4048202 0 0.25019264
1.110223e-16 0.065280363 0.0074788732 -0.4048202 0 0.25019264
1.110223e-16 0.064525105 0.0074772714 -0.4048202 0 0.25019264
0 0.06377016 0.0074756881 -0.4048202 0 0.25019264
5.5511151e-17 0.063015535 0.007474124 -0.4048202 0 0.25019264
5.5511151e-17 0.062261224 0.0074725789 -0.4048202 0 0.25019264
5.5511151e-17 0.061507221 0.0074710529 -0.4048202 0 0.25019264
5.5511151e-17 0.060753521 0.0074695456 -0.4048202 0 0.25019264
0 0.060000122 0.0074680573 -0.4048202 0 0.25019264
5.5511151e-17 0.059247021 0.0074665877 -0.4048202 0 0.25019264
5.5511151e-17 0.058494214 0.0074651367 -0.4048202 0 0.25019264
0 0.057741694 0.0074637048 -0.4048202 0 0.25019264
0 0.056989461 0.007462292 -0.4048202 0 0.25019264
5.5511151e-17 0.056237511 0.0074608973 -0.4048202 0 0.25019264
1.110223e-16 0.055485837 0.0074595218 -0.4048202 0 0.25019264
5.5511151e-17 0.054734439 0.0074581653 -0.4048202 0 0.25019264
0 0.053983312 0.007456827 -0.4048202 0 0.25019264
0 0.05323245 0.0074555078 -0.4048202 0 0.25019264
5.5511151e-17 0.052481849 0.0074542072 -0.4048202 0 0.25019264
0 0.051731508 0.0074529252 -0.4048202 0 0.25019264
5.5511151e-17 0.050981425 0.0074516619 -0.4048202 0 0.25019264
5.5511151e-17 0.050231591 0.0074504171 -0.4048202 0 0.25019264
5.5511151e-17 0.049482003 0.0074491915 -0.4048202 0 0.25019264
0 0.048732661 0.0074479841 -0.4048202 0 0.25019264
1.110223e-16 0.047983561 0.0074467952 -0.4048202 0 0.25019264
1.110223e-16 0.047234692 0.007445625 -0.4048202 0 0.25019264
5.5511151e-17 0.046486061 0.0074444734 -0.4048202 0 0.25019264
5.5511151e-17 0.045737654 0.0074433405 -0.4048202 0 0.25019264
1.110223e-16 0.044989474 0.0074422262 -0.4048202 0 0.25019264
5.5511151e-17 0.044241518 0.0074411305 -0.4048202 0 0.25019264
5.5511151e-17 0.043493778 0.0074400529 -0.4048202 0 0.25019264
5.5511151e-17 0.04274625 0.007438994 -0.4048202 0 0.25019264
5.5511151e-17 0.04199893 0.0074379537 -0.4048202 0 0.25019264
5.5511151e-17 0.04125182 0.0074369321 -0.4048202 0 0.25019264
5.5511151e-17 0.040504914 0.0074359286 -0.4048202 0 0.25019264
5.5511151e-17 0.039758202 0.0074349437 -0.4048202 0 0.25019264
5.5511151e-17 0.039011687 0.007433977 -0.4048202 0 0.25019264
5.5511151e-17 0.038265366 0.0074330289 -0.4048202 0 0.25019264
1.110223e-16 0.037519231 0.0074320994 -0.4048202 0 0.25019264
5.5511151e-17 0.036773279 0.0074311881 -0.4048202 0 0.25019264
5.5511151e-17 0.03602751 0.0074302955 -0.4048202 0 0.25019264
5.5511151e-17 0.035281915 0.0074294209 -0.4048202 0 0.25019264
0 0.034536492 0.0074285651 -0.4048202 0 0.25019264
5.5511151e-17 0.03379124 0.0074277273 -0.4048202 0 0.25019264
0 0.033046156 0.0074269082 -0.4048202 0 0.25019264
5.5511151e-17 0.032301232 0.0074261073 -0.4048202 0 0.25019264
5.5511151e-17 0.031556465 0.0074253245 -0.4048202 0 0.25019264
5.5511151e-17 0.030811852 0.0074245604 -0.4048202 0 0.25019264
5.5511151e-17 0.030067392 0.0074238144 -0.4048202 0 0.25019264
0 0.029323077 0.007423087 -0.4048202 0 0.25019264
5.5511151e-17 0.028578907 0.0074223778 -0.4048202 0 0.25019264
5.5511151e-17 0.027834876 0.0074216868 -0.4048202 0 0.25019264
5.5511151e-17 0.027090982 0.0074210139 -0.4048202 0 0.25019264
0 0.02634722 0.0074203596 -0.4048202 0 0.25019264
5.5511151e-17 0.025603587 0.0074197231 -0.4048202 0 0.25019264
0 0.024860078 0.0074191052 -0.4048202 0 0.25019264
5.5511151e-17 0.024116691 0.0074185058 -0.4048202 0 0.25019264
1.110223e-16 0.023373423 0.0074179242 -0.4048202 0 0.25019264
5.5511151e-17 0.022630269 0.0074173613 -0.4048202 0 0.25019264
0 0.021887224 0.007416816 -0.4048202 0 0.25019264
5.5511151e-17 0.021144288 0.0074162893 -0.4048202 0 0.25019264
5.5511151e-17 0.020401454 0.0074157808 -0.4048202 0 0.25019264
1.110223e-16 0.01965872 0.0074152909 -0.4048202 0 0.25019264
5.5511151e-17 0.018916082 0.0074148187 -0.4048202 0 0.25019264
5.5511151e-17 0.018173534 0.0074143647 -0.4048202 0 0.25019264
5.5511151e-17 0.017431078 0.0074139293 -0.4048202 0 0.25019264
5.5511151e-17 0.016688706 0.0074135116 -0.4048202 0 0.25019264
5.5511151e-17 0.015946416 0.0074131126 -0.4048202 0 0.25019264
1.110223e-16 0.015204202 0.0074127312 -0.4048202 0 0.25019264
5.5511151e-17 0.014462064 0.0074123684 -0.4048202 0 0.25019264
5.5511151e-17 0.013719996 0.0074120238 -0.4048202 0 0.25019264
5.5511151e-17 0.012977995 0.0074116969 -0.4048202 0 0.25019264
5.5511151e-17 0.012236057 0.0074113887 -0.4048202 0 0.25019264
5.5511151e-17 0.011494179 0.0074110986 -0.4048202 0 0.25019264
5.5511151e-17 0.010752357 0.0074108262 -0.4048202 0 0.25019264
5.5511151e-17 0.010010587 0.0074105724 -0.4048202 0 0.25019264
5.5511151e-17 0.0092688669 0.0074103368 -0.4048202 0 0.25019264
5.5511151e-17 0.0085271914 0.0074101188 -0.4048202 0 0.25019264
0 0.0077855568 0.0074099195 -0.4048202 0 0.25019264
0 0.007043961 0.0074097379 -0.4048202 0 0.25019264
5.5511151e-17 0.0063023991 0.0074095749 -0.4048202 0 0.25019264
0 0.005560868 0.0074094296 -0.4048202 0 0.25019264
1.110223e-16 0.0048193643 0.007409303 -0.4048202 0 0.25019264
1.110223e-16 0.0040778839 0.007409194 -0.4048202 0 0.25019264
5.5511151e-17 0.0033364233 0.0074091032 -0.4048202 0 0.25019264
5.5511151e-17 0.002594979 0.007409031 -0.4048202 0 0.25019264
5.5511151e-17 0.0018535474 0.0074089766 -0.4048202 0 0.25019264
5.5511151e-17 0.0011121249 0.0074089402 -0.4048202 0 0.25019264
0 0.00037070768 0.0074089221 -0.4048202 0 0.25019264
5.5511151e-17 0.07977432 0.0066354615 -0.4048202 0 0.25019264
5.5511151e-17 0.079011463 0.0066337227 -0.4048202 0 0.25019264
0 0.078249 0.0066320011 -0.4048202 0 0.25019264
5.5511151e-17 0.077486925 0.0066302968 -0.4048202 0 0.25019264
5.5511151e-17 0.076725245 0.0066286097 -0.4048202 0 0.25019264
5.5511151e-17 0.075963944 0.0066269394 -0.4048202 0 0.25019264
5.5511151e-17 0.075203024 0.0066252863 -0.4048202 0 0.25019264
0 0.074442483 0.0066236504 -0.4048202 0 0.25019264
5.5511151e-17 0.073682316 0.0066220313 -0.4048202 0 0.25019264
0 0.072922513 0.0066204295 -0.4048202 0 0.25019264
0 0.072163075 0.0066188443 -0.4048202 0 0.25019264
0 0.071404003 0.0066172765 -0.4048202 0 0.25019264
1.110223e-16 0.07064528 0.0066157253 -0.4048202 0 0.25019264
5.5511151e-17 0.069886908 0.006614191 -0.4048202 0 0.25019264
5.5511151e-17 0.069128893 0.0066126734 -0.4048202 0 0.25019264
0 0.068371214 0.006611173 -0.4048202 0 0.25019264
5.5511151e-17 0.067613885 0.0066096899 -0.4048202 0 0.25019264
1.110223e-16 0.066856883 0.0066082231 -0.4048202 0 0.25019264
5.5511151e-17 0.066100225 0.006606773 -0.4048202 0 0.25019264
5.5511151e-17 0.065343887 0.0066053402 -0.4048202 0 0.25019264
1.110223e-16 0.064587876 0.0066039236 -0.4048202 0 0.25019264
0 0.063832186 0.0066025243 -0.4048202 0 0.25019264
5.5511151e-17 0.063076816 0.0066011418 -0.4048202 0 0.25019264
5.5511151e-17 0.062321756 0.0065997755 -0.4048202 0 0.25019264
5.5511151e-17 0.061567005 0.0065984265 -0.4048202 0 0.25019264
5.5511151e-17 0.060812563 0.0065970938 -0.4048202 0 0.25019264
0 0.060058422 0.0065957778 -0.4048202 0 0.25019264
1.110223e-16 0.059304576 0.0065944786 -0.4048202 0 0.25019264
5.5511151e-17 0.058551025 0.0065931962 -0.4048202 0 0.25019264
0 0.057797767 0.0065919305 -0.4048202 0 0.25019264
5.5511151e-17 0.057044793 0.0065906812 -0.4048202 0 0.25019264
5.5511151e-17 0.056292102 0.0065894485 -0.4048202 0 0.25019264
0 0.05553969 0.0065882322 -0.4048202 0 0.25019264
5.5511151e-17 0.05478755 0.0065870327 -0.4048202 0 0.25019264
5.5511151e-17 0.054035686 0.0065858499 -0.4048202 0 0.25019264
5.5511151e-17 0.053284086 0.0065846834 -0.4048202 0 0.25019264
5.5511151e-17 0.052532747 0.0065835337 -0.4048202 0 0.25019264
0 0.051781673 0.0065824003 -0.4048202 0 0.25019264
1.110223e-16 0.051030852 0.0065812836 -0.4048202 0 0.25019264
5.5511151e-17 0.05028028 0.0065801833 -0.4048202 0 0.25019264
5.5511151e-17 0.049529962 0.0065790997 -0.4048202 0 0.25019264
5.5511151e-17 0.048779886 0.0065780324 -0.4048202 0 0.25019264
1.110223e-16 0.048030049 0.0065769814 -0.4048202 0 0.25019264
1.110223e-16 0.047280449 0.0065759467 -0.4048202 0 0.25019264
5.5511151e-17 0.046531085 0.0065749288 -0.4048202 0 0.25019264
0 0.045781948 0.0065739271 -0.4048202 0 0.25019264
0 0.045033038 0.0065729422 -0.4048202 0 0.25019264
5.5511151e-17 0.044284347 0.0065719732 -0.4048202 0 0.25019264
1.110223e-16 0.043535877 0.0065710209 -0.4048202 0 0.25019264
1.110223e-16 0.042787619 0.0065700845 -0.4048202 0 0.25019264
1.110223e-16 0.042039573 0.0065691648 -0.4048202 0 0.25019264
5.5511151e-17 0.041291736 0.0065682614 -0.4048202 0 0.25019264
5.5511151e-17 0.0405441 0.0065673748 -0.4048202 0 0.25019264
5.5511151e-17 0.039796662 0.006566504 -0.4048202 0 0.25019264
0 0.039049421 0.0065656495 -0.4048202 0 0.25019264
5.5511151e-17 0.038302373 0.0065648113 -0.4048202 0 0.25019264
5.5511151e-17 0.037555508 0.0065639894 -0.4048202 0 0.25019264
5.5511151e-17 0.036808833 0.0065631839 -0.4048202 0 0.25019264
5.5511151e-17 0.036062337 0.0065623946 -0.4048202 0 0.25019264
5.5511151e-17 0.03531602 0.0065616216 -0.4048202 0 0.25019264
5.5511151e-17 0.034569874 0.0065608649 -0.4048202 0 0.25019264
5.5511151e-17 0.033823896 0.0065601245 -0.4048202 0 0.25019264
5.5511151e-17 0.033078086 0.0065594004 -0.4048202 0 0.25019264
1.110223e-16 0.032332439 0.0065586921 -0.4048202 0 0.25019264
5.5511151e-17 0.031586949 0.0065580001 -0.4048202 0 0.25019264
5.5511151e-17 0.030841615 0.0065573244 -0.4048202 0 0.25019264
5.5511151e-17 0.030096432 0.0065566651 -0.4048202 0 0.25019264
5.5511151e-17 0.029351396 0.006556022 -0.4048202 0 0.25019264
1.110223e-16 0.028606504 0.0065553947 -0.4048202 0 0.25019264
5.5511151e-17 0.027861753 0.0065547843 -0.4048202 0 0.25019264
5.5511151e-17 0.027117139 0.0065541891 -0.4048202 0 0.25019264
5.5511151e-17 0.026372656 0.0065536108 -0.4048202 0 0.25019264
5.5511151e-17 0.025628302 0.0065530483 -0.4048202 0 0.25019264
5.5511151e-17 0.024884075 0.006552502 -0.4048202 0 0.25019264
5.5511151e-17 0.024139969 0.0065519721 -0.4048202 0 0.25019264
0 0.02339598 0.006551458 -0.4048202 0 0.25019264
5.5511151e-17 0.022652106 0.0065509602 -0.4048202 0 0.25019264
5.5511151e-17 0.021908345 0.0065504783 -0.4048202 0 0.25019264
5.5511151e-17 0.021164689 0.0065500126 -0.4048202 0 0.25019264
5.5511151e-17 0.020421138 0.0065495633 -0.4048202 0 0.25019264
1.110223e-16 0.019677686 0.0065491297 -0.4048202 0 0.25019264
5.5511151e-17 0.01893433 0.0065487125 -0.4048202 0 0.25019264
1.110223e-16 0.018191066 0.0065483111 -0.4048202 0 0.25019264
0 0.017447893 0.006547926 -0.4048202 0 0.25019264
5.5511151e-17 0.016704803 0.0065475572 -0.4048202 0 0.25019264
5.5511151e-17 0.015961796 0.0065472042 -0.4048202 0 0.25019264
5.5511151e-17 0.015218866 0.0065468671 -0.4048202 0 0.25019264
5.5511151e-17 0.014476012 0.0065465462 -0.4048202 0 0.25019264
1.110223e-16 0.013733227 0.0065462417 -0.4048202 0 0.25019264
1.110223e-16 0.01299051 0.006545953 -0.4048202 0 0.25019264
5.5511151e-17 0.012247856 0.0065456801 -0.4048202 0 0.25019264
5.5511151e-17 0.011505262 0.0065454235 -0.4048202 0 0.25019264
5.5511151e-17 0.010762724 0.0065451832 -0.4048202 0 0.25019264
5.5511151e-17 0.010020239 0.0065449583 -0.4048202 0 0.25019264
5.5511151e-17 0.0092778029 0.0065447502 -0.4048202 0 0.25019264
5.5511151e-17 0.0085354121 0.0065445579 -0.4048202 0 0.25019264
5.5511151e-17 0.0077930628 0.0065443814 -0.4048202 0 0.25019264
5.5511151e-17 0.0070507517 0.0065442212 -0.4048202 0 0.25019264
5.5511151e-17 0.006308475 0.0065440768 -0.4048202 0 0.25019264
1.110223e-16 0.0055662286 0.0065439483 -0.4048202 0 0.25019264
5.5511151e-17 0.0048240102 0.0065438361 -0.4048202 0 0.25019264
5.5511151e-17 0.004081815 0.0065437402 -0.4048202 0 0.25019264
5.5511151e-17 0.0033396394 0.0065436601 -0.4048202 0 0.25019264
1.110223e-16 0.0025974805 0.0065435958 -0.4048202 0 0.25019264
5.5511151e-17 0.0018553342 0.0065435478 -0.4048202 0 0.25019264
5.5511151e-17 0.0011131968 0.0065435157 -0.4048202 0 0.25019264
5.5511151e-17 0.00037106502 0.0065434999 -0.4048202 0 0.25019264
0 0.079852372 0.0057562934 -0.4048202 0 0.25019264
5.5511151e-17 0.079088748 0.0057547837 -0.4048202 0 0.25019264
5.5511151e-17 0.078325517 0.005753289 -0.4048202 0 0.25019264
1.110223e-16 0.077562682 0.0057518086 -0.4048202 0 0.25019264
0 0.076800235 0.0057503437 -0.4048202 0 0.25019264
5.5511151e-17 0.076038174 0.0057488936 -0.4048202 0 0.25019264
5.5511151e-17 0.075276494 0.005747458 -0.4048202 0 0.25019264
5.5511151e-17 0.074515186 0.0057460372 -0.4048202 0 0.25019264
5.5511151e-17 0.073754258 0.0057446314 -0.4048202 0 0.25019264
5.5511151e-17 0.072993696 0.0057432405 -0.4048202 0 0.25019264
5.5511151e-17 0.072233506 0.005741864 -0.4048202 0 0.25019264
5.5511151e-17 0.071473673 0.0057405024 -0.4048202 0 0.25019264
5.5511151e-17 0.070714191 0.0057391557 -0.4048202 0 0.25019264
0 0.069955073 0.0057378234 -0.4048202 0 0.25019264
0 0.069196299 0.0057365056 -0.4048202 0 0.25019264
5.5511151e-17 0.068437867 0.0057352027 -0.4048202 0 0.25019264
5.5511151e-17 0.067679778 0.0057339147 -0.4048202 0 0.25019264
5.5511151e-17 0.066922031 0.0057326411 -0.4048202 0 0.25019264
1.110223e-16 0.066164613 0.0057313819 -0.4048202 0 0.25019264
5.5511151e-17 0.065407529 0.0057301377 -0.4048202 0 0.25019264
5.5511151e-17 0.064650767 0.0057289079 -0.4048202 0 0.25019264
0 0.063894331 0.0057276925 -0.4048202 0 0.25019264
5.5511151e-17 0.063138209 0.005726492 -0.4048202 0 0.25019264
5.5511151e-17 0.062382404 0.005725306 -0.4048202 0 0.25019264
1.110223e-16 0.061626907 0.0057241344 -0.4048202 0 0.25019264
0 0.060871717 0.0057229772 -0.4048202 0 0.25019264
0 0.060116831 0.0057218345 -0.4048202 0 0.25019264
5.5511151e-17 0.05936224 0.0057207062 -0.4048202 0 0.25019264
5.5511151e-17 0.058607947 0.0057195928 -0.4048202 0 0.25019264
5.5511151e-17 0.057853945 0.0057184934 -0.4048202 0 0.25019264
0 0.057100229 0.0057174084 -0.4048202 0 0.25019264
5.5511151e-17 0.056346796 0.0057163383 -0.4048202 0 0.25019264
0 0.055593643 0.0057152822 -0.4048202 0 0.25019264
0 0.054840766 0.0057142409 -0.4048202 0 0.25019264
1.110223e-16 0.054088157 0.0057132137 -0.4048202 0 0.25019264
5.5511151e-17 0.053335819 0.0057122009 -0.4048202 0 0.25019264
1.110223e-16 0.052583743 0.0057112025 -0.4048202 0 0.25019264
0 0.051831931 0.0057102181 -0.4048202 0 0.25019264
5.5511151e-17 0.051080372 0.0057092486 -0.4048202 0 0.25019264
5.5511151e-17 0.050329067 0.0057082931 -0.4048202 0 0.25019264
5.5511151e-17 0.049578011 0.005707352 -0.4048202 0 0.25019264
1.110223e-16 0.048827197 0.0057064253 -0.4048202 0 0.25019264
0 0.04807663 0.0057055126 -0.4048202 0 0.25019264
5.5511151e-17 0.047326297 0.0057046143 -0.4048202 0 0.25019264
5.5511151e-17 0.046576194 0.0057037305 -0.4048202 0 0.25019264
5.5511151e-17 0.045826327 0.0057028607 -0.4048202 0 0.25019264
0 0.045076683 0.0057020052 -0.4048202 0 0.25019264
5.5511151e-17 0.044327263 0.0057011638 -0.4048202 0 0.25019264
5.5511151e-17 0.043578058 0.0057003368 -0.4048202 0 0.25019264
5.5511151e-17 0.04282907 0.0056995242 -0.4048202 0 0.25019264
5.5511151e-17 0.042080294 0.0056987251 -0.4048202 0 0.25019264
5.5511151e-17 0.041331727 0.0056979409 -0.4048202 0 0.25019264
5.5511151e-17 0.040583361 0.0056971707 -0.4048202 0 0.25019264
5.5511151e-17 0.039835196 0.0056964145 -0.4048202 0 0.25019264
5.5511151e-17 0.039087225 0.0056956727 -0.4048202 0 0.25019264
5.5511151e-17 0.038339447 0.0056949449 -0.4048202 0 0.25019264
5.5511151e-17 0.03759186 0.0056942315 -0.4048202 0 0.25019264
5.5511151e-17 0.036844455 0.0056935321 -0.4048202 0 0.25019264
5.5511151e-17 0.036097232 0.0056928466 -0.4048202 0 0.25019264
0 0.035350189 0.0056921751 -0.4048202 0 0.25019264
0 0.034603316 0.0056915181 -0.4048202 0 0.25019264
1.110223e-16 0.033856615 0.005690875 -0.4048202 0 0.25019264
5.5511151e-17 0.033110078 0.0056902464 -0.4048202 0 0.25019264
5.5511151e-17 0.032363705 0.0056896312 -0.4048202 0 0.25019264
0 0.031617492 0.0056890305 -0.4048202 0 0.25019264
5.5511151e-17 0.030871436 0.0056884438 -0.4048202 0 0.25019264
5.5511151e-17 0.030125529 0.0056878715 -0.4048202 0 0.25019264
5.5511151e-17 0.02937977 0.0056873127 -0.4048202 0 0.25019264
5.5511151e-17 0.028634155 0.0056867683 -0.4048202 0 0.25019264
5.5511151e-17 0.027888682 0.0056862379 -0.4048202 0 0.25019264
5.5511151e-17 0.027143344 0.0056857215 -0.4048202 0 0.25019264
5.5511151e-17 0.026398141 0.0056852191 -0.4048202 0 0.25019264
1.110223e-16 0.025653066 0.0056847306 -0.4048202 0 0.25019264
5.5511151e-17 0.024908116 0.0056842566 -0.4048202 0 0.25019264
5.5511151e-17 0.024163289 0.005683796 -0.4048202 0 0.25019264
5.5511151e-17 0.023418581 0.0056833499 -0.4048202 0 0.25019264
0 0.022673987 0.0056829173 -0.4048202 0 0.25019264
5.5511151e-17 0.021929504 0.0056824991 -0.4048202 0 0.25019264
1.110223e-16 0.02118513 0.005682095 -0.4048202 0 0.25019264
1.110223e-16 0.020440858 0.0056817043 -0.4048202 0 0.25019264
5.5511151e-17 0.019696688 0.005681328 -0.4048202 0 0.25019264
0 0.018952612 0.0056809657 -0.4048202 0 0.25019264
0 0.01820863 0.0056806174 -0.4048202 0 0.25019264
0 0.017464738 0.0056802831 -0.4048202 0 0.25019264
5.5511151e-17 0.01672093 0.0056799622 -0.4048202 0 0.25019264
5.5511151e-17 0.015977206 0.0056796558 -0.4048202 0 0.25019264
5.5511151e-17 0.015233558 0.0056793634 -0.4048202 0 0.25019264
0 0.014489985 0.0056790849 -0.4048202 0 0.25019264
5.5511151e-17 0.013746482 0.00567882 -0.4048202 0 0.25019264
0 0.013003048 0.0056785694 -0.4048202 0 0.25019264
5.5511151e-17 0.012259677 0.0056783329 -0.4048202 0 0.25019264
0 0.011516366 0.0056781098 -0.4048202 0 0.25019264
5.5511151e-17 0.010773111 0.0056779012 -0.4048202 0 0.25019264
5.5511151e-17 0.010029909 0.0056777061 -0.4048202 0 0.25019264
0 0.0092867566 0.005677525 -0.4048202 0 0.25019264
0 0.0085436488 0.0056773578 -0.4048202 0 0.25019264
1.110223e-16 0.0078005828 0.005677205 -0.4048202 0 0.25019264
1.110223e-16 0.007057555 0.0056770658 -0.4048202 0 0.25019264
5.5511151e-17 0.0063145622 0.0056769405 -0.4048202 0 0.25019264
1.110223e-16 0.0055715996 0.0056768288 -0.4048202 0 0.25019264
1.110223e-16 0.0048286645 0.0056767315 -0.4048202 0 0.25019264
1.110223e-16 0.0040857531 0.0056766481 -0.4048202 0 0.25019264
5.5511151e-17 0.0033428618 0.0056765783 -0.4048202 0 0.25019264
5.5511151e-17 0.0025999867 0.0056765229 -0.4048202 0 0.25019264
5.5511151e-17 0.0018571243 0.0056764809 -0.4048202 0 0.25019264
5.5511151e-17 0.0011142709 0.005676453 -0.4048202 0 0.25019264
5.5511151e-17 0.00037142303 0.0056764395 -0.4048202 0 0.25019264
1.110223e-16 0.079930574 0.0048754318 -0.4048202 0 0.25019264
1.110223e-16 0.079166181 0.0048741517 -0.4048202 0 0.25019264
5.5511151e-17 0.078402184 0.0048728846 -0.4048202 0 0.25019264
5.5511151e-17 0.077638581 0.0048716296 -0.4048202 0 0.25019264
5.5511151e-17 0.076875366 0.0048703877 -0.4048202 0 0.25019264
1.110223e-16 0.076112546 0.0048691579 -0.4048202 0 0.25019264
5.5511151e-17 0.075350098 0.0048679411 -0.4048202 0 0.25019264
0 0.074588038 0.0048667365 -0.4048202 0 0.25019264
5.5511151e-17 0.073826343 0.0048655448 -0.4048202 0 0.25019264
5.5511151e-17 0.07306502 0.0048643653 -0.4048202 0 0.25019264
1.110223e-16 0.07230407 0.0048631984 -0.4048202 0 0.25019264
5.5511151e-17 0.071543477 0.004862044 -0.4048202 0 0.25019264
1.110223e-16 0.070783243 0.0048609022 -0.4048202 0 0.25019264
5.5511151e-17 0.070023358 0.0048597725 -0.4048202 0 0.25019264
1.110223e-16 0.069263831 0.0048586559 -0.4048202 0 0.25019264
5.5511151e-17 0.068504646 0.0048575513 -0.4048202 0 0.25019264
5.5511151e-17 0.067745805 0.0048564589 -0.4048202 0 0.25019264
5.5511151e-17 0.066987298 0.0048553795 -0.4048202 0 0.25019264
5.5511151e-17 0.066229135 0.0048543117 -0.4048202 0 0.25019264
5.5511151e-17 0.065471292 0.004853257 -0.4048202 0 0.25019264
5.5511151e-17 0.064713784 0.0048522144 -0.4048202 0 0.25019264
5.5511151e-17 0.063956596 0.0048511839 -0.4048202 0 0.25019264
0 0.063199721 0.0048501659 -0.4048202 0 0.25019264
5.5511151e-17 0.062443167 0.0048491606 -0.4048202 0 0.25019264
0 0.061686922 0.0048481673 -0.4048202 0 0.25019264
5.5511151e-17 0.060930986 0.0048471862 -0.4048202 0 0.25019264
5.5511151e-17 0.060175352 0.0048462176 -0.4048202 0 0.25019264
5.5511151e-17 0.059420019 0.0048452611 -0.4048202 0 0.25019264
5.5511151e-17 0.058664978 0.0048443167 -0.4048202 0 0.25019264
5.5511151e-17 0.05791023 0.004843385 -0.4048202 0 0.25019264
1.110223e-16 0.057155769 0.0048424653 -0.4048202 0 0.25019264
5.5511151e-17 0.056401595 0.0048415577 -0.4048202 0 0.25019264
5.5511151e-17 0.055647697 0.0048406627 -0.4048202 0 0.25019264
5.5511151e-17 0.054894079 0.0048397798 -0.4048202 0 0.25019264
5.5511151e-17 0.054140732 0.0048389086 -0.4048202 0 0.25019264
1.110223e-16 0.053387653 0.0048380503 -0.4048202 0 0.25019264
5.5511151e-17 0.052634839 0.0048372038 -0.4048202 0 0.25019264
5.5511151e-17 0.051882286 0.0048363693 -0.4048202 0 0.25019264
5.5511151e-17 0.051129989 0.0048355474 -0.4048202 0 0.25019264
0 0.050377943 0.0048347372 -0.4048202 0 0.25019264
5.5511151e-17 0.049626149 0.0048339395 -0.4048202 0 0.25019264
5.5511151e-17 0.048874602 0.0048331534 -0.4048202 0 0.25019264
5.5511151e-17 0.048123296 0.00483238 -0.4048202 0 0.25019264
5.5511151e-17 0.047372226 0.0048316186 -0.4048202 0 0.25019264
0 0.046621393 0.0048308689 -0.4048202 0 0.25019264
1.110223e-16 0.045870788 0.0048301318 -0.4048202 0 0.25019264
5.5511151e-17 0.045120411 0.0048294063 -0.4048202 0 0.25019264
5.5511151e-17 0.044370256 0.0048286933 -0.4048202 0 0.25019264
5.5511151e-17 0.043620322 0.0048279921 -0.4048202 0 0.25019264
0 0.0428706 0.0048273029 -0.4048202 0 0.25019264
0 0.042121094 0.0048266258 -0.4048202 0 0.25019264
5.5511151e-17 0.041371793 0.0048259608 -0.4048202 0 0.25019264
0 0.040622696 0.004825308 -0.4048202 0 0.25019264
5.5511151e-17 0.039873801 0.0048246668 -0.4048202 0 0.25019264
5.5511151e-17 0.0391251 0.0048240377 -0.4048202 0 0.25019264
5.5511151e-17 0.038376592 0.0048234207 -0.4048202 0 0.25019264
5.5511151e-17 0.037628278 0.0048228158 -0.4048202 0 0.25019264
5.5511151e-17 0.036880143 0.004822223 -0.4048202 0 0.25019264
5.5511151e-17 0.036132194 0.0048216418 -0.4048202 0 0.25019264
5.5511151e-17 0.03538442 0.0048210728 -0.4048202 0 0.25019264
5.5511151e-17 0.034636822 0.0048205159 -0.4048202 0 0.25019264
5.5511151e-17 0.033889394 0.0048199706 -0.4048202 0 0.25019264
5.5511151e-17 0.033142135 0.0048194374 -0.4048202 0 0.25019264
5.5511151e-17 0.032395035 0.0048189159 -0.4048202 0 0.25019264
5.5511151e-17 0.031648096 0.0048184069 -0.4048202 0 0.25019264
0 0.030901313 0.0048179096 -0.4048202 0 0.25019264
1.110223e-16 0.030154681 0.0048174239 -0.4048202 0 0.25019264
5.5511151e-17 0.029408198 0.0048169503 -0.4048202 0 0.25019264
5.5511151e-17 0.028661858 0.0048164888 -0.4048202 0 0.25019264
5.5511151e-17 0.027915662 0.004816039 -0.4048202 0 0.25019264
5.5511151e-17 0.0271696 0.0048156013 -0.4048202 0 0.25019264
5.5511151e-17 0.026423674 0.0048151752 -0.4048202 0 0.25019264
5.5511151e-17 0.025677877 0.0048147612 -0.4048202 0 0.25019264
5.5511151e-17 0.024932204 0.0048143594 -0.4048202 0 0.25019264
5.5511151e-17 0.024186656 0.0048139691 -0.4048202 0 0.25019264
5.5511151e-17 0.023441225 0.0048135906 -0.4048202 0 0.25019264
5.5511151e-17 0.02269591 0.0048132241 -0.4048202 0 0.25019264
5.5511151e-17 0.021950707 0.0048128692 -0.4048202 0 0.25019264
5.5511151e-17 0.02120561 0.0048125265 -0.4048202 0 0.25019264
5.5511151e-17 0.020460617 0.0048121959 -0.4048202 0 0.25019264
0 0.019715726 0.0048118765 -0.4048202 0 0.25019264
5.5511151e-17 0.018970931 0.0048115696 -0.4048202 0 0.25019264
5.5511151e-17 0.018226229 0.0048112739 -0.4048202 0 0.25019264
0 0.017481616 0.0048109908 -0.4048202 0 0.25019264
5.5511151e-17 0.016737089 0.0048107188 -0.4048202 0 0.25019264
5.5511151e-17 0.015992643 0.004810459 -0.4048202 0 0.25019264
5.5511151e-17 0.015248276 0.0048102112 -0.4048202 0 0.25019264
5.5511151e-17 0.014503985 0.0048099747 -0.4048202 0 0.25019264
0 0.013759764 0.0048097502 -0.4048202 0 0.25019264
5.5511151e-17 0.01301561 0.0048095379 -0.4048202 0 0.25019264
1.110223e-16 0.012271521 0.0048093372 -0.4048202 0 0.25019264
1.110223e-16 0.011527491 0.0048091481 -0.4048202 0 0.25019264
1.110223e-16 0.010783518 0.0048089712 -0.4048202 0 0.25019264
5.5511151e-17 0.010039598 0.0048088059 -0.4048202 0 0.25019264
1.110223e-16 0.0092957262 0.0048086527 -0.4048202 0 0.25019264
1.110223e-16 0.0085519012 0.0048085111 -0.4048202 0 0.25019264
5.5511151e-17 0.0078081172 0.0048083812 -0.4048202 0 0.25019264
5.5511151e-17 0.0070643718 0.0048082629 -0.4048202 0 0.25019264
5.5511151e-17 0.0063206609 0.0048081568 -0.4048202 0 0.25019264
5.5511151e-17 0.0055769808 0.0048080622 -0.4048202 0 0.25019264
5.5511151e-17 0.0048333281 0.0048079798 -0.4048202 0 0.25019264
5.5511151e-17 0.0040896991 0.004807909 -0.4048202 0 0.25019264
5.5511151e-17 0.0033460902 0.0048078499 -0.4048202 0 0.25019264
5.5511151e-17 0.0026024976 0.0048078028 -0.4048202 0 0.25019264
5.5511151e-17 0.0018589178 0.0048077675 -0.4048202 0 0.25019264
5.5511151e-17 0.001115347 0.0048077437 -0.4048202 0 0.25019264
0 0.00037178173 0.0048077321 -0.4048202 0 0.25019264
5.5511151e-17 0.079243764 0.0039918176 -0.4048202 0 0.25019264
0 0.078478999 0.0039907787 -0.4048202 0 0.25019264
0 0.077714629 0.0039897501 -0.4048202 0 0.25019264
0 0.076950647 0.0039887321 -0.4048202 0 0.25019264
0 0.076187059 0.003987724 -0.4048202 0 0.25019264
5.5511151e-17 0.075423852 0.0039867265 -0.4048202 0 0.25019264
5.5511151e-17 0.074661024 0.0039857388 -0.4048202 0 0.25019264
0 0.073898569 0.0039847619 -0.4048202 0 0.25019264
5.5511151e-17 0.073136486 0.0039837952 -0.4048202 0 0.25019264
