# .PCD v0.7 - Point Cloud Data file format
VERSION 0.7
FIELDS x y z
SIZE 4 4 4
TYPE F F F
COUNT 1 1 1
WIDTH 1341
HEIGHT 1
VIEWPOINT 0 0 0 1 0 0 0
POINTS 1341
DATA ascii
-0.033485685 -0.11728218 0.80200005
-0.032027688 -0.11728218 0.80200005
-0.030569695 -0.11728218 0.80200005
-0.029111698 -0.11728218 0.80200005
-0.027584743 -0.11698971 0.80000001
-0.026130384 -0.11698971 0.80000001
-0.024676027 -0.11698971 0.80000001
-0.023221668 -0.11698971 0.80000001
-0.021712892 -0.11669724 0.79800004
-0.02031295 -0.11698971 0.80000001
-0.018858593 -0.11698971 0.80000001
-0.017404234 -0.11698971 0.80000001
-0.015910001 -0.11669724 0.79800004
-0.014459278 -0.11669724 0.79800004
-0.0082767215 -0.11157893 0.76300001
-0.0055025332 -0.11157893 0.76300001
-0.0041262265 -0.11187141 0.76500005
0.0028976486 -0.11464991 0.78400004
0.0043339478 -0.11494239 0.78600001
0.0057775187 -0.11523486 0.78800005
0.0072192117 -0.1153811 0.78900003
0.0086755082 -0.11567357 0.79100001
0.010113505 -0.11567357 0.79100001
0.011580708 -0.11596605 0.79300004
0.013022342 -0.11596605 0.79300004
0.014555173 -0.11669724 0.79800004
0.016005894 -0.11669724 0.79800004
0.017500369 -0.11698971 0.80000001
0.019049499 -0.11757465 0.80400002
0.020562153 -0.11786713 0.80600005
0.021972761 -0.11757465 0.80400002
0.023376098 -0.11728218 0.80200005
0.024834091 -0.11728218 0.80200005
0.026423218 -0.11786713 0.80600005
0.028096091 -0.11874455 0.81200004
-0.12573491 -0.1175615 0.81400001
-0.12394981 -0.11727265 0.81200004
-0.12247364 -0.11727265 0.81200004
-0.12099747 -0.11727265 0.81200004
-0.11952129 -0.11727265 0.81200004
-0.11804512 -0.11727265 0.81200004
-0.11656895 -0.11727265 0.81200004
-0.11509277 -0.11727265 0.81200004
-0.11361659 -0.11727265 0.81200004
-0.11214042 -0.11727265 0.81200004
-0.11066425 -0.11727265 0.81200004
-0.10918807 -0.11727265 0.81200004
-0.1077119 -0.11727265 0.81200004
-0.10623573 -0.11727265 0.81200004
-0.10450152 -0.1169838 0.81000006
-0.10302899 -0.1169838 0.81000006
-0.10155645 -0.1169838 0.81000006
-0.10033103 -0.11727265 0.81200004
-0.098854855 -0.11727265 0.81200004
-0.097378686 -0.11727265 0.81200004
-0.09590251 -0.11727265 0.81200004
-0.094426334 -0.11727265 0.81200004
-0.08430472 -0.11553956 0.80000001
-0.083057486 -0.11582841 0.80200005
-0.081599489 -0.11582841 0.80200005
-0.0801415 -0.11582841 0.80200005
-0.078487284 -0.11553956 0.80000001
-0.077032931 -0.11553956 0.80000001
-0.07557857 -0.11553956 0.80000001
-0.07412421 -0.11553956 0.80000001
-0.072669849 -0.11553956 0.80000001
-0.071215495 -0.11553956 0.80000001
-0.069761135 -0.11553956 0.80000001
-0.068306774 -0.11553956 0.80000001
-0.066852421 -0.11553956 0.80000001
-0.06539806 -0.11553956 0.80000001
-0.063943699 -0.11553956 0.80000001
-0.062489342 -0.11553956 0.80000001
-0.061034985 -0.11553956 0.80000001
-0.059431676 -0.11525071 0.79800004
-0.058126267 -0.11553956 0.80000001
-0.05667191 -0.11553956 0.80000001
-0.055217553 -0.11553956 0.80000001
-0.053628784 -0.11525071 0.79800004
-0.052178062 -0.11525071 0.79800004
-0.050727341 -0.11525071 0.79800004
-0.049276616 -0.11525071 0.79800004
-0.04794576 -0.11553956 0.80000001
-0.046375174 -0.11525071 0.79800004
-0.044924449 -0.11525071 0.79800004
-0.043473728 -0.11525071 0.79800004
-0.042023007 -0.11525071 0.79800004
-0.040572282 -0.11525071 0.79800004
-0.039219607 -0.11553956 0.80000001
-0.03776525 -0.11553956 0.80000001
-0.03640167 -0.11582841 0.80200005
-0.034943677 -0.11582841 0.80200005
-0.033485685 -0.11582841 0.80200005
-0.032027688 -0.11582841 0.80200005
-0.030569695 -0.11582841 0.80200005
-0.029111698 -0.11582841 0.80200005
-0.027653703 -0.11582841 0.80200005
-0.026195711 -0.11582841 0.80200005
-0.024737716 -0.11582841 0.80200005
-0.023221668 -0.11553956 0.80000001
-0.021712892 -0.11525071 0.79800004
-0.02031295 -0.11553956 0.80000001
-0.018858593 -0.11553956 0.80000001
-0.017360725 -0.11525071 0.79800004
-0.015910001 -0.11525071 0.79800004
-0.0096258204 -0.10976258 0.76000005
-0.0068625384 -0.10976258 0.76000005
-0.0054881098 -0.10990701 0.76100004
-0.004115439 -0.11019585 0.76300001
-0.002735496 -0.1104847 0.76500005
-0.0013447658 -0.1104847 0.76500005
4.5964382e-05 -0.1104847 0.76500005
0.0014366946 -0.1104847 0.76500005
0.0028976486 -0.11322877 0.78400004
0.0043339478 -0.11351761 0.78600001
0.0057775187 -0.11380646 0.78800005
0.0072192117 -0.11395089 0.78900003
0.0086535718 -0.11395089 0.78900003
0.010113505 -0.11423974 0.79100001
0.011580708 -0.11452859 0.79300004
0.013022342 -0.11452859 0.79300004
0.014536933 -0.11510628 0.79700005
0.016005894 -0.11525071 0.79800004
0.017544121 -0.11582841 0.80200005
0.019002113 -0.11582841 0.80200005
0.02051113 -0.11611725 0.80400002
0.021918103 -0.11582841 0.80200005
0.023317803 -0.11553956 0.80000001
0.02477216 -0.11553956 0.80000001
0.026423218 -0.11640611 0.80600005
0.028096091 -0.11727265 0.81200004
0.029645102 -0.1175615 0.81400001
-0.12690216 -0.11580075 0.81200004
-0.12573491 -0.11608598 0.81400001
-0.12394981 -0.11580075 0.81200004
-0.12247364 -0.11580075 0.81200004
-0.12099747 -0.11580075 0.81200004
-0.11952129 -0.11580075 0.81200004
-0.11804512 -0.11580075 0.81200004
-0.11656895 -0.11580075 0.81200004
-0.11509277 -0.11580075 0.81200004
-0.11361659 -0.11580075 0.81200004
-0.11214042 -0.11580075 0.81200004
-0.11066425 -0.11580075 0.81200004
-0.10918807 -0.11580075 0.81200004
-0.1077119 -0.11580075 0.81200004
-0.10623573 -0.11580075 0.81200004
-0.10450152 -0.11551553 0.81000006
-0.10302899 -0.11551553 0.81000006
-0.10155645 -0.11551553 0.81000006
-0.10033103 -0.11580075 0.81200004
-0.098854855 -0.11580075 0.81200004
-0.097138837 -0.11551553 0.81000006
-0.095666297 -0.11551553 0.81000006
-0.094426334 -0.11580075 0.81200004
-0.092721224 -0.11551553 0.81000006
-0.085973479 -0.11437463 0.80200005
-0.084093958 -0.11380419 0.79800004
-0.082643233 -0.11380419 0.79800004
-0.081599489 -0.11437463 0.80200005
-0.0801415 -0.11437463 0.80200005
-0.078487284 -0.11408941 0.80000001
-0.077032931 -0.11408941 0.80000001
-0.07557857 -0.11408941 0.80000001
-0.07412421 -0.11408941 0.80000001
-0.072669849 -0.11408941 0.80000001
-0.071037456 -0.11380419 0.79800004
-0.069586731 -0.11380419 0.79800004
-0.068136014 -0.11380419 0.79800004
-0.066852421 -0.11408941 0.80000001
-0.06539806 -0.11408941 0.80000001
-0.063783839 -0.11380419 0.79800004
-0.062333122 -0.11380419 0.79800004
-0.061034985 -0.11408941 0.80000001
-0.059580628 -0.11408941 0.80000001
-0.058126267 -0.11408941 0.80000001
-0.05667191 -0.11408941 0.80000001
-0.055217553 -0.11408941 0.80000001
-0.053628784 -0.11380419 0.79800004
-0.052178062 -0.11380419 0.79800004
-0.050727341 -0.11380419 0.79800004
-0.049276616 -0.11380419 0.79800004
-0.047825895 -0.11380419 0.79800004
-0.046375174 -0.11380419 0.79800004
-0.044924449 -0.11380419 0.79800004
-0.043473728 -0.11380419 0.79800004
-0.042023007 -0.11380419 0.79800004
-0.040673967 -0.11408941 0.80000001
-0.039219607 -0.11408941 0.80000001
-0.03776525 -0.11408941 0.80000001
-0.03640167 -0.11437463 0.80200005
-0.034943677 -0.11437463 0.80200005
-0.033485685 -0.11437463 0.80200005
-0.032027688 -0.11437463 0.80200005
-0.030569695 -0.11437463 0.80200005
-0.029184297 -0.11465985 0.80400002
-0.027653703 -0.11437463 0.80200005
-0.026195711 -0.11437463 0.80200005
-0.024737716 -0.11437463 0.80200005
-0.023279721 -0.11437463 0.80200005
-0.021767309 -0.11408941 0.80000001
-0.02031295 -0.11408941 0.80000001
-0.018858593 -0.11408941 0.80000001
-0.017404234 -0.11408941 0.80000001
-0.015949875 -0.11408941 0.80000001
-0.013698263 -0.1078145 0.75600004
-0.012323895 -0.1078145 0.75600004
-0.010978493 -0.10809971 0.75800002
-0.0096258204 -0.10838494 0.76000005
-0.008222484 -0.10809971 0.75800002
-0.0068625384 -0.10838494 0.76000005
-0.0054808981 -0.10838494 0.76000005
-0.004115439 -0.10881278 0.76300001
-0.0027283446 -0.10881278 0.76300001
-0.0013447658 -0.10909799 0.76500005
4.6084551e-05 -0.10938322 0.76700002
0.0014404507 -0.10938322 0.76700002
0.0028717767 -0.11080934 0.77700001
0.0043118917 -0.1115224 0.78200006
0.0057628551 -0.11209285 0.78600001
0.0072100619 -0.11237807 0.78800005
0.0086426046 -0.11237807 0.78800005
0.010087933 -0.11252068 0.78900003
0.011522294 -0.11252068 0.78900003
0.012956655 -0.11252068 0.78900003
0.014500454 -0.11337635 0.79500002
0.016005894 -0.11380419 0.79800004
0.017500369 -0.11408941 0.80000001
0.018954726 -0.11408941 0.80000001
0.020460108 -0.11437463 0.80200005
0.021863444 -0.11408941 0.80000001
0.023317803 -0.11408941 0.80000001
0.02477216 -0.11408941 0.80000001
0.026357651 -0.11465985 0.80400002
0.027888484 -0.11494508 0.80600005
0.029353751 -0.11494508 0.80600005
0.030819016 -0.11494508 0.80600005
-0.12690216 -0.11432885 0.81200004
-0.12542598 -0.11432885 0.81200004
-0.12394981 -0.11432885 0.81200004
-0.12247364 -0.11432885 0.81200004
-0.12099747 -0.11432885 0.81200004
-0.11952129 -0.11432885 0.81200004
-0.11804512 -0.11432885 0.81200004
-0.11656895 -0.11432885 0.81200004
-0.11509277 -0.11432885 0.81200004
-0.11361659 -0.11432885 0.81200004
-0.11214042 -0.11432885 0.81200004
-0.11066425 -0.11432885 0.81200004
-0.10918807 -0.11432885 0.81200004
-0.1077119 -0.11432885 0.81200004
-0.10623573 -0.11432885 0.81200004
-0.10450152 -0.11404725 0.81000006
-0.10328338 -0.11432885 0.81200004
-0.10180721 -0.11432885 0.81200004
-0.10033103 -0.11432885 0.81200004
-0.098611377 -0.11404725 0.81000006
-0.097138837 -0.11404725 0.81000006
-0.095666297 -0.11404725 0.81000006
-0.094426334 -0.11432885 0.81200004
-0.092721224 -0.11404725 0.81000006
-0.085544683 -0.11235767 0.79800004
-0.084093958 -0.11235767 0.79800004
-0.082643233 -0.11235767 0.79800004
-0.081599489 -0.11292086 0.80200005
-0.0801415 -0.11292086 0.80200005
-0.078487284 -0.11263926 0.80000001
-0.077032931 -0.11263926 0.80000001
-0.07557857 -0.11263926 0.80000001
-0.07412421 -0.11263926 0.80000001
-0.072488181 -0.11235767 0.79800004
-0.071037456 -0.11235767 0.79800004
-0.069586731 -0.11235767 0.79800004
-0.068136014 -0.11235767 0.79800004
-0.066685289 -0.11235767 0.79800004
-0.065234564 -0.11235767 0.79800004
-0.063943699 -0.11263926 0.80000001
-0.062489342 -0.11263926 0.80000001
-0.061034985 -0.11263926 0.80000001
-0.059580628 -0.11263926 0.80000001
-0.058271587 -0.11292086 0.80200005
-0.056813594 -0.11292086 0.80200005
-0.055217553 -0.11263926 0.80000001
-0.053628784 -0.11235767 0.79800004
-0.052178062 -0.11235767 0.79800004
-0.050727341 -0.11235767 0.79800004
-0.049276616 -0.11235767 0.79800004
-0.047825895 -0.11235767 0.79800004
-0.046375174 -0.11235767 0.79800004
-0.044924449 -0.11235767 0.79800004
-0.043473728 -0.11235767 0.79800004
-0.04223365 -0.11292086 0.80200005
-0.040775653 -0.11292086 0.80200005
-0.03931766 -0.11292086 0.80200005
-0.037954077 -0.11320245 0.80400002
-0.036492448 -0.11320245 0.80400002
-0.035030819 -0.11320245 0.80400002
-0.033569187 -0.11320245 0.80400002
-0.032107558 -0.11320245 0.80400002
-0.030569695 -0.11292086 0.80200005
-0.029184297 -0.11320245 0.80400002
-0.027653703 -0.11292086 0.80200005
-0.026195711 -0.11292086 0.80200005
-0.024737716 -0.11292086 0.80200005
-0.023221668 -0.11263926 0.80000001
-0.021767309 -0.11263926 0.80000001
-0.020363733 -0.11292086 0.80200005
-0.018905738 -0.11292086 0.80200005
-0.016447 -0.10644411 0.75600004
-0.015012821 -0.10602171 0.75300002
-0.013698263 -0.10644411 0.75600004
-0.012323895 -0.10644411 0.75600004
-0.010978493 -0.1067257 0.75800002
-0.0096004885 -0.1067257 0.75800002
-0.008222484 -0.1067257 0.75800002
-0.0068444796 -0.1067257 0.75800002
-0.0054808981 -0.10700729 0.76000005
-0.0041046515 -0.1071481 0.76100004
-0.0027283446 -0.1074297 0.76300001
-0.0013447658 -0.10771129 0.76500005
4.5964382e-05 -0.10771129 0.76500005
0.0014366946 -0.10771129 0.76500005
0.0028348167 -0.10799289 0.76700002
0.0042291833 -0.10799289 0.76700002
0.0070911138 -0.10911928 0.77500004
0.0086206691 -0.11066807 0.78600001
0.010049576 -0.11066807 0.78600001
0.011507691 -0.11094967 0.78800005
0.012956655 -0.11109047 0.78900003
0.014427496 -0.11137207 0.79100001
0.015945723 -0.11193527 0.79500002
0.01743474 -0.11221687 0.79700005
0.01890734 -0.11235767 0.79800004
0.020358061 -0.11235767 0.79800004
0.021863444 -0.11263926 0.80000001
0.023317803 -0.11263926 0.80000001
0.02477216 -0.11263926 0.80000001
0.026292086 -0.11292086 0.80200005
0.02775008 -0.11292086 0.80200005
0.029208075 -0.11292086 0.80200005
0.030589595 -0.11263926 0.80000001
0.032043956 -0.11263926 0.80000001
-0.13165414 -0.11313493 0.81400001
-0.13017434 -0.11313493 0.81400001
-0.12837833 -0.11285695 0.81200004
-0.12690216 -0.11285695 0.81200004
-0.12542598 -0.11285695 0.81200004
-0.12394981 -0.11285695 0.81200004
-0.12247364 -0.11285695 0.81200004
-0.12099747 -0.11285695 0.81200004
-0.11952129 -0.11285695 0.81200004
-0.11804512 -0.11285695 0.81200004
-0.11656895 -0.11285695 0.81200004
-0.11509277 -0.11285695 0.81200004
-0.11361659 -0.11285695 0.81200004
-0.11214042 -0.11285695 0.81200004
-0.11066425 -0.11285695 0.81200004
-0.10918807 -0.11285695 0.81200004
-0.1077119 -0.11285695 0.81200004
-0.10623573 -0.11285695 0.81200004
-0.10475955 -0.11285695 0.81200004
-0.10328338 -0.11285695 0.81200004
-0.10180721 -0.11285695 0.81200004
-0.10033103 -0.11285695 0.81200004
-0.098611377 -0.11257897 0.81000006
-0.097138837 -0.11257897 0.81000006
-0.095666297 -0.11257897 0.81000006
-0.094426334 -0.11285695 0.81200004
-0.092950165 -0.11285695 0.81200004
-0.08430472 -0.11118911 0.80000001
-0.082850359 -0.11118911 0.80000001
-0.081599489 -0.11146709 0.80200005
-0.0801415 -0.11146709 0.80200005
-0.078487284 -0.11118911 0.80000001
-0.077032931 -0.11118911 0.80000001
-0.07557857 -0.11118911 0.80000001
-0.07412421 -0.11118911 0.80000001
-0.072488181 -0.11091115 0.79800004
-0.071037456 -0.11091115 0.79800004
-0.069586731 -0.11091115 0.79800004
-0.068306774 -0.11118911 0.80000001
-0.066852421 -0.11118911 0.80000001
-0.065234564 -0.11091115 0.79800004
-0.063943699 -0.11118911 0.80000001
-0.062489342 -0.11118911 0.80000001
-0.061034985 -0.11118911 0.80000001
-0.059580628 -0.11118911 0.80000001
-0.058126267 -0.11118911 0.80000001
-0.05653023 -0.11091115 0.79800004
-0.055079509 -0.11091115 0.79800004
-0.053628784 -0.11091115 0.79800004
-0.052178062 -0.11091115 0.79800004
-0.050663773 -0.11077216 0.79700005
-0.049214866 -0.11077216 0.79700005
-0.047825895 -0.11091115 0.79800004
-0.046375174 -0.11091115 0.79800004
-0.044924449 -0.11091115 0.79800004
-0.043473728 -0.11091115 0.79800004
-0.040877338 -0.11174506 0.80400002
-0.03941571 -0.11174506 0.80400002
-0.037954077 -0.11174506 0.80400002
-0.036492448 -0.11174506 0.80400002
-0.035030819 -0.11174506 0.80400002
-0.033569187 -0.11174506 0.80400002
-0.032107558 -0.11174506 0.80400002
-0.030645927 -0.11174506 0.80400002
-0.029184297 -0.11174506 0.80400002
-0.027653703 -0.11146709 0.80200005
-0.026195711 -0.11146709 0.80200005
-0.024737716 -0.11146709 0.80200005
-0.023279721 -0.11146709 0.80200005
-0.021767309 -0.11118911 0.80000001
-0.020363733 -0.11146709 0.80200005
-0.018905738 -0.11146709 0.80200005
-0.017447744 -0.11146709 0.80200005
-0.015072632 -0.10507371 0.75600004
-0.013698263 -0.10507371 0.75600004
-0.012323895 -0.10507371 0.75600004
-0.010949526 -0.10507371 0.75600004
-0.0096004885 -0.10535169 0.75800002
-0.0082007889 -0.10507371 0.75600004
-0.0068444796 -0.10535169 0.75800002
-0.0054664747 -0.10535169 0.75800002
-0.0040992578 -0.10562966 0.76000005
-0.0027211928 -0.10576864 0.76100004
-0.0013412501 -0.10604662 0.76300001
4.5844212e-05 -0.10604662 0.76300001
0.0014366946 -0.10632459 0.76500005
0.002827425 -0.10632459 0.76500005
0.0042291833 -0.10660256 0.76700002
0.0056235492 -0.10660256 0.76700002
0.0085219592 -0.10799243 0.77700001
0.010049576 -0.1092433 0.78600001
0.011478483 -0.1092433 0.78600001
0.012940234 -0.10952127 0.78800005
0.014391016 -0.10966026 0.78900003
0.015905607 -0.11021622 0.79300004
0.01743474 -0.11077216 0.79700005
0.018883646 -0.11077216 0.79700005
0.020332551 -0.11077216 0.79700005
0.021808784 -0.11091115 0.79800004
0.023259507 -0.11091115 0.79800004
0.02477216 -0.11118911 0.80000001
0.026226519 -0.11118911 0.80000001
0.02775008 -0.11146709 0.80200005
0.029208075 -0.11146709 0.80200005
0.030513121 -0.11091115 0.79800004
0.031963844 -0.11091115 0.79800004
-0.13461377 -0.1116594 0.81400001
-0.13313396 -0.1116594 0.81400001
-0.13165414 -0.1116594 0.81400001
-0.12985452 -0.11138505 0.81200004
-0.12806213 -0.1111107 0.81000006
-0.12690216 -0.11138505 0.81200004
-0.12542598 -0.11138505 0.81200004
-0.12394981 -0.11138505 0.81200004
-0.12247364 -0.11138505 0.81200004
-0.12099747 -0.11138505 0.81200004
-0.11952129 -0.11138505 0.81200004
-0.11804512 -0.11138505 0.81200004
-0.11656895 -0.11138505 0.81200004
-0.11509277 -0.11138505 0.81200004
-0.11361659 -0.11138505 0.81200004
-0.11214042 -0.11138505 0.81200004
-0.11066425 -0.11138505 0.81200004
-0.10918807 -0.11138505 0.81200004
-0.1077119 -0.11138505 0.81200004
-0.10623573 -0.11138505 0.81200004
-0.10475955 -0.11138505 0.81200004
-0.10328338 -0.11138505 0.81200004
-0.10180721 -0.11138505 0.81200004
-0.10033103 -0.11138505 0.81200004
-0.098611377 -0.1111107 0.81000006
-0.097138837 -0.1111107 0.81000006
-0.095666297 -0.1111107 0.81000006
-0.094193764 -0.1111107 0.81000006
-0.092492282 -0.11083636 0.80800003
-0.090798065 -0.11056201 0.80600005
-0.08430472 -0.10973897 0.80000001
-0.082850359 -0.10973897 0.80000001
-0.081396006 -0.10973897 0.80000001
-0.079941645 -0.10973897 0.80000001
-0.078291066 -0.10946462 0.79800004
-0.076840349 -0.10946462 0.79800004
-0.07557857 -0.10973897 0.80000001
-0.07412421 -0.10973897 0.80000001
-0.072488181 -0.10946462 0.79800004
-0.071037456 -0.10946462 0.79800004
-0.069586731 -0.10946462 0.79800004
-0.068136014 -0.10946462 0.79800004
-0.066852421 -0.10973897 0.80000001
-0.065234564 -0.10946462 0.79800004
-0.063943699 -0.10973897 0.80000001
-0.062645569 -0.11001331 0.80200005
-0.061187573 -0.11001331 0.80200005
-0.059729576 -0.11001331 0.80200005
-0.055079509 -0.10946462 0.79800004
-0.053628784 -0.10946462 0.79800004
-0.052178062 -0.10946462 0.79800004
-0.050663773 -0.10932744 0.79700005
-0.049214866 -0.10932744 0.79700005
-0.047825895 -0.10946462 0.79800004
-0.046375174 -0.10946462 0.79800004
-0.044924449 -0.10946462 0.79800004
-0.043473728 -0.10946462 0.79800004
-0.040877338 -0.11028766 0.80400002
-0.03941571 -0.11028766 0.80400002
-0.037954077 -0.11028766 0.80400002
-0.036492448 -0.11028766 0.80400002
-0.035030819 -0.11028766 0.80400002
-0.033569187 -0.11028766 0.80400002
-0.032107558 -0.11028766 0.80400002
-0.030645927 -0.11028766 0.80400002
-0.029184297 -0.11028766 0.80400002
-0.027653703 -0.11001331 0.80200005
-0.026195711 -0.11001331 0.80200005
-0.024737716 -0.11001331 0.80200005
-0.023221668 -0.10973897 0.80000001
-0.021767309 -0.10973897 0.80000001
-0.02031295 -0.10973897 0.80000001
-0.01782137 -0.10370333 0.75600004
-0.016447 -0.10370333 0.75600004
-0.015072632 -0.10370333 0.75600004
-0.013698263 -0.10370333 0.75600004
-0.012323895 -0.10370333 0.75600004
-0.010949526 -0.10370333 0.75600004
-0.0095751574 -0.10370333 0.75600004
-0.0082007889 -0.10370333 0.75600004
-0.0068264198 -0.10370333 0.75600004
-0.0054664747 -0.10397767 0.75800002
-0.0040992578 -0.10425202 0.76000005
-0.002717617 -0.10425202 0.76000005
-0.0013377344 -0.10438919 0.76100004
4.5844212e-05 -0.10466354 0.76300001
0.0014329385 -0.10466354 0.76300001
0.002827425 -0.10493788 0.76500005
0.0042181551 -0.10493788 0.76500005
0.0056088855 -0.10493788 0.76500005
0.0070179156 -0.10521223 0.76700002
0.0084671201 -0.1058981 0.77200001
0.0099089332 -0.10630962 0.77500004
0.011317844 -0.10630962 0.77500004
0.012759596 -0.10658398 0.77700001
0.014336297 -0.10781853 0.78600001
0.015765205 -0.10781853 0.78600001
0.017347241 -0.10877875 0.79300004
0.018788872 -0.10877875 0.79300004
0.020281529 -0.1090531 0.79500002
0.021781456 -0.10932744 0.79700005
0.023230359 -0.10932744 0.79700005
0.024710231 -0.10946462 0.79800004
0.026160952 -0.10946462 0.79800004
0.027680878 -0.10973897 0.80000001
0.029135237 -0.10973897 0.80000001
0.030474884 -0.10932744 0.79700005
0.031963844 -0.10946462 0.79800004
0.033414565 -0.10946462 0.79800004
0.034646835 -0.10877875 0.79300004
-0.14179863 -0.1135679 0.83900005
-0.14027336 -0.1135679 0.83900005
-0.13477914 -0.11031923 0.81500006
-0.13313396 -0.11018387 0.81400001
-0.13133068 -0.10991315 0.81200004
-0.12985452 -0.10991315 0.81200004
-0.12806213 -0.10964242 0.81000006
-0.12690216 -0.10991315 0.81200004
-0.12542598 -0.10991315 0.81200004
-0.12394981 -0.10991315 0.81200004
-0.12247364 -0.10991315 0.81200004
-0.12099747 -0.10991315 0.81200004
-0.11952129 -0.10991315 0.81200004
-0.11804512 -0.10991315 0.81200004
-0.11656895 -0.10991315 0.81200004
-0.11509277 -0.10991315 0.81200004
-0.11361659 -0.10991315 0.81200004
-0.11214042 -0.10991315 0.81200004
-0.11066425 -0.10991315 0.81200004
-0.10918807 -0.10991315 0.81200004
-0.1077119 -0.10991315 0.81200004
-0.10623573 -0.10991315 0.81200004
-0.10475955 -0.10991315 0.81200004
-0.10328338 -0.10991315 0.81200004
-0.10180721 -0.10991315 0.81200004
-0.10033103 -0.10991315 0.81200004
-0.098854855 -0.10991315 0.81200004
-0.097138837 -0.10964242 0.81000006
-0.095666297 -0.10964242 0.81000006
-0.094193764 -0.10964242 0.81000006
-0.092492282 -0.10937171 0.80800003
-0.090798065 -0.10910098 0.80600005
-0.089332804 -0.10910098 0.80600005
-0.082643233 -0.1080181 0.79800004
-0.081396006 -0.10828882 0.80000001
-0.079941645 -0.10828882 0.80000001
-0.078291066 -0.1080181 0.79800004
-0.076840349 -0.1080181 0.79800004
-0.07557857 -0.10828882 0.80000001
-0.073938899 -0.1080181 0.79800004
-0.072488181 -0.1080181 0.79800004
-0.071037456 -0.1080181 0.79800004
-0.069586731 -0.1080181 0.79800004
-0.068136014 -0.1080181 0.79800004
-0.066852421 -0.10828882 0.80000001
-0.065234564 -0.1080181 0.79800004
-0.063943699 -0.10828882 0.80000001
-0.060145993 -0.10422798 0.77000004
-0.058593586 -0.10395727 0.76800001
-0.057197403 -0.10395727 0.76800001
-0.056091849 -0.10449871 0.77200001
-0.054688394 -0.10449871 0.77200001
-0.053284936 -0.10449871 0.77200001
-0.053628784 -0.1080181 0.79800004
-0.052178062 -0.1080181 0.79800004
-0.050663773 -0.10788273 0.79700005
-0.049214866 -0.10788273 0.79700005
-0.047765963 -0.10788273 0.79700005
-0.046375174 -0.1080181 0.79800004
-0.044924449 -0.1080181 0.79800004
-0.043473728 -0.1080181 0.79800004
-0.04223365 -0.10855953 0.80200005
-0.040877338 -0.10883026 0.80400002
-0.039513756 -0.10910098 0.80600005
-0.037954077 -0.10883026 0.80400002
-0.036583226 -0.10910098 0.80600005
-0.035030819 -0.10883026 0.80400002
-0.033569187 -0.10883026 0.80400002
-0.032107558 -0.10883026 0.80400002
-0.030645927 -0.10883026 0.80400002
-0.029184297 -0.10883026 0.80400002
-0.027722668 -0.10883026 0.80400002
-0.026261037 -0.10883026 0.80400002
-0.024737716 -0.10855953 0.80200005
-0.023279721 -0.10855953 0.80200005
-0.01924652 -0.10260365 0.75800002
-0.01782137 -0.10233293 0.75600004
-0.016447 -0.10233293 0.75600004
-0.015072632 -0.10233293 0.75600004
-0.013698263 -0.10233293 0.75600004
-0.012307594 -0.10219757 0.75500005
-0.010935043 -0.10219757 0.75500005
-0.0095624914 -0.10219757 0.75500005
-0.0081899408 -0.10219757 0.75500005
-0.0068173902 -0.10219757 0.75500005
-0.0054520508 -0.10233293 0.75600004
-0.0040884702 -0.10260365 0.75800002
-0.0027104656 -0.10260365 0.75800002
-0.0013377344 -0.10300974 0.76100004
4.5724046e-05 -0.10300974 0.76100004
0.0014291826 -0.10300974 0.76100004
0.0028200329 -0.10328046 0.76300001
0.0042071273 -0.10328046 0.76300001
0.0056088855 -0.10355118 0.76500005
0.0070179156 -0.1038219 0.76700002
0.0084232492 -0.10395727 0.76800001
0.0098705767 -0.10449871 0.77200001
0.011274032 -0.10449871 0.77200001
0.012693909 -0.10463407 0.77300006
0.014135662 -0.10490479 0.77500004
0.015544572 -0.10490479 0.77500004
0.016953481 -0.10490479 0.77500004
0.018741485 -0.10707057 0.79100001
0.020230506 -0.10734129 0.79300004
0.021726798 -0.10761201 0.79500002
0.023172066 -0.10761201 0.79500002
0.024617335 -0.10761201 0.79500002
0.026062604 -0.10761201 0.79500002
0.027611675 -0.1080181 0.79800004
0.028953141 -0.10761201 0.79500002
0.03039841 -0.10761201 0.79500002
0.031843677 -0.10761201 0.79500002
0.0332052 -0.10734129 0.79300004
-0.14602546 -0.11177996 0.83700001
-0.14450385 -0.11177996 0.83700001
-0.14298223 -0.11177996 0.83700001
-0.14179863 -0.11204705 0.83900005
-0.14027336 -0.11204705 0.83900005
-0.13841736 -0.11177996 0.83700001
-0.13689573 -0.11177996 0.83700001
-0.13068374 -0.10790706 0.80800003
-0.12921484 -0.10790706 0.80800003
-0.12806213 -0.10817415 0.81000006
-0.12658958 -0.10817415 0.81000006
-0.12542598 -0.10844125 0.81200004
-0.12394981 -0.10844125 0.81200004
-0.12247364 -0.10844125 0.81200004
-0.12099747 -0.10844125 0.81200004
-0.11952129 -0.10844125 0.81200004
-0.11804512 -0.10844125 0.81200004
-0.11656895 -0.10844125 0.81200004
-0.11537625 -0.10870834 0.81400001
-0.11389644 -0.10870834 0.81400001
-0.11214042 -0.10844125 0.81200004
-0.11066425 -0.10844125 0.81200004
-0.10945701 -0.10870834 0.81400001
-0.1077119 -0.10844125 0.81200004
-0.10623573 -0.10844125 0.81200004
-0.10475955 -0.10844125 0.81200004
-0.10328338 -0.10844125 0.81200004
-0.10180721 -0.10844125 0.81200004
-0.10033103 -0.10844125 0.81200004
-0.098611377 -0.10817415 0.81000006
-0.097138837 -0.10817415 0.81000006
-0.095666297 -0.10817415 0.81000006
-0.094193764 -0.10817415 0.81000006
-0.092263333 -0.10763996 0.80600005
-0.087531142 -0.10376706 0.77700001
-0.086118601 -0.10376706 0.77700001
-0.084706053 -0.10376706 0.77700001
-0.083293505 -0.10376706 0.77700001
-0.082539678 -0.10643803 0.79700005
-0.081090771 -0.10643803 0.79700005
-0.079741791 -0.10657158 0.79800004
-0.078291066 -0.10657158 0.79800004
-0.076840349 -0.10657158 0.79800004
-0.075389624 -0.10657158 0.79800004
-0.073938899 -0.10657158 0.79800004
-0.072488181 -0.10657158 0.79800004
-0.071037456 -0.10657158 0.79800004
-0.069586731 -0.10657158 0.79800004
-0.068136014 -0.10657158 0.79800004
-0.066685289 -0.10657158 0.79800004
-0.062945634 -0.10283221 0.77000004
-0.061545815 -0.10283221 0.77000004
-0.060145993 -0.10283221 0.77000004
-0.058593586 -0.10256512 0.76800001
-0.057197403 -0.10256512 0.76800001
-0.056091849 -0.10309931 0.77200001
-0.054688394 -0.10309931 0.77200001
-0.053284936 -0.10309931 0.77200001
-0.051881481 -0.10309931 0.77200001
-0.052112676 -0.10643803 0.79700005
-0.050663773 -0.10643803 0.79700005
-0.049214866 -0.10643803 0.79700005
-0.047765963 -0.10643803 0.79700005
-0.046375174 -0.10657158 0.79800004
-0.044924449 -0.10657158 0.79800004
-0.043691643 -0.10710576 0.80200005
-0.04223365 -0.10710576 0.80200005
-0.040877338 -0.10737286 0.80400002
-0.039513756 -0.10763996 0.80600005
-0.038048491 -0.10763996 0.80600005
-0.036583226 -0.10763996 0.80600005
-0.035117958 -0.10763996 0.80600005
-0.033652693 -0.10763996 0.80600005
-0.032187428 -0.10763996 0.80600005
-0.03072216 -0.10763996 0.80600005
-0.029256895 -0.10763996 0.80600005
-0.027722668 -0.10737286 0.80400002
-0.026261037 -0.10737286 0.80400002
-0.024799407 -0.10737286 0.80400002
-0.01924652 -0.10122964 0.75800002
-0.017868515 -0.10122964 0.75800002
-0.016447 -0.10096254 0.75600004
-0.015072632 -0.10096254 0.75600004
-0.013698263 -0.10096254 0.75600004
-0.012307594 -0.10082899 0.75500005
-0.010935043 -0.10082899 0.75500005
-0.0095624914 -0.10082899 0.75500005
-0.0081899408 -0.10082899 0.75500005
-0.0068173902 -0.10082899 0.75500005
-0.0054448396 -0.10082899 0.75500005
-0.0040776823 -0.10096254 0.75600004
-0.0027033137 -0.10096254 0.75600004
-0.0013324608 -0.10122964 0.75800002
4.5663961e-05 -0.10149673 0.76000005
0.0014273045 -0.10149673 0.76000005
0.0028200329 -0.10189738 0.76300001
0.0042071273 -0.10189738 0.76300001
0.0055942214 -0.10189738 0.76300001
0.0069996156 -0.10216448 0.76500005
0.0084122811 -0.10243157 0.76700002
0.0098450044 -0.10283221 0.77000004
0.011274032 -0.10309931 0.77200001
0.012677488 -0.10309931 0.77200001
0.014099183 -0.10323286 0.77300006
0.015504457 -0.10323286 0.77300006
0.016953481 -0.10349996 0.77500004
0.018623019 -0.10496899 0.78600001
0.020128461 -0.10536963 0.78900003
0.021672139 -0.10590383 0.79300004
0.02311377 -0.10590383 0.79300004
0.024617335 -0.10617093 0.79500002
0.026062604 -0.10617093 0.79500002
0.027577072 -0.10643803 0.79700005
0.028953141 -0.10617093 0.79500002
0.03039841 -0.10617093 0.79500002
0.031763569 -0.10590383 0.79300004
0.0332052 -0.10590383 0.79300004
-0.14942491 -0.11052621 0.83900005
-0.14789966 -0.11052621 0.83900005
-0.1463744 -0.11052621 0.83900005
-0.14484914 -0.11052621 0.83900005
-0.14332388 -0.11052621 0.83900005
-0.14213663 -0.11078968 0.84100002
-0.14060774 -0.11078968 0.84100002
-0.13907884 -0.11078968 0.84100002
-0.13754995 -0.11078968 0.84100002
-0.13602106 -0.11078968 0.84100002
-0.12953466 -0.10670587 0.81000006
-0.12806213 -0.10670587 0.81000006
-0.12690216 -0.10696934 0.81200004
-0.12542598 -0.10696934 0.81200004
-0.12394981 -0.10696934 0.81200004
-0.12247364 -0.10696934 0.81200004
-0.12099747 -0.10696934 0.81200004
-0.11952129 -0.10696934 0.81200004
-0.11804512 -0.10696934 0.81200004
-0.11656895 -0.10696934 0.81200004
-0.11537625 -0.10723282 0.81400001
-0.11389644 -0.10723282 0.81400001
-0.11214042 -0.10696934 0.81200004
-0.11066425 -0.10696934 0.81200004
-0.10918807 -0.10696934 0.81200004
-0.1077119 -0.10696934 0.81200004
-0.10623573 -0.10696934 0.81200004
-0.10475955 -0.10696934 0.81200004
-0.10328338 -0.10696934 0.81200004
-0.10180721 -0.10696934 0.81200004
-0.10033103 -0.10696934 0.81200004
-0.098611377 -0.10670587 0.81000006
-0.097138837 -0.10670587 0.81000006
-0.095666297 -0.10670587 0.81000006
-0.093961187 -0.10644241 0.80800003
-0.092263333 -0.10617894 0.80600005
-0.087531142 -0.1023586 0.77700001
-0.086118601 -0.1023586 0.77700001
-0.084706053 -0.1023586 0.77700001
-0.083293505 -0.1023586 0.77700001
-0.081880964 -0.1023586 0.77700001
-0.080468416 -0.1023586 0.77700001
-0.079259358 -0.10262207 0.77900004
-0.079641871 -0.10499331 0.79700005
-0.078192964 -0.10499331 0.79700005
-0.077032931 -0.10538852 0.80000001
-0.07557857 -0.10538852 0.80000001
-0.07430952 -0.10565199 0.80200005
-0.072488181 -0.10512505 0.79800004
-0.071037456 -0.10512505 0.79800004
-0.069761135 -0.10538852 0.80000001
-0.068306774 -0.10538852 0.80000001
-0.064345457 -0.10143645 0.77000004
-0.062945634 -0.10143645 0.77000004
-0.061545815 -0.10143645 0.77000004
-0.060145993 -0.10143645 0.77000004
-0.058746174 -0.10143645 0.77000004
-0.057346355 -0.10143645 0.77000004
-0.055946533 -0.10143645 0.77000004
-0.054546714 -0.10143645 0.77000004
-0.053284936 -0.10169992 0.77200001
-0.051881481 -0.10169992 0.77200001
-0.051981904 -0.10472985 0.79500002
-0.050536636 -0.10472985 0.79500002
-0.049214866 -0.10499331 0.79700005
-0.047825895 -0.10512505 0.79800004
-0.046375174 -0.10512505 0.79800004
-0.044924449 -0.10512505 0.79800004
-0.043691643 -0.10565199 0.80200005
-0.042338971 -0.10591546 0.80400002
-0.040979024 -0.10617894 0.80600005
-0.039611805 -0.10644241 0.80800003
-0.038142905 -0.10644241 0.80800003
-0.036764778 -0.10670587 0.81000006
-0.0352051 -0.10644241 0.80800003
-0.033736199 -0.10644241 0.80800003
-0.032267295 -0.10644241 0.80800003
-0.030798394 -0.10644241 0.80800003
-0.029329492 -0.10644241 0.80800003
-0.027791629 -0.10617894 0.80600005
-0.026326362 -0.10617894 0.80600005
-0.020570107 -0.099592157 0.75600004
-0.019195737 -0.099592157 0.75600004
-0.017868515 -0.099855624 0.75800002
-0.016447 -0.099592157 0.75600004
-0.015072632 -0.099592157 0.75600004
-0.013698263 -0.099592157 0.75600004
-0.012307594 -0.099460416 0.75500005
-0.010935043 -0.099460416 0.75500005
-0.0095624914 -0.099460416 0.75500005
-0.0081899408 -0.099460416 0.75500005
-0.0068173902 -0.099460416 0.75500005
-0.0054448396 -0.099460416 0.75500005
-0.0040776823 -0.099592157 0.75600004
-0.0027033137 -0.099592157 0.75600004
-0.001328945 -0.099592157 0.75600004
4.5543791e-05 -0.099855624 0.75800002
0.0014235484 -0.099855624 0.75800002
0.002812641 -0.10025083 0.76100004
0.0042071273 -0.1005143 0.76300001
0.0055942214 -0.1005143 0.76300001
0.0069996156 -0.10077777 0.76500005
0.0084122811 -0.10104124 0.76700002
0.0098450044 -0.10143645 0.77000004
0.011274032 -0.10169992 0.77200001
0.012677488 -0.10169992 0.77200001
0.014099183 -0.10183166 0.77300006
0.015504457 -0.10183166 0.77300006
0.016953481 -0.10209513 0.77500004
0.018409779 -0.1023586 0.77700001
0.019873347 -0.10262207 0.77900004
0.021426177 -0.10328075 0.78400004
0.022997184 -0.10393943 0.78900003
0.024493473 -0.1042029 0.79100001
0.025997037 -0.10446637 0.79300004
0.02743867 -0.10446637 0.79300004
0.028880302 -0.10446637 0.79300004
0.030321935 -0.10446637 0.79300004
0.031683456 -0.1042029 0.79100001
-0.15095018 -0.10900537 0.83900005
-0.14942491 -0.10900537 0.83900005
-0.14789966 -0.10900537 0.83900005
-0.1463744 -0.10900537 0.83900005
-0.14519443 -0.10926521 0.84100002
-0.14332388 -0.10900537 0.83900005
-0.14213663 -0.10926521 0.84100002
-0.14060774 -0.10926521 0.84100002
-0.13907884 -0.10926521 0.84100002
-0.13722286 -0.10900537 0.83900005
-0.13602106 -0.10926521 0.84100002
-0.12921484 -0.10497776 0.80800003
-0.12806213 -0.1052376 0.81000006
-0.12690216 -0.10549744 0.81200004
-0.12542598 -0.10549744 0.81200004
-0.12394981 -0.10549744 0.81200004
-0.12217198 -0.1052376 0.81000006
-0.12099747 -0.10549744 0.81200004
-0.11952129 -0.10549744 0.81200004
-0.11804512 -0.10549744 0.81200004
-0.11656895 -0.10549744 0.81200004
-0.11509277 -0.10549744 0.81200004
-0.11361659 -0.10549744 0.81200004
-0.11214042 -0.10549744 0.81200004
-0.11066425 -0.10549744 0.81200004
-0.10918807 -0.10549744 0.81200004
-0.1077119 -0.10549744 0.81200004
-0.10623573 -0.10549744 0.81200004
-0.10475955 -0.10549744 0.81200004
-0.10328338 -0.10549744 0.81200004
-0.10180721 -0.10549744 0.81200004
-0.10033103 -0.10549744 0.81200004
-0.098611377 -0.1052376 0.81000006
-0.096898988 -0.10497776 0.80800003
-0.091768779 -0.10095014 0.77700001
-0.090356238 -0.10095014 0.77700001
-0.08894369 -0.10095014 0.77700001
-0.087531142 -0.10095014 0.77700001
-0.086118601 -0.10095014 0.77700001
-0.084488019 -0.1006903 0.77500004
-0.083293505 -0.10095014 0.77700001
-0.081880964 -0.10095014 0.77700001
-0.080468416 -0.10095014 0.77700001
-0.079259358 -0.10120999 0.77900004
-0.077843182 -0.10120999 0.77900004
-0.076230779 -0.10095014 0.77700001
-0.077225506 -0.10419822 0.80200005
-0.075767517 -0.10419822 0.80200005
-0.07430952 -0.10419822 0.80200005
-0.069944732 -0.10004068 0.77000004
-0.068544917 -0.10004068 0.77000004
-0.067145094 -0.10004068 0.77000004
-0.065745272 -0.10004068 0.77000004
-0.064345457 -0.10004068 0.77000004
-0.062782139 -0.099780835 0.76800001
-0.061385956 -0.099780835 0.76800001
-0.059989773 -0.099780835 0.76800001
-0.058593586 -0.099780835 0.76800001
-0.057197403 -0.099780835 0.76800001
-0.05580122 -0.099780835 0.76800001
-0.054405034 -0.099780835 0.76800001
-0.053146895 -0.10004068 0.77000004
-0.051747072 -0.10004068 0.77000004
-0.050347254 -0.10004068 0.77000004
-0.049214866 -0.1035486 0.79700005
-0.047825895 -0.10367852 0.79800004
-0.046375174 -0.10367852 0.79800004
-0.045262229 -0.10445806 0.80400002
-0.0438006 -0.10445806 0.80400002
-0.042338971 -0.10445806 0.80400002
-0.040979024 -0.10471791 0.80600005
-0.039611805 -0.10497776 0.80800003
-0.038237315 -0.1052376 0.81000006
-0.036764778 -0.1052376 0.81000006
-0.035292242 -0.1052376 0.81000006
-0.033819702 -0.1052376 0.81000006
-0.032347165 -0.1052376 0.81000006
-0.030874627 -0.1052376 0.81000006
-0.02940209 -0.1052376 0.81000006
-0.027860589 -0.10497776 0.80800003
-0.026326362 -0.10471791 0.80600005
-0.020624524 -0.09848161 0.75800002
-0.01924652 -0.09848161 0.75800002
-0.01782137 -0.098221764 0.75600004
-0.016490512 -0.09848161 0.75800002
-0.015112506 -0.09848161 0.75800002
-0.013698263 -0.098221764 0.75600004
-0.012323895 -0.098221764 0.75600004
-0.010935043 -0.098091841 0.75500005
-0.0095624914 -0.098091841 0.75500005
-0.0081899408 -0.098091841 0.75500005
-0.0068173902 -0.098091841 0.75500005
-0.0054448396 -0.098091841 0.75500005
-0.0040776823 -0.098221764 0.75600004
-0.0026997381 -0.098091841 0.75500005
-0.0013271873 -0.098091841 0.75500005
4.5423625e-05 -0.098221764 0.75600004
0.0014197923 -0.098221764 0.75600004
0.0028015529 -0.09848161 0.75800002
0.0041795573 -0.09848161 0.75800002
0.0055575622 -0.09848161 0.75800002
0.0069538667 -0.098741449 0.76000005
0.0083464747 -0.09887138 0.76100004
0.0097810766 -0.099391066 0.76500005
0.011171807 -0.099391066 0.76500005
0.01259538 -0.099650912 0.76700002
0.014044465 -0.10004068 0.77000004
0.015484399 -0.10030053 0.77200001
0.016844105 -0.10004068 0.77000004
0.018315004 -0.10043045 0.77300006
0.019720279 -0.10043045 0.77300006
0.021289527 -0.10120999 0.77900004
0.022734856 -0.10133991 0.78000003
0.024214787 -0.10159976 0.78200006
0.025767555 -0.10211945 0.78600001
0.027300267 -0.10250922 0.78900003
0.028734626 -0.10250922 0.78900003
0.030245461 -0.10276906 0.79100001
0.031683456 -0.10276906 0.79100001
0.033121455 -0.10276906 0.79100001
-0.15895447 -0.10774074 0.84100002
-0.15742558 -0.10774074 0.84100002
-0.15211196 -0.1072283 0.83700001
-0.15095018 -0.10748452 0.83900005
-0.14942491 -0.10748452 0.83900005
-0.14825222 -0.10774074 0.84100002
-0.14672332 -0.10774074 0.84100002
-0.14519443 -0.10774074 0.84100002
-0.14332388 -0.10748452 0.83900005
-0.14213663 -0.10774074 0.84100002
-0.14060774 -0.10774074 0.84100002
-0.13907884 -0.10774074 0.84100002
-0.13722286 -0.10748452 0.83900005
-0.13602106 -0.10774074 0.84100002
-0.13449216 -0.10774074 0.84100002
-0.12806213 -0.10376932 0.81000006
-0.12690216 -0.10402554 0.81200004
-0.12542598 -0.10402554 0.81200004
-0.12394981 -0.10402554 0.81200004
-0.12247364 -0.10402554 0.81200004
-0.12099747 -0.10402554 0.81200004
-0.11952129 -0.10402554 0.81200004
-0.11804512 -0.10402554 0.81200004
-0.11656895 -0.10402554 0.81200004
-0.11509277 -0.10402554 0.81200004
-0.11361659 -0.10402554 0.81200004
-0.11214042 -0.10402554 0.81200004
-0.11066425 -0.10402554 0.81200004
-0.10918807 -0.10402554 0.81200004
-0.1079772 -0.10428177 0.81400001
-0.10649739 -0.10428177 0.81400001
-0.10475955 -0.10402554 0.81200004
-0.10328338 -0.10402554 0.81200004
-0.10180721 -0.10402554 0.81200004
-0.10033103 -0.10402554 0.81200004
-0.09435039 -0.099285461 0.77500004
-0.092941478 -0.099285461 0.77500004
-0.091768779 -0.099541686 0.77700001
-0.090356238 -0.099541686 0.77700001
-0.08894369 -0.099541686 0.77700001
-0.087305836 -0.099285461 0.77500004
-0.086118601 -0.099541686 0.77700001
-0.084706053 -0.099541686 0.77700001
-0.083293505 -0.099541686 0.77700001
-0.081880964 -0.099541686 0.77700001
-0.080468416 -0.099541686 0.77700001
-0.079055868 -0.099541686 0.77700001
-0.077643327 -0.099541686 0.77700001
-0.076230779 -0.099541686 0.77700001
-0.074818231 -0.099541686 0.77700001
-0.072933316 -0.09890113 0.77200001
-0.071529865 -0.09890113 0.77200001
-0.070126407 -0.09890113 0.77200001
-0.068722948 -0.09890113 0.77200001
-0.067145094 -0.098644912 0.77000004
-0.065745272 -0.098644912 0.77000004
-0.064345457 -0.098644912 0.77000004
-0.062782139 -0.098388694 0.76800001
-0.061385956 -0.098388694 0.76800001
-0.059989773 -0.098388694 0.76800001
-0.058593586 -0.098388694 0.76800001
-0.057197403 -0.098388694 0.76800001
-0.055728562 -0.098260581 0.76700002
-0.054334193 -0.098260581 0.76700002
-0.053008851 -0.098388694 0.76800001
-0.051612668 -0.098388694 0.76800001
-0.050216481 -0.098388694 0.76800001
-0.049276616 -0.102232 0.79800004
-0.047825895 -0.102232 0.79800004
-0.046375174 -0.102232 0.79800004
-0.045037042 -0.10248823 0.80000001
-0.0438006 -0.10300066 0.80400002
-0.042444289 -0.10325689 0.80600005
-0.04108071 -0.10351311 0.80800003
-0.039709855 -0.10376932 0.81000006
-0.038331728 -0.10402554 0.81200004
-0.036855556 -0.10402554 0.81200004
-0.03537938 -0.10402554 0.81200004
-0.033903208 -0.10402554 0.81200004
-0.032427035 -0.10402554 0.81200004
-0.030950859 -0.10402554 0.81200004
-0.020678945 -0.097363815 0.76000005
-0.01924652 -0.097107589 0.75800002
-0.017868515 -0.097107589 0.75800002
-0.016490512 -0.097107589 0.75800002
-0.015112506 -0.097107589 0.75800002
-0.013698263 -0.096851371 0.75600004
-0.012323895 -0.096851371 0.75600004
-0.010949526 -0.096851371 0.75600004
-0.0095751574 -0.096851371 0.75600004
-0.0082007889 -0.096851371 0.75600004
-0.0068264198 -0.096851371 0.75600004
-0.0054520508 -0.096851371 0.75600004
-0.0040776823 -0.096851371 0.75600004
-0.0026997381 -0.096723258 0.75500005
-0.0013271873 -0.096723258 0.75500005
4.5423625e-05 -0.096851371 0.75600004
0.0014197923 -0.096851371 0.75600004
0.002794161 -0.096851371 0.75600004
0.00416853 -0.096851371 0.75600004
0.0055575622 -0.097107589 0.75800002
0.0069538667 -0.097363815 0.76000005
0.0083355065 -0.097363815 0.76000005
0.0097555052 -0.097748145 0.76300001
0.011142599 -0.097748145 0.76300001
0.012562537 -0.098004363 0.76500005
0.013989746 -0.098260581 0.76700002
0.015444285 -0.098644912 0.77000004
0.016844105 -0.098644912 0.77000004
0.018291311 -0.09890113 0.77200001
0.019694766 -0.09890113 0.77200001
0.02123487 -0.099541686 0.77700001
0.02270571 -0.099797912 0.77900004
0.024276718 -0.10043846 0.78400004
0.02570199 -0.10043846 0.78400004
0.027196461 -0.10069468 0.78600001
0.028698208 -0.1009509 0.78800005
0.03013075 -0.1009509 0.78800005
0.031603348 -0.10107901 0.78900003
0.033037707 -0.10107901 0.78900003
-0.16201226 -0.10621627 0.84100002
-0.16048336 -0.10621627 0.84100002
-0.15895447 -0.10621627 0.84100002
-0.15742558 -0.10621627 0.84100002
-0.15626743 -0.10646887 0.84300005
-0.15436779 -0.10621627 0.84100002
-0.15247543 -0.10596368 0.83900005
-0.15131 -0.10621627 0.84100002
-0.14942491 -0.10596368 0.83900005
-0.14825222 -0.10621627 0.84100002
-0.14672332 -0.10621627 0.84100002
-0.14519443 -0.10621627 0.84100002
-0.14366554 -0.10621627 0.84100002
-0.14213663 -0.10621627 0.84100002
-0.14060774 -0.10621627 0.84100002
-0.13907884 -0.10621627 0.84100002
-0.13754995 -0.10621627 0.84100002
-0.13634454 -0.10646887 0.84300005
-0.13481201 -0.10646887 0.84300005
-0.12806213 -0.10230105 0.81000006
-0.12658958 -0.10230105 0.81000006
-0.12542598 -0.10255364 0.81200004
-0.12364451 -0.10230105 0.81000006
-0.12217198 -0.10230105 0.81000006
-0.12099747 -0.10255364 0.81200004
-0.11952129 -0.10255364 0.81200004
-0.11804512 -0.10255364 0.81200004
-0.11656895 -0.10255364 0.81200004
-0.11509277 -0.10255364 0.81200004
-0.11361659 -0.10255364 0.81200004
-0.11214042 -0.10255364 0.81200004
-0.11093682 -0.10280624 0.81400001
-0.10945701 -0.10280624 0.81400001
-0.1079772 -0.10280624 0.81400001
-0.10649739 -0.10280624 0.81400001
-0.10501758 -0.10280624 0.81400001
-0.10328338 -0.10255364 0.81200004
-0.10180721 -0.10255364 0.81200004
-0.096006416 -0.098133236 0.77700001
-0.09435039 -0.097880632 0.77500004
-0.092941478 -0.097880632 0.77500004
-0.091532566 -0.097880632 0.77500004
-0.090356238 -0.098133236 0.77700001
-0.08894369 -0.098133236 0.77700001
-0.087305836 -0.097880632 0.77500004
-0.086118601 -0.098133236 0.77700001
-0.084488019 -0.097880632 0.77500004
-0.083293505 -0.098133236 0.77700001
-0.081880964 -0.098133236 0.77700001
-0.080468416 -0.098133236 0.77700001
-0.079055868 -0.098133236 0.77700001
-0.077643327 -0.098133236 0.77700001
-0.076034561 -0.097880632 0.77500004
-0.074625649 -0.097880632 0.77500004
-0.072933316 -0.09750174 0.77200001
-0.071529865 -0.09750174 0.77200001
-0.070126407 -0.09750174 0.77200001
-0.068722948 -0.09750174 0.77200001
-0.067145094 -0.097249143 0.77000004
-0.065574504 -0.096996553 0.76800001
-0.064178325 -0.096996553 0.76800001
-0.062700391 -0.096870251 0.76700002
-0.061306022 -0.096870251 0.76700002
-0.059911657 -0.096870251 0.76700002
-0.058517292 -0.096870251 0.76700002
-0.057122927 -0.096870251 0.76700002
-0.055728562 -0.096870251 0.76700002
-0.054334193 -0.096870251 0.76700002
-0.052939828 -0.096870251 0.76700002
-0.051545464 -0.096870251 0.76700002
-0.050216481 -0.096996553 0.76800001
-0.04875673 -0.096870251 0.76700002
-0.047825895 -0.10078548 0.79800004
-0.046375174 -0.10078548 0.79800004
-0.045262229 -0.10154326 0.80400002
-0.0438006 -0.10154326 0.80400002
-0.042444289 -0.10179586 0.80600005
-0.04108071 -0.10204846 0.80800003
-0.039709855 -0.10230105 0.81000006
-0.038331728 -0.10255364 0.81200004
-0.036946334 -0.10280624 0.81400001
-0.03537938 -0.10255364 0.81200004
-0.033903208 -0.10255364 0.81200004
-0.032427035 -0.10255364 0.81200004
-0.022060584 -0.095986173 0.76000005
-0.020706153 -0.096112467 0.76100004
-0.019297304 -0.095986173 0.76000005
-0.017868515 -0.095733576 0.75800002
-0.016490512 -0.095733576 0.75800002
-0.015112506 -0.095733576 0.75800002
-0.013734503 -0.095733576 0.75800002
-0.012323895 -0.095480986 0.75600004
-0.010949526 -0.095480986 0.75600004
-0.0095751574 -0.095480986 0.75600004
-0.0082007889 -0.095480986 0.75600004
-0.0068264198 -0.095480986 0.75600004
-0.0054520508 -0.095480986 0.75600004
-0.0040776823 -0.095480986 0.75600004
-0.0027033137 -0.095480986 0.75600004
-0.001328945 -0.095480986 0.75600004
4.5423625e-05 -0.095480986 0.75600004
0.0014197923 -0.095480986 0.75600004
0.002794161 -0.095480986 0.75600004
0.00416853 -0.095480986 0.75600004
0.0055428986 -0.095480986 0.75600004
0.0069355667 -0.095733576 0.75800002
0.0083135711 -0.095733576 0.75800002
0.009729933 -0.096112467 0.76100004
0.011113391 -0.096112467 0.76100004
0.012529694 -0.096365064 0.76300001
0.013953267 -0.096617661 0.76500005
0.015384112 -0.096870251 0.76700002
0.016800353 -0.096996553 0.76800001
0.018243926 -0.097249143 0.77000004
0.019694766 -0.09750174 0.77200001
0.021125551 -0.097628042 0.77300006
0.022647416 -0.098133236 0.77700001
0.024214787 -0.098764718 0.78200006
0.025636423 -0.098764718 0.78200006
0.027196461 -0.099269904 0.78600001
0.028698208 -0.099522501 0.78800005
0.030168986 -0.099648803 0.78900003
0.031683456 -0.099901393 0.79100001
0.033121455 -0.099901393 0.79100001
-0.15895447 -0.1046918 0.84100002
-0.15742558 -0.1046918 0.84100002
-0.15211196 -0.10419387 0.83700001
-0.15131 -0.1046918 0.84100002
-0.14942491 -0.10444283 0.83900005
-0.14825222 -0.1046918 0.84100002
-0.1463744 -0.10444283 0.83900005
-0.14519443 -0.1046918 0.84100002
-0.14366554 -0.1046918 0.84100002
-0.14213663 -0.1046918 0.84100002
-0.14060774 -0.1046918 0.84100002
-0.1394096 -0.10494078 0.84300005
-0.13787708 -0.10494078 0.84300005
-0.13634454 -0.10494078 0.84300005
-0.13481201 -0.10494078 0.84300005
-0.12806213 -0.10083278 0.81000006
-0.12690216 -0.10108174 0.81200004
-0.12542598 -0.10108174 0.81200004
-0.12394981 -0.10108174 0.81200004
-0.12217198 -0.10083278 0.81000006
-0.12099747 -0.10108174 0.81200004
-0.11952129 -0.10108174 0.81200004
-0.11804512 -0.10108174 0.81200004
-0.11656895 -0.10108174 0.81200004
-0.11509277 -0.10108174 0.81200004
-0.11361659 -0.10108174 0.81200004
-0.11214042 -0.10108174 0.81200004
-0.11093682 -0.10133072 0.81400001
-0.10945701 -0.10133072 0.81400001
-0.1079772 -0.10133072 0.81400001
-0.10649739 -0.10133072 0.81400001
-0.10501758 -0.10133072 0.81400001
-0.10328338 -0.10108174 0.81200004
-0.097418964 -0.096724778 0.77700001
-0.096006416 -0.096724778 0.77700001
-0.094593875 -0.096724778 0.77700001
-0.092941478 -0.096475802 0.77500004
-0.091768779 -0.096724778 0.77700001
-0.090356238 -0.096724778 0.77700001
-0.088714749 -0.096475802 0.77500004
-0.087305836 -0.096475802 0.77500004
-0.086118601 -0.096724778 0.77700001
-0.084488019 -0.096475802 0.77500004
-0.083293505 -0.096724778 0.77700001
-0.081670202 -0.096475802 0.77500004
-0.08026129 -0.096475802 0.77500004
-0.078852378 -0.096475802 0.77500004
-0.077443473 -0.096475802 0.77500004
-0.076034561 -0.096475802 0.77500004
-0.074433073 -0.096226834 0.77300006
-0.073027797 -0.096226834 0.77300006
-0.071529865 -0.096102342 0.77200001
-0.070126407 -0.096102342 0.77200001
-0.068722948 -0.096102342 0.77200001
-0.067145094 -0.095853381 0.77000004
-0.065574504 -0.095604412 0.76800001
-0.064178325 -0.095604412 0.76800001
-0.062536895 -0.095230952 0.76500005
-0.060986307 -0.094981983 0.76300001
-0.05959921 -0.094981983 0.76300001
-0.05821212 -0.094981983 0.76300001
-0.056825027 -0.094981983 0.76300001
-0.055583246 -0.095230952 0.76500005
-0.054192517 -0.095230952 0.76500005
-0.052801784 -0.095230952 0.76500005
-0.051545464 -0.095479921 0.76700002
-0.050151099 -0.095479921 0.76700002
-0.04875673 -0.095479921 0.76700002
-0.047362365 -0.095479921 0.76700002
-0.0438006 -0.10008586 0.80400002
