# .PCD v0.7 - Point Cloud Data file format
VERSION 0.7
FIELDS x y z vp_x vp_y vp_z
SIZE 4 4 4 4 4 4
TYPE F F F F F F
COUNT 1 1 1 1 1 1
WIDTH 508
HEIGHT 1
VIEWPOINT 0 0 0 1 0 0 0
POINTS 508
DATA ascii
0.024514023 0.07945513 0.067798838 0 0.33897066 -0.54846609
0.021588326 0.07991571 0.066665143 0 0.33897066 -0.54846609
0.01870507 0.079947628 0.066554397 0 0.33897066 -0.54846609
0.015850736 0.07953541 0.067503154 0 0.33897066 -0.54846609
0.013008397 0.078718059 0.069418699 0 0.33897066 -0.54846609
0.0302717 0.077126592 0.065907478 0 0.33897066 -0.54846609
0.027225304 0.078639306 0.062310264 0 0.33897066 -0.54846609
0.024274074 0.07950794 0.060229395 0 0.33897066 -0.54846609
0.021379532 0.079938419 0.059181415 0 0.33897066 -0.54846609
0.018527202 0.079928271 0.059171904 0 0.33897066 -0.54846609
0.015700856 0.079502419 0.060142241 0 0.33897066 -0.54846609
0.012885816 0.078676753 0.062055036 0 0.33897066 -0.54846609
0.010073236 0.077334136 0.065184936 0 0.33897066 -0.54846609
0.0072481646 0.07539212 0.069725297 0 0.33897066 -0.54846609
0.033101432 0.075097583 0.063297607 0 0.33897066 -0.54846609
0.029963238 0.077312186 0.058112845 0 0.33897066 -0.54846609
0.026957722 0.078729473 0.054781698 0 0.33897066 -0.54846609
0.024039084 0.079559661 0.052816425 0 0.33897066 -0.54846609
0.021175006 0.079960674 0.051850669 0 0.33897066 -0.54846609
0.018352915 0.079909317 0.051937979 0 0.33897066 -0.54846609
0.015553976 0.079470098 0.05292869 0 0.33897066 -0.54846609
0.012765681 0.078636274 0.054838326 0 0.33897066 -0.54846609
0.0099799223 0.077277996 0.05796773 0 0.33897066 -0.54846609
0.0071808789 0.075340964 0.062442675 0 0.33897066 -0.54846609
0.0043559303 0.072430536 0.069177695 0 0.33897066 -0.54846609
0.036087364 0.071859442 0.063493952 0 0.33897066 -0.54846609
0.032754268 0.075390249 0.055352006 0 0.33897066 -0.54846609
0.029661382 0.077493802 0.050485164 0 0.33897066 -0.54846609
0.026695684 0.07881777 0.047409069 0 0.33897066 -0.54846609
0.023808895 0.079610325 0.04555485 0 0.33897066 -0.54846609
0.020975331 0.079973608 0.044688299 0 0.33897066 -0.54846609
0.018182091 0.079890728 0.044847921 0 0.33897066 -0.54846609
0.015410004 0.079438411 0.045857858 0 0.33897066 -0.54846609
0.012647917 0.078596592 0.047763947 0 0.33897066 -0.54846609
0.0098884376 0.077222951 0.050892022 0 0.33897066 -0.54846609
0.0071149147 0.075290821 0.055303115 0 0.33897066 -0.54846609
0.004315861 0.072383367 0.061951682 0 0.33897066 -0.54846609
0.037444275 0.079999998 0.037896056 0 0.33897066 -0.54846609
0.034662414 0.079999998 0.037842624 0 0.33897066 -0.54846609
0.031882454 0.079999998 0.037793331 0 0.33897066 -0.54846609
0.029104235 0.079999998 0.037748165 0 0.33897066 -0.54846609
0.02632761 0.079999998 0.037707124 0 0.33897066 -0.54846609
0.023552425 0.079999998 0.037670203 0 0.33897066 -0.54846609
0.020778526 0.079999998 0.037637394 0 0.33897066 -0.54846609
0.018005764 0.079999998 0.037608698 0 0.33897066 -0.54846609
0.015233983 0.079999998 0.037584107 0 0.33897066 -0.54846609
0.012463034 0.079999998 0.037563618 0 0.33897066 -0.54846609
0.0096927667 0.079999998 0.037547231 0 0.33897066 -0.54846609
0.0069230269 0.079999998 0.037534941 0 0.33897066 -0.54846609
0.0041536652 0.079999998 0.037526753 0 0.33897066 -0.54846609
0.0013845299 0.079999998 0.037522655 0 0.33897066 -0.54846609
0.039857984 0.079999998 0.031084172 0 0.33897066 -0.54846609
0.037099808 0.079999998 0.031029468 0 0.33897066 -0.54846609
0.034343641 0.079999998 0.0309787 0 0.33897066 -0.54846609
0.031589329 0.079999998 0.030931862 0 0.33897066 -0.54846609
0.028836727 0.079999998 0.030888947 0 0.33897066 -0.54846609
0.026085682 0.079999998 0.030849952 0 0.33897066 -0.54846609
0.023336045 0.079999998 0.030814869 0 0.33897066 -0.54846609
0.020587668 0.079999998 0.030783698 0 0.33897066 -0.54846609
0.017840402 0.079999998 0.030756431 0 0.33897066 -0.54846609
0.015094098 0.079999998 0.030733064 0 0.33897066 -0.54846609
0.012348607 0.079999998 0.030713597 0 0.33897066 -0.54846609
0.0096037826 0.079999998 0.030698027 0 0.33897066 -0.54846609
0.0068594753 0.079999998 0.030686351 0 0.33897066 -0.54846609
0.0041155373 0.079999998 0.030678568 0 0.33897066 -0.54846609
0.0013718212 0.079999998 0.030674675 0 0.33897066 -0.54846609
0.039494954 0.079999998 0.024347797 0 0.33897066 -0.54846609
0.036762014 0.079999998 0.024295865 0 0.33897066 -0.54846609
0.034031037 0.079999998 0.024247669 0 0.33897066 -0.54846609
0.031301882 0.079999998 0.024203205 0 0.33897066 -0.54846609
0.028574396 0.079999998 0.024162466 0 0.33897066 -0.54846609
0.025848435 0.079999998 0.024125446 0 0.33897066 -0.54846609
0.023123853 0.079999998 0.024092142 0 0.33897066 -0.54846609
0.020400502 0.079999998 0.024062548 0 0.33897066 -0.54846609
0.017678238 0.079999998 0.024036661 0 0.33897066 -0.54846609
0.014956918 0.079999998 0.024014479 0 0.33897066 -0.54846609
0.012236392 0.079999998 0.023995997 0 0.33897066 -0.54846609
0.0095165186 0.079999998 0.023981215 0 0.33897066 -0.54846609
0.0067971516 0.079999998 0.023970131 0 0.33897066 -0.54846609
0.0040781465 0.079999998 0.023962742 0 0.33897066 -0.54846609
0.001359358 0.079999998 0.023959048 0 0.33897066 -0.54846609
0.039138876 0.079999998 0.017740423 0 0.33897066 -0.54846609
0.036430687 0.079999998 0.017691171 0 0.33897066 -0.54846609
0.03372442 0.079999998 0.017645461 0 0.33897066 -0.54846609
0.031019934 0.079999998 0.017603291 0 0.33897066 -0.54846609
0.028317083 0.079999998 0.017564652 0 0.33897066 -0.54846609
0.025615724 0.079999998 0.017529542 0 0.33897066 -0.54846609
0.022915715 0.079999998 0.017497955 0 0.33897066 -0.54846609
0.020216914 0.079999998 0.017469887 0 0.33897066 -0.54846609
0.017519176 0.079999998 0.017445335 0 0.33897066 -0.54846609
0.014822358 0.079999998 0.017424297 0 0.33897066 -0.54846609
0.012126322 0.079999998 0.017406769 0 0.33897066 -0.54846609
0.0094309226 0.079999998 0.017392749 0 0.33897066 -0.54846609
0.0067360192 0.079999998 0.017382236 0 0.33897066 -0.54846609
0.0040414697 0.079999998 0.017375227 0 0.33897066 -0.54846609
0.0013471331 0.079999998 0.017371723 0 0.33897066 -0.54846609
0.038789537 0.079999998 0.011258139 0 0.33897066 -0.54846609
0.036105629 0.079999998 0.011211476 0 0.33897066 -0.54846609
0.033423603 0.079999998 0.01116817 0 0.33897066 -0.54846609
0.030743318 0.079999998 0.011128215 0 0.33897066 -0.54846609
0.028064637 0.079999998 0.011091608 0 0.33897066 -0.54846609
0.025387414 0.079999998 0.011058342 0 0.33897066 -0.54846609
0.022711514 0.079999998 0.011028415 0 0.33897066 -0.54846609
0.020036794 0.079999998 0.011001822 0 0.33897066 -0.54846609
0.017363116 0.079999998 0.01097856 0 0.33897066 -0.54846609
0.014690342 0.079999998 0.010958627 0 0.33897066 -0.54846609
0.01201833 0.079999998 0.01094202 0 0.33897066 -0.54846609
0.0093469433 0.079999998 0.010928736 0 0.33897066 -0.54846609
0.0066760415 0.079999998 0.010918776 0 0.33897066 -0.54846609
0.0040054861 0.079999998 0.010912135 0 0.33897066 -0.54846609
0.0013351389 0.079999998 0.010908816 0 0.33897066 -0.54846609
0.038446739 0.079999998 0.0048971851 0 0.33897066 -0.54846609
0.035786655 0.079999998 0.0048530246 0 0.33897066 -0.54846609
0.033128411 0.079999998 0.0048120413 0 0.33897066 -0.54846609
0.030471876 0.079999998 0.0047742296 0 0.33897066 -0.54846609
0.027816908 0.079999998 0.0047395849 0 0.33897066 -0.54846609
0.025163371 0.079999998 0.0047081034 0 0.33897066 -0.54846609
0.022511128 0.079999998 0.0046797809 0 0.33897066 -0.54846609
0.01986004 0.079999998 0.0046546138 0 0.33897066 -0.54846609
0.017209975 0.079999998 0.0046325997 0 0.33897066 -0.54846609
0.014560792 0.079999998 0.0046137352 0 0.33897066 -0.54846609
0.011912356 0.079999998 0.0045980182 0 0.33897066 -0.54846609
0.0092645325 0.079999998 0.0045854473 0 0.33897066 -0.54846609
0.0066171833 0.079999998 0.0045760199 0 0.33897066 -0.54846609
0.0039701741 0.079999998 0.0045697358 0 0.33897066 -0.54846609
0.0013233689 0.079999998 0.004566594 0 0.33897066 -0.54846609
0.038204044 0.079362869 0 0 0.33897066 -0.54846609
0.035563566 0.079343058 0 0 0.33897066 -0.54846609
0.032924317 0.079324678 0 0 0.33897066 -0.54846609
0.030286198 0.079307713 0 0 0.33897066 -0.54846609
0.027649127 0.079292163 0 0 0.33897066 -0.54846609
0.025013007 0.079278037 0 0 0.33897066 -0.54846609
0.022377748 0.079265326 0 0 0.33897066 -0.54846609
0.01974326 0.079254031 0 0 0.33897066 -0.54846609
0.017109452 0.079244144 0 0 0.33897066 -0.54846609
0.014476233 0.07923568 0 0 0.33897066 -0.54846609
0.011843512 0.079228625 0 0 0.33897066 -0.54846609
0.0092111975 0.079222977 0 0 0.33897066 -0.54846609
0.0065792007 0.079218745 0 0 0.33897066 -0.54846609
0.0039474298 0.079215921 0 0 0.33897066 -0.54846609
0.0013157949 0.079214513 0 0 0.33897066 -0.54846609
0.038302004 0.076421723 0 0 0.33897066 -0.54846609
0.035654735 0.076402605 0 0 0.33897066 -0.54846609
0.033008695 0.07638485 0 0 0.33897066 -0.54846609
0.030363802 0.076368473 0 0 0.33897066 -0.54846609
0.027719958 0.076353468 0 0 0.33897066 -0.54846609
0.025077075 0.076339826 0 0 0.33897066 -0.54846609
0.022435056 0.076327555 0 0 0.33897066 -0.54846609
0.019793814 0.076316647 0 0 0.33897066 -0.54846609
0.017153258 0.07630711 0 0 0.33897066 -0.54846609
0.014513292 0.076298937 0 0 0.33897066 -0.54846609
0.011873828 0.07629212 0 0 0.33897066 -0.54846609
0.0092347749 0.076286674 0 0 0.33897066 -0.54846609
0.00659604 0.076282591 0 0 0.33897066 -0.54846609
0.0039575328 0.076279864 0 0 0.33897066 -0.54846609
0.0013191624 0.0762785 0 0 0.33897066 -0.54846609
0.038400374 0.073468231 0 0 0.33897066 -0.54846609
0.03574628 0.073449805 0 0 0.33897066 -0.54846609
0.03309343 0.073432699 0 0 0.33897066 -0.54846609
0.030441731 0.073416911 0 0 0.33897066 -0.54846609
0.027791088 0.073402449 0 0 0.33897066 -0.54846609
0.025141411 0.073389299 0 0 0.33897066 -0.54846609
0.022492604 0.073377475 0 0 0.33897066 -0.54846609
0.01984458 0.073366962 0 0 0.33897066 -0.54846609
0.017197246 0.073357768 0 0 0.33897066 -0.54846609
0.014550506 0.073349886 0 0 0.33897066 -0.54846609
0.011904271 0.073343322 0 0 0.33897066 -0.54846609
0.00925845 0.073338069 0 0 0.33897066 -0.54846609
0.0066129495 0.073334128 0 0 0.33897066 -0.54846609
0.0039676777 0.073331505 0 0 0.33897066 -0.54846609
0.0013225441 0.073330194 0 0 0.33897066 -0.54846609
0.038499165 0.070502207 0 0 0.33897066 -0.54846609
0.03583822 0.070484474 0 0 0.33897066 -0.54846609
0.033178527 0.070468016 0 0 0.33897066 -0.54846609
0.03051999 0.070452824 0 0 0.33897066 -0.54846609
0.027862519 0.070438914 0 0 0.33897066 -0.54846609
0.025206018 0.070426263 0 0 0.33897066 -0.54846609
0.022550397 0.070414886 0 0 0.33897066 -0.54846609
0.019895563 0.070404768 0 0 0.33897066 -0.54846609
0.01724142 0.070395924 0 0 0.33897066 -0.54846609
0.014587878 0.070388347 0 0 0.33897066 -0.54846609
0.011934844 0.070382029 0 0 0.33897066 -0.54846609
0.0092822257 0.070376977 0 0 0.33897066 -0.54846609
0.0066299308 0.070373185 0 0 0.33897066 -0.54846609
0.0039778659 0.070370659 0 0 0.33897066 -0.54846609
0.00132594 0.0703694 0 0 0.33897066 -0.54846609
0.038598377 0.067523442 0 0 0.33897066 -0.54846609
0.035930552 0.067506418 0 0 0.33897066 -0.54846609
0.033263985 0.067490615 0 0 0.33897066 -0.54846609
0.030598585 0.067476027 0 0 0.33897066 -0.54846609
0.027934255 0.067462668 0 0 0.33897066 -0.54846609
0.025270903 0.067450523 0 0 0.33897066 -0.54846609
0.022608437 0.067439593 0 0 0.33897066 -0.54846609
0.019946761 0.067429885 0 0 0.33897066 -0.54846609
0.017285785 0.067421392 0 0 0.33897066 -0.54846609
0.014625411 0.067414112 0 0 0.33897066 -0.54846609
0.011965548 0.067408048 0 0 0.33897066 -0.54846609
0.0093061039 0.067403197 0 0 0.33897066 -0.54846609
0.0066469847 0.067399554 0 0 0.33897066 -0.54846609
0.0039880979 0.067397133 0 0 0.33897066 -0.54846609
0.0013293505 0.067395918 0 0 0.33897066 -0.54846609
0.038698018 0.064531751 0 0 0.33897066 -0.54846609
0.036023282 0.064515442 0 0 0.33897066 -0.54846609
0.033349816 0.064500295 0 0 0.33897066 -0.54846609
0.03067752 0.064486325 0 0 0.33897066 -0.54846609
0.028006302 0.064473525 0 0 0.33897066 -0.54846609
0.025336072 0.064461887 0 0 0.33897066 -0.54846609
0.02266673 0.064451419 0 0 0.33897066 -0.54846609
0.019998183 0.064442113 0 0 0.33897066 -0.54846609
0.017330339 0.06443397 0 0 0.33897066 -0.54846609
0.014663105 0.064426996 0 0 0.33897066 -0.54846609
0.011996384 0.064421184 0 0 0.33897066 -0.54846609
0.0093300845 0.064416535 0 0 0.33897066 -0.54846609
0.0066641122 0.064413048 0 0 0.33897066 -0.54846609
0.0039983741 0.064410731 0 0 0.33897066 -0.54846609
0.0013327757 0.064409569 0 0 0.33897066 -0.54846609
0.038798098 0.061526936 0 0 0.33897066 -0.54846609
0.036116421 0.061511341 0 0 0.33897066 -0.54846609
0.033436019 0.061496869 0 0 0.33897066 -0.54846609
0.030756801 0.06148351 0 0 0.33897066 -0.54846609
0.028078666 0.061471272 0 0 0.33897066 -0.54846609
0.025401523 0.061460149 0 0 0.33897066 -0.54846609
0.022725277 0.061450142 0 0 0.33897066 -0.54846609
0.020049831 0.061441246 0 0 0.33897066 -0.54846609
0.017375091 0.061433468 0 0 0.33897066 -0.54846609
0.014700964 0.0614268 0 0 0.33897066 -0.54846609
0.012027356 0.061421245 0 0 0.33897066 -0.54846609
0.0093541704 0.061416801 0 0 0.33897066 -0.54846609
0.0066813151 0.061413471 0 0 0.33897066 -0.54846609
0.004008695 0.061411247 0 0 0.33897066 -0.54846609
0.001336216 0.061410137 0 0 0.33897066 -0.54846609
0.038898621 0.058508791 0 0 0.33897066 -0.54846609
0.036209974 0.058493923 0 0 0.33897066 -0.54846609
0.03352261 0.058480121 0 0 0.33897066 -0.54846609
0.030836433 0.058467388 0 0 0.33897066 -0.54846609
0.028151352 0.058455721 0 0 0.33897066 -0.54846609
0.025467265 0.058445115 0 0 0.33897066 -0.54846609
0.022784082 0.058435574 0 0 0.33897066 -0.54846609
0.020101706 0.058427095 0 0 0.33897066 -0.54846609
0.01742004 0.058419678 0 0 0.33897066 -0.54846609
0.014738992 0.058413319 0 0 0.33897066 -0.54846609
0.012058464 0.058408026 0 0 0.33897066 -0.54846609
0.0093783634 0.058403786 0 0 0.33897066 -0.54846609
0.006698594 0.058400612 0 0 0.33897066 -0.54846609
0.0040190616 0.058398493 0 0 0.33897066 -0.54846609
0.0013396714 0.058397435 0 0 0.33897066 -0.54846609
0.038999598 0.055477109 0 0 0.33897066 -0.54846609
0.036303945 0.055462975 0 0 0.33897066 -0.54846609
0.033609588 0.055449858 0 0 0.33897066 -0.54846609
0.030916424 0.055437751 0 0 0.33897066 -0.54846609
0.028224362 0.055426657 0 0 0.33897066 -0.54846609
0.025533304 0.055416577 0 0 0.33897066 -0.54846609
0.022843152 0.055407505 0 0 0.33897066 -0.54846609
0.020153813 0.055399448 0 0 0.33897066 -0.54846609
0.017465191 0.055392396 0 0 0.33897066 -0.54846609
0.014777189 0.055386353 0 0 0.33897066 -0.54846609
0.012089712 0.055381317 0 0 0.33897066 -0.54846609
0.0094026644 0.05537729 0 0 0.33897066 -0.54846609
0.0067159506 0.055374268 0 0 0.33897066 -0.54846609
0.0040294747 0.055372257 0 0 0.33897066 -0.54846609
0.0013431424 0.055371251 0 0 0.33897066 -0.54846609
0.039101031 0.052431688 0 0 0.33897066 -0.54846609
0.036398344 0.052418295 0 0 0.33897066 -0.54846609
0.033696957 0.052405864 0 0 0.33897066 -0.54846609
0.030996775 0.052394394 0 0 0.33897066 -0.54846609
0.028297702 0.052383885 0 0 0.33897066 -0.54846609
0.025599638 0.052374329 0 0 0.33897066 -0.54846609
0.022902489 0.052365735 0 0 0.33897066 -0.54846609
0.020206157 0.052358098 0 0 0.33897066 -0.54846609
0.017510546 0.052351415 0 0 0.33897066 -0.54846609
0.01481556 0.052345689 0 0 0.33897066 -0.54846609
0.012121101 0.052340921 0 0 0.33897066 -0.54846609
0.0094270753 0.052337103 0 0 0.33897066 -0.54846609
0.0067333849 0.052334242 0 0 0.33897066 -0.54846609
0.0040399348 0.052332334 0 0 0.33897066 -0.54846609
0.001346629 0.052331381 0 0 0.33897066 -0.54846609
0.039202925 0.049372315 0 0 0.33897066 -0.54846609
0.036493171 0.049359672 0 0 0.33897066 -0.54846609
0.033784728 0.049347937 0 0 0.33897066 -0.54846609
0.031077495 0.049337108 0 0 0.33897066 -0.54846609
0.028371379 0.049327184 0 0 0.33897066 -0.54846609
0.025666278 0.049318165 0 0 0.33897066 -0.54846609
0.022962097 0.049310051 0 0 0.33897066 -0.54846609
0.02025874 0.049302839 0 0 0.33897066 -0.54846609
0.017556109 0.049296532 0 0 0.33897066 -0.54846609
0.014854105 0.049291126 0 0 0.33897066 -0.54846609
0.012152634 0.049286623 0 0 0.33897066 -0.54846609
0.0094515979 0.049283016 0 0 0.33897066 -0.54846609
0.0067508994 0.049280316 0 0 0.33897066 -0.54846609
0.0040504429 0.049278516 0 0 0.33897066 -0.54846609
0.0013501316 0.049277615 0 0 0.33897066 -0.54846609
0.039305296 0.04629878 0 0 0.33897066 -0.54846609
0.036588442 0.046286888 0 0 0.33897066 -0.54846609
0.033872902 0.046275854 0 0 0.33897066 -0.54846609
0.031158589 0.046265673 0 0 0.33897066 -0.54846609
0.028445395 0.046256345 0 0 0.33897066 -0.54846609
0.025733225 0.046247866 0 0 0.33897066 -0.54846609
0.023021981 0.046240237 0 0 0.33897066 -0.54846609
0.020311566 0.046233457 0 0 0.33897066 -0.54846609
0.017601881 0.046227526 0 0 0.33897066 -0.54846609
0.01489283 0.046222445 0 0 0.33897066 -0.54846609
0.012184313 0.046218209 0 0 0.33897066 -0.54846609
0.0094762333 0.046214823 0 0 0.33897066 -0.54846609
0.0067684948 0.046212282 0 0 0.33897066 -0.54846609
0.0040609995 0.046210587 0 0 0.33897066 -0.54846609
0.0013536504 0.046209741 0 0 0.33897066 -0.54846609
0.039408144 0.04321086 0 0 0.33897066 -0.54846609
0.036684155 0.043199733 0 0 0.33897066 -0.54846609
0.033961494 0.04318941 0 0 0.33897066 -0.54846609
0.031240061 0.043179881 0 0 0.33897066 -0.54846609
0.028519757 0.043171152 0 0 0.33897066 -0.54846609
0.025800485 0.043163218 0 0 0.33897066 -0.54846609
0.023082146 0.04315608 0 0 0.33897066 -0.54846609
0.020364638 0.043149736 0 0 0.33897066 -0.54846609
0.017647868 0.043144185 0 0 0.33897066 -0.54846609
0.014931734 0.043139428 0 0 0.33897066 -0.54846609
0.012216139 0.043135468 0 0 0.33897066 -0.54846609
0.0095009841 0.043132298 0 0 0.33897066 -0.54846609
0.0067861723 0.043129921 0 0 0.33897066 -0.54846609
0.0040716054 0.043128334 0 0 0.33897066 -0.54846609
0.0013571855 0.043127544 0 0 0.33897066 -0.54846609
0.039511476 0.040108338 0 0 0.33897066 -0.54846609
0.03678032 0.040097985 0 0 0.33897066 -0.54846609
0.034050502 0.040088378 0 0 0.33897066 -0.54846609
0.031321917 0.040079512 0 0 0.33897066 -0.54846609
0.028594472 0.040071387 0 0 0.33897066 -0.54846609
0.025868064 0.040064003 0 0 0.33897066 -0.54846609
0.023142593 0.040057357 0 0 0.33897066 -0.54846609
0.020417962 0.040051453 0 0 0.33897066 -0.54846609
0.017694071 0.04004629 0 0 0.33897066 -0.54846609
0.014970822 0.040041864 0 0 0.33897066 -0.54846609
0.012248116 0.040038176 0 0 0.33897066 -0.54846609
0.0095258513 0.040035225 0 0 0.33897066 -0.54846609
0.0068039335 0.040033013 0 0 0.33897066 -0.54846609
0.0040822616 0.040031541 0 0 0.33897066 -0.54846609
0.0013607374 0.040030804 0 0 0.33897066 -0.54846609
0.039615303 0.036990993 0 0 0.33897066 -0.54846609
0.036876947 0.036981422 0 0 0.33897066 -0.54846609
0.034139935 0.036972534 0 0 0.33897066 -0.54846609
0.031404167 0.036964338 0 0 0.33897066 -0.54846609
0.028669544 0.036956824 0 0 0.33897066 -0.54846609
0.025935965 0.036949996 0 0 0.33897066 -0.54846609
0.02320333 0.036943853 0 0 0.33897066 -0.54846609
0.020471541 0.036938395 0 0 0.33897066 -0.54846609
0.017740496 0.03693362 0 0 0.33897066 -0.54846609
0.015010097 0.036929525 0 0 0.33897066 -0.54846609
0.012280244 0.036926117 0 0 0.33897066 -0.54846609
0.0095508378 0.036923386 0 0 0.33897066 -0.54846609
0.0068217791 0.036921341 0 0 0.33897066 -0.54846609
0.0040929681 0.036919978 0 0 0.33897066 -0.54846609
0.0013643062 0.036919296 0 0 0.33897066 -0.54846609
0.039719634 0.033858601 0 0 0.33897066 -0.54846609
0.036974039 0.033849813 0 0 0.33897066 -0.54846609
0.0342298 0.033841658 0 0 0.33897066 -0.54846609
0.031486809 0.033834137 0 0 0.33897066 -0.54846609
0.028744975 0.033827242 0 0 0.33897066 -0.54846609
0.026004191 0.033820976 0 0 0.33897066 -0.54846609
0.02326436 0.033815335 0 0 0.33897066 -0.54846609
0.020525377 0.033810329 0 0 0.33897066 -0.54846609
0.017787144 0.033805944 0 0 0.33897066 -0.54846609
0.015049561 0.033802189 0 0 0.33897066 -0.54846609
0.012312528 0.03379906 0 0 0.33897066 -0.54846609
0.0095759444 0.033796556 0 0 0.33897066 -0.54846609
0.0068397108 0.033794679 0 0 0.33897066 -0.54846609
0.0041037267 0.033793427 0 0 0.33897066 -0.54846609
0.0013678923 0.033792801 0 0 0.33897066 -0.54846609
0.039824471 0.030710926 0 0 0.33897066 -0.54846609
0.037071604 0.030702937 0 0 0.33897066 -0.54846609
0.034320101 0.03069552 0 0 0.33897066 -0.54846609
0.031569857 0.030688679 0 0 0.33897066 -0.54846609
0.028820775 0.030682407 0 0 0.33897066 -0.54846609
0.026072752 0.030676709 0 0 0.33897066 -0.54846609
0.023325685 0.030671582 0 0 0.33897066 -0.54846609
0.020579474 0.030667026 0 0 0.33897066 -0.54846609
0.017834019 0.03066304 0 0 0.33897066 -0.54846609
0.015089218 0.030659625 0 0 0.33897066 -0.54846609
0.012344969 0.030656779 0 0 0.33897066 -0.54846609
0.009601173 0.030654501 0 0 0.33897066 -0.54846609
0.0068577295 0.030652795 0 0 0.33897066 -0.54846609
0.004114537 0.030651657 0 0 0.33897066 -0.54846609
0.0013714957 0.030651089 0 0 0.33897066 -0.54846609
0.039929826 0.027547741 0 0 0.33897066 -0.54846609
0.03716965 0.027540555 0 0 0.33897066 -0.54846609
0.034410849 0.027533885 0 0 0.33897066 -0.54846609
0.031653315 0.027527731 0 0 0.33897066 -0.54846609
0.02889695 0.027522093 0 0 0.33897066 -0.54846609
0.026141651 0.027516967 0 0 0.33897066 -0.54846609
0.023387313 0.027512357 0 0 0.33897066 -0.54846609
0.020633839 0.027508259 0 0 0.33897066 -0.54846609
0.017881125 0.027504673 0 0 0.33897066 -0.54846609
0.015129069 0.027501602 0 0 0.33897066 -0.54846609
0.012377569 0.027499042 0 0 0.33897066 -0.54846609
0.0096265264 0.027496995 0 0 0.33897066 -0.54846609
0.0068758372 0.027495459 0 0 0.33897066 -0.54846609
0.0041254009 0.027494436 0 0 0.33897066 -0.54846609
0.0013751169 0.027493924 0 0 0.33897066 -0.54846609
0.037268184 0.024362434 0 0 0.33897066 -0.54846609
0.034502048 0.024356518 0 0 0.33897066 -0.54846609
0.031737186 0.02435106 0 0 0.33897066 -0.54846609
0.028973503 0.024346057 0 0 0.33897066 -0.54846609
0.026210891 0.024341512 0 0 0.33897066 -0.54846609
0.023449248 0.024337422 0 0 0.33897066 -0.54846609
0.020688474 0.024333788 0 0 0.33897066 -0.54846609
0.017928464 0.024330609 0 0 0.33897066 -0.54846609
0.015169118 0.024327883 0 0 0.33897066 -0.54846609
0.012410332 0.024325613 0 0 0.33897066 -0.54846609
0.0096520046 0.024323799 0 0 0.33897066 -0.54846609
0.0068940348 0.024322435 0 0 0.33897066 -0.54846609
0.0041363188 0.024321528 0 0 0.33897066 -0.54846609
0.001378756 0.024321074 0 0 0.33897066 -0.54846609
0.037367217 0.021168333 0 0 0.33897066 -0.54846609
0.034593705 0.021163179 0 0 0.33897066 -0.54846609
0.031821482 0.021158423 0 0 0.33897066 -0.54846609
0.02905044 0.021154067 0 0 0.33897066 -0.54846609
0.02628048 0.021150107 0 0 0.33897066 -0.54846609
0.023511494 0.021146543 0 0 0.33897066 -0.54846609
0.020743383 0.021143377 0 0 0.33897066 -0.54846609
0.017976042 0.021140607 0 0 0.33897066 -0.54846609
0.015209368 0.021138232 0 0 0.33897066 -0.54846609
0.012443259 0.021136254 0 0 0.33897066 -0.54846609
0.0096776122 0.021134673 0 0 0.33897066 -0.54846609
0.0069123236 0.021133486 0 0 0.33897066 -0.54846609
0.0041472916 0.021132696 0 0 0.33897066 -0.54846609
0.0013824134 0.0211323 0 0 0.33897066 -0.54846609
0.03746675 0.017958008 0 0 0.33897066 -0.54846609
0.034685828 0.017953625 0 0 0.33897066 -0.54846609
0.031906202 0.017949579 0 0 0.33897066 -0.54846609
0.029127767 0.017945873 0 0 0.33897066 -0.54846609
0.02635042 0.017942505 0 0 0.33897066 -0.54846609
0.023574056 0.017939474 0 0 0.33897066 -0.54846609
0.020798571 0.017936781 0 0 0.33897066 -0.54846609
0.018023862 0.017934425 0 0 0.33897066 -0.54846609
0.015249823 0.017932406 0 0 0.33897066 -0.54846609
0.012476353 0.017930724 0 0 0.33897066 -0.54846609
0.0097033484 0.017929377 0 0 0.33897066 -0.54846609
0.0069307052 0.017928367 0 0 0.33897066 -0.54846609
0.0041583199 0.017927695 0 0 0.33897066 -0.54846609
0.0013860894 0.01792736 0 0 0.33897066 -0.54846609
0.037566792 0.014731213 0 0 0.33897066 -0.54846609
0.034778424 0.014727608 0 0 0.33897066 -0.54846609
0.031991359 0.014724281 0 0 0.33897066 -0.54846609
0.029205492 0.014721232 0 0 0.33897066 -0.54846609
0.02642072 0.014718462 0 0 0.33897066 -0.54846609
0.023636937 0.014715969 0 0 0.33897066 -0.54846609
0.020854041 0.014713754 0 0 0.33897066 -0.54846609
0.018071925 0.014711816 0 0 0.33897066 -0.54846609
0.015290485 0.014710155 0 0 0.33897066 -0.54846609
0.012509617 0.014708771 0 0 0.33897066 -0.54846609
0.0097292168 0.014707665 0 0 0.33897066 -0.54846609
0.0069491807 0.014706835 0 0 0.33897066 -0.54846609
0.0041694045 0.014706282 0 0 0.33897066 -0.54846609
0.0013897842 0.014706004 0 0 0.33897066 -0.54846609
0.037667353 0.011487698 0 0 0.33897066 -0.54846609
0.034871496 0.011484879 0 0 0.33897066 -0.54846609
0.032076955 0.011482277 0 0 0.33897066 -0.54846609
0.029283619 0.011479894 0 0 0.33897066 -0.54846609
0.026491383 0.011477727 0 0 0.33897066 -0.54846609
0.023700146 0.011475778 0 0 0.33897066 -0.54846609
0.020909799 0.011474046 0 0 0.33897066 -0.54846609
0.018120237 0.011472531 0 0 0.33897066 -0.54846609
0.015331357 0.011471232 0 0 0.33897066 -0.54846609
0.012543052 0.01147015 0 0 0.33897066 -0.54846609
0.0097552193 0.011469285 0 0 0.33897066 -0.54846609
0.0069677518 0.011468636 0 0 0.33897066 -0.54846609
0.0041805464 0.011468204 0 0 0.33897066 -0.54846609
0.001393498 0.011467987 0 0 0.33897066 -0.54846609
0.037768442 0.0082272068 0 0 0.33897066 -0.54846609
0.034965061 0.0082251821 0 0 0.33897066 -0.54846609
0.032162998 0.0082233138 0 0 0.33897066 -0.54846609
0.029362153 0.0082216021 0 0 0.33897066 -0.54846609
0.026562417 0.0082200468 0 0 0.33897066 -0.54846609
0.023763685 0.008218647 0 0 0.33897066 -0.54846609
0.020965848 0.0082174027 0 0 0.33897066 -0.54846609
0.018168801 0.0082163149 0 0 0.33897066 -0.54846609
0.015372443 0.0082153827 0 0 0.33897066 -0.54846609
0.012576663 0.008214606 0 0 0.33897066 -0.54846609
0.0097813569 0.0082139838 0 0 0.33897066 -0.54846609
0.0069864201 0.0082135182 0 0 0.33897066 -0.54846609
0.0041917469 0.0082132071 0 0 0.33897066 -0.54846609
0.0013972314 0.0082130525 0 0 0.33897066 -0.54846609
0.037870064 0.0049494803 0 0 0.33897066 -0.54846609
0.035059117 0.0049482589 0 0 0.33897066 -0.54846609
0.032249499 0.004947132 0 0 0.33897066 -0.54846609
0.029441103 0.0049460996 0 0 0.33897066 -0.54846609
0.026633825 0.0049451613 0 0 0.33897066 -0.54846609
0.023827557 0.004944317 0 0 0.33897066 -0.54846609
0.021022193 0.0049435669 0 0 0.33897066 -0.54846609
0.018217623 0.0049429103 0 0 0.33897066 -0.54846609
0.015413745 0.0049423478 0 0 0.33897066 -0.54846609
0.01261045 0.0049418793 0 0 0.33897066 -0.54846609
0.0098076332 0.0049415044 0 0 0.33897066 -0.54846609
0.0070051872 0.0049412232 0 0 0.33897066 -0.54846609
0.0042030062 0.004941036 0 0 0.33897066 -0.54846609
0.0014009844 0.0049409424 0 0 0.33897066 -0.54846609
0.03797223 0.0016542566 0 0 0.33897066 -0.54846609
0.035153676 0.0016538474 0 0 0.33897066 -0.54846609
0.032336459 0.0016534697 0 0 0.33897066 -0.54846609
0.029520474 0.0016531236 0 0 0.33897066 -0.54846609
0.026705615 0.0016528092 0 0 0.33897066 -0.54846609
0.023891771 0.0016525262 0 0 0.33897066 -0.54846609
0.021078838 0.0016522749 0 0 0.33897066 -0.54846609
0.018266706 0.0016520548 0 0 0.33897066 -0.54846609
0.015455268 0.0016518664 0 0 0.33897066 -0.54846609
0.012644419 0.0016517093 0 0 0.33897066 -0.54846609
0.0098340493 0.0016515837 0 0 0.33897066 -0.54846609
0.0070240539 0.0016514895 0 0 0.33897066 -0.54846609
0.0042143255 0.0016514267 0 0 0.33897066 -0.54846609
0.0014047574 0.0016513952 0 0 0.33897066 -0.54846609
