# .PCD v0.7 - Point Cloud Data file format
VERSION 0.7
FIELDS x y z vp_x vp_y vp_z
SIZE 4 4 4 4 4 4
TYPE F F F F F F
COUNT 1 1 1 1 1 1
WIDTH 531
HEIGHT 1
VIEWPOINT 0 0 0 1 0 0 0
POINTS 531
DATA ascii
0.038651906 0.0011948367 0.039999999 0 0.33897066 0.54846609
0.035979655 0.0012012443 0.039999999 0 0.33897066 0.54846609
0.033308819 0.0012071916 0.039999999 0 0.33897066 0.54846609
0.030639296 0.0012126792 0.039999999 0 0.33897066 0.54846609
0.027970979 0.0012177076 0.039999999 0 0.33897066 0.54846609
0.025303762 0.0012222774 0.039999999 0 0.33897066 0.54846609
0.02263754 0.0012263888 0.039999999 0 0.33897066 0.54846609
0.019972207 0.0012300424 0.039999999 0 0.33897066 0.54846609
0.01730766 0.0012332386 0.039999999 0 0.33897066 0.54846609
0.014643793 0.0012359776 0.039999999 0 0.33897066 0.54846609
0.011980501 0.0012382597 0.039999999 0 0.33897066 0.54846609
0.0093176803 0.0012400851 0.039999999 0 0.33897066 0.54846609
0.0066552241 0.0012414539 0.039999999 0 0.33897066 0.54846609
0.0039930302 0.0012423665 0.039999999 0 0.33897066 0.54846609
0.0013309927 0.0012428227 0.039999999 0 0.33897066 0.54846609
0.0385455 0.0043896455 0.039999999 0 0.33897066 0.54846609
0.035880629 0.0043951678 0.039999999 0 0.33897066 0.54846609
0.033217169 0.0044002933 0.039999999 0 0.33897066 0.54846609
0.03055501 0.0044050231 0.039999999 0 0.33897066 0.54846609
0.02789405 0.0044093565 0.039999999 0 0.33897066 0.54846609
0.025234181 0.0044132951 0.039999999 0 0.33897066 0.54846609
0.022575302 0.0044168383 0.039999999 0 0.33897066 0.54846609
0.019917307 0.0044199871 0.039999999 0 0.33897066 0.54846609
0.01726009 0.0044227415 0.039999999 0 0.33897066 0.54846609
0.01460355 0.0044251024 0.039999999 0 0.33897066 0.54846609
0.01194758 0.0044270689 0.039999999 0 0.33897066 0.54846609
0.0092920773 0.0044286423 0.039999999 0 0.33897066 0.54846609
0.006636939 0.0044298219 0.039999999 0 0.33897066 0.54846609
0.0039820597 0.0044306084 0.039999999 0 0.33897066 0.54846609
0.0013273358 0.0044310014 0.039999999 0 0.33897066 0.54846609
0.038439702 0.0075661284 0.039999999 0 0.33897066 0.54846609
0.035782173 0.0075707748 0.039999999 0 0.33897066 0.54846609
0.033126045 0.0075750877 0.039999999 0 0.33897066 0.54846609
0.030471208 0.0075790673 0.039999999 0 0.33897066 0.54846609
0.027817562 0.0075827138 0.039999999 0 0.33897066 0.54846609
0.025165001 0.007586028 0.039999999 0 0.33897066 0.54846609
0.022513421 0.0075890096 0.039999999 0 0.33897066 0.54846609
0.019862721 0.0075916592 0.039999999 0 0.33897066 0.54846609
0.017212793 0.0075939768 0.039999999 0 0.33897066 0.54846609
0.014563536 0.0075959633 0.039999999 0 0.33897066 0.54846609
0.011914847 0.0075976183 0.039999999 0 0.33897066 0.54846609
0.0092666224 0.0075989421 0.039999999 0 0.33897066 0.54846609
0.0066187582 0.0075999345 0.039999999 0 0.33897066 0.54846609
0.0039711515 0.0076005966 0.039999999 0 0.33897066 0.54846609
0.0013237001 0.0076009273 0.039999999 0 0.33897066 0.54846609
0.038334504 0.010724561 0.039999999 0 0.33897066 0.54846609
0.035684276 0.010728342 0.039999999 0 0.33897066 0.54846609
0.033035439 0.010731852 0.039999999 0 0.33897066 0.54846609
0.030387882 0.01073509 0.039999999 0 0.33897066 0.54846609
0.027741509 0.010738056 0.039999999 0 0.33897066 0.54846609
0.025096212 0.010740753 0.039999999 0 0.33897066 0.54846609
0.022451892 0.010743179 0.039999999 0 0.33897066 0.54846609
0.019808443 0.010745334 0.039999999 0 0.33897066 0.54846609
0.017165763 0.01074722 0.039999999 0 0.33897066 0.54846609
0.01452375 0.010748837 0.039999999 0 0.33897066 0.54846609
0.0118823 0.010750184 0.039999999 0 0.33897066 0.54846609
0.0092413109 0.01075126 0.039999999 0 0.33897066 0.54846609
0.0066006803 0.010752069 0.039999999 0 0.33897066 0.54846609
0.0039603058 0.010752607 0.039999999 0 0.33897066 0.54846609
0.0013200849 0.010752876 0.039999999 0 0.33897066 0.54846609
0.038229901 0.013865218 0.039999999 0 0.33897066 0.54846609
0.035586931 0.013868142 0.039999999 0 0.33897066 0.54846609
0.032945339 0.013870857 0.039999999 0 0.33897066 0.54846609
0.030305024 0.013873361 0.039999999 0 0.33897066 0.54846609
0.027665881 0.013875657 0.039999999 0 0.33897066 0.54846609
0.025027812 0.013877742 0.039999999 0 0.33897066 0.54846609
0.022390708 0.013879619 0.039999999 0 0.33897066 0.54846609
0.019754471 0.013881287 0.039999999 0 0.33897066 0.54846609
0.017118998 0.013882745 0.039999999 0 0.33897066 0.54846609
0.014484187 0.013883995 0.039999999 0 0.33897066 0.54846609
0.011849935 0.013885037 0.039999999 0 0.33897066 0.54846609
0.0092161419 0.01388587 0.039999999 0 0.33897066 0.54846609
0.0065827044 0.013886495 0.039999999 0 0.33897066 0.54846609
0.0039495206 0.013886911 0.039999999 0 0.33897066 0.54846609
0.00131649 0.013887119 0.039999999 0 0.33897066 0.54846609
0.03812588 0.016988365 0.039999999 0 0.33897066 0.54846609
0.035490125 0.016990444 0.039999999 0 0.33897066 0.54846609
0.032855742 0.016992372 0.039999999 0 0.33897066 0.54846609
0.030222626 0.01699415 0.039999999 0 0.33897066 0.54846609
0.027590677 0.01699578 0.039999999 0 0.33897066 0.54846609
0.02495979 0.016997263 0.039999999 0 0.33897066 0.54846609
0.022329865 0.016998596 0.039999999 0 0.33897066 0.54846609
0.019700799 0.016999781 0.039999999 0 0.33897066 0.54846609
0.017072493 0.017000817 0.039999999 0 0.33897066 0.54846609
0.014444845 0.017001705 0.039999999 0 0.33897066 0.54846609
0.011817751 0.017002445 0.039999999 0 0.33897066 0.54846609
0.0091911126 0.017003037 0.039999999 0 0.33897066 0.54846609
0.0065648281 0.01700348 0.039999999 0 0.33897066 0.54846609
0.003938796 0.017003777 0.039999999 0 0.33897066 0.54846609
0.0013129151 0.017003924 0.039999999 0 0.33897066 0.54846609
0.038022432 0.02009427 0.039999999 0 0.33897066 0.54846609
0.035393856 0.020095509 0.039999999 0 0.33897066 0.54846609
0.03276664 0.02009666 0.039999999 0 0.33897066 0.54846609
0.030140685 0.020097721 0.039999999 0 0.33897066 0.54846609
0.027515886 0.020098694 0.039999999 0 0.33897066 0.54846609
0.024892144 0.020099578 0.039999999 0 0.33897066 0.54846609
0.022269357 0.020100374 0.039999999 0 0.33897066 0.54846609
0.019647425 0.020101082 0.039999999 0 0.33897066 0.54846609
0.017026246 0.0201017 0.039999999 0 0.33897066 0.54846609
0.014405719 0.020102229 0.039999999 0 0.33897066 0.54846609
0.011785745 0.02010267 0.039999999 0 0.33897066 0.54846609
0.0091662221 0.020103024 0.039999999 0 0.33897066 0.54846609
0.0065470506 0.020103289 0.039999999 0 0.33897066 0.54846609
0.00392813 0.020103466 0.039999999 0 0.33897066 0.54846609
0.0013093599 0.020103553 0.039999999 0 0.33897066 0.54846609
0.037919551 0.023183187 0.039999999 0 0.33897066 0.54846609
0.035298113 0.023183599 0.039999999 0 0.33897066 0.54846609
0.032678027 0.023183981 0.039999999 0 0.33897066 0.54846609
0.030059192 0.023184333 0.039999999 0 0.33897066 0.54846609
0.025900807 0.040914398 0.068547726 0 0.33897066 0.54846609
0.023360176 0.041816618 0.07 0 0.33897066 0.54846609
0.021024536 0.040029299 0.067121729 0 0.33897066 0.54846609
0.018438255 0.041817084 0.07 0 0.33897066 0.54846609
0.015978398 0.041817278 0.07 0 0.33897066 0.54846609
0.013519151 0.041817445 0.07 0 0.33897066 0.54846609
0.011753912 0.023185974 0.039999999 0 0.33897066 0.54846609
0.0091414666 0.023186089 0.039999999 0 0.33897066 0.54846609
0.0065293699 0.023186179 0.039999999 0 0.33897066 0.54846609
0.0039175223 0.023186237 0.039999999 0 0.33897066 0.54846609
0.0013058241 0.023186266 0.039999999 0 0.33897066 0.54846609
0.037817229 0.026255377 0.039999999 0 0.33897066 0.54846609
0.035202891 0.026254969 0.039999999 0 0.33897066 0.54846609
0.030667057 0.044705145 0.07 0 0.33897066 0.54846609
0.028209399 0.044704817 0.07 0 0.33897066 0.54846609
0.025752814 0.044704515 0.07 0 0.33897066 0.54846609
0.023297213 0.04470424 0.07 0 0.33897066 0.54846609
0.021172903 0.0400391 0.062415067 0 0.33897066 0.54846609
0.018388573 0.044703774 0.07 0 0.33897066 0.54846609
0.01593535 0.044703584 0.07 0 0.33897066 0.54846609
0.013482733 0.044703417 0.07 0 0.33897066 0.54846609
0.011030628 0.044703282 0.07 0 0.33897066 0.54846609
0.0085789422 0.044703171 0.07 0 0.33897066 0.54846609
0.0065117851 0.026252404 0.039999999 0 0.33897066 0.54846609
0.0039069718 0.026252344 0.039999999 0 0.33897066 0.54846609
0.0013023075 0.026252316 0.039999999 0 0.33897066 0.54846609
0.035490204 0.047581311 0.07 0 0.33897066 0.54846609
0.033036757 0.04758016 0.07 0 0.33897066 0.54846609
0.030584566 0.047579095 0.07 0 0.33897066 0.54846609
0.02867138 0.042007413 0.060852919 0 0.33897066 0.54846609
0.025683574 0.047577213 0.07 0 0.33897066 0.54846609
0.023234585 0.047576394 0.07 0 0.33897066 0.54846609
0.020786477 0.047575656 0.07 0 0.33897066 0.54846609
0.018339157 0.047575004 0.07 0 0.33897066 0.54846609
0.015892532 0.047574431 0.07 0 0.33897066 0.54846609
0.013446509 0.047573939 0.07 0 0.33897066 0.54846609
0.011000996 0.047573529 0.07 0 0.33897066 0.54846609
0.0085558975 0.047573205 0.07 0 0.33897066 0.54846609
0.0061523067 0.045609262 0.066775672 0 0.33897066 0.54846609
0.0038964781 0.02930204 0.039999999 0 0.33897066 0.54846609
0.0012988097 0.029301954 0.039999999 0 0.33897066 0.54846609
0.035394944 0.050441459 0.07 0 0.33897066 0.54846609
0.032948107 0.050439555 0.07 0 0.33897066 0.54846609
0.030502515 0.050437789 0.07 0 0.33897066 0.54846609
0.028868834 0.042098768 0.056174409 0 0.33897066 0.54846609
0.025614701 0.050434668 0.07 0 0.33897066 0.54846609
0.023975937 0.040426444 0.053406149 0 0.33897066 0.54846609
0.021475103 0.040071975 0.052820452 0 0.33897066 0.54846609
0.018290004 0.050431006 0.07 0 0.33897066 0.54846609
0.015849942 0.050430056 0.07 0 0.33897066 0.54846609
0.013410478 0.05042924 0.07 0 0.33897066 0.54846609
0.01097152 0.050428562 0.07 0 0.33897066 0.54846609
0.0085329758 0.050428022 0.07 0 0.33897066 0.54846609
0.0060947528 0.050427616 0.07 0 0.33897066 0.54846609
0.0036814183 0.048481621 0.066773579 0 0.33897066 0.54846609
0.0012953304 0.032335427 0.039999999 0 0.33897066 0.54846609
0.037741777 0.053289406 0.07 0 0.33897066 0.54846609
0.03530018 0.053286564 0.07 0 0.33897066 0.54846609
0.032859918 0.053283915 0.07 0 0.33897066 0.54846609
0.030420894 0.053281456 0.07 0 0.33897066 0.54846609
0.027983015 0.053279188 0.07 0 0.33897066 0.54846609
0.026629679 0.041159995 0.049706832 0 0.33897066 0.54846609
0.023110323 0.053275216 0.07 0 0.33897066 0.54846609
0.020675328 0.053273518 0.07 0 0.33897066 0.54846609
0.018241109 0.053272005 0.07 0 0.33897066 0.54846609
0.015807575 0.053270683 0.07 0 0.33897066 0.54846609
0.013374636 0.05326955 0.07 0 0.33897066 0.54846609
0.010942199 0.053268608 0.07 0 0.33897066 0.54846609
0.0085101733 0.053267851 0.07 0 0.33897066 0.54846609
0.0060784668 0.053267285 0.07 0 0.33897066 0.54846609
0.0036469889 0.053266909 0.07 0 0.33897066 0.54846609
0.0012159753 0.053189743 0.069871083 0 0.33897066 0.54846609
0.038219523 0.051772922 0.062645711 0 0.33897066 0.54846609
0.035205916 0.056116853 0.07 0 0.33897066 0.54846609
0.032772191 0.056113467 0.07 0 0.33897066 0.54846609
0.030339699 0.056110319 0.07 0 0.33897066 0.54846609
0.027908342 0.056107417 0.07 0 0.33897066 0.54846609
0.025478033 0.056104757 0.07 0 0.33897066 0.54846609
0.023048678 0.056102343 0.07 0 0.33897066 0.54846609
0.020620186 0.056100167 0.07 0 0.33897066 0.54846609
0.018192468 0.056098234 0.07 0 0.33897066 0.54846609
0.016646406 0.040289469 0.043263201 0 0.33897066 0.54846609
0.01333898 0.056095093 0.07 0 0.33897066 0.54846609
0.010913031 0.056093886 0.07 0 0.33897066 0.54846609
0.00848749 0.056092922 0.07 0 0.33897066 0.54846609
0.006062266 0.056092199 0.07 0 0.33897066 0.54846609
0.0037361579 0.048400886 0.056991607 0 0.33897066 0.54846609
0.0012124078 0.056091473 0.07 0 0.33897066 0.54846609
0.037540663 0.058936965 0.07 0 0.33897066 0.54846609
0.03640629 0.048610967 0.052364804 0 0.33897066 0.54846609
0.032684918 0.05892843 0.07 0 0.33897066 0.54846609
0.03025892 0.058924604 0.07 0 0.33897066 0.54846609
0.029476577 0.042395007 0.041765131 0 0.33897066 0.54846609
0.025410229 0.058917843 0.07 0 0.33897066 0.54846609
0.022987351 0.058914904 0.07 0 0.33897066 0.54846609
0.020565331 0.058912259 0.07 0 0.33897066 0.54846609
0.018144077 0.058909912 0.07 0 0.33897066 0.54846609
0.015723499 0.058907855 0.07 0 0.33897066 0.54846609
0.013303508 0.058906093 0.07 0 0.33897066 0.54846609
0.010884013 0.058904625 0.07 0 0.33897066 0.54846609
0.0084649231 0.058903452 0.07 0 0.33897066 0.54846609
0.0063369009 0.045434412 0.046991106 0 0.33897066 0.54846609
0.003627599 0.058901984 0.07 0 0.33897066 0.54846609
0.0012091846 0.05890169 0.07 0 0.33897066 0.54846609
0.039864324 0.061744601 0.07 0 0.33897066 0.54846609
0.038643222 0.052836295 0.054634977 0 0.33897066 0.54846609
0.036634009 0.04894685 0.047931667 0 0.33897066 0.54846609
0.032598086 0.061729025 0.07 0 0.33897066 0.54846609
0.030178556 0.061724529 0.07 0 0.33897066 0.54846609
0.027760146 0.061720379 0.07 0 0.33897066 0.54846609
0.02534277 0.061716579 0.07 0 0.33897066 0.54846609
0.022926336 0.061713122 0.07 0 0.33897066 0.54846609
0.020510754 0.061710015 0.07 0 0.33897066 0.54846609
0.018095933 0.061707251 0.07 0 0.33897066 0.54846609
0.015681783 0.061704837 0.07 0 0.33897066 0.54846609
0.013268217 0.061702766 0.07 0 0.33897066 0.54846609
0.010855142 0.061701041 0.07 0 0.33897066 0.54846609
0.0096776122 0.021134673 0 0 0.33897066 0.54846609
0.0060301125 0.061698627 0.07 0 0.33897066 0.54846609
0.0036179782 0.061697934 0.07 0 0.33897066 0.54846609
0.0012432801 0.053121209 0.055200484 0 0.33897066 0.54846609
0.037341602 0.064526983 0.07 0 0.33897066 0.54846609
0.034926001 0.064521022 0.07 0 0.33897066 0.54846609
0.032511696 0.064515464 0.07 0 0.33897066 0.54846609
0.034502048 0.024356518 0 0 0.33897066 0.54846609
0.031737186 0.02435106 0 0 0.33897066 0.54846609
0.025275653 0.064501181 0.07 0 0.33897066 0.54846609
0.022865629 0.064497218 0.07 0 0.33897066 0.54846609
0.020456452 0.064493649 0.07 0 0.33897066 0.54846609
0.020688474 0.024333788 0 0 0.33897066 0.54846609
0.015640277 0.064487703 0.07 0 0.33897066 0.54846609
0.013233104 0.064485326 0.07 0 0.33897066 0.54846609
0.010826418 0.064483345 0.07 0 0.33897066 0.54846609
0.0084201321 0.064481758 0.07 0 0.33897066 0.54846609
0.006014158 0.064480573 0.07 0 0.33897066 0.54846609
0.0036084061 0.064479783 0.07 0 0.33897066 0.54846609
0.0012027872 0.064479388 0.07 0 0.33897066 0.54846609
0.039064258 0.054014385 0.046599623 0 0.33897066 0.54846609
0.039929826 0.027547741 0 0 0.33897066 0.54846609
0.03716965 0.027540555 0 0 0.33897066 0.54846609
0.030019037 0.067282148 0.07 0 0.33897066 0.54846609
0.027613444 0.067276783 0.07 0 0.33897066 0.54846609
0.02520887 0.067271858 0.07 0 0.33897066 0.54846609
0.022805225 0.067267388 0.07 0 0.33897066 0.54846609
0.023387313 0.027512357 0 0 0.33897066 0.54846609
0.01800037 0.067259796 0.07 0 0.33897066 0.54846609
0.015598981 0.067256667 0.07 0 0.33897066 0.54846609
0.013198165 0.067253985 0.07 0 0.33897066 0.54846609
0.010797837 0.067251749 0.07 0 0.33897066 0.54846609
0.0083979052 0.067249969 0.07 0 0.33897066 0.54846609
0.0059982832 0.067248628 0.07 0 0.33897066 0.54846609
0.0035988817 0.067247733 0.07 0 0.33897066 0.54846609
0.0012017001 0.066774428 0.069167361 0 0.33897066 0.54846609
0.037144527 0.070061177 0.07 0 0.33897066 0.54846609
0.039824471 0.030710926 0 0 0.33897066 0.54846609
0.037071604 0.030702937 0 0 0.33897066 0.54846609
0.029939871 0.070040271 0.07 0 0.33897066 0.54846609
0.027540639 0.070034303 0.07 0 0.33897066 0.54846609
0.025142418 0.070028827 0.07 0 0.33897066 0.54846609
0.026072752 0.030676709 0 0 0.33897066 0.54846609
0.020348659 0.070019387 0.07 0 0.33897066 0.54846609
0.017952943 0.070015408 0.07 0 0.33897066 0.54846609
0.015557887 0.070011936 0.07 0 0.33897066 0.54846609
0.015089218 0.030659625 0 0 0.33897066 0.54846609
0.010769397 0.070006475 0.07 0 0.33897066 0.54846609
0.0083757881 0.070004486 0.07 0 0.33897066 0.54846609
0.0059824865 0.070002995 0.07 0 0.33897066 0.54846609
0.0035894043 0.070002005 0.07 0 0.33897066 0.54846609
0.0012107079 0.06679704 0.064299606 0 0.33897066 0.54846609
0.037485775 0.069653444 0.064329483 0 0.33897066 0.54846609
0.03465027 0.072799645 0.07 0 0.33897066 0.54846609
0.032255091 0.072791986 0.07 0 0.33897066 0.54846609
0.029861094 0.072784871 0.07 0 0.33897066 0.54846609
0.027468191 0.072778307 0.07 0 0.33897066 0.54846609
0.025076292 0.072772294 0.07 0 0.33897066 0.54846609
0.022685312 0.072766826 0.07 0 0.33897066 0.54846609
0.02326436 0.033815335 0 0 0.33897066 0.54846609
0.017905749 0.072757535 0.07 0 0.33897066 0.54846609
0.015516995 0.072753713 0.07 0 0.33897066 0.54846609
0.015049561 0.033802189 0 0 0.33897066 0.54846609
0.012312528 0.03379906 0 0 0.33897066 0.54846609
0.0083537791 0.072745524 0.07 0 0.33897066 0.54846609
0.0059667677 0.072743885 0.07 0 0.33897066 0.54846609
0.0035980907 0.071395479 0.067578606 0 0.33897066 0.54846609
0.0012198552 0.066819996 0.059356522 0 0.33897066 0.54846609
0.037879337 0.068911135 0.057957813 0 0.33897066 0.54846609
0.034842335 0.073374413 0.066080846 0 0.33897066 0.54846609
0.036876947 0.036981422 0 0 0.33897066 0.54846609
0.029782699 0.075516157 0.07 0 0.33897066 0.54846609
0.027396094 0.075509004 0.07 0 0.33897066 0.54846609
0.025010487 0.075502448 0.07 0 0.33897066 0.54846609
0.022625791 0.075496495 0.07 0 0.33897066 0.54846609
0.02024192 0.075491138 0.07 0 0.33897066 0.54846609
0.017858785 0.075486369 0.07 0 0.33897066 0.54846609
0.015476299 0.075482205 0.07 0 0.33897066 0.54846609
0.013094379 0.075478636 0.07 0 0.33897066 0.54846609
0.010712933 0.075475663 0.07 0 0.33897066 0.54846609
0.0083318772 0.075473279 0.07 0 0.33897066 0.54846609
0.0059792357 0.074226797 0.067739859 0 0.33897066 0.54846609
0.0036252614 0.071435556 0.062673666 0 0.33897066 0.54846609
0.0012291453 0.066843316 0.054336149 0 0.33897066 0.54846609
0.038299177 0.068027169 0.051217608 0 0.33897066 0.54846609
0.035163473 0.072996356 0.060355417 0 0.33897066 0.54846609
0.0324044 0.07565622 0.065253489 0 0.33897066 0.54846609
0.029798441 0.077411339 0.068489768 0 0.33897066 0.54846609
0.027324343 0.078226596 0.07 0 0.33897066 0.54846609
0.028594472 0.040071387 0 0 0.33897066 0.54846609
0.022566557 0.078213066 0.07 0 0.33897066 0.54846609
0.023142593 0.040057357 0 0 0.33897066 0.54846609
0.017812045 0.078202121 0.07 0 0.33897066 0.54846609
0.015435801 0.078197613 0.07 0 0.33897066 0.54846609
0.013060116 0.078193754 0.07 0 0.33897066 0.54846609
0.01070484 0.07770399 0.069107324 0 0.33897066 0.54846609
0.0083719483 0.076246433 0.066437826 0 0.33897066 0.54846609
0.0060246899 0.074269854 0.062814921 0 0.33897066 0.54846609
0.0036528578 0.071476258 0.057691883 0 0.33897066 0.54846609
0.0012385823 0.066867001 0.049236473 0 0.33897066 0.54846609
0.038767129 0.066852733 0.043821868 0 0.33897066 0.54846609
0.035490748 0.072611071 0.054520663 0 0.33897066 0.54846609
0.032685075 0.075442851 0.059790373 0 0.33897066 0.54846609
0.030049488 0.077260293 0.063177511 0 0.33897066 0.54846609
0.027506378 0.078531578 0.065550409 0 0.33897066 0.54846609
0.025032409 0.079341039 0.067065544 0 0.33897066 0.54846609
0.022604557 0.079805151 0.067938991 0 0.33897066 0.54846609
0.020209402 0.079972401 0.068260677 0 0.33897066 0.54846609
0.017837927 0.079853289 0.068050139 0 0.33897066 0.54846609
0.015481752 0.079454198 0.067319229 0 0.33897066 0.54846609
0.013133812 0.078760318 0.066040516 0 0.33897066 0.54846609
0.010787103 0.077742055 0.064159162 0 0.33897066 0.54846609
0.008435946 0.076295085 0.06148177 0 0.33897066 0.54846609
0.0060708625 0.074313588 0.057812136 0 0.33897066 0.54846609
0.0036808911 0.071517602 0.052631248 0 0.33897066 0.54846609
0.0012481699 0.066891067 0.044055395 0 0.33897066 0.54846609
0.038958762 0.067655347 0.039999999 0 0.33897066 0.54846609
0.035824344 0.072218351 0.048573185 0 0.33897066 0.54846609
0.032971416 0.075220734 0.054219719 0 0.33897066 0.54846609
0.030304933 0.077106595 0.057772174 0 0.33897066 0.54846609
0.027735133 0.078425743 0.060261045 0 0.33897066 0.54846609
0.025234615 0.079296529 0.061908219 0 0.33897066 0.54846609
0.022784933 0.079785526 0.062838532 0 0.33897066 0.54846609
0.020368705 0.079977334 0.063210554 0 0.33897066 0.54846609
0.017977798 0.079868503 0.063017897 0 0.33897066 0.54846609
0.015602451 0.079480767 0.062301282 0 0.33897066 0.54846609
0.013235798 0.078794681 0.061024342 0 0.33897066 0.54846609
0.010870685 0.077780724 0.059131764 0 0.33897066 0.54846609
0.0085009634 0.076344512 0.056446746 0 0.33897066 0.54846609
0.0061177728 0.074358024 0.052729439 0 0.33897066 0.54846609
0.0037093726 0.071559608 0.047489669 0 0.33897066 0.54846609
0.0012549277 0.067560993 0.039999999 0 0.33897066 0.54846609
0.038857266 0.070505485 0.039999999 0 0.33897066 0.54846609
0.036176678 0.071727708 0.042338554 0 0.33897066 0.54846609
0.033270136 0.074937783 0.048439898 0 0.33897066 0.54846609
0.030564902 0.076950178 0.052271087 0 0.33897066 0.54846609
0.027967855 0.078318074 0.054879963 0 0.33897066 0.54846609
0.025441291 0.079240441 0.056643464 0 0.33897066 0.54846609
0.022968315 0.079765581 0.057653133 0 0.33897066 0.54846609
0.02053063 0.079982348 0.058077324 0 0.33897066 0.54846609
0.018119963 0.07988397 0.057903267 0 0.33897066 0.54846609
0.015725113 0.079507761 0.057201639 0 0.33897066 0.54846609
0.013339439 0.078829601 0.055926811 0 0.33897066 0.54846609
0.01095562 0.077820018 0.054022998 0 0.33897066 0.54846609
0.0085670277 0.076394737 0.051330663 0 0.33897066 0.54846609
0.0061654402 0.074403174 0.047564704 0 0.33897066 0.54846609
0.0037383146 0.071602292 0.042264994 0 0.33897066 0.54846609
0.0012516656 0.070405126 0.039999999 0 0.33897066 0.54846609
0.03875624 0.07334248 0.039999999 0 0.33897066 0.54846609
0.036249366 0.073329166 0.039999999 0 0.33897066 0.54846609
0.033574499 0.07464949 0.042550877 0 0.33897066 0.54846609
0.03082953 0.076790959 0.046671461 0 0.33897066 0.54846609
0.028204657 0.078208521 0.04940455 0 0.33897066 0.54846609
0.025652913 0.079169139 0.051261272 0 0.33897066 0.54846609
0.023154782 0.079745293 0.05238045 0 0.33897066 0.54846609
0.02069575 0.079981178 0.052846722 0 0.33897066 0.54846609
0.018264478 0.079899691 0.052704006 0 0.33897066 0.54846609
0.015849795 0.079535201 0.052018087 0 0.33897066 0.54846609
0.013444779 0.078865096 0.050745737 0 0.33897066 0.54846609
0.011041943 0.077859953 0.048830681 0 0.33897066 0.54846609
0.0086341659 0.076445781 0.046131339 0 0.33897066 0.54846609
0.0062138853 0.074449062 0.042315729 0 0.33897066 0.54846609
0.0037453 0.073237062 0.039999999 0 0.33897066 0.54846609
0.0012484185 0.073236175 0.039999999 0 0.33897066 0.54846609
0.038655676 0.076166533 0.039999999 0 0.33897066 0.54846609
0.036155332 0.076152481 0.039999999 0 0.33897066 0.54846609
0.033656273 0.076139383 0.039999999 0 0.33897066 0.54846609
0.031098951 0.076628856 0.040970407 0 0.33897066 0.54846609
0.028445657 0.078097016 0.04383209 0 0.33897066 0.54846609
0.025868224 0.079096586 0.045785319 0 0.33897066 0.54846609
0.023345536 0.079712301 0.046994146 0 0.33897066 0.54846609
0.020863924 0.079976626 0.047521431 0 0.33897066 0.54846609
0.018411409 0.07991568 0.047417793 0 0.33897066 0.54846609
0.015976552 0.079563104 0.046748336 0 0.33897066 0.54846609
0.013551864 0.078901179 0.045478839 0 0.33897066 0.54846609
0.011129693 0.077900551 0.043552544 0 0.33897066 0.54846609
0.0087024095 0.076497659 0.040846527 0 0.33897066 0.54846609
0.0062261517 0.076057144 0.039999999 0 0.33897066 0.54846609
0.0037356026 0.076055281 0.039999999 0 0.33897066 0.54846609
0.0012451861 0.076054342 0.039999999 0 0.33897066 0.54846609
0.038555562 0.078977838 0.039999999 0 0.33897066 0.54846609
0.036061719 0.078963064 0.039999999 0 0.33897066 0.54846609
0.033569157 0.07894928 0.039999999 0 0.33897066 0.54846609
0.031077784 0.078936487 0.039999999 0 0.33897066 0.54846609
0.028587513 0.078924678 0.039999999 0 0.33897066 0.54846609
0.026087325 0.079022758 0.040212914 0 0.33897066 0.54846609
0.023540437 0.079669409 0.041496418 0 0.33897066 0.54846609
0.021034969 0.079971999 0.042105243 0 0.33897066 0.54846609
0.018560827 0.07993193 0.042042222 0 0.33897066 0.54846609
0.016105436 0.079591468 0.041390013 0 0.33897066 0.54846609
0.013660741 0.078937866 0.040123768 0 0.33897066 0.54846609
0.011179033 0.078869648 0.039999999 0 0.33897066 0.54846609
0.0086943926 0.078865714 0.039999999 0 0.33897066 0.54846609
0.0062100613 0.078862771 0.039999999 0 0.33897066 0.54846609
0.0037259487 0.078860812 0.039999999 0 0.33897066 0.54846609
0.0012419684 0.078859828 0.039999999 0 0.33897066 0.54846609
0.038721535 0.079999998 0.036487725 0 0.33897066 0.54846609
0.036214802 0.079999998 0.03651857 0 0.33897066 0.54846609
0.033709783 0.079999998 0.036547344 0 0.33897066 0.54846609
0.031206366 0.079999998 0.036574047 0 0.33897066 0.54846609
0.028704425 0.079999998 0.036598686 0 0.33897066 0.54846609
0.026203845 0.079999998 0.036621261 0 0.33897066 0.54846609
0.023704505 0.079999998 0.036641777 0 0.33897066 0.54846609
0.021206288 0.079999998 0.036660235 0 0.33897066 0.54846609
0.018709073 0.079999998 0.036676634 0 0.33897066 0.54846609
0.016212743 0.079999998 0.03669098 0 0.33897066 0.54846609
0.013717178 0.079999998 0.036703274 0 0.33897066 0.54846609
0.011222262 0.079999998 0.036713518 0 0.33897066 0.54846609
0.0087278765 0.079999998 0.03672171 0 0.33897066 0.54846609
0.0062339031 0.079999998 0.036727857 0 0.33897066 0.54846609
0.0037402241 0.079999998 0.036731951 0 0.33897066 0.54846609
0.0012467217 0.079999998 0.036734 0 0.33897066 0.54846609
0.03904463 0.079999998 0.030880306 0 0.33897066 0.54846609
0.036516875 0.079999998 0.030913284 0 0.33897066 0.54846609
0.033990875 0.079999998 0.030944047 0 0.33897066 0.54846609
0.031466506 0.079999998 0.030972598 0 0.33897066 0.54846609
0.028943647 0.079999998 0.030998942 0 0.33897066 0.54846609
0.026422173 0.079999998 0.031023078 0 0.33897066 0.54846609
0.023901965 0.079999998 0.03104501 0 0.33897066 0.54846609
0.021382902 0.079999998 0.031064745 0 0.33897066 0.54846609
0.018864861 0.079999998 0.031082278 0 0.33897066 0.54846609
0.016347723 0.079999998 0.031097617 0 0.33897066 0.54846609
0.013831366 0.079999998 0.031110762 0 0.33897066 0.54846609
0.011315671 0.079999998 0.031121712 0 0.33897066 0.54846609
0.0088005168 0.079999998 0.031130472 0 0.33897066 0.54846609
0.0062857834 0.079999998 0.03113704 0 0.33897066 0.54846609
0.0037713498 0.079999998 0.031141419 0 0.33897066 0.54846609
0.0012570965 0.079999998 0.031143608 0 0.33897066 0.54846609
0.039373416 0.079999998 0.02517402 0 0.33897066 0.54846609
0.036824275 0.079999998 0.025209201 0 0.33897066 0.54846609
0.034276921 0.079999998 0.025242019 0 0.33897066 0.54846609
0.031731229 0.079999998 0.025272477 0 0.33897066 0.54846609
0.02918708 0.079999998 0.025300579 0 0.33897066 0.54846609
0.026644345 0.079999998 0.025326328 0 0.33897066 0.54846609
0.0241029 0.079999998 0.025349727 0 0.33897066 0.54846609
0.021562623 0.079999998 0.025370777 0 0.33897066 0.54846609
0.01902339 0.079999998 0.025389483 0 0.33897066 0.54846609
0.016485078 0.079999998 0.025405845 0 0.33897066 0.54846609
0.013947563 0.079999998 0.025419867 0 0.33897066 0.54846609
0.011410723 0.079999998 0.025431549 0 0.33897066 0.54846609
0.008874435 0.079999998 0.025440892 0 0.33897066 0.54846609
0.0063385759 0.079999998 0.025447899 0 0.33897066 0.54846609
0.0038030229 0.079999998 0.025452571 0 0.33897066 0.54846609
0.0012676539 0.079999998 0.025454907 0 0.33897066 0.54846609
0.039708067 0.079999998 0.019366007 0 0.33897066 0.54846609
0.037137151 0.079999998 0.019403465 0 0.33897066 0.54846609
0.034568064 0.079999998 0.019438405 0 0.33897066 0.54846609
0.032000668 0.079999998 0.019470833 0 0.33897066 0.54846609
0.029434849 0.079999998 0.019500751 0 0.33897066 0.54846609
0.026870472 0.079999998 0.019528164 0 0.33897066 0.54846609
0.024307411 0.079999998 0.019553075 0 0.33897066 0.54846609
0.021745544 0.079999998 0.019575486 0 0.33897066 0.54846609
0.01918474 0.079999998 0.019595401 0 0.33897066 0.54846609
0.016624877 0.079999998 0.019612821 0 0.33897066 0.54846609
0.014065827 0.079999998 0.01962775 0 0.33897066 0.54846609
0.011507466 0.079999998 0.019640187 0 0.33897066 0.54846609
0.0089496672 0.079999998 0.019650133 0 0.33897066 0.54846609
0.0063923071 0.079999998 0.019657595 0 0.33897066 0.54846609
0.0038352592 0.079999998 0.019662566 0 0.33897066 0.54846609
0.0012783989 0.079999998 0.019665053 0 0.33897066 0.54846609
0.037455667 0.079999998 0.013493104 0 0.33897066 0.54846609
0.034864448 0.079999998 0.013530237 0 0.33897066 0.54846609
0.032274961 0.079999998 0.013564698 0 0.33897066 0.54846609
0.029687079 0.079999998 0.013596495 0 0.33897066 0.54846609
0.027100669 0.079999998 0.013625627 0 0.33897066 0.54846609
0.024515605 0.079999998 0.0136521 0 0.33897066 0.54846609
0.021931756 0.079999998 0.013675918 0 0.33897066 0.54846609
0.019348994 0.079999998 0.013697081 0 0.33897066 0.54846609
0.016767191 0.079999998 0.013715594 0 0.33897066 0.54846609
0.014186218 0.079999998 0.013731458 0 0.33897066 0.54846609
0.011605948 0.079999998 0.013744675 0 0.33897066 0.54846609
0.0090262527 0.079999998 0.013755247 0 0.33897066 0.54846609
0.0064470046 0.079999998 0.013763174 0 0.33897066 0.54846609
0.0038680751 0.079999998 0.01376846 0 0.33897066 0.54846609
0.0012893371 0.079999998 0.013771102 0 0.33897066 0.54846609
0.037779987 0.079999998 0.0074750348 0 0.33897066 0.54846609
0.035166234 0.079999998 0.007514433 0 0.33897066 0.54846609
0.03255425 0.079999998 0.0075509972 0 0.33897066 0.54846609
0.029943902 0.079999998 0.007584732 0 0.33897066 0.54846609
0.027335057 0.079999998 0.0076156417 0 0.33897066 0.54846609
0.024727587 0.079999998 0.0076437294 0 0.33897066 0.54846609
0.022121355 0.079999998 0.007668999 0 0.33897066 0.54846609
0.019516235 0.079999998 0.0076914532 0 0.33897066 0.54846609
0.016912093 0.079999998 0.0077110948 0 0.33897066 0.54846609
0.014308799 0.079999998 0.0077279261 0 0.33897066 0.54846609
0.011706222 0.079999998 0.0077419491 0 0.33897066 0.54846609
0.0091042314 0.079999998 0.0077531654 0 0.33897066 0.54846609
0.0065026963 0.079999998 0.0077615767 0 0.33897066 0.54846609
0.0039014877 0.079999998 0.0077671837 0 0.33897066 0.54846609
0.0013004742 0.079999998 0.007769987 0 0.33897066 0.54846609
0.038110286 0.079999998 0.0013460499 0 0.33897066 0.54846609
0.035473581 0.079999998 0.0013877896 0 0.33897066 0.54846609
0.03283868 0.079999998 0.0014265267 0 0.33897066 0.54846609
0.030205453 0.079999998 0.0014622662 0 0.33897066 0.54846609
0.027573761 0.079999998 0.0014950122 0 0.33897066 0.54846609
0.024943469 0.079999998 0.0015247688 0 0.33897066 0.54846609
0.022314444 0.079999998 0.0015515394 0 0.33897066 0.54846609
0.019686554 0.079999998 0.0015753275 0 0.33897066 0.54846609
0.017059661 0.079999998 0.0015961357 0 0.33897066 0.54846609
0.014433634 0.079999998 0.0016139667 0 0.33897066 0.54846609
0.01180834 0.079999998 0.0016288225 0 0.33897066 0.54846609
0.0091836434 0.079999998 0.0016407052 0 0.33897066 0.54846609
0.0065594125 0.079999998 0.0016496158 0 0.33897066 0.54846609
0.0039355145 0.079999998 0.0016555557 0 0.33897066 0.54846609
0.001311816 0.079999998 0.0016585254 0 0.33897066 0.54846609
