# .PCD v0.7 - Point Cloud Data file format
VERSION 0.7
FIELDS x y z vp_x vp_y vp_z
SIZE 4 4 4 4 4 4
TYPE F F F F F F
COUNT 1 1 1 1 1 1
WIDTH 620
HEIGHT 1
VIEWPOINT 0 0 0 1 0 0 0
POINTS 620
DATA ascii
0.0013807939 0.067223936 0.069619156 -0.54846609 0 -0.33897066
0.00043593737 0.06410633 0.068886586 -0.54846609 0 -0.33897066
5.773225e-05 0.061064817 0.068576537 -0.54846609 0 -0.33897066
0.00010437255 0.058074947 0.06858357 -0.54846609 0 -0.33897066
0.00062475365 0.055134553 0.068943933 -0.54846609 0 -0.33897066
0.0015968956 0.052233674 0.069641232 -0.54846609 0 -0.33897066
0.0053143227 0.073558845 0.068847828 -0.54846609 0 -0.33897066
0.0028115727 0.070214361 0.066973224 -0.54846609 0 -0.33897066
0.0012999226 0.06702096 0.06583 -0.54846609 0 -0.33897066
0.00040517095 0.063918673 0.065142475 -0.54846609 0 -0.33897066
4.8171732e-05 0.06088848 0.06485226 -0.54846609 0 -0.33897066
0.00011335521 0.057909273 0.064874195 -0.54846609 0 -0.33897066
0.00066747091 0.054980703 0.065257363 -0.54846609 0 -0.33897066
0.0016543921 0.052089363 0.06596037 -0.54846609 0 -0.33897066
0.0031695289 0.049236599 0.0670534 -0.54846609 0 -0.33897066
0.0053293547 0.046423458 0.068622127 -0.54846609 0 -0.33897066
0.009405205 0.076932207 0.06812828 -0.54846609 0 -0.33897066
0.0051126047 0.073321365 0.064964801 -0.54846609 0 -0.33897066
0.0026972687 0.069998764 0.063172758 -0.54846609 0 -0.33897066
0.0012195947 0.06681934 0.062066317 -0.54846609 0 -0.33897066
0.00037460565 0.063732229 0.061422836 -0.54846609 0 -0.33897066
3.8672959e-05 0.060713284 0.06115203 -0.54846609 0 -0.33897066
0.0001323063 0.05774571 0.061195835 -0.54846609 0 -0.33897066
0.00070992054 0.054827817 0.061593886 -0.54846609 0 -0.33897066
0.0017115315 0.051945951 0.06230237 -0.54846609 0 -0.33897066
0.00325944 0.04910399 0.063410439 -0.54846609 0 -0.33897066
0.0054344675 0.046299711 0.064976975 -0.54846609 0 -0.33897066
0.008634544 0.043553937 0.067292117 -0.54846609 0 -0.33897066
0.0089317327 0.076647341 0.06404455 -0.54846609 0 -0.33897066
0.0049123182 0.073085569 0.061109334 -0.54846609 0 -0.33897066
0.00258374 0.069784626 0.059398066 -0.54846609 0 -0.33897066
0.0011398018 0.066619068 0.058327693 -0.54846609 0 -0.33897066
0.00034423839 0.063547 0.057727296 -0.54846609 0 -0.33897066
2.9234976e-05 0.060539212 0.057475481 -0.54846609 0 -0.33897066
0.00015882039 0.05758398 0.05754618 -0.54846609 0 -0.33897066
0.00075210666 0.054675877 0.057953153 -0.54846609 0 -0.33897066
0.0017683194 0.051803418 0.058666877 -0.54846609 0 -0.33897066
0.0033488085 0.048972182 0.059789453 -0.54846609 0 -0.33897066
0.0055520926 0.046177797 0.061363116 -0.54846609 0 -0.33897066
0.0087837456 0.043441698 0.063680865 -0.54846609 0 -0.33897066
0.014320558 0.040839806 0.067665167 -0.54846609 0 -0.33897066
0.008542004 0.076375715 0.060050771 -0.54846609 0 -0.33897066
0.0047134403 0.072851434 0.057280988 -0.54846609 0 -0.33897066
0.0024709746 0.069571927 0.055648755 -0.54846609 0 -0.33897066
0.0010605355 0.066420123 0.054613747 -0.54846609 0 -0.33897066
0.00031406604 0.063362963 0.054055478 -0.54846609 0 -0.33897066
1.9856847e-05 0.060366239 0.053822245 -0.54846609 0 -0.33897066
0.00018516983 0.05742326 0.053919189 -0.54846609 0 -0.33897066
0.00079403323 0.054524872 0.054334816 -0.54846609 0 -0.33897066
0.001824761 0.051661756 0.055053547 -0.54846609 0 -0.33897066
0.0034376429 0.048841164 0.056190118 -0.54846609 0 -0.33897066
0.0056791543 0.046057444 0.057777744 -0.54846609 0 -0.33897066
0.0089649679 0.043332662 0.060113978 -0.54846609 0 -0.33897066
0.014603262 0.040744547 0.064135276 -0.54846609 0 -0.33897066
0.0081944913 0.076111533 0.056115378 -0.54846609 0 -0.33897066
0.0045159492 0.072618924 0.053479336 -0.54846609 0 -0.33897066
0.0023589607 0.069360644 0.051924426 -0.54846609 0 -0.33897066
0.0010022207 0.06622494 0.050938591 -0.54846609 0 -0.33897066
0.00028408566 0.063180089 0.050407022 -0.54846609 0 -0.33897066
1.0537648e-05 0.060194355 0.050191969 -0.54846609 0 -0.33897066
0.00021135717 0.057263527 0.050314512 -0.54846609 0 -0.33897066
0.00083570433 0.054374792 0.050738528 -0.54846609 0 -0.33897066
0.0018910597 0.051521905 0.051469281 -0.54846609 0 -0.33897066
0.0035259512 0.048710916 0.0526121 -0.54846609 0 -0.33897066
0.0058054803 0.045937784 0.054213114 -0.54846609 0 -0.33897066
0.009145177 0.043224238 0.056567039 -0.54846609 0 -0.33897066
0.014978486 0.04065657 0.060690567 -0.54846609 0 -0.33897066
0.0078495638 0.07584931 0.052209266 -0.54846609 0 -0.33897066
0.0043198229 0.072388031 0.049703948 -0.54846609 0 -0.33897066
0.0022476863 0.069150761 0.048224688 -0.54846609 0 -0.33897066
0.00094851555 0.066031508 0.047289964 -0.54846609 0 -0.33897066
0.00025429422 0.062998377 0.046781559 -0.54846609 0 -0.33897066
1.2764767e-06 0.060023542 0.046584297 -0.54846609 0 -0.33897066
0.00023738485 0.057104766 0.046731811 -0.54846609 0 -0.33897066
0.00087712379 0.054225612 0.047163956 -0.54846609 0 -0.33897066
0.0019643959 0.051383577 0.047911555 -0.54846609 0 -0.33897066
0.0036137411 0.048581436 0.049055073 -0.54846609 0 -0.33897066
0.0059310826 0.045818809 0.050668914 -0.54846609 0 -0.33897066
0.0093243886 0.043116417 0.053039752 -0.54846609 0 -0.33897066
0.015370258 0.040570345 0.057275504 -0.54846609 0 -0.33897066
0.0075071813 0.075589031 0.048331968 -0.54846609 0 -0.33897066
0.0041250396 0.072158717 0.045954421 -0.54846609 0 -0.33897066
0.0021371401 0.068942249 0.04454916 -0.54846609 0 -0.33897066
0.00089515065 0.065839313 0.043664448 -0.54846609 0 -0.33897066
0.00022468889 0.06281779 0.043178745 -0.54846609 0 -0.33897066
7.834311e-06 0.059855502 0.043009859 -0.54846609 0 -0.33897066
0.00026325535 0.056946963 0.04317075 -0.54846609 0 -0.33897066
0.00091829553 0.054077331 0.04361077 -0.54846609 0 -0.33897066
0.0020373019 0.051246062 0.044374701 -0.54846609 0 -0.33897066
0.003701021 0.048452709 0.045518726 -0.54846609 0 -0.33897066
0.0060559721 0.045700513 0.047144834 -0.54846609 0 -0.33897066
0.0095026158 0.043009184 0.049531821 -0.54846609 0 -0.33897066
0.015760172 0.040484525 0.053876638 -0.54846609 0 -0.33897066
1.110223e-16 0.077301867 0.039557014 -0.54846609 0 -0.33897066
1.110223e-16 0.074358933 0.039536718 -0.54846609 0 -0.33897066
0 0.071419001 0.039517224 -0.54846609 0 -0.33897066
1.110223e-16 0.068481959 0.039498519 -0.54846609 0 -0.33897066
1.110223e-16 0.065547675 0.039480612 -0.54846609 0 -0.33897066
1.110223e-16 0.062616035 0.039463494 -0.54846609 0 -0.33897066
0 0.059686918 0.039447166 -0.54846609 0 -0.33897066
0 0.056760203 0.039431628 -0.54846609 0 -0.33897066
1.110223e-16 0.053835768 0.039416872 -0.54846609 0 -0.33897066
1.110223e-16 0.050913498 0.039402906 -0.54846609 0 -0.33897066
0 0.047993273 0.039389718 -0.54846609 0 -0.33897066
1.110223e-16 0.045074973 0.039377317 -0.54846609 0 -0.33897066
0 0.042158481 0.039365698 -0.54846609 0 -0.33897066
0 0.039243676 0.039354853 -0.54846609 0 -0.33897066
0 0.036330443 0.039344791 -0.54846609 0 -0.33897066
1.110223e-16 0.033418667 0.039335508 -0.54846609 0 -0.33897066
0 0.030508226 0.039326999 -0.54846609 0 -0.33897066
0 0.027599005 0.039319269 -0.54846609 0 -0.33897066
1.110223e-16 0.024690889 0.039312314 -0.54846609 0 -0.33897066
1.110223e-16 0.021783758 0.03930613 -0.54846609 0 -0.33897066
1.110223e-16 0.018877499 0.039300725 -0.54846609 0 -0.33897066
0 0.015971992 0.039296091 -0.54846609 0 -0.33897066
0 0.013067124 0.039292227 -0.54846609 0 -0.33897066
1.110223e-16 0.010162778 0.039289139 -0.54846609 0 -0.33897066
0 0.0072588376 0.039286826 -0.54846609 0 -0.33897066
0 0.0043551866 0.03928528 -0.54846609 0 -0.33897066
0 0.0014517097 0.039284509 -0.54846609 0 -0.33897066
0 0.077085346 0.036011077 -0.54846609 0 -0.33897066
0 0.074150756 0.035992652 -0.54846609 0 -0.33897066
0 0.071219161 0.035974953 -0.54846609 0 -0.33897066
0 0.06829042 0.035957973 -0.54846609 0 -0.33897066
1.110223e-16 0.065364428 0.035941716 -0.54846609 0 -0.33897066
1.110223e-16 0.062441062 0.035926178 -0.54846609 0 -0.33897066
1.110223e-16 0.0595202 0.035911355 -0.54846609 0 -0.33897066
0 0.056601722 0.035897247 -0.54846609 0 -0.33897066
0 0.053685509 0.035883855 -0.54846609 0 -0.33897066
0 0.050771445 0.035871174 -0.54846609 0 -0.33897066
0 0.047859412 0.035859205 -0.54846609 0 -0.33897066
0 0.044949289 0.035847943 -0.54846609 0 -0.33897066
0 0.042040963 0.035837393 -0.54846609 0 -0.33897066
0 0.039134316 0.035827551 -0.54846609 0 -0.33897066
0 0.036229227 0.035818417 -0.54846609 0 -0.33897066
0 0.033325583 0.035809986 -0.54846609 0 -0.33897066
1.110223e-16 0.030423269 0.035802264 -0.54846609 0 -0.33897066
1.110223e-16 0.027522165 0.035795245 -0.54846609 0 -0.33897066
0 0.024622157 0.035788931 -0.54846609 0 -0.33897066
0 0.021723129 0.035783317 -0.54846609 0 -0.33897066
1.110223e-16 0.018824965 0.035778411 -0.54846609 0 -0.33897066
1.110223e-16 0.015927549 0.035774201 -0.54846609 0 -0.33897066
1.110223e-16 0.013030768 0.035770696 -0.54846609 0 -0.33897066
0 0.010134505 0.035767894 -0.54846609 0 -0.33897066
0 0.0072386446 0.035765789 -0.54846609 0 -0.33897066
0 0.0043430715 0.035764389 -0.54846609 0 -0.33897066
1.110223e-16 0.0014476713 0.035763688 -0.54846609 0 -0.33897066
0 0.079799488 0.032503579 -0.54846609 0 -0.33897066
0 0.076870121 0.032486353 -0.54846609 0 -0.33897066
0 0.073943831 0.032469779 -0.54846609 0 -0.33897066
1.110223e-16 0.071020514 0.032453857 -0.54846609 0 -0.33897066
0 0.068100035 0.032438584 -0.54846609 0 -0.33897066
0 0.065182284 0.032423958 -0.54846609 0 -0.33897066
0 0.062267136 0.032409977 -0.54846609 0 -0.33897066
0 0.059354477 0.032396644 -0.54846609 0 -0.33897066
1.110223e-16 0.056444187 0.032383952 -0.54846609 0 -0.33897066
0 0.053536147 0.032371905 -0.54846609 0 -0.33897066
1.110223e-16 0.050630238 0.032360494 -0.54846609 0 -0.33897066
0 0.047726348 0.032349728 -0.54846609 0 -0.33897066
1.110223e-16 0.044824358 0.032339599 -0.54846609 0 -0.33897066
1.110223e-16 0.041924149 0.032330107 -0.54846609 0 -0.33897066
0 0.039025605 0.032321252 -0.54846609 0 -0.33897066
1.110223e-16 0.036128614 0.032313034 -0.54846609 0 -0.33897066
1.110223e-16 0.033233054 0.032305453 -0.54846609 0 -0.33897066
0 0.030338816 0.032298502 -0.54846609 0 -0.33897066
0 0.02744578 0.032292187 -0.54846609 0 -0.33897066
1.110223e-16 0.024553834 0.032286506 -0.54846609 0 -0.33897066
1.110223e-16 0.021662859 0.032281458 -0.54846609 0 -0.33897066
1.110223e-16 0.018772744 0.032277044 -0.54846609 0 -0.33897066
1.110223e-16 0.015883371 0.032273259 -0.54846609 0 -0.33897066
0 0.012994628 0.032270104 -0.54846609 0 -0.33897066
1.110223e-16 0.0101064 0.032267582 -0.54846609 0 -0.33897066
0 0.0072185709 0.032265689 -0.54846609 0 -0.33897066
1.110223e-16 0.0043310286 0.03226443 -0.54846609 0 -0.33897066
0 0.0014436571 0.032263801 -0.54846609 0 -0.33897066
0 0.079577267 0.02899785 -0.54846609 0 -0.33897066
0 0.07665617 0.028982524 -0.54846609 0 -0.33897066
1.110223e-16 0.073738135 0.028967779 -0.54846609 0 -0.33897066
0 0.070823044 0.028953614 -0.54846609 0 -0.33897066
1.110223e-16 0.067910776 0.028940026 -0.54846609 0 -0.33897066
1.110223e-16 0.065001212 0.028927013 -0.54846609 0 -0.33897066
1.110223e-16 0.062094238 0.028914575 -0.54846609 0 -0.33897066
0 0.059189733 0.028902711 -0.54846609 0 -0.33897066
0 0.056287579 0.02889142 -0.54846609 0 -0.33897066
0 0.053387664 0.0288807 -0.54846609 0 -0.33897066
0 0.050489865 0.028870551 -0.54846609 0 -0.33897066
0 0.04759407 0.028860971 -0.54846609 0 -0.33897066
0 0.044700161 0.02885196 -0.54846609 0 -0.33897066
1.110223e-16 0.04180802 0.028843515 -0.54846609 0 -0.33897066
0 0.038917538 0.028835637 -0.54846609 0 -0.33897066
0 0.036028594 0.028828327 -0.54846609 0 -0.33897066
0 0.033141073 0.02882158 -0.54846609 0 -0.33897066
0 0.030254863 0.028815398 -0.54846609 0 -0.33897066
0 0.027369848 0.02880978 -0.54846609 0 -0.33897066
0 0.024485912 0.028804725 -0.54846609 0 -0.33897066
0 0.021602945 0.028800234 -0.54846609 0 -0.33897066
0 0.01872083 0.028796304 -0.54846609 0 -0.33897066
0 0.015839454 0.028792936 -0.54846609 0 -0.33897066
1.110223e-16 0.012958701 0.028790131 -0.54846609 0 -0.33897066
0 0.01007846 0.028787887 -0.54846609 0 -0.33897066
0 0.0071986159 0.028786205 -0.54846609 0 -0.33897066
0 0.0043190559 0.028785083 -0.54846609 0 -0.33897066
1.110223e-16 0.0014396665 0.028784523 -0.54846609 0 -0.33897066
1.110223e-16 0.079356357 0.025512716 -0.54846609 0 -0.33897066
1.110223e-16 0.076443478 0.025499269 -0.54846609 0 -0.33897066
1.110223e-16 0.073533639 0.025486333 -0.54846609 0 -0.33897066
0 0.070626728 0.025473904 -0.54846609 0 -0.33897066
0 0.067722619 0.025461981 -0.54846609 0 -0.33897066
0 0.064821199 0.025450565 -0.54846609 0 -0.33897066
0 0.061922349 0.025439652 -0.54846609 0 -0.33897066
0 0.059025951 0.025429243 -0.54846609 0 -0.33897066
1.110223e-16 0.056131892 0.025419336 -0.54846609 0 -0.33897066
0 0.05324005 0.025409931 -0.54846609 0 -0.33897066
0 0.050350316 0.025401026 -0.54846609 0 -0.33897066
0 0.047462568 0.02539262 -0.54846609 0 -0.33897066
1.110223e-16 0.044576693 0.025384713 -0.54846609 0 -0.33897066
0 0.041692574 0.025377305 -0.54846609 0 -0.33897066
1.110223e-16 0.0388101 0.025370393 -0.54846609 0 -0.33897066
1.110223e-16 0.035929158 0.025363978 -0.54846609 0 -0.33897066
0 0.033049628 0.025358059 -0.54846609 0 -0.33897066
0 0.0301714 0.025352634 -0.54846609 0 -0.33897066
1.110223e-16 0.027294358 0.025347706 -0.54846609 0 -0.33897066
1.110223e-16 0.024418389 0.025343271 -0.54846609 0 -0.33897066
0 0.02154338 0.02533933 -0.54846609 0 -0.33897066
1.110223e-16 0.01866922 0.025335882 -0.54846609 0 -0.33897066
1.110223e-16 0.015795792 0.025332928 -0.54846609 0 -0.33897066
0 0.012922984 0.025330465 -0.54846609 0 -0.33897066
1.110223e-16 0.010050683 0.025328496 -0.54846609 0 -0.33897066
1.110223e-16 0.0071787774 0.025327021 -0.54846609 0 -0.33897066
1.110223e-16 0.0043071536 0.025326036 -0.54846609 0 -0.33897066
1.110223e-16 0.0014356992 0.025325544 -0.54846609 0 -0.33897066
0 0.079136729 0.022047866 -0.54846609 0 -0.33897066
0 0.076232024 0.022036277 -0.54846609 0 -0.33897066
0 0.073330335 0.022025129 -0.54846609 0 -0.33897066
1.110223e-16 0.070431553 0.022014417 -0.54846609 0 -0.33897066
0 0.067535557 0.022004142 -0.54846609 0 -0.33897066
0 0.064642236 0.021994304 -0.54846609 0 -0.33897066
1.110223e-16 0.061751463 0.021984899 -0.54846609 0 -0.33897066
0 0.058863122 0.021975929 -0.54846609 0 -0.33897066
0 0.055977106 0.021967391 -0.54846609 0 -0.33897066
0 0.053093296 0.021959284 -0.54846609 0 -0.33897066
0 0.050211571 0.02195161 -0.54846609 0 -0.33897066
0 0.047331825 0.021944366 -0.54846609 0 -0.33897066
0 0.044453938 0.021937551 -0.54846609 0 -0.33897066
1.110223e-16 0.041577797 0.021931166 -0.54846609 0 -0.33897066
0 0.038703289 0.021925211 -0.54846609 0 -0.33897066
0 0.035830297 0.021919681 -0.54846609 0 -0.33897066
0 0.032958712 0.021914579 -0.54846609 0 -0.33897066
0 0.030088419 0.021909906 -0.54846609 0 -0.33897066
0 0.027219305 0.021905657 -0.54846609 0 -0.33897066
0 0.024351256 0.021901835 -0.54846609 0 -0.33897066
0 0.021484161 0.021898439 -0.54846609 0 -0.33897066
1.110223e-16 0.018617908 0.021895466 -0.54846609 0 -0.33897066
0 0.015752381 0.02189292 -0.54846609 0 -0.33897066
0 0.012887472 0.0218908 -0.54846609 0 -0.33897066
0 0.010023067 0.021889102 -0.54846609 0 -0.33897066
0 0.0071590533 0.02188783 -0.54846609 0 -0.33897066
0 0.0042953203 0.021886982 -0.54846609 0 -0.33897066
0 0.0014317547 0.021886557 -0.54846609 0 -0.33897066
1.110223e-16 0.07891836 0.018602991 -0.54846609 0 -0.33897066
0 0.076021783 0.018593241 -0.54846609 0 -0.33897066
1.110223e-16 0.073128201 0.01858386 -0.54846609 0 -0.33897066
0 0.07023751 0.018574847 -0.54846609 0 -0.33897066
1.110223e-16 0.067349575 0.018566202 -0.54846609 0 -0.33897066
0 0.064464301 0.018557923 -0.54846609 0 -0.33897066
0 0.061581556 0.018550009 -0.54846609 0 -0.33897066
0 0.058701232 0.018542461 -0.54846609 0 -0.33897066
1.110223e-16 0.055823211 0.018535277 -0.54846609 0 -0.33897066
0 0.05294738 0.018528456 -0.54846609 0 -0.33897066
0 0.050073627 0.018521998 -0.54846609 0 -0.33897066
0 0.047201831 0.018515904 -0.54846609 0 -0.33897066
1.110223e-16 0.044331886 0.01851017 -0.54846609 0 -0.33897066
0 0.041463677 0.018504797 -0.54846609 0 -0.33897066
1.110223e-16 0.038597085 0.018499784 -0.54846609 0 -0.33897066
1.110223e-16 0.035732005 0.018495133 -0.54846609 0 -0.33897066
0 0.032868318 0.01849084 -0.54846609 0 -0.33897066
1.110223e-16 0.030005913 0.018486906 -0.54846609 0 -0.33897066
1.110223e-16 0.02714468 0.018483331 -0.54846609 0 -0.33897066
0 0.024284506 0.018480115 -0.54846609 0 -0.33897066
0 0.021425281 0.018477257 -0.54846609 0 -0.33897066
1.110223e-16 0.018566888 0.018474758 -0.54846609 0 -0.33897066
0 0.01570922 0.018472616 -0.54846609 0 -0.33897066
1.110223e-16 0.012852164 0.018470829 -0.54846609 0 -0.33897066
0 0.0099956086 0.018469403 -0.54846609 0 -0.33897066
0 0.0071394425 0.018468332 -0.54846609 0 -0.33897066
0 0.0042835544 0.018467616 -0.54846609 0 -0.33897066
1.110223e-16 0.0014278329 0.018467261 -0.54846609 0 -0.33897066
0 0.07870125 0.015177792 -0.54846609 0 -0.33897066
1.110223e-16 0.075812742 0.015169859 -0.54846609 0 -0.33897066
1.110223e-16 0.072927222 0.015162226 -0.54846609 0 -0.33897066
0 0.070044562 0.015154893 -0.54846609 0 -0.33897066
0 0.067164652 0.015147858 -0.54846609 0 -0.33897066
1.110223e-16 0.064287379 0.015141122 -0.54846609 0 -0.33897066
1.110223e-16 0.061412618 0.015134684 -0.54846609 0 -0.33897066
0 0.058540259 0.015128542 -0.54846609 0 -0.33897066
1.110223e-16 0.055670191 0.015122697 -0.54846609 0 -0.33897066
1.110223e-16 0.052802298 0.015117147 -0.54846609 0 -0.33897066
1.110223e-16 0.049936466 0.015111892 -0.54846609 0 -0.33897066
1.110223e-16 0.047072578 0.015106933 -0.54846609 0 -0.33897066
1.110223e-16 0.044210531 0.015102267 -0.54846609 0 -0.33897066
1.110223e-16 0.041350204 0.015097896 -0.54846609 0 -0.33897066
0 0.038491488 0.015093817 -0.54846609 0 -0.33897066
0 0.035634268 0.015090032 -0.54846609 0 -0.33897066
0 0.032778434 0.01508654 -0.54846609 0 -0.33897066
1.110223e-16 0.029923877 0.015083339 -0.54846609 0 -0.33897066
1.110223e-16 0.027070481 0.015080431 -0.54846609 0 -0.33897066
0 0.024218136 0.015077814 -0.54846609 0 -0.33897066
1.110223e-16 0.021366734 0.015075488 -0.54846609 0 -0.33897066
0 0.018516159 0.015073454 -0.54846609 0 -0.33897066
0 0.015666304 0.015071711 -0.54846609 0 -0.33897066
0 0.012817057 0.015070259 -0.54846609 0 -0.33897066
1.110223e-16 0.0099683059 0.015069096 -0.54846609 0 -0.33897066
0 0.0071199425 0.015068226 -0.54846609 0 -0.33897066
0 0.0042718551 0.015067644 -0.54846609 0 -0.33897066
1.110223e-16 0.0014239333 0.015067354 -0.54846609 0 -0.33897066
0 0.078485362 0.011771969 -0.54846609 0 -0.33897066
1.110223e-16 0.075604893 0.011765833 -0.54846609 0 -0.33897066
0 0.072727382 0.011759928 -0.54846609 0 -0.33897066
1.110223e-16 0.06985271 0.011754257 -0.54846609 0 -0.33897066
1.110223e-16 0.066980779 0.011748816 -0.54846609 0 -0.33897066
1.110223e-16 0.064111456 0.011743605 -0.54846609 0 -0.33897066
1.110223e-16 0.061244633 0.011738625 -0.54846609 0 -0.33897066
1.110223e-16 0.058380194 0.011733875 -0.54846609 0 -0.33897066
0 0.055518035 0.011729354 -0.54846609 0 -0.33897066
1.110223e-16 0.052658033 0.011725061 -0.54846609 0 -0.33897066
0 0.049800076 0.011720997 -0.54846609 0 -0.33897066
0 0.046944056 0.01171716 -0.54846609 0 -0.33897066
0 0.044089857 0.011713552 -0.54846609 0 -0.33897066
0 0.041237369 0.011710171 -0.54846609 0 -0.33897066
0 0.038386483 0.011707016 -0.54846609 0 -0.33897066
0 0.035537083 0.011704088 -0.54846609 0 -0.33897066
1.110223e-16 0.032689057 0.011701386 -0.54846609 0 -0.33897066
1.110223e-16 0.0298423 0.011698911 -0.54846609 0 -0.33897066
1.110223e-16 0.026996698 0.011696661 -0.54846609 0 -0.33897066
0 0.024152139 0.011694637 -0.54846609 0 -0.33897066
1.110223e-16 0.021308515 0.011692838 -0.54846609 0 -0.33897066
1.110223e-16 0.018465715 0.011691265 -0.54846609 0 -0.33897066
1.110223e-16 0.015623629 0.011689916 -0.54846609 0 -0.33897066
1.110223e-16 0.012782146 0.011688792 -0.54846609 0 -0.33897066
0 0.009941157 0.011687894 -0.54846609 0 -0.33897066
1.110223e-16 0.0071005523 0.01168722 -0.54846609 0 -0.33897066
0 0.0042602215 0.01168677 -0.54846609 0 -0.33897066
0 0.0014200556 0.011686546 -0.54846609 0 -0.33897066
1.110223e-16 0.078270681 0.0083852308 -0.54846609 0 -0.33897066
1.110223e-16 0.075398199 0.0083808713 -0.54846609 0 -0.33897066
0 0.072528653 0.0083766775 -0.54846609 0 -0.33897066
1.110223e-16 0.069661938 0.0083726486 -0.54846609 0 -0.33897066
1.110223e-16 0.066797927 0.0083687836 -0.54846609 0 -0.33897066
1.110223e-16 0.063936517 0.0083650826 -0.54846609 0 -0.33897066
0 0.061077584 0.0083615445 -0.54846609 0 -0.33897066
1.110223e-16 0.058221027 0.0083581693 -0.54846609 0 -0.33897066
1.110223e-16 0.055366725 0.0083549581 -0.54846609 0 -0.33897066
1.110223e-16 0.052514572 0.008351909 -0.54846609 0 -0.33897066
0 0.049664449 0.0083490219 -0.54846609 0 -0.33897066
1.110223e-16 0.046816248 0.0083462968 -0.54846609 0 -0.33897066
1.110223e-16 0.043969858 0.0083437329 -0.54846609 0 -0.33897066
1.110223e-16 0.041125167 0.008341331 -0.54846609 0 -0.33897066
1.110223e-16 0.038282063 0.0083390903 -0.54846609 0 -0.33897066
0 0.035440437 0.0083370097 -0.54846609 0 -0.33897066
1.110223e-16 0.032600179 0.0083350912 -0.54846609 0 -0.33897066
0 0.02976118 0.0083333319 -0.54846609 0 -0.33897066
0 0.026923327 0.0083317338 -0.54846609 0 -0.33897066
1.110223e-16 0.024086511 0.0083302958 -0.54846609 0 -0.33897066
1.110223e-16 0.021250622 0.008329018 -0.54846609 0 -0.33897066
1.110223e-16 0.018415552 0.0083279004 -0.54846609 0 -0.33897066
0 0.015581192 0.0083269421 -0.54846609 0 -0.33897066
0 0.01274743 0.008326144 -0.54846609 0 -0.33897066
0 0.0099141588 0.008325506 -0.54846609 0 -0.33897066
1.110223e-16 0.0070812698 0.0083250273 -0.54846609 0 -0.33897066
1.110223e-16 0.0042486531 0.0083247079 -0.54846609 0 -0.33897066
0 0.0014161995 0.0083245486 -0.54846609 0 -0.33897066
1.110223e-16 0.0780572 0.005017288 -0.54846609 0 -0.33897066
0 0.075192653 0.0050146873 -0.54846609 0 -0.33897066
1.110223e-16 0.072331034 0.0050121848 -0.54846609 0 -0.33897066
0 0.069472216 0.0050097802 -0.54846609 0 -0.33897066
0 0.066616088 0.0050074738 -0.54846609 0 -0.33897066
1.110223e-16 0.063762546 0.0050052656 -0.54846609 0 -0.33897066
0 0.060911462 0.0050031543 -0.54846609 0 -0.33897066
0 0.058062736 0.0050011408 -0.54846609 0 -0.33897066
1.110223e-16 0.055216253 0.0049992241 -0.54846609 0 -0.33897066
0 0.052371901 0.0049974043 -0.54846609 0 -0.33897066
0 0.049529571 0.0049956818 -0.54846609 0 -0.33897066
0 0.046689145 0.0049940553 -0.54846609 0 -0.33897066
0 0.043850519 0.0049925256 -0.54846609 0 -0.33897066
0 0.04101358 0.0049910923 -0.54846609 0 -0.33897066
0 0.03817822 0.0049897549 -0.54846609 0 -0.33897066
0 0.035344329 0.0049885139 -0.54846609 0 -0.33897066
0 0.032511793 0.0049873688 -0.54846609 0 -0.33897066
1.110223e-16 0.029680505 0.0049863192 -0.54846609 0 -0.33897066
0 0.02685036 0.0049853656 -0.54846609 0 -0.33897066
0 0.024021244 0.0049845073 -0.54846609 0 -0.33897066
1.110223e-16 0.021193048 0.004983745 -0.54846609 0 -0.33897066
0 0.018365666 0.0049830778 -0.54846609 0 -0.33897066
1.110223e-16 0.015538988 0.0049825064 -0.54846609 0 -0.33897066
1.110223e-16 0.012712905 0.00498203 -0.54846609 0 -0.33897066
0 0.0098873097 0.0049816491 -0.54846609 0 -0.33897066
1.110223e-16 0.0070620938 0.0049813632 -0.54846609 0 -0.33897066
0 0.004237148 0.0049811727 -0.54846609 0 -0.33897066
1.110223e-16 0.0014123647 0.0049810777 -0.54846609 0 -0.33897066
0 0.077844888 0.0016678593 -0.54846609 0 -0.33897066
0 0.074988239 0.001666997 -0.54846609 0 -0.33897066
0 0.072134495 0.0016661674 -0.54846609 0 -0.33897066
0 0.06928353 0.0016653703 -0.54846609 0 -0.33897066
0 0.066435248 0.0016646057 -0.54846609 0 -0.33897066
1.110223e-16 0.063589528 0.0016638734 -0.54846609 0 -0.33897066
1.110223e-16 0.060746253 0.0016631737 -0.54846609 0 -0.33897066
0 0.057905316 0.001662506 -0.54846609 0 -0.33897066
0 0.055066608 0.0016618706 -0.54846609 0 -0.33897066
1.110223e-16 0.052230015 0.0016612674 -0.54846609 0 -0.33897066
0 0.049395431 0.0016606962 -0.54846609 0 -0.33897066
1.110223e-16 0.046562739 0.0016601571 -0.54846609 0 -0.33897066
0 0.043731835 0.00165965 -0.54846609 0 -0.33897066
0 0.040902607 0.0016591748 -0.54846609 0 -0.33897066
0 0.038074944 0.0016587314 -0.54846609 0 -0.33897066
1.110223e-16 0.035248742 0.00165832 -0.54846609 0 -0.33897066
1.110223e-16 0.032423887 0.0016579402 -0.54846609 0 -0.33897066
0 0.029600274 0.0016575924 -0.54846609 0 -0.33897066
0 0.026777791 0.0016572762 -0.54846609 0 -0.33897066
1.110223e-16 0.023956332 0.0016569917 -0.54846609 0 -0.33897066
0 0.021135788 0.0016567389 -0.54846609 0 -0.33897066
0 0.018316051 0.0016565177 -0.54846609 0 -0.33897066
1.110223e-16 0.015497014 0.0016563282 -0.54846609 0 -0.33897066
1.110223e-16 0.012678569 0.0016561704 -0.54846609 0 -0.33897066
0 0.0098606078 0.001656044 -0.54846609 0 -0.33897066
1.110223e-16 0.0070430222 0.0016559493 -0.54846609 0 -0.33897066
0 0.0042257058 0.0016558862 -0.54846609 0 -0.33897066
0 0.0014085508 0.0016558546 -0.54846609 0 -0.33897066
0.0027046045 0.078016557 0 -0.54846609 0 -0.33897066
0.0027032031 0.075153522 0 -0.54846609 0 -0.33897066
0.0027018548 0.072293408 0 -0.54846609 0 -0.33897066
0.0027005593 0.069436096 0 -0.54846609 0 -0.33897066
0.0026993167 0.066581473 0 -0.54846609 0 -0.33897066
0.0026981269 0.06372942 0 -0.54846609 0 -0.33897066
0.0026969896 0.060879838 0 -0.54846609 0 -0.33897066
0.0026959046 0.058032606 0 -0.54846609 0 -0.33897066
0.002694872 0.055187609 0 -0.54846609 0 -0.33897066
0.0026938915 0.052344743 0 -0.54846609 0 -0.33897066
0.0026929635 0.049503893 0 -0.54846609 0 -0.33897066
0.0026920873 0.04666495 0 -0.54846609 0 -0.33897066
0.0026912631 0.043827802 0 -0.54846609 0 -0.33897066
0.0026904908 0.040992338 0 -0.54846609 0 -0.33897066
0.0026897702 0.03815845 0 -0.54846609 0 -0.33897066
0.0026891015 0.03532603 0 -0.54846609 0 -0.33897066
0.0026884845 0.032494966 0 -0.54846609 0 -0.33897066
0.0026879192 0.029665148 0 -0.54846609 0 -0.33897066
0.0026874053 0.026836468 0 -0.54846609 0 -0.33897066
0.0026869429 0.024008818 0 -0.54846609 0 -0.33897066
0.0026865322 0.021182088 0 -0.54846609 0 -0.33897066
0.0026861727 0.018356169 0 -0.54846609 0 -0.33897066
0.0026858647 0.015530953 0 -0.54846609 0 -0.33897066
0.0026856081 0.012706333 0 -0.54846609 0 -0.33897066
0.002685403 0.0098821986 0 -0.54846609 0 -0.33897066
0.0026852489 0.007058443 0 -0.54846609 0 -0.33897066
0.0026851464 0.004234958 0 -0.54846609 0 -0.33897066
0.002685095 0.0014116346 0 -0.54846609 0 -0.33897066
0.0081722392 0.07857734 0 -0.54846609 0 -0.33897066
0.0081679747 0.075693443 0 -0.54846609 0 -0.33897066
0.0081638712 0.07281252 0 -0.54846609 0 -0.33897066
0.008159929 0.06993445 0 -0.54846609 0 -0.33897066
0.0081561469 0.067059115 0 -0.54846609 0 -0.33897066
0.0081525259 0.064186402 0 -0.54846609 0 -0.33897066
0.0081490641 0.0613162 0 -0.54846609 0 -0.33897066
0.0081457626 0.058448389 0 -0.54846609 0 -0.33897066
0.0081426203 0.055582859 0 -0.54846609 0 -0.33897066
0.0081396373 0.052719492 0 -0.54846609 0 -0.33897066
0.0081368126 0.049858183 0 -0.54846609 0 -0.33897066
0.0081341462 0.04699881 0 -0.54846609 0 -0.33897066
0.0081316382 0.04414127 0 -0.54846609 0 -0.33897066
0.0081292875 0.04128544 0 -0.54846609 0 -0.33897066
0.0081270952 0.03843122 0 -0.54846609 0 -0.33897066
0.0081250602 0.035578486 0 -0.54846609 0 -0.33897066
0.0081231827 0.032727137 0 -0.54846609 0 -0.33897066
0.0081214625 0.029877055 0 -0.54846609 0 -0.33897066
0.0081198988 0.027028132 0 -0.54846609 0 -0.33897066
0.0081184916 0.024180258 0 -0.54846609 0 -0.33897066
0.0081172418 0.021333318 0 -0.54846609 0 -0.33897066
0.0081161475 0.018487206 0 -0.54846609 0 -0.33897066
0.0081152106 0.01564181 0 -0.54846609 0 -0.33897066
0.0081144301 0.012797019 0 -0.54846609 0 -0.33897066
0.0081138052 0.009952724 0 -0.54846609 0 -0.33897066
0.0081133367 0.0071088132 0 -0.54846609 0 -0.33897066
0.0081130248 0.004265178 0 -0.54846609 0 -0.33897066
0.0081128683 0.0014217077 0 -0.54846609 0 -0.33897066
0.013719364 0.079146266 0 -0.54846609 0 -0.33897066
0.013712153 0.07624121 0 -0.54846609 0 -0.33897066
0.013705214 0.073339172 0 -0.54846609 0 -0.33897066
0.013698548 0.070440032 0 -0.54846609 0 -0.33897066
0.013692154 0.067543685 0 -0.54846609 0 -0.33897066
0.013686031 0.064650007 0 -0.54846609 0 -0.33897066
0.013680179 0.061758887 0 -0.54846609 0 -0.33897066
0.013674595 0.058870196 0 -0.54846609 0 -0.33897066
0.013669282 0.05598383 0 -0.54846609 0 -0.33897066
0.013664238 0.05309967 0 -0.54846609 0 -0.33897066
0.013659461 0.050217599 0 -0.54846609 0 -0.33897066
0.013654954 0.047337506 0 -0.54846609 0 -0.33897066
0.013650713 0.044459268 0 -0.54846609 0 -0.33897066
0.01364674 0.041582782 0 -0.54846609 0 -0.33897066
0.013643032 0.038707927 0 -0.54846609 0 -0.33897066
0.013639592 0.035834592 0 -0.54846609 0 -0.33897066
0.013636417 0.032962661 0 -0.54846609 0 -0.33897066
0.013633507 0.030092023 0 -0.54846609 0 -0.33897066
0.013630864 0.027222564 0 -0.54846609 0 -0.33897066
0.013628486 0.024354173 0 -0.54846609 0 -0.33897066
0.013626372 0.021486733 0 -0.54846609 0 -0.33897066
0.013624523 0.018620135 0 -0.54846609 0 -0.33897066
0.013622938 0.015754268 0 -0.54846609 0 -0.33897066
0.013621618 0.012889015 0 -0.54846609 0 -0.33897066
0.013620562 0.010024266 0 -0.54846609 0 -0.33897066
0.013619769 0.0071599102 0 -0.54846609 0 -0.33897066
0.013619241 0.0042958343 0 -0.54846609 0 -0.33897066
0.013618978 0.001431926 0 -0.54846609 0 -0.33897066
0.019347942 0.079723552 0 -0.54846609 0 -0.33897066
0.019337697 0.076797009 0 -0.54846609 0 -0.33897066
0.019327842 0.073873542 0 -0.54846609 0 -0.33897066
0.019318372 0.070953034 0 -0.54846609 0 -0.33897066
0.019309288 0.068035364 0 -0.54846609 0 -0.33897066
0.019300591 0.065120406 0 -0.54846609 0 -0.33897066
0.019292276 0.062208053 0 -0.54846609 0 -0.33897066
0.019284347 0.05929818 0 -0.54846609 0 -0.33897066
0.0192768 0.056390673 0 -0.54846609 0 -0.33897066
0.019269634 0.053485408 0 -0.54846609 0 -0.33897066
0.01926285 0.050582271 0 -0.54846609 0 -0.33897066
0.019256447 0.047681149 0 -0.54846609 0 -0.33897066
0.019250423 0.04478192 0 -0.54846609 0 -0.33897066
0.019244779 0.041884467 0 -0.54846609 0 -0.33897066
0.019239513 0.03898868 0 -0.54846609 0 -0.33897066
0.019234626 0.036094435 0 -0.54846609 0 -0.33897066
0.019230116 0.033201624 0 -0.54846609 0 -0.33897066
0.019225983 0.03031013 0 -0.54846609 0 -0.33897066
0.019222228 0.027419833 0 -0.54846609 0 -0.33897066
0.019218849 0.024530625 0 -0.54846609 0 -0.33897066
0.019215848 0.021642387 0 -0.54846609 0 -0.33897066
0.01921322 0.018755004 0 -0.54846609 0 -0.33897066
0.01921097 0.015868364 0 -0.54846609 0 -0.33897066
0.019209094 0.012982352 0 -0.54846609 0 -0.33897066
0.019207595 0.010096853 0 -0.54846609 0 -0.33897066
0.01920647 0.0072117522 0 -0.54846609 0 -0.33897066
0.019205719 0.0043269373 0 -0.54846609 0 -0.33897066
0.019205345 0.0014422934 0 -0.54846609 0 -0.33897066
0.025046632 0.077361055 0 -0.54846609 0 -0.33897066
0.025033772 0.074415833 0 -0.54846609 0 -0.33897066
0.025021417 0.071473628 0 -0.54846609 0 -0.33897066
0.025009567 0.068534315 0 -0.54846609 0 -0.33897066
0.024998218 0.065597765 0 -0.54846609 0 -0.33897066
0.024987372 0.062663868 0 -0.54846609 0 -0.33897066
0.024977025 0.059732489 0 -0.54846609 0 -0.33897066
0.024967179 0.056803524 0 -0.54846609 0 -0.33897066
0.02495783 0.053876843 0 -0.54846609 0 -0.33897066
0.024948979 0.05095233 0 -0.54846609 0 -0.33897066
0.024940625 0.048029862 0 -0.54846609 0 -0.33897066
0.024932764 0.045109328 0 -0.54846609 0 -0.33897066
0.024925401 0.0421906 0 -0.54846609 0 -0.33897066
0.024918532 0.039273567 0 -0.54846609 0 -0.33897066
0.024912156 0.036358111 0 -0.54846609 0 -0.33897066
0.024906272 0.03344411 0 -0.54846609 0 -0.33897066
0.024900882 0.030531449 0 -0.54846609 0 -0.33897066
0.024895983 0.02762001 0 -0.54846609 0 -0.33897066
0.024891574 0.024709675 0 -0.54846609 0 -0.33897066
0.024887657 0.021800332 0 -0.54846609 0 -0.33897066
0.024884231 0.018891858 0 -0.54846609 0 -0.33897066
0.024881294 0.01598414 0 -0.54846609 0 -0.33897066
0.024878848 0.013077063 0 -0.54846609 0 -0.33897066
0.024876891 0.010170507 0 -0.54846609 0 -0.33897066
0.024875423 0.0072643575 0 -0.54846609 0 -0.33897066
0.024874445 0.0043584984 0 -0.54846609 0 -0.33897066
0.024873955 0.0014528135 0 -0.54846609 0 -0.33897066
0.030841047 0.077933542 0 -0.54846609 0 -0.33897066
0.030825095 0.074966244 0 -0.54846609 0 -0.33897066
0.030809769 0.072002009 0 -0.54846609 0 -0.33897066
0.030795069 0.069040723 0 -0.54846609 0 -0.33897066
0.030780993 0.066082254 0 -0.54846609 0 -0.33897066
0.030767538 0.063126482 0 -0.54846609 0 -0.33897066
0.030754704 0.060173284 0 -0.54846609 0 -0.33897066
0.030742491 0.057222538 0 -0.54846609 0 -0.33897066
0.030730894 0.054274119 0 -0.54846609 0 -0.33897066
0.030719915 0.051327907 0 -0.54846609 0 -0.33897066
0.030709554 0.04838378 0 -0.54846609 0 -0.33897066
0.030699804 0.045441616 0 -0.54846609 0 -0.33897066
0.03069067 0.042501297 0 -0.54846609 0 -0.33897066
0.03068215 0.039562702 0 -0.54846609 0 -0.33897066
0.030674241 0.036625713 0 -0.54846609 0 -0.33897066
0.030666944 0.033690207 0 -0.54846609 0 -0.33897066
0.030660257 0.030756064 0 -0.54846609 0 -0.33897066
0.030654181 0.027823165 0 -0.54846609 0 -0.33897066
0.030648714 0.024891393 0 -0.54846609 0 -0.33897066
0.030643854 0.021960627 0 -0.54846609 0 -0.33897066
0.030639606 0.01903075 0 -0.54846609 0 -0.33897066
0.030635962 0.01610164 0 -0.54846609 0 -0.33897066
0.030632928 0.013173182 0 -0.54846609 0 -0.33897066
0.030630501 0.010245257 0 -0.54846609 0 -0.33897066
0.030628681 0.0073177451 0 -0.54846609 0 -0.33897066
0.030627467 0.0043905289 0 -0.54846609 0 -0.33897066
0.030626861 0.00146349 0 -0.54846609 0 -0.33897066
0.0367231 0.078514688 0 -0.54846609 0 -0.33897066
0.036703967 0.075524971 0 -0.54846609 0 -0.33897066
0.036685582 0.072538376 0 -0.54846609 0 -0.33897066
0.036667947 0.069554783 0 -0.54846609 0 -0.33897066
0.03665106 0.066574059 0 -0.54846609 0 -0.33897066
0.036634922 0.063596085 0 -0.54846609 0 -0.33897066
0.036619529 0.060620729 0 -0.54846609 0 -0.33897066
0.036604878 0.057647869 0 -0.54846609 0 -0.33897066
0.036590967 0.054677382 0 -0.54846609 0 -0.33897066
0.036577798 0.051709142 0 -0.54846609 0 -0.33897066
0.036565367 0.048743024 0 -0.54846609 0 -0.33897066
0.036553673 0.045778908 0 -0.54846609 0 -0.33897066
0.036542717 0.042816672 0 -0.54846609 0 -0.33897066
0.036532495 0.039856188 0 -0.54846609 0 -0.33897066
0.036523011 0.036897339 0 -0.54846609 0 -0.33897066
0.036514256 0.033940002 0 -0.54846609 0 -0.33897066
0.036506236 0.030984055 0 -0.54846609 0 -0.33897066
0.036498945 0.028029375 0 -0.54846609 0 -0.33897066
0.036492389 0.02507584 0 -0.54846609 0 -0.33897066
0.036486562 0.022123331 0 -0.54846609 0 -0.33897066
0.036481462 0.019171726 0 -0.54846609 0 -0.33897066
0.036477096 0.016220905 0 -0.54846609 0 -0.33897066
0.036473457 0.013270746 0 -0.54846609 0 -0.33897066
0.036470544 0.01032113 0 -0.54846609 0 -0.33897066
0.036468361 0.0073719346 0 -0.54846609 0 -0.33897066
0.036466904 0.0044230404 0 -0.54846609 0 -0.33897066
0.036466178 0.0014743267 0 -0.54846609 0 -0.33897066
