# .PCD v0.7 - Point Cloud Data file format
VERSION 0.7
FIELDS x y z vp_x vp_y vp_z
SIZE 4 4 4 4 4 4
TYPE F F F F F F
COUNT 1 1 1 1 1 1
WIDTH 686
HEIGHT 1
VIEWPOINT 0 0 0 1 0 0 0
POINTS 686
DATA ascii
0.037144251 0.049702391 0.069392987 0.54846609 0 -0.33897066
0.03847697 0.05241904 0.06836281 0.54846609 0 -0.33897066
0.039384842 0.055169106 0.067673735 0.54846609 0 -0.33897066
0.039889291 0.05795737 0.067308724 0.54846609 0 -0.33897066
0.039956927 0.060794711 0.067294553 0.54846609 0 -0.33897066
0.039633494 0.063682862 0.067594767 0.54846609 0 -0.33897066
0.038853031 0.066637143 0.068262182 0.54846609 0 -0.33897066
0.037468843 0.069685385 0.069414169 0.54846609 0 -0.33897066
0.032326806 0.044284791 0.069493555 0.54846609 0 -0.33897066
0.035076603 0.046901375 0.06734667 0.54846609 0 -0.33897066
0.03705268 0.049564384 0.06581372 0.54846609 0 -0.33897066
0.038417645 0.052270155 0.064766094 0.54846609 0 -0.33897066
0.039340865 0.055010695 0.06406983 0.54846609 0 -0.33897066
0.039874598 0.057787564 0.063683636 0.54846609 0 -0.33897066
0.039966743 0.060613591 0.06364885 0.54846609 0 -0.33897066
0.039665062 0.063490339 0.063927755 0.54846609 0 -0.33897066
0.038936008 0.0664289 0.06454701 0.54846609 0 -0.33897066
0.037586864 0.069462776 0.065659374 0.54846609 0 -0.33897066
0.035481647 0.072621785 0.067372747 0.54846609 0 -0.33897066
0.027901391 0.041651174 0.06927973 0.54846609 0 -0.33897066
0.032172784 0.044167705 0.06595628 0.54846609 0 -0.33897066
0.034967795 0.046773281 0.063792154 0.54846609 0 -0.33897066
0.036959849 0.049427461 0.062259324 0.54846609 0 -0.33897066
0.038358718 0.052122261 0.061193358 0.54846609 0 -0.33897066
0.039297182 0.054853354 0.06049018 0.54846609 0 -0.33897066
0.039847184 0.057620373 0.060093429 0.54846609 0 -0.33897066
0.039976493 0.06043373 0.060028467 0.54846609 0 -0.33897066
0.039696407 0.063299172 0.060286529 0.54846609 0 -0.33897066
0.038997844 0.066224828 0.060874835 0.54846609 0 -0.33897066
0.037704017 0.069241814 0.061932266 0.54846609 0 -0.33897066
0.035688695 0.072378039 0.063558072 0.54846609 0 -0.33897066
0.032290492 0.075742811 0.066271707 0.54846609 0 -0.33897066
0.027676472 0.041547116 0.065791503 0.54846609 0 -0.33897066
0.032019723 0.044051345 0.062441077 0.54846609 0 -0.33897066
0.03485968 0.046646006 0.06026043 0.54846609 0 -0.33897066
0.036867619 0.049291424 0.05872795 0.54846609 0 -0.33897066
0.038300179 0.051975343 0.057644241 0.54846609 0 -0.33897066
0.03925379 0.054697063 0.056934409 0.54846609 0 -0.33897066
0.039819952 0.057454307 0.056527402 0.54846609 0 -0.33897066
0.039986175 0.060255107 0.056433007 0.54846609 0 -0.33897066
0.039727535 0.063109331 0.056670681 0.54846609 0 -0.33897066
0.039053906 0.066022903 0.057232853 0.54846609 0 -0.33897066
0.037820309 0.069022462 0.058232389 0.54846609 0 -0.33897066
0.035894156 0.072136164 0.059772592 0.54846609 0 -0.33897066
0.032653712 0.075466692 0.062337365 0.54846609 0 -0.33897066
0.027452882 0.041443672 0.062323906 0.54846609 0 -0.33897066
0.031867608 0.043935709 0.058947612 0.54846609 0 -0.33897066
0.034752257 0.04651954 0.056751158 0.54846609 0 -0.33897066
0.036775984 0.04915626 0.05521924 0.54846609 0 -0.33897066
0.038242023 0.05182939 0.054118365 0.54846609 0 -0.33897066
0.039210685 0.054541804 0.053402144 0.54846609 0 -0.33897066
0.039792906 0.057289347 0.05298518 0.54846609 0 -0.33897066
0.03999579 0.060077701 0.052862071 0.54846609 0 -0.33897066
0.039758448 0.062920809 0.053079814 0.54846609 0 -0.33897066
0.039109573 0.065822393 0.053616386 0.54846609 0 -0.33897066
0.037935764 0.068804704 0.054559309 0.54846609 0 -0.33897066
0.036058761 0.071901634 0.056046132 0.54846609 0 -0.33897066
0.032998495 0.075195082 0.058447167 0.54846609 0 -0.33897066
0.025622785 0.079179287 0.064177871 0.54846609 0 -0.33897066
0.027178608 0.041344959 0.058916308 0.54846609 0 -0.33897066
0.031716429 0.043820776 0.055475555 0.54846609 0 -0.33897066
0.034645509 0.046393871 0.053263985 0.54846609 0 -0.33897066
0.036684927 0.049021956 0.051732846 0.54846609 0 -0.33897066
0.038184244 0.051684383 0.050615374 0.54846609 0 -0.33897066
0.039167862 0.054387562 0.049893018 0.54846609 0 -0.33897066
0.039766036 0.057125483 0.049466394 0.54846609 0 -0.33897066
0.039994728 0.059902746 0.04932338 0.54846609 0 -0.33897066
0.039789148 0.062733576 0.049513526 0.54846609 0 -0.33897066
0.039164856 0.065623268 0.050025038 0.54846609 0 -0.33897066
0.038050387 0.068588503 0.0509126 0.54846609 0 -0.33897066
0.036216009 0.071669698 0.052351832 0.54846609 0 -0.33897066
0.033272482 0.074935563 0.054640293 0.54846609 0 -0.33897066
0.026867347 0.078759924 0.059575755 0.54846609 0 -0.33897066
0.026890822 0.041247986 0.055539194 0.54846609 0 -0.33897066
0.031566162 0.043706544 0.052024573 0.54846609 0 -0.33897066
0.034539428 0.046268988 0.049798574 0.54846609 0 -0.33897066
0.036594447 0.048888497 0.048268419 0.54846609 0 -0.33897066
0.0381191 0.05154109 0.047140773 0.54846609 0 -0.33897066
0.03912532 0.054234318 0.046406675 0.54846609 0 -0.33897066
0.039739344 0.056962691 0.045970678 0.54846609 0 -0.33897066
0.039985362 0.059729934 0.045814544 0.54846609 0 -0.33897066
0.039819639 0.062547609 0.045971442 0.54846609 0 -0.33897066
0.039219756 0.065425523 0.046458412 0.54846609 0 -0.33897066
0.038160864 0.068374291 0.047294363 0.54846609 0 -0.33897066
0.036372114 0.071439445 0.048684433 0.54846609 0 -0.33897066
0.033544354 0.074678041 0.050862841 0.54846609 0 -0.33897066
0.027817855 0.078387477 0.055237941 0.54846609 0 -0.33897066
0.026604617 0.04115155 0.052180637 0.54846609 0 -0.33897066
0.0314168 0.043593001 0.048594348 0.54846609 0 -0.33897066
0.034414943 0.046146587 0.046368875 0.54846609 0 -0.33897066
0.036504533 0.048755873 0.044825625 0.54846609 0 -0.33897066
0.038044155 0.051399734 0.043695867 0.54846609 0 -0.33897066
0.039083049 0.054082066 0.042942759 0.54846609 0 -0.33897066
0.039712824 0.056800954 0.042497672 0.54846609 0 -0.33897066
0.039976057 0.059558254 0.042328753 0.54846609 0 -0.33897066
0.039849926 0.062362898 0.042453174 0.54846609 0 -0.33897066
0.039274283 0.065229118 0.042916119 0.54846609 0 -0.33897066
0.038244214 0.068165109 0.043721359 0.54846609 0 -0.33897066
0.03652709 0.071210854 0.045043502 0.54846609 0 -0.33897066
0.033814143 0.074422494 0.047114331 0.54846609 0 -0.33897066
0.028545497 0.078050829 0.051104389 0.54846609 0 -0.33897066
0.039999999 0.0013766293 0.038546104 0.54846609 0 -0.33897066
0.039999999 0.0041299448 0.038547378 0.54846609 0 -0.33897066
0.039999999 0.0068834303 0.038549919 0.54846609 0 -0.33897066
0.039999999 0.0096372003 0.038553737 0.54846609 0 -0.33897066
0.039999999 0.012391368 0.038558822 0.54846609 0 -0.33897066
0.039999999 0.015146047 0.038565185 0.54846609 0 -0.33897066
0.039999999 0.017901352 0.038572818 0.54846609 0 -0.33897066
0.039999999 0.020657394 0.038581725 0.54846609 0 -0.33897066
0.039999999 0.023414291 0.03859191 0.54846609 0 -0.33897066
0.039999999 0.026172156 0.038603369 0.54846609 0 -0.33897066
0.039999999 0.0289311 0.038616106 0.54846609 0 -0.33897066
0.039999999 0.031691242 0.03863012 0.54846609 0 -0.33897066
0.039999999 0.034452695 0.038645416 0.54846609 0 -0.33897066
0.039999999 0.037215576 0.038661994 0.54846609 0 -0.33897066
0.039999999 0.039979994 0.038679857 0.54846609 0 -0.33897066
0.039999999 0.042746071 0.038699001 0.54846609 0 -0.33897066
0.039999999 0.04551392 0.038719434 0.54846609 0 -0.33897066
0.039999999 0.048283655 0.038741156 0.54846609 0 -0.33897066
0.039999999 0.051055398 0.038764171 0.54846609 0 -0.33897066
0.039999999 0.05382926 0.038788479 0.54846609 0 -0.33897066
0.039999999 0.056605361 0.038814083 0.54846609 0 -0.33897066
0.039999999 0.059383817 0.038840987 0.54846609 0 -0.33897066
0.039999999 0.062164742 0.038869191 0.54846609 0 -0.33897066
0.039999999 0.064948268 0.038898699 0.54846609 0 -0.33897066
0.039999999 0.067734495 0.038929518 0.54846609 0 -0.33897066
0.039999999 0.070523553 0.038961645 0.54846609 0 -0.33897066
0.039999999 0.073315561 0.038995087 0.54846609 0 -0.33897066
0.039999999 0.076110639 0.039029848 0.54846609 0 -0.33897066
0.039999999 0.078908898 0.039065927 0.54846609 0 -0.33897066
0.039999999 0.0013726946 0.035115585 0.54846609 0 -0.33897066
0.039999999 0.0041181403 0.035116781 0.54846609 0 -0.33897066
0.039999999 0.0068637547 0.03511918 0.54846609 0 -0.33897066
0.039999999 0.0096096518 0.035122778 0.54846609 0 -0.33897066
0.039999999 0.012355943 0.035127576 0.54846609 0 -0.33897066
0.039999999 0.015102743 0.035133574 0.54846609 0 -0.33897066
0.039999999 0.017850162 0.035140775 0.54846609 0 -0.33897066
0.039999999 0.020598318 0.035149176 0.54846609 0 -0.33897066
0.039999999 0.02334732 0.035158779 0.54846609 0 -0.33897066
0.039999999 0.026097281 0.035169587 0.54846609 0 -0.33897066
0.039999999 0.028848318 0.035181597 0.54846609 0 -0.33897066
0.039999999 0.031600542 0.035194818 0.54846609 0 -0.33897066
0.039999999 0.034354068 0.035209242 0.54846609 0 -0.33897066
0.039999999 0.03710901 0.035224874 0.54846609 0 -0.33897066
0.039999999 0.039865483 0.035241719 0.54846609 0 -0.33897066
0.039999999 0.042623598 0.035259776 0.54846609 0 -0.33897066
0.039999999 0.045383476 0.035279047 0.54846609 0 -0.33897066
0.039999999 0.048145227 0.035299532 0.54846609 0 -0.33897066
0.039999999 0.050908968 0.035321236 0.54846609 0 -0.33897066
0.039999999 0.053674817 0.035344157 0.54846609 0 -0.33897066
0.039999999 0.056442887 0.035368305 0.54846609 0 -0.33897066
0.039999999 0.059213296 0.035393674 0.54846609 0 -0.33897066
0.039999999 0.06198616 0.035420272 0.54846609 0 -0.33897066
0.039999999 0.064761594 0.0354481 0.54846609 0 -0.33897066
0.039999999 0.067539722 0.035477161 0.54846609 0 -0.33897066
0.039999999 0.070320658 0.035507459 0.54846609 0 -0.33897066
0.039999999 0.073104523 0.035538998 0.54846609 0 -0.33897066
0.039999999 0.075891435 0.035571776 0.54846609 0 -0.33897066
0.039999999 0.078681514 0.035605803 0.54846609 0 -0.33897066
0.039999999 0.001368785 0.031707015 0.54846609 0 -0.33897066
0.039999999 0.0041064112 0.031708144 0.54846609 0 -0.33897066
0.039999999 0.0068442053 0.031710397 0.54846609 0 -0.33897066
0.039999999 0.0095822793 0.031713784 0.54846609 0 -0.33897066
0.039999999 0.012320746 0.031718295 0.54846609 0 -0.33897066
0.039999999 0.015059716 0.031723935 0.54846609 0 -0.33897066
0.039999999 0.017799303 0.031730704 0.54846609 0 -0.33897066
0.039999999 0.020539619 0.031738605 0.54846609 0 -0.33897066
0.039999999 0.023280777 0.031747635 0.54846609 0 -0.33897066
0.039999999 0.026022889 0.031757798 0.54846609 0 -0.33897066
0.039999999 0.028766066 0.031769093 0.54846609 0 -0.33897066
0.039999999 0.031510424 0.031781524 0.54846609 0 -0.33897066
0.039999999 0.034256071 0.031795088 0.54846609 0 -0.33897066
0.039999999 0.03700313 0.031809788 0.54846609 0 -0.33897066
0.039999999 0.039751705 0.031825628 0.54846609 0 -0.33897066
0.039999999 0.042501912 0.031842604 0.54846609 0 -0.33897066
0.039999999 0.045253869 0.031860728 0.54846609 0 -0.33897066
0.039999999 0.048007686 0.031879988 0.54846609 0 -0.33897066
0.039999999 0.05076348 0.031900398 0.54846609 0 -0.33897066
0.039999999 0.053521365 0.031921953 0.54846609 0 -0.33897066
0.039999999 0.056281455 0.031944659 0.54846609 0 -0.33897066
0.039999999 0.059043869 0.031968515 0.54846609 0 -0.33897066
0.039999999 0.061808724 0.031993527 0.54846609 0 -0.33897066
0.039999999 0.064576127 0.032019693 0.54846609 0 -0.33897066
0.039999999 0.067346208 0.032047022 0.54846609 0 -0.33897066
0.039999999 0.070119075 0.032075509 0.54846609 0 -0.33897066
0.039999999 0.072894849 0.032105166 0.54846609 0 -0.33897066
0.039999999 0.075673647 0.03213599 0.54846609 0 -0.33897066
0.039999999 0.078455597 0.032167982 0.54846609 0 -0.33897066
0.039999999 0.0013649004 0.028320065 0.54846609 0 -0.33897066
0.039999999 0.0040947567 0.028321121 0.54846609 0 -0.33897066
0.039999999 0.0068247798 0.028323235 0.54846609 0 -0.33897066
0.039999999 0.0095550809 0.028326407 0.54846609 0 -0.33897066
0.039999999 0.012285772 0.028330635 0.54846609 0 -0.33897066
0.039999999 0.015016963 0.028335923 0.54846609 0 -0.33897066
0.039999999 0.017748766 0.028342267 0.54846609 0 -0.33897066
0.039999999 0.020481294 0.028349673 0.54846609 0 -0.33897066
0.039999999 0.023214657 0.028358137 0.54846609 0 -0.33897066
0.039999999 0.025948966 0.028367663 0.54846609 0 -0.33897066
0.039999999 0.028684335 0.02837825 0.54846609 0 -0.33897066
0.039999999 0.031420875 0.028389901 0.54846609 0 -0.33897066
0.039999999 0.034158699 0.028402613 0.54846609 0 -0.33897066
0.039999999 0.03689792 0.028416393 0.54846609 0 -0.33897066
0.039999999 0.03963865 0.02843124 0.54846609 0 -0.33897066
0.039999999 0.042381 0.028447153 0.54846609 0 -0.33897066
0.039999999 0.045125086 0.028464139 0.54846609 0 -0.33897066
0.039999999 0.04787102 0.028482193 0.54846609 0 -0.33897066
0.039999999 0.050618917 0.028501322 0.54846609 0 -0.33897066
0.039999999 0.053368889 0.028521527 0.54846609 0 -0.33897066
0.039999999 0.056121055 0.028542807 0.54846609 0 -0.33897066
0.039999999 0.058875524 0.028565168 0.54846609 0 -0.33897066
0.039999999 0.061632417 0.02858861 0.54846609 0 -0.33897066
0.039999999 0.064391844 0.028613137 0.54846609 0 -0.33897066
0.039999999 0.067153923 0.02863875 0.54846609 0 -0.33897066
0.039999999 0.069918774 0.028665453 0.54846609 0 -0.33897066
0.039999999 0.072686516 0.028693248 0.54846609 0 -0.33897066
0.039999999 0.075457253 0.028722135 0.54846609 0 -0.33897066
0.039999999 0.078231119 0.028752124 0.54846609 0 -0.33897066
0.039999999 0.00136104 0.024954397 0.54846609 0 -0.33897066
0.039999999 0.0040831752 0.024955384 0.54846609 0 -0.33897066
0.039999999 0.0068054763 0.024957359 0.54846609 0 -0.33897066
0.039999999 0.009528053 0.02496032 0.54846609 0 -0.33897066
0.039999999 0.012251017 0.024964269 0.54846609 0 -0.33897066
0.039999999 0.014974478 0.024969207 0.54846609 0 -0.33897066
0.039999999 0.017698547 0.024975132 0.54846609 0 -0.33897066
0.039999999 0.020423334 0.024982048 0.54846609 0 -0.33897066
0.039999999 0.023148952 0.024989953 0.54846609 0 -0.33897066
0.039999999 0.025875511 0.024998849 0.54846609 0 -0.33897066
0.039999999 0.02860312 0.025008736 0.54846609 0 -0.33897066
0.039999999 0.031331893 0.025019616 0.54846609 0 -0.33897066
0.039999999 0.034061939 0.02503149 0.54846609 0 -0.33897066
0.039999999 0.036793374 0.025044357 0.54846609 0 -0.33897066
0.039999999 0.039526306 0.025058223 0.54846609 0 -0.33897066
0.039999999 0.042260848 0.025073085 0.54846609 0 -0.33897066
0.039999999 0.044997111 0.025088945 0.54846609 0 -0.33897066
0.039999999 0.047735214 0.025105806 0.54846609 0 -0.33897066
0.039999999 0.050475262 0.025123671 0.54846609 0 -0.33897066
0.039999999 0.053217374 0.025142539 0.54846609 0 -0.33897066
0.039999999 0.055961665 0.025162414 0.54846609 0 -0.33897066
0.039999999 0.058708239 0.025183296 0.54846609 0 -0.33897066
0.039999999 0.06145722 0.025205187 0.54846609 0 -0.33897066
0.039999999 0.064208724 0.025228092 0.54846609 0 -0.33897066
0.039999999 0.066962861 0.025252011 0.54846609 0 -0.33897066
0.039999999 0.069719739 0.025276948 0.54846609 0 -0.33897066
0.039999999 0.072479494 0.025302904 0.54846609 0 -0.33897066
0.039999999 0.075242229 0.025329882 0.54846609 0 -0.33897066
0.039999999 0.078008063 0.025357885 0.54846609 0 -0.33897066
0.039999999 0.0013572037 0.021609686 0.54846609 0 -0.33897066
0.039999999 0.0040716659 0.021610603 0.54846609 0 -0.33897066
0.039999999 0.0067862929 0.021612439 0.54846609 0 -0.33897066
0.039999999 0.0095011937 0.021615194 0.54846609 0 -0.33897066
0.039999999 0.012216479 0.021618867 0.54846609 0 -0.33897066
0.039999999 0.014932258 0.021623459 0.54846609 0 -0.33897066
0.039999999 0.017648641 0.02162897 0.54846609 0 -0.33897066
0.039999999 0.020365737 0.021635402 0.54846609 0 -0.33897066
0.039999999 0.023083657 0.021642754 0.54846609 0 -0.33897066
0.039999999 0.025802512 0.021651028 0.54846609 0 -0.33897066
0.039999999 0.028522409 0.021660224 0.54846609 0 -0.33897066
0.039999999 0.031243464 0.021670341 0.54846609 0 -0.33897066
0.039999999 0.033965781 0.021681385 0.54846609 0 -0.33897066
0.039999999 0.036689479 0.021693353 0.54846609 0 -0.33897066
0.039999999 0.039414663 0.021706248 0.54846609 0 -0.33897066
0.039999999 0.042141445 0.021720069 0.54846609 0 -0.33897066
0.039999999 0.044869941 0.021734821 0.54846609 0 -0.33897066
0.039999999 0.047600258 0.021750502 0.54846609 0 -0.33897066
0.039999999 0.050332509 0.021767115 0.54846609 0 -0.33897066
0.039999999 0.053066809 0.021784663 0.54846609 0 -0.33897066
0.039999999 0.055803269 0.021803146 0.54846609 0 -0.33897066
0.039999999 0.058542002 0.021822568 0.54846609 0 -0.33897066
0.039999999 0.061283123 0.021842927 0.54846609 0 -0.33897066
0.039999999 0.064026751 0.02186423 0.54846609 0 -0.33897066
0.039999999 0.06677299 0.021886474 0.54846609 0 -0.33897066
0.039999999 0.069521956 0.021909665 0.54846609 0 -0.33897066
0.039999999 0.072273768 0.021933805 0.54846609 0 -0.33897066
0.039999999 0.075028546 0.021958895 0.54846609 0 -0.33897066
0.039999999 0.077786401 0.021984939 0.54846609 0 -0.33897066
0.039999999 0.0013533911 0.01828561 0.54846609 0 -0.33897066
0.039999999 0.0040602279 0.018286459 0.54846609 0 -0.33897066
0.039999999 0.0067672278 0.01828816 0.54846609 0 -0.33897066
0.039999999 0.0094745001 0.018290708 0.54846609 0 -0.33897066
0.039999999 0.012182154 0.018294109 0.54846609 0 -0.33897066
0.039999999 0.014890298 0.01829836 0.54846609 0 -0.33897066
0.039999999 0.017599043 0.018303461 0.54846609 0 -0.33897066
0.039999999 0.020308495 0.018309414 0.54846609 0 -0.33897066
0.039999999 0.023018764 0.018316219 0.54846609 0 -0.33897066
0.039999999 0.025729964 0.018323878 0.54846609 0 -0.33897066
0.039999999 0.028442198 0.01833239 0.54846609 0 -0.33897066
0.039999999 0.031155581 0.018341755 0.54846609 0 -0.33897066
0.039999999 0.03387022 0.018351978 0.54846609 0 -0.33897066
0.039999999 0.036586225 0.018363055 0.54846609 0 -0.33897066
0.039999999 0.039303709 0.018374991 0.54846609 0 -0.33897066
0.039999999 0.042022783 0.018387785 0.54846609 0 -0.33897066
0.039999999 0.044743553 0.018401438 0.54846609 0 -0.33897066
0.039999999 0.047466133 0.018415954 0.54846609 0 -0.33897066
0.039999999 0.050190639 0.018431332 0.54846609 0 -0.33897066
0.039999999 0.052917175 0.018447576 0.54846609 0 -0.33897066
0.039999999 0.055645857 0.018464684 0.54846609 0 -0.33897066
0.039999999 0.058376797 0.018482661 0.54846609 0 -0.33897066
0.039999999 0.061110105 0.018501505 0.54846609 0 -0.33897066
0.039999999 0.063845903 0.018521223 0.54846609 0 -0.33897066
0.039999999 0.066584289 0.018541813 0.54846609 0 -0.33897066
0.039999999 0.069325395 0.01856328 0.54846609 0 -0.33897066
0.039999999 0.072069325 0.018585624 0.54846609 0 -0.33897066
0.039999999 0.074816197 0.018608848 0.54846609 0 -0.33897066
0.039999999 0.077566124 0.018632952 0.54846609 0 -0.33897066
0.039999999 0.0013496018 0.014981853 0.54846609 0 -0.33897066
0.039999999 0.0040488597 0.014982635 0.54846609 0 -0.33897066
0.039999999 0.0067482796 0.0149842 0.54846609 0 -0.33897066
0.039999999 0.0094479695 0.014986547 0.54846609 0 -0.33897066
0.039999999 0.012148039 0.014989677 0.54846609 0 -0.33897066
0.039999999 0.014848595 0.01499359 0.54846609 0 -0.33897066
0.039999999 0.017549746 0.014998286 0.54846609 0 -0.33897066
0.039999999 0.020251602 0.015003767 0.54846609 0 -0.33897066
0.039999999 0.02295427 0.015010032 0.54846609 0 -0.33897066
0.039999999 0.025657859 0.015017082 0.54846609 0 -0.33897066
0.039999999 0.028362477 0.015024918 0.54846609 0 -0.33897066
0.039999999 0.031068236 0.01503354 0.54846609 0 -0.33897066
0.039999999 0.03377524 0.01504295 0.54846609 0 -0.33897066
0.039999999 0.036483604 0.015053148 0.54846609 0 -0.33897066
0.039999999 0.039193437 0.015064136 0.54846609 0 -0.33897066
0.039999999 0.041904844 0.015075915 0.54846609 0 -0.33897066
0.039999999 0.04461794 0.015088484 0.54846609 0 -0.33897066
0.039999999 0.047332834 0.015101846 0.54846609 0 -0.33897066
0.039999999 0.050049637 0.015116003 0.54846609 0 -0.33897066
0.039999999 0.052768458 0.015130956 0.54846609 0 -0.33897066
0.039999999 0.055489406 0.015146706 0.54846609 0 -0.33897066
0.039999999 0.058212601 0.015163254 0.54846609 0 -0.33897066
0.039999999 0.06093815 0.015180604 0.54846609 0 -0.33897066
0.039999999 0.063666165 0.015198754 0.54846609 0 -0.33897066
0.039999999 0.066396758 0.015217709 0.54846609 0 -0.33897066
0.039999999 0.069130048 0.01523747 0.54846609 0 -0.33897066
0.039999999 0.07186614 0.015258039 0.54846609 0 -0.33897066
0.039999999 0.074605152 0.015279418 0.54846609 0 -0.33897066
0.039999999 0.077347197 0.015301608 0.54846609 0 -0.33897066
0.039999999 0.0013458355 0.011698104 0.54846609 0 -0.33897066
0.039999999 0.00403756 0.011698821 0.54846609 0 -0.33897066
0.039999999 0.0067294459 0.011700252 0.54846609 0 -0.33897066
0.039999999 0.0094216 0.011702399 0.54846609 0 -0.33897066
0.039999999 0.012114131 0.011705262 0.54846609 0 -0.33897066
0.039999999 0.014807145 0.011708842 0.54846609 0 -0.33897066
0.039999999 0.017500751 0.011713138 0.54846609 0 -0.33897066
0.039999999 0.020195054 0.01171815 0.54846609 0 -0.33897066
0.039999999 0.022890165 0.011723882 0.54846609 0 -0.33897066
0.039999999 0.025586192 0.01173033 0.54846609 0 -0.33897066
0.039999999 0.02828324 0.011737498 0.54846609 0 -0.33897066
0.039999999 0.03098142 0.011745385 0.54846609 0 -0.33897066
0.039999999 0.033680841 0.011753992 0.54846609 0 -0.33897066
0.039999999 0.03638161 0.011763321 0.54846609 0 -0.33897066
0.039999999 0.039083835 0.011773372 0.54846609 0 -0.33897066
0.039999999 0.041787624 0.011784146 0.54846609 0 -0.33897066
0.039999999 0.04449309 0.011795643 0.54846609 0 -0.33897066
0.039999999 0.047200345 0.011807866 0.54846609 0 -0.33897066
0.039999999 0.049909491 0.011820816 0.54846609 0 -0.33897066
0.039999999 0.052620642 0.011834493 0.54846609 0 -0.33897066
0.039999999 0.055333912 0.0118489 0.54846609 0 -0.33897066
0.039999999 0.058049407 0.011864037 0.54846609 0 -0.33897066
0.039999999 0.060767241 0.011879906 0.54846609 0 -0.33897066
0.039999999 0.063487522 0.011896509 0.54846609 0 -0.33897066
0.039999999 0.066210367 0.011913847 0.54846609 0 -0.33897066
0.039999999 0.068935886 0.011931922 0.54846609 0 -0.33897066
0.039999999 0.071664192 0.011950737 0.54846609 0 -0.33897066
0.039999999 0.074395396 0.011970292 0.54846609 0 -0.33897066
0.039999999 0.07712961 0.011990589 0.54846609 0 -0.33897066
0.039999999 0.079866961 0.012011631 0.54846609 0 -0.33897066
0.039999999 0.0013420917 0.008434061 0.54846609 0 -0.33897066
0.039999999 0.0040263287 0.008434711 0.54846609 0 -0.33897066
0.039999999 0.0067107254 0.0084360102 0.54846609 0 -0.33897066
0.039999999 0.0093953889 0.0084379595 0.54846609 0 -0.33897066
0.039999999 0.012080425 0.0084405588 0.54846609 0 -0.33897066
0.039999999 0.014765943 0.0084438082 0.54846609 0 -0.33897066
0.039999999 0.017452048 0.0084477086 0.54846609 0 -0.33897066
0.039999999 0.020138847 0.008452259 0.54846609 0 -0.33897066
0.039999999 0.022826446 0.0084574623 0.54846609 0 -0.33897066
0.039999999 0.025514955 0.0084633166 0.54846609 0 -0.33897066
0.039999999 0.028204478 0.0084698237 0.54846609 0 -0.33897066
0.039999999 0.030895127 0.0084769838 0.54846609 0 -0.33897066
0.039999999 0.033587005 0.0084847976 0.54846609 0 -0.33897066
0.039999999 0.036280222 0.008493267 0.54846609 0 -0.33897066
0.039999999 0.038974889 0.0085023912 0.54846609 0 -0.33897066
0.039999999 0.041671108 0.0085121719 0.54846609 0 -0.33897066
0.039999999 0.044368993 0.0085226102 0.54846609 0 -0.33897066
0.039999999 0.047068648 0.008533706 0.54846609 0 -0.33897066
0.039999999 0.049770188 0.008545462 0.54846609 0 -0.33897066
0.039999999 0.05247372 0.0085578794 0.54846609 0 -0.33897066
0.039999999 0.05517935 0.0085709579 0.54846609 0 -0.33897066
0.039999999 0.057887193 0.0085846996 0.54846609 0 -0.33897066
0.039999999 0.06059736 0.0085991053 0.54846609 0 -0.33897066
0.039999999 0.06330996 0.0086141778 0.54846609 0 -0.33897066
0.039999999 0.066025101 0.0086299181 0.54846609 0 -0.33897066
0.039999999 0.068742894 0.0086463271 0.54846609 0 -0.33897066
0.039999999 0.071463458 0.0086634066 0.54846609 0 -0.33897066
0.039999999 0.074186906 0.0086811585 0.54846609 0 -0.33897066
0.039999999 0.076913342 0.0086995848 0.54846609 0 -0.33897066
0.039999999 0.079642884 0.0087186871 0.54846609 0 -0.33897066
0.039999999 0.0013383701 0.0051894207 0.54846609 0 -0.33897066
0.039999999 0.0040151635 0.0051900055 0.54846609 0 -0.33897066
0.039999999 0.0066921157 0.0051911743 0.54846609 0 -0.33897066
0.039999999 0.0093693333 0.005192928 0.54846609 0 -0.33897066
0.039999999 0.012046921 0.0051952661 0.54846609 0 -0.33897066
0.039999999 0.014724987 0.0051981895 0.54846609 0 -0.33897066
0.039999999 0.017403634 0.0052016983 0.54846609 0 -0.33897066
0.039999999 0.020082973 0.0052057928 0.54846609 0 -0.33897066
0.039999999 0.022763105 0.0052104732 0.54846609 0 -0.33897066
0.039999999 0.025444143 0.0052157403 0.54846609 0 -0.33897066
0.039999999 0.028126186 0.0052215941 0.54846609 0 -0.33897066
0.039999999 0.030809347 0.0052280356 0.54846609 0 -0.33897066
0.039999999 0.033493731 0.0052350657 0.54846609 0 -0.33897066
0.039999999 0.036179442 0.0052426844 0.54846609 0 -0.33897066
0.039999999 0.038866591 0.0052508926 0.54846609 0 -0.33897066
0.039999999 0.041555285 0.0052596917 0.54846609 0 -0.33897066
0.039999999 0.044245634 0.0052690823 0.54846609 0 -0.33897066
0.039999999 0.046937741 0.0052790646 0.54846609 0 -0.33897066
0.039999999 0.049631719 0.0052896407 0.54846609 0 -0.33897066
0.039999999 0.052327674 0.005300811 0.54846609 0 -0.33897066
0.039999999 0.055025715 0.0053125769 0.54846609 0 -0.33897066
0.039999999 0.057725951 0.0053249393 0.54846609 0 -0.33897066
0.039999999 0.060428493 0.0053378991 0.54846609 0 -0.33897066
0.039999999 0.063133456 0.0053514587 0.54846609 0 -0.33897066
0.039999999 0.065840937 0.005365618 0.54846609 0 -0.33897066
0.039999999 0.068551056 0.00538038 0.54846609 0 -0.33897066
0.039999999 0.071263932 0.0053957449 0.54846609 0 -0.33897066
0.039999999 0.073979661 0.0054117148 0.54846609 0 -0.33897066
0.039999999 0.076698363 0.0054282909 0.54846609 0 -0.33897066
0.039999999 0.079420149 0.0054454752 0.54846609 0 -0.33897066
0.039999999 0.0013346706 0.0019638897 0.54846609 0 -0.33897066
0.039999999 0.0040040645 0.0019644096 0.54846609 0 -0.33897066
0.039999999 0.0066736164 0.0019654497 0.54846609 0 -0.33897066
0.039999999 0.0093434313 0.0019670099 0.54846609 0 -0.33897066
0.039999999 0.012013614 0.0019690902 0.54846609 0 -0.33897066
0.039999999 0.014684271 0.0019716911 0.54846609 0 -0.33897066
0.039999999 0.017355507 0.0019748129 0.54846609 0 -0.33897066
0.039999999 0.020027427 0.0019784556 0.54846609 0 -0.33897066
0.039999999 0.022700138 0.0019826198 0.54846609 0 -0.33897066
0.039999999 0.025373746 0.0019873057 0.54846609 0 -0.33897066
0.039999999 0.028048355 0.0019925139 0.54846609 0 -0.33897066
0.039999999 0.030724073 0.001998245 0.54846609 0 -0.33897066
0.039999999 0.033401005 0.0020044993 0.54846609 0 -0.33897066
0.039999999 0.036079254 0.0020112777 0.54846609 0 -0.33897066
0.039999999 0.038758934 0.0020185807 0.54846609 0 -0.33897066
0.039999999 0.041440148 0.0020264089 0.54846609 0 -0.33897066
0.039999999 0.044123001 0.0020347633 0.54846609 0 -0.33897066
0.039999999 0.046807606 0.0020436449 0.54846609 0 -0.33897066
0.039999999 0.049494065 0.002053054 0.54846609 0 -0.33897066
0.039999999 0.052182488 0.002062992 0.54846609 0 -0.33897066
0.039999999 0.054872986 0.0020734596 0.54846609 0 -0.33897066
0.039999999 0.057565663 0.002084458 0.54846609 0 -0.33897066
0.039999999 0.060260627 0.0020959883 0.54846609 0 -0.33897066
0.039999999 0.062957995 0.0021080517 0.54846609 0 -0.33897066
0.039999999 0.065657869 0.002120649 0.54846609 0 -0.33897066
0.039999999 0.068360358 0.002133782 0.54846609 0 -0.33897066
0.039999999 0.071065582 0.0021474515 0.54846609 0 -0.33897066
0.039999999 0.073773645 0.0021616593 0.54846609 0 -0.33897066
0.039999999 0.076484658 0.0021764066 0.54846609 0 -0.33897066
0.039999999 0.07919874 0.0021916947 0.54846609 0 -0.33897066
0.038128868 0.0013358906 0 0.54846609 0 -0.33897066
0.038129557 0.004007719 0 0.54846609 0 -0.33897066
0.038130935 0.0066796881 0 0.54846609 0 -0.33897066
0.038133003 0.0093518924 0 0.54846609 0 -0.33897066
0.038135763 0.012024427 0 0.54846609 0 -0.33897066
0.038139209 0.014697384 0 0.54846609 0 -0.33897066
0.038143348 0.017370859 0 0.54846609 0 -0.33897066
0.03814818 0.020044945 0 0.54846609 0 -0.33897066
0.038153701 0.022719739 0 0.54846609 0 -0.33897066
0.038159911 0.025395334 0 0.54846609 0 -0.33897066
0.038166817 0.028071823 0 0.54846609 0 -0.33897066
0.038174413 0.030749302 0 0.54846609 0 -0.33897066
0.038182702 0.033427868 0 0.54846609 0 -0.33897066
0.038191687 0.036107615 0 0.54846609 0 -0.33897066
0.038201369 0.038788632 0 0.54846609 0 -0.33897066
0.038211744 0.041471023 0 0.54846609 0 -0.33897066
0.038222816 0.044154882 0 0.54846609 0 -0.33897066
0.038234588 0.046840299 0 0.54846609 0 -0.33897066
0.038247056 0.049527377 0 0.54846609 0 -0.33897066
0.038260225 0.052216209 0 0.54846609 0 -0.33897066
0.038274098 0.054906894 5.5511151e-17 0.54846609 0 -0.33897066
0.038288672 0.057599522 0 0.54846609 0 -0.33897066
0.038303949 0.060294196 0 0.54846609 0 -0.33897066
0.03831993 0.062991016 0 0.54846609 0 -0.33897066
0.038336616 0.06569007 0 0.54846609 0 -0.33897066
0.038354013 0.068391465 0 0.54846609 0 -0.33897066
0.038372122 0.071095288 0 0.54846609 0 -0.33897066
0.038390938 0.073801652 0 0.54846609 0 -0.33897066
0.03841047 0.076510653 0 0.54846609 0 -0.33897066
0.038430717 0.079222381 0 0.54846609 0 -0.33897066
0.03326533 0.0013449165 0 0.54846609 0 -0.33897066
0.033265937 0.0040347977 0 0.54846609 0 -0.33897066
0.033267148 0.0067248219 0 0.54846609 0 -0.33897066
0.033268962 0.0094150854 0 0.54846609 0 -0.33897066
0.033271387 0.012105684 0 0.54846609 0 -0.33897066
0.033274416 0.014796713 0 0.54846609 0 -0.33897066
0.033278052 0.017488269 0 0.54846609 0 -0.33897066
0.033282291 0.020180449 0 0.54846609 0 -0.33897066
0.033287141 0.022873346 0 0.54846609 0 -0.33897066
0.033292595 0.025567057 0 0.54846609 0 -0.33897066
0.03329866 0.02826168 0 0.54846609 0 -0.33897066
0.033305336 0.03095731 0 0.54846609 0 -0.33897066
0.033312615 0.033654045 0 0.54846609 0 -0.33897066
0.033320509 0.036351979 0 0.54846609 0 -0.33897066
0.03332901 0.039051209 0 0.54846609 0 -0.33897066
0.033338126 0.041751835 0 0.54846609 0 -0.33897066
0.033347849 0.044453952 0 0.54846609 0 -0.33897066
0.03335819 0.04715766 0 0.54846609 0 -0.33897066
0.033369143 0.049863052 0 0.54846609 0 -0.33897066
0.03338071 0.052570231 0 0.54846609 0 -0.33897066
0.033392895 0.055279292 0 0.54846609 0 -0.33897066
0.033405695 0.057990335 0 0.54846609 0 -0.33897066
0.033419114 0.060703456 0 0.54846609 0 -0.33897066
0.033433154 0.063418761 0 0.54846609 0 -0.33897066
0.033447813 0.066136338 0 0.54846609 0 -0.33897066
0.033463094 0.068856291 0 0.54846609 0 -0.33897066
0.033478998 0.071578734 0 0.54846609 0 -0.33897066
0.033495527 0.074303746 0 0.54846609 0 -0.33897066
0.033512685 0.077031441 0 0.54846609 0 -0.33897066
0.03353047 0.079761915 0 0.54846609 0 -0.33897066
0.028336853 0.0013540629 0 0.54846609 0 -0.33897066
0.028337372 0.0040622377 0 0.54846609 0 -0.33897066
0.02833841 0.0067705582 0 0.54846609 0 -0.33897066
0.028339969 0.0094791222 0 0.54846609 0 -0.33897066
0.028342046 0.012188027 0 0.54846609 0 -0.33897066
0.028344644 0.01489737 0 0.54846609 0 -0.33897066
0.028347762 0.017607249 0 0.54846609 0 -0.33897066
0.0283514 0.020317761 0 0.54846609 0 -0.33897066
0.028355559 0.023029003 0 0.54846609 0 -0.33897066
0.028360238 0.025741076 0 0.54846609 0 -0.33897066
0.028365439 0.028454075 0 0.54846609 0 -0.33897066
0.028371163 0.031168098 0 0.54846609 0 -0.33897066
0.028377408 0.033883244 0 0.54846609 0 -0.33897066
0.028384177 0.03659961 0 0.54846609 0 -0.33897066
0.028391469 0.039317299 0 0.54846609 0 -0.33897066
0.028399285 0.042036407 0 0.54846609 0 -0.33897066
0.028407628 0.044757027 0 0.54846609 0 -0.33897066
0.028416494 0.047479268 0 0.54846609 0 -0.33897066
0.028425887 0.050203227 0 0.54846609 0 -0.33897066
0.02843581 0.052928995 0 0.54846609 0 -0.33897066
0.028446259 0.055656683 0 0.54846609 0 -0.33897066
0.028457237 0.058386389 0 0.54846609 0 -0.33897066
0.028468747 0.061118208 0 0.54846609 0 -0.33897066
0.028480789 0.063852243 0 0.54846609 0 -0.33897066
0.028493362 0.066588596 0 0.54846609 0 -0.33897066
0.028506469 0.069327369 0 0.54846609 0 -0.33897066
0.028520111 0.072068669 0 0.54846609 0 -0.33897066
0.028534288 0.074812584 0 0.54846609 0 -0.33897066
0.028549004 0.077559233 0 0.54846609 0 -0.33897066
0.023341935 0.0013633327 0 0.54846609 0 -0.33897066
0.023342365 0.0040900474 0 0.54846609 0 -0.33897066
0.023343228 0.006816911 0 0.54846609 0 -0.33897066
0.02334452 0.0095440224 0 0.54846609 0 -0.33897066
0.023346243 0.01227148 0 0.54846609 0 -0.33897066
0.023348399 0.014999384 0 0.54846609 0 -0.33897066
0.023350984 0.017727833 0 0.54846609 0 -0.33897066
0.023354001 0.020456925 0 0.54846609 0 -0.33897066
0.023357449 0.023186762 0 0.54846609 0 -0.33897066
0.023361331 0.025917443 0 0.54846609 0 -0.33897066
0.023365645 0.028649066 0 0.54846609 0 -0.33897066
0.023370391 0.03138173 0 0.54846609 0 -0.33897066
0.023375571 0.034115538 0 0.54846609 0 -0.33897066
0.023381185 0.03685059 0 0.54846609 0 -0.33897066
0.023387233 0.039586984 0 0.54846609 0 -0.33897066
0.023393717 0.042324819 0 0.54846609 0 -0.33897066
0.023400635 0.0450642 0 0.54846609 0 -0.33897066
0.023407988 0.047805227 0 0.54846609 0 -0.33897066
0.02341578 0.050547998 0 0.54846609 0 -0.33897066
0.023424009 0.053292617 0 0.54846609 0 -0.33897066
0.023432676 0.056039184 0 0.54846609 0 -0.33897066
0.023441782 0.058787804 0 0.54846609 0 -0.33897066
0.023451328 0.061538573 0 0.54846609 0 -0.33897066
0.023461316 0.064291604 0 0.54846609 0 -0.33897066
0.023471745 0.067046992 0 0.54846609 0 -0.33897066
0.023482615 0.06980484 0 0.54846609 0 -0.33897066
0.023493931 0.07256525 0 0.54846609 0 -0.33897066
0.02350569 0.075328335 0 0.54846609 0 -0.33897066
0.023517895 0.078094199 0 0.54846609 0 -0.33897066
0.018279031 0.0013727286 0 0.54846609 0 -0.33897066
0.018279372 0.0041182362 0 0.54846609 0 -0.33897066
0.01828005 0.0068638949 0 0.54846609 0 -0.33897066
0.018281069 0.0096098054 0 0.54846609 0 -0.33897066
0.018282428 0.012356069 0 0.54846609 0 -0.33897066
0.018284127 0.015102786 0 0.54846609 0 -0.33897066
0.018286165 0.017850058 0 0.54846609 0 -0.33897066
0.018288545 0.020597985 0 0.54846609 0 -0.33897066
0.018291265 0.02334667 0 0.54846609 0 -0.33897066
0.018294325 0.026096212 0 0.54846609 0 -0.33897066
0.018297726 0.028846713 0 0.54846609 0 -0.33897066
0.018301468 0.031598274 0 0.54846609 0 -0.33897066
0.018305553 0.034350999 0 0.54846609 0 -0.33897066
0.018309981 0.03710499 0 0.54846609 0 -0.33897066
0.018314749 0.039860345 0 0.54846609 0 -0.33897066
0.01831986 0.042617168 0 0.54846609 0 -0.33897066
0.018325316 0.045375563 0 0.54846609 0 -0.33897066
0.018331116 0.048135631 0 0.54846609 0 -0.33897066
0.018337259 0.050897479 0 0.54846609 0 -0.33897066
0.018343749 0.053661201 0 0.54846609 0 -0.33897066
0.018350583 0.056426909 0 0.54846609 0 -0.33897066
0.018357763 0.059194706 0 0.54846609 0 -0.33897066
0.01836529 0.061964694 0 0.54846609 0 -0.33897066
0.018373165 0.064736977 0 0.54846609 0 -0.33897066
0.018381389 0.067511655 0 0.54846609 0 -0.33897066
0.018389961 0.070288844 0 0.54846609 0 -0.33897066
0.018398885 0.073068641 0 0.54846609 0 -0.33897066
0.018408157 0.075851157 0 0.54846609 0 -0.33897066
0.018417783 0.078636497 0 0.54846609 0 -0.33897066
0.013146546 0.0013822537 0 0.54846609 0 -0.33897066
0.013146792 0.0041468125 0 0.54846609 0 -0.33897066
0.013147284 0.0069115246 0 0.54846609 0 -0.33897066
0.013148022 0.0096764937 0 0.54846609 0 -0.33897066
0.013149006 0.012441821 0 0.54846609 0 -0.33897066
0.013150237 0.015207611 0 0.54846609 0 -0.33897066
0.013151713 0.017973965 0 0.54846609 0 -0.33897066
0.013153436 0.020740986 0 0.54846609 0 -0.33897066
0.013155405 0.023508776 0 0.54846609 0 -0.33897066
0.013157622 0.02627744 0 0.54846609 0 -0.33897066
0.013160085 0.029047079 0 0.54846609 0 -0.33897066
0.013162795 0.031817798 0 0.54846609 0 -0.33897066
0.013165753 0.0345897 0 0.54846609 0 -0.33897066
0.013168959 0.037362892 0 0.54846609 0 -0.33897066
0.013172413 0.04013747 0 0.54846609 0 -0.33897066
0.013176115 0.042913545 0 0.54846609 0 -0.33897066
0.013180066 0.045691218 0 0.54846609 0 -0.33897066
0.013184266 0.048470594 0 0.54846609 0 -0.33897066
0.013188716 0.051251777 0 0.54846609 0 -0.33897066
0.013193415 0.054034874 0 0.54846609 0 -0.33897066
0.013198365 0.056819987 0 0.54846609 0 -0.33897066
0.013203565 0.059607226 0 0.54846609 0 -0.33897066
0.013209017 0.062396694 0 0.54846609 0 -0.33897066
0.01321472 0.065188497 0 0.54846609 0 -0.33897066
0.013220677 0.067982748 0 0.54846609 0 -0.33897066
0.013226885 0.07077954 0 0.54846609 0 -0.33897066
0.013233348 0.073578998 0 0.54846609 0 -0.33897066
0.013240064 0.076381214 0 0.54846609 0 -0.33897066
0.013247035 0.079186305 0 0.54846609 0 -0.33897066
0.0079428358 0.0013919109 0 0.54846609 0 -0.33897066
0.0079429848 0.004175785 0 0.54846609 0 -0.33897066
0.0079432847 0.0069598155 0 0.54846609 0 -0.33897066
0.0079437336 0.0097441068 0 0.54846609 0 -0.33897066
0.0079443324 0.012528763 0 0.54846609 0 -0.33897066
0.0079450803 0.01531389 0 0.54846609 0 -0.33897066
0.007945979 0.018099591 0 0.54846609 0 -0.33897066
0.0079470277 0.02088597 0 0.54846609 0 -0.33897066
0.0079482254 0.023673134 0 0.54846609 0 -0.33897066
0.0079495739 0.026461184 0 0.54846609 0 -0.33897066
0.0079510724 0.029250231 0 0.54846609 0 -0.33897066
0.0079527218 0.032040372 0 0.54846609 0 -0.33897066
0.0079545211 0.034831721 0 0.54846609 0 -0.33897066
0.0079564722 0.037624378 0 0.54846609 0 -0.33897066
0.0079585733 0.04041845 0 0.54846609 0 -0.33897066
0.0079608262 0.043214042 0 0.54846609 0 -0.33897066
0.0079632299 0.046011262 0 0.54846609 0 -0.33897066
0.0079657845 0.048810214 0 0.54846609 0 -0.33897066
0.0079684919 0.051611006 0 0.54846609 0 -0.33897066
0.007971351 0.054413747 0 0.54846609 0 -0.33897066
0.0079743629 0.05721854 0 0.54846609 0 -0.33897066
0.0079775266 0.060025495 0 0.54846609 0 -0.33897066
0.007980844 0.062834717 0 0.54846609 0 -0.33897066
0.0079843141 0.065646321 0 0.54846609 0 -0.33897066
0.0079879388 0.068460412 0 0.54846609 0 -0.33897066
0.0079917163 0.071277097 0 0.54846609 0 -0.33897066
0.0079956483 0.074096479 0 0.54846609 0 -0.33897066
0.007999735 0.076918684 0 0.54846609 0 -0.33897066
0.0080039762 0.07974381 0 0.54846609 0 -0.33897066
0.0026662049 0.0014017035 0 0.54846609 0 -0.33897066
0.0026662555 0.0042051636 0 0.54846609 0 -0.33897066
0.0026663565 0.0070087826 0 0.54846609 0 -0.33897066
0.0026665083 0.009812668 0 0.54846609 0 -0.33897066
0.0026667109 0.012616924 0 0.54846609 0 -0.33897066
0.0026669637 0.015421659 0 0.54846609 0 -0.33897066
0.0026672673 0.018226977 0 0.54846609 0 -0.33897066
0.0026676217 0.021032987 0 0.54846609 0 -0.33897066
0.0026680268 0.023839796 0 0.54846609 0 -0.33897066
0.0026684827 0.026647506 0 0.54846609 0 -0.33897066
0.0026689894 0.02945623 0 0.54846609 0 -0.33897066
0.0026695468 0.032266069 0 0.54846609 0 -0.33897066
0.0026701551 0.035077136 0 0.54846609 0 -0.33897066
0.0026708145 0.037889536 0 0.54846609 0 -0.33897066
0.0026715249 0.040703375 0 0.54846609 0 -0.33897066
0.0026722862 0.043518759 0 0.54846609 0 -0.33897066
0.0026730988 0.046335801 0 0.54846609 0 -0.33897066
0.0026739626 0.049154609 0 0.54846609 0 -0.33897066
0.0026748779 0.051975287 0 0.54846609 0 -0.33897066
0.0026758444 0.054797951 0 0.54846609 0 -0.33897066
0.0026768625 0.057622701 0 0.54846609 0 -0.33897066
0.0026779321 0.060449652 0 0.54846609 0 -0.33897066
0.0026790535 0.063278913 0 0.54846609 0 -0.33897066
0.0026802267 0.066110596 0 0.54846609 0 -0.33897066
0.0026814518 0.068944804 0 0.54846609 0 -0.33897066
0.0026827289 0.071781658 0 0.54846609 0 -0.33897066
0.0026840582 0.074621268 0 0.54846609 0 -0.33897066
0.0026854398 0.077463731 0 0.54846609 0 -0.33897066
