# .PCD v0.7 - Point Cloud Data file format
VERSION 0.7
FIELDS x y z vp_x vp_y vp_z
SIZE 4 4 4 4 4 4
TYPE F F F F F F
COUNT 1 1 1 1 1 1
WIDTH 657
HEIGHT 1
VIEWPOINT 0 0 0 1 0 0 0
POINTS 657
DATA ascii
0.017534835 0.079820313 0.069795847 -0.19972187 0.52287865 -0.32315677
0.014767917 0.079297088 0.069360726 -0.19972187 0.52287865 -0.32315677
0.012191332 0.078391723 0.069267675 -0.19972187 0.52287865 -0.32315677
0.009773775 0.077153966 0.069470532 -0.19972187 0.52287865 -0.32315677
0.0075062928 0.075588353 0.069963269 -0.19972187 0.52287865 -0.32315677
0.027101893 0.078680895 0.069953248 -0.19972187 0.52287865 -0.32315677
0.023538116 0.079669923 0.068170629 -0.19972187 0.52287865 -0.32315677
0.020344377 0.079973631 0.067002662 -0.19972187 0.52287865 -0.32315677
0.017401505 0.079805814 0.066257179 -0.19972187 0.52287865 -0.32315677
0.014649135 0.079270914 0.065839641 -0.19972187 0.52287865 -0.32315677
0.012090878 0.078345247 0.065768525 -0.19972187 0.52287865 -0.32315677
0.0096849669 0.07710053 0.065978833 -0.19972187 0.52287865 -0.32315677
0.0074283853 0.075529128 0.066475309 -0.19972187 0.52287865 -0.32315677
0.0053358618 0.073584199 0.067296714 -0.19972187 0.52287865 -0.32315677
0.0034438523 0.071167998 0.068525635 -0.19972187 0.52287865 -0.32315677
0.031053569 0.076656163 0.069066726 -0.19972187 0.52287865 -0.32315677
0.026899336 0.078749143 0.066322833 -0.19972187 0.52287865 -0.32315677
0.023360465 0.079709016 0.064585701 -0.19972187 0.52287865 -0.32315677
0.020194082 0.079977088 0.063463092 -0.19972187 0.52287865 -0.32315677
0.017269114 0.079791412 0.06274341 -0.19972187 0.52287865 -0.32315677
0.014536895 0.079233095 0.062353391 -0.19972187 0.52287865 -0.32315677
0.011991113 0.07829909 0.062293399 -0.19972187 0.52287865 -0.32315677
0.009596766 0.077047467 0.06251096 -0.19972187 0.52287865 -0.32315677
0.0073510064 0.075470299 0.063011013 -0.19972187 0.52287865 -0.32315677
0.0052732769 0.07351052 0.063840814 -0.19972187 0.52287865 -0.32315677
0.0033910042 0.07109005 0.06506525 -0.19972187 0.52287865 -0.32315677
0.0017362109 0.068115987 0.06676136 -0.19972187 0.52287865 -0.32315677
0.00045572038 0.064227 0.069235191 -0.19972187 0.52287865 -0.32315677
0.030797016 0.076810524 0.06535887 -0.19972187 0.52287865 -0.32315677
0.026698276 0.078816891 0.062719248 -0.19972187 0.52287865 -0.32315677
0.023187151 0.079741769 0.061032008 -0.19972187 0.52287865 -0.32315677
0.02004485 0.079980515 0.059948556 -0.19972187 0.52287865 -0.32315677
0.017137647 0.079777107 0.059254166 -0.19972187 0.52287865 -0.32315677
0.014425424 0.079195537 0.058891047 -0.19972187 0.52287865 -0.32315677
0.011892028 0.078253247 0.058841936 -0.19972187 0.52287865 -0.32315677
0.0095091602 0.076994754 0.059066541 -0.19972187 0.52287865 -0.32315677
0.0072741481 0.075411871 0.059570014 -0.19972187 0.52287865 -0.32315677
0.0052111079 0.073437326 0.060407888 -0.19972187 0.52287865 -0.32315677
0.0033385057 0.071012624 0.061627757 -0.19972187 0.52287865 -0.32315677
0.001698733 0.068021923 0.063325517 -0.19972187 0.52287865 -0.32315677
0.00043630597 0.06410858 0.065800421 -0.19972187 0.52287865 -0.32315677
0.036997318 0.070517272 0.068146624 -0.19972187 0.52287865 -0.32315677
0.030542446 0.076963693 0.061679646 -0.19972187 0.52287865 -0.32315677
0.02649869 0.078884147 0.059142061 -0.19972187 0.52287865 -0.32315677
0.023022415 0.079759695 0.057516281 -0.19972187 0.52287865 -0.32315677
0.019896664 0.079983927 0.056458656 -0.19972187 0.52287865 -0.32315677
0.017007088 0.079762906 0.05578905 -0.19972187 0.52287865 -0.32315677
0.014314711 0.079158224 0.055452239 -0.19972187 0.52287865 -0.32315677
0.011793612 0.078207716 0.055413753 -0.19972187 0.52287865 -0.32315677
0.009422143 0.076942399 0.055645209 -0.19972187 0.52287865 -0.32315677
0.0071978015 0.075353831 0.056151945 -0.19972187 0.52287865 -0.32315677
0.0051493482 0.073364623 0.056997571 -0.19972187 0.52287865 -0.32315677
0.0032863514 0.070935704 0.058212802 -0.19972187 0.52287865 -0.32315677
0.0016614976 0.067928471 0.059911914 -0.19972187 0.52287865 -0.32315677
0.00041701496 0.063990913 0.0623875 -0.19972187 0.52287865 -0.32315677
0.00013579725 0.057724416 0.066807061 -0.19972187 0.52287865 -0.32315677
0.036182962 0.071718439 0.06353309 -0.19972187 0.52287865 -0.32315677
0.030289825 0.077115685 0.058028594 -0.19972187 0.52287865 -0.32315677
0.026300553 0.078950912 0.055590846 -0.19972187 0.52287865 -0.32315677
0.022858836 0.079777487 0.054025259 -0.19972187 0.52287865 -0.32315677
0.019749507 0.07998731 0.052992996 -0.19972187 0.52287865 -0.32315677
0.016877426 0.079748794 0.052347682 -0.19972187 0.52287865 -0.32315677
0.014204743 0.079121172 0.052036598 -0.19972187 0.52287865 -0.32315677
0.011695853 0.078162491 0.052008495 -0.19972187 0.52287865 -0.32315677
0.0093357023 0.076890394 0.052246604 -0.19972187 0.52287865 -0.32315677
0.0071219597 0.075296178 0.052756451 -0.19972187 0.52287865 -0.32315677
0.0050879917 0.073292382 0.053609516 -0.19972187 0.52287865 -0.32315677
0.0032345359 0.070859276 0.054820035 -0.19972187 0.52287865 -0.32315677
0.0016245011 0.067835614 0.056520205 -0.19972187 0.52287865 -0.32315677
0.00039784552 0.063873984 0.058996074 -0.19972187 0.52287865 -0.32315677
0.00017435238 0.057489242 0.063476466 -0.19972187 0.52287865 -0.32315677
0.035598125 0.072484665 0.05933265 -0.19972187 0.52287865 -0.32315677
0.03003912 0.077266529 0.054405246 -0.19972187 0.52287865 -0.32315677
0.026103841 0.079017192 0.05206519 -0.19972187 0.52287865 -0.32315677
0.022696396 0.079795159 0.050558545 -0.19972187 0.52287865 -0.32315677
0.01960405 0.079989284 0.049552366 -0.19972187 0.52287865 -0.32315677
0.016749416 0.0797332 0.048931021 -0.19972187 0.52287865 -0.32315677
0.01409551 0.079084367 0.048643757 -0.19972187 0.52287865 -0.32315677
0.011598742 0.078117557 0.048625797 -0.19972187 0.52287865 -0.32315677
0.0092498315 0.076838732 0.04887037 -0.19972187 0.52287865 -0.32315677
0.0070469538 0.075238161 0.049383793 -0.19972187 0.52287865 -0.32315677
0.0050270325 0.073220618 0.050243374 -0.19972187 0.52287865 -0.32315677
0.003183054 0.070783347 0.051449109 -0.19972187 0.52287865 -0.32315677
0.0015877398 0.067743346 0.053150054 -0.19972187 0.52287865 -0.32315677
0.00037879575 0.063757792 0.055625822 -0.19972187 0.52287865 -0.32315677
0.00021268647 0.057255417 0.060164962 -0.19972187 0.52287865 -0.32315677
0.03512349 0.073043428 0.055343132 -0.19972187 0.52287865 -0.32315677
0.029790301 0.077416234 0.050809156 -0.19972187 0.52287865 -0.32315677
0.025908533 0.079083003 0.048564684 -0.19972187 0.52287865 -0.32315677
0.022535076 0.079812713 0.047115762 -0.19972187 0.52287865 -0.32315677
0.019462451 0.079985455 0.046140023 -0.19972187 0.52287865 -0.32315677
0.016627776 0.07970643 0.045546725 -0.19972187 0.52287865 -0.32315677
0.013987 0.079047807 0.045273367 -0.19972187 0.52287865 -0.32315677
0.011502269 0.078072928 0.045265313 -0.19972187 0.52287865 -0.32315677
0.0091645215 0.076787397 0.045516159 -0.19972187 0.52287865 -0.32315677
0.0069765933 0.075171515 0.046040427 -0.19972187 0.52287865 -0.32315677
0.0049664634 0.073149309 0.046898808 -0.19972187 0.52287865 -0.32315677
0.0031319007 0.070707902 0.048099693 -0.19972187 0.52287865 -0.32315677
0.0015512099 0.067651659 0.049801126 -0.19972187 0.52287865 -0.32315677
0.0003598638 0.063642308 0.052276414 -0.19972187 0.52287865 -0.32315677
0.00025080287 0.057022922 0.056872264 -0.19972187 0.52287865 -0.32315677
0.034653246 0.073597021 0.051390555 -0.19972187 0.52287865 -0.32315677
0.029543338 0.077564828 0.047239881 -0.19972187 0.52287865 -0.32315677
0.025714606 0.079148352 0.045088932 -0.19972187 0.52287865 -0.32315677
0.022374863 0.07983014 0.043696534 -0.19972187 0.52287865 -0.32315677
0.019321807 0.079981647 0.042750649 -0.19972187 0.52287865 -0.32315677
0.01650694 0.079679839 0.042184811 -0.19972187 0.52287865 -0.32315677
0.013879201 0.079011478 0.041925073 -0.19972187 0.52287865 -0.32315677
0.011406423 0.078028582 0.041926701 -0.19972187 0.52287865 -0.32315677
0.0075523481 0.079999998 0.039511114 -0.19972187 0.52287865 -0.32315677
0.0046479814 0.079999998 0.038718943 -0.19972187 0.52287865 -0.32315677
0.0017574547 0.079999998 0.037932195 -0.19972187 0.52287865 -0.32315677
2.7755576e-17 0.077503651 0.039181724 -0.19972187 0.52287865 -0.32315677
0.001514908 0.067560546 0.046473101 -0.19972187 0.52287865 -0.32315677
0.00034104785 0.063527539 0.048947535 -0.19972187 0.52287865 -0.32315677
0.0002887049 0.05679173 0.053598087 -0.19972187 0.52287865 -0.32315677
0.034266092 0.073994406 0.047599077 -0.19972187 0.52287865 -0.32315677
0.029304771 0.077699549 0.043707512 -0.19972187 0.52287865 -0.32315677
0.025522036 0.079213239 0.041637536 -0.19972187 0.52287865 -0.32315677
0.022215733 0.079847455 0.040300485 -0.19972187 0.52287865 -0.32315677
0.019171162 0.079999998 0.039365772 -0.19972187 0.52287865 -0.32315677
0.033258382 0.045051079 0.067106195 -0.19972187 0.52287865 -0.32315677
0.013279321 0.079999998 0.037763543 -0.19972187 0.52287865 -0.32315677
0.010355167 0.079999998 0.036970727 -0.19972187 0.52287865 -0.32315677
0.0074452194 0.079999998 0.036183346 -0.19972187 0.52287865 -0.32315677
0.0045492528 0.079999998 0.035401329 -0.19972187 0.52287865 -0.32315677
0.001667046 0.079999998 0.034624603 -0.19972187 0.52287865 -0.32315677
0 0.077319309 0.036014035 -0.19972187 0.52287865 -0.32315677
0.0014788306 0.067469992 0.04316565 -0.19972187 0.52287865 -0.32315677
0.00032234617 0.063413471 0.045638867 -0.19972187 0.52287865 -0.32315677
0.00032639573 0.056561831 0.05034215 -0.19972187 0.52287865 -0.32315677
0.031438194 0.079080634 0.039999999 -0.19972187 0.52287865 -0.32315677
0.027954072 0.079999998 0.038431812 -0.19972187 0.52287865 -0.32315677
0.024964349 0.079999998 0.037621688 -0.19972187 0.52287865 -0.32315677
0.021989916 0.079999998 0.036817238 -0.19972187 0.52287865 -0.32315677
0.035267837 0.047126506 0.062678836 -0.19972187 0.52287865 -0.32315677
0.033160977 0.044958819 0.063580729 -0.19972187 0.52287865 -0.32315677
0.013155963 0.079999998 0.034437168 -0.19972187 0.52287865 -0.32315677
0.010240317 0.079999998 0.03365466 -0.19972187 0.52287865 -0.32315677
0.0073387949 0.079999998 0.032877453 -0.19972187 0.52287865 -0.32315677
0.004451172 0.079999998 0.032105476 -0.19972187 0.52287865 -0.32315677
0.001577229 0.079999998 0.031338662 -0.19972187 0.52287865 -0.32315677
0 0.077136017 0.032864444 -0.19972187 0.52287865 -0.32315677
0 0.070647337 0.037274379 -0.19972187 0.52287865 -0.32315677
0.000303757 0.063300081 0.042350106 -0.19972187 0.52287865 -0.32315677
0.00036387859 0.056333199 0.04710418 -0.19972187 0.52287865 -0.32315677
0.039868176 0.079999998 0.038328122 -0.19972187 0.52287865 -0.32315677
0.036824092 0.079999998 0.037505958 -0.19972187 0.52287865 -0.32315677
0.035944417 0.07592579 0.039999999 -0.19972187 0.52287865 -0.32315677
0.030784238 0.079999998 0.035879083 -0.19972187 0.52287865 -0.32315677
0.027787967 0.079999998 0.035074219 -0.19972187 0.52287865 -0.32315677
0.024807133 0.079999998 0.034274966 -0.19972187 0.52287865 -0.32315677
0.021841498 0.079999998 0.033481248 -0.19972187 0.52287865 -0.32315677
0.018890822 0.079999998 0.032692987 -0.19972187 0.52287865 -0.32315677
0.033064172 0.044867124 0.060077019 -0.19972187 0.52287865 -0.32315677
0.013033411 0.079999998 0.031132553 -0.19972187 0.52287865 -0.32315677
0.010126217 0.079999998 0.030360235 -0.19972187 0.52287865 -0.32315677
0.025552424 0.040797006 0.060818009 -0.19972187 0.52287865 -0.32315677
0.0043537286 0.079999998 0.028831044 -0.19972187 0.52287865 -0.32315677
0.0014879948 0.079999998 0.028074037 -0.19972187 0.52287865 -0.32315677
0 0.076953769 0.029732676 -0.19972187 0.52287865 -0.32315677
0 0.07047838 0.034093875 -0.19972187 0.52287865 -0.32315677
2.7755576e-17 0.063843049 0.038564272 -0.19972187 0.52287865 -0.32315677
0.00040115661 0.056105815 0.043883909 -0.19972187 0.52287865 -0.32315677
0.039666895 0.079999998 0.034948122 -0.19972187 0.52287865 -0.32315677
0.036632024 0.079999998 0.034137271 -0.19972187 0.52287865 -0.32315677
0.033613242 0.079999998 0.033332121 -0.19972187 0.52287865 -0.32315677
0.039880741 0.062174954 0.046848435 -0.19972187 0.52287865 -0.32315677
0.027622949 0.079999998 0.031738624 -0.19972187 0.52287865 -0.32315677
0.024650946 0.079999998 0.03095012 -0.19972187 0.52287865 -0.32315677
0.021694051 0.079999998 0.030167013 -0.19972187 0.52287865 -0.32315677
0.018752025 0.079999998 0.029389232 -0.19972187 0.52287865 -0.32315677
0.015824636 0.079999998 0.028616702 -0.19972187 0.52287865 -0.32315677
0.012911655 0.079999998 0.027849356 -0.19972187 0.52287865 -0.32315677
0.010012856 0.079999998 0.027087118 -0.19972187 0.52287865 -0.32315677
0.0071280147 0.079999998 0.026329925 -0.19972187 0.52287865 -0.32315677
0.004256913 0.079999998 0.025577707 -0.19972187 0.52287865 -0.32315677
0.0013993343 0.079999998 0.024830399 -0.19972187 0.52287865 -0.32315677
0 0.076772541 0.026618466 -0.19972187 0.52287865 -0.32315677
0.012775901 0.041360285 0.053581852 -0.19972187 0.52287865 -0.32315677
0 0.063688986 0.035351977 -0.19972187 0.52287865 -0.32315677
0 0.056902114 0.039884474 -0.19972187 0.52287865 -0.32315677
0.039466936 0.079999998 0.031590261 -0.19972187 0.52287865 -0.32315677
0.039999999 0.07332617 0.036124304 -0.19972187 0.52287865 -0.32315677
0.033431482 0.079999998 0.029996503 -0.19972187 0.52287865 -0.32315677
0.030437494 0.079999998 0.029207889 -0.19972187 0.52287865 -0.32315677
0.027459005 0.079999998 0.028424684 -0.19972187 0.52287865 -0.32315677
0.024495771 0.079999998 0.027646814 -0.19972187 0.52287865 -0.32315677
0.021547556 0.079999998 0.026874205 -0.19972187 0.52287865 -0.32315677
0.018614121 0.079999998 0.026106788 -0.19972187 0.52287865 -0.32315677
0.015695238 0.079999998 0.025344491 -0.19972187 0.52287865 -0.32315677
0.030530829 0.043029319 0.053616263 -0.19972187 0.52287865 -0.32315677
0.0099002197 0.079999998 0.023834981 -0.19972187 0.52287865 -0.32315677
0.0070236376 0.079999998 0.023087634 -0.19972187 0.52287865 -0.32315677
0.0041607153 0.079999998 0.022345137 -0.19972187 0.52287865 -0.32315677
0.0013112385 0.079999998 0.021607423 -0.19972187 0.52287865 -0.32315677
0 0.076592319 0.023521544 -0.19972187 0.52287865 -0.32315677
0 0.07014332 0.027786626 -0.19972187 0.52287865 -0.32315677
0 0.063535802 0.032157887 -0.19972187 0.52287865 -0.32315677
0 0.056763545 0.036639486 -0.19972187 0.52287865 -0.32315677
0.039268274 0.079999998 0.028254202 -0.19972187 0.52287865 -0.32315677
0.036251634 0.079999998 0.027465612 -0.19972187 0.52287865 -0.32315677
0.033250894 0.079999998 0.026682442 -0.19972187 0.52287865 -0.32315677
0.030265801 0.079999998 0.025904618 -0.19972187 0.52287865 -0.32315677
0.027296113 0.079999998 0.025132066 -0.19972187 0.52287865 -0.32315677
0.024341593 0.079999998 0.024364714 -0.19972187 0.52287865 -0.32315677
0.021401998 0.079999998 0.023602489 -0.19972187 0.52287865 -0.32315677
0.018477101 0.079999998 0.022845322 -0.19972187 0.52287865 -0.32315677
0.015566668 0.079999998 0.022093147 -0.19972187 0.52287865 -0.32315677
0.012670475 0.079999998 0.021345895 -0.19972187 0.52287865 -0.32315677
0.0097882999 0.079999998 0.020603498 -0.19972187 0.52287865 -0.32315677
0.0069199223 0.079999998 0.019865891 -0.19972187 0.52287865 -0.32315677
0.0040651262 0.079999998 0.019133011 -0.19972187 0.52287865 -0.32315677
0.0012236987 0.079999998 0.018404793 -0.19972187 0.52287865 -0.32315677
0 0.076413088 0.020441653 -0.19972187 0.52287865 -0.32315677
0 0.069977194 0.024659341 -0.19972187 0.52287865 -0.32315677
0 0.063383475 0.02898173 -0.19972187 0.52287865 -0.32315677
0 0.056625761 0.033412904 -0.19972187 0.52287865 -0.32315677
2.7755576e-17 0.049697571 0.037957162 -0.19972187 0.52287865 -0.32315677
0.039070889 0.079999998 0.024939606 -0.19972187 0.52287865 -0.32315677
0.036063276 0.079999998 0.024161967 -0.19972187 0.52287865 -0.32315677
0.033071462 0.079999998 0.023389606 -0.19972187 0.52287865 -0.32315677
0.030095205 0.079999998 0.022622455 -0.19972187 0.52287865 -0.32315677
0.027134262 0.079999998 0.021860439 -0.19972187 0.52287865 -0.32315677
0.024188394 0.079999998 0.02110349 -0.19972187 0.52287865 -0.32315677
0.021257365 0.079999998 0.020351538 -0.19972187 0.52287865 -0.32315677
0.018340947 0.079999998 0.019604515 -0.19972187 0.52287865 -0.32315677
0.015438909 0.079999998 0.018862354 -0.19972187 0.52287865 -0.32315677
0.012551028 0.079999998 0.018124988 -0.19972187 0.52287865 -0.32315677
0.0096770842 0.079999998 0.017392352 -0.19972187 0.52287865 -0.32315677
0.006816858 0.079999998 0.016664384 -0.19972187 0.52287865 -0.32315677
0.0039701359 0.079999998 0.015941018 -0.19972187 0.52287865 -0.32315677
0.0011367066 0.079999998 0.015222195 -0.19972187 0.52287865 -0.32315677
0 0.076234825 0.017378535 -0.19972187 0.52287865 -0.32315677
0 0.069811977 0.021549264 -0.19972187 0.52287865 -0.32315677
0 0.063231997 0.025823232 -0.19972187 0.52287865 -0.32315677
0 0.056488752 0.030204456 -0.19972187 0.52287865 -0.32315677
0 0.049575809 0.034697168 -0.19972187 0.52287865 -0.32315677
2.7755576e-17 0.042486392 0.039305817 -0.19972187 0.52287865 -0.32315677
0.039999999 0.077911355 0.023272255 -0.19972187 0.52287865 -0.32315677
0.035876114 0.079999998 0.020879332 -0.19972187 0.52287865 -0.32315677
0.03289317 0.079999998 0.020117665 -0.19972187 0.52287865 -0.32315677
0.029925689 0.079999998 0.019361071 -0.19972187 0.52287865 -0.32315677
0.026973432 0.079999998 0.018609481 -0.19972187 0.52287865 -0.32315677
0.02403616 0.079999998 0.017862825 -0.19972187 0.52287865 -0.32315677
0.021113642 0.079999998 0.017121036 -0.19972187 0.52287865 -0.32315677
0.018205646 0.079999998 0.016384047 -0.19972187 0.52287865 -0.32315677
0.01531195 0.079999998 0.015651792 -0.19972187 0.52287865 -0.32315677
0.012432327 0.079999998 0.014924208 -0.19972187 0.52287865 -0.32315677
0.0095665613 0.079999998 0.01420123 -0.19972187 0.52287865 -0.32315677
0.0067144353 0.079999998 0.013482798 -0.19972187 0.52287865 -0.32315677
0.0038757359 0.079999998 0.012768848 -0.19972187 0.52287865 -0.32315677
0.0010502535 0.079999998 0.01205932 -0.19972187 0.52287865 -0.32315677
0.015915884 0.040450253 0.041226495 -0.19972187 0.52287865 -0.32315677
0 0.06964767 0.018456137 -0.19972187 0.52287865 -0.32315677
0.010001066 0.040057015 0.039999999 -0.19972187 0.52287865 -0.32315677
0 0.056352504 0.027013866 -0.19972187 0.52287865 -0.32315677
2.7755576e-17 0.049454734 0.031455513 -0.19972187 0.52287865 -0.32315677
0 0.042381305 0.036011446 -0.19972187 0.52287865 -0.32315677
0.039999999 0.07754761 0.020264672 -0.19972187 0.52287865 -0.32315677
0.035690133 0.079999998 0.01761739 -0.19972187 0.52287865 -0.32315677
0.032715999 0.079999998 0.0168663 -0.19972187 0.52287865 -0.32315677
0.029757239 0.079999998 0.016120151 -0.19972187 0.52287865 -0.32315677
0.02681361 0.079999998 0.015378873 -0.19972187 0.52287865 -0.32315677
0.023884879 0.079999998 0.0146424 -0.19972187 0.52287865 -0.32315677
0.020970814 0.079999998 0.013910665 -0.19972187 0.52287865 -0.32315677
0.01807119 0.079999998 0.013183604 -0.19972187 0.52287865 -0.32315677
0.015185779 0.079999998 0.012461153 -0.19972187 0.52287865 -0.32315677
0.012314362 0.079999998 0.011743248 -0.19972187 0.52287865 -0.32315677
0.0094567221 0.079999998 0.011029826 -0.19972187 0.52287865 -0.32315677
0.024976209 0.040584248 0.039999999 -0.19972187 0.52287865 -0.32315677
0.022362811 0.039563008 0.039999999 -0.19972187 0.52287865 -0.32315677
0.00096433138 0.079999998 0.0089158667 -0.19972187 0.52287865 -0.32315677
0 0.075881183 0.011301616 -0.19972187 0.52287865 -0.32315677
0 0.069484241 0.015379702 -0.19972187 0.52287865 -0.32315677
0 0.062931523 0.019558156 -0.19972187 0.52287865 -0.32315677
0 0.056217007 0.023840867 -0.19972187 0.52287865 -0.32315677
0 0.049334332 0.028231924 -0.19972187 0.52287865 -0.32315677
0 0.042276815 0.032735638 -0.19972187 0.52287865 -0.32315677
2.7755576e-17 0.035037406 0.037356541 -0.19972187 0.52287865 -0.32315677
0.038486209 0.079999998 0.015121317 -0.19972187 0.52287865 -0.32315677
0.03550531 0.079999998 0.014375817 -0.19972187 0.52287865 -0.32315677
0.032539934 0.079999998 0.013635193 -0.19972187 0.52287865 -0.32315677
0.029589834 0.079999998 0.012899377 -0.19972187 0.52287865 -0.32315677
0.026654778 0.079999998 0.012168303 -0.19972187 0.52287865 -0.32315677
0.023734532 0.079999998 0.011441906 -0.19972187 0.52287865 -0.32315677
0.020828869 0.079999998 0.01072012 -0.19972187 0.52287865 -0.32315677
0.037535239 0.040123973 0.039999999 -0.19972187 0.52287865 -0.32315677
0.015060384 0.079999998 0.0092901299 -0.19972187 0.52287865 -0.32315677
0.032267481 0.038055982 0.039999999 -0.19972187 0.52287865 -0.32315677
0.0093475552 0.079999998 0.0078778379 -0.19972187 0.52287865 -0.32315677
0.006511475 0.079999998 0.0071781785 -0.19972187 0.52287865 -0.32315677
0.0036886693 0.079999998 0.0064827646 -0.19972187 0.52287865 -0.32315677
0.00087893195 0.079999998 0.0057915389 -0.19972187 0.52287865 -0.32315677
0 0.075705774 0.0082873208 -0.19972187 0.52287865 -0.32315677
0 0.069321685 0.012319711 -0.19972187 0.52287865 -0.32315677
0.013849028 0.030878725 0.039999999 -0.19972187 0.52287865 -0.32315677
0 0.056082249 0.020685192 -0.19972187 0.52287865 -0.32315677
0 0.049214594 0.025026131 -0.19972187 0.52287865 -0.32315677
0 0.042172905 0.029478114 -0.19972187 0.52287865 -0.32315677
0 0.034950182 0.034045599 -0.19972187 0.52287865 -0.32315677
0 0.027539046 0.0387333 -0.19972187 0.52287865 -0.32315677
0.038293745 0.079999998 0.011889319 -0.19972187 0.52287865 -0.32315677
0.032364953 0.079999998 0.010424035 -0.19972187 0.52287865 -0.32315677
0.02942346 0.079999998 0.0096984431 -0.19972187 0.52287865 -0.32315677
0.026496923 0.079999998 0.0089774653 -0.19972187 0.52287865 -0.32315677
0.023585109 0.079999998 0.0082610361 -0.19972187 0.52287865 -0.32315677
0.020687792 0.079999998 0.0075490945 -0.19972187 0.52287865 -0.32315677
0.017804746 0.079999998 0.0068415771 -0.19972187 0.52287865 -0.32315677
0.014935752 0.079999998 0.0061384235 -0.19972187 0.52287865 -0.32315677
0.012080592 0.079999998 0.0054395734 -0.19972187 0.52287865 -0.32315677
0.0092390506 0.079999998 0.0047449684 -0.19972187 0.52287865 -0.32315677
0.029055417 0.031348038 0.039999999 -0.19972187 0.52287865 -0.32315677
0.003595985 0.079999998 0.0033682603 -0.19972187 0.52287865 -0.32315677
0.00079404732 0.079999998 0.002686044 -0.19972187 0.52287865 -0.32315677
0 0.075531274 0.0052888128 -0.19972187 0.52287865 -0.32315677
0.01845869 0.027226422 0.039999999 -0.19972187 0.52287865 -0.32315677
0 0.062634297 0.013360584 -0.19972187 0.52287865 -0.32315677
0 0.055948224 0.017546581 -0.19972187 0.52287865 -0.32315677
0 0.049095511 0.021837864 -0.19972187 0.52287865 -0.32315677
0 0.042069569 0.026238598 -0.19972187 0.52287865 -0.32315677
0 0.034863442 0.030753171 -0.19972187 0.52287865 -0.32315677
0 0.027469812 0.035386212 -0.19972187 0.52287865 -0.32315677
0.038102463 0.079999998 0.0086771837 -0.19972187 0.52287865 -0.32315677
0.035139084 0.079999998 0.0079525439 -0.19972187 0.52287865 -0.32315677
0.032191042 0.079999998 0.0072325189 -0.19972187 0.52287865 -0.32315677
0.029258102 0.079999998 0.0065170438 -0.19972187 0.52287865 -0.32315677
0.026340028 0.079999998 0.0058060559 -0.19972187 0.52287865 -0.32315677
0.023436593 0.079999998 0.0050994921 -0.19972187 0.52287865 -0.32315677
0.020547571 0.079999998 0.0043972917 -0.19972187 0.52287865 -0.32315677
0.017672736 0.079999998 0.0036993937 -0.19972187 0.52287865 -0.32315677
0.014811873 0.079999998 0.0030057388 -0.19972187 0.52287865 -0.32315677
0.011964764 0.079999998 0.0023162686 -0.19972187 0.52287865 -0.32315677
0.0091311978 0.079999998 0.0016309256 -0.19972187 0.52287865 -0.32315677
0.006310964 0.079999998 0.00094965269 -0.19972187 0.52287865 -0.32315677
0.0035038556 0.079999998 0.00027239433 -0.19972187 0.52287865 -0.32315677
0.00095863157 0.079449885 0 -0.19972187 0.52287865 -0.32315677
0 0.075357683 0.0023058557 -0.19972187 0.52287865 -0.32315677
0 0.068999149 0.0062480718 -0.19972187 0.52287865 -0.32315677
0 0.062486861 0.010286478 -0.19972187 0.52287865 -0.32315677
0 0.055814911 0.014424777 -0.19972187 0.52287865 -0.32315677
0 0.048977073 0.018666858 -0.19972187 0.52287865 -0.32315677
0 0.0419668 0.02301682 -0.19972187 0.52287865 -0.32315677
2.7755576e-17 0.034777187 0.027478974 -0.19972187 0.52287865 -0.32315677
2.7755576e-17 0.027400967 0.032057874 -0.19972187 0.52287865 -0.32315677
0 0.019830467 0.036758311 -0.19972187 0.52287865 -0.32315677
0.037912343 0.079999998 0.0054846075 -0.19972187 0.52287865 -0.32315677
0.034957644 0.079999998 0.0047702333 -0.19972187 0.52287865 -0.32315677
0.039999999 0.064745955 0.015330669 -0.19972187 0.52287865 -0.32315677
0.039999999 0.058890656 0.018917715 -0.19972187 0.52287865 -0.32315677
0.026184082 0.079999998 0.0026537797 -0.19972187 0.52287865 -0.32315677
0.023288971 0.079999998 0.0019569783 -0.19972187 0.52287865 -0.32315677
0.020408191 0.079999998 0.0012644182 -0.19972187 0.52287865 -0.32315677
0.017541517 0.079999998 0.00057604013 -0.19972187 0.52287865 -0.32315677
0.014760557 0.079851642 0 -0.19972187 0.52287865 -0.32315677
0.012367059 0.07891687 0 -0.19972187 0.52287865 -0.32315677
0.0099743502 0.077983692 0 -0.19972187 0.52287865 -0.32315677
0.0075823539 0.077052079 0 -0.19972187 0.52287865 -0.32315677
0.0051909899 0.076121993 0 -0.19972187 0.52287865 -0.32315677
0.0028001796 0.075193405 0 -0.19972187 0.52287865 -0.32315677
0.00040984448 0.074266285 0 -0.19972187 0.52287865 -0.32315677
0 0.068839133 0.0032359413 -0.19972187 0.52287865 -0.32315677
0 0.062340204 0.0072284988 -0.19972187 0.52287865 -0.32315677
0 0.055682309 0.011319527 -0.19972187 0.52287865 -0.32315677
0 0.048859272 0.015512855 -0.19972187 0.52287865 -0.32315677
0 0.041864589 0.019812511 -0.19972187 0.52287865 -0.32315677
0 0.034691405 0.024222735 -0.19972187 0.52287865 -0.32315677
0 0.027332501 0.028748002 -0.19972187 0.52287865 -0.32315677
0 0.019780267 0.033393025 -0.19972187 0.52287865 -0.32315677
2.7755576e-17 0.012026664 0.038162779 -0.19972187 0.52287865 -0.32315677
0.039999999 0.075753674 0.0054318816 -0.19972187 0.52287865 -0.32315677
0.034777291 0.079999998 0.0016070763 -0.19972187 0.52287865 -0.32315677
0.031846371 0.079999998 0.00090722059 -0.19972187 0.52287865 -0.32315677
0.039999999 0.058559135 0.01586674 -0.19972187 0.52287865 -0.32315677
0.026364641 0.079341665 0 -0.19972187 0.52287865 -0.32315677
0.023949822 0.078395136 0 -0.19972187 0.52287865 -0.32315677
0.021536166 0.077450275 0 -0.19972187 0.52287865 -0.32315677
0.01912359 0.076507047 0 -0.19972187 0.52287865 -0.32315677
0.016712014 0.075565413 0 -0.19972187 0.52287865 -0.32315677
0.014301357 0.074625343 0 -0.19972187 0.52287865 -0.32315677
0.011891539 0.073686816 0 -0.19972187 0.52287865 -0.32315677
0.0094824797 0.072749779 0 -0.19972187 0.52287865 -0.32315677
0.0070740986 0.071814217 0 -0.19972187 0.52287865 -0.32315677
0.0046663149 0.070880093 0 -0.19972187 0.52287865 -0.32315677
0.0022590493 0.069947369 0 -0.19972187 0.52287865 -0.32315677
0 0.068679944 0.00023928801 -0.19972187 0.52287865 -0.32315677
0 0.062194306 0.0041864016 -0.19972187 0.52287865 -0.32315677
0 0.055550404 0.0082305837 -0.19972187 0.52287865 -0.32315677
0 0.048742097 0.0123756 -0.19972187 0.52287865 -0.32315677
0 0.041762926 0.01662541 -0.19972187 0.52287865 -0.32315677
0 0.034606088 0.020984184 -0.19972187 0.52287865 -0.32315677
0 0.027264414 0.02545632 -0.19972187 0.52287865 -0.32315677
0 0.019730346 0.030046454 -0.19972187 0.52287865 -0.32315677
0 0.011995908 0.034759473 -0.19972187 0.52287865 -0.32315677
0 0.0040526753 0.039600544 -0.19972187 0.52287865 -0.32315677
0.038156111 0.078841589 0 -0.19972187 0.52287865 -0.32315677
0.035717979 0.077883206 0 -0.19972187 0.52287865 -0.32315677
0.033281397 0.076926567 0 -0.19972187 0.52287865 -0.32315677
0.030846283 0.075971626 0 -0.19972187 0.52287865 -0.32315677
0.028412553 0.075018361 0 -0.19972187 0.52287865 -0.32315677
0.025980122 0.074066728 0 -0.19972187 0.52287865 -0.32315677
0.023548909 0.073116705 0 -0.19972187 0.52287865 -0.32315677
0.021118833 0.072168246 0 -0.19972187 0.52287865 -0.32315677
0.018689808 0.071221329 0 -0.19972187 0.52287865 -0.32315677
0.016261755 0.070275918 0 -0.19972187 0.52287865 -0.32315677
0.01383459 0.069331966 0 -0.19972187 0.52287865 -0.32315677
0.011408231 0.06838946 0 -0.19972187 0.52287865 -0.32315677
0.0089825969 0.067448363 0 -0.19972187 0.52287865 -0.32315677
0.0065576066 0.066508628 0 -0.19972187 0.52287865 -0.32315677
0.004133177 0.065570243 0 -0.19972187 0.52287865 -0.32315677
0.0017092271 0.064633161 0 -0.19972187 0.52287865 -0.32315677
0 0.062049158 0.0011599496 -0.19972187 0.52287865 -0.32315677
0 0.055419181 0.0051577021 -0.19972187 0.52287865 -0.32315677
0 0.048625536 0.0092548393 -0.19972187 0.52287865 -0.32315677
0 0.041661803 0.013455256 -0.19972187 0.52287865 -0.32315677
2.7755576e-17 0.03452123 0.017763054 -0.19972187 0.52287865 -0.32315677
2.7755576e-17 0.027196696 0.022182556 -0.19972187 0.52287865 -0.32315677
0 0.019680699 0.026718313 -0.19972187 0.52287865 -0.32315677
0 0.011965322 0.031375136 -0.19972187 0.52287865 -0.32315677
0 0.0040422035 0.0361581 -0.19972187 0.52287865 -0.32315677
0.03784778 0.073515989 0 -0.19972187 0.52287865 -0.32315677
0.035393156 0.07255438 0 -0.19972187 0.52287865 -0.32315677
0.03294006 0.071594417 0 -0.19972187 0.52287865 -0.32315677
0.030488409 0.070636064 0 -0.19972187 0.52287865 -0.32315677
0.028038118 0.069679283 0 -0.19972187 0.52287865 -0.32315677
0.025589101 0.068724036 0 -0.19972187 0.52287865 -0.32315677
0.023141276 0.06777031 0 -0.19972187 0.52287865 -0.32315677
0.020694558 0.066818044 0 -0.19972187 0.52287865 -0.32315677
0.018248862 0.065867223 0 -0.19972187 0.52287865 -0.32315677
0.015804105 0.06491781 0 -0.19972187 0.52287865 -0.32315677
0.013360205 0.063969769 0 -0.19972187 0.52287865 -0.32315677
0.010917078 0.063023068 0 -0.19972187 0.52287865 -0.32315677
0.0084746396 0.062077675 0 -0.19972187 0.52287865 -0.32315677
0.0060328073 0.061133556 0 -0.19972187 0.52287865 -0.32315677
0.0035914981 0.060190678 0 -0.19972187 0.52287865 -0.32315677
0.0011506293 0.05924901 0 -0.19972187 0.52287865 -0.32315677
0 0.055288635 0.00210064 -0.19972187 0.52287865 -0.32315677
0 0.048509579 0.0061503267 -0.19972187 0.52287865 -0.32315677
0 0.041561212 0.010301797 -0.19972187 0.52287865 -0.32315677
0 0.034436822 0.014559084 -0.19972187 0.52287865 -0.32315677
2.7755576e-17 0.027129345 0.018926434 -0.19972187 0.52287865 -0.32315677
2.7755576e-17 0.019631324 0.023408327 -0.19972187 0.52287865 -0.32315677
2.7755576e-17 0.011934906 0.028009487 -0.19972187 0.52287865 -0.32315677
2.7755576e-17 0.00403179 0.032734897 -0.19972187 0.52287865 -0.32315677
0.037534032 0.06812191 0 -0.19972187 0.52287865 -0.32315677
0.035062697 0.067156866 0 -0.19972187 0.52287865 -0.32315677
0.03259287 0.066193379 0 -0.19972187 0.52287865 -0.32315677
0.030124459 0.065231398 0 -0.19972187 0.52287865 -0.32315677
0.027657384 0.064270891 0 -0.19972187 0.52287865 -0.32315677
0.025191557 0.06331183 0 -0.19972187 0.52287865 -0.32315677
0.022726892 0.062354174 0 -0.19972187 0.52287865 -0.32315677
0.020263303 0.061397891 0 -0.19972187 0.52287865 -0.32315677
0.017800707 0.060442951 0 -0.19972187 0.52287865 -0.32315677
0.015339017 0.059489314 0 -0.19972187 0.52287865 -0.32315677
0.012878149 0.05853695 0 -0.19972187 0.52287865 -0.32315677
0.010418017 0.057585828 0 -0.19972187 0.52287865 -0.32315677
0.0079585379 0.056635909 0 -0.19972187 0.52287865 -0.32315677
0.0054996265 0.055687167 0 -0.19972187 0.52287865 -0.32315677
0.003041198 0.054739561 0 -0.19972187 0.52287865 -0.32315677
0.00058316829 0.053793062 0 -0.19972187 0.52287865 -0.32315677
0 0.048394226 0.0030618182 -0.19972187 0.52287865 -0.32315677
0 0.041461147 0.0071647814 -0.19972187 0.52287865 -0.32315677
0 0.034352861 0.011372015 -0.19972187 0.52287865 -0.32315677
0 0.027062351 0.015687695 -0.19972187 0.52287865 -0.32315677
2.7755576e-17 0.019582218 0.020116223 -0.19972187 0.52287865 -0.32315677
0 0.011904656 0.024662239 -0.19972187 0.52287865 -0.32315677
2.7755576e-17 0.0040214341 0.029330648 -0.19972187 0.52287865 -0.32315677
0.039704721 0.063627712 0 -0.19972187 0.52287865 -0.32315677
0.037214879 0.062657557 0 -0.19972187 0.52287865 -0.32315677
0.034726609 0.061688881 0 -0.19972187 0.52287865 -0.32315677
0.032239817 0.060721647 0 -0.19972187 0.52287865 -0.32315677
0.029754423 0.059755828 0 -0.19972187 0.52287865 -0.32315677
0.027270334 0.05879138 0 -0.19972187 0.52287865 -0.32315677
0.024787463 0.057828274 0 -0.19972187 0.52287865 -0.32315677
0.022305725 0.056866474 0 -0.19972187 0.52287865 -0.32315677
0.019825034 0.055905946 0 -0.19972187 0.52287865 -0.32315677
0.0173453 0.054946657 0 -0.19972187 0.52287865 -0.32315677
0.014866439 0.053988568 0 -0.19972187 0.52287865 -0.32315677
0.012388363 0.053031649 0 -0.19972187 0.52287865 -0.32315677
0.0099109858 0.052075867 0 -0.19972187 0.52287865 -0.32315677
0.0074342228 0.051121183 0 -0.19972187 0.52287865 -0.32315677
0.004957987 0.050167568 0 -0.19972187 0.52287865 -0.32315677
0.0024821924 0.049214989 0 -0.19972187 0.52287865 -0.32315677
6.7530445e-06 0.048263408 0 -0.19972187 0.52287865 -0.32315677
0 0.041361596 0.0040439623 -0.19972187 0.52287865 -0.32315677
0 0.03426934 0.0082015945 -0.19972187 0.52287865 -0.32315677
2.7755576e-17 0.026995713 0.012466075 -0.19972187 0.52287865 -0.32315677
0 0.019533372 0.01684173 -0.19972187 0.52287865 -0.32315677
0 0.011874571 0.021333121 -0.19972187 0.52287865 -0.32315677
0 0.0040111351 0.025945064 -0.19972187 0.52287865 -0.32315677
0.03939731 0.058095004 0 -0.19972187 0.52287865 -0.32315677
0.036890328 0.057121094 0 -0.19972187 0.52287865 -0.32315677
0.034384888 0.056148563 0 -0.19972187 0.52287865 -0.32315677
0.031880904 0.055177376 0 -0.19972187 0.52287865 -0.32315677
0.029378287 0.054207489 0 -0.19972187 0.52287865 -0.32315677
0.026876947 0.053238876 0 -0.19972187 0.52287865 -0.32315677
0.024376797 0.0522715 0 -0.19972187 0.52287865 -0.32315677
0.021877747 0.051305324 0 -0.19972187 0.52287865 -0.32315677
0.019379709 0.050340313 0 -0.19972187 0.52287865 -0.32315677
0.016882595 0.049376436 0 -0.19972187 0.52287865 -0.32315677
0.014386317 0.048413653 0 -0.19972187 0.52287865 -0.32315677
0.011890787 0.047451936 0 -0.19972187 0.52287865 -0.32315677
0.0093959169 0.046491243 0 -0.19972187 0.52287865 -0.32315677
0.00690162 0.045531549 0 -0.19972187 0.52287865 -0.32315677
0.0044078077 0.044572812 0 -0.19972187 0.52287865 -0.32315677
0.0019143928 0.043615002 0 -0.19972187 0.52287865 -0.32315677
0 0.04126256 0.00093909685 -0.19972187 0.52287865 -0.32315677
0 0.034186248 0.0050475718 -0.19972187 0.52287865 -0.32315677
0 0.026929421 0.0092613166 -0.19972187 0.52287865 -0.32315677
0 0.019484784 0.013584584 -0.19972187 0.52287865 -0.32315677
0 0.011844645 0.018021856 -0.19972187 0.52287865 -0.32315677
0 0.0040008919 0.022577863 -0.19972187 0.52287865 -0.32315677
0.039084744 0.052488506 0 -0.19972187 0.52287865 -0.32315677
0.036560379 0.051510621 0 -0.19972187 0.52287865 -0.32315677
0.034037534 0.05053401 0 -0.19972187 0.52287865 -0.32315677
0.031516116 0.049558632 0 -0.19972187 0.52287865 -0.32315677
0.028996035 0.048584454 0 -0.19972187 0.52287865 -0.32315677
0.026477203 0.047611441 0 -0.19972187 0.52287865 -0.32315677
0.023959527 0.046639554 0 -0.19972187 0.52287865 -0.32315677
0.021442918 0.045668762 0 -0.19972187 0.52287865 -0.32315677
0.018927287 0.044699024 0 -0.19972187 0.52287865 -0.32315677
0.016412543 0.043730315 0 -0.19972187 0.52287865 -0.32315677
0.013898597 0.042762589 0 -0.19972187 0.52287865 -0.32315677
0.011385359 0.041795816 0 -0.19972187 0.52287865 -0.32315677
0.00887274 0.040829964 0 -0.19972187 0.52287865 -0.32315677
0.0063606515 0.039864995 0 -0.19972187 0.52287865 -0.32315677
0.0038490035 0.038900875 0 -0.19972187 0.52287865 -0.32315677
0.001337707 0.037937567 0 -0.19972187 0.52287865 -0.32315677
0 0.034103584 0.0019097015 -0.19972187 0.52287865 -0.32315677
0 0.026863476 0.0060731685 -0.19972187 0.52287865 -0.32315677
0 0.019436453 0.010344525 -0.19972187 0.52287865 -0.32315677
0 0.01181488 0.014728176 -0.19972187 0.52287865 -0.32315677
0 0.0039907037 0.019228771 -0.19972187 0.52287865 -0.32315677
0.038767029 0.04680625 0 -0.19972187 0.52287865 -0.32315677
0.03622504 0.045824163 0 -0.19972187 0.52287865 -0.32315677
0.033684544 0.044843234 0 -0.19972187 0.52287865 -0.32315677
0.031145444 0.043863434 0 -0.19972187 0.52287865 -0.32315677
0.028607653 0.042884722 0 -0.19972187 0.52287865 -0.32315677
0.026071077 0.041907061 0 -0.19972187 0.52287865 -0.32315677
0.023535624 0.04093042 0 -0.19972187 0.52287865 -0.32315677
0.021001205 0.039954763 0 -0.19972187 0.52287865 -0.32315677
0.018467724 0.038980048 0 -0.19972187 0.52287865 -0.32315677
0.015935091 0.038006246 0 -0.19972187 0.52287865 -0.32315677
0.013403218 0.037033319 0 -0.19972187 0.52287865 -0.32315677
0.010872012 0.036061231 0 -0.19972187 0.52287865 -0.32315677
0.0083413813 0.035089951 0 -0.19972187 0.52287865 -0.32315677
0.0058112363 0.034119438 0 -0.19972187 0.52287865 -0.32315677
0.0032814855 0.03314966 0 -0.19972187 0.52287865 -0.32315677
0.00075203856 0.032180581 0 -0.19972187 0.52287865 -0.32315677
0 0.026797868 0.0029013797 -0.19972187 0.52287865 -0.32315677
0 0.01938837 0.0071212957 -0.19972187 0.52287865 -0.32315677
0 0.011785271 0.011451819 -0.19972187 0.52287865 -0.32315677
2.7755576e-17 0.00398057 0.015897516 -0.19972187 0.52287865 -0.32315677
0.03844418 0.04104621 0 -0.19972187 0.52287865 -0.32315677
0.035884317 0.040059675 0 -0.19972187 0.52287865 -0.32315677
0.033325914 0.03907419 0 -0.19972187 0.52287865 -0.32315677
0.030768881 0.038089719 0 -0.19972187 0.52287865 -0.32315677
0.028213123 0.037106223 0 -0.19972187 0.52287865 -0.32315677
0.025658546 0.036123667 0 -0.19972187 0.52287865 -0.32315677
0.023105057 0.035142016 0 -0.19972187 0.52287865 -0.32315677
0.020552564 0.034161229 0 -0.19972187 0.52287865 -0.32315677
0.018000972 0.033181276 0 -0.19972187 0.52287865 -0.32315677
0.015450188 0.032202117 0 -0.19972187 0.52287865 -0.32315677
0.012900121 0.031223718 0 -0.19972187 0.52287865 -0.32315677
0.010350676 0.030246044 0 -0.19972187 0.52287865 -0.32315677
0.0078017637 0.029269056 0 -0.19972187 0.52287865 -0.32315677
0.0052532894 0.028292719 0 -0.19972187 0.52287865 -0.32315677
0.002705161 0.027317001 0 -0.19972187 0.52287865 -0.32315677
0.00015728647 0.026341865 0 -0.19972187 0.52287865 -0.32315677
0 0.019340537 0.0039146445 -0.19972187 0.52287865 -0.32315677
0 0.011755816 0.0081925234 -0.19972187 0.52287865 -0.32315677
0 0.0039704898 0.012583829 -0.19972187 0.52287865 -0.32315677
0.038116202 0.035206281 0 -0.19972187 0.52287865 -0.32315677
0.035538208 0.034215052 0 -0.19972187 0.52287865 -0.32315677
0.032961641 0.033224758 0 -0.19972187 0.52287865 -0.32315677
0.030386413 0.032235358 0 -0.19972187 0.52287865 -0.32315677
0.027812425 0.03124682 0 -0.19972187 0.52287865 -0.32315677
0.025239583 0.030259104 0 -0.19972187 0.52287865 -0.32315677
0.022667792 0.029272174 0 -0.19972187 0.52287865 -0.32315677
0.020096956 0.028285995 0 -0.19972187 0.52287865 -0.32315677
0.01752698 0.027300527 0 -0.19972187 0.52287865 -0.32315677
0.014957773 0.026315736 0 -0.19972187 0.52287865 -0.32315677
0.012389237 0.025331585 0 -0.19972187 0.52287865 -0.32315677
0.009821279 0.024348037 0 -0.19972187 0.52287865 -0.32315677
0.0072538052 0.023365056 0 -0.19972187 0.52287865 -0.32315677
0.0046867211 0.022382608 0 -0.19972187 0.52287865 -0.32315677
0.0021199323 0.021400653 0 -0.19972187 0.52287865 -0.32315677
0 0.019292947 0.00072432251 -0.19972187 0.52287865 -0.32315677
0 0.011726513 0.004950033 -0.19972187 0.52287865 -0.32315677
2.7755576e-17 0.0039604623 0.0092874449 -0.19972187 0.52287865 -0.32315677
0.037783112 0.029284285 0 -0.19972187 0.52287865 -0.32315677
0.035186715 0.028288104 0 -0.19972187 0.52287865 -0.32315677
0.032591719 0.027292736 0 -0.19972187 0.52287865 -0.32315677
0.029998027 0.026298147 0 -0.19972187 0.52287865 -0.32315677
0.027405538 0.025304295 0 -0.19972187 0.52287865 -0.32315677
0.024814157 0.024311148 0 -0.19972187 0.52287865 -0.32315677
0.022223789 0.023318663 0 -0.19972187 0.52287865 -0.32315677
0.019634334 0.022326807 0 -0.19972187 0.52287865 -0.32315677
0.017045699 0.021335542 0 -0.19972187 0.52287865 -0.32315677
0.014457786 0.020344831 0 -0.19972187 0.52287865 -0.32315677
0.0118705 0.019354636 0 -0.19972187 0.52287865 -0.32315677
0.0092837438 0.018364921 0 -0.19972187 0.52287865 -0.32315677
0.0066974214 0.017375648 0 -0.19972187 0.52287865 -0.32315677
0.0041114385 0.016386783 0 -0.19972187 0.52287865 -0.32315677
0.0015256979 0.015398288 0 -0.19972187 0.52287865 -0.32315677
2.7755576e-17 0.011697359 0.0017240966 -0.19972187 0.52287865 -0.32315677
2.7755576e-17 0.0039504864 0.0060081054 -0.19972187 0.52287865 -0.32315677
0.037444908 0.023277968 0 -0.19972187 0.52287865 -0.32315677
0.034829844 0.022276565 0 -0.19972187 0.52287865 -0.32315677
0.032216143 0.021275852 0 -0.19972187 0.52287865 -0.32315677
0.029603707 0.020275794 0 -0.19972187 0.52287865 -0.32315677
0.02699244 0.019276351 0 -0.19972187 0.52287865 -0.32315677
0.024382241 0.018277485 0 -0.19972187 0.52287865 -0.32315677
0.02177301 0.017279159 0 -0.19972187 0.52287865 -0.32315677
0.019164653 0.016281337 0 -0.19972187 0.52287865 -0.32315677
0.016557071 0.015283979 0 -0.19972187 0.52287865 -0.32315677
0.013950164 0.014287048 0 -0.19972187 0.52287865 -0.32315677
0.011343837 0.013290507 0 -0.19972187 0.52287865 -0.32315677
0.0087379888 0.012294319 0 -0.19972187 0.52287865 -0.32315677
0.0061325231 0.011298445 0 -0.19972187 0.52287865 -0.32315677
0.0035273433 0.010302849 0 -0.19972187 0.52287865 -0.32315677
0.00092235103 0.0093074935 0 -0.19972187 0.52287865 -0.32315677
0 0.0039405613 0.0027455548 -0.19972187 0.52287865 -0.32315677
0.039737057 0.018192505 0 -0.19972187 0.52287865 -0.32315677
0.037101608 0.017184995 0 -0.19972187 0.52287865 -0.32315677
0.034467589 0.01617809 0 -0.19972187 0.52287865 -0.32315677
0.0318349 0.015171748 0 -0.19972187 0.52287865 -0.32315677
0.029203439 0.014165933 0 -0.19972187 0.52287865 -0.32315677
0.026573105 0.013160606 0 -0.19972187 0.52287865 -0.32315677
0.023943797 0.012155728 0 -0.19972187 0.52287865 -0.32315677
0.021315418 0.011151263 0 -0.19972187 0.52287865 -0.32315677
0.018687865 0.01014717 0 -0.19972187 0.52287865 -0.32315677
0.01606104 0.0091434121 0 -0.19972187 0.52287865 -0.32315677
0.013434841 0.0081399512 0 -0.19972187 0.52287865 -0.32315677
0.010809171 0.0071367496 0 -0.19972187 0.52287865 -0.32315677
0.0081839301 0.0061337678 0 -0.19972187 0.52287865 -0.32315677
0.005559017 0.0051309695 0 -0.19972187 0.52287865 -0.32315677
0.0029343336 0.0041283155 0 -0.19972187 0.52287865 -0.32315677
0.00030978041 0.0031257682 0 -0.19972187 0.52287865 -0.32315677
0.039407864 0.012016118 0 -0.19972187 0.52287865 -0.32315677
0.036753215 0.011002944 0 -0.19972187 0.52287865 -0.32315677
0.034099955 0.0099902432 0 -0.19972187 0.52287865 -0.32315677
0.031447984 0.0089779776 0 -0.19972187 0.52287865 -0.32315677
0.028797202 0.0079661077 0 -0.19972187 0.52287865 -0.32315677
0.026147507 0.006954594 0 -0.19972187 0.52287865 -0.32315677
0.023498794 0.0059433975 0 -0.19972187 0.52287865 -0.32315677
0.020850964 0.0049324799 0 -0.19972187 0.52287865 -0.32315677
0.018203914 0.0039218026 0 -0.19972187 0.52287865 -0.32315677
0.015557541 0.0029113258 0 -0.19972187 0.52287865 -0.32315677
0.012911745 0.0019010114 0 -0.19972187 0.52287865 -0.32315677
0.010266425 0.00089082069 0 -0.19972187 0.52287865 -0.32315677
0.039073884 0.0057484396 0 -0.19972187 0.52287865 -0.32315677
0.036399733 0.0047293026 0 -0.19972187 0.52287865 -0.32315677
0.033726931 0.0037105058 0 -0.19972187 0.52287865 -0.32315677
0.031055382 0.0026920089 0 -0.19972187 0.52287865 -0.32315677
0.028384978 0.0016737721 0 -0.19972187 0.52287865 -0.32315677
0.025715617 0.00065575627 0 -0.19972187 0.52287865 -0.32315677
