# .PCD v0.7 - Point Cloud Data file format
VERSION 0.7
FIELDS x y z vp_x vp_y vp_z
SIZE 4 4 4 4 4 4
TYPE F F F F F F
COUNT 1 1 1 1 1 1
WIDTH 656
HEIGHT 1
VIEWPOINT 0 0 0 1 0 0 0
POINTS 656
DATA ascii
0.035064641 0.073112704 0.06988401 0.19972187 0.52287865 -0.32315677
0.032995097 0.0751983 0.068886198 0.19972187 0.52287865 -0.32315677
0.030767556 0.076828249 0.068286449 0.19972187 0.52287865 -0.32315677
0.028415103 0.078111157 0.067991786 0.19972187 0.52287865 -0.32315677
0.025940819 0.079072125 0.067982055 0.19972187 0.52287865 -0.32315677
0.023339385 0.079713657 0.0682569 0.19972187 0.52287865 -0.32315677
0.020578615 0.079971798 0.068874799 0.19972187 0.52287865 -0.32315677
0.017645024 0.079832301 0.069850653 0.19972187 0.52287865 -0.32315677
0.038611092 0.067244343 0.069845781 0.19972187 0.52287865 -0.32315677
0.03695792 0.070575386 0.067784823 0.19972187 0.52287865 -0.32315677
0.0350505 0.073129356 0.066390611 0.19972187 0.52287865 -0.32315677
0.032986123 0.075206801 0.065406457 0.19972187 0.52287865 -0.32315677
0.030764259 0.076830231 0.064815387 0.19972187 0.52287865 -0.32315677
0.028418543 0.078109562 0.064524099 0.19972187 0.52287865 -0.32315677
0.025951585 0.079068497 0.064513817 0.19972187 0.52287865 -0.32315677
0.023358116 0.079709537 0.064784169 0.19972187 0.52287865 -0.32315677
0.020608619 0.07997521 0.065387428 0.19972187 0.52287865 -0.32315677
0.017683737 0.079836518 0.066351257 0.19972187 0.52287865 -0.32315677
0.014552369 0.07923831 0.067726649 0.19972187 0.52287865 -0.32315677
0.01107605 0.077875733 0.069785528 0.19972187 0.52287865 -0.32315677
0.03980545 0.062634148 0.069494821 0.19972187 0.52287865 -0.32315677
0.038591836 0.067292675 0.066323698 0.19972187 0.52287865 -0.32315677
0.036939513 0.070602536 0.064296991 0.19972187 0.52287865 -0.32315677
0.035036456 0.073145881 0.062922075 0.19972187 0.52287865 -0.32315677
0.032977216 0.075215243 0.061951399 0.19972187 0.52287865 -0.32315677
0.030760987 0.076832198 0.061368886 0.19972187 0.52287865 -0.32315677
0.028421959 0.078107983 0.061080933 0.19972187 0.52287865 -0.32315677
0.025962276 0.079064898 0.061070114 0.19972187 0.52287865 -0.32315677
0.023376714 0.07970544 0.061336048 0.19972187 0.52287865 -0.32315677
0.02063841 0.079978585 0.061924919 0.19972187 0.52287865 -0.32315677
0.017722173 0.079840697 0.062876865 0.19972187 0.52287865 -0.32315677
0.014604894 0.079256006 0.064225517 0.19972187 0.52287865 -0.32315677
0.011142912 0.077906668 0.066251658 0.19972187 0.52287865 -0.32315677
0.0071001374 0.075279586 0.069409817 0.19972187 0.52287865 -0.32315677
0.039791223 0.062720917 0.065939113 0.19972187 0.52287865 -0.32315677
0.038572717 0.067340657 0.062826864 0.19972187 0.52287865 -0.32315677
0.036921237 0.070629492 0.060833879 0.19972187 0.52287865 -0.32315677
0.035022512 0.073162302 0.059478011 0.19972187 0.52287865 -0.32315677
0.032968368 0.075223617 0.05852063 0.19972187 0.52287865 -0.32315677
0.030757736 0.076834157 0.057946559 0.19972187 0.52287865 -0.32315677
0.028425351 0.078106411 0.057661906 0.19972187 0.52287865 -0.32315677
0.025972892 0.079061314 0.057650562 0.19972187 0.52287865 -0.32315677
0.023395181 0.079701379 0.057912141 0.19972187 0.52287865 -0.32315677
0.020667983 0.079981923 0.058486909 0.19972187 0.52287865 -0.32315677
0.017760336 0.079844847 0.059427094 0.19972187 0.52287865 -0.32315677
0.014656632 0.079272598 0.060750294 0.19972187 0.52287865 -0.32315677
0.01120929 0.077937379 0.062743336 0.19972187 0.52287865 -0.32315677
0.0071926001 0.075349875 0.065835983 0.19972187 0.52287865 -0.32315677
0.039777096 0.062807061 0.062409222 0.19972187 0.52287865 -0.32315677
0.038553733 0.067388296 0.059354872 0.19972187 0.52287865 -0.32315677
0.036903087 0.070656262 0.057395097 0.19972187 0.52287865 -0.32315677
0.035008669 0.073178597 0.056058023 0.19972187 0.52287865 -0.32315677
0.032959584 0.07523194 0.055113766 0.19972187 0.52287865 -0.32315677
0.030754508 0.076836102 0.054548021 0.19972187 0.52287865 -0.32315677
0.02842872 0.078104854 0.054266628 0.19972187 0.52287865 -0.32315677
0.025983434 0.079057768 0.054254781 0.19972187 0.52287865 -0.32315677
0.023413518 0.079697341 0.054512069 0.19972187 0.52287865 -0.32315677
0.020695705 0.079981178 0.055076454 0.19972187 0.52287865 -0.32315677
0.017798232 0.079848967 0.056001548 0.19972187 0.52287865 -0.32315677
0.014705633 0.079283379 0.057304591 0.19972187 0.52287865 -0.32315677
0.011275194 0.077967867 0.059260152 0.19972187 0.52287865 -0.32315677
0.0072843833 0.075419649 0.062288426 0.19972187 0.52287865 -0.32315677
0.039763074 0.062892579 0.05890473 0.19972187 0.52287865 -0.32315677
0.038534887 0.0674356 0.055907335 0.19972187 0.52287865 -0.32315677
0.036885068 0.070682846 0.053980265 0.19972187 0.52287865 -0.32315677
0.034994915 0.073194787 0.052661732 0.19972187 0.52287865 -0.32315677
0.03295086 0.075240202 0.051730428 0.19972187 0.52287865 -0.32315677
0.030751303 0.076838024 0.051172893 0.19972187 0.52287865 -0.32315677
0.028432066 0.078103304 0.050894734 0.19972187 0.52287865 -0.32315677
0.025993902 0.079054236 0.050882388 0.19972187 0.52287865 -0.32315677
0.023431731 0.079693332 0.051135447 0.19972187 0.52287865 -0.32315677
0.020723237 0.079980433 0.051689617 0.19972187 0.52287865 -0.32315677
0.017835863 0.079853065 0.05259984 0.19972187 0.52287865 -0.32315677
0.014754289 0.079294086 0.053883012 0.19972187 0.52287865 -0.32315677
0.011340628 0.077998146 0.055801708 0.19972187 0.52287865 -0.32315677
0.0073754974 0.075488918 0.058766723 0.19972187 0.52287865 -0.32315677
0.039749153 0.062977493 0.055425227 0.19972187 0.52287865 -0.32315677
0.038516168 0.067482576 0.05248386 0.19972187 0.52287865 -0.32315677
0.036867168 0.070709243 0.050589003 0.19972187 0.52287865 -0.32315677
0.034981262 0.073210865 0.049288768 0.19972187 0.52287865 -0.32315677
0.032941896 0.075247608 0.048370916 0.19972187 0.52287865 -0.32315677
0.030748118 0.076839946 0.047820814 0.19972187 0.52287865 -0.32315677
0.028435389 0.078101769 0.047545847 0.19972187 0.52287865 -0.32315677
0.0260043 0.079050735 0.04753302 0.19972187 0.52287865 -0.32315677
0.023449818 0.079689354 0.047781914 0.19972187 0.52287865 -0.32315677
0.020750577 0.079979688 0.04832603 0.19972187 0.52287865 -0.32315677
0.017873237 0.079857133 0.049221594 0.19972187 0.52287865 -0.32315677
0.014802609 0.079304725 0.050485183 0.19972187 0.52287865 -0.32315677
0.011405603 0.078028202 0.052367609 0.19972187 0.52287865 -0.32315677
0.007465953 0.075557686 0.055270463 0.19972187 0.52287865 -0.32315677
0.039735328 0.063061804 0.051970318 0.19972187 0.52287865 -0.32315677
0.038497582 0.067529224 0.049084071 0.19972187 0.52287865 -0.32315677
0.036849394 0.070735462 0.047220938 0.19972187 0.52287865 -0.32315677
0.034967698 0.073226832 0.045938767 0.19972187 0.52287865 -0.32315677
0.032932825 0.075254507 0.045034558 0.19972187 0.52287865 -0.32315677
0.030744957 0.076841846 0.044491421 0.19972187 0.52287865 -0.32315677
0.028438689 0.078100242 0.044219613 0.19972187 0.52287865 -0.32315677
0.026014628 0.079047255 0.044206318 0.19972187 0.52287865 -0.32315677
0.023467783 0.079685397 0.044451106 0.19972187 0.52287865 -0.32315677
0.020777732 0.079978958 0.04498532 0.19972187 0.52287865 -0.32315677
0.017910354 0.079861172 0.045866448 0.19972187 0.52287865 -0.32315677
0.014850595 0.079315282 0.047110721 0.19972187 0.52287865 -0.32315677
0.011470123 0.078058057 0.048957471 0.19972187 0.52287865 -0.32315677
0.0075557614 0.075625956 0.051799234 0.19972187 0.52287865 -0.32315677
0.039721601 0.063145526 0.048539616 0.19972187 0.52287865 -0.32315677
0.03847912 0.067575559 0.045707595 0.19972187 0.52287865 -0.32315677
0.039999999 0.07955531 0.03673682 0.19972187 0.52287865 -0.32315677
0.037430421 0.079999998 0.037114449 0.19972187 0.52287865 -0.32315677
0.034689598 0.079999998 0.037857886 0.19972187 0.52287865 -0.32315677
0.031937562 0.079999998 0.038606178 0.19972187 0.52287865 -0.32315677
0.029174127 0.079999998 0.039359394 0.19972187 0.52287865 -0.32315677
0.026024885 0.079043798 0.040901922 0.19972187 0.52287865 -0.32315677
0.023485627 0.079681471 0.041142665 0.19972187 0.52287865 -0.32315677
0.020804705 0.079978228 0.041667137 0.19972187 0.52287865 -0.32315677
0.017947217 0.07986518 0.042534031 0.19972187 0.52287865 -0.32315677
0.014898255 0.079325773 0.043759264 0.19972187 0.52287865 -0.32315677
0.011534198 0.078087702 0.045570914 0.19972187 0.52287865 -0.32315677
0.0076449318 0.075693749 0.048352644 0.19972187 0.52287865 -0.32315677
0.039707966 0.063228667 0.045132738 0.19972187 0.52287865 -0.32315677
0.039999999 0.071966931 0.038865313 0.19972187 0.52287865 -0.32315677
0.039999999 0.079628386 0.033440303 0.19972187 0.52287865 -0.32315677
0.037411556 0.079999998 0.033871472 0.19972187 0.52287865 -0.32315677
0.034678232 0.079999998 0.034606289 0.19972187 0.52287865 -0.32315677
0.031933758 0.079999998 0.035345849 0.19972187 0.52287865 -0.32315677
0.029177947 0.079999998 0.036090214 0.19972187 0.52287865 -0.32315677
0.026410608 0.079999998 0.036839444 0.19972187 0.52287865 -0.32315677
0.023631552 0.079999998 0.037593607 0.19972187 0.52287865 -0.32315677
0.0067292368 0.045062784 0.06687104 0.19972187 0.52287865 -0.32315677
0.018037509 0.079999998 0.039116971 0.19972187 0.52287865 -0.32315677
0.015222128 0.079999998 0.039886307 0.19972187 0.52287865 -0.32315677
0.011597834 0.07811714 0.042207565 0.19972187 0.52287865 -0.32315677
0.0077334754 0.075761057 0.044930294 0.19972187 0.52287865 -0.32315677
0.039694428 0.063311234 0.041749306 0.19972187 0.52287865 -0.32315677
0.039999999 0.072063111 0.035525654 0.19972187 0.52287865 -0.32315677
0.039999999 0.079700962 0.030166438 0.19972187 0.52287865 -0.32315677
0.03739281 0.079999998 0.030649753 0.19972187 0.52287865 -0.32315677
0.034666941 0.079999998 0.031376045 0.19972187 0.52287865 -0.32315677
0.031929981 0.079999998 0.032106966 0.19972187 0.52287865 -0.32315677
0.029181741 0.079999998 0.032842577 0.19972187 0.52287865 -0.32315677
0.026422041 0.079999998 0.033582937 0.19972187 0.52287865 -0.32315677
0.023650687 0.079999998 0.034328111 0.19972187 0.52287865 -0.32315677
0.020867489 0.079999998 0.035078157 0.19972187 0.52287865 -0.32315677
0.018072249 0.079999998 0.035833139 0.19972187 0.52287865 -0.32315677
0.0027382348 0.049923968 0.061023854 0.19972187 0.52287865 -0.32315677
0.012444863 0.079999998 0.037358172 0.19972187 0.52287865 -0.32315677
0.0096123107 0.079999998 0.038128357 0.19972187 0.52287865 -0.32315677
0.0067669121 0.079999998 0.038903739 0.19972187 0.52287865 -0.32315677
0.0039084586 0.079999998 0.039684393 0.19972187 0.52287865 -0.32315677
0.039999999 0.064309143 0.037668265 0.19972187 0.52287865 -0.32315677
0.039999999 0.072158627 0.032209028 0.19972187 0.52287865 -0.32315677
0.039999999 0.079773046 0.02691487 0.19972187 0.52287865 -0.32315677
0.022790065 0.04021503 0.058944814 0.19972187 0.52287865 -0.32315677
0.019758167 0.040029299 0.059874497 0.19972187 0.52287865 -0.32315677
0.031926226 0.079999998 0.0288892 0.19972187 0.52287865 -0.32315677
0.029185511 0.079999998 0.029616151 0.19972187 0.52287865 -0.32315677
0.026433399 0.079999998 0.030347735 0.19972187 0.52287865 -0.32315677
0.023669697 0.079999998 0.031084016 0.19972187 0.52287865 -0.32315677
0.020894216 0.079999998 0.031825051 0.19972187 0.52287865 -0.32315677
0.018106762 0.079999998 0.032570906 0.19972187 0.52287865 -0.32315677
0.015307141 0.079999998 0.033321638 0.19972187 0.52287865 -0.32315677
0.012495152 0.079999998 0.034077317 0.19972187 0.52287865 -0.32315677
0.0096705947 0.079999998 0.034838006 0.19972187 0.52287865 -0.32315677
0.0068332637 0.079999998 0.035603773 0.19972187 0.52287865 -0.32315677
0.0039829528 0.079999998 0.036374681 0.19972187 0.52287865 -0.32315677
0.039999999 0.056358933 0.039870225 0.19972187 0.52287865 -0.32315677
0.039999999 0.064428687 0.03430745 0.19972187 0.52287865 -0.32315677
0.039999999 0.072253495 0.028915077 0.19972187 0.52287865 -0.32315677
0.039999999 0.079844646 0.023685252 0.19972187 0.52287865 -0.32315677
0.037355687 0.079999998 0.024268791 0.19972187 0.52287865 -0.32315677
0.034644578 0.079999998 0.024978302 0.19972187 0.52287865 -0.32315677
0.016862933 0.040252782 0.057000522 0.19972187 0.52287865 -0.32315677
0.029189259 0.079999998 0.026410602 0.19972187 0.52287865 -0.32315677
0.026444683 0.079999998 0.027133506 0.19972187 0.52287865 -0.32315677
0.023688583 0.079999998 0.027860988 0.19972187 0.52287865 -0.32315677
0.0067918166 0.045003507 0.056388564 0.19972187 0.52287865 -0.32315677
0.01814105 0.079999998 0.029329933 0.19972187 0.52287865 -0.32315677
0.0027887546 0.049828678 0.054135367 0.19972187 0.52287865 -0.32315677
0.012545112 0.079999998 0.030817928 0.19972187 0.52287865 -0.32315677
0.009728496 0.079999998 0.031569224 0.19972187 0.52287865 -0.32315677
0.0068991799 0.079999998 0.032325476 0.19972187 0.52287865 -0.32315677
0.0040569571 0.079999998 0.033086743 0.19972187 0.52287865 -0.32315677
0.001201619 0.079999998 0.033853095 0.19972187 0.52287865 -0.32315677
0.039999999 0.056503661 0.036463723 0.19972187 0.52287865 -0.32315677
0.039999999 0.064547412 0.030969705 0.19972187 0.52287865 -0.32315677
0.039999999 0.072347715 0.025643447 0.19972187 0.52287865 -0.32315677
0.039999999 0.079915762 0.020477237 0.19972187 0.52287865 -0.32315677
0.037337307 0.079999998 0.021108903 0.19972187 0.52287865 -0.32315677
0.034633502 0.079999998 0.021810157 0.19972187 0.52287865 -0.32315677
0.031918786 0.079999998 0.022515709 0.19972187 0.52287865 -0.32315677
0.02919298 0.079999998 0.023225613 0.19972187 0.52287865 -0.32315677
0.026455894 0.079999998 0.023939926 0.19972187 0.52287865 -0.32315677
0.023707349 0.079999998 0.024658704 0.19972187 0.52287865 -0.32315677
0.020947153 0.079999998 0.025382008 0.19972187 0.52287865 -0.32315677
0.018175116 0.079999998 0.026109897 0.19972187 0.52287865 -0.32315677
0.0028137765 0.049781483 0.050723594 0.19972187 0.52287865 -0.32315677
0.012594748 0.079999998 0.027579669 0.19972187 0.52287865 -0.32315677
0.0097860219 0.079999998 0.028321676 0.19972187 0.52287865 -0.32315677
0.00098235183 0.06625504 0.039999999 0.19972187 0.52287865 -0.32315677
0.0041304785 0.079999998 0.029820247 0.19972187 0.52287865 -0.32315677
0.0012832501 0.079999998 0.030576941 0.19972187 0.52287865 -0.32315677
0.039999999 0.048375659 0.03867998 0.19972187 0.52287865 -0.32315677
0.039999999 0.05664739 0.033080712 0.19972187 0.52287865 -0.32315677
0.039999999 0.064665332 0.027654668 0.19972187 0.52287865 -0.32315677
0.039999999 0.072441302 0.022393785 0.19972187 0.52287865 -0.32315677
0.039999999 0.079986408 0.017290488 0.19972187 0.52287865 -0.32315677
0.037319038 0.079999998 0.017968992 0.19972187 0.52287865 -0.32315677
0.034622498 0.079999998 0.018662075 0.19972187 0.52287865 -0.32315677
0.031915106 0.079999998 0.019359348 0.19972187 0.52287865 -0.32315677
0.029196678 0.079999998 0.020060861 0.19972187 0.52287865 -0.32315677
0.026467035 0.079999998 0.020766675 0.19972187 0.52287865 -0.32315677
0.023725994 0.079999998 0.021476842 0.19972187 0.52287865 -0.32315677
0.020973366 0.079999998 0.022191422 0.19972187 0.52287865 -0.32315677
0.018208964 0.079999998 0.022910472 0.19972187 0.52287865 -0.32315677
0.015432594 0.079999998 0.023634048 0.19972187 0.52287865 -0.32315677
0.0012660098 0.05306416 0.045498289 0.19972187 0.52287865 -0.32315677
0.0098431772 0.079999998 0.025095031 0.19972187 0.52287865 -0.32315677
0.0070297313 0.079999998 0.025832558 0.19972187 0.52287865 -0.32315677
0 0.07047838 0.034093875 0.19972187 0.52287865 -0.32315677
0.0013643525 0.079999998 0.027321996 0.19972187 0.52287865 -0.32315677
0.039999999 0.048545606 0.035250161 0.19972187 0.52287865 -0.32315677
0.039999999 0.056790136 0.029720815 0.19972187 0.52287865 -0.32315677
0.039999999 0.064782448 0.024361985 0.19972187 0.52287865 -0.32315677
0.039999999 0.072534271 0.019165751 0.19972187 0.52287865 -0.32315677
0.039979588 0.079999998 0.014167781 0.19972187 0.52287865 -0.32315677
0.037300885 0.079999998 0.01484875 0.19972187 0.52287865 -0.32315677
0.034611564 0.079999998 0.015533748 0.19972187 0.52287865 -0.32315677
0.031911444 0.079999998 0.016222827 0.19972187 0.52287865 -0.32315677
0.029200353 0.079999998 0.01691604 0.19972187 0.52287865 -0.32315677
0.026478106 0.079999998 0.017613443 0.19972187 0.52287865 -0.32315677
0.023744522 0.079999998 0.018315088 0.19972187 0.52287865 -0.32315677
0.020999415 0.079999998 0.019021034 0.19972187 0.52287865 -0.32315677
0.018242598 0.079999998 0.019731337 0.19972187 0.52287865 -0.32315677
0.015473879 0.079999998 0.020446055 0.19972187 0.52287865 -0.32315677
0.0012912452 0.053000823 0.042156119 0.19972187 0.52287865 -0.32315677
0 0.056902114 0.039884474 0.19972187 0.52287865 -0.32315677
0.00709438 0.079999998 0.02261728 0.19972187 0.52287865 -0.32315677
0.0042761038 0.079999998 0.02335025 0.19972187 0.52287865 -0.32315677
0 0.076772541 0.026618466 0.19972187 0.52287865 -0.32315677
0.039999999 0.040233832 0.037480231 0.19972187 0.52287865 -0.32315677
0.039999999 0.048714388 0.03184389 0.19972187 0.52287865 -0.32315677
0.039999999 0.056931913 0.026383674 0.19972187 0.52287865 -0.32315677
0.039999999 0.064898789 0.021091305 0.19972187 0.52287865 -0.32315677
0.039999999 0.072626621 0.015959004 0.19972187 0.52287865 -0.32315677
0.039954431 0.079999998 0.011074806 0.19972187 0.52287865 -0.32315677
0.037282847 0.079999998 0.011747876 0.19972187 0.52287865 -0.32315677
0.034600697 0.079999998 0.012424871 0.19972187 0.52287865 -0.32315677
0.031907808 0.079999998 0.013105842 0.19972187 0.52287865 -0.32315677
0.029204005 0.079999998 0.01379084 0.19972187 0.52287865 -0.32315677
0.026489107 0.079999998 0.014479919 0.19972187 0.52287865 -0.32315677
0.023762932 0.079999998 0.015173133 0.19972187 0.52287865 -0.32315677
0.021025298 0.079999998 0.015870536 0.19972187 0.52287865 -0.32315677
0.018276019 0.079999998 0.016572183 0.19972187 0.52287865 -0.32315677
0.015514904 0.079999998 0.017278133 0.19972187 0.52287865 -0.32315677
0.012741762 0.079999998 0.017988442 0.19972187 0.52287865 -0.32315677
0.0099563999 0.079999998 0.018703165 0.19972187 0.52287865 -0.32315677
0.0071586194 0.079999998 0.019422365 0.19972187 0.52287865 -0.32315677
0.0043482222 0.079999998 0.020146102 0.19972187 0.52287865 -0.32315677
0 0.076592319 0.023521544 0.19972187 0.52287865 -0.32315677
0.039999999 0.031703394 0.039773215 0.19972187 0.52287865 -0.32315677
0.039999999 0.040429931 0.034025997 0.19972187 0.52287865 -0.32315677
0.039999999 0.048882019 0.028460793 0.19972187 0.52287865 -0.32315677
0.039999999 0.057072744 0.023068933 0.19972187 0.52287865 -0.32315677
0.039999999 0.065014355 0.017842283 0.19972187 0.52287865 -0.32315677
0.039999999 0.072718367 0.012773218 0.19972187 0.52287865 -0.32315677
0.039929427 0.079999998 0.0080008199 0.19972187 0.52287865 -0.32315677
0.037264917 0.079999998 0.0086660739 0.19972187 0.52287865 -0.32315677
0.034589894 0.079999998 0.0093351481 0.19972187 0.52287865 -0.32315677
0.031904195 0.079999998 0.010008094 0.19972187 0.52287865 -0.32315677
0.014152265 0.040896513 0.040161151 0.19972187 0.52287865 -0.32315677
0.026500039 0.079999998 0.011365803 0.19972187 0.52287865 -0.32315677
0.023781229 0.079999998 0.012050672 0.19972187 0.52287865 -0.32315677
0.021051023 0.079999998 0.01273962 0.19972187 0.52287865 -0.32315677
0.018309232 0.079999998 0.013432703 0.19972187 0.52287865 -0.32315677
0.015555672 0.079999998 0.014129976 0.19972187 0.52287865 -0.32315677
0.012790152 0.079999998 0.014831495 0.19972187 0.52287865 -0.32315677
0.010012478 0.079999998 0.015537316 0.19972187 0.52287865 -0.32315677
0 0.063383475 0.02898173 0.19972187 0.52287865 -0.32315677
0.004419887 0.079999998 0.016962098 0.19972187 0.52287865 -0.32315677
0.00160457 0.079999998 0.017681176 0.19972187 0.52287865 -0.32315677
0.039999999 0.031928163 0.036269367 0.19972187 0.52287865 -0.32315677
0.039999999 0.040624686 0.030595386 0.19972187 0.52287865 -0.32315677
0.039999999 0.049048524 0.025100514 0.19972187 0.52287865 -0.32315677
0.039999999 0.057212632 0.01977624 0.19972187 0.52287865 -0.32315677
0.039999999 0.065129168 0.014614587 0.19972187 0.52287865 -0.32315677
0.039999999 0.072809525 0.0096080638 0.19972187 0.52287865 -0.32315677
0.03990458 0.079999998 0.0049455338 0.19972187 0.52287865 -0.32315677
0.037247095 0.079999998 0.0056030499 0.19972187 0.52287865 -0.32315677
0.017667044 0.034645196 0.039999999 0.19972187 0.52287865 -0.32315677
0.015086898 0.035628807 0.039999999 0.19972187 0.52287865 -0.32315677
0.029211242 0.079999998 0.0075981072 0.19972187 0.52287865 -0.32315677
0.026510905 0.079999998 0.0082707964 0.19972187 0.52287865 -0.32315677
0.023799414 0.079999998 0.008947405 0.19972187 0.52287865 -0.32315677
0.021076588 0.079999998 0.0096279867 0.19972187 0.52287865 -0.32315677
0.018342242 0.079999998 0.010312594 0.19972187 0.52287865 -0.32315677
0.015596189 0.079999998 0.011001281 0.19972187 0.52287865 -0.32315677
0.012838242 0.079999998 0.011694102 0.19972187 0.52287865 -0.32315677
0.010068208 0.079999998 0.012391113 0.19972187 0.52287865 -0.32315677
0 0.063231997 0.025823232 0.19972187 0.52287865 -0.32315677
0.0044911052 0.079999998 0.01379793 0.19972187 0.52287865 -0.32315677
0.0016836387 0.079999998 0.014507852 0.19972187 0.52287865 -0.32315677
0.039999999 0.02320002 0.038576346 0.19972187 0.52287865 -0.32315677
0.039999999 0.03215139 0.032789607 0.19972187 0.52287865 -0.32315677
0.039999999 0.040818121 0.027188027 0.19972187 0.52287865 -0.32315677
0.039999999 0.049213912 0.021762691 0.19972187 0.52287865 -0.32315677
0.039999999 0.0573516 0.016505253 0.19972187 0.52287865 -0.32315677
0.039999999 0.065243229 0.011407881 0.19972187 0.52287865 -0.32315677
0.039999999 0.072900094 0.0064632245 0.19972187 0.52287865 -0.32315677
0.039879877 0.079999998 0.0019086624 0.19972187 0.52287865 -0.32315677
0.037229385 0.079999998 0.0025585189 0.19972187 0.52287865 -0.32315677
0.034568492 0.079999998 0.003211993 0.19972187 0.52287865 -0.32315677
0.031897031 0.079999998 0.0038691331 0.19972187 0.52287865 -0.32315677
0.029214825 0.079999998 0.0045299879 0.19972187 0.52287865 -0.32315677
0.026521705 0.079999998 0.0051946077 0.19972187 0.52287865 -0.32315677
0.0055667921 0.03404979 0.039999999 0.19972187 0.52287865 -0.32315677
0.021101996 0.079999998 0.006535342 0.19972187 0.52287865 -0.32315677
0.018375048 0.079999998 0.0072115604 0.19972187 0.52287865 -0.32315677
0.015636457 0.079999998 0.007891749 0.19972187 0.52287865 -0.32315677
0.012886036 0.079999998 0.0085759619 0.19972187 0.52287865 -0.32315677
0.010123597 0.079999998 0.009264254 0.19972187 0.52287865 -0.32315677
0.007348944 0.079999998 0.0099566793 0.19972187 0.52287865 -0.32315677
0.0045618839 0.079999998 0.010653294 0.19972187 0.52287865 -0.32315677
0.0017622184 0.079999998 0.011354154 0.19972187 0.52287865 -0.32315677
0.039999999 0.023453152 0.035045732 0.19972187 0.52287865 -0.32315677
0.039999999 0.032373097 0.02933356 0.19972187 0.52287865 -0.32315677
0.039999999 0.041010257 0.023803554 0.19972187 0.52287865 -0.32315677
0.039999999 0.049378209 0.018446978 0.19972187 0.52287865 -0.32315677
0.039999999 0.057489663 0.013255635 0.19972187 0.52287865 -0.32315677
0.039999999 0.065356553 0.0082218433 0.19972187 0.52287865 -0.32315677
0.039999999 0.07299009 0.0033383863 0.19972187 0.52287865 -0.32315677
0.039304275 0.078473419 0 0.19972187 0.52287865 -0.32315677
0.036976188 0.079357959 0 0.19972187 0.52287865 -0.32315677
0.034557886 0.079999998 0.00017799035 0.19972187 0.52287865 -0.32315677
0.031893481 0.079999998 0.00082734739 0.19972187 0.52287865 -0.32315677
0.029218391 0.079999998 0.0014803174 0.19972187 0.52287865 -0.32315677
0.02653244 0.079999998 0.0021369492 0.19972187 0.52287865 -0.32315677
0.023835454 0.079999998 0.0027972918 0.19972187 0.52287865 -0.32315677
0.021127252 0.079999998 0.0034613952 0.19972187 0.52287865 -0.32315677
0.018407656 0.079999998 0.0041293101 0.19972187 0.52287865 -0.32315677
0.015676482 0.079999998 0.0048010885 0.19972187 0.52287865 -0.32315677
0 0.049334332 0.028231924 0.19972187 0.52287865 -0.32315677
0.010178646 0.079999998 0.0061564441 0.19972187 0.52287865 -0.32315677
0.0074116075 0.079999998 0.0068401285 0.19972187 0.52287865 -0.32315677
0.0046322299 0.079999998 0.0075278897 0.19972187 0.52287865 -0.32315677
0.0018403167 0.079999998 0.0082197841 0.19972187 0.52287865 -0.32315677
0.039999999 0.014520481 0.037366159 0.19972187 0.52287865 -0.32315677
0.039999999 0.023704549 0.03153931 0.19972187 0.52287865 -0.32315677
0.039999999 0.032593306 0.025900848 0.19972187 0.52287865 -0.32315677
0.039999999 0.041201115 0.020441612 0.19972187 0.52287865 -0.32315677
0.039999999 0.049541425 0.015153026 0.19972187 0.52287865 -0.32315677
0.039999999 0.057626829 0.010027054 0.19972187 0.52287865 -0.32315677
0.039999999 0.065469161 0.0050561526 0.19972187 0.52287865 -0.32315677
0.039999999 0.073079512 0.00023324072 0.19972187 0.52287865 -0.32315677
0.037770696 0.074293435 0 0.19972187 0.52287865 -0.32315677
0.035426959 0.075184159 0 0.19972187 0.52287865 -0.32315677
0.033083908 0.076076128 0 0.19972187 0.52287865 -0.32315677
0.03074147 0.076969355 0 0.19972187 0.52287865 -0.32315677
0.028399568 0.07786388 0 0.19972187 0.52287865 -0.32315677
0.02605813 0.07875973 0 0.19972187 0.52287865 -0.32315677
0.023717081 0.079656936 0 0.19972187 0.52287865 -0.32315677
0 0.027539046 0.0387333 0.19972187 0.52287865 -0.32315677
0.01844007 0.079999998 0.0010655572 0.19972187 0.52287865 -0.32315677
0.015716264 0.079999998 0.0017290103 0.19972187 0.52287865 -0.32315677
0.012980758 0.079999998 0.0023962713 0.19972187 0.52287865 -0.32315677
0.010233364 0.079999998 0.0030673922 0.19972187 0.52287865 -0.32315677
0.0074738921 0.079999998 0.0037424255 0.19972187 0.52287865 -0.32315677
0.0047021494 0.079999998 0.0044214246 0.19972187 0.52287865 -0.32315677
0.0019179407 0.079999998 0.005104444 0.19972187 0.52287865 -0.32315677
0.039999999 0.0053433618 0.03975343 0.19972187 0.52287865 -0.32315677
0.039999999 0.014803081 0.033807606 0.19972187 0.52287865 -0.32315677
0.039999999 0.023954239 0.028056702 0.19972187 0.52287865 -0.32315677
0.039999999 0.03281204 0.02249111 0.19972187 0.52287865 -0.32315677
0.039999999 0.041390713 0.017101848 0.19972187 0.52287865 -0.32315677
0.039999999 0.049703579 0.011880501 0.19972187 0.52287865 -0.32315677
0.039999999 0.057763118 0.0068191844 0.19972187 0.52287865 -0.32315677
0.039999999 0.065581053 0.0019104964 0.19972187 0.52287865 -0.32315677
0.038577575 0.069163427 0 0.19972187 0.52287865 -0.32315677
0.036217242 0.07005927 0 0.19972187 0.52287865 -0.32315677
0.033857651 0.070956267 0 0.19972187 0.52287865 -0.32315677
0.03149873 0.071854435 0 0.19972187 0.52287865 -0.32315677
0.029140394 0.072753809 0 0.19972187 0.52287865 -0.32315677
0.026782576 0.073654421 0 0.19972187 0.52287865 -0.32315677
0.024425194 0.074556284 0 0.19972187 0.52287865 -0.32315677
0.022068176 0.075459443 0 0.19972187 0.52287865 -0.32315677
0.019711446 0.076363929 0 0.19972187 0.52287865 -0.32315677
0.017354928 0.077269755 0 0.19972187 0.52287865 -0.32315677
0.014998545 0.07817696 0 0.19972187 0.52287865 -0.32315677
0.012642223 0.079085574 0 0.19972187 0.52287865 -0.32315677
0.010285887 0.079995632 0 0.19972187 0.52287865 -0.32315677
0.0075358041 0.079999998 0.00066328293 0.19972187 0.52287865 -0.32315677
0.0047716494 0.079999998 0.0013336096 0.19972187 0.52287865 -0.32315677
0.0019950976 0.079999998 0.0020078453 0.19972187 0.52287865 -0.32315677
0.039999999 0.0056587723 0.0361409 0.19972187 0.52287865 -0.32315677
0.039999999 0.01508375 0.030273363 0.19972187 0.52287865 -0.32315677
0.039999999 0.024202248 0.024597531 0.19972187 0.52287865 -0.32315677
0.039999999 0.033029325 0.019103987 0.19972187 0.52287865 -0.32315677
0.039999999 0.041579075 0.013783918 0.19972187 0.52287865 -0.32315677
0.039999999 0.049864687 0.0086290706 0.19972187 0.52287865 -0.32315677
0.039999999 0.05789854 0.0036317075 0.19972187 0.52287865 -0.32315677
0.039396998 0.063966215 0 0.19972187 0.52287865 -0.32315677
0.03701983 0.064867429 0 0.19972187 0.52287865 -0.32315677
0.03464346 0.065769702 0 0.19972187 0.52287865 -0.32315677
0.032267813 0.066673048 0 0.19972187 0.52287865 -0.32315677
0.029892808 0.067577511 0 0.19972187 0.52287865 -0.32315677
0.027518371 0.068483107 0 0.19972187 0.52287865 -0.32315677
0.025144426 0.06938988 0 0.19972187 0.52287865 -0.32315677
0.022770893 0.070297837 0 0.19972187 0.52287865 -0.32315677
0.020397697 0.071207032 0 0.19972187 0.52287865 -0.32315677
0.018024759 0.072117478 0 0.19972187 0.52287865 -0.32315677
0.015652005 0.073029213 0 0.19972187 0.52287865 -0.32315677
0.013279356 0.073942266 0 0.19972187 0.52287865 -0.32315677
0.010906735 0.074856661 0 0.19972187 0.52287865 -0.32315677
0.0085340673 0.075772427 0 0.19972187 0.52287865 -0.32315677
0.006161273 0.076689608 0 0.19972187 0.52287865 -0.32315677
0.0037882763 0.07760822 0 0.19972187 0.52287865 -0.32315677
0.0014150006 0.078528307 0 0.19972187 0.52287865 -0.32315677
0.039999999 0.0059720147 0.032553207 0.19972187 0.52287865 -0.32315677
0.039999999 0.015362518 0.02676305 0.19972187 0.52287865 -0.32315677
0.039999999 0.024448602 0.021161435 0.19972187 0.52287865 -0.32315677
0.039999999 0.03324518 0.015739126 0.19972187 0.52287865 -0.32315677
0.039999999 0.041766211 0.010487483 0.19972187 0.52287865 -0.32315677
0.039999999 0.050024766 0.005398408 0.19972187 0.52287865 -0.32315677
0.039999999 0.058033105 0.0004643088 0.19972187 0.52287865 -0.32315677
0.037834901 0.05960688 0 0.19972187 0.52287865 -0.32315677
0.035441503 0.060514681 0 0.19972187 0.52287865 -0.32315677
0.033048887 0.061423462 0 0.19972187 0.52287865 -0.32315677
0.030656969 0.062333256 0 0.19972187 0.52287865 -0.32315677
0.028265674 0.063244089 0 0.19972187 0.52287865 -0.32315677
0.025874924 0.064155996 0 0.19972187 0.52287865 -0.32315677
0.023484638 0.065069005 0 0.19972187 0.52287865 -0.32315677
0.021094739 0.065983146 0 0.19972187 0.52287865 -0.32315677
0.01870515 0.066898443 0 0.19972187 0.52287865 -0.32315677
0.016315792 0.067814939 0 0.19972187 0.52287865 -0.32315677
0.013926585 0.068732649 0 0.19972187 0.52287865 -0.32315677
0.011537452 0.069651611 0 0.19972187 0.52287865 -0.32315677
0.0091483155 0.070571862 0 0.19972187 0.52287865 -0.32315677
0.0067590955 0.071493417 0 0.19972187 0.52287865 -0.32315677
0.0043697148 0.07241632 0 0.19972187 0.52287865 -0.32315677
0.001980094 0.073340602 0 0.19972187 0.52287865 -0.32315677
0.039999999 0.006283123 0.028989961 0.19972187 0.52287865 -0.32315677
0.039999999 0.015639415 0.023276292 0.19972187 0.52287865 -0.32315677
0.039999999 0.024693329 0.017748052 0.19972187 0.52287865 -0.32315677
0.039999999 0.03345963 0.012396184 0.19972187 0.52287865 -0.32315677
0.039999999 0.041952148 0.0072122118 0.19972187 0.52287865 -0.32315677
0.039999999 0.050183833 0.0021881934 0.19972187 0.52287865 -0.32315677
0.03866265 0.054275807 0 0.19972187 0.52287865 -0.32315677
0.03625197 0.055189401 0 0.19972187 0.52287865 -0.32315677
0.033842128 0.056103874 0 0.19972187 0.52287865 -0.32315677
0.031433046 0.057019256 0 0.19972187 0.52287865 -0.32315677
0.029024644 0.057935581 0 0.19972187 0.52287865 -0.32315677
0.026616842 0.058852881 0 0.19972187 0.52287865 -0.32315677
0.024209559 0.05977118 0 0.19972187 0.52287865 -0.32315677
0.021802716 0.060690511 0 0.19972187 0.52287865 -0.32315677
0.019396234 0.061610907 0 0.19972187 0.52287865 -0.32315677
0.016990032 0.062532395 0 0.19972187 0.52287865 -0.32315677
0.014584031 0.063455008 0 0.19972187 0.52287865 -0.32315677
0.012178152 0.064378776 0 0.19972187 0.52287865 -0.32315677
0.0097723138 0.065303728 0 0.19972187 0.52287865 -0.32315677
0.0073664365 0.066229895 0 0.19972187 0.52287865 -0.32315677
0.004960442 0.067157313 0 0.19972187 0.52287865 -0.32315677
0.0025542493 0.068086013 0 0.19972187 0.52287865 -0.32315677
0.0001477787 0.069016017 0 0.19972187 0.52287865 -0.32315677
0.039999999 0.0065921303 0.025450779 0.19972187 0.52287865 -0.32315677
0.039999999 0.015914472 0.019812722 0.19972187 0.52287865 -0.32315677
0.039999999 0.024936453 0.014357029 0.19972187 0.52287865 -0.32315677
0.039999999 0.033672698 0.0090748183 0.19972187 0.52287865 -0.32315677
0.039999999 0.042136904 0.0039577764 0.19972187 0.52287865 -0.32315677
0.039503273 0.048872333 0 0.19972187 0.52287865 -0.32315677
0.037075043 0.049791992 0 0.19972187 0.52287865 -0.32315677
0.034647718 0.050712425 0 0.19972187 0.52287865 -0.32315677
0.032221213 0.051633667 0 0.19972187 0.52287865 -0.32315677
0.029795447 0.052555747 0 0.19972187 0.52287865 -0.32315677
0.027370339 0.053478695 0 0.19972187 0.52287865 -0.32315677
0.024945807 0.054402545 0 0.19972187 0.52287865 -0.32315677
0.022521771 0.055327326 0 0.19972187 0.52287865 -0.32315677
0.020098148 0.056253068 0 0.19972187 0.52287865 -0.32315677
0.017674858 0.057179801 0 0.19972187 0.52287865 -0.32315677
0.01525182 0.058107559 0 0.19972187 0.52287865 -0.32315677
0.012828952 0.05903637 0 0.19972187 0.52287865 -0.32315677
0.010406173 0.05996627 0 0.19972187 0.52287865 -0.32315677
0.0079834014 0.060897287 0 0.19972187 0.52287865 -0.32315677
0.0055605574 0.061829455 0 0.19972187 0.52287865 -0.32315677
0.0031375587 0.062762804 0 0.19972187 0.52287865 -0.32315677
0.00071432424 0.06369736 0 0.19972187 0.52287865 -0.32315677
0.039999999 0.0068990691 0.02193528 0.19972187 0.52287865 -0.32315677
0.039999999 0.016187716 0.016371978 0.19972187 0.52287865 -0.32315677
0.039999999 0.025177997 0.010988021 0.19972187 0.52287865 -0.32315677
0.039999999 0.033884402 0.0057746978 0.19972187 0.52287865 -0.32315677
0.039999999 0.042320494 0.00072385662 0.19972187 0.52287865 -0.32315677
0.037910923 0.04432052 0 0.19972187 0.52287865 -0.32315677
0.035465848 0.045247197 0 0.19972187 0.52287865 -0.32315677
0.033021651 0.046174575 0 0.19972187 0.52287865 -0.32315677
0.030578259 0.047102682 0 0.19972187 0.52287865 -0.32315677
0.028135585 0.048031554 0 0.19972187 0.52287865 -0.32315677
0.025693545 0.048961218 0 0.19972187 0.52287865 -0.32315677
0.023252057 0.04989171 0 0.19972187 0.52287865 -0.32315677
0.02081104 0.050823059 0 0.19972187 0.52287865 -0.32315677
0.018370409 0.051755298 0 0.19972187 0.52287865 -0.32315677
0.015930083 0.052688457 0 0.19972187 0.52287865 -0.32315677
0.013489977 0.053622566 0 0.19972187 0.52287865 -0.32315677
0.011050011 0.054557662 0 0.19972187 0.52287865 -0.32315677
0.0086101005 0.055493772 0 0.19972187 0.52287865 -0.32315677
0.0061701648 0.056430928 0 0.19972187 0.52287865 -0.32315677
0.0037301194 0.057369165 0 0.19972187 0.52287865 -0.32315677
0.0012898823 0.058308516 0 0.19972187 0.52287865 -0.32315677
0.039999999 0.0072039724 0.0184431 0.19972187 0.52287865 -0.32315677
0.039999999 0.016459174 0.012953708 0.19972187 0.52287865 -0.32315677
0.039999999 0.025417987 0.007640685 0.19972187 0.52287865 -0.32315677
0.039999999 0.034094762 0.0024954935 0.19972187 0.52287865 -0.32315677
0.038759816 0.038772993 0 0.19972187 0.52287865 -0.32315677
0.03629671 0.0397062 0 0.19972187 0.52287865 -0.32315677
0.033834554 0.040639997 0 0.19972187 0.52287865 -0.32315677
0.031373262 0.041574419 0 0.19972187 0.52287865 -0.32315677
0.028912751 0.042509492 0 0.19972187 0.52287865 -0.32315677
0.026452936 0.043445252 0 0.19972187 0.52287865 -0.32315677
0.023993732 0.04438173 0 0.19972187 0.52287865 -0.32315677
0.021535058 0.045318957 0 0.19972187 0.52287865 -0.32315677
0.019076826 0.046256967 0 0.19972187 0.52287865 -0.32315677
0.016618954 0.047195792 0 0.19972187 0.52287865 -0.32315677
0.014161357 0.048135463 0 0.19972187 0.52287865 -0.32315677
0.011703949 0.04907601 0 0.19972187 0.52287865 -0.32315677
0.0092466492 0.050017469 0 0.19972187 0.52287865 -0.32315677
0.0067893718 0.05095987 0 0.19972187 0.52287865 -0.32315677
0.0043320321 0.051903248 0 0.19972187 0.52287865 -0.32315677
0.001874547 0.052847635 0 0.19972187 0.52287865 -0.32315677
0.039999999 0.0075068716 0.014973874 0.19972187 0.52287865 -0.32315677
0.039999999 0.016728876 0.0095575601 0.19972187 0.52287865 -0.32315677
0.039999999 0.025656449 0.0043146876 0.19972187 0.52287865 -0.32315677
0.039621931 0.033147331 0 0.19972187 0.52287865 -0.32315677
0.037140511 0.034087371 0 0.19972187 0.52287865 -0.32315677
0.034660112 0.035027891 0 0.19972187 0.52287865 -0.32315677
0.032180641 0.035968918 0 0.19972187 0.52287865 -0.32315677
0.029702017 0.036910485 0 0.19972187 0.52287865 -0.32315677
0.027224153 0.03785263 0 0.19972187 0.52287865 -0.32315677
0.024746964 0.038795382 0 0.19972187 0.52287865 -0.32315677
0.022270361 0.039738767 0 0.19972187 0.52287865 -0.32315677
0.019794261 0.04068283 0 0.19972187 0.52287865 -0.32315677
0.017318578 0.041627593 0 0.19972187 0.52287865 -0.32315677
0.014843225 0.042573094 0 0.19972187 0.52287865 -0.32315677
0.012368116 0.043519363 0 0.19972187 0.52287865 -0.32315677
0.0098931668 0.044466436 0 0.19972187 0.52287865 -0.32315677
0.0074182907 0.045414343 0 0.19972187 0.52287865 -0.32315677
0.0049434029 0.046363119 0 0.19972187 0.52287865 -0.32315677
0.0024684167 0.047312796 0 0.19972187 0.52287865 -0.32315677
0.039999999 0.0078077978 0.011527245 0.19972187 0.52287865 -0.32315677
0.039999999 0.016996849 0.0061831935 0.19972187 0.52287865 -0.32315677
0.039999999 0.025893403 0.0010096993 0.19972187 0.52287865 -0.32315677
0.037997466 0.028388582 0 0.19972187 0.52287865 -0.32315677
0.03549853 0.02933613 0 0.19972187 0.52287865 -0.32315677
0.033000596 0.030284073 0 0.19972187 0.52287865 -0.32315677
0.030503573 0.031232441 0 0.19972187 0.52287865 -0.32315677
0.028007377 0.032181267 0 0.19972187 0.52287865 -0.32315677
0.02551192 0.033130582 0 0.19972187 0.52287865 -0.32315677
0.023017112 0.034080423 0 0.19972187 0.52287865 -0.32315677
0.020522868 0.035030823 0 0.19972187 0.52287865 -0.32315677
0.018029101 0.035981812 0 0.19972187 0.52287865 -0.32315677
0.015535722 0.036933426 0 0.19972187 0.52287865 -0.32315677
0.013042643 0.037885699 0 0.19972187 0.52287865 -0.32315677
0.010549778 0.038838658 0 0.19972187 0.52287865 -0.32315677
0.0080570402 0.039792348 0 0.19972187 0.52287865 -0.32315677
0.0055643413 0.040746789 0 0.19972187 0.52287865 -0.32315677
0.0030715943 0.041702025 0 0.19972187 0.52287865 -0.32315677
0.00057871203 0.042658083 0 0.19972187 0.52287865 -0.32315677
0.039999999 0.0081067812 0.0081028631 0.19972187 0.52287865 -0.32315677
0.039999999 0.017263118 0.0028302725 0.19972187 0.52287865 -0.32315677
0.038867798 0.022607619 0 0.19972187 0.52287865 -0.32315677
0.036350023 0.023562523 0 0.19972187 0.52287865 -0.32315677
0.033833329 0.024517696 0 0.19972187 0.52287865 -0.32315677
0.031317614 0.025473177 0 0.19972187 0.52287865 -0.32315677
0.028802795 0.026428996 0 0.19972187 0.52287865 -0.32315677
0.026288781 0.027385188 0 0.19972187 0.52287865 -0.32315677
0.023775483 0.028341785 0 0.19972187 0.52287865 -0.32315677
0.021262811 0.029298825 0 0.19972187 0.52287865 -0.32315677
0.018750679 0.030256337 0 0.19972187 0.52287865 -0.32315677
0.016238993 0.031214356 0 0.19972187 0.52287865 -0.32315677
0.013727669 0.032172918 0 0.19972187 0.52287865 -0.32315677
0.011216614 0.033132058 0 0.19972187 0.52287865 -0.32315677
0.0087057417 0.034091804 0 0.19972187 0.52287865 -0.32315677
0.0061949622 0.035052195 0 0.19972187 0.52287865 -0.32315677
0.0036841868 0.03601326 0 0.19972187 0.52287865 -0.32315677
0.0011733267 0.036975041 0 0.19972187 0.52287865 -0.32315677
0.039999999 0.0084038526 0.004700386 0.19972187 0.52287865 -0.32315677
0.039751727 0.016742196 0 0.19972187 0.52287865 -0.32315677
0.037214816 0.017704787 0 0.19972187 0.52287865 -0.32315677
0.034679051 0.018667527 0 0.19972187 0.52287865 -0.32315677
0.032144342 0.019630447 0 0.19972187 0.52287865 -0.32315677
0.0296106 0.020593582 0 0.19972187 0.52287865 -0.32315677
0.027077733 0.021556968 0 0.19972187 0.52287865 -0.32315677
0.024545649 0.022520639 0 0.19972187 0.52287865 -0.32315677
0.022014258 0.023484629 0 0.19972187 0.52287865 -0.32315677
0.019483469 0.024448972 0 0.19972187 0.52287865 -0.32315677
0.016953193 0.025413703 0 0.19972187 0.52287865 -0.32315677
0.014423336 0.026378857 0 0.19972187 0.52287865 -0.32315677
0.01189381 0.027344467 0 0.19972187 0.52287865 -0.32315677
0.009364523 0.028310569 0 0.19972187 0.52287865 -0.32315677
0.0068353857 0.029277196 0 0.19972187 0.52287865 -0.32315677
0.0043063066 0.030244384 0 0.19972187 0.52287865 -0.32315677
0.0017771953 0.031212168 0 0.19972187 0.52287865 -0.32315677
0.039999999 0.0086990409 0.001319474 0.19972187 0.52287865 -0.32315677
0.038093131 0.011760567 0 0.19972187 0.52287865 -0.32315677
0.035537984 0.012731214 0 0.19972187 0.52287865 -0.32315677
0.03298397 0.013701915 0 0.19972187 0.52287865 -0.32315677
0.030430995 0.014672704 0 0.19972187 0.52287865 -0.32315677
0.027878968 0.015643617 0 0.19972187 0.52287865 -0.32315677
0.025327796 0.016614689 0 0.19972187 0.52287865 -0.32315677
0.022777384 0.017585956 0 0.19972187 0.52287865 -0.32315677
0.020227643 0.01855745 0 0.19972187 0.52287865 -0.32315677
0.017678479 0.019529209 0 0.19972187 0.52287865 -0.32315677
0.015129797 0.020501265 0 0.19972187 0.52287865 -0.32315677
0.012581508 0.021473657 0 0.19972187 0.52287865 -0.32315677
0.010033519 0.02244642 0 0.19972187 0.52287865 -0.32315677
0.0074857371 0.023419585 0 0.19972187 0.52287865 -0.32315677
0.0049380702 0.024393192 0 0.19972187 0.52287865 -0.32315677
0.0023904266 0.025367273 0 0.19972187 0.52287865 -0.32315677
0.038985211 0.0057274154 0 0.19972187 0.52287865 -0.32315677
0.036410358 0.0067063291 0 0.19972187 0.52287865 -0.32315677
0.033836715 0.0076851645 0 0.19972187 0.52287865 -0.32315677
0.031264193 0.008663957 0 0.19972187 0.52287865 -0.32315677
0.028692691 0.0096427416 0 0.19972187 0.52287865 -0.32315677
0.026122116 0.010621556 0 0.19972187 0.52287865 -0.32315677
0.023552375 0.011600435 0 0.19972187 0.52287865 -0.32315677
0.020983372 0.012579414 0 0.19972187 0.52287865 -0.32315677
0.018415015 0.013558529 0 0.19972187 0.52287865 -0.32315677
0.015847206 0.014537816 0 0.19972187 0.52287865 -0.32315677
0.013279856 0.015517311 0 0.19972187 0.52287865 -0.32315677
0.010712868 0.016497049 0 0.19972187 0.52287865 -0.32315677
0.0081461463 0.017477069 0 0.19972187 0.52287865 -0.32315677
0.0055796006 0.018457402 0 0.19972187 0.52287865 -0.32315677
0.0030131345 0.019438086 0 0.19972187 0.52287865 -0.32315677
0.00044665483 0.020419158 0 0.19972187 0.52287865 -0.32315677
0.037296411 0.00059034803 0 0.19972187 0.52287865 -0.32315677
0.034702811 0.0015776858 0 0.19972187 0.52287865 -0.32315677
0.032110408 0.0025648449 0 0.19972187 0.52287865 -0.32315677
0.029519107 0.003551862 0 0.19972187 0.52287865 -0.32315677
0.026928809 0.0045387736 0 0.19972187 0.52287865 -0.32315677
0.024339419 0.005525616 0 0.19972187 0.52287865 -0.32315677
0.021750839 0.0065124263 0 0.19972187 0.52287865 -0.32315677
0.019162975 0.0074992403 0 0.19972187 0.52287865 -0.32315677
0.016575729 0.0084860958 0 0.19972187 0.52287865 -0.32315677
0.013989008 0.0094730277 0 0.19972187 0.52287865 -0.32315677
0.011402714 0.010460074 0 0.19972187 0.52287865 -0.32315677
0.0088167507 0.01144727 0 0.19972187 0.52287865 -0.32315677
0.0062310244 0.012434653 0 0.19972187 0.52287865 -0.32315677
0.0036454378 0.013422259 0 0.19972187 0.52287865 -0.32315677
0.0010598956 0.014410125 0 0.19972187 0.52287865 -0.32315677
0.022530232 0.00035395674 0 0.19972187 0.52287865 -0.32315677
0.019922538 0.0013488263 0 0.19972187 0.52287865 -0.32315677
0.017315535 0.0023436008 0 0.19972187 0.52287865 -0.32315677
0.014709124 0.0033383179 0 0.19972187 0.52287865 -0.32315677
0.012103209 0.0043330141 0 0.19972187 0.52287865 -0.32315677
0.0094976928 0.0053277276 0 0.19972187 0.52287865 -0.32315677
0.0068924753 0.0063224947 0 0.19972187 0.52287865 -0.32315677
0.0042874608 0.0073173535 0 0.19972187 0.52287865 -0.32315677
0.0016825512 0.0083123399 0 0.19972187 0.52287865 -0.32315677
0.007564093 0.00011838709 0 0.19972187 0.52287865 -0.32315677
0.0049393335 0.0011208419 0 0.19972187 0.52287865 -0.32315677
0.0023147422 0.0021232895 0 0.19972187 0.52287865 -0.32315677
