# .PCD v0.7 - Point Cloud Data file format
VERSION 0.7
FIELDS x y z vp_x vp_y vp_z
SIZE 4 4 4 4 4 4
TYPE F F F F F F
COUNT 1 1 1 1 1 1
WIDTH 447
HEIGHT 1
VIEWPOINT 0 0 0 1 0 0 0
POINTS 447
DATA ascii
0.036424767 0.07136178 0.069461249 0 0.64631355 0
0.033720974 0.074510746 0.069062382 0 0.64631355 0
0.031102439 0.076626755 0.068789765 0 0.64631355 0
0.028538195 0.078054205 0.068601713 0 0.64631355 0
0.02600733 0.079049714 0.068467177 0 0.64631355 0
0.023501394 0.079677999 0.068378322 0 0.64631355 0
0.021014238 0.079972334 0.068331085 0 0.64631355 0
0.018541483 0.079929829 0.068325803 0 0.64631355 0
0.016077628 0.079585344 0.06835825 0 0.64631355 0
0.013618991 0.078923799 0.068430223 0 0.64631355 0
0.011161905 0.07791546 0.068545304 0 0.64631355 0
0.0087026907 0.076497868 0.068711028 0 0.64631355 0
0.0062380712 0.074471973 0.068951383 0 0.64631355 0
0.003761308 0.071636207 0.069290675 0 0.64631355 0
0.0012640189 0.066930845 0.069856681 0 0.64631355 0
0.039387189 0.064822435 0.067692704 0 0.64631355 0
0.036424767 0.07136178 0.066912301 0 0.64631355 0
0.033720974 0.074510746 0.066528074 0 0.64631355 0
0.031102439 0.076626755 0.066265456 0 0.64631355 0
0.028538195 0.078054205 0.066084303 0 0.64631355 0
0.02600733 0.079049714 0.065954715 0 0.64631355 0
0.023501394 0.079677999 0.065869115 0 0.64631355 0
0.02101423 0.079972558 0.065823585 0 0.64631355 0
0.018541483 0.079929829 0.065818526 0 0.64631355 0
0.016077628 0.079585344 0.065849774 0 0.64631355 0
0.013618991 0.078923799 0.065919109 0 0.64631355 0
0.011161905 0.07791546 0.066029973 0 0.64631355 0
0.0087026907 0.076497868 0.066189609 0 0.64631355 0
0.0062380712 0.074471973 0.066421144 0 0.64631355 0
0.003761308 0.071636207 0.066747986 0 0.64631355 0
0.0012640189 0.066930845 0.067293227 0 0.64631355 0
0.039387189 0.064822435 0.065116636 0 0.64631355 0
0.036424767 0.07136178 0.064365938 0 0.64631355 0
0.033720974 0.074510746 0.06399633 0 0.64631355 0
0.031102439 0.076626755 0.063743711 0 0.64631355 0
0.028538195 0.078054205 0.063569449 0 0.64631355 0
0.02600733 0.079049714 0.063444786 0 0.64631355 0
0.023501394 0.079677999 0.063362442 0 0.64631355 0
0.02101423 0.079972558 0.063318655 0 0.64631355 0
0.018541483 0.079929829 0.063313782 0 0.64631355 0
0.016077628 0.079585344 0.063343845 0 0.64631355 0
0.013618991 0.078923799 0.063410543 0 0.64631355 0
0.011161905 0.07791546 0.063517183 0 0.64631355 0
0.0087026907 0.076497868 0.063670747 0 0.64631355 0
0.0062380712 0.074471973 0.063893467 0 0.64631355 0
0.003761308 0.071636207 0.064207874 0 0.64631355 0
0.0012640189 0.066930845 0.064732365 0 0.64631355 0
0.039387189 0.064822435 0.062543087 0 0.64631355 0
0.036424767 0.07136178 0.061822053 0 0.64631355 0
0.033720974 0.074510746 0.061467055 0 0.64631355 0
0.031102439 0.076626755 0.061224416 0 0.64631355 0
0.028538195 0.078054205 0.061057046 0 0.64631355 0
0.02600733 0.079049714 0.060937312 0 0.64631355 0
0.023501394 0.079677999 0.060858224 0 0.64631355 0
0.02101423 0.079972558 0.060816158 0 0.64631355 0
0.018541483 0.079929829 0.060811482 0 0.64631355 0
0.016077628 0.079585344 0.060840357 0 0.64631355 0
0.013618991 0.078923799 0.060904417 0 0.64631355 0
0.011161905 0.07791546 0.061006844 0 0.64631355 0
0.0087026907 0.076497868 0.061154339 0 0.64631355 0
0.0062380712 0.074471973 0.061368257 0 0.64631355 0
0.003761308 0.071636207 0.061670236 0 0.64631355 0
0.0012640189 0.066930845 0.062173996 0 0.64631355 0
0.039387189 0.064822435 0.05997194 0 0.64631355 0
0.036424767 0.07136178 0.059280552 0 0.64631355 0
0.033720974 0.074510746 0.058940146 0 0.64631355 0
0.031102439 0.076626755 0.058707483 0 0.64631355 0
0.028538195 0.078054205 0.058546994 0 0.64631355 0
0.02600733 0.079049714 0.05843218 0 0.64631355 0
0.023501394 0.079677999 0.058356341 0 0.64631355 0
0.02101423 0.079972558 0.058316007 0 0.64631355 0
0.018541483 0.079929829 0.058311522 0 0.64631355 0
0.016077628 0.079585344 0.058339212 0 0.64631355 0
0.013618991 0.078923799 0.058400638 0 0.64631355 0
0.011161905 0.07791546 0.058498856 0 0.64631355 0
0.0087026907 0.076497868 0.058640286 0 0.64631355 0
0.0062380712 0.074471973 0.058845412 0 0.64631355 0
0.003761308 0.071636207 0.059134975 0 0.64631355 0
0.0012640189 0.066930845 0.059618026 0 0.64631355 0
0.039387189 0.064822435 0.057403106 0 0.64631355 0
0.036424767 0.07136178 0.056741331 0 0.64631355 0
0.033720974 0.074510746 0.056415506 0 0.64631355 0
0.031102439 0.076626755 0.056192808 0 0.64631355 0
0.028538195 0.078054205 0.056039192 0 0.64631355 0
0.02600733 0.079049714 0.055929296 0 0.64631355 0
0.023501394 0.079677999 0.055856708 0 0.64631355 0
0.02101423 0.079972558 0.055818103 0 0.64631355 0
0.018541483 0.079929829 0.055813808 0 0.64631355 0
0.016077628 0.079585344 0.05584031 0 0.64631355 0
0.013618991 0.078923799 0.055899106 0 0.64631355 0
0.011161905 0.07791546 0.055993117 0 0.64631355 0
0.0087026907 0.076497868 0.056128487 0 0.64631355 0
0.0062380712 0.074471973 0.056324828 0 0.64631355 0
0.003761308 0.071636207 0.056601986 0 0.64631355 0
0.0012640189 0.066930845 0.057064351 0 0.64631355 0
0.039387189 0.064822435 0.054836474 0 0.64631355 0
0.036424767 0.07136178 0.054204289 0 0.64631355 0
0.033720974 0.074510746 0.053893033 0 0.64631355 0
0.031102439 0.076626755 0.053680293 0 0.64631355 0
0.028538195 0.078054205 0.053533547 0 0.64631355 0
0.02600733 0.079049714 0.053428564 0 0.64631355 0
0.023501394 0.079677999 0.053359222 0 0.64631355 0
0.02101423 0.079972558 0.053322341 0 0.64631355 0
0.018541483 0.079929829 0.05331824 0 0.64631355 0
0.016077628 0.079585344 0.053343557 0 0.64631355 0
0.013618991 0.078923799 0.053399723 0 0.64631355 0
0.011161905 0.07791546 0.053489532 0 0.64631355 0
0.0087026907 0.076497868 0.053618848 0 0.64631355 0
0.0062380712 0.074471973 0.053806409 0 0.64631355 0
0.003761308 0.071636207 0.054071177 0 0.64631355 0
0.0012640189 0.066930845 0.054512866 0 0.64631355 0
0.039387189 0.064822435 0.052271951 0 0.64631355 0
0.036424767 0.07136178 0.051669333 0 0.64631355 0
0.033720974 0.074510746 0.051372632 0 0.64631355 0
0.031102439 0.076626755 0.051169842 0 0.64631355 0
0.028538195 0.078054205 0.051029958 0 0.64631355 0
0.02600733 0.079049714 0.050929885 0 0.64631355 0
0.023501394 0.079677999 0.050863784 0 0.64631355 0
0.02101423 0.079972558 0.050828628 0 0.64631355 0
0.018541483 0.079929829 0.05082472 0 0.64631355 0
0.016077628 0.079585344 0.050848853 0 0.64631355 0
0.013618991 0.078923799 0.050902393 0 0.64631355 0
0.011161905 0.07791546 0.050988 0 0.64631355 0
0.0087026907 0.076497868 0.05111127 0 0.64631355 0
0.0062380712 0.074471973 0.051290061 0 0.64631355 0
0.003761308 0.071636207 0.051542446 0 0.64631355 0
0.0012640189 0.066930845 0.051963478 0 0.64631355 0
0.039387189 0.064822435 0.049709436 0 0.64631355 0
0.036424767 0.07136178 0.049136359 0 0.64631355 0
0.033720974 0.074510746 0.048854202 0 0.64631355 0
0.031102439 0.076626755 0.048661355 0 0.64631355 0
0.028538195 0.078054205 0.048528325 0 0.64631355 0
0.02600733 0.079049714 0.048433159 0 0.64631355 0
0.023501394 0.079677999 0.048370302 0 0.64631355 0
0.02101423 0.079972558 0.048336867 0 0.64631355 0
0.018541483 0.079929829 0.048333149 0 0.64631355 0
0.016077628 0.079585344 0.048356101 0 0.64631355 0
0.013618991 0.078923799 0.048407014 0 0.64631355 0
0.011161905 0.07791546 0.048488427 0 0.64631355 0
0.0087026907 0.076497868 0.048605654 0 0.64631355 0
0.0062380712 0.074471973 0.04877568 0 0.64631355 0
0.003761308 0.071636207 0.04901569 0 0.64631355 0
0.0012640189 0.066930845 0.049416084 0 0.64631355 0
0.039387189 0.064822435 0.047148827 0 0.64631355 0
0.036424767 0.07136178 0.046605267 0 0.64631355 0
0.033720974 0.074510746 0.046337646 0 0.64631355 0
0.031102439 0.076626755 0.046154734 0 0.64631355 0
0.028538195 0.078054205 0.046028558 0 0.64631355 0
0.02600733 0.079049714 0.045938294 0 0.64631355 0
0.023501394 0.079677999 0.045878671 0 0.64631355 0
0.02101423 0.079972558 0.045846961 0 0.64631355 0
0.018541483 0.079929829 0.045843434 0 0.64631355 0
0.016077628 0.079585344 0.045865204 0 0.64631355 0
0.013618991 0.078923799 0.045913495 0 0.64631355 0
0.011161905 0.07791546 0.045990713 0 0.64631355 0
0.0087026907 0.076497868 0.046101902 0 0.64631355 0
0.0062380712 0.074471973 0.046263169 0 0.64631355 0
0.003761308 0.071636207 0.046490818 0 0.64631355 0
0.0012640189 0.066930845 0.046870586 0 0.64631355 0
0.039387189 0.064822435 0.044590022 0 0.64631355 0
0.036424767 0.07136178 0.044075966 0 0.64631355 0
0.033720974 0.074510746 0.043822866 0 0.64631355 0
0.031102439 0.076626755 0.043649878 0 0.64631355 0
0.028538195 0.078054205 0.043530554 0 0.64631355 0
0.02600733 0.079049714 0.043445185 0 0.64631355 0
0.023501394 0.079677999 0.043388803 0 0.64631355 0
0.02101423 0.079972558 0.043358814 0 0.64631355 0
0.018541483 0.079929829 0.043355476 0 0.64631355 0
0.016077628 0.079585344 0.043376062 0 0.64631355 0
0.013618991 0.078923799 0.043421734 0 0.64631355 0
0.011161905 0.07791546 0.043494761 0 0.64631355 0
0.0087026907 0.076497868 0.043599915 0 0.64631355 0
0.0062380712 0.074471973 0.043752432 0 0.64631355 0
0.003761308 0.071636207 0.043967724 0 0.64631355 0
0.0012640189 0.066930845 0.044326883 0 0.64631355 0
0.039387189 0.064822435 0.042032927 0 0.64631355 0
0.036424767 0.07136178 0.041548349 0 0.64631355 0
0.033720974 0.074510746 0.041309766 0 0.64631355 0
0.031102439 0.076626755 0.041146699 0 0.64631355 0
0.028538195 0.078054205 0.041034214 0 0.64631355 0
0.02600733 0.079049714 0.040953744 0 0.64631355 0
0.023501394 0.079677999 0.040900592 0 0.64631355 0
0.02101423 0.079972558 0.040872324 0 0.64631355 0
0.018541483 0.079929829 0.04086918 0 0.64631355 0
0.016077628 0.079585344 0.040888585 0 0.64631355 0
0.013618991 0.078923799 0.040931638 0 0.64631355 0
0.011161905 0.07791546 0.041000474 0 0.64631355 0
0.0087026907 0.076497868 0.0410996 0 0.64631355 0
0.0062380712 0.074471973 0.041243367 0 0.64631355 0
0.003761308 0.071636207 0.041446317 0 0.64631355 0
0.0012640189 0.066930845 0.041784875 0 0.64631355 0
0.038359143 0.079999998 0.038447037 0 0.64631355 0
0.035877515 0.079999998 0.038436044 0 0.64631355 0
0.033397257 0.079999998 0.038425785 0 0.64631355 0
0.030918276 0.079999998 0.038416266 0 0.64631355 0
0.028440475 0.079999998 0.038407482 0 0.64631355 0
0.025963763 0.079999998 0.038399436 0 0.64631355 0
0.023488039 0.079999998 0.038392119 0 0.64631355 0
0.021013211 0.079999998 0.03838554 0 0.64631355 0
0.018539185 0.079999998 0.038379692 0 0.64631355 0
0.016065866 0.079999998 0.038374573 0 0.64631355 0
0.013593159 0.079999998 0.038370188 0 0.64631355 0
0.011120969 0.079999998 0.038366538 0 0.64631355 0
0.0086492039 0.079999998 0.038363613 0 0.64631355 0
0.0061777672 0.079999998 0.038361423 0 0.64631355 0
0.0037065663 0.079999998 0.038359962 0 0.64631355 0
0.0012355064 0.079999998 0.038359232 0 0.64631355 0
0.038359143 0.079999998 0.035959721 0 0.64631355 0
0.035877515 0.079999998 0.035949439 0 0.64631355 0
0.033397257 0.079999998 0.035939846 0 0.64631355 0
0.030918276 0.079999998 0.035930943 0 0.64631355 0
0.028440475 0.079999998 0.035922728 0 0.64631355 0
0.025963763 0.079999998 0.0359152 0 0.64631355 0
0.023488039 0.079999998 0.035908356 0 0.64631355 0
0.021013211 0.079999998 0.035902202 0 0.64631355 0
0.018539185 0.079999998 0.035896733 0 0.64631355 0
0.016065866 0.079999998 0.035891946 0 0.64631355 0
0.013593159 0.079999998 0.035887845 0 0.64631355 0
0.011120969 0.079999998 0.035884429 0 0.64631355 0
0.0086492039 0.079999998 0.035881698 0 0.64631355 0
0.0061777672 0.079999998 0.035879649 0 0.64631355 0
0.0037065663 0.079999998 0.035878282 0 0.64631355 0
0.0012355064 0.079999998 0.035877597 0 0.64631355 0
0.038359143 0.079999998 0.033473782 0 0.64631355 0
0.035877515 0.079999998 0.033464212 0 0.64631355 0
0.033397257 0.079999998 0.033455282 0 0.64631355 0
0.030918276 0.079999998 0.033446994 0 0.64631355 0
0.028440475 0.079999998 0.033439346 0 0.64631355 0
0.025963763 0.079999998 0.033432338 0 0.64631355 0
0.023488039 0.079999998 0.033425968 0 0.64631355 0
0.021013211 0.079999998 0.033420239 0 0.64631355 0
0.018539185 0.079999998 0.033415146 0 0.64631355 0
0.016065866 0.079999998 0.033410694 0 0.64631355 0
0.013593159 0.079999998 0.033406876 0 0.64631355 0
0.011120969 0.079999998 0.033403695 0 0.64631355 0
0.0086492039 0.079999998 0.03340115 0 0.64631355 0
0.0061777672 0.079999998 0.033399243 0 0.64631355 0
0.0037065663 0.079999998 0.033397973 0 0.64631355 0
0.0012355064 0.079999998 0.033397336 0 0.64631355 0
0.038359143 0.079999998 0.030989122 0 0.64631355 0
0.035877515 0.079999998 0.030980259 0 0.64631355 0
0.033397257 0.079999998 0.030971993 0 0.64631355 0
0.030918276 0.079999998 0.030964321 0 0.64631355 0
0.028440475 0.079999998 0.030957241 0 0.64631355 0
0.025963763 0.079999998 0.030950753 0 0.64631355 0
0.023488039 0.079999998 0.030944858 0 0.64631355 0
0.021013211 0.079999998 0.030939553 0 0.64631355 0
0.018539185 0.079999998 0.030934839 0 0.64631355 0
0.016065866 0.079999998 0.030930715 0 0.64631355 0
0.013593159 0.079999998 0.030927181 0 0.64631355 0
0.011120969 0.079999998 0.030924236 0 0.64631355 0
0.0086492039 0.079999998 0.030921882 0 0.64631355 0
0.0061777672 0.079999998 0.030920116 0 0.64631355 0
0.0037065663 0.079999998 0.030918937 0 0.64631355 0
0.0012355064 0.079999998 0.030918349 0 0.64631355 0
0.038359143 0.079999998 0.028505644 0 0.64631355 0
0.035877515 0.079999998 0.028497493 0 0.64631355 0
0.033397257 0.079999998 0.02848989 0 0.64631355 0
0.030918276 0.079999998 0.02848283 0 0.64631355 0
0.028440475 0.079999998 0.028476318 0 0.64631355 0
0.025963763 0.079999998 0.02847035 0 0.64631355 0
0.023488039 0.079999998 0.028464926 0 0.64631355 0
0.021013211 0.079999998 0.028460048 0 0.64631355 0
0.018539185 0.079999998 0.028455712 0 0.64631355 0
0.016065866 0.079999998 0.028451918 0 0.64631355 0
0.013593159 0.079999998 0.028448667 0 0.64631355 0
0.011120969 0.079999998 0.028445959 0 0.64631355 0
0.0086492039 0.079999998 0.028443793 0 0.64631355 0
0.0061777672 0.079999998 0.028442169 0 0.64631355 0
0.0037065663 0.079999998 0.028441085 0 0.64631355 0
0.0012355064 0.079999998 0.028440544 0 0.64631355 0
0.038359143 0.079999998 0.026023256 0 0.64631355 0
0.035877515 0.079999998 0.026015814 0 0.64631355 0
0.033397257 0.079999998 0.026008872 0 0.64631355 0
0.030918276 0.079999998 0.026002428 0 0.64631355 0
0.028440475 0.079999998 0.025996482 0 0.64631355 0
0.025963763 0.079999998 0.025991036 0 0.64631355 0
0.023488039 0.079999998 0.025986085 0 0.64631355 0
0.021013211 0.079999998 0.025981629 0 0.64631355 0
0.018539185 0.079999998 0.025977671 0 0.64631355 0
0.016065866 0.079999998 0.025974208 0 0.64631355 0
0.013593159 0.079999998 0.025971241 0 0.64631355 0
0.011120969 0.079999998 0.025968768 0 0.64631355 0
0.0086492039 0.079999998 0.02596679 0 0.64631355 0
0.0061777672 0.079999998 0.025965307 0 0.64631355 0
0.0037065663 0.079999998 0.025964318 0 0.64631355 0
0.0012355064 0.079999998 0.025963824 0 0.64631355 0
0.038359143 0.079999998 0.023541858 0 0.64631355 0
0.035877515 0.079999998 0.023535127 0 0.64631355 0
0.033397257 0.079999998 0.023528848 0 0.64631355 0
0.030918276 0.079999998 0.023523018 0 0.64631355 0
0.028440475 0.079999998 0.02351764 0 0.64631355 0
0.025963763 0.079999998 0.023512712 0 0.64631355 0
0.023488039 0.079999998 0.023508232 0 0.64631355 0
0.021013211 0.079999998 0.023504203 0 0.64631355 0
0.018539185 0.079999998 0.023500621 0 0.64631355 0
0.016065866 0.079999998 0.023497488 0 0.64631355 0
0.013593159 0.079999998 0.023494804 0 0.64631355 0
0.011120969 0.079999998 0.023492567 0 0.64631355 0
0.0086492039 0.079999998 0.023490777 0 0.64631355 0
0.0061777672 0.079999998 0.023489436 0 0.64631355 0
0.0037065663 0.079999998 0.023488542 0 0.64631355 0
0.0012355064 0.079999998 0.023488095 0 0.64631355 0
0.038359143 0.079999998 0.021061361 0 0.64631355 0
0.035877515 0.079999998 0.021055339 0 0.64631355 0
0.033397257 0.079999998 0.021049719 0 0.64631355 0
0.030918276 0.079999998 0.021044506 0 0.64631355 0
0.028440475 0.079999998 0.021039693 0 0.64631355 0
0.025963763 0.079999998 0.021035284 0 0.64631355 0
0.023488039 0.079999998 0.021031277 0 0.64631355 0
0.021013211 0.079999998 0.021027671 0 0.64631355 0
0.018539185 0.079999998 0.021024467 0 0.64631355 0
0.016065866 0.079999998 0.021021666 0 0.64631355 0
0.013593159 0.079999998 0.021019263 0 0.64631355 0
0.011120969 0.079999998 0.021017263 0 0.64631355 0
0.0086492039 0.079999998 0.021015663 0 0.64631355 0
0.0061777672 0.079999998 0.021014461 0 0.64631355 0
0.0037065663 0.079999998 0.021013662 0 0.64631355 0
0.0012355064 0.079999998 0.021013262 0 0.64631355 0
0.038359143 0.079999998 0.018581666 0 0.64631355 0
0.035877515 0.079999998 0.018576352 0 0.64631355 0
0.033397257 0.079999998 0.018571395 0 0.64631355 0
0.030918276 0.079999998 0.018566795 0 0.64631355 0
0.028440475 0.079999998 0.01856255 0 0.64631355 0
0.025963763 0.079999998 0.018558659 0 0.64631355 0
0.023488039 0.079999998 0.018555123 0 0.64631355 0
0.021013211 0.079999998 0.018551944 0 0.64631355 0
0.018539185 0.079999998 0.018549116 0 0.64631355 0
0.016065866 0.079999998 0.018546645 0 0.64631355 0
0.013593159 0.079999998 0.018544525 0 0.64631355 0
0.011120969 0.079999998 0.018542759 0 0.64631355 0
0.0086492039 0.079999998 0.018541347 0 0.64631355 0
0.0061777672 0.079999998 0.018540289 0 0.64631355 0
0.0037065663 0.079999998 0.018539581 0 0.64631355 0
0.0012355064 0.079999998 0.018539229 0 0.64631355 0
0.038359143 0.079999998 0.016102679 0 0.64631355 0
0.035877515 0.079999998 0.016098075 0 0.64631355 0
0.033397257 0.079999998 0.016093779 0 0.64631355 0
0.030918276 0.079999998 0.016089791 0 0.64631355 0
0.028440475 0.079999998 0.016086113 0 0.64631355 0
0.025963763 0.079999998 0.016082741 0 0.64631355 0
0.023488039 0.079999998 0.016079677 0 0.64631355 0
0.021013211 0.079999998 0.016076922 0 0.64631355 0
0.018539185 0.079999998 0.016074473 0 0.64631355 0
0.016065866 0.079999998 0.016072329 0 0.64631355 0
0.013593159 0.079999998 0.016070493 0 0.64631355 0
0.011120969 0.079999998 0.016068963 0 0.64631355 0
0.0086492039 0.079999998 0.01606774 0 0.64631355 0
0.0061777672 0.079999998 0.016066821 0 0.64631355 0
0.0037065663 0.079999998 0.01606621 0 0.64631355 0
0.0012355064 0.079999998 0.016065905 0 0.64631355 0
0.038359143 0.079999998 0.013624306 0 0.64631355 0
0.035877515 0.079999998 0.01362041 0 0.64631355 0
0.033397257 0.079999998 0.013616775 0 0.64631355 0
0.030918276 0.079999998 0.013613402 0 0.64631355 0
0.028440475 0.079999998 0.013610289 0 0.64631355 0
0.025963763 0.079999998 0.013607437 0 0.64631355 0
0.023488039 0.079999998 0.013604845 0 0.64631355 0
0.021013211 0.079999998 0.013602513 0 0.64631355 0
0.018539185 0.079999998 0.013600441 0 0.64631355 0
0.016065866 0.079999998 0.013598627 0 0.64631355 0
0.013593159 0.079999998 0.013597074 0 0.64631355 0
0.011120969 0.079999998 0.013595779 0 0.64631355 0
0.0086492039 0.079999998 0.013594744 0 0.64631355 0
0.0061777672 0.079999998 0.013593967 0 0.64631355 0
0.0037065663 0.079999998 0.01359345 0 0.64631355 0
0.0012355064 0.079999998 0.013593191 0 0.64631355 0
0.038359143 0.079999998 0.011146451 0 0.64631355 0
0.035877515 0.079999998 0.011143264 0 0.64631355 0
0.033397257 0.079999998 0.011140291 0 0.64631355 0
0.030918276 0.079999998 0.011137531 0 0.64631355 0
0.028440475 0.079999998 0.011134985 0 0.64631355 0
0.025963763 0.079999998 0.011132651 0 0.64631355 0
0.023488039 0.079999998 0.01113053 0 0.64631355 0
0.021013211 0.079999998 0.011128622 0 0.64631355 0
0.018539185 0.079999998 0.011126927 0 0.64631355 0
0.016065866 0.079999998 0.011125444 0 0.64631355 0
0.013593159 0.079999998 0.011124172 0 0.64631355 0
0.011120969 0.079999998 0.011123113 0 0.64631355 0
0.0086492039 0.079999998 0.011122266 0 0.64631355 0
0.0061777672 0.079999998 0.011121631 0 0.64631355 0
0.0037065663 0.079999998 0.011121208 0 0.64631355 0
0.0012355064 0.079999998 0.011120996 0 0.64631355 0
0.038359143 0.079999998 0.0086690225 0 0.64631355 0
0.035877515 0.079999998 0.0086665433 0 0.64631355 0
0.033397257 0.079999998 0.0086642308 0 0.64631355 0
0.030918276 0.079999998 0.0086620841 0 0.64631355 0
0.028440475 0.079999998 0.0086601041 0 0.64631355 0
0.025963763 0.079999998 0.008658289 0 0.64631355 0
0.023488039 0.079999998 0.0086566396 0 0.64631355 0
0.021013211 0.079999998 0.008655156 0 0.64631355 0
0.018539185 0.079999998 0.0086538373 0 0.64631355 0
0.016065866 0.079999998 0.0086526833 0 0.64631355 0
0.013593159 0.079999998 0.0086516952 0 0.64631355 0
0.011120969 0.079999998 0.008650871 0 0.64631355 0
0.0086492039 0.079999998 0.0086502125 0 0.64631355 0
0.0061777672 0.079999998 0.008649718 0 0.64631355 0
0.0037065663 0.079999998 0.0086493893 0 0.64631355 0
0.0012355064 0.079999998 0.0086492244 0 0.64631355 0
0.038359143 0.079999998 0.0061919228 0 0.64631355 0
0.035877515 0.079999998 0.0061901524 0 0.64631355 0
0.033397257 0.079999998 0.0061885007 0 0.64631355 0
0.030918276 0.079999998 0.0061869672 0 0.64631355 0
0.028440475 0.079999998 0.006185553 0 0.64631355 0
0.025963763 0.079999998 0.0061842566 0 0.64631355 0
0.023488039 0.079999998 0.0061830785 0 0.64631355 0
0.021013211 0.079999998 0.0061820187 0 0.64631355 0
0.018539185 0.079999998 0.0061810766 0 0.64631355 0
0.016065866 0.079999998 0.0061802529 0 0.64631355 0
0.013593159 0.079999998 0.0061795465 0 0.64631355 0
0.011120969 0.079999998 0.0061789583 0 0.64631355 0
0.0086492039 0.079999998 0.0061784876 0 0.64631355 0
0.0061777672 0.079999998 0.0061781351 0 0.64631355 0
0.0037065663 0.079999998 0.0061778994 0 0.64631355 0
0.0012355064 0.079999998 0.0061777821 0 0.64631355 0
0.038359143 0.079999998 0.0037150595 0 0.64631355 0
0.035877515 0.079999998 0.0037139971 0 0.64631355 0
0.033397257 0.079999998 0.0037130062 0 0.64631355 0
0.030918276 0.079999998 0.0037120862 0 0.64631355 0
0.028440475 0.079999998 0.0037112376 0 0.64631355 0
0.025963763 0.079999998 0.0037104597 0 0.64631355 0
0.023488039 0.079999998 0.003709753 0 0.64631355 0
0.021013211 0.079999998 0.003709117 0 0.64631355 0
0.018539185 0.079999998 0.0037085519 0 0.64631355 0
0.016065866 0.079999998 0.0037080576 0 0.64631355 0
0.013593159 0.079999998 0.0037076338 0 0.64631355 0
0.011120969 0.079999998 0.0037072808 0 0.64631355 0
0.0086492039 0.079999998 0.0037069987 0 0.64631355 0
0.0061777672 0.079999998 0.0037067868 0 0.64631355 0
0.0037065663 0.079999998 0.0037066457 0 0.64631355 0
0.0012355064 0.079999998 0.0037065751 0 0.64631355 0
0.038359143 0.079999998 0.0012383374 0 0.64631355 0
0.035877515 0.079999998 0.0012379833 0 0.64631355 0
0.033397257 0.079999998 0.001237653 0 0.64631355 0
0.030918276 0.079999998 0.0012373463 0 0.64631355 0
0.028440475 0.079999998 0.0012370634 0 0.64631355 0
0.025963763 0.079999998 0.0012368042 0 0.64631355 0
0.023488039 0.079999998 0.0012365687 0 0.64631355 0
0.021013211 0.079999998 0.0012363567 0 0.64631355 0
0.018539185 0.079999998 0.0012361683 0 0.64631355 0
0.016065866 0.079999998 0.0012360035 0 0.64631355 0
0.013593159 0.079999998 0.0012358623 0 0.64631355 0
0.011120969 0.079999998 0.0012357446 0 0.64631355 0
0.0086492039 0.079999998 0.0012356505 0 0.64631355 0
0.0061777672 0.079999998 0.00123558 0 0.64631355 0
0.0037065663 0.079999998 0.0012355329 0 0.64631355 0
0.0012355064 0.079999998 0.0012355094 0 0.64631355 0
