# .PCD v0.7 - Point Cloud Data file format
VERSION 0.7
FIELDS x y z vp_x vp_y vp_z
SIZE 4 4 4 4 4 4
TYPE F F F F F F
COUNT 1 1 1 1 1 1
WIDTH 658
HEIGHT 1
VIEWPOINT 0 0 0 1 0 0 0
POINTS 658
DATA ascii
0.014365806 0.041117307 0.07 0.19972187 0.52287865 0.32315677
0.012027063 0.042008832 0.07 0.19972187 0.52287865 0.32315677
0.0096875625 0.042898852 0.07 0.19972187 0.52287865 0.32315677
0.027977552 0.041946337 0.07 0.19972187 0.52287865 0.32315677
0.025660757 0.042837873 0.07 0.19972187 0.52287865 0.32315677
0.023343779 0.04372783 0.07 0.19972187 0.52287865 0.32315677
0.021026511 0.044616248 0.07 0.19972187 0.52287865 0.32315677
0.018708849 0.045503166 0.07 0.19972187 0.52287865 0.32315677
0.016390692 0.046388622 0.07 0.19972187 0.52287865 0.32315677
0.014071931 0.04727266 0.07 0.19972187 0.52287865 0.32315677
0.011752464 0.048155319 0.07 0.19972187 0.52287865 0.32315677
0.0094321854 0.049036637 0.07 0.19972187 0.52287865 0.32315677
0.0071109901 0.049916655 0.07 0.19972187 0.52287865 0.32315677
0.0047887736 0.05079541 0.07 0.19972187 0.52287865 0.32315677
0.0024654304 0.051672947 0.07 0.19972187 0.52287865 0.32315677
0.032166954 0.046279274 0.07 0.19972187 0.52287865 0.32315677
0.029869618 0.047164332 0.07 0.19972187 0.52287865 0.32315677
0.027572239 0.048047893 0.07 0.19972187 0.52287865 0.32315677
0.025274716 0.048930001 0.07 0.19972187 0.52287865 0.32315677
0.022976944 0.049810689 0.07 0.19972187 0.52287865 0.32315677
0.020678824 0.050690003 0.07 0.19972187 0.52287865 0.32315677
0.018380251 0.051567979 0.07 0.19972187 0.52287865 0.32315677
0.016081125 0.052444659 0.07 0.19972187 0.52287865 0.32315677
0.013781341 0.053320076 0.07 0.19972187 0.52287865 0.32315677
0.011480797 0.054194279 0.07 0.19972187 0.52287865 0.32315677
0.009179391 0.055067297 0.07 0.19972187 0.52287865 0.32315677
0.00687702 0.055939171 0.07 0.19972187 0.52287865 0.32315677
0.0045735808 0.056809943 0.07 0.19972187 0.52287865 0.32315677
0.0022689702 0.057679649 0.07 0.19972187 0.52287865 0.32315677
0.036285695 0.050536636 0.07 0.19972187 0.52287865 0.32315677
0.034007315 0.051415153 0.07 0.19972187 0.52287865 0.32315677
0.031729024 0.052292258 0.07 0.19972187 0.52287865 0.32315677
0.029450729 0.053167988 0.07 0.19972187 0.52287865 0.32315677
0.027172327 0.054042384 0.07 0.19972187 0.52287865 0.32315677
0.024893718 0.054915484 0.07 0.19972187 0.52287865 0.32315677
0.022614801 0.055787329 0.07 0.19972187 0.52287865 0.32315677
0.020335477 0.056657951 0.07 0.19972187 0.52287865 0.32315677
0.018055644 0.057527397 0.07 0.19972187 0.52287865 0.32315677
0.015775202 0.058395699 0.07 0.19972187 0.52287865 0.32315677
0.01349405 0.059262898 0.07 0.19972187 0.52287865 0.32315677
0.011212088 0.060129032 0.07 0.19972187 0.52287865 0.32315677
0.0089292163 0.060994133 0.07 0.19972187 0.52287865 0.32315677
0.0066453335 0.061858248 0.07 0.19972187 0.52287865 0.32315677
0.0043603377 0.062721409 0.07 0.19972187 0.52287865 0.32315677
0.0020741282 0.063583657 0.07 0.19972187 0.52287865 0.32315677
0.038075931 0.055592731 0.07 0.19972187 0.52287865 0.32315677
0.035816241 0.05646332 0.07 0.19972187 0.52287865 0.32315677
0.033556681 0.057332616 0.07 0.19972187 0.52287865 0.32315677
0.031297144 0.058200657 0.07 0.19972187 0.52287865 0.32315677
0.029037539 0.05906748 0.07 0.19972187 0.52287865 0.32315677
0.026777767 0.059933122 0.07 0.19972187 0.52287865 0.32315677
0.024517726 0.060797624 0.07 0.19972187 0.52287865 0.32315677
0.022257319 0.061661024 0.07 0.19972187 0.52287865 0.32315677
0.019996449 0.062523358 0.07 0.19972187 0.52287865 0.32315677
0.017735017 0.06338466 0.07 0.19972187 0.52287865 0.32315677
0.015472926 0.064244971 0.07 0.19972187 0.52287865 0.32315677
0.013210075 0.065104328 0.07 0.19972187 0.52287865 0.32315677
0.010946366 0.065962769 0.07 0.19972187 0.52287865 0.32315677
0.0086817006 0.066820331 0.07 0.19972187 0.52287865 0.32315677
0.006415979 0.067677051 0.07 0.19972187 0.52287865 0.32315677
0.0041491031 0.068532959 0.07 0.19972187 0.52287865 0.32315677
0.033429831 0.00093083153 0.039999999 0.19972187 0.52287865 0.32315677
0.030920416 0.0019031082 0.039999999 0.19972187 0.52287865 0.32315677
0.028411718 0.0028738549 0.039999999 0.19972187 0.52287865 0.32315677
0.025903629 0.0038431147 0.039999999 0.19972187 0.52287865 0.32315677
0.023396041 0.0048109293 0.039999999 0.19972187 0.52287865 0.32315677
0.039835915 0.060563385 0.07 0.19972187 0.52287865 0.32315677
0.037594605 0.061426193 0.07 0.19972187 0.52287865 0.32315677
0.035353456 0.062287822 0.07 0.19972187 0.52287865 0.32315677
0.033112366 0.063148305 0.07 0.19972187 0.52287865 0.32315677
0.030871244 0.064007692 0.07 0.19972187 0.52287865 0.32315677
0.028629988 0.064866006 0.07 0.19972187 0.52287865 0.32315677
0.026388507 0.065723293 0.07 0.19972187 0.52287865 0.32315677
0.0241467 0.066579588 0.07 0.19972187 0.52287865 0.32315677
0.021904474 0.067434929 0.07 0.19972187 0.52287865 0.32315677
0.01966173 0.068289347 0.07 0.19972187 0.52287865 0.32315677
0.017418373 0.069142878 0.07 0.19972187 0.52287865 0.32315677
0.015174306 0.069995575 0.07 0.19972187 0.52287865 0.32315677
0.012929433 0.070847452 0.07 0.19972187 0.52287865 0.32315677
0.010683656 0.071698561 0.07 0.19972187 0.52287865 0.32315677
0.0084368782 0.072548933 0.07 0.19972187 0.52287865 0.32315677
0.0061890036 0.073398598 0.07 0.19972187 0.52287865 0.32315677
0.039999999 0.0037116446 0.039562993 0.19972187 0.52287865 0.32315677
0.03775499 0.0054776785 0.039999999 0.19972187 0.52287865 0.32315677
0.035264809 0.0064422125 0.039999999 0.19972187 0.52287865 0.32315677
0.032775473 0.0074053043 0.039999999 0.19972187 0.52287865 0.32315677
0.030286878 0.0083669946 0.039999999 0.19972187 0.52287865 0.32315677
0.027798919 0.0093273269 0.039999999 0.19972187 0.52287865 0.32315677
0.025311489 0.010286341 0.039999999 0.19972187 0.52287865 0.32315677
0.039956883 0.060795564 0.067423552 0.19972187 0.52287865 0.32315677
0.039137721 0.065721013 0.069675587 0.19972187 0.52287865 0.32315677
0.037120197 0.067160197 0.07 0.19972187 0.52287865 0.32315677
0.034897249 0.068013258 0.07 0.19972187 0.52287865 0.32315677
0.032674301 0.068865329 0.07 0.19972187 0.52287865 0.32315677
0.030451257 0.069716446 0.07 0.19972187 0.52287865 0.32315677
0.028228022 0.070566639 0.07 0.19972187 0.52287865 0.32315677
0.026004504 0.071415946 0.07 0.19972187 0.52287865 0.32315677
0.023780609 0.072264411 0.07 0.19972187 0.52287865 0.32315677
0.02155624 0.073112056 0.07 0.19972187 0.52287865 0.32315677
0.019331302 0.073958926 0.07 0.19972187 0.52287865 0.32315677
0.017105702 0.074805051 0.07 0.19972187 0.52287865 0.32315677
0.014879347 0.075650476 0.07 0.19972187 0.52287865 0.32315677
0.012652139 0.076495223 0.07 0.19972187 0.52287865 0.32315677
0.010423984 0.077339344 0.07 0.19972187 0.52287865 0.32315677
0.0068435422 0.075045489 0.068213955 0.19972187 0.52287865 0.32315677
0.039999999 0.0034088674 0.036388934 0.19972187 0.52287865 0.32315677
0.039539844 0.010906938 0.039999999 0.19972187 0.52287865 0.32315677
0.037069399 0.011862332 0.039999999 0.19972187 0.52287865 0.32315677
0.034599818 0.012816411 0.039999999 0.19972187 0.52287865 0.32315677
0.032131001 0.013769213 0.039999999 0.19972187 0.52287865 0.32315677
0.029662844 0.014720782 0.039999999 0.19972187 0.52287865 0.32315677
0.027195241 0.015671156 0.039999999 0.19972187 0.52287865 0.32315677
0.039962418 0.060693394 0.064650603 0.19972187 0.52287865 0.32315677
0.039152872 0.06566643 0.066952273 0.19972187 0.52287865 0.32315677
0.037815727 0.069031112 0.068360187 0.19972187 0.52287865 0.32315677
0.036234189 0.071642883 0.069350421 0.19972187 0.52287865 0.32315677
0.034447536 0.073642641 0.07 0.19972187 0.52287865 0.32315677
0.032242402 0.074486673 0.07 0.19972187 0.52287865 0.32315677
0.030037118 0.075329892 0.07 0.19972187 0.52287865 0.32315677
0.027831586 0.076172329 0.07 0.19972187 0.52287865 0.32315677
0.025625717 0.077014022 0.07 0.19972187 0.52287865 0.32315677
0.023419416 0.077855006 0.07 0.19972187 0.52287865 0.32315677
0.021212593 0.078695312 0.07 0.19972187 0.52287865 0.32315677
0.019005153 0.079534978 0.07 0.19972187 0.52287865 0.32315677
0.016510339 0.079680584 0.069603272 0.19972187 0.52287865 0.32315677
0.013630277 0.078927606 0.068690307 0.19972187 0.52287865 0.32315677
0.010477117 0.077577136 0.067431062 0.19972187 0.52287865 0.32315677
0.0067509352 0.074957766 0.06543722 0.19972187 0.52287865 0.32315677
0.039999999 0.0031043685 0.033196826 0.19972187 0.52287865 0.32315677
0.039999999 0.0121045 0.037684634 0.19972187 0.52287865 0.32315677
0.038844418 0.017193638 0.039999999 0.19972187 0.52287865 0.32315677
0.036394276 0.018138871 0.039999999 0.19972187 0.52287865 0.32315677
0.03394492 0.019082949 0.039999999 0.19972187 0.52287865 0.32315677
0.031496245 0.020025913 0.039999999 0.19972187 0.52287865 0.32315677
0.029048152 0.020967802 0.039999999 0.19972187 0.52287865 0.32315677
0.039967984 0.06059071 0.061863754 0.19972187 0.52287865 0.32315677
0.039168097 0.065611586 0.064215846 0.19972187 0.52287865 0.32315677
0.037832528 0.068999425 0.065650791 0.19972187 0.52287865 0.32315677
0.036248405 0.07162191 0.066656582 0.19972187 0.52287865 0.32315677
0.034508161 0.073765114 0.067393675 0.19972187 0.52287865 0.32315677
0.032625735 0.075487956 0.067894138 0.19972187 0.52287865 0.32315677
0.030637899 0.076906256 0.068222821 0.19972187 0.52287865 0.32315677
0.028550426 0.07804855 0.068395056 0.19972187 0.52287865 0.32315677
0.026364258 0.078929447 0.068418339 0.19972187 0.52287865 0.32315677
0.024075875 0.079551563 0.068293288 0.19972187 0.52287865 0.32315677
0.021677176 0.079906039 0.068013944 0.19972187 0.52287865 0.32315677
0.019155357 0.079973079 0.067567974 0.19972187 0.52287865 0.32315677
0.01647201 0.07967215 0.06690786 0.19972187 0.52287865 0.32315677
0.013582051 0.078911349 0.065979123 0.19972187 0.52287865 0.32315677
0.010412456 0.07753823 0.064691715 0.19972187 0.52287865 0.32315677
0.0066578556 0.074869603 0.062646315 0.19972187 0.52287865 0.32315677
0.039999999 0.0027981214 0.029986391 0.19972187 0.52287865 0.32315677
0.039999999 0.011829782 0.03453818 0.19972187 0.52287865 0.32315677
0.039999999 0.020580981 0.03894899 0.19972187 0.52287865 0.32315677
0.038159642 0.023375044 0.039999999 0.19972187 0.52287865 0.32315677
0.035729434 0.024310555 0.039999999 0.19972187 0.52287865 0.32315677
0.033299934 0.02524507 0.039999999 0.19972187 0.52287865 0.32315677
0.030871039 0.026178626 0.039999999 0.19972187 0.52287865 0.32315677
0.039973576 0.060487509 0.05906279 0.19972187 0.52287865 0.32315677
0.039183401 0.065556474 0.061466098 0.19972187 0.52287865 0.32315677
0.037849411 0.068967581 0.062928453 0.19972187 0.52287865 0.32315677
0.036262691 0.071600839 0.06394998 0.19972187 0.52287865 0.32315677
0.034519758 0.073754132 0.06469956 0.19972187 0.52287865 0.32315677
0.03263304 0.075482406 0.06520731 0.19972187 0.52287865 0.32315677
0.030640448 0.076904729 0.065540612 0.19972187 0.52287865 0.32315677
0.028547768 0.078049779 0.065715052 0.19972187 0.52287865 0.32315677
0.026355937 0.078932248 0.065738223 0.19972187 0.52287865 0.32315677
0.024061406 0.079554744 0.065610759 0.19972187 0.52287865 0.32315677
0.02165601 0.079908341 0.065326586 0.19972187 0.52287865 0.32315677
0.019127918 0.079975709 0.064874664 0.19972187 0.52287865 0.32315677
0.016433496 0.079663672 0.064199597 0.19972187 0.52287865 0.32315677
0.013533593 0.078895025 0.063254885 0.19972187 0.52287865 0.32315677
0.010347476 0.077499136 0.061938882 0.19972187 0.52287865 0.32315677
0.0065642959 0.074780978 0.059841018 0.19972187 0.52287865 0.32315677
0.039999999 0.0024900993 0.02675735 0.19972187 0.52287865 0.32315677
0.039999999 0.011553499 0.031373791 0.19972187 0.52287865 0.32315677
0.039999999 0.020334622 0.035846766 0.19972187 0.52287865 0.32315677
0.039896686 0.028527206 0.039999999 0.19972187 0.52287865 0.32315677
0.037485328 0.029454306 0.039999999 0.19972187 0.52287865 0.32315677
0.035074696 0.030380521 0.039999999 0.19972187 0.52287865 0.32315677
0.032664694 0.031305891 0.039999999 0.19972187 0.52287865 0.32315677
0.039979201 0.060383778 0.056247499 0.19972187 0.52287865 0.32315677
0.039198775 0.065501094 0.058702826 0.19972187 0.52287865 0.32315677
0.037866373 0.068935581 0.060192987 0.19972187 0.52287865 0.32315677
0.036277041 0.071579672 0.061230421 0.19972187 0.52287865 0.32315677
0.034530729 0.07374125 0.061991569 0.19972187 0.52287865 0.32315677
0.032640379 0.075476825 0.062507756 0.19972187 0.52287865 0.32315677
0.030643007 0.076903187 0.062845729 0.19972187 0.52287865 0.32315677
0.028545095 0.078051016 0.06302239 0.19972187 0.52287865 0.32315677
0.026347578 0.078935064 0.06304545 0.19972187 0.52287865 0.32315677
0.02404687 0.079557948 0.062915534 0.19972187 0.52287865 0.32315677
0.021634746 0.079910658 0.062626466 0.19972187 0.52287865 0.32315677
0.019099241 0.079975627 0.062166944 0.19972187 0.52287865 0.32315677
0.016394798 0.079655156 0.061478291 0.19972187 0.52287865 0.32315677
0.013484899 0.078878619 0.060517401 0.19972187 0.52287865 0.32315677
0.010282173 0.077459842 0.059172347 0.19972187 0.52287865 0.32315677
0.006470249 0.074691899 0.057021108 0.19972187 0.52287865 0.32315677
0.039999999 0.002180275 0.023509415 0.19972187 0.52287865 0.32315677
0.039999999 0.011275625 0.028191192 0.19972187 0.52287865 0.32315677
0.039999999 0.020086866 0.032726981 0.19972187 0.52287865 0.32315677
0.039999999 0.02862742 0.037123684 0.19972187 0.52287865 0.32315677
0.039213341 0.03451639 0.039999999 0.19972187 0.52287865 0.32315677
0.036821283 0.035434451 0.039999999 0.19972187 0.52287865 0.32315677
0.034429882 0.036351778 0.039999999 0.19972187 0.52287865 0.32315677
0.039984848 0.060279511 0.053417657 0.19972187 0.52287865 0.32315677
0.039214227 0.065445438 0.055925827 0.19972187 0.52287865 0.32315677
0.03788342 0.068903431 0.057444181 0.19972187 0.52287865 0.32315677
0.036291465 0.071558401 0.058497712 0.19972187 0.52287865 0.32315677
0.034541748 0.073728278 0.059270546 0.19972187 0.52287865 0.32315677
0.032647755 0.075471215 0.059795283 0.19972187 0.52287865 0.32315677
0.030645579 0.076901637 0.060137969 0.19972187 0.52287865 0.32315677
0.028542411 0.078052253 0.060316872 0.19972187 0.52287865 0.32315677
0.026339179 0.078937896 0.060339812 0.19972187 0.52287865 0.32315677
0.024032263 0.079561159 0.060207419 0.19972187 0.52287865 0.32315677
0.021613378 0.079912983 0.059913389 0.19972187 0.52287865 0.32315677
0.019070135 0.079974838 0.05944575 0.19972187 0.52287865 0.32315677
0.016355911 0.079646595 0.058743738 0.19972187 0.52287865 0.32315677
0.013435966 0.078862131 0.057766467 0.19972187 0.52287865 0.32315677
0.010216542 0.077420361 0.056391906 0.19972187 0.52287865 0.32315677
0.0063757072 0.074602343 0.054186366 0.19972187 0.52287865 0.32315677
0.039999999 0.0018686207 0.020242294 0.19972187 0.52287865 0.32315677
0.039999999 0.010996137 0.0249901 0.19972187 0.52287865 0.32315677
0.039999999 0.019837694 0.029589362 0.19972187 0.52287865 0.32315677
0.039999999 0.028406842 0.034047119 0.19972187 0.52287865 0.32315677
0.039999999 0.036716286 0.038369965 0.19972187 0.52287865 0.32315677
0.03854043 0.04040898 0.039999999 0.19972187 0.52287865 0.32315677
0.036167338 0.041318398 0.039999999 0.19972187 0.52287865 0.32315677
0.039990529 0.0601747 0.050573047 0.19972187 0.52287865 0.32315677
0.039229754 0.065389499 0.053134892 0.19972187 0.52287865 0.32315677
0.037900552 0.068871118 0.054681838 0.19972187 0.52287865 0.32315677
0.036305957 0.071537025 0.055751652 0.19972187 0.52287865 0.32315677
0.034552816 0.073715247 0.056536298 0.19972187 0.52287865 0.32315677
0.032655168 0.075465582 0.057069693 0.19972187 0.52287865 0.32315677
0.030648163 0.076900087 0.057417143 0.19972187 0.52287865 0.32315677
0.028539713 0.078053504 0.057598304 0.19972187 0.52287865 0.32315677
0.026330739 0.078940742 0.057621118 0.19972187 0.52287865 0.32315677
0.024017587 0.079564393 0.05748621 0.19972187 0.52287865 0.32315677
0.021591907 0.079915315 0.057187162 0.19972187 0.52287865 0.32315677
0.01904089 0.079974048 0.056711301 0.19972187 0.52287865 0.32315677
0.016316833 0.079637997 0.05599574 0.19972187 0.52287865 0.32315677
0.013386791 0.078845561 0.055001881 0.19972187 0.52287865 0.32315677
0.010150577 0.077380672 0.05359735 0.19972187 0.52287865 0.32315677
0.0062806634 0.074512318 0.051336564 0.19972187 0.52287865 0.32315677
0.039999999 0.0015551081 0.016955694 0.19972187 0.52287865 0.32315677
0.039999999 0.01071501 0.021770235 0.19972187 0.52287865 0.32315677
0.039999999 0.019587087 0.026433636 0.19972187 0.52287865 0.32315677
0.039999999 0.028185012 0.030953078 0.19972187 0.52287865 0.32315677
0.039999999 0.03652161 0.035335295 0.19972187 0.52287865 0.32315677
0.039999999 0.044608921 0.039586607 0.19972187 0.52287865 0.32315677
0.037877783 0.046207793 0.039999999 0.19972187 0.52287865 0.32315677
0.03999624 0.060069337 0.047713444 0.19972187 0.52287865 0.32315677
0.039245363 0.065333284 0.050329808 0.19972187 0.52287865 0.32315677
0.037917767 0.068838648 0.051905751 0.19972187 0.52287865 0.32315677
0.036320519 0.071515545 0.052992031 0.19972187 0.52287865 0.32315677
0.03456394 0.073702149 0.053788632 0.19972187 0.52287865 0.32315677
0.032662615 0.07545992 0.054330792 0.19972187 0.52287865 0.32315677
0.030650759 0.076898523 0.054683048 0.19972187 0.52287865 0.32315677
0.028537003 0.078054756 0.054866489 0.19972187 0.52287865 0.32315677
0.026322259 0.078943595 0.054889169 0.19972187 0.52287865 0.32315677
0.024002837 0.079567634 0.054751713 0.19972187 0.52287865 0.32315677
0.02157033 0.079917662 0.054447588 0.19972187 0.52287865 0.32315677
0.019011499 0.079973251 0.053963389 0.19972187 0.52287865 0.32315677
0.016277559 0.079629354 0.053234089 0.19972187 0.52287865 0.32315677
0.013337368 0.078828909 0.052223429 0.19972187 0.52287865 0.32315677
0.010084274 0.077340782 0.050788455 0.19972187 0.52287865 0.32315677
0.0061851097 0.074421808 0.048471473 0.19972187 0.52287865 0.32315677
0.039999999 0.0012397084 0.013649313 0.19972187 0.52287865 0.32315677
0.039999999 0.010432218 0.018531304 0.19972187 0.52287865 0.32315677
0.039999999 0.019335017 0.023259522 0.19972187 0.52287865 0.32315677
0.039999999 0.027961908 0.027841294 0.19972187 0.52287865 0.32315677
0.039999999 0.036325838 0.032283492 0.19972187 0.52287865 0.32315677
0.039999999 0.044438947 0.036592554 0.19972187 0.52287865 0.32315677
0.039561898 0.051021926 0.039999999 0.19972187 0.52287865 0.32315677
0.039997276 0.059949778 0.044830415 0.19972187 0.52287865 0.32315677
0.039261051 0.065276779 0.047510356 0.19972187 0.52287865 0.32315677
0.037935071 0.068806015 0.04911571 0.19972187 0.52287865 0.32315677
0.036335155 0.071493953 0.050218649 0.19972187 0.52287865 0.32315677
0.03457512 0.073688991 0.051027339 0.19972187 0.52287865 0.32315677
0.032670103 0.075454228 0.051578373 0.19972187 0.52287865 0.32315677
0.030653369 0.076896951 0.051935486 0.19972187 0.52287865 0.32315677
0.02853428 0.078056015 0.052121226 0.19972187 0.52287865 0.32315677
0.026313735 0.078946471 0.052143764 0.19972187 0.52287865 0.32315677
0.023988016 0.079570897 0.052003723 0.19972187 0.52287865 0.32315677
0.021548649 0.079920024 0.051694453 0.19972187 0.52287865 0.32315677
0.018981963 0.079972453 0.051201817 0.19972187 0.52287865 0.32315677
0.01623809 0.079620667 0.05045858 0.19972187 0.52287865 0.32315677
0.013287696 0.078812167 0.049430907 0.19972187 0.52287865 0.32315677
0.010017628 0.077300683 0.047965009 0.19972187 0.52287865 0.32315677
0.0060890382 0.074330807 0.045590863 0.19972187 0.52287865 0.32315677
0.039999999 0.00092239253 0.010322842 0.19972187 0.52287865 0.32315677
0.039999999 0.010147735 0.015273015 0.19972187 0.52287865 0.32315677
0.039999999 0.019081464 0.020066742 0.19972187 0.52287865 0.32315677
0.039999999 0.027737515 0.024711497 0.19972187 0.52287865 0.32315677
0.039999999 0.036128946 0.029214291 0.19972187 0.52287865 0.32315677
0.039999999 0.044268019 0.033581696 0.19972187 0.52287865 0.32315677
0.039999999 0.052166242 0.037819892 0.19972187 0.52287865 0.32315677
0.039989352 0.059803575 0.041915935 0.19972187 0.52287865 0.32315677
0.03927682 0.065219976 0.044676322 0.19972187 0.52287865 0.32315677
0.03795246 0.06877321 0.046311505 0.19972187 0.52287865 0.32315677
0.036349867 0.071472257 0.047431294 0.19972187 0.52287865 0.32315677
0.034586355 0.073675767 0.04825221 0.19972187 0.52287865 0.32315677
0.032677624 0.075448513 0.048812225 0.19972187 0.52287865 0.32315677
0.030655991 0.076895371 0.049174245 0.19972187 0.52287865 0.32315677
0.028531542 0.078057282 0.049362306 0.19972187 0.52287865 0.32315677
0.026305169 0.078949355 0.049384695 0.19972187 0.52287865 0.32315677
0.02397312 0.079574175 0.049242035 0.19972187 0.52287865 0.32315677
0.021526856 0.079922393 0.048927557 0.19972187 0.52287865 0.32315677
0.018952278 0.079971649 0.048426371 0.19972187 0.52287865 0.32315677
0.016198421 0.079611935 0.047668997 0.19972187 0.52287865 0.32315677
0.013237769 0.078795344 0.046624094 0.19972187 0.52287865 0.32315677
0.0099506332 0.077260375 0.045126792 0.19972187 0.52287865 0.32315677
0.005992441 0.074239306 0.042694487 0.19972187 0.52287865 0.32315677
0.0018103643 0.070815116 0.039999999 0.19972187 0.52287865 0.32315677
0.039999999 0.00060313073 0.0069759726 0.19972187 0.52287865 0.32315677
0.039999999 0.0098615373 0.011995067 0.19972187 0.52287865 0.32315677
0.039999999 0.018826406 0.016855003 0.19972187 0.52287865 0.32315677
0.039999999 0.027511809 0.021563407 0.19972187 0.52287865 0.32315677
0.039999999 0.035930924 0.026127428 0.19972187 0.52287865 0.32315677
0.039999999 0.044096123 0.030553773 0.19972187 0.52287865 0.32315677
0.039999999 0.052019022 0.034848738 0.19972187 0.52287865 0.32315677
0.039999999 0.059710532 0.039018244 0.19972187 0.52287865 0.32315677
0.039292675 0.065162882 0.041827485 0.19972187 0.52287865 0.32315677
0.037969939 0.068740241 0.043492913 0.19972187 0.52287865 0.32315677
0.036364652 0.07145045 0.044629756 0.19972187 0.52287865 0.32315677
0.034597646 0.073662467 0.045463037 0.19972187 0.52287865 0.32315677
0.032685183 0.075442769 0.046032149 0.19972187 0.52287865 0.32315677
0.030658627 0.076893784 0.046399124 0.19972187 0.52287865 0.32315677
0.028528791 0.078058556 0.046589524 0.19972187 0.52287865 0.32315677
0.026296562 0.078952253 0.046611756 0.19972187 0.52287865 0.32315677
0.02395815 0.079577476 0.04646644 0.19972187 0.52287865 0.32315677
0.021504955 0.079924777 0.046146687 0.19972187 0.52287865 0.32315677
0.018922443 0.079970844 0.04563684 0.19972187 0.52287865 0.32315677
0.016158549 0.079603158 0.044865131 0.19972187 0.52287865 0.32315677
0.013187584 0.078778431 0.043802775 0.19972187 0.52287865 0.32315677
0.0098832836 0.077219851 0.042273574 0.19972187 0.52287865 0.32315677
0.0060443422 0.074492328 0.039999999 0.19972187 0.52287865 0.32315677
0.0037413004 0.075372465 0.039999999 0.19972187 0.52287865 0.32315677
0.0014374463 0.07625296 0.039999999 0.19972187 0.52287865 0.32315677
0.039999999 0.0002818928 0.0036083867 0.19972187 0.52287865 0.32315677
0.039999999 0.0095735956 0.0086971568 0.19972187 0.52287865 0.32315677
0.039999999 0.018569821 0.013624014 0.19972187 0.52287865 0.32315677
0.039999999 0.027284771 0.018396743 0.19972187 0.52287865 0.32315677
0.039999999 0.035731751 0.023022631 0.19972187 0.52287865 0.32315677
0.039999999 0.043923248 0.027508521 0.19972187 0.52287865 0.32315677
0.039999999 0.051870972 0.031860832 0.19972187 0.52287865 0.32315677
0.039999999 0.05958594 0.036085602 0.19972187 0.52287865 0.32315677
0.039893597 0.066774867 0.039999999 0.19972187 0.52287865 0.32315677
0.037987508 0.068707108 0.040659726 0.19972187 0.52287865 0.32315677
0.036379512 0.07142853 0.041813813 0.19972187 0.52287865 0.32315677
0.034608997 0.073649108 0.042659603 0.19972187 0.52287865 0.32315677
0.032692783 0.075436987 0.043237928 0.19972187 0.52287865 0.32315677
0.030661277 0.07689219 0.04360991 0.19972187 0.52287865 0.32315677
0.028526025 0.078059837 0.043802667 0.19972187 0.52287865 0.32315677
0.02628791 0.078955173 0.043824732 0.19972187 0.52287865 0.32315677
0.023943104 0.079580784 0.04367673 0.19972187 0.52287865 0.32315677
0.021482943 0.079927169 0.043351635 0.19972187 0.52287865 0.32315677
0.01889159 0.079967916 0.042831674 0.19972187 0.52287865 0.32315677
0.016118469 0.079594336 0.042046763 0.19972187 0.52287865 0.32315677
0.013137138 0.078761436 0.040966731 0.19972187 0.52287865 0.32315677
0.010213706 0.078113504 0.039999999 0.19972187 0.52287865 0.32315677
0.0079288865 0.078987405 0.039999999 0.19972187 0.52287865 0.32315677
0.0056433892 0.079861723 0.039999999 0.19972187 0.52287865 0.32315677
0.0030300426 0.079999998 0.039528344 0.19972187 0.52287865 0.32315677
0.00034445076 0.079999998 0.038965784 0.19972187 0.52287865 0.32315677
0.039999999 0.0092838844 0.0053789741 0.19972187 0.52287865 0.32315677
0.039999999 0.018311683 0.010373479 0.19972187 0.52287865 0.32315677
0.039999999 0.027056381 0.015211216 0.19972187 0.52287865 0.32315677
0.039999999 0.035531409 0.019899623 0.19972187 0.52287865 0.32315677
0.039999999 0.04374937 0.024445677 0.19972187 0.52287865 0.32315677
0.039999999 0.051722076 0.028855924 0.19972187 0.52287865 0.32315677
0.039999999 0.059460647 0.033136513 0.19972187 0.52287865 0.32315677
0.039999999 0.066975527 0.037293237 0.19972187 0.52287865 0.32315677
0.039245363 0.072157055 0.039999999 0.19972187 0.52287865 0.32315677
0.036978822 0.073021822 0.039999999 0.19972187 0.52287865 0.32315677
0.034712657 0.073886693 0.039999999 0.19972187 0.52287865 0.32315677
0.032700419 0.075431183 0.040429343 0.19972187 0.52287865 0.32315677
0.030663939 0.076890588 0.040806383 0.19972187 0.52287865 0.32315677
0.028523246 0.078061119 0.041001521 0.19972187 0.52287865 0.32315677
0.026279213 0.078958102 0.041023415 0.19972187 0.52287865 0.32315677
0.023927981 0.079584114 0.040872686 0.19972187 0.52287865 0.32315677
0.021460816 0.079929575 0.040542182 0.19972187 0.52287865 0.32315677
0.018860392 0.079964526 0.04001167 0.19972187 0.52287865 0.32315677
0.016249908 0.079999998 0.039479189 0.19972187 0.52287865 0.32315677
0 0.047602728 0.018129351 0.19972187 0.52287865 0.32315677
0.010967217 0.079999998 0.038361542 0.19972187 0.52287865 0.32315677
2.7755576e-17 0.060774799 0.025411703 0.19972187 0.52287865 0.32315677
0.005639717 0.079999998 0.03723387 0.19972187 0.52287865 0.32315677
0 0.073340431 0.032358225 0.19972187 0.52287865 0.32315677
0.00026600555 0.079999998 0.036095873 0.19972187 0.52287865 0.32315677
0.039999999 0.0089923749 0.0020402039 0.19972187 0.52287865 0.32315677
0.039999999 0.018051967 0.007103093 0.19972187 0.52287865 0.32315677
0.039999999 0.026826618 0.012006539 0.19972187 0.52287865 0.32315677
0.039999999 0.035329882 0.016758127 0.19972187 0.52287865 0.32315677
0.039999999 0.043574475 0.02136497 0.19972187 0.52287865 0.32315677
0.039999999 0.051572327 0.025833745 0.19972187 0.52287865 0.32315677
0.039999999 0.059334643 0.030170724 0.19972187 0.52287865 0.32315677
0.039999999 0.066871971 0.034381803 0.19972187 0.52287865 0.32315677
0.039999999 0.074194215 0.03847253 0.19972187 0.52287865 0.32315677
0.038607016 0.0774597 0.039999999 0.19972187 0.52287865 0.32315677
0.036357451 0.078317955 0.039999999 0.19972187 0.52287865 0.32315677
0.034108199 0.079176418 0.039999999 0.19972187 0.52287865 0.32315677
0.031845868 0.079999998 0.039977532 0.19972187 0.52287865 0.32315677
0.029266192 0.079999998 0.03942718 0.19972187 0.52287865 0.32315677
0.02667642 0.079999998 0.038874485 0.19972187 0.52287865 0.32315677
0.00044665483 0.020419158 0 0.19972187 0.52287865 0.32315677
0.021465944 0.079999998 0.037761927 0.19972187 0.52287865 0.32315677
0.018844914 0.079999998 0.037201993 0.19972187 0.52287865 0.32315677
0.016213136 0.079999998 0.036639575 0.19972187 0.52287865 0.32315677
0.01357044 0.079999998 0.036074631 0.19972187 0.52287865 0.32315677
0.010916656 0.079999998 0.035507131 0.19972187 0.52287865 0.32315677
0.0082516111 0.079999998 0.034937032 0.19972187 0.52287865 0.32315677
0.0055751293 0.079999998 0.034364291 0.19972187 0.52287865 0.32315677
0.0028870339 0.079999998 0.033788878 0.19972187 0.52287865 0.32315677
0 0.079584621 0.032938804 0.19972187 0.52287865 0.32315677
0.039999999 0.017790653 0.0038125492 0.19972187 0.52287865 0.32315677
0.039999999 0.02659546 0.0087824119 0.19972187 0.52287865 0.32315677
0.039999999 0.035127152 0.013597853 0.19972187 0.52287865 0.32315677
0.039999999 0.043398555 0.018266125 0.19972187 0.52287865 0.32315677
0.039999999 0.051421709 0.022794034 0.19972187 0.52287865 0.32315677
0.039999999 0.05920792 0.027187975 0.19972187 0.52287865 0.32315677
0.039999999 0.066767827 0.031453956 0.19972187 0.52287865 0.32315677
0.039999999 0.074111424 0.035597637 0.19972187 0.52287865 0.32315677
0.039548591 0.079999998 0.03882302 0.19972187 0.52287865 0.32315677
0.036991838 0.079999998 0.038272858 0.19972187 0.52287865 0.32315677
0.034425411 0.079999998 0.037720375 0.19972187 0.52287865 0.32315677
0.010033519 0.02244642 0 0.19972187 0.52287865 0.32315677
0.029262898 0.079999998 0.036608294 0.19972187 0.52287865 0.32315677
0.0266665 0.079999998 0.036048628 0.19972187 0.52287865 0.32315677
0.024059791 0.079999998 0.035486497 0.19972187 0.52287865 0.32315677
0.021442611 0.079999998 0.034921862 0.19972187 0.52287865 0.32315677
0.018814793 0.079999998 0.03435469 0.19972187 0.52287865 0.32315677
0 0.040968414 0.0082821548 0.19972187 0.52287865 0.32315677
0.01352657 0.079999998 0.03321258 0.19972187 0.52287865 0.32315677
0.010865825 0.079999998 0.032637563 0.19972187 0.52287865 0.32315677
0.0081937602 0.079999998 0.032059856 0.19972187 0.52287865 0.32315677
0.005510197 0.079999998 0.031479415 0.19972187 0.52287865 0.32315677
0.0028149579 0.079999998 0.030896198 0.19972187 0.52287865 0.32315677
0.00010786093 0.079999998 0.030310171 0.19972187 0.52287865 0.32315677
0.039999999 0.017527711 0.0005015335 0.19972187 0.52287865 0.32315677
0.039999999 0.026362887 0.0055385358 0.19972187 0.52287865 0.32315677
0.039999999 0.034923196 0.010418513 0.19972187 0.52287865 0.32315677
0.039999999 0.043221589 0.015148861 0.19972187 0.52287865 0.32315677
0.039999999 0.051270209 0.019736521 0.19972187 0.52287865 0.32315677
0.039999999 0.059080467 0.024188008 0.19972187 0.52287865 0.32315677
0.039999999 0.066663086 0.028509449 0.19972187 0.52287865 0.32315677
0.039999999 0.074028164 0.032706611 0.19972187 0.52287865 0.32315677
0.039571416 0.079999998 0.036016498 0.19972187 0.52287865 0.32315677
0.037008204 0.079999998 0.035459645 0.19972187 0.52287865 0.32315677
0.034435268 0.079999998 0.03490039 0.19972187 0.52287865 0.32315677
0.031852446 0.079999998 0.034338683 0.19972187 0.52287865 0.32315677
0.009364523 0.028310569 0 0.19972187 0.52287865 0.32315677
0.026656525 0.079999998 0.033207797 0.19972187 0.52287865 0.32315677
0.024043102 0.079999998 0.032638542 0.19972187 0.52287865 0.32315677
0.0017771953 0.031212168 0 0.19972187 0.52287865 0.32315677
0.018784508 0.079999998 0.031492215 0.19972187 0.52287865 0.32315677
0.016139004 0.079999998 0.030915067 0.19972187 0.52287865 0.32315677
0.013482466 0.079999998 0.030335212 0.19972187 0.52287865 0.32315677
0.010814723 0.079999998 0.029752608 0.19972187 0.52287865 0.32315677
0.0081355982 0.079999998 0.029167218 0.19972187 0.52287865 0.32315677
0.0054449155 0.079999998 0.028579 0.19972187 0.52287865 0.32315677
0.0027424931 0.079999998 0.02798791 0.19972187 0.52287865 0.32315677
0 0.07993757 0.027352219 0.19972187 0.52287865 0.32315677
0.039999999 0.026128875 0.0022746027 0.19972187 0.52287865 0.32315677
0.039999999 0.034717999 0.007219811 0.19972187 0.52287865 0.32315677
0.039999999 0.043043558 0.012012895 0.19972187 0.52287865 0.32315677
0.039999999 0.051117811 0.016660931 0.19972187 0.52287865 0.32315677
0.039999999 0.058952268 0.021170558 0.19972187 0.52287865 0.32315677
0.039999999 0.06655775 0.025548024 0.19972187 0.52287865 0.32315677
0.039999999 0.073944435 0.029799202 0.19972187 0.52287865 0.32315677
0.039594363 0.079999998 0.033195093 0.19972187 0.52287865 0.32315677
0.018750679 0.030256337 0 0.19972187 0.52287865 0.32315677
0.016238993 0.031214356 0 0.19972187 0.52287865 0.32315677
0.031855762 0.079999998 0.031496771 0.19972187 0.52287865 0.32315677
0.029256258 0.079999998 0.030925572 0.19972187 0.52287865 0.32315677
0.026646499 0.079999998 0.030351767 0.19972187 0.52287865 0.32315677
0.024026325 0.079999998 0.029775318 0.19972187 0.52287865 0.32315677
0.021395568 0.079999998 0.029196186 0.19972187 0.52287865 0.32315677
0.018754063 0.079999998 0.028614331 0.19972187 0.52287865 0.32315677
0.016101638 0.079999998 0.028029714 0.19972187 0.52287865 0.32315677
0.013438123 0.079999998 0.027442295 0.19972187 0.52287865 0.32315677
0.010763343 0.079999998 0.026852032 0.19972187 0.52287865 0.32315677
0.0080771213 0.079999998 0.026258888 0.19972187 0.52287865 0.32315677
0.0053792787 0.079999998 0.025662815 0.19972187 0.52287865 0.32315677
0.0026696331 0.079999998 0.025063775 0.19972187 0.52287865 0.32315677
0.039999999 0.03451154 0.0040014475 0.19972187 0.52287865 0.32315677
0.039999999 0.042864453 0.0088579375 0.19972187 0.52287865 0.32315677
0.039999999 0.050964508 0.013566983 0.19972187 0.52287865 0.32315677
0.039999999 0.058823317 0.018135356 0.19972187 0.52287865 0.32315677
0.039999999 0.066451803 0.022569422 0.19972187 0.52287865 0.32315677
0.039999999 0.073860221 0.026875162 0.19972187 0.52287865 0.32315677
0.039617434 0.079999998 0.030358583 0.19972187 0.52287865 0.32315677
0.037041198 0.079999998 0.02978817 0.19972187 0.52287865 0.32315677
0.034455139 0.079999998 0.029215172 0.19972187 0.52287865 0.32315677
0.031859096 0.079999998 0.028639555 0.19972187 0.52287865 0.32315677
0.029252911 0.079999998 0.028061276 0.19972187 0.52287865 0.32315677
0.026636418 0.079999998 0.027480302 0.19972187 0.52287865 0.32315677
0.024009455 0.079999998 0.026896592 0.19972187 0.52287865 0.32315677
0.0055643413 0.040746789 0 0.19972187 0.52287865 0.32315677
0.0030715943 0.041702025 0 0.19972187 0.52287865 0.32315677
0.00057871203 0.042658083 0 0.19972187 0.52287865 0.32315677
0 0.048165269 0.0030681435 0.19972187 0.52287865 0.32315677
0.010711683 0.079999998 0.023935596 0.19972187 0.52287865 0.32315677
0.0080183242 0.079999998 0.023334621 0.19972187 0.52287865 0.32315677
0.0053132814 0.079999998 0.022730621 0.19972187 0.52287865 0.32315677
0.0025963725 0.079999998 0.022123551 0.19972187 0.52287865 0.32315677
0.039999999 0.034303803 0.00076311611 0.19972187 0.52287865 0.32315677
0.039999999 0.04268425 0.0056836931 0.19972187 0.52287865 0.32315677
0.039999999 0.050810277 0.010454397 0.19972187 0.52287865 0.32315677
0.039999999 0.058693603 0.015082129 0.19972187 0.52287865 0.32315677
0.039999999 0.06634523 0.019573376 0.19972187 0.52287865 0.32315677
0.027224153 0.03785263 0 0.19972187 0.52287865 0.32315677
0.039640632 0.079999998 0.027506739 0.19972187 0.52287865 0.32315677
0.037057832 0.079999998 0.026929446 0.19972187 0.52287865 0.32315677
0.034465156 0.079999998 0.026349481 0.19972187 0.52287865 0.32315677
0.031862449 0.079999998 0.025766807 0.19972187 0.52287865 0.32315677
0.029249545 0.079999998 0.025181383 0.19972187 0.52287865 0.32315677
0.026626281 0.079999998 0.024593171 0.19972187 0.52287865 0.32315677
0.023992494 0.079999998 0.024002129 0.19972187 0.52287865 0.32315677
0.021348014 0.079999998 0.023408217 0.19972187 0.52287865 0.32315677
0.0049434029 0.046363119 0 0.19972187 0.52287865 0.32315677
0.016026294 0.079999998 0.022211626 0.19972187 0.52287865 0.32315677
2.7755576e-17 0.048279457 1.0926286e-05 0.19972187 0.52287865 0.32315677
0.010659738 0.079999998 0.021003056 0.19972187 0.52287865 0.32315677
0.007959201 0.079999998 0.020394174 0.19972187 0.52287865 0.32315677
0 0.068051167 0.011597145 0.19972187 0.52287865 0.32315677
0.0025227047 0.079999998 0.019166991 0.19972187 0.52287865 0.32315677
0.039999999 0.042502936 0.0024898632 0.19972187 0.52287865 0.32315677
0.039999999 0.050655108 0.0073228818 0.19972187 0.52287865 0.32315677
0.039999999 0.058563106 0.012010597 0.19972187 0.52287865 0.32315677
0.039999999 0.066238031 0.016559618 0.19972187 0.52287865 0.32315677
0.039999999 0.073690332 0.02097616 0.19972187 0.52287865 0.32315677
0.026452936 0.043445252 0 0.19972187 0.52287865 0.32315677
0.037074555 0.079999998 0.024055086 0.19972187 0.52287865 0.32315677
0.03447523 0.079999998 0.023468088 0.19972187 0.52287865 0.32315677
0.03186582 0.079999998 0.022878289 0.19972187 0.52287865 0.32315677
0.029246161 0.079999998 0.02228565 0.19972187 0.52287865 0.32315677
0.026616091 0.079999998 0.021690128 0.19972187 0.52287865 0.32315677
0.023975439 0.079999998 0.021091687 0.19972187 0.52287865 0.32315677
0.02132404 0.079999998 0.020490279 0.19972187 0.52287865 0.32315677
0.018661721 0.079999998 0.019885866 0.19972187 0.52287865 0.32315677
0.015988309 0.079999998 0.019278407 0.19972187 0.52287865 0.32315677
0.013303629 0.079999998 0.018667854 0.19972187 0.52287865 0.32315677
0.010607502 0.079999998 0.018054167 0.19972187 0.52287865 0.32315677
0 0.061761074 0.0048469561 0.19972187 0.52287865 0.32315677
0.0051801838 0.079999998 0.016817208 0.19972187 0.52287865 0.32315677
0.0024486238 0.079999998 0.016193846 0.19972187 0.52287865 0.32315677
0.039999999 0.050498988 0.0041721449 0.19972187 0.52287865 0.32315677
0.039999999 0.058431823 0.0089204777 0.19972187 0.52287865 0.32315677
0.039999999 0.066130191 0.013527877 0.19972187 0.52287865 0.32315677
0.039999999 0.073604643 0.018000674 0.19972187 0.52287865 0.32315677
0.039687403 0.079999998 0.021756098 0.19972187 0.52287865 0.32315677
0.037091367 0.079999998 0.021164851 0.19972187 0.52287865 0.32315677
0.034485359 0.079999998 0.020570753 0.19972187 0.52287865 0.32315677
0.03186921 0.079999998 0.01997376 0.19972187 0.52287865 0.32315677
0.02924276 0.079999998 0.019373836 0.19972187 0.52287865 0.32315677
0.026605843 0.079999998 0.018770937 0.19972187 0.52287865 0.32315677
0.013489977 0.053622566 0 0.19972187 0.52287865 0.32315677
0.021299932 0.079999998 0.017556043 0.19972187 0.52287865 0.32315677
0.018630598 0.079999998 0.016943965 0.19972187 0.52287865 0.32315677
0.015950112 0.079999998 0.016328743 0.19972187 0.52287865 0.32315677
0.013258296 0.079999998 0.015710328 0.19972187 0.52287865 0.32315677
0.0012898823 0.058308516 0 0.19972187 0.52287865 0.32315677
0.0078399591 0.079999998 0.01446375 0.19972187 0.52287865 0.32315677
0.0051130718 0.079999998 0.013835493 0.19972187 0.52287865 0.32315677
0.0023741233 0.079999998 0.013203862 0.19972187 0.52287865 0.32315677
0.039999999 0.050341904 0.001001888 0.19972187 0.52287865 0.32315677
0.039999999 0.058299735 0.0058114831 0.19972187 0.52287865 0.32315677
0.039999999 0.066021703 0.010477873 0.19972187 0.52287865 0.32315677
0.039999999 0.07351844 0.015007508 0.19972187 0.52287865 0.32315677
0.039710984 0.079999998 0.018856823 0.19972187 0.52287865 0.32315677
0.037108276 0.079999998 0.018258499 0.19972187 0.52287865 0.32315677
0.034495544 0.079999998 0.01765723 0.19972187 0.52287865 0.32315677
0.031872619 0.079999998 0.017052976 0.19972187 0.52287865 0.32315677
0.029239338 0.079999998 0.016445694 0.19972187 0.52287865 0.32315677
0.026595535 0.079999998 0.015835345 0.19972187 0.52287865 0.32315677
0.023941044 0.079999998 0.015221881 0.19972187 0.52287865 0.32315677
0.021275688 0.079999998 0.014605262 0.19972187 0.52287865 0.32315677
0.018599298 0.079999998 0.013985443 0.19972187 0.52287865 0.32315677
0.015911696 0.079999998 0.01336238 0.19972187 0.52287865 0.32315677
0.0055605574 0.061829455 0 0.19972187 0.52287865 0.32315677
0.010502145 0.079999998 0.012106337 0.19972187 0.52287865 0.32315677
0.0077798306 0.079999998 0.011473264 0.19972187 0.52287865 0.32315677
0 0.068521567 0.0027421203 0.19972187 0.52287865 0.32315677
0.0022991966 0.079999998 0.01019678 0.19972187 0.52287865 0.32315677
0.039999999 0.058166835 0.0026833203 0.19972187 0.52287865 0.32315677
0.039999999 0.06591256 0.0074093235 0.19972187 0.52287865 0.32315677
0.039999999 0.073431723 0.011996389 0.19972187 0.52287865 0.32315677
0.039734695 0.079999998 0.015941253 0.19972187 0.52287865 0.32315677
0.029024644 0.057935581 0 0.19972187 0.52287865 0.32315677
0.034505785 0.079999998 0.014727274 0.19972187 0.52287865 0.32315677
0.031876046 0.079999998 0.014115687 0.19972187 0.52287865 0.32315677
0.021802716 0.060690511 0 0.19972187 0.52287865 0.32315677
0.026585171 0.079999998 0.012883103 0.19972187 0.52287865 0.32315677
0.023923699 0.079999998 0.012262018 0.19972187 0.52287865 0.32315677
0.021251308 0.079999998 0.011637681 0.19972187 0.52287865 0.32315677
0.018567821 0.079999998 0.011010045 0.19972187 0.52287865 0.32315677
0.0097723138 0.065303728 0 0.19972187 0.52287865 0.32315677
0.013166855 0.079999998 0.0097446917 0.19972187 0.52287865 0.32315677
0.010449014 0.079999998 0.009106881 0.19972187 0.52287865 0.32315677
0.0025542493 0.068086013 0 0.19972187 0.52287865 0.32315677
0.0049776933 0.079999998 0.0078207524 0.19972187 0.52287865 0.32315677
0.0022238374 0.079999998 0.0071723368 0.19972187 0.52287865 0.32315677
0.039999999 0.065802738 0.0043219416 0.19972187 0.52287865 0.32315677
0.039999999 0.073344477 0.0089670392 0.19972187 0.52287865 0.32315677
0.039758544 0.079999998 0.013009137 0.19972187 0.52287865 0.32315677
0.037142381 0.079999998 0.012396449 0.19972187 0.52287865 0.32315677
0.034516085 0.079999998 0.011780631 0.19972187 0.52287865 0.32315677
0.031879492 0.079999998 0.011161638 0.19972187 0.52287865 0.32315677
0.029232435 0.079999998 0.010539427 0.19972187 0.52287865 0.32315677
0.026574748 0.079999998 0.0099139549 0.19972187 0.52287865 0.32315677
0.01870515 0.066898443 0 0.19972187 0.52287865 0.32315677
0.021226784 0.079999998 0.0086530428 0.19972187 0.52287865 0.32315677
0.018536162 0.079999998 0.0080175111 0.19972187 0.52287865 0.32315677
0.015834207 0.079999998 0.0073785339 0.19972187 0.52287865 0.32315677
0.0091483155 0.070571862 0 0.19972187 0.52287865 0.32315677
0.0067590955 0.071493417 0 0.19972187 0.52287865 0.32315677
0.00765853 0.079999998 0.0054404465 0.19972187 0.52287865 0.32315677
0.0049094148 0.079999998 0.004787202 0.19972187 0.52287865 0.32315677
0.0021480392 0.079999998 0.0041302671 0.19972187 0.52287865 0.32315677
0.039999999 0.065692239 0.0012154341 0.19972187 0.52287865 0.32315677
0.039999999 0.073256701 0.0059191771 0.19972187 0.52287865 0.32315677
0.03464346 0.065769702 0 0.19972187 0.52287865 0.32315677
0.032267813 0.066673048 0 0.19972187 0.52287865 0.32315677
0.034526445 0.079999998 0.0088170459 0.19972187 0.52287865 0.32315677
0.031882957 0.079999998 0.0081905751 0.19972187 0.52287865 0.32315677
0.025144426 0.06938988 0 0.19972187 0.52287865 0.32315677
0.026564263 0.079999998 0.0069276425 0.19972187 0.52287865 0.32315677
0.023888709 0.079999998 0.00629109 0.19972187 0.52287865 0.32315677
0.021202121 0.079999998 0.0056510847 0.19972187 0.52287865 0.32315677
0.015652005 0.073029213 0 0.19972187 0.52287865 0.32315677
0.015795123 0.079999998 0.0043605249 0.19972187 0.52287865 0.32315677
0.010906735 0.074856661 0 0.19972187 0.52287865 0.32315677
0.0085340673 0.075772427 0 0.19972187 0.52287865 0.32315677
0.0075973477 0.079999998 0.0023975817 0.19972187 0.52287865 0.32315677
0.0048407358 0.079999998 0.0017358396 0.19972187 0.52287865 0.32315677
0.0020717948 0.079999998 0.0010702981 0.19972187 0.52287865 0.32315677
0.039999999 0.073168382 0.0028525146 0.19972187 0.52287865 0.32315677
0.039806653 0.079999998 0.0070942482 0.19972187 0.52287865 0.32315677
0.037176877 0.079999998 0.006466914 0.19972187 0.52287865 0.32315677
0.03149873 0.071854435 0 0.19972187 0.52287865 0.32315677
0.031886443 0.079999998 0.0052022338 0.19972187 0.52287865 0.32315677
0.029225454 0.079999998 0.004564797 0.19972187 0.52287865 0.32315677
0.026553718 0.079999998 0.0039239004 0.19972187 0.52287865 0.32315677
0.023871062 0.079999998 0.0032794976 0.19972187 0.52287865 0.32315677
0.021177312 0.079999998 0.0026315402 0.19972187 0.52287865 0.32315677
0.018472288 0.079999998 0.0019799802 0.19972187 0.52287865 0.32315677
0.01575581 0.079999998 0.0013247681 0.19972187 0.52287865 0.32315677
0.012642223 0.079085574 0 0.19972187 0.52287865 0.32315677
0.010285887 0.079995632 0 0.19972187 0.52287865 0.32315677
0.039830919 0.079999998 0.0041109552 0.19972187 0.52287865 0.32315677
0.035426959 0.075184159 0 0.19972187 0.52287865 0.32315677
0.033083908 0.076076128 0 0.19972187 0.52287865 0.32315677
0.03074147 0.076969355 0 0.19972187 0.52287865 0.32315677
0.029221933 0.079999998 0.0015511854 0.19972187 0.52287865 0.32315677
0.026543111 0.079999998 0.000902461 0.19972187 0.52287865 0.32315677
0.023717081 0.079656936 0 0.19972187 0.52287865 0.32315677
0.039855324 0.079999998 0.0011100754 0.19972187 0.52287865 0.32315677
0.03721178 0.079999998 0.00046780152 0.19972187 0.52287865 0.32315677
