# .PCD v0.7 - Point Cloud Data file format
VERSION 0.7
FIELDS x y z vp_x vp_y vp_z
SIZE 4 4 4 4 4 4
TYPE F F F F F F
COUNT 1 1 1 1 1 1
WIDTH 663
HEIGHT 1
VIEWPOINT 0 0 0 1 0 0 0
POINTS 663
DATA ascii
0.035267249 0.047257099 0.07 -0.19972187 0.52287865 0.32315677
0.03285462 0.046375692 0.07 -0.19972187 0.52287865 0.32315677
0.030444784 0.045493215 0.07 -0.19972187 0.52287865 0.32315677
0.028037626 0.044609625 0.07 -0.19972187 0.52287865 0.32315677
0.025633032 0.043724883 0.07 -0.19972187 0.52287865 0.32315677
0.023230886 0.04283895 0.07 -0.19972187 0.52287865 0.32315677
0.020831071 0.041951783 0.07 -0.19972187 0.52287865 0.32315677
0.018433474 0.041063346 0.07 -0.19972187 0.52287865 0.32315677
0.037553031 0.054344345 0.07 -0.19972187 0.52287865 0.32315677
0.035156727 0.053470194 0.07 -0.19972187 0.52287865 0.32315677
0.032763354 0.052595168 0.07 -0.19972187 0.52287865 0.32315677
0.030372791 0.051719233 0.07 -0.19972187 0.52287865 0.32315677
0.027984926 0.050842345 0.07 -0.19972187 0.52287865 0.32315677
0.025599647 0.049964469 0.07 -0.19972187 0.52287865 0.32315677
0.023216838 0.049085565 0.07 -0.19972187 0.52287865 0.32315677
0.020836391 0.048205588 0.07 -0.19972187 0.52287865 0.32315677
0.018458188 0.047324508 0.07 -0.19972187 0.52287865 0.32315677
0.016082119 0.046442278 0.07 -0.19972187 0.52287865 0.32315677
0.013708074 0.045558859 0.07 -0.19972187 0.52287865 0.32315677
0.011335939 0.04467421 0.07 -0.19972187 0.52287865 0.32315677
0.0089656059 0.043788295 0.07 -0.19972187 0.52287865 0.32315677
0.039808203 0.061312217 0.07 -0.19972187 0.52287865 0.32315677
0.037427757 0.060444638 0.07 -0.19972187 0.52287865 0.32315677
0.035050362 0.059576381 0.07 -0.19972187 0.52287865 0.32315677
0.032675907 0.058707405 0.07 -0.19972187 0.52287865 0.32315677
0.030304283 0.057837673 0.07 -0.19972187 0.52287865 0.32315677
0.027935375 0.056967147 0.07 -0.19972187 0.52287865 0.32315677
0.025569072 0.05609579 0.07 -0.19972187 0.52287865 0.32315677
0.023205264 0.055223558 0.07 -0.19972187 0.52287865 0.32315677
0.020843837 0.054350417 0.07 -0.19972187 0.52287865 0.32315677
0.018484686 0.053476326 0.07 -0.19972187 0.52287865 0.32315677
0.016127696 0.052601244 0.07 -0.19972187 0.52287865 0.32315677
0.01377276 0.051725134 0.07 -0.19972187 0.52287865 0.32315677
0.011419768 0.050847959 0.07 -0.19972187 0.52287865 0.32315677
0.0090686111 0.049969677 0.07 -0.19972187 0.52287865 0.32315677
0.0067191808 0.049090251 0.07 -0.19972187 0.52287865 0.32315677
0.0043713688 0.048209637 0.07 -0.19972187 0.52287865 0.32315677
0.037306707 0.06644161 0.07 -0.19972187 0.52287865 0.32315677
0.034947898 0.065578938 0.07 -0.19972187 0.52287865 0.32315677
0.032592043 0.064715691 0.07 -0.19972187 0.52287865 0.32315677
0.030239033 0.063851848 0.07 -0.19972187 0.52287865 0.32315677
0.027888754 0.06298735 0.07 -0.19972187 0.52287865 0.32315677
0.025541101 0.062122177 0.07 -0.19972187 0.52287865 0.32315677
0.023195961 0.061256286 0.07 -0.19972187 0.52287865 0.32315677
0.020853229 0.06038963 0.07 -0.19972187 0.52287865 0.32315677
0.018512793 0.059522182 0.07 -0.19972187 0.52287865 0.32315677
0.016174547 0.058653899 0.07 -0.19972187 0.52287865 0.32315677
0.013838384 0.05778474 0.07 -0.19972187 0.52287865 0.32315677
0.011504196 0.056914669 0.07 -0.19972187 0.52287865 0.32315677
0.0091718752 0.056043651 0.07 -0.19972187 0.52287865 0.32315677
0.0068413164 0.055171642 0.07 -0.19972187 0.52287865 0.32315677
0.004512412 0.054298606 0.07 -0.19972187 0.52287865 0.32315677
0.0021850569 0.053424504 0.07 -0.19972187 0.52287865 0.32315677
0.0348491 0.071481012 0.07 -0.19972187 0.52287865 0.32315677
0.032511529 0.070623197 0.07 -0.19972187 0.52287865 0.32315677
0.030176817 0.069764927 0.07 -0.19972187 0.52287865 0.32315677
0.027844854 0.068906151 0.07 -0.19972187 0.52287865 0.32315677
0.02551553 0.068046845 0.07 -0.19972187 0.52287865 0.32315677
0.023188742 0.067186959 0.07 -0.19972187 0.52287865 0.32315677
0.020864381 0.066326469 0.07 -0.19972187 0.52287865 0.32315677
0.01854234 0.065465324 0.07 -0.19972187 0.52287865 0.32315677
0.016222514 0.0646035 0.07 -0.19972187 0.52287865 0.32315677
0.013904799 0.063740946 0.07 -0.19972187 0.52287865 0.32315677
0.011589086 0.06287764 0.07 -0.19972187 0.52287865 0.32315677
0.0092752716 0.062013526 0.07 -0.19972187 0.52287865 0.32315677
0.0069632521 0.061148576 0.07 -0.19972187 0.52287865 0.32315677
0.004652922 0.060282752 0.07 -0.19972187 0.52287865 0.32315677
0.0023441776 0.059416015 0.07 -0.19972187 0.52287865 0.32315677
8.4733365e-05 0.058437172 0.069939397 -0.19972187 0.52287865 0.32315677
0.021129921 0.0025518697 0.039999999 -0.19972187 0.52287865 0.32315677
0.018552205 0.0015791011 0.039999999 -0.19972187 0.52287865 0.32315677
0.015975799 0.00060514017 0.039999999 -0.19972187 0.52287865 0.32315677
0.033154868 0.075046964 0.069214076 -0.19972187 0.52287865 0.32315677
0.030117424 0.075579956 0.07 -0.19972187 0.52287865 0.32315677
0.027803468 0.074726604 0.07 -0.19972187 0.52287865 0.32315677
0.025492169 0.073872857 0.07 -0.19972187 0.52287865 0.32315677
0.023183422 0.073018678 0.07 -0.19972187 0.52287865 0.32315677
0.020877123 0.072164029 0.07 -0.19972187 0.52287865 0.32315677
0.018573165 0.071308881 0.07 -0.19972187 0.52287865 0.32315677
0.016271444 0.070453182 0.07 -0.19972187 0.52287865 0.32315677
0.01397186 0.069596909 0.07 -0.19972187 0.52287865 0.32315677
0.011674304 0.068740025 0.07 -0.19972187 0.52287865 0.32315677
0.0093786772 0.067882478 0.07 -0.19972187 0.52287865 0.32315677
0.0070848758 0.067024246 0.07 -0.19972187 0.52287865 0.32315677
0.004792796 0.066165283 0.07 -0.19972187 0.52287865 0.32315677
0.0025023371 0.065305553 0.07 -0.19972187 0.52287865 0.32315677
0.00041549391 0.063981637 0.069744103 -0.19972187 0.52287865 0.32315677
7.6686985e-05 0.05858558 0.067245133 -0.19972187 0.52287865 0.32315677
0.018790718 0.0081911003 0.039999999 -0.19972187 0.52287865 0.32315677
0.016234942 0.0072256508 0.039999999 -0.19972187 0.52287865 0.32315677
0.013680411 0.0062591354 0.039999999 -0.19972187 0.52287865 0.32315677
0.01112701 0.0052915132 0.039999999 -0.19972187 0.52287865 0.32315677
0.0085746273 0.0043227402 0.039999999 -0.19972187 0.52287865 0.32315677
0.0060231518 0.0033527757 0.039999999 -0.19972187 0.52287865 0.32315677
0.003472469 0.0023815762 0.039999999 -0.19972187 0.52287865 0.32315677
0.00092246721 0.0014090993 0.039999999 -0.19972187 0.52287865 0.32315677
0.033469554 0.074748896 0.066244327 -0.19972187 0.52287865 0.32315677
0.029140364 0.077775612 0.068468772 -0.19972187 0.52287865 0.32315677
0.025699263 0.079153523 0.069743201 -0.19972187 0.52287865 0.32315677
0.023179825 0.078754403 0.07 -0.19972187 0.52287865 0.32315677
0.020891285 0.077905297 0.07 -0.19972187 0.52287865 0.32315677
0.018605106 0.077055834 0.07 -0.19972187 0.52287865 0.32315677
0.016321188 0.076205961 0.07 -0.19972187 0.52287865 0.32315677
0.014039427 0.075355649 0.07 -0.19972187 0.52287865 0.32315677
0.011759723 0.07450486 0.07 -0.19972187 0.52287865 0.32315677
0.009481973 0.073653564 0.07 -0.19972187 0.52287865 0.32315677
0.0072060772 0.072801717 0.07 -0.19972187 0.52287865 0.32315677
0.0049319351 0.071949281 0.07 -0.19972187 0.52287865 0.32315677
0.0029521561 0.070442803 0.069633849 -0.19972187 0.52287865 0.32315677
0.001543017 0.067631096 0.068539448 -0.19972187 0.52287865 0.32315677
0.00043247573 0.064085215 0.067039713 -0.19972187 0.52287865 0.32315677
6.860945e-05 0.058734562 0.064540431 -0.19972187 0.52287865 0.32315677
0.016491476 0.013733998 0.039999999 -0.19972187 0.52287865 0.32315677
0.013957258 0.012775756 0.039999999 -0.19972187 0.52287865 0.32315677
0.011424221 0.011816571 0.039999999 -0.19972187 0.52287865 0.32315677
0.0088922549 0.010856402 0.039999999 -0.19972187 0.52287865 0.32315677
0.006361247 0.0098952083 0.039999999 -0.19972187 0.52287865 0.32315677
0.0038310888 0.0089329462 0.039999999 -0.19972187 0.52287865 0.32315677
0.0013016694 0.007969575 0.039999999 -0.19972187 0.52287865 0.32315677
0 0.0038158533 0.038249485 -0.19972187 0.52287865 0.32315677
0.033786152 0.07444901 0.063256539 -0.19972187 0.52287865 0.32315677
0.029339677 0.077683397 0.065628432 -0.19972187 0.52287865 0.32315677
0.025873028 0.079094969 0.066938885 -0.19972187 0.52287865 0.32315677
0.022799594 0.079783931 0.067828037 -0.19972187 0.52287865 0.32315677
0.019995699 0.079972237 0.068425961 -0.19972187 0.52287865 0.32315677
0.017381513 0.079803638 0.06881687 -0.19972187 0.52287865 0.32315677
0.014924494 0.079331547 0.069032587 -0.19972187 0.52287865 0.32315677
0.012606275 0.078582555 0.069089331 -0.19972187 0.52287865 0.32315677
0.010426452 0.077546649 0.068982311 -0.19972187 0.52287865 0.32315677
0.0083699385 0.076244906 0.068724506 -0.19972187 0.52287865 0.32315677
0.0064388658 0.074662171 0.06830816 -0.19972187 0.52287865 0.32315677
0.0046421872 0.072767548 0.067716673 -0.19972187 0.52287865 0.32315677
0.0029974082 0.070509546 0.066921897 -0.19972187 0.52287865 0.32315677
0.0015756068 0.067712896 0.065825924 -0.19972187 0.52287865 0.32315677
0.00044952752 0.064189225 0.064324185 -0.19972187 0.52287865 0.32315677
6.0500272e-05 0.058884129 0.061825141 -0.19972187 0.52287865 0.32315677
0.014231092 0.019183217 0.039999999 -0.19972187 0.52287865 0.32315677
0.011718064 0.018232074 0.039999999 -0.19972187 0.52287865 0.32315677
0.0092061544 0.017280107 0.039999999 -0.19972187 0.52287865 0.32315677
0.0066952547 0.016327275 0.039999999 -0.19972187 0.52287865 0.32315677
0.0041852579 0.015373537 0.039999999 -0.19972187 0.52287865 0.32315677
0.001676055 0.014418854 0.039999999 -0.19972187 0.52287865 0.32315677
0 0.011330999 0.038814832 -0.19972187 0.52287865 0.32315677
0 0.00382518 0.035183571 -0.19972187 0.52287865 0.32315677
0.03410469 0.074147284 0.06025042 -0.19972187 0.52287865 0.32315677
0.029557841 0.077556096 0.062753111 -0.19972187 0.52287865 0.32315677
0.026047667 0.079036124 0.064120479 -0.19972187 0.52287865 0.32315677
0.022944655 0.079768151 0.065046929 -0.19972187 0.52287865 0.32315677
0.020124154 0.079974934 0.06566453 -0.19972187 0.52287865 0.32315677
0.017497934 0.079816304 0.066067815 -0.19972187 0.52287865 0.32315677
0.015028968 0.079354547 0.066294126 -0.19972187 0.52287865 0.32315677
0.012699896 0.078614101 0.066358626 -0.19972187 0.52287865 0.32315677
0.010505815 0.077594399 0.066261925 -0.19972187 0.52287865 0.32315677
0.0084402282 0.076298341 0.066006646 -0.19972187 0.52287865 0.32315677
0.006500545 0.074720591 0.065590657 -0.19972187 0.52287865 0.32315677
0.0046956167 0.072830446 0.064997278 -0.19972187 0.52287865 0.32315677
0.0030428572 0.070576578 0.064198151 -0.19972187 0.52287865 0.32315677
0.0016083358 0.067795038 0.063100807 -0.19972187 0.52287865 0.32315677
0.00046665035 0.064293675 0.061597344 -0.19972187 0.52287865 0.32315677
5.2358948e-05 0.059034288 0.059099082 -0.19972187 0.52287865 0.32315677
0.012008508 0.024541313 0.039999999 -0.19972187 0.52287865 0.32315677
0.0095163081 0.023597162 0.039999999 -0.19972187 0.52287865 0.32315677
0.0070251678 0.022652304 0.039999999 -0.19972187 0.52287865 0.32315677
0.0045349803 0.021706695 0.039999999 -0.19972187 0.52287865 0.32315677
0.0020456398 0.020760298 0.039999999 -0.19972187 0.52287865 0.32315677
0 0.018694852 0.039370593 -0.19972187 0.52287865 0.32315677
0 0.011358401 0.035782777 -0.19972187 0.52287865 0.32315677
0 0.0038345484 0.03210387 -0.19972187 0.52287865 0.32315677
0.034425203 0.073843695 0.057225693 -0.19972187 0.52287865 0.32315677
0.029780159 0.077422336 0.059858862 -0.19972187 0.52287865 0.32315677
0.026223192 0.078976974 0.061287772 -0.19972187 0.52287865 0.32315677
0.023090422 0.079752296 0.062252291 -0.19972187 0.52287865 0.32315677
0.020253222 0.079977646 0.062889919 -0.19972187 0.52287865 0.32315677
0.017614905 0.07982903 0.063305795 -0.19972187 0.52287865 0.32315677
0.015133929 0.079377644 0.06354291 -0.19972187 0.52287865 0.32315677
0.012793949 0.078645796 0.063615337 -0.19972187 0.52287865 0.32315677
0.010585537 0.077642366 0.063529238 -0.19972187 0.52287865 0.32315677
0.0085108327 0.076352015 0.063276604 -0.19972187 0.52287865 0.32315677
0.0065624993 0.07477928 0.062861055 -0.19972187 0.52287865 0.32315677
0.0047492818 0.072893627 0.062265854 -0.19972187 0.52287865 0.32315677
0.0030885057 0.070643902 0.06146244 -0.19972187 0.52287865 0.32315677
0.0016412061 0.067877539 0.060363915 -0.19972187 0.52287865 0.32315677
0.0004907379 0.064382769 0.058849908 -0.19972187 0.52287865 0.32315677
4.4184984e-05 0.05918505 0.056362096 -0.19972187 0.52287865 0.32315677
0.0098226983 0.029810751 0.039999999 -0.19972187 0.52287865 0.32315677
0.007350978 0.028873492 0.039999999 -0.19972187 0.52287865 0.32315677
0.0048802593 0.027935633 0.039999999 -0.19972187 0.52287865 0.32315677
0.0024104377 0.02699714 0.039999999 -0.19972187 0.52287865 0.32315677
0 0.025912175 0.039916907 -0.19972187 0.52287865 0.32315677
0 0.018739589 0.036371522 -0.19972187 0.52287865 0.32315677
0 0.011385925 0.032737125 -0.19972187 0.52287865 0.32315677
0 0.0038439597 0.029010167 -0.19972187 0.52287865 0.32315677
0.034818616 0.073402338 0.054100737 -0.19972187 0.52287865 0.32315677
0.030003695 0.077287845 0.056948762 -0.19972187 0.52287865 0.32315677
0.026399618 0.078917533 0.058440533 -0.19972187 0.52287865 0.32315677
0.023236988 0.079736196 0.059443805 -0.19972187 0.52287865 0.32315677
0.020382915 0.079980366 0.06010193 -0.19972187 0.52287865 0.32315677
0.017732434 0.079841815 0.060530618 -0.19972187 0.52287865 0.32315677
0.015239385 0.079400852 0.060778748 -0.19972187 0.52287865 0.32315677
0.012888439 0.078677632 0.060859282 -0.19972187 0.52287865 0.32315677
0.010667447 0.077686697 0.060781781 -0.19972187 0.52287865 0.32315677
0.0085817575 0.076405935 0.060534183 -0.19972187 0.52287865 0.32315677
0.0066247322 0.074838229 0.060119171 -0.19972187 0.52287865 0.32315677
0.0048031872 0.072957091 0.059522219 -0.19972187 0.52287865 0.32315677
0.003134357 0.070711523 0.058714572 -0.19972187 0.52287865 0.32315677
0.00167422 0.067960396 0.057615075 -0.19972187 0.52287865 0.32315677
0.00051532948 0.064471342 0.056090049 -0.19972187 0.52287865 0.32315677
3.5977864e-05 0.05933642 0.053614005 -0.19972187 0.52287865 0.32315677
0.0076726777 0.034993913 0.039999999 -0.19972187 0.52287865 0.32315677
0.0052210973 0.03406344 0.039999999 -0.19972187 0.52287865 0.32315677
0.0027704616 0.033132479 0.039999999 -0.19972187 0.52287865 0.32315677
0.00032066859 0.032200992 0.039999999 -0.19972187 0.52287865 0.32315677
0 0.025973547 0.03694997 -0.19972187 0.52287865 0.32315677
0.0074424213 0 0.022560036 -0.19972187 0.52287865 0.32315677
0 0.011413573 0.02967767 -0.19972187 0.52287865 0.32315677
0 0.003853414 0.025902251 -0.19972187 0.52287865 0.32315677
0.03524448 0.072900988 0.050919723 -0.19972187 0.52287865 0.32315677
0.030228468 0.077152602 0.054022569 -0.19972187 0.52287865 0.32315677
0.026576957 0.078857772 0.055578552 -0.19972187 0.52287865 0.32315677
0.023393476 0.079701751 0.056610376 -0.19972187 0.52287865 0.32315677
0.020513237 0.0799831 0.057300359 -0.19972187 0.52287865 0.32315677
0.017850528 0.07985466 0.057742078 -0.19972187 0.52287865 0.32315677
0.015345342 0.079424173 0.058001444 -0.19972187 0.52287865 0.32315677
0.012983373 0.078709625 0.058090262 -0.19972187 0.52287865 0.32315677
0.010752243 0.077725925 0.058018431 -0.19972187 0.52287865 0.32315677
0.0086530065 0.076460101 0.057779193 -0.19972187 0.52287865 0.32315677
0.0066872481 0.074897438 0.05736481 -0.19972187 0.52287865 0.32315677
0.0048573366 0.073020838 0.056766186 -0.19972187 0.52287865 0.32315677
0.0031804144 0.070779458 0.055954363 -0.19972187 0.52287865 0.32315677
0.0017073796 0.068043627 0.054854102 -0.19972187 0.52287865 0.32315677
0.00054002885 0.064560302 0.053318094 -0.19972187 0.52287865 0.32315677
2.7737071e-05 0.059488416 0.050854642 -0.19972187 0.52287865 0.32315677
0.0055574947 0.040093087 0.039999999 -0.19972187 0.52287865 0.32315677
0.0031257225 0.039169308 0.039999999 -0.19972187 0.52287865 0.32315677
0.00069484051 0.038245142 0.039999999 -0.19972187 0.52287865 0.32315677
0 0.033064883 0.037518274 -0.19972187 0.52287865 0.32315677
0 0.026035191 0.033969797 -0.19972187 0.52287865 0.32315677
0 0.018829666 0.030332938 -0.19972187 0.52287865 0.32315677
0 0.011441349 0.026604202 -0.19972187 0.52287865 0.32315677
0 0.0038629123 0.022779904 -0.19972187 0.52287865 0.32315677
0.035673421 0.072396018 0.047715694 -0.19972187 0.52287865 0.32315677
0.030454494 0.077016607 0.051080033 -0.19972187 0.52287865 0.32315677
0.026755225 0.078797705 0.0527016 -0.19972187 0.52287865 0.32315677
0.023550764 0.079667136 0.053762488 -0.19972187 0.52287865 0.32315677
0.020645857 0.079982527 0.054482974 -0.19972187 0.52287865 0.32315677
0.017969195 0.079867572 0.054939978 -0.19972187 0.52287865 0.32315677
0.015451808 0.079447605 0.055210795 -0.19972187 0.52287865 0.32315677
0.013078758 0.078741767 0.055308077 -0.19972187 0.52287865 0.32315677
0.010837439 0.077765338 0.055242065 -0.19972187 0.52287865 0.32315677
0.008724587 0.07651452 0.055011444 -0.19972187 0.52287865 0.32315677
0.0067500519 0.074956931 0.054597788 -0.19972187 0.52287865 0.32315677
0.0049117329 0.073084876 0.053997565 -0.19972187 0.52287865 0.32315677
0.0032266809 0.070847698 0.053181626 -0.19972187 0.52287865 0.32315677
0.0017406872 0.068127222 0.052080806 -0.19972187 0.52287865 0.32315677
0.0005648376 0.064649649 0.050533865 -0.19972187 0.52287865 0.32315677
1.9462084e-05 0.059641041 0.048083831 -0.19972187 0.52287865 0.32315677
0.0034762304 0.045110494 0.039999999 -0.19972187 0.52287865 0.32315677
0.0010639444 0.044193309 0.039999999 -0.19972187 0.52287865 0.32315677
2.7755576e-17 0.040018026 0.038076591 -0.19972187 0.52287865 0.32315677
0 0.033142567 0.034569584 -0.19972187 0.52287865 0.32315677
0 0.026097113 0.030976187 -0.19972187 0.52287865 0.32315677
0 0.018875012 0.027293015 -0.19972187 0.52287865 0.32315677
0 0.011469253 0.023516504 -0.19972187 0.52287865 0.32315677
0 0.0038724551 0.019642904 -0.19972187 0.52287865 0.32315677
0.036230475 0.071648359 0.044340596 -0.19972187 0.52287865 0.32315677
0.030681796 0.076879844 0.048120912 -0.19972187 0.52287865 0.32315677
0.026934432 0.078737319 0.049809448 -0.19972187 0.52287865 0.32315677
0.023708861 0.079632342 0.050899919 -0.19972187 0.52287865 0.32315677
0.020780666 0.079978876 0.05164966 -0.19972187 0.52287865 0.32315677
0.018088445 0.079880543 0.052124102 -0.19972187 0.52287865 0.32315677
0.01555879 0.079471156 0.052406598 -0.19972187 0.52287865 0.32315677
0.013174603 0.078774057 0.052512527 -0.19972187 0.52287865 0.32315677
0.010923039 0.077804945 0.05245249 -0.19972187 0.52287865 0.32315677
0.0087976716 0.076566681 0.052229222 -0.19972187 0.52287865 0.32315677
0.0068131476 0.075016692 0.051817901 -0.19972187 0.52287865 0.32315677
0.0049663805 0.073149212 0.051216163 -0.19972187 0.52287865 0.32315677
0.0032731595 0.070916243 0.050396167 -0.19972187 0.52287865 0.32315677
0.0017741451 0.068211198 0.049295001 -0.19972187 0.52287865 0.32315677
0.0005897574 0.064739399 0.047737163 -0.19972187 0.52287865 0.32315677
1.1152373e-05 0.059794303 0.045301389 -0.19972187 0.52287865 0.32315677
0.0014279984 0.050048269 0.039999999 -0.19972187 0.52287865 0.32315677
0 0.046837211 0.038625058 -0.19972187 0.52287865 0.32315677
0 0.040111102 0.035158578 -0.19972187 0.52287865 0.32315677
0 0.033220597 0.031607628 -0.19972187 0.52287865 0.32315677
0 0.026159318 0.027968936 -0.19972187 0.52287865 0.32315677
0 0.018920569 0.024239056 -0.19972187 0.52287865 0.32315677
0 0.011497288 0.02041436 -0.19972187 0.52287865 0.32315677
0 0.0038820433 0.016491029 -0.19972187 0.52287865 0.32315677
0.039978847 0.070301935 0.039999999 -0.19972187 0.52287865 0.32315677
0.036963332 0.070567407 0.040732853 -0.19972187 0.52287865 0.32315677
0.030910391 0.076742306 0.045144945 -0.19972187 0.52287865 0.32315677
0.027114596 0.078676611 0.046901867 -0.19972187 0.52287865 0.32315677
0.023867782 0.079597361 0.048022445 -0.19972187 0.52287865 0.32315677
0.020916155 0.07997521 0.048802033 -0.19972187 0.52287865 0.32315677
0.01820829 0.079893582 0.049294248 -0.19972187 0.52287865 0.32315677
0.015666299 0.079494819 0.049588647 -0.19972187 0.52287865 0.32315677
0.013270912 0.078806512 0.049703412 -0.19972187 0.52287865 0.32315677
0.011009051 0.077844739 0.049649496 -0.19972187 0.52287865 0.32315677
0.0088741062 0.076612666 0.049429864 -0.19972187 0.52287865 0.32315677
0.006876539 0.075076744 0.049024966 -0.19972187 0.52287865 0.32315677
0.0050212829 0.073213853 0.048421782 -0.19972187 0.52287865 0.32315677
0.0033198537 0.070985116 0.047597788 -0.19972187 0.52287865 0.32315677
0.0018077554 0.068295561 0.046496492 -0.19972187 0.52287865 0.32315677
0.00061479001 0.064829558 0.044927806 -0.19972187 0.52287865 0.32315677
2.8073994e-06 0.059948217 0.042507142 -0.19972187 0.52287865 0.32315677
0 0.053526524 0.039163817 -0.19972187 0.52287865 0.32315677
0 0.046945084 0.035736945 -0.19972187 0.52287865 0.32315677
2.7755576e-17 0.040204599 0.032227464 -0.19972187 0.52287865 0.32315677
0 0.03329898 0.028632203 -0.19972187 0.52287865 0.32315677
0 0.02622181 0.024947833 -0.19972187 0.52287865 0.32315677
0 0.018966336 0.021170845 -0.19972187 0.52287865 0.32315677
0 0.011525456 0.017297549 -0.19972187 0.52287865 0.32315677
0 0.0038916774 0.013324052 -0.19972187 0.52287865 0.32315677
0.037669241 0.074992657 0.039999999 -0.19972187 0.52287865 0.32315677
0.035287574 0.074089274 0.039999999 -0.19972187 0.52287865 0.32315677
0.0311403 0.076603979 0.042151876 -0.19972187 0.52287865 0.32315677
0.027295733 0.078615576 0.04397862 -0.19972187 0.52287865 0.32315677
0.024027539 0.079562202 0.045129839 -0.19972187 0.52287865 0.32315677
0.021052334 0.07997153 0.045939866 -0.19972187 0.52287865 0.32315677
0.018328734 0.079906687 0.046450198 -0.19972187 0.52287865 0.32315677
0.015774338 0.079518594 0.046756729 -0.19972187 0.52287865 0.32315677
0.013367693 0.078839123 0.046880517 -0.19972187 0.52287865 0.32315677
0.011095482 0.077884726 0.046832886 -0.19972187 0.52287865 0.32315677
0.0089509096 0.076658882 0.046617016 -0.19972187 0.52287865 0.32315677
0.0069402317 0.075137071 0.046218771 -0.19972187 0.52287865 0.32315677
0.0050764442 0.073278792 0.045614228 -0.19972187 0.52287865 0.32315677
0.0033667667 0.071054302 0.044786297 -0.19972187 0.52287865 0.32315677
0.0018415208 0.068380304 0.043685086 -0.19972187 0.52287865 0.32315677
0.00063993718 0.064920127 0.042105597 -0.19972187 0.52287865 0.32315677
2.7755576e-17 0.060089879 0.039692994 -0.19972187 0.52287865 0.32315677
2.7755576e-17 0.05364861 0.036304846 -0.19972187 0.52287865 0.32315677
2.7755576e-17 0.047053438 0.032835886 -0.19972187 0.52287865 0.32315677
2.7755576e-17 0.040298522 0.029283047 -0.19972187 0.52287865 0.32315677
0 0.033377726 0.025643105 -0.19972187 0.52287865 0.32315677
0 0.026284592 0.021912668 -0.19972187 0.52287865 0.32315677
0 0.019012321 0.018088168 -0.19972187 0.52287865 0.32315677
0 0.011553758 0.014165846 -0.19972187 0.52287865 0.32315677
0 0.003901358 0.010141741 -0.19972187 0.52287865 0.32315677
0.039999999 0.076337501 0.03732916 -0.19972187 0.52287865 0.32315677
0.035395369 0.079610795 0.039999999 -0.19972187 0.52287865 0.32315677
0.033033062 0.078712218 0.039999999 -0.19972187 0.52287865 0.32315677
0.030672964 0.077814326 0.039999999 -0.19972187 0.52287865 0.32315677
0.027484171 0.078541853 0.041031625 -0.19972187 0.52287865 0.32315677
0.024188144 0.079526849 0.04222187 -0.19972187 0.52287865 0.32315677
0.021193804 0.079958625 0.043057133 -0.19972187 0.52287865 0.32315677
0.018449789 0.079919852 0.043591741 -0.19972187 0.52287865 0.32315677
0.015882919 0.079542495 0.043910637 -0.19972187 0.52287865 0.32315677
0.013464954 0.078871898 0.044043642 -0.19972187 0.52287865 0.32315677
0.011182337 0.077924907 0.044002447 -0.19972187 0.52287865 0.32315677
0.0090280874 0.076705314 0.043790475 -0.19972187 0.52287865 0.32315677
0.0070042298 0.075197689 0.043399122 -0.19972187 0.52287865 0.32315677
0.0051318682 0.073344044 0.042793296 -0.19972187 0.52287865 0.32315677
0.0034139021 0.071123824 0.041961495 -0.19972187 0.52287865 0.32315677
0.0018795036 0.068456292 0.040854905 -0.19972187 0.52287865 0.32315677
0.00015015599 0.066187955 0.039999999 -0.19972187 0.52287865 0.32315677
0 0.060225632 0.036862437 -0.19972187 0.52287865 0.32315677
0 0.053771242 0.03343308 -0.19972187 0.52287865 0.32315677
2.7755576e-17 0.047162283 0.029921683 -0.19972187 0.52287865 0.32315677
0.016720371 0 0.0014748889 -0.19972187 0.52287865 0.32315677
0 0.03345684 0.02264012 -0.19972187 0.52287865 0.32315677
0 0.026347669 0.018863223 -0.19972187 0.52287865 0.32315677
0 0.019058524 0.014990801 -0.19972187 0.52287865 0.32315677
0.0045242207 0 0.0039482922 -0.19972187 0.52287865 0.32315677
0.0015051605 0 0.0045607947 -0.19972187 0.52287865 0.32315677
0.039999999 0.076680265 0.034585189 -0.19972187 0.52287865 0.32315677
0.035363551 0.079999998 0.037316233 -0.19972187 0.52287865 0.32315677
0.032524921 0.079999998 0.037897401 -0.19972187 0.52287865 0.32315677
0.029700346 0.079999998 0.038475718 -0.19972187 0.52287865 0.32315677
0.026889624 0.079999998 0.039051224 -0.19972187 0.52287865 0.32315677
0.024092542 0.079999998 0.039623965 -0.19972187 0.52287865 0.32315677
0.021337338 0.079943009 0.040157571 -0.19972187 0.52287865 0.32315677
0.018571462 0.079933092 0.040718652 -0.19972187 0.52287865 0.32315677
0.015992049 0.079566509 0.041050155 -0.19972187 0.52287865 0.32315677
0.013562702 0.07890483 0.041192569 -0.19972187 0.52287865 0.32315677
0.011269622 0.077965289 0.041157968 -0.19972187 0.52287865 0.32315677
0.0091056442 0.076751977 0.040950023 -0.19972187 0.52287865 0.32315677
0.0070695779 0.075256355 0.040564388 -0.19972187 0.52287865 0.32315677
0.0051577371 0.073475018 0.039999999 -0.19972187 0.52287865 0.32315677
0.0028340255 0.072588049 0.039999999 -0.19972187 0.52287865 0.32315677
0.000511355 0.07170143 0.039999999 -0.19972187 0.52287865 0.32315677
2.7755576e-17 0.06667994 0.037409868 -0.19972187 0.52287865 0.32315677
0 0.060361989 0.034019224 -0.19972187 0.52287865 0.32315677
0 0.05389443 0.030548321 -0.19972187 0.52287865 0.32315677
2.7755576e-17 0.047271628 0.026994133 -0.19972187 0.52287865 0.32315677
0 0.040487666 0.023353485 -0.19972187 0.52287865 0.32315677
0 0.033536322 0.019623039 -0.19972187 0.52287865 0.32315677
0.010266425 0.00089082069 0 -0.19972187 0.52287865 0.32315677
0 0.01910495 0.011878521 -0.19972187 0.52287865 0.32315677
0.0045356373 0 0.00069646933 -0.19972187 0.52287865 0.32315677
0.0015089512 0 0.0013168324 -0.19972187 0.52287865 0.32315677
0.038400073 0.079999998 0.033775203 -0.19972187 0.52287865 0.32315677
0.035539102 0.079999998 0.034368284 -0.19972187 0.52287865 0.32315677
0.032692492 0.079999998 0.034958363 -0.19972187 0.52287865 0.32315677
0.029860018 0.079999998 0.035545483 -0.19972187 0.52287865 0.32315677
0.027041474 0.079999998 0.036129687 -0.19972187 0.52287865 0.32315677
0.024236649 0.079999998 0.036711019 -0.19972187 0.52287865 0.32315677
0.021445336 0.079999998 0.037289526 -0.19972187 0.52287865 0.32315677
0.018667333 0.079999998 0.037865244 -0.19972187 0.52287865 0.32315677
0.015902439 0.079999998 0.03843822 -0.19972187 0.52287865 0.32315677
0.013150457 0.079999998 0.039008491 -0.19972187 0.52287865 0.32315677
0.010411193 0.079999998 0.039576102 -0.19972187 0.52287865 0.32315677
0.0077878502 0.079779215 0.039999999 -0.19972187 0.52287865 0.32315677
0.005479868 0.07889694 0.039999999 -0.19972187 0.52287865 0.32315677
0.00317305 0.078015164 0.039999999 -0.19972187 0.52287865 0.32315677
0.00086730783 0.077133849 0.039999999 -0.19972187 0.52287865 0.32315677
0 0.073015183 0.037947278 -0.19972187 0.52287865 0.32315677
2.7755576e-17 0.066829503 0.034594491 -0.19972187 0.52287865 0.32315677
2.7755576e-17 0.060498964 0.031163163 -0.19972187 0.52287865 0.32315677
0 0.054018181 0.027650369 -0.19972187 0.52287865 0.32315677
0 0.047381479 0.024053033 -0.19972187 0.52287865 0.32315677
0 0.040582899 0.020367924 -0.19972187 0.52287865 0.32315677
0 0.033616181 0.016591648 -0.19972187 0.52287865 0.32315677
0 0.026474727 0.012720628 -0.19972187 0.52287865 0.32315677
0.005559017 0.0051309695 0 -0.19972187 0.52287865 0.32315677
0 0.011639492 0.0046791057 -0.19972187 0.52287865 0.32315677
0 0.003930687 0.00050045899 -0.19972187 0.52287865 0.32315677
0.038584668 0.079999998 0.030802347 -0.19972187 0.52287865 0.32315677
0.035715595 0.079999998 0.031404536 -0.19972187 0.52287865 0.32315677
0.032860957 0.079999998 0.032003615 -0.19972187 0.52287865 0.32315677
0.030020542 0.079999998 0.032599621 -0.19972187 0.52287865 0.32315677
0.039999999 0.055006415 0.016828658 -0.19972187 0.52287865 0.32315677
0.024381522 0.079999998 0.033782616 -0.19972187 0.52287865 0.32315677
0.021582497 0.079999998 0.034369688 -0.19972187 0.52287865 0.32315677
0.018796857 0.079999998 0.034953877 -0.19972187 0.52287865 0.32315677
0.016024401 0.079999998 0.035535213 -0.19972187 0.52287865 0.32315677
0.013264927 0.079999998 0.036113746 -0.19972187 0.52287865 0.32315677
0.010518241 0.079999998 0.03668952 -0.19972187 0.52287865 0.32315677
0.0077841491 0.079999998 0.037262566 -0.19972187 0.52287865 0.32315677
0.032216143 0.021275852 0 -0.19972187 0.52287865 0.32315677
0.0023529895 0.079999998 0.038400661 -0.19972187 0.52287865 0.32315677
2.7755576e-17 0.079234868 0.038474806 -0.19972187 0.52287865 0.32315677
0 0.073177442 0.03515904 -0.19972187 0.52287865 0.32315677
2.7755576e-17 0.066979736 0.031766403 -0.19972187 0.52287865 0.32315677
0 0.060636565 0.028294057 -0.19972187 0.52287865 0.32315677
0 0.054142505 0.024739021 -0.19972187 0.52287865 0.32315677
0 0.047491845 0.021098176 -0.19972187 0.52287865 0.32315677
0 0.040678587 0.017368229 -0.19972187 0.52287865 0.32315677
0 0.033696424 0.013545725 -0.19972187 0.52287865 0.32315677
0 0.026538718 0.0096270293 -0.19972187 0.52287865 0.32315677
0 0.019198483 0.0056083114 -0.19972187 0.52287865 0.32315677
0 0.011668352 0.0014855348 -0.19972187 0.52287865 0.32315677
0.03877027 0.079999998 0.02781336 -0.19972187 0.52287865 0.32315677
0.035893042 0.079999998 0.028424749 -0.19972187 0.52287865 0.32315677
0.033030335 0.079999998 0.02903291 -0.19972187 0.52287865 0.32315677
0.039999999 0.061086815 0.017103137 -0.19972187 0.52287865 0.32315677
0.027347613 0.079999998 0.030239748 -0.19972187 0.52287865 0.32315677
0.02452717 0.079999998 0.030838516 -0.19972187 0.52287865 0.32315677
0.021720393 0.079999998 0.031434245 -0.19972187 0.52287865 0.32315677
0.018927075 0.079999998 0.032026976 -0.19972187 0.52287865 0.32315677
0.016147012 0.079999998 0.032616761 -0.19972187 0.52287865 0.32315677
0.013380005 0.079999998 0.033203635 -0.19972187 0.52287865 0.32315677
0.010625856 0.079999998 0.033787645 -0.19972187 0.52287865 0.32315677
0.0078843711 0.079999998 0.034368832 -0.19972187 0.52287865 0.32315677
0.0051553585 0.079999998 0.034947239 -0.19972187 0.52287865 0.32315677
0.027405538 0.025304295 0 -0.19972187 0.52287865 0.32315677
0 0.079409353 0.035713032 -0.19972187 0.52287865 0.32315677
0 0.073340431 0.032358225 -0.19972187 0.52287865 0.32315677
0 0.067130655 0.02892541 -0.19972187 0.52287865 0.32315677
2.7755576e-17 0.060774799 0.025411703 -0.19972187 0.52287865 0.32315677
2.7755576e-17 0.054267406 0.021814076 -0.19972187 0.52287865 0.32315677
0 0.047602728 0.018129351 -0.19972187 0.52287865 0.32315677
0.0092837438 0.018364921 0 -0.19972187 0.52287865 0.32315677
0 0.033777054 0.010485052 -0.19972187 0.52287865 0.32315677
0 0.026603023 0.0065182629 -0.19972187 0.52287865 0.32315677
0 0.019245597 0.0024499157 -0.19972187 0.52287865 0.32315677
0.038956884 0.079999998 0.024807995 -0.19972187 0.52287865 0.32315677
0.036071457 0.079999998 0.025428673 -0.19972187 0.52287865 0.32315677
0.033200633 0.079999998 0.026046013 -0.19972187 0.52287865 0.32315677
0.039999999 0.061412517 0.014216185 -0.19972187 0.52287865 0.32315677
0.027501924 0.079999998 0.027270868 -0.19972187 0.52287865 0.32315677
0.039999999 0.049751032 0.0077107386 -0.19972187 0.52287865 0.32315677
0.021859033 0.079999998 0.028482947 -0.19972187 0.52287865 0.32315677
0.019057991 0.079999998 0.029084312 -0.19972187 0.52287865 0.32315677
0.038116202 0.035206281 0 -0.19972187 0.52287865 0.32315677
0.0134957 0.079999998 0.030277917 -0.19972187 0.52287865 0.32315677
0.032961641 0.033224758 0 -0.19972187 0.52287865 0.32315677
0.007985129 0.079999998 0.031459652 -0.19972187 0.52287865 0.32315677
0.0052487506 0.079999998 0.032046176 -0.19972187 0.52287865 0.32315677
0.0025247221 0.079999998 0.032629859 -0.19972187 0.52287865 0.32315677
0 0.079584621 0.032938804 -0.19972187 0.52287865 0.32315677
0 0.073504165 0.029544635 -0.19972187 0.52287865 0.32315677
0 0.067282267 0.02607131 -0.19972187 0.52287865 0.32315677
0 0.060913682 0.0225159 -0.19972187 0.52287865 0.32315677
0 0.0543929 0.018875323 -0.19972187 0.52287865 0.32315677
0 0.047714144 0.015146345 -0.19972187 0.52287865 0.32315677
0 0.040871337 0.011325564 -0.19972187 0.52287865 0.32315677
0 0.033858079 0.0074094026 -0.19972187 0.52287865 0.32315677
0 0.026667647 0.0033940959 -0.19972187 0.52287865 0.32315677
0.039144535 0.079999998 0.021786004 -0.19972187 0.52287865 0.32315677
0.036250859 0.079999998 0.022416065 -0.19972187 0.52287865 0.32315677
0.033371873 0.079999998 0.023042671 -0.19972187 0.52287865 0.32315677
0.030507352 0.079999998 0.023665875 -0.19972187 0.52287865 0.32315677
0.027657082 0.079999998 0.024285726 -0.19972187 0.52287865 0.32315677
0.021998428 0.079999998 0.02551556 -0.19972187 0.52287865 0.32315677
0.019189622 0.079999998 0.02612564 -0.19972187 0.52287865 0.32315677
0.01639422 0.079999998 0.026732558 -0.19972187 0.52287865 0.32315677
0.013612022 0.079999998 0.027336359 -0.19972187 0.52287865 0.32315677
0.010842823 0.079999998 0.027937088 -0.19972187 0.52287865 0.32315677
0.028213123 0.037106223 0 -0.19972187 0.52287865 0.32315677
0.0053426451 0.079999998 0.029129509 -0.19972187 0.52287865 0.32315677
0.023105057 0.035142016 0 -0.19972187 0.52287865 0.32315677
0 0.079760693 0.030151932 -0.19972187 0.52287865 0.32315677
0 0.073668659 0.026718076 -0.19972187 0.52287865 0.32315677
0 0.067434594 0.023203908 -0.19972187 0.52287865 0.32315677
0 0.061053216 0.019606443 -0.19972187 0.52287865 0.32315677
0 0.054518994 0.015922552 -0.19972187 0.52287865 0.32315677
2.7755576e-17 0.0478261 0.012148942 -0.19972187 0.52287865 0.32315677
0 0.040968414 0.0082821548 -0.19972187 0.52287865 0.32315677
0.002705161 0.027317001 0 -0.19972187 0.52287865 0.32315677
0 0.026732592 0.00025429457 -0.19972187 0.52287865 0.32315677
0.039333232 0.079999998 0.018747132 -0.19972187 0.52287865 0.32315677
0.036431257 0.079999998 0.019386668 -0.19972187 0.52287865 0.32315677
0.03354406 0.079999998 0.020022634 -0.19972187 0.52287865 0.32315677
0.030671414 0.079999998 0.020655084 -0.19972187 0.52287865 0.32315677
0.027813097 0.079999998 0.021284068 -0.19972187 0.52287865 0.32315677
0.024968894 0.079999998 0.021909636 -0.19972187 0.52287865 0.32315677
0.02213859 0.079999998 0.022531835 -0.19972187 0.52287865 0.32315677
0.019321974 0.079999998 0.023150718 -0.19972187 0.52287865 0.32315677
0.016518839 0.079999998 0.023766328 -0.19972187 0.52287865 0.32315677
0.013728979 0.079999998 0.024378717 -0.19972187 0.52287865 0.32315677
0.010952192 0.079999998 0.024987927 -0.19972187 0.52287865 0.32315677
0.0081882812 0.079999998 0.025594007 -0.19972187 0.52287865 0.32315677
0.023535624 0.04093042 0 -0.19972187 0.52287865 0.32315677
0.0026983027 0.079999998 0.026796956 -0.19972187 0.52287865 0.32315677
2.7755576e-17 0.07993757 0.027352219 -0.19972187 0.52287865 0.32315677
0 0.073833913 0.023878351 -0.19972187 0.52287865 0.32315677
0 0.067587636 0.020322997 -0.19972187 0.52287865 0.32315677
0 0.061193418 0.016683126 -0.19972187 0.52287865 0.32315677
0 0.054645691 0.01295555 -0.19972187 0.52287865 0.32315677
2.7755576e-17 0.0479386 0.0091369236 -0.19972187 0.52287865 0.32315677
0 0.041065976 0.0052237278 -0.19972187 0.52287865 0.32315677
0 0.03402134 0.0012122593 -0.19972187 0.52287865 0.32315677
0.039522991 0.079999998 0.015691118 -0.19972187 0.52287865 0.32315677
0.039999999 0.073652327 0.0119427 -0.19972187 0.52287865 0.32315677
0.033717215 0.079999998 0.016985649 -0.19972187 0.52287865 0.32315677
0.030836394 0.079999998 0.017627437 -0.19972187 0.52287865 0.32315677
0.027969984 0.079999998 0.018265644 -0.19972187 0.52287865 0.32315677
0.02511777 0.079999998 0.018900324 -0.19972187 0.52287865 0.32315677
0.022279533 0.079999998 0.019531522 -0.19972187 0.52287865 0.32315677
0.01945506 0.079999998 0.020159293 -0.19972187 0.52287865 0.32315677
0.016644146 0.079999998 0.020783685 -0.19972187 0.52287865 0.32315677
0.013846582 0.079999998 0.021404745 -0.19972187 0.52287865 0.32315677
0.011062164 0.079999998 0.022022521 -0.19972187 0.52287865 0.32315677
0.0082906932 0.079999998 0.022637062 -0.19972187 0.52287865 0.32315677
0.0055319713 0.079999998 0.023248412 -0.19972187 0.52287865 0.32315677
0.0027858038 0.079999998 0.023856618 -0.19972187 0.52287865 0.32315677
5.1998697e-05 0.079999998 0.024461724 -0.19972187 0.52287865 0.32315677
0 0.073999949 0.021025259 -0.19972187 0.52287865 0.32315677
0 0.067741401 0.017428374 -0.19972187 0.52287865 0.32315677
0 0.061334293 0.013745734 -0.19972187 0.52287865 0.32315677
0 0.05477301 0.0099740997 -0.19972187 0.52287865 0.32315677
2.7755576e-17 0.048051652 0.0061100661 -0.19972187 0.52287865 0.32315677
0 0.041164018 0.0021500546 -0.19972187 0.52287865 0.32315677
0.039713833 0.079999998 0.012617703 -0.19972187 0.52287865 0.32315677
0.036795121 0.079999998 0.013276479 -0.19972187 0.52287865 0.32315677
0.033891354 0.079999998 0.013931452 -0.19972187 0.52287865 0.32315677
0.031002307 0.079999998 0.014582674 -0.19972187 0.52287865 0.32315677
0.03939731 0.058095004 0 -0.19972187 0.52287865 0.32315677
0.025267482 0.079999998 0.015874078 -0.19972187 0.52287865 0.32315677
0.022421265 0.079999998 0.016514368 -0.19972187 0.52287865 0.32315677
0.019588893 0.079999998 0.017151117 -0.19972187 0.52287865 0.32315677
0.029378287 0.054207489 0 -0.19972187 0.52287865 0.32315677
0.01396484 0.079999998 0.018414194 -0.19972187 0.52287865 0.32315677
0.024376797 0.0522715 0 -0.19972187 0.52287865 0.32315677
0.0083936732 0.079999998 0.019663705 -0.19972187 0.52287865 0.32315677
0.0056274189 0.079999998 0.020283494 -0.19972187 0.52287865 0.32315677
0.0028737884 0.079999998 0.020900033 -0.19972187 0.52287865 0.32315677
0.00013258807 0.079999998 0.021513371 -0.19972187 0.52287865 0.32315677
0 0.074166767 0.018158594 -0.19972187 0.52287865 0.32315677
0 0.067895912 0.014519827 -0.19972187 0.52287865 0.32315677
2.7755576e-17 0.061475854 0.010794054 -0.19972187 0.52287865 0.32315677
0 0.054900952 0.00697798 -0.19972187 0.52287865 0.32315677
0 0.048165269 0.0030681435 -0.19972187 0.52287865 0.32315677
0.039905775 0.079999998 0.009526616 -0.19972187 0.52287865 0.32315677
0.036978614 0.079999998 0.010195161 -0.19972187 0.52287865 0.32315677
0.034066487 0.079999998 0.010859781 -0.19972187 0.52287865 0.32315677
0.039704721 0.063627712 0 -0.19972187 0.52287865 0.32315677
0.037214879 0.062657557 0 -0.19972187 0.52287865 0.32315677
0.025418045 0.079999998 0.012830645 -0.19972187 0.52287865 0.32315677
0.022563802 0.079999998 0.013480115 -0.19972187 0.52287865 0.32315677
0.019723482 0.079999998 0.014125931 -0.19972187 0.52287865 0.32315677
0.027270334 0.05879138 0 -0.19972187 0.52287865 0.32315677
0.014083765 0.079999998 0.01540681 -0.19972187 0.52287865 0.32315677
0.011283952 0.079999998 0.016041974 -0.19972187 0.52287865 0.32315677
0.0084972307 0.079999998 0.016673686 -0.19972187 0.52287865 0.32315677
0.0057234005 0.079999998 0.017301995 -0.19972187 0.52287865 0.32315677
0.0029622638 0.079999998 0.017926952 -0.19972187 0.52287865 0.32315677
0.00021362615 0.079999998 0.018548602 -0.19972187 0.52287865 0.32315677
0 0.074334398 0.015278149 -0.19972187 0.52287865 0.32315677
0 0.068051167 0.011597145 -0.19972187 0.52287865 0.32315677
0 0.061618108 0.0078278687 -0.19972187 0.52287865 0.32315677
0 0.05502953 0.003966969 -0.19972187 0.52287865 0.32315677
6.7530445e-06 0.048263408 0 -0.19972187 0.52287865 0.32315677
0.037163168 0.079999998 0.0070960019 -0.19972187 0.52287865 0.32315677
0.034242634 0.079999998 0.0077703684 -0.19972187 0.52287865 0.32315677
0.031336989 0.079999998 0.0084407451 -0.19972187 0.52287865 0.32315677
0.028446009 0.079999998 0.0091071893 -0.19972187 0.52287865 0.32315677
0.03259287 0.066193379 0 -0.19972187 0.52287865 0.32315677
0.022707153 0.079999998 0.010428499 -0.19972187 0.52287865 0.32315677
0.019858839 0.079999998 0.011083476 -0.19972187 0.52287865 0.32315677
0.017024314 0.079999998 0.011734737 -0.19972187 0.52287865 0.32315677
0.014203365 0.079999998 0.012382335 -0.19972187 0.52287865 0.32315677
0.011395787 0.079999998 0.013026322 -0.19972187 0.52287865 0.32315677
0.008601374 0.079999998 0.01366675 -0.19972187 0.52287865 0.32315677
0.0058199237 0.079999998 0.014303667 -0.19972187 0.52287865 0.32315677
0.0030512377 0.079999998 0.014937123 -0.19972187 0.52287865 0.32315677
0.00029511977 0.079999998 0.015567167 -0.19972187 0.52287865 0.32315677
2.7755576e-17 0.074502833 0.012383717 -0.19972187 0.52287865 0.32315677
0 0.068207189 0.0086601134 -0.19972187 0.52287865 0.32315677
0 0.061761074 0.0048469561 -0.19972187 0.52287865 0.32315677
0 0.055158757 0.00094083895 -0.19972187 0.52287865 0.32315677
0.037348803 0.079999998 0.0039787265 -0.19972187 0.52287865 0.32315677
0.034419805 0.079999998 0.0046629403 -0.19972187 0.52287865 0.32315677
0.031505786 0.079999998 0.0053430423 -0.19972187 0.52287865 0.32315677
0.028606517 0.079999998 0.0060190908 -0.19972187 0.52287865 0.32315677
0.030488409 0.070636064 0 -0.19972187 0.52287865 0.32315677
0.022851333 0.079999998 0.007359256 -0.19972187 0.52287865 0.32315677
0.019994976 0.079999998 0.0080234846 -0.19972187 0.52287865 0.32315677
0.017152486 0.079999998 0.0086838836 -0.19972187 0.52287865 0.32315677
0.014323652 0.079999998 0.009340507 -0.19972187 0.52287865 0.32315677
0.011508262 0.079999998 0.0099934069 -0.19972187 0.52287865 0.32315677
0.0087061115 0.079999998 0.010642637 -0.19972187 0.52287865 0.32315677
0.0059169973 0.079999998 0.011288246 -0.19972187 0.52287865 0.32315677
0.010917078 0.063023068 0 -0.19972187 0.52287865 0.32315677
0.00037707592 0.079999998 0.01256881 -0.19972187 0.52287865 0.32315677
0 0.074672103 0.0094750822 -0.19972187 0.52287865 0.32315677
2.7755576e-17 0.068363987 0.0057085124 -0.19972187 0.52287865 0.32315677
0 0.061904751 0.0018510927 -0.19972187 0.52287865 0.32315677
0.03753553 0.079999998 0.00084305665 -0.19972187 0.52287865 0.32315677
0.034598019 0.079999998 0.0015372193 -0.19972187 0.52287865 0.32315677
0.031675573 0.079999998 0.0022271471 -0.19972187 0.52287865 0.32315677
0.028767968 0.079999998 0.0029128995 -0.19972187 0.52287865 0.32315677
0.025874969 0.079999998 0.0035945356 -0.19972187 0.52287865 0.32315677
0.022996355 0.079999998 0.0042721131 -0.19972187 0.52287865 0.32315677
0.020131906 0.079999998 0.0049456889 -0.19972187 0.52287865 0.32315677
0.017281404 0.079999998 0.0056153191 -0.19972187 0.52287865 0.32315677
0.018689808 0.071221329 0 -0.19972187 0.52287865 0.32315677
0.011621388 0.079999998 0.0069429623 -0.19972187 0.52287865 0.32315677
0.0088114534 0.079999998 0.0076010828 -0.19972187 0.52287865 0.32315677
0.0060146293 0.079999998 0.0082554733 -0.19972187 0.52287865 0.32315677
0.0032307117 0.079999998 0.0089061856 -0.19972187 0.52287865 0.32315677
0.00045950172 0.079999998 0.0095532713 -0.19972187 0.52287865 0.32315677
0 0.074842207 0.0065520285 -0.19972187 0.52287865 0.32315677
0 0.068521567 0.0027421203 -0.19972187 0.52287865 0.32315677
0.026029065 0.079999998 0.00047965531 -0.19972187 0.52287865 0.32315677
0.02314223 0.079999998 0.001166795 -0.19972187 0.52287865 0.32315677
0.02026964 0.079999998 0.0018498142 -0.19972187 0.52287865 0.32315677
0.017411077 0.079999998 0.0025287701 -0.19972187 0.52287865 0.32315677
0.014566326 0.079999998 0.0032037196 -0.19972187 0.52287865 0.32315677
0.011735173 0.079999998 0.003874718 -0.19972187 0.52287865 0.32315677
0.008917409 0.079999998 0.0045418204 -0.19972187 0.52287865 0.32315677
0.0094824797 0.072749779 0 -0.19972187 0.52287865 0.32315677
0.0033212272 0.079999998 0.0058645522 -0.19972187 0.52287865 0.32315677
0.00054240436 0.079999998 0.0065202871 -0.19972187 0.52287865 0.32315677
2.7755576e-17 0.075013161 0.0036143367 -0.19972187 0.52287865 0.32315677
0.014688734 0.079999998 0.00010821378 -0.19972187 0.52287865 0.32315677
0.011849628 0.079999998 0.00078840065 -0.19972187 0.52287865 0.32315677
0.0090239877 0.079999998 0.0014645767 -0.19972187 0.52287865 0.32315677
0.006211604 0.079999998 0.0021367972 -0.19972187 0.52287865 0.32315677
0.0034122725 0.079999998 0.0028051168 -0.19972187 0.52287865 0.32315677
0.0006257912 0.079999998 0.0034695892 -0.19972187 0.52287865 0.32315677
0 0.075184986 0.00066178426 -0.19972187 0.52287865 0.32315677
0.00070966966 0.079999998 0.00040090457 -0.19972187 0.52287865 0.32315677
