# .PCD v0.7 - Point Cloud Data file format
VERSION 0.7
FIELDS x y z vp_x vp_y vp_z
SIZE 4 4 4 4 4 4
TYPE F F F F F F
COUNT 1 1 1 1 1 1
WIDTH 710
HEIGHT 1
VIEWPOINT 0 0 0 1 0 0 0
POINTS 710
DATA ascii
0.039947078 0.0061274832 0.039999999 -0.32315677 0.19972187 0.52287865
0.038485635 0.0037834714 0.039999999 -0.32315677 0.19972187 0.52287865
0.037025731 0.0014396517 0.039999999 -0.32315677 0.19972187 0.52287865
0.039337479 0.059453025 0.07 -0.32315677 0.19972187 0.52287865
0.037937179 0.057242304 0.07 -0.32315677 0.19972187 0.52287865
0.039065108 0.054017443 0.066819884 -0.32315677 0.19972187 0.52287865
0.035143837 0.052826364 0.07 -0.32315677 0.19972187 0.52287865
0.033750679 0.050620958 0.07 -0.32315677 0.19972187 0.52287865
0.032359779 0.04841714 0.07 -0.32315677 0.19972187 0.52287865
0.030971074 0.046214812 0.07 -0.32315677 0.19972187 0.52287865
0.031074245 0.043356277 0.068087354 -0.32315677 0.19972187 0.52287865
0.028200023 0.04181426 0.07 -0.32315677 0.19972187 0.52287865
0.03973753 0.012629742 0.039999999 -0.32315677 0.19972187 0.52287865
0.038278449 0.010292549 0.039999999 -0.32315677 0.19972187 0.52287865
0.036820959 0.0079557747 0.039999999 -0.32315677 0.19972187 0.52287865
0.035365 0.0056193229 0.039999999 -0.32315677 0.19972187 0.52287865
0.033910509 0.0032830969 0.039999999 -0.32315677 0.19972187 0.52287865
0.032457434 0.0009470004 0.039999999 -0.32315677 0.19972187 0.52287865
0.039118778 0.065447211 0.07 -0.32315677 0.19972187 0.52287865
0.039837588 0.062438138 0.067342453 -0.32315677 0.19972187 0.52287865
0.036323551 0.06103294 0.07 -0.32315677 0.19972187 0.52287865
0.034929615 0.05882882 0.07 -0.32315677 0.19972187 0.52287865
0.03353804 0.056626584 0.07 -0.32315677 0.19972187 0.52287865
0.032148775 0.054426137 0.07 -0.32315677 0.19972187 0.52287865
0.030761752 0.052227393 0.07 -0.32315677 0.19972187 0.52287865
0.029376917 0.05003025 0.07 -0.32315677 0.19972187 0.52287865
0.027994206 0.047834624 0.07 -0.32315677 0.19972187 0.52287865
0.026613561 0.045640416 0.07 -0.32315677 0.19972187 0.52287865
0.025234923 0.043447539 0.07 -0.32315677 0.19972187 0.52287865
0.023858234 0.041255899 0.07 -0.32315677 0.19972187 0.52287865
0.039535064 0.019090943 0.039999999 -0.32315677 0.19972187 0.52287865
0.038078334 0.016760003 0.039999999 -0.32315677 0.19972187 0.52287865
0.036623247 0.014429707 0.039999999 -0.32315677 0.19972187 0.52287865
0.035169747 0.012099957 0.039999999 -0.32315677 0.19972187 0.52287865
0.033717766 0.0097706569 0.039999999 -0.32315677 0.19972187 0.52287865
0.032267246 0.0074417125 0.039999999 -0.32315677 0.19972187 0.52287865
0.030818133 0.0051130261 0.039999999 -0.32315677 0.19972187 0.52287865
0.029370358 0.0027845036 0.039999999 -0.32315677 0.19972187 0.52287865
0.027923865 0.00045604864 0.039999999 -0.32315677 0.19972187 0.52287865
0.037508938 0.069206327 0.07 -0.32315677 0.19972187 0.52287865
0.036114059 0.067002498 0.07 -0.32315677 0.19972187 0.52287865
0.034721658 0.064800851 0.07 -0.32315677 0.19972187 0.52287865
0.03333167 0.062601298 0.07 -0.32315677 0.19972187 0.52287865
0.031944036 0.060403734 0.07 -0.32315677 0.19972187 0.52287865
0.039261859 0.054726131 0.058856927 -0.32315677 0.19972187 0.52287865
0.029175583 0.056014225 0.07 -0.32315677 0.19972187 0.52287865
0.027794646 0.053822096 0.07 -0.32315677 0.19972187 0.52287865
0.035739504 0.047681775 0.057920974 -0.32315677 0.19972187 0.52287865
0.033870596 0.045630977 0.058513306 -0.32315677 0.19972187 0.52287865
0.023664275 0.047255088 0.07 -0.32315677 0.19972187 0.52287865
0.022291437 0.045068912 0.07 -0.32315677 0.19972187 0.52287865
0.025521703 0.040786654 0.063943811 -0.32315677 0.19972187 0.52287865
0.020997301 0.040029299 0.068089202 -0.32315677 0.19972187 0.52287865
0.039339222 0.02551274 0.039999999 -0.32315677 0.19972187 0.52287865
0.037884835 0.023187501 0.039999999 -0.32315677 0.19972187 0.52287865
0.036432147 0.020863125 0.039999999 -0.32315677 0.19972187 0.52287865
0.034981094 0.018539518 0.039999999 -0.32315677 0.19972187 0.52287865
0.033531614 0.016216582 0.039999999 -0.32315677 0.19972187 0.52287865
0.032083645 0.013894224 0.039999999 -0.32315677 0.19972187 0.52287865
0.030637132 0.011572346 0.039999999 -0.32315677 0.19972187 0.52287865
0.029192014 0.009250856 0.039999999 -0.32315677 0.19972187 0.52287865
0.027748227 0.006929657 0.039999999 -0.32315677 0.19972187 0.52287865
0.026305716 0.0046086544 0.039999999 -0.32315677 0.19972187 0.52287865
0.02486442 0.0022877546 0.039999999 -0.32315677 0.19972187 0.52287865
0.034519557 0.070743866 0.07 -0.32315677 0.19972187 0.52287865
0.033131152 0.068546504 0.07 -0.32315677 0.19972187 0.52287865
0.031745147 0.066351339 0.07 -0.32315677 0.19972187 0.52287865
0.030361479 0.064158283 0.07 -0.32315677 0.19972187 0.52287865
0.028980093 0.061967239 0.07 -0.32315677 0.19972187 0.52287865
0.027600925 0.059778113 0.07 -0.32315677 0.19972187 0.52287865
0.026223918 0.05759082 0.07 -0.32315677 0.19972187 0.52287865
0.024849011 0.055405259 0.07 -0.32315677 0.19972187 0.52287865
0.03595604 0.047946855 0.053694919 -0.32315677 0.19972187 0.52287865
0.022105264 0.051038988 0.07 -0.32315677 0.19972187 0.52287865
0.020736307 0.048858091 0.07 -0.32315677 0.19972187 0.52287865
0.019369217 0.046678569 0.07 -0.32315677 0.19972187 0.52287865
0.018003937 0.044500332 0.07 -0.32315677 0.19972187 0.52287865
0.016640408 0.042323288 0.07 -0.32315677 0.19972187 0.52287865
0.037697516 0.029576665 0.039999999 -0.32315677 0.19972187 0.52287865
0.036247216 0.027257666 0.039999999 -0.32315677 0.19972187 0.52287865
0.0347986 0.024939651 0.039999999 -0.32315677 0.19972187 0.52287865
0.033351611 0.022622529 0.039999999 -0.32315677 0.19972187 0.52287865
0.031906184 0.020306202 0.039999999 -0.32315677 0.19972187 0.52287865
0.030462263 0.017990576 0.039999999 -0.32315677 0.19972187 0.52287865
0.029019788 0.015675558 0.039999999 -0.32315677 0.19972187 0.52287865
0.027578698 0.013361053 0.039999999 -0.32315677 0.19972187 0.52287865
0.026138933 0.011046965 0.039999999 -0.32315677 0.19972187 0.52287865
0.024700437 0.0087332008 0.039999999 -0.32315677 0.19972187 0.52287865
0.023263147 0.006419667 0.039999999 -0.32315677 0.19972187 0.52287865
0.021827007 0.0041062688 0.039999999 -0.32315677 0.19972187 0.52287865
0.020391958 0.001792912 0.039999999 -0.32315677 0.19972187 0.52287865
0.03293607 0.074463576 0.07 -0.32315677 0.19972187 0.52287865
0.031551693 0.072270334 0.07 -0.32315677 0.19972187 0.52287865
0.030169701 0.070079401 0.07 -0.32315677 0.19972187 0.52287865
0.039607968 0.063838527 0.056079682 -0.32315677 0.19972187 0.52287865
0.027412634 0.065704085 0.07 -0.32315677 0.19972187 0.52287865
0.02603744 0.063519515 0.07 -0.32315677 0.19972187 0.52287865
0.024664393 0.061336882 0.07 -0.32315677 0.19972187 0.52287865
0.023293434 0.059156097 0.07 -0.32315677 0.19972187 0.52287865
0.021924505 0.056977067 0.07 -0.32315677 0.19972187 0.52287865
0.036146007 0.048227053 0.049460616 -0.32315677 0.19972187 0.52287865
0.019192502 0.052623916 0.07 -0.32315677 0.19972187 0.52287865
0.017829314 0.050449613 0.07 -0.32315677 0.19972187 0.52287865
0.016467925 0.048276704 0.07 -0.32315677 0.19972187 0.52287865
0.015108276 0.046105102 0.07 -0.32315677 0.19972187 0.52287865
0.021984147 0.040127356 0.05893188 -0.32315677 0.19972187 0.52287865
0.014460583 0.040792625 0.067210786 -0.32315677 0.19972187 0.52287865
0.033177327 0.02899011 0.039999999 -0.32315677 0.19972187 0.52287865
0.031734433 0.026679274 0.039999999 -0.32315677 0.19972187 0.52287865
0.030293094 0.024369355 0.039999999 -0.32315677 0.19972187 0.52287865
0.028853251 0.02206026 0.039999999 -0.32315677 0.19972187 0.52287865
0.027414845 0.019751895 0.039999999 -0.32315677 0.19972187 0.52287865
0.025977816 0.017444169 0.039999999 -0.32315677 0.19972187 0.52287865
0.024542106 0.015136983 0.039999999 -0.32315677 0.19972187 0.52287865
0.023107657 0.012830248 0.039999999 -0.32315677 0.19972187 0.52287865
0.021674408 0.010523868 0.039999999 -0.32315677 0.19972187 0.52287865
0.0202423 0.008217751 0.039999999 -0.32315677 0.19972187 0.52287865
0.018811276 0.0059118019 0.039999999 -0.32315677 0.19972187 0.52287865
0.017381279 0.003605929 0.039999999 -0.32315677 0.19972187 0.52287865
0.015952248 0.0013000385 0.039999999 -0.32315677 0.19972187 0.52287865
0.029982951 0.075972781 0.07 -0.32315677 0.19972187 0.52287865
0.028605001 0.073785916 0.07 -0.32315677 0.19972187 0.52287865
0.027229367 0.071601368 0.07 -0.32315677 0.19972187 0.52287865
0.025855983 0.069419049 0.07 -0.32315677 0.19972187 0.52287865
0.024484791 0.067238867 0.07 -0.32315677 0.19972187 0.52287865
0.023115736 0.065060735 0.07 -0.32315677 0.19972187 0.52287865
0.021748755 0.062884554 0.07 -0.32315677 0.19972187 0.52287865
0.020383792 0.06071024 0.07 -0.32315677 0.19972187 0.52287865
0.019020788 0.058537703 0.07 -0.32315677 0.19972187 0.52287865
0.017659688 0.056366846 0.07 -0.32315677 0.19972187 0.52287865
0.016300432 0.054197587 0.07 -0.32315677 0.19972187 0.52287865
0.032453168 0.044380851 0.04654539 -0.32315677 0.19972187 0.52287865
0.013587225 0.049863491 0.07 -0.32315677 0.19972187 0.52287865
0.012233161 0.047698479 0.07 -0.32315677 0.19972187 0.52287865
0.010880716 0.045534708 0.07 -0.32315677 0.19972187 0.52287865
0.0095298318 0.043372087 0.07 -0.32315677 0.19972187 0.52287865
0.030129198 0.030710274 0.039999999 -0.32315677 0.19972187 0.52287865
0.028691979 0.028406566 0.039999999 -0.32315677 0.19972187 0.52287865
0.027256247 0.026103804 0.039999999 -0.32315677 0.19972187 0.52287865
0.025821943 0.023801893 0.039999999 -0.32315677 0.19972187 0.52287865
0.024389008 0.021500742 0.039999999 -0.32315677 0.19972187 0.52287865
0.022957385 0.019200256 0.039999999 -0.32315677 0.19972187 0.52287865
0.021527013 0.016900342 0.039999999 -0.32315677 0.19972187 0.52287865
0.020097835 0.014600909 0.039999999 -0.32315677 0.19972187 0.52287865
0.018669792 0.012301863 0.039999999 -0.32315677 0.19972187 0.52287865
0.017242827 0.010003111 0.039999999 -0.32315677 0.19972187 0.52287865
0.015816882 0.0077045606 0.039999999 -0.32315677 0.19972187 0.52287865
0.014391899 0.0054061199 0.039999999 -0.32315677 0.19972187 0.52287865
0.012967821 0.0031076956 0.039999999 -0.32315677 0.19972187 0.52287865
0.01154459 0.00080919551 0.039999999 -0.32315677 0.19972187 0.52287865
0.027050724 0.077471308 0.07 -0.32315677 0.19972187 0.52287865
0.025679149 0.075290777 0.07 -0.32315677 0.19972187 0.52287865
0.024309812 0.073112577 0.07 -0.32315677 0.19972187 0.52287865
0.039388709 0.064816967 0.048479982 -0.32315677 0.19972187 0.52287865
0.021577619 0.068762824 0.07 -0.32315677 0.19972187 0.52287865
0.020214647 0.066591084 0.07 -0.32315677 0.19972187 0.52287865
0.039615571 0.056207836 0.042507809 -0.32315677 0.19972187 0.52287865
0.017494662 0.06225343 0.07 -0.32315677 0.19972187 0.52287865
0.016137535 0.060087338 0.07 -0.32315677 0.19972187 0.52287865
0.014782241 0.057922952 0.07 -0.32315677 0.19972187 0.52287865
0.013428723 0.055760175 0.07 -0.32315677 0.19972187 0.52287865
0.012076925 0.053598929 0.07 -0.32315677 0.19972187 0.52287865
0.010726793 0.051439118 0.07 -0.32315677 0.19972187 0.52287865
0.0093782675 0.049280655 0.07 -0.32315677 0.19972187 0.52287865
0.0080312947 0.047123455 0.07 -0.32315677 0.19972187 0.52287865
0.0069713206 0.044833478 0.069608003 -0.32315677 0.19972187 0.52287865
0.027102485 0.032418352 0.039999999 -0.32315677 0.19972187 0.52287865
0.025670895 0.030121727 0.039999999 -0.32315677 0.19972187 0.52287865
0.024240727 0.027826073 0.039999999 -0.32315677 0.19972187 0.52287865
0.022811918 0.025531299 0.039999999 -0.32315677 0.19972187 0.52287865
0.021384411 0.023237312 0.039999999 -0.32315677 0.19972187 0.52287865
0.019958148 0.02094402 0.039999999 -0.32315677 0.19972187 0.52287865
0.018533073 0.018651329 0.039999999 -0.32315677 0.19972187 0.52287865
0.017109128 0.016359149 0.039999999 -0.32315677 0.19972187 0.52287865
0.015686251 0.014067386 0.039999999 -0.32315677 0.19972187 0.52287865
0.014264391 0.01177595 0.039999999 -0.32315677 0.19972187 0.52287865
0.012843487 0.0094847474 0.039999999 -0.32315677 0.19972187 0.52287865
0.011423482 0.0071936878 0.039999999 -0.32315677 0.19972187 0.52287865
0.010004318 0.0049026785 0.039999999 -0.32315677 0.19972187 0.52287865
0.0085859401 0.0026116278 0.039999999 -0.32315677 0.19972187 0.52287865
0.0071682907 0.00032044429 0.039999999 -0.32315677 0.19972187 0.52287865
0.02413906 0.078959331 0.07 -0.32315677 0.19972187 0.52287865
0.0227738 0.076785088 0.07 -0.32315677 0.19972187 0.52287865
0.021410707 0.074613199 0.07 -0.32315677 0.19972187 0.52287865
0.020049723 0.072443575 0.07 -0.32315677 0.19972187 0.52287865
0.018690791 0.070276111 0.07 -0.32315677 0.19972187 0.52287865
0.01733385 0.068110727 0.07 -0.32315677 0.19972187 0.52287865
0.015978845 0.065947331 0.07 -0.32315677 0.19972187 0.52287865
0.014625721 0.063785836 0.07 -0.32315677 0.19972187 0.52287865
0.013274417 0.061626151 0.07 -0.32315677 0.19972187 0.52287865
0.011924881 0.059468191 0.07 -0.32315677 0.19972187 0.52287865
0.010577054 0.057311863 0.07 -0.32315677 0.19972187 0.52287865
0.0092308801 0.05515708 0.07 -0.32315677 0.19972187 0.52287865
0.0078863055 0.053003754 0.07 -0.32315677 0.19972187 0.52287865
0.0065432731 0.0508518 0.07 -0.32315677 0.19972187 0.52287865
0.0052017285 0.04870113 0.07 -0.32315677 0.19972187 0.52287865
0.0064249062 0.045351051 0.066450171 -0.32315677 0.19972187 0.52287865
0.024096852 0.034114536 0.039999999 -0.32315677 0.19972187 0.52287865
0.022670846 0.031824946 0.039999999 -0.32315677 0.19972187 0.52287865
0.021246193 0.029536355 0.039999999 -0.32315677 0.19972187 0.52287865
0.019822836 0.027248671 0.039999999 -0.32315677 0.19972187 0.52287865
0.018400716 0.024961801 0.039999999 -0.32315677 0.19972187 0.52287865
0.016979774 0.022675654 0.039999999 -0.32315677 0.19972187 0.52287865
0.015559955 0.020390138 0.039999999 -0.32315677 0.19972187 0.52287865
0.0141412 0.018105162 0.039999999 -0.32315677 0.19972187 0.52287865
0.012723454 0.015820635 0.039999999 -0.32315677 0.19972187 0.52287865
0.011306658 0.013536465 0.039999999 -0.32315677 0.19972187 0.52287865
0.0098907575 0.011252562 0.039999999 -0.32315677 0.19972187 0.52287865
0.0084756929 0.0089688329 0.039999999 -0.32315677 0.19972187 0.52287865
0.0070614098 0.0066851876 0.039999999 -0.32315677 0.19972187 0.52287865
0.0056478502 0.0044015353 0.039999999 -0.32315677 0.19972187 0.52287865
0.0042349589 0.0021177849 0.039999999 -0.32315677 0.19972187 0.52287865
0.023330402 0.079715639 0.067261241 -0.32315677 0.19972187 0.52287865
0.019888636 0.078269027 0.07 -0.32315677 0.19972187 0.52287865
0.018531732 0.076103404 0.07 -0.32315677 0.19972187 0.52287865
0.017176867 0.073940061 0.07 -0.32315677 0.19972187 0.52287865
0.015823981 0.071778901 0.07 -0.32315677 0.19972187 0.52287865
0.039999999 0.059783287 0.035759471 -0.32315677 0.19972187 0.52287865
0.013123928 0.067462772 0.07 -0.32315677 0.19972187 0.52287865
0.011776646 0.065307632 0.07 -0.32315677 0.19972187 0.52287865
0.010431119 0.063154317 0.07 -0.32315677 0.19972187 0.52287865
0.0090872915 0.061002739 0.07 -0.32315677 0.19972187 0.52287865
0.0077451072 0.058852818 0.07 -0.32315677 0.19972187 0.52287865
0.0064045116 0.056704458 0.07 -0.32315677 0.19972187 0.52287865
0.005065449 0.054557581 0.07 -0.32315677 0.19972187 0.52287865
0.0037278649 0.052412093 0.07 -0.32315677 0.19972187 0.52287865
0.0026087041 0.050168291 0.069698125 -0.32315677 0.19972187 0.52287865
0.0058746766 0.045872241 0.063270293 -0.32315677 0.19972187 0.52287865
0.021111963 0.035799012 0.039999999 -0.32315677 0.19972187 0.52287865
0.019691497 0.033516411 0.039999999 -0.32315677 0.19972187 0.52287865
0.018272318 0.03123484 0.039999999 -0.32315677 0.19972187 0.52287865
0.01685437 0.028954199 0.039999999 -0.32315677 0.19972187 0.52287865
0.015437593 0.026674399 0.039999999 -0.32315677 0.19972187 0.52287865
0.014021931 0.024395352 0.039999999 -0.32315677 0.19972187 0.52287865
0.012607328 0.022116965 0.039999999 -0.32315677 0.19972187 0.52287865
0.011193727 0.019839145 0.039999999 -0.32315677 0.19972187 0.52287865
0.009781071 0.017561805 0.039999999 -0.32315677 0.19972187 0.52287865
0.0083693033 0.015284852 0.039999999 -0.32315677 0.19972187 0.52287865
0.0069583682 0.013008198 0.039999999 -0.32315677 0.19972187 0.52287865
0.0055482094 0.01073175 0.039999999 -0.32315677 0.19972187 0.52287865
0.00413877 0.0084554199 0.039999999 -0.32315677 0.19972187 0.52287865
0.0027299952 0.0061791153 0.039999999 -0.32315677 0.19972187 0.52287865
0.0013218282 0.0039027478 0.039999999 -0.32315677 0.19972187 0.52287865
0.0025663986 0 0.036035907 -0.32315677 0.19972187 0.52287865
0.017023334 0.079742745 0.07 -0.32315677 0.19972187 0.52287865
0.015672566 0.077583358 0.07 -0.32315677 0.19972187 0.52287865
0.039999999 0.065969594 0.035544038 -0.32315677 0.19972187 0.52287865
0.039999999 0.063105509 0.033591285 -0.32315677 0.19972187 0.52287865
0.011631846 0.071118578 0.07 -0.32315677 0.19972187 0.52287865
0.010288615 0.068967812 0.07 -0.32315677 0.19972187 0.52287865
0.0089471266 0.066818982 0.07 -0.32315677 0.19972187 0.52287865
0.0076073273 0.064671993 0.07 -0.32315677 0.19972187 0.52287865
0.0062691611 0.062526762 0.07 -0.32315677 0.19972187 0.52287865
0.0049325735 0.060383208 0.07 -0.32315677 0.19972187 0.52287865
0.0035975096 0.058241237 0.07 -0.32315677 0.19972187 0.52287865
0.0022639146 0.056100763 0.07 -0.32315677 0.19972187 0.52287865
0.00095306378 0.053952109 0.069970198 -0.32315677 0.19972187 0.52287865
0.0024144335 0.050534721 0.066052198 -0.32315677 0.19972187 0.52287865
0.0053722248 0.046372987 0.059995241 -0.32315677 0.19972187 0.52287865
0.018147493 0.037471961 0.039999999 -0.32315677 0.19972187 0.52287865
0.016732523 0.035196312 0.039999999 -0.32315677 0.19972187 0.52287865
0.015318776 0.032921709 0.039999999 -0.32315677 0.19972187 0.52287865
0.013906194 0.030648068 0.039999999 -0.32315677 0.19972187 0.52287865
0.01249472 0.028375296 0.039999999 -0.32315677 0.19972187 0.52287865
0.011084298 0.026103299 0.039999999 -0.32315677 0.19972187 0.52287865
0.0096748713 0.023831993 0.039999999 -0.32315677 0.19972187 0.52287865
0.0082663847 0.021561284 0.039999999 -0.32315677 0.19972187 0.52287865
0.0068587805 0.019291084 0.039999999 -0.32315677 0.19972187 0.52287865
0.0054520043 0.0170213 0.039999999 -0.32315677 0.19972187 0.52287865
0.0040459991 0.014751848 0.039999999 -0.32315677 0.19972187 0.52287865
0.0026407102 0.012482633 0.039999999 -0.32315677 0.19972187 0.52287865
0.0012360812 0.010213568 0.039999999 -0.32315677 0.19972187 0.52287865
0.013212183 0 0.019996282 -0.32315677 0.19972187 0.52287865
0 0.0047273245 0.037640426 -0.32315677 0.19972187 0.52287865
0.0025812502 0 0.031621322 -0.32315677 0.19972187 0.52287865
0.039397437 0.07795497 0.039999999 -0.32315677 0.19972187 0.52287865
0.037959445 0.075653963 0.039999999 -0.32315677 0.19972187 0.52287865
0.017983822 0.079869159 0.064890042 -0.32315677 0.19972187 0.52287865
0.013399337 0.078849785 0.069236502 -0.32315677 0.19972187 0.52287865
0.011490113 0.076902337 0.07 -0.32315677 0.19972187 0.52287865
0.010149171 0.074753664 0.07 -0.32315677 0.19972187 0.52287865
0.0088100173 0.072607115 0.07 -0.32315677 0.19972187 0.52287865
0.0074725975 0.070462607 0.07 -0.32315677 0.19972187 0.52287865
0.0061368551 0.068320051 0.07 -0.32315677 0.19972187 0.52287865
0.0048027355 0.06617935 0.07 -0.32315677 0.19972187 0.52287865
0.0034701845 0.06404043 0.07 -0.32315677 0.19972187 0.52287865
0.0021391474 0.061903201 0.07 -0.32315677 0.19972187 0.52287865
0.00080956984 0.059767578 0.07 -0.32315677 0.19972187 0.52287865
0.00020279211 0.057315771 0.068987399 -0.32315677 0.19972187 0.52287865
0.00086026237 0.054286342 0.066186421 -0.32315677 0.19972187 0.52287865
0.0022183619 0.05090455 0.062372472 -0.32315677 0.19972187 0.52287865
0.0049946122 0.046817549 0.056513146 -0.32315677 0.19972187 0.52287865
0.01520312 0.039133575 0.039999999 -0.32315677 0.19972187 0.52287865
0.013793604 0.036864825 0.039999999 -0.32315677 0.19972187 0.52287865
0.012385246 0.034597151 0.039999999 -0.32315677 0.19972187 0.52287865
0.01097799 0.032330465 0.039999999 -0.32315677 0.19972187 0.52287865
0.0095717786 0.03006467 0.039999999 -0.32315677 0.19972187 0.52287865
0.0081665562 0.027799683 0.039999999 -0.32315677 0.19972187 0.52287865
0.0067622676 0.02553541 0.039999999 -0.32315677 0.19972187 0.52287865
0.0053588571 0.023271766 0.039999999 -0.32315677 0.19972187 0.52287865
0.0039562685 0.021008659 0.039999999 -0.32315677 0.19972187 0.52287865
0.0025544469 0.018746 0.039999999 -0.32315677 0.19972187 0.52287865
0.0011533368 0.0164837 0.039999999 -0.32315677 0.19972187 0.52287865
0 0.01407971 0.039630461 -0.32315677 0.19972187 0.52287865
0.01883214 2.7755576e-17 0.0092422282 -0.32315677 0.19972187 0.52287865
0 0.0078897364 0.035404768 -0.32315677 0.19972187 0.52287865
0 0.0047544939 0.033265259 -0.32315677 0.19972187 0.52287865
0.0025962703 0 0.027156629 -0.32315677 0.19972187 0.52287865
0.036370616 0.079491936 0.039999999 -0.32315677 0.19972187 0.52287865
0.0349392 0.07719747 0.039999999 -0.32315677 0.19972187 0.52287865
0.019027771 0.079973698 0.059606791 -0.32315677 0.19972187 0.52287865
0.01404922 0.079068765 0.064512759 -0.32315677 0.19972187 0.52287865
0.010614058 0.077659525 0.067354433 -0.32315677 0.19972187 0.52287865
0.0080139907 0.075974308 0.069077194 -0.32315677 0.19972187 0.52287865
0.0060072308 0.074085608 0.07 -0.32315677 0.19972187 0.52287865
0.0046755737 0.071947321 0.07 -0.32315677 0.19972187 0.52287865
0.0033455293 0.069810994 0.07 -0.32315677 0.19972187 0.52287865
0.0020170431 0.067676552 0.07 -0.32315677 0.19972187 0.52287865
0.00080043281 0.065498173 0.069845654 -0.32315677 0.19972187 0.52287865
0.00026020341 0.063034423 0.068742312 -0.32315677 0.19972187 0.52287865
2.3260374e-05 0.060429014 0.067204215 -0.32315677 0.19972187 0.52287865
0.00014827888 0.057648282 0.06514284 -0.32315677 0.19972187 0.52287865
0.00076653727 0.054623906 0.062364984 -0.32315677 0.19972187 0.52287865
0.0020204564 0.051277839 0.058658324 -0.32315677 0.19972187 0.52287865
0.0046138712 0.04726579 0.053002197 -0.32315677 0.19972187 0.52287865
0.012278532 0.04078402 0.039999999 -0.32315677 0.19972187 0.52287865
0.010874427 0.038522132 0.039999999 -0.32315677 0.19972187 0.52287865
0.0094714174 0.036261342 0.039999999 -0.32315677 0.19972187 0.52287865
0.0080694454 0.034001563 0.039999999 -0.32315677 0.19972187 0.52287865
0.0066684568 0.031742707 0.039999999 -0.32315677 0.19972187 0.52287865
0.0052683954 0.02948468 0.039999999 -0.32315677 0.19972187 0.52287865
0.0038692066 0.0272274 0.039999999 -0.32315677 0.19972187 0.52287865
0.0024708351 0.024970774 0.039999999 -0.32315677 0.19972187 0.52287865
0.0010732253 0.022714712 0.039999999 -0.32315677 0.19972187 0.52287865
0.026418701 0.0056096232 0 -0.32315677 0.19972187 0.52287865
0 0.017232681 0.037416238 -0.32315677 0.19972187 0.52287865
0 0.014160029 0.035299204 -0.32315677 0.19972187 0.52287865
0.018946357 0 0.0044530127 -0.32315677 0.19972187 0.52287865
0 0.0079351338 0.031011702 -0.32315677 0.19972187 0.52287865
0.0079271933 0 0.016721616 -0.32315677 0.19972187 0.52287865
0 0.0016010347 0.026650863 -0.32315677 0.19972187 0.52287865
0.036423419 0.079999998 0.035856407 -0.32315677 0.19972187 0.52287865
0.031939209 0.078730628 0.039999999 -0.32315677 0.19972187 0.52287865
0.020357056 0.079986453 0.053870682 -0.32315677 0.19972187 0.52287865
0.014720225 0.07928659 0.059705894 -0.32315677 0.19972187 0.52287865
0.011143251 0.077906825 0.062755689 -0.32315677 0.19972187 0.52287865
0.0083887139 0.076259181 0.064696066 -0.32315677 0.19972187 0.52287865
0.0061893114 0.074425787 0.065884262 -0.32315677 0.19972187 0.52287865
0.0043790792 0.07245779 0.066542208 -0.32315677 0.19972187 0.52287865
0.0029015401 0.070368148 0.066742308 -0.32315677 0.19972187 0.52287865
0.0017502633 0.068151258 0.066487864 -0.32315677 0.19972187 0.52287865
0.00088819995 0.065814279 0.065825447 -0.32315677 0.19972187 0.52287865
0.00031213887 0.063351206 0.064754486 -0.32315677 0.19972187 0.52287865
4.0487415e-05 0.060746752 0.06324365 -0.32315677 0.19972187 0.52287865
0.00010968444 0.057976976 0.061235365 -0.32315677 0.19972187 0.52287865
0.00067187095 0.054964855 0.058505174 -0.32315677 0.19972187 0.52287865
0.0018291258 0.0516508 0.054896973 -0.32315677 0.19972187 0.52287865
0.0042299484 0.04771778 0.049461909 -0.32315677 0.19972187 0.52287865
0.0093734171 0.042423476 0.039999999 -0.32315677 0.19972187 0.52287865
0.0079746824 0.040168405 0.039999999 -0.32315677 0.19972187 0.52287865
0.0065769795 0.037914455 0.039999999 -0.32315677 0.19972187 0.52287865
0.0051802532 0.035661545 0.039999999 -0.32315677 0.19972187 0.52287865
0.0037844481 0.033409581 0.039999999 -0.32315677 0.19972187 0.52287865
0.0023895097 0.031158473 0.039999999 -0.32315677 0.19972187 0.52287865
0.00099538313 0.028908137 0.039999999 -0.32315677 0.19972187 0.52287865
0 0.026445083 0.039404571 -0.32315677 0.19972187 0.52287865
0.024830207 0.0098871477 0 -0.32315677 0.19972187 0.52287865
0 0.020394737 0.035196971 -0.32315677 0.19972187 0.52287865
0 0.017331107 0.033066999 -0.32315677 0.19972187 0.52287865
0 0.014241252 0.030919174 -0.32315677 0.19972187 0.52287865
0 0.01112472 0.028753189 -0.32315677 0.19972187 0.52287865
0 0.007981047 0.026568728 -0.32315677 0.19972187 0.52287865
0.0079743993 0 0.012063873 -0.32315677 0.19972187 0.52287865
0 0.0016103804 0.022143073 -0.32315677 0.19972187 0.52287865
0.038025588 0.079999998 0.029553898 -0.32315677 0.19972187 0.52287865
0.029706612 0.079999998 0.038974967 -0.32315677 0.19972187 0.52287865
0.02211757 0.079858132 0.047469802 -0.32315677 0.19972187 0.52287865
0.01552455 0.079463616 0.054659065 -0.32315677 0.19972187 0.52287865
0.011682647 0.078156382 0.058090389 -0.32315677 0.19972187 0.52287865
0.0087681841 0.07654766 0.06025942 -0.32315677 0.19972187 0.52287865
0.0065013864 0.074721389 0.061542086 -0.32315677 0.19972187 0.52287865
0.0046341168 0.072758041 0.062276062 -0.32315677 0.19972187 0.52287865
0.0031070991 0.070671327 0.062538125 -0.32315677 0.19972187 0.52287865
0.0018851823 0.068467006 0.062372159 -0.32315677 0.19972187 0.52287865
0.00097694248 0.066133894 0.061760571 -0.32315677 0.19972187 0.52287865
0.00036464189 0.063671455 0.060723081 -0.32315677 0.19972187 0.52287865
5.7899666e-05 0.061067905 0.059240509 -0.32315677 0.19972187 0.52287865
9.2187212e-05 0.058299694 0.057256117 -0.32315677 0.19972187 0.52287865
0.00057624554 0.055309262 0.054606259 -0.32315677 0.19972187 0.52287865
0.0016886515 0.052003376 0.051023088 -0.32315677 0.19972187 0.52287865
0.0039120363 0.048141483 0.045790758 -0.32315677 0.19972187 0.52287865
0.0064874738 0.044052113 0.039999999 -0.32315677 0.19972187 0.52287865
0.0050940681 0.041803814 0.039999999 -0.32315677 0.19972187 0.52287865
0.0037016321 0.039556667 0.039999999 -0.32315677 0.19972187 0.52287865
0.0023101117 0.037310578 0.039999999 -0.32315677 0.19972187 0.52287865
0.00091945194 0.035065465 0.039999999 -0.32315677 0.19972187 0.52287865
0 0.032577932 0.039296076 -0.32315677 0.19972187 0.52287865
0 0.029598881 0.037205346 -0.32315677 0.19972187 0.52287865
0 0.026595054 0.035097528 -0.32315677 0.19972187 0.52287865
0.021749523 0.011710156 0 -0.32315677 0.19972187 0.52287865
0 0.020511374 0.03082943 -0.32315677 0.19972187 0.52287865
0 0.017430646 0.028668551 -0.32315677 0.19972187 0.52287865
0 0.014323398 0.026489368 -0.32315677 0.19972187 0.52287865
0.015744459 0.0020037033 0 -0.32315677 0.19972187 0.52287865
0 0.0080274865 0.022074813 -0.32315677 0.19972187 0.52287865
0 0.004837872 0.019838784 -0.32315677 0.19972187 0.52287865
0 0.0016198342 0.017583134 -0.32315677 0.19972187 0.52287865
0.039658789 0.079999998 0.02312931 -0.32315677 0.19972187 0.52287865
0.031227808 0.079999998 0.032768235 -0.32315677 0.19972187 0.52287865
0.024588566 0.079494171 0.039999999 -0.32315677 0.19972187 0.52287865
0.016341129 0.079643339 0.049535342 -0.32315677 0.19972187 0.52287865
0.012229437 0.078409351 0.05336114 -0.32315677 0.19972187 0.52287865
0.0092139198 0.076817118 0.055679705 -0.32315677 0.19972187 0.52287865
0.0068173399 0.075020663 0.057145946 -0.32315677 0.19972187 0.52287865
0.0048922459 0.073061936 0.057958201 -0.32315677 0.19972187 0.52287865
0.0033150958 0.070978098 0.058284089 -0.32315677 0.19972187 0.52287865
0.0020487204 0.068775475 0.058170598 -0.32315677 0.19972187 0.52287865
0.0010740584 0.06645406 0.057639524 -0.32315677 0.19972187 0.52287865
0.0004177239 0.063995235 0.056647219 -0.32315677 0.19972187 0.52287865
7.55008e-05 0.061392542 0.055193938 -0.32315677 0.19972187 0.52287865
7.4503296e-05 0.058625858 0.053234413 -0.32315677 0.19972187 0.52287865
0.00047964271 0.055657186 0.050667487 -0.32315677 0.19972187 0.52287865
0.0015467745 0.052359473 0.04711052 -0.32315677 0.19972187 0.52287865
0.003636312 0.048548147 0.042020548 -0.32315677 0.19972187 0.52287865
0.0036204036 0.0456701 0.039999999 -0.32315677 0.19972187 0.52287865
0.0022322864 0.043428537 0.039999999 -0.32315677 0.19972187 0.52287865
0.00084507832 0.041188147 0.039999999 -0.32315677 0.19972187 0.52287865
0 0.038679101 0.039189838 -0.32315677 0.19972187 0.52287865
0.024682753 0.023207232 0 -0.32315677 0.19972187 0.52287865
0.023183234 0.020784495 0 -0.32315677 0.19972187 0.52287865
0 0.029766968 0.032879896 -0.32315677 0.19972187 0.52287865
0 0.026746714 0.030741936 -0.32315677 0.19972187 0.52287865
0 0.023700984 0.028586151 -0.32315677 0.19972187 0.52287865
0 0.020629337 0.026412237 -0.32315677 0.19972187 0.52287865
0 0.017531324 0.024219882 -0.32315677 0.19972187 0.52287865
0 0.014406487 0.02200876 -0.32315677 0.19972187 0.52287865
0 0.01125436 0.019778548 -0.32315677 0.19972187 0.52287865
0 0.0080744633 0.017528905 -0.32315677 0.19972187 0.52287865
0 0.0048663095 0.015259492 -0.32315677 0.19972187 0.52287865
0.0026581078 0 0.0087757334 -0.32315677 0.19972187 0.52287865
0.032778218 0.079999998 0.026442317 -0.32315677 0.19972187 0.52287865
0.024568772 0.079999998 0.035917751 -0.32315677 0.19972187 0.52287865
0.017268255 0.079791315 0.044194993 -0.32315677 0.19972187 0.52287865
0.01281743 0.078653708 0.048518937 -0.32315677 0.19972187 0.52287865
0.0096669141 0.077089667 0.051037241 -0.32315677 0.19972187 0.52287865
0.0071512363 0.075318433 0.052674759 -0.32315677 0.19972187 0.52287865
0.0051535331 0.073369548 0.053587511 -0.32315677 0.19972187 0.52287865
0.0035255819 0.071288541 0.053979136 -0.32315677 0.19972187 0.52287865
0.0022141777 0.069087557 0.053919729 -0.32315677 0.19972187 0.52287865
0.0011987475 0.066767022 0.05343334 -0.32315677 0.19972187 0.52287865
0.00047376257 0.06432163 0.052522566 -0.32315677 0.19972187 0.52287865
9.3294591e-05 0.061720729 0.051103074 -0.32315677 0.19972187 0.52287865
5.6629004e-05 0.058955532 0.049169414 -0.32315677 0.19972187 0.52287865
0.00041982936 0.055991918 0.046632487 -0.32315677 0.19972187 0.52287865
0.0014034681 0.052719157 0.043158535 -0.32315677 0.19972187 0.52287865
0.0021556844 0.04951375 0.039999999 -0.32315677 0.19972187 0.52287865
0.00077191362 0.0472776 0.039999999 -0.32315677 0.19972187 0.52287865
0 0.044749744 0.039085347 -0.32315677 0.19972187 0.52287865
0 0.041835338 0.03700351 -0.32315677 0.19972187 0.52287865
0 0.038897261 0.03490489 -0.32315677 0.19972187 0.52287865
0.02162065 0.02497704 0 -0.32315677 0.19972187 0.52287865
0 0.032948487 0.030656157 -0.32315677 0.19972187 0.52287865
0.018633155 0.020147191 0 -0.32315677 0.19972187 0.52287865
0 0.026900101 0.026336804 -0.32315677 0.19972187 0.52287865
0 0.023837483 0.02414988 -0.32315677 0.19972187 0.52287865
0 0.020748654 0.021944372 -0.32315677 0.19972187 0.52287865
0 0.017633161 0.019719956 -0.32315677 0.19972187 0.52287865
0 0.014490537 0.017476302 -0.32315677 0.19972187 0.52287865
0.009683948 0.0056745321 0 -0.32315677 0.19972187 0.52287865
0 0.0081219887 0.012929918 -0.32315677 0.19972187 0.52287865
0.0067037744 0.00085346645 0 -0.32315677 0.19972187 0.52287865
0 0.0016390753 0.0083024297 -0.32315677 0.19972187 0.52287865
0.034358747 0.079999998 0.019993497 -0.32315677 0.19972187 0.52287865
0.026039517 0.079999998 0.02968749 -0.32315677 0.19972187 0.52287865
0.018044127 0.079999998 0.039004169 -0.32315677 0.19972187 0.52287865
0.013481129 0.078877345 0.043512139 -0.32315677 0.19972187 0.52287865
0.010125991 0.077365875 0.046332449 -0.32315677 0.19972187 0.52287865
0.0075285714 0.075605288 0.048090316 -0.32315677 0.19972187 0.52287865
0.0054180468 0.073680952 0.049162846 -0.32315677 0.19972187 0.52287865
0.0037386108 0.071602732 0.049622178 -0.32315677 0.19972187 0.52287865
0.0023815944 0.069403335 0.049618516 -0.32315677 0.19972187 0.52287865
0.0013248873 0.067083612 0.049178235 -0.32315677 0.19972187 0.52287865
0.0005617743 0.064638615 0.048305593 -0.32315677 0.19972187 0.52287865
0.00011128491 0.062052544 0.04696703 -0.32315677 0.19972187 0.52287865
3.8560553e-05 0.059288785 0.045060258 -0.32315677 0.19972187 0.52287865
0.00036475938 0.056327824 0.042546555 -0.32315677 0.19972187 0.52287865
0.00069961353 0.053335208 0.039999999 -0.32315677 0.19972187 0.52287865
0 0.05079101 0.03898209 -0.32315677 0.19972187 0.52287865
0 0.047907829 0.036904685 -0.32315677 0.19972187 0.52287865
0.023048628 0.033966329 0 -0.32315677 0.19972187 0.52287865
0 0.042071659 0.032699712 -0.32315677 0.19972187 0.52287865
0.02006758 0.029144606 0 -0.32315677 0.19972187 0.52287865
0 0.036139779 0.028425949 -0.32315677 0.19972187 0.52287865
0 0.033136923 0.026262535 -0.32315677 0.19972187 0.52287865
0 0.03010889 0.024081027 -0.32315677 0.19972187 0.52287865
0 0.027055249 0.021881113 -0.32315677 0.19972187 0.52287865
0 0.023975553 0.019662473 -0.32315677 0.19972187 0.52287865
0 0.020869352 0.017424783 -0.32315677 0.19972187 0.52287865
0.009654209 0.012299415 0 -0.32315677 0.19972187 0.52287865
0 0.01457557 0.012890909 -0.32315677 0.19972187 0.52287865
0 0.011387032 0.010594038 -0.32315677 0.19972187 0.52287865
0.0051975804 0.0050891982 0 -0.32315677 0.19972187 0.52287865
0.0037124532 0.0026863387 0 -0.32315677 0.19972187 0.52287865
0.0022274393 0.00028359934 0 -0.32315677 0.19972187 0.52287865
0.035970349 0.079999998 0.013417902 -0.32315677 0.19972187 0.52287865
0.027538594 0.079999998 0.02333721 -0.32315677 0.19972187 0.52287865
0.01943819 0.079999998 0.032866664 -0.32315677 0.19972187 0.52287865
0.01306255 0.079494782 0.039999999 -0.32315677 0.19972187 0.52287865
0.01059129 0.077645831 0.041563895 -0.32315677 0.19972187 0.52287865
0.0079108542 0.075895905 0.04344577 -0.32315677 0.19972187 0.52287865
0.0057214643 0.073982634 0.044631254 -0.32315677 0.19972187 0.52287865
0.0039542369 0.07192076 0.045212101 -0.32315677 0.19972187 0.52287865
0.0025510124 0.069722891 0.045265891 -0.32315677 0.19972187 0.52287865
0.0014525076 0.067403927 0.044873178 -0.32315677 0.19972187 0.52287865
0.00065080193 0.064959258 0.044039942 -0.32315677 0.19972187 0.52287865
0.00015262411 0.062378224 0.042750515 -0.32315677 0.19972187 0.52287865
2.0294057e-05 0.059625693 0.040906064 -0.32315677 0.19972187 0.52287865
0 0.05680405 0.038879555 -0.32315677 0.19972187 0.52287865
0.024470227 0.042913269 0 -0.32315677 0.19972187 0.52287865
0 0.051076077 0.034717117 -0.32315677 0.19972187 0.52287865
0 0.04817779 0.032610912 -0.32315677 0.19972187 0.52287865
0.020009091 0.035691969 0 -0.32315677 0.19972187 0.52287865
0 0.042310666 0.028347097 -0.32315677 0.19972187 0.52287865
0.017039053 0.030884642 0 -0.32315677 0.19972187 0.52287865
0.015555078 0.028482763 0 -0.32315677 0.19972187 0.52287865
0 0.033327524 0.021818452 -0.32315677 0.19972187 0.52287865
0 0.030282807 0.019605566 -0.32315677 0.19972187 0.52287865
0 0.027212191 0.017373813 -0.32315677 0.19972187 0.52287865
0 0.024115229 0.015122866 -0.32315677 0.19972187 0.52287865
0.0081433794 0.016487548 0 -0.32315677 0.19972187 0.52287865
0 0.017840412 0.010562043 -0.32315677 0.19972187 0.52287865
0.0051814588 0.011694368 0 -0.32315677 0.19972187 0.52287865
0.0037008643 0.0092984643 0 -0.32315677 0.19972187 0.52287865
0 0.0082187317 0.0035682272 -0.32315677 0.19972187 0.52287865
0.00074012508 0.0045075738 0 -0.32315677 0.19972187 0.52287865
0.037614007 0.079999998 0.0067115026 -0.32315677 0.19972187 0.52287865
0.029066887 0.079999998 0.016863162 -0.32315677 0.19972187 0.52287865
0.020858886 0.079999998 0.026611906 -0.32315677 0.19972187 0.52287865
0.012969916 0.079999998 0.035981607 -0.32315677 0.19972187 0.52287865
0.0088149337 0.078748807 0.039999999 -0.32315677 0.19972187 0.52287865
0.0074353917 0.076511934 0.039999999 -0.32315677 0.19972187 0.52287865
0.0060396502 0.074284025 0.040025681 -0.32315677 0.19972187 0.52287865
0.0041904435 0.072235711 0.040721346 -0.32315677 0.19972187 0.52287865
0.0027224743 0.070046306 0.040860754 -0.32315677 0.19972187 0.52287865
0.0015816397 0.067728035 0.040517122 -0.32315677 0.19972187 0.52287865
0.00055624935 0.06536027 0.039999999 -0.32315677 0.19972187 0.52287865
0 0.062789999 0.03877724 -0.32315677 0.19972187 0.52287865
0 0.059967119 0.036708672 -0.32315677 0.19972187 0.52287865
0 0.057122134 0.034623779 -0.32315677 0.19972187 0.52287865
0 0.054254677 0.032522287 -0.32315677 0.19972187 0.52287865
0 0.051364366 0.03040392 -0.32315677 0.19972187 0.52287865
0 0.048450813 0.028268388 -0.32315677 0.19972187 0.52287865
0 0.04551363 0.026115401 -0.32315677 0.19972187 0.52287865
0.015508825 0.035009582 0 -0.32315677 0.19972187 0.52287865
0.014029608 0.032613713 0 -0.32315677 0.19972187 0.52287865
0.012551006 0.03021903 0 -0.32315677 0.19972187 0.52287865
0 0.033520333 0.017322864 -0.32315677 0.19972187 0.52287865
0.0095954239 0.025432853 0 -0.32315677 0.19972187 0.52287865
0 0.027370969 0.012813828 -0.32315677 0.19972187 0.52287865
0.0066416301 0.020650322 0 -0.32315677 0.19972187 0.52287865
0.0051652635 0.018260196 0 -0.32315677 0.19972187 0.52287865
0 0.017945876 0.0059018363 -0.32315677 0.19972187 0.52287865
0.0022133114 0.013481773 0 -0.32315677 0.19972187 0.52287865
0 0.011522864 0.0011907666 -0.32315677 0.19972187 0.52287865
0.030625321 0.079999998 0.010261436 -0.32315677 0.19972187 0.52287865
0.02230704 0.079999998 0.020236259 -0.32315677 0.19972187 0.52287865
0.014315158 0.079999998 0.029819464 -0.32315677 0.19972187 0.52287865
0.033236023 0.070341475 0 -0.32315677 0.19972187 0.52287865
0.0045984052 0.078008465 0.039999999 -0.32315677 0.19972187 0.52287865
0.0032259338 0.07578022 0.039999999 -0.32315677 0.19972187 0.52287865
0.0018546549 0.073554203 0.039999999 -0.32315677 0.19972187 0.52287865
0.00048451536 0.071330324 0.039999999 -0.32315677 0.19972187 0.52287865
0.025811382 0.058288932 0 -0.32315677 0.19972187 0.52287865
0 0.06595622 0.036610477 -0.32315677 0.19972187 0.52287865
0 0.063140839 0.034530133 -0.32315677 0.19972187 0.52287865
0.021370485 0.051083703 0 -0.32315677 0.19972187 0.52287865
0 0.057443816 0.030319829 -0.32315677 0.19972187 0.52287865
0 0.054561429 0.028189313 -0.32315677 0.19972187 0.52287865
0.016938124 0.043895129 0 -0.32315677 0.19972187 0.52287865
0 0.048726968 0.023876116 -0.32315677 0.19972187 0.52287865
0.013987205 0.039110776 0 -0.32315677 0.19972187 0.52287865
0 0.042796936 0.019491376 -0.32315677 0.19972187 0.52287865
0 0.039795049 0.017271413 -0.32315677 0.19972187 0.52287865
0 0.036768015 0.015032627 -0.32315677 0.19972187 0.52287865
0 0.033715401 0.012774695 -0.32315677 0.19972187 0.52287865
0 0.030636752 0.010497283 -0.32315677 0.19972187 0.52287865
0.0051486553 0.024788219 0 -0.32315677 0.19972187 0.52287865
0.0036770501 0.022404626 0 -0.32315677 0.19972187 0.52287865
0.0022057213 0.020021789 0 -0.32315677 0.19972187 0.52287865
0 0.0180526 0.0011859336 -0.32315677 0.19972187 0.52287865
0.032214858 0.079999998 0.0035279612 -0.32315677 0.19972187 0.52287865
0.023783512 0.079999998 0.013735932 -0.32315677 0.19972187 0.52287865
0.015686188 0.079999998 0.023539193 -0.32315677 0.19972187 0.52287865
0.030176878 0.071945094 0 -0.32315677 0.19972187 0.52287865
0.0017790609 0.079495691 0.039999999 -0.32315677 0.19972187 0.52287865
0.00041230553 0.077273749 0.039999999 -0.32315677 0.19972187 0.52287865
0 0.074685179 0.038571283 -0.32315677 0.19972187 0.52287865
0 0.071919821 0.036511492 -0.32315677 0.19972187 0.52287865
0.022782849 0.059926741 0 -0.32315677 0.19972187 0.52287865
0 0.066325419 0.032343566 -0.32315677 0.19972187 0.52287865
0 0.063495651 0.030234886 -0.32315677 0.19972187 0.52287865
0 0.060643699 0.028109362 -0.32315677 0.19972187 0.52287865
0 0.057769176 0.025966711 -0.32315677 0.19972187 0.52287865
0 0.054871697 0.023806641 -0.32315677 0.19972187 0.52287865
0.01394417 0.045574579 0 -0.32315677 0.19972187 0.52287865
0.012473891 0.043188676 0 -0.32315677 0.19972187 0.52287865
0.011004272 0.040804278 0 -0.32315677 0.19972187 0.52287865
0 0.043044318 0.014986183 -0.32315677 0.19972187 0.52287865
0 0.040026043 0.012734466 -0.32315677 0.19972187 0.52287865
0 0.036982339 0.010463464 -0.32315677 0.19972187 0.52287865
0 0.033912767 0.0081728399 -0.32315677 0.19972187 0.52287865
0 0.03081687 0.0058622528 -0.32315677 0.19972187 0.52287865
0 0.027694184 0.003531351 -0.32315677 0.19972187 0.52287865
0.00073079171 0.024148088 0 -0.32315677 0.19972187 0.52287865
0.025289202 0.079999998 0.0071069798 -0.32315677 0.19972187 0.52287865
0.017083811 0.079999998 0.017137116 -0.32315677 0.19972187 0.52287865
0.0091998996 0.079999998 0.026773879 -0.32315677 0.19972187 0.52287865
0.0016186447 0.079999998 0.036040306 -0.32315677 0.19972187 0.52287865
0.024187714 0.06873785 0 -0.32315677 0.19972187 0.52287865
0.022715041 0.066341072 0 -0.32315677 0.19972187 0.52287865
0 0.072321601 0.032252464 -0.32315677 0.19972187 0.52287865
0 0.069521055 0.030148596 -0.32315677 0.19972187 0.52287865
0 0.066698819 0.028028037 -0.32315677 0.19972187 0.52287865
0 0.06385453 0.025890512 -0.32315677 0.19972187 0.52287865
0 0.060987808 0.023735734 -0.32315677 0.19972187 0.52287865
0.013900161 0.052006532 0 -0.32315677 0.19972187 0.52287865
0 0.05518556 0.019373246 -0.32315677 0.19972187 0.52287865
0 0.052249242 0.017164934 -0.32315677 0.19972187 0.52287865
0 0.049288921 0.014938166 -0.32315677 0.19972187 0.52287865
0 0.046304185 0.012692627 -0.32315677 0.19972187 0.52287865
0 0.043294609 0.01042799 -0.32315677 0.19972187 0.52287865
0.005112858 0.037736818 0 -0.32315677 0.19972187 0.52287865
0.0036501503 0.035363466 0 -0.32315677 0.19972187 0.52287865
0 0.034112487 0.0035161667 -0.32315677 0.19972187 0.52287865
0.00072582089 0.030620184 0 -0.32315677 0.19972187 0.52287865
0.026825042 0.079999998 0.00034528371 -0.32315677 0.19972187 0.52287865
0.018508859 0.079999998 0.010609402 -0.32315677 0.19972187 0.52287865
0.01052163 0.079999998 0.020467021 -0.32315677 0.19972187 0.52287865
0.0028439148 0.079999998 0.02994216 -0.32315677 0.19972187 0.52287865
0.021178253 0.070335329 0 -0.32315677 0.19972187 0.52287865
0 0.075521193 0.030060457 -0.32315677 0.19972187 0.52287865
0 0.072727971 0.027944839 -0.32315677 0.19972187 0.52287865
0.016781375 0.063172296 0 -0.32315677 0.19972187 0.52287865
0 0.067076512 0.023662891 -0.32315677 0.19972187 0.52287865
0 0.064217545 0.021495994 -0.32315677 0.19972187 0.52287865
0.01239282 0.05602891 0 -0.32315677 0.19972187 0.52287865
0.010931559 0.053651724 0 -0.32315677 0.19972187 0.52287865
0 0.055503085 0.014888068 -0.32315677 0.19972187 0.52287865
0 0.052551102 0.012648661 -0.32315677 0.19972187 0.52287865
0.0065517803 0.046530727 0 -0.32315677 0.19972187 0.52287865
0.0050930064 0.04416028 0 -0.32315677 0.19972187 0.52287865
0 0.043547872 0.0058156839 -0.32315677 0.19972187 0.52287865
0 0.040496271 0.0034986632 -0.32315677 0.19972187 0.52287865
0.00071937602 0.03705737 0 -0.32315677 0.19972187 0.52287865
0.019962206 0.079999998 0.0039520641 -0.32315677 0.19972187 0.52287865
0.021111442 0.07669723 0 -0.32315677 0.19972187 0.52287865
0.0040925746 0.079999998 0.023727603 -0.32315677 0.19972187 0.52287865
0.018186986 0.071923152 0 -0.32315677 0.19972187 0.52287865
0 0.075946383 0.025731906 -0.32315677 0.19972187 0.52287865
0 0.073139012 0.023587612 -0.32315677 0.19972187 0.52287865
0.01380787 0.064780347 0 -0.32315677 0.19972187 0.52287865
0 0.067458592 0.019247096 -0.32315677 0.19972187 0.52287865
0.010892857 0.060029633 0 -0.32315677 0.19972187 0.52287865
0 0.061688077 0.014835378 -0.32315677 0.19972187 0.52287865
0 0.058768068 0.012602061 -0.32315677 0.19972187 0.52287865
0.0065258392 0.052918486 0 -0.32315677 0.19972187 0.52287865
0 0.052856535 0.0080789384 -0.32315677 0.19972187 0.52287865
0 0.049864184 0.0057884837 -0.32315677 0.19972187 0.52287865
0.0021641182 0.045823101 0 -0.32315677 0.19972187 0.52287865
0 0.043804172 0.0011481143 -0.32315677 0.19972187 0.52287865
0.013243089 0.079999998 0.0074811256 -0.32315677 0.19972187 0.52287865
0.01666932 0.075880542 0 -0.32315677 0.19972187 0.52287865
0 0.079176515 0.023509402 -0.32315677 0.19972187 0.52287865
0 0.07637649 0.021353249 -0.32315677 0.19972187 0.52287865
0.012305107 0.068750672 0 -0.32315677 0.19972187 0.52287865
0 0.070711181 0.016988639 -0.32315677 0.19972187 0.52287865
0 0.067845143 0.014779595 -0.32315677 0.19972187 0.52287865
0 0.064956345 0.01255232 -0.32315677 0.19972187 0.52287865
0.0064978516 0.059276063 0 -0.32315677 0.19972187 0.52287865
0 0.059108905 0.0080418382 -0.32315677 0.19972187 0.52287865
0.0035982581 0.054550812 0 -0.32315677 0.19972187 0.52287865
0 0.053165618 0.0034546335 -0.32315677 0.19972187 0.52287865
0 0.050156984 0.0011314309 -0.32315677 0.19972187 0.52287865
0.014644475 0.079999998 0.0007941823 -0.32315677 0.19972187 0.52287865
0.0066629951 0.079999998 0.01093467 -0.32315677 0.19972187 0.52287865
0 0.079625867 0.019108914 -0.32315677 0.19972187 0.52287865
0 0.076811627 0.016923441 -0.32315677 0.19972187 0.52287865
0 0.073975533 0.014720215 -0.32315677 0.19972187 0.52287865
0.0079139434 0.067967743 0 -0.32315677 0.19972187 0.52287865
0.0064674933 0.065604776 0 -0.32315677 0.19972187 0.52287865
0 0.065332316 0.0080009922 -0.32315677 0.19972187 0.52287865
0 0.062404972 0.0057236957 -0.32315677 0.19972187 0.52287865
0 0.059453819 0.003427085 -0.32315677 0.19972187 0.52287865
0 0.056478444 0.0011108278 -0.32315677 0.19972187 0.52287865
0.0079862978 0.079999998 0.0043486189 -0.32315677 0.19972187 0.52287865
0.00021741947 0.079999998 0.01431481 -0.32315677 0.19972187 0.52287865
0 0.077251896 0.012441409 -0.32315677 0.19972187 0.52287865
0 0.074401207 0.010207896 -0.32315677 0.19972187 0.52287865
0.0049929856 0.069547378 0 -0.32315677 0.19972187 0.52287865
0 0.068632044 0.0056850947 -0.32315677 0.19972187 0.52287865
0.002112045 0.064836949 0 -0.32315677 0.19972187 0.52287865
0 0.062769875 0.001085797 -0.32315677 0.19972187 0.52287865
0.0014655764 0.079999998 0.0078264866 -0.32315677 0.19972187 0.52287865
0 0.077697396 0.0079060504 -0.32315677 0.19972187 0.52287865
0 0.07483197 0.0056416849 -0.32315677 0.19972187 0.52287865
0 0.071943834 0.0033583869 -0.32315677 0.19972187 0.52287865
0 0.069032595 0.0010558331 -0.32315677 0.19972187 0.52287865
0.0027385114 0.079999998 0.0012093574 -0.32315677 0.19972187 0.52287865
0.0020626255 0.077372283 0 -0.32315677 0.19972187 0.52287865
0 0.075267918 0.0010204326 -0.32315677 0.19972187 0.52287865
