# .PCD v0.7 - Point Cloud Data file format
VERSION 0.7
FIELDS x y z vp_x vp_y vp_z
SIZE 4 4 4 4 4 4
TYPE F F F F F F
COUNT 1 1 1 1 1 1
WIDTH 464
HEIGHT 1
VIEWPOINT 0 0 0 1 0 0 0
POINTS 464
DATA ascii
0.039279375 0.064389303 0.07 0 0 0.64631355
0.039260607 0.061844498 0.07 0 0 0.64631355
0.039242607 0.059302069 0.07 0 0 0.64631355
0.03922537 0.056761928 0.07 0 0 0.64631355
0.038732041 0.078477375 0.039999999 0 0 0.64631355
0.038710549 0.075789012 0.039999999 0 0 0.64631355
0.03677547 0.069486469 0.07 0 0 0.64631355
0.036756482 0.06693659 0.07 0 0 0.64631355
0.036738213 0.064389303 0.07 0 0 0.64631355
0.03672066 0.061844498 0.07 0 0 0.64631355
0.036703825 0.059302069 0.07 0 0 0.64631355
0.036687702 0.056761928 0.07 0 0 0.64631355
0.03667229 0.054223966 0.07 0 0 0.64631355
0.03665759 0.05168809 0.07 0 0 0.64631355
0.036643598 0.049154196 0.07 0 0 0.64631355
0.038537107 0.049049105 0.039999999 0 0 0.64631355
0.038523875 0.046387173 0.039999999 0 0 0.64631355
0.038511388 0.043727014 0.039999999 0 0 0.64631355
0.038499638 0.041068535 0.039999999 0 0 0.64631355
0.03848863 0.038411621 0.039999999 0 0 0.64631355
0.03847836 0.035756178 0.039999999 0 0 0.64631355
0.038468827 0.033102103 0.039999999 0 0 0.64631355
0.038460031 0.030449292 0.039999999 0 0 0.64631355
0.03845197 0.027797641 0.039999999 0 0 0.64631355
0.038444646 0.025147052 0.039999999 0 0 0.64631355
0.038438056 0.022497421 0.039999999 0 0 0.64631355
0.0384322 0.01984865 0.039999999 0 0 0.64631355
0.038427077 0.017200634 0.039999999 0 0 0.64631355
0.038422685 0.014553274 0.039999999 0 0 0.64631355
0.038419027 0.011906468 0.039999999 0 0 0.64631355
0.038416103 0.0092601161 0.039999999 0 0 0.64631355
0.038413908 0.006614117 0.039999999 0 0 0.64631355
0.038412444 0.0039683692 0.039999999 0 0 0.64631355
0.038411714 0.0013227731 0.039999999 0 0 0.64631355
0.036054447 0.078477375 0.039999999 0 0 0.64631355
0.034251481 0.072039023 0.07 0 0 0.64631355
0.034233134 0.069486469 0.07 0 0 0.64631355
0.034215461 0.06693659 0.07 0 0 0.64631355
0.034198456 0.064389303 0.07 0 0 0.64631355
0.034182116 0.061844498 0.07 0 0 0.64631355
0.034166444 0.059302069 0.07 0 0 0.64631355
0.034151435 0.056761928 0.07 0 0 0.64631355
0.034137089 0.054223966 0.07 0 0 0.64631355
0.034123406 0.05168809 0.07 0 0 0.64631355
0.034110382 0.049154196 0.07 0 0 0.64631355
0.034098018 0.046622187 0.07 0 0 0.64631355
0.035860673 0.046387173 0.039999999 0 0 0.64631355
0.035849046 0.043727014 0.039999999 0 0 0.64631355
0.035838112 0.041068535 0.039999999 0 0 0.64631355
0.035827864 0.038411621 0.039999999 0 0 0.64631355
0.035818301 0.035756178 0.039999999 0 0 0.64631355
0.035809427 0.033102103 0.039999999 0 0 0.64631355
0.035801243 0.030449292 0.039999999 0 0 0.64631355
0.03579374 0.027797641 0.039999999 0 0 0.64631355
0.035786919 0.025147052 0.039999999 0 0 0.64631355
0.035780787 0.022497421 0.039999999 0 0 0.64631355
0.035775334 0.01984865 0.039999999 0 0 0.64631355
0.035770565 0.017200634 0.039999999 0 0 0.64631355
0.035766479 0.014553274 0.039999999 0 0 0.64631355
0.035763074 0.011906468 0.039999999 0 0 0.64631355
0.035760351 0.0092601161 0.039999999 0 0 0.64631355
0.035758305 0.006614117 0.039999999 0 0 0.64631355
0.035756946 0.0039683692 0.039999999 0 0 0.64631355
0.035756264 0.0013227731 0.039999999 0 0 0.64631355
0.031726699 0.074594364 0.07 0 0 0.64631355
0.031709094 0.072039023 0.07 0 0 0.64631355
0.03169211 0.069486469 0.07 0 0 0.64631355
0.031675749 0.06693659 0.07 0 0 0.64631355
0.031660002 0.064389303 0.07 0 0 0.64631355
0.031644877 0.061844498 0.07 0 0 0.64631355
0.031630367 0.059302069 0.07 0 0 0.64631355
0.031616475 0.056761928 0.07 0 0 0.64631355
0.031603195 0.054223966 0.07 0 0 0.64631355
0.031590525 0.05168809 0.07 0 0 0.64631355
0.03157847 0.049154196 0.07 0 0 0.64631355
0.031567022 0.046622187 0.07 0 0 0.64631355
0.031556182 0.044091966 0.07 0 0 0.64631355
0.033188079 0.043727014 0.039999999 0 0 0.64631355
0.033177953 0.041068535 0.039999999 0 0 0.64631355
0.033168465 0.038411621 0.039999999 0 0 0.64631355
0.033159614 0.035756178 0.039999999 0 0 0.64631355
0.033151399 0.033102103 0.039999999 0 0 0.64631355
0.033143818 0.030449292 0.039999999 0 0 0.64631355
0.033136874 0.027797641 0.039999999 0 0 0.64631355
0.033130564 0.025147052 0.039999999 0 0 0.64631355
0.033124883 0.022497421 0.039999999 0 0 0.64631355
0.033119835 0.01984865 0.039999999 0 0 0.64631355
0.03311542 0.017200634 0.039999999 0 0 0.64631355
0.033111639 0.014553274 0.039999999 0 0 0.64631355
0.033108484 0.011906468 0.039999999 0 0 0.64631355
0.033105962 0.0092601161 0.039999999 0 0 0.64631355
0.033104073 0.006614117 0.039999999 0 0 0.64631355
0.03310281 0.0039683692 0.039999999 0 0 0.64631355
0.033102181 0.0013227731 0.039999999 0 0 0.64631355
0.029200882 0.077152595 0.07 0 0 0.64631355
0.029184112 0.074594364 0.07 0 0 0.64631355
0.029167917 0.072039023 0.07 0 0 0.64631355
0.029152295 0.069486469 0.07 0 0 0.64631355
0.029137243 0.06693659 0.07 0 0 0.64631355
0.029122761 0.064389303 0.07 0 0 0.64631355
0.029108848 0.061844498 0.07 0 0 0.64631355
0.029095503 0.059302069 0.07 0 0 0.64631355
0.029082721 0.056761928 0.07 0 0 0.64631355
0.029070504 0.054223966 0.07 0 0 0.64631355
0.029058851 0.05168809 0.07 0 0 0.64631355
0.029047761 0.049154196 0.07 0 0 0.64631355
0.029037232 0.046622187 0.07 0 0 0.64631355
0.029027261 0.044091966 0.07 0 0 0.64631355
0.029686678 0.042521417 0.056716662 0 0 0.64631355
0.030519063 0.041068535 0.039999999 0 0 0.64631355
0.030510334 0.038411621 0.039999999 0 0 0.64631355
0.030502195 0.035756178 0.039999999 0 0 0.64631355
0.030494638 0.033102103 0.039999999 0 0 0.64631355
0.030487664 0.030449292 0.039999999 0 0 0.64631355
0.030481275 0.027797641 0.039999999 0 0 0.64631355
0.030475469 0.025147052 0.039999999 0 0 0.64631355
0.030470245 0.022497421 0.039999999 0 0 0.64631355
0.030465603 0.01984865 0.039999999 0 0 0.64631355
0.030461542 0.017200634 0.039999999 0 0 0.64631355
0.030458061 0.014553274 0.039999999 0 0 0.64631355
0.030455161 0.011906468 0.039999999 0 0 0.64631355
0.030452842 0.0092601161 0.039999999 0 0 0.64631355
0.030451102 0.006614117 0.039999999 0 0 0.64631355
0.030449944 0.0039683692 0.039999999 0 0 0.64631355
0.030449362 0.0013227731 0.039999999 0 0 0.64631355
0.026657948 0.077152595 0.07 0 0 0.64631355
0.026642639 0.074594364 0.07 0 0 0.64631355
0.026627854 0.072039023 0.07 0 0 0.64631355
0.026613593 0.069486469 0.07 0 0 0.64631355
0.026599852 0.06693659 0.07 0 0 0.64631355
0.026586631 0.064389303 0.07 0 0 0.64631355
0.02657393 0.061844498 0.07 0 0 0.64631355
0.026561745 0.059302069 0.07 0 0 0.64631355
0.026550077 0.056761928 0.07 0 0 0.64631355
0.026538925 0.054223966 0.07 0 0 0.64631355
0.026528288 0.05168809 0.07 0 0 0.64631355
0.026518162 0.049154196 0.07 0 0 0.64631355
0.026508549 0.046622187 0.07 0 0 0.64631355
0.026499448 0.044091966 0.07 0 0 0.64631355
0.026490856 0.041563433 0.07 0 0 0.64631355
0.027861336 0.041068535 0.039999999 0 0 0.64631355
0.02785337 0.038411621 0.039999999 0 0 0.64631355
0.027845936 0.035756178 0.039999999 0 0 0.64631355
0.027839039 0.033102103 0.039999999 0 0 0.64631355
0.027832674 0.030449292 0.039999999 0 0 0.64631355
0.02782684 0.027797641 0.039999999 0 0 0.64631355
0.027821539 0.025147052 0.039999999 0 0 0.64631355
0.027816771 0.022497421 0.039999999 0 0 0.64631355
0.027812533 0.01984865 0.039999999 0 0 0.64631355
0.027808825 0.017200634 0.039999999 0 0 0.64631355
0.027805647 0.014553274 0.039999999 0 0 0.64631355
0.027803 0.011906468 0.039999999 0 0 0.64631355
0.027800882 0.0092601161 0.039999999 0 0 0.64631355
0.027799295 0.006614117 0.039999999 0 0 0.64631355
0.027798237 0.0039683692 0.039999999 0 0 0.64631355
0.027797706 0.0013227731 0.039999999 0 0 0.64631355
0.024116032 0.077152595 0.07 0 0 0.64631355
0.024102183 0.074594364 0.07 0 0 0.64631355
0.024088807 0.072039023 0.07 0 0 0.64631355
0.024075905 0.069486469 0.07 0 0 0.64631355
0.024063475 0.06693659 0.07 0 0 0.64631355
0.024051515 0.064389303 0.07 0 0 0.64631355
0.024040025 0.061844498 0.07 0 0 0.64631355
0.024029003 0.059302069 0.07 0 0 0.64631355
0.024018448 0.056761928 0.07 0 0 0.64631355
0.024008358 0.054223966 0.07 0 0 0.64631355
0.023998734 0.05168809 0.07 0 0 0.64631355
0.023989575 0.049154196 0.07 0 0 0.64631355
0.023980878 0.046622187 0.07 0 0 0.64631355
0.023972645 0.044091966 0.07 0 0 0.64631355
0.023964873 0.041563433 0.07 0 0 0.64631355
0.024940962 0.040638842 0.046343736 0 0 0.64631355
0.025197467 0.038411621 0.039999999 0 0 0.64631355
0.025190743 0.035756178 0.039999999 0 0 0.64631355
0.025184501 0.033102103 0.039999999 0 0 0.64631355
0.025178744 0.030449292 0.039999999 0 0 0.64631355
0.025173467 0.027797641 0.039999999 0 0 0.64631355
0.025168672 0.025147052 0.039999999 0 0 0.64631355
0.025164356 0.022497421 0.039999999 0 0 0.64631355
0.025160523 0.01984865 0.039999999 0 0 0.64631355
0.025157169 0.017200634 0.039999999 0 0 0.64631355
0.025154294 0.014553274 0.039999999 0 0 0.64631355
0.025151901 0.011906468 0.039999999 0 0 0.64631355
0.025149984 0.0092601161 0.039999999 0 0 0.64631355
0.025148548 0.006614117 0.039999999 0 0 0.64631355
0.025147591 0.0039683692 0.039999999 0 0 0.64631355
0.025147112 0.0013227731 0.039999999 0 0 0.64631355
0.021587852 0.079713821 0.07 0 0 0.64631355
0.021575036 0.077152595 0.07 0 0 0.64631355
0.021562645 0.074594364 0.07 0 0 0.64631355
0.02155068 0.072039023 0.07 0 0 0.64631355
0.021539137 0.069486469 0.07 0 0 0.64631355
0.021528017 0.06693659 0.07 0 0 0.64631355
0.021517318 0.064389303 0.07 0 0 0.64631355
0.021507038 0.061844498 0.07 0 0 0.64631355
0.021497177 0.059302069 0.07 0 0 0.64631355
0.021487733 0.056761928 0.07 0 0 0.64631355
0.021478707 0.054223966 0.07 0 0 0.64631355
0.021470098 0.05168809 0.07 0 0 0.64631355
0.021461902 0.049154196 0.07 0 0 0.64631355
0.021454124 0.046622187 0.07 0 0 0.64631355
0.021446757 0.044091966 0.07 0 0 0.64631355
0.021439804 0.041563433 0.07 0 0 0.64631355
0.022035265 0.040132917 0.053812943 0 0 0.64631355
0.022542523 0.038411621 0.039999999 0 0 0.64631355
0.022536509 0.035756178 0.039999999 0 0 0.64631355
0.022530926 0.033102103 0.039999999 0 0 0.64631355
0.022525774 0.030449292 0.039999999 0 0 0.64631355
0.022521054 0.027797641 0.039999999 0 0 0.64631355
0.022516763 0.025147052 0.039999999 0 0 0.64631355
0.022512903 0.022497421 0.039999999 0 0 0.64631355
0.022509474 0.01984865 0.039999999 0 0 0.64631355
0.022506474 0.017200634 0.039999999 0 0 0.64631355
0.022503901 0.014553274 0.039999999 0 0 0.64631355
0.022501759 0.011906468 0.039999999 0 0 0.64631355
0.022500046 0.0092601161 0.039999999 0 0 0.64631355
0.02249876 0.006614117 0.039999999 0 0 0.64631355
0.022497904 0.0039683692 0.039999999 0 0 0.64631355
0.022497475 0.0013227731 0.039999999 0 0 0.64631355
0.019046169 0.079713821 0.07 0 0 0.64631355
0.019034863 0.077152595 0.07 0 0 0.64631355
0.019023931 0.074594364 0.07 0 0 0.64631355
0.019013375 0.072039023 0.07 0 0 0.64631355
0.01900319 0.069486469 0.07 0 0 0.64631355
0.01899338 0.06693659 0.07 0 0 0.64631355
0.01898394 0.064389303 0.07 0 0 0.64631355
0.01897487 0.061844498 0.07 0 0 0.64631355
0.01896617 0.059302069 0.07 0 0 0.64631355
0.018957838 0.056761928 0.07 0 0 0.64631355
0.018949876 0.054223966 0.07 0 0 0.64631355
0.01894228 0.05168809 0.07 0 0 0.64631355
0.018935049 0.049154196 0.07 0 0 0.64631355
0.018928185 0.046622187 0.07 0 0 0.64631355
0.018921686 0.044091966 0.07 0 0 0.64631355
0.018915553 0.041563433 0.07 0 0 0.64631355
0.019390712 0.040029299 0.0553427 0 0 0.64631355
0.019888442 0.038411621 0.039999999 0 0 0.64631355
0.019883135 0.035756178 0.039999999 0 0 0.64631355
0.019878209 0.033102103 0.039999999 0 0 0.64631355
0.019873664 0.030449292 0.039999999 0 0 0.64631355
0.019869499 0.027797641 0.039999999 0 0 0.64631355
0.019865714 0.025147052 0.039999999 0 0 0.64631355
0.019862309 0.022497421 0.039999999 0 0 0.64631355
0.019859282 0.01984865 0.039999999 0 0 0.64631355
0.019856635 0.017200634 0.039999999 0 0 0.64631355
0.019854367 0.014553274 0.039999999 0 0 0.64631355
0.019852476 0.011906468 0.039999999 0 0 0.64631355
0.019850964 0.0092601161 0.039999999 0 0 0.64631355
0.019849831 0.006614117 0.039999999 0 0 0.64631355
0.019849075 0.0039683692 0.039999999 0 0 0.64631355
0.019848697 0.0013227731 0.039999999 0 0 0.64631355
0.016495414 0.077152595 0.07 0 0 0.64631355
0.016485943 0.074594364 0.07 0 0 0.64631355
0.016476793 0.072039023 0.07 0 0 0.64631355
0.016467968 0.069486469 0.07 0 0 0.64631355
0.016459465 0.06693659 0.07 0 0 0.64631355
0.016451284 0.064389303 0.07 0 0 0.64631355
0.016443426 0.061844498 0.07 0 0 0.64631355
0.016435886 0.059302069 0.07 0 0 0.64631355
0.016428666 0.056761928 0.07 0 0 0.64631355
0.016421765 0.054223966 0.07 0 0 0.64631355
0.016415183 0.05168809 0.07 0 0 0.64631355
0.016408918 0.049154196 0.07 0 0 0.64631355
0.016402969 0.046622187 0.07 0 0 0.64631355
0.016397338 0.044091966 0.07 0 0 0.64631355
0.016392022 0.041563433 0.07 0 0 0.64631355
0.01689609 0.040249173 0.052096583 0 0 0.64631355
0.017235117 0.038411621 0.039999999 0 0 0.64631355
0.017230518 0.035756178 0.039999999 0 0 0.64631355
0.017226249 0.033102103 0.039999999 0 0 0.64631355
0.017222311 0.030449292 0.039999999 0 0 0.64631355
0.017218702 0.027797641 0.039999999 0 0 0.64631355
0.017215421 0.025147052 0.039999999 0 0 0.64631355
0.017212471 0.022497421 0.039999999 0 0 0.64631355
0.017209848 0.01984865 0.039999999 0 0 0.64631355
0.017207554 0.017200634 0.039999999 0 0 0.64631355
0.017205589 0.014553274 0.039999999 0 0 0.64631355
0.017203949 0.011906468 0.039999999 0 0 0.64631355
0.01720264 0.0092601161 0.039999999 0 0 0.64631355
0.017201658 0.006614117 0.039999999 0 0 0.64631355
0.017201003 0.0039683692 0.039999999 0 0 0.64631355
0.017200675 0.0013227731 0.039999999 0 0 0.64631355
0.013956595 0.077152595 0.07 0 0 0.64631355
0.01394858 0.074594364 0.07 0 0 0.64631355
0.01394084 0.072039023 0.07 0 0 0.64631355
0.013933373 0.069486469 0.07 0 0 0.64631355
0.013926179 0.06693659 0.07 0 0 0.64631355
0.013919258 0.064389303 0.07 0 0 0.64631355
0.013912608 0.061844498 0.07 0 0 0.64631355
0.013906229 0.059302069 0.07 0 0 0.64631355
0.013900121 0.056761928 0.07 0 0 0.64631355
0.013894281 0.054223966 0.07 0 0 0.64631355
0.013888712 0.05168809 0.07 0 0 0.64631355
0.013883411 0.049154196 0.07 0 0 0.64631355
0.013878378 0.046622187 0.07 0 0 0.64631355
0.013873613 0.044091966 0.07 0 0 0.64631355
0.013869115 0.041563433 0.07 0 0 0.64631355
0.014485626 0.040784184 0.044197962 0 0 0.64631355
0.01458245 0.038411621 0.039999999 0 0 0.64631355
0.014578559 0.035756178 0.039999999 0 0 0.64631355
0.014574947 0.033102103 0.039999999 0 0 0.64631355
0.014571615 0.030449292 0.039999999 0 0 0.64631355
0.014568561 0.027797641 0.039999999 0 0 0.64631355
0.014565786 0.025147052 0.039999999 0 0 0.64631355
0.014563289 0.022497421 0.039999999 0 0 0.64631355
0.01456107 0.01984865 0.039999999 0 0 0.64631355
0.014559129 0.017200634 0.039999999 0 0 0.64631355
0.014557466 0.014553274 0.039999999 0 0 0.64631355
0.01455608 0.011906468 0.039999999 0 0 0.64631355
0.014554971 0.0092601161 0.039999999 0 0 0.64631355
0.01455414 0.006614117 0.039999999 0 0 0.64631355
0.014553586 0.0039683692 0.039999999 0 0 0.64631355
0.014553308 0.0013227731 0.039999999 0 0 0.64631355
0.011418308 0.077152595 0.07 0 0 0.64631355
0.011411751 0.074594364 0.07 0 0 0.64631355
0.011405418 0.072039023 0.07 0 0 0.64631355
0.011399309 0.069486469 0.07 0 0 0.64631355
0.011393423 0.06693659 0.07 0 0 0.64631355
0.011387761 0.064389303 0.07 0 0 0.64631355
0.01138232 0.061844498 0.07 0 0 0.64631355
0.011377102 0.059302069 0.07 0 0 0.64631355
0.011372103 0.056761928 0.07 0 0 0.64631355
0.011367327 0.054223966 0.07 0 0 0.64631355
0.011362771 0.05168809 0.07 0 0 0.64631355
0.011358433 0.049154196 0.07 0 0 0.64631355
0.011354316 0.046622187 0.07 0 0 0.64631355
0.011350418 0.044091966 0.07 0 0 0.64631355
0.01145232 0.041950185 0.064637348 0 0 0.64631355
0.01193375 0.041068535 0.039999999 0 0 0.64631355
0.011930338 0.038411621 0.039999999 0 0 0.64631355
0.011927155 0.035756178 0.039999999 0 0 0.64631355
0.0119242 0.033102103 0.039999999 0 0 0.64631355
0.011921474 0.030449292 0.039999999 0 0 0.64631355
0.011918975 0.027797641 0.039999999 0 0 0.64631355
0.011916704 0.025147052 0.039999999 0 0 0.64631355
0.011914662 0.022497421 0.039999999 0 0 0.64631355
0.011912847 0.01984865 0.039999999 0 0 0.64631355
0.011911259 0.017200634 0.039999999 0 0 0.64631355
0.011909897 0.014553274 0.039999999 0 0 0.64631355
0.011908764 0.011906468 0.039999999 0 0 0.64631355
0.011907857 0.0092601161 0.039999999 0 0 0.64631355
0.011907177 0.006614117 0.039999999 0 0 0.64631355
0.011906723 0.0039683692 0.039999999 0 0 0.64631355
0.011906496 0.0013227731 0.039999999 0 0 0.64631355
0.0088753551 0.074594364 0.07 0 0 0.64631355
0.0088704303 0.072039023 0.07 0 0 0.64631355
0.0088656787 0.069486469 0.07 0 0 0.64631355
0.0088611012 0.06693659 0.07 0 0 0.64631355
0.008856697 0.064389303 0.07 0 0 0.64631355
0.008852466 0.061844498 0.07 0 0 0.64631355
0.0088484073 0.059302069 0.07 0 0 0.64631355
0.0088445209 0.056761928 0.07 0 0 0.64631355
0.0088408049 0.054223966 0.07 0 0 0.64631355
0.0088372612 0.05168809 0.07 0 0 0.64631355
0.0088338889 0.049154196 0.07 0 0 0.64631355
0.0088306861 0.046622187 0.07 0 0 0.64631355
0.0088276546 0.044091966 0.07 0 0 0.64631355
0.0091737648 0.043207038 0.047209933 0 0 0.64631355
0.0092813345 0.041068535 0.039999999 0 0 0.64631355
0.0092786811 0.038411621 0.039999999 0 0 0.64631355
0.0092762047 0.035756178 0.039999999 0 0 0.64631355
0.0092739072 0.033102103 0.039999999 0 0 0.64631355
0.0092717865 0.030449292 0.039999999 0 0 0.64631355
0.0092698429 0.027797641 0.039999999 0 0 0.64631355
0.0092680771 0.025147052 0.039999999 0 0 0.64631355
0.0092664892 0.022497421 0.039999999 0 0 0.64631355
0.0092650773 0.01984865 0.039999999 0 0 0.64631355
0.0092638414 0.017200634 0.039999999 0 0 0.64631355
0.0092627835 0.014553274 0.039999999 0 0 0.64631355
0.0092619015 0.011906468 0.039999999 0 0 0.64631355
0.0092611965 0.0092601161 0.039999999 0 0 0.64631355
0.0092606675 0.006614117 0.039999999 0 0 0.64631355
0.0092603145 0.0039683692 0.039999999 0 0 0.64631355
0.0092601385 0.0013227731 0.039999999 0 0 0.64631355
0.0066692904 0.078477375 0.039999999 0 0 0.64631355
0.00633578 0.072039023 0.07 0 0 0.64631355
0.0063323868 0.069486469 0.07 0 0 0.64631355
0.0063291173 0.06693659 0.07 0 0 0.64631355
0.0063259718 0.064389303 0.07 0 0 0.64631355
0.0063229492 0.061844498 0.07 0 0 0.64631355
0.0063200505 0.059302069 0.07 0 0 0.64631355
0.0063172742 0.056761928 0.07 0 0 0.64631355
0.0063146204 0.054223966 0.07 0 0 0.64631355
0.006312089 0.05168809 0.07 0 0 0.64631355
0.0063096802 0.049154196 0.07 0 0 0.64631355
0.0063073928 0.046622187 0.07 0 0 0.64631355
0.0064780768 0.045300689 0.054201126 0 0 0.64631355
0.0066312952 0.043727014 0.039999999 0 0 0.64631355
0.0066292724 0.041068535 0.039999999 0 0 0.64631355
0.0066273767 0.038411621 0.039999999 0 0 0.64631355
0.0066256081 0.035756178 0.039999999 0 0 0.64631355
0.0066239671 0.033102103 0.039999999 0 0 0.64631355
0.0066224523 0.030449292 0.039999999 0 0 0.64631355
0.0066210646 0.027797641 0.039999999 0 0 0.64631355
0.0066198031 0.025147052 0.039999999 0 0 0.64631355
0.0066186683 0.022497421 0.039999999 0 0 0.64631355
0.0066176602 0.01984865 0.039999999 0 0 0.64631355
0.0066167777 0.017200634 0.039999999 0 0 0.64631355
0.006616022 0.014553274 0.039999999 0 0 0.64631355
0.0066153919 0.011906468 0.039999999 0 0 0.64631355
0.0066148881 0.0092601161 0.039999999 0 0 0.64631355
0.0066145104 0.006614117 0.039999999 0 0 0.64631355
0.0066142585 0.0039683692 0.039999999 0 0 0.64631355
0.0066141328 0.0013227731 0.039999999 0 0 0.64631355
0.0040014726 0.078477375 0.039999999 0 0 0.64631355
0.0039992519 0.075789012 0.039999999 0 0 0.64631355
0.0037993356 0.069486469 0.07 0 0 0.64631355
0.003797374 0.06693659 0.07 0 0 0.64631355
0.0037954866 0.064389303 0.07 0 0 0.64631355
0.0037936734 0.061844498 0.07 0 0 0.64631355
0.0037919339 0.059302069 0.07 0 0 0.64631355
0.0037902682 0.056761928 0.07 0 0 0.64631355
0.0037886761 0.054223966 0.07 0 0 0.64631355
0.0037871574 0.05168809 0.07 0 0 0.64631355
0.0037857119 0.049154196 0.07 0 0 0.64631355
0.0039081294 0.048147246 0.051148176 0 0 0.64631355
0.0039799665 0.046387173 0.039999999 0 0 0.64631355
0.0039786762 0.043727014 0.039999999 0 0 0.64631355
0.0039774626 0.041068535 0.039999999 0 0 0.64631355
0.003976325 0.038411621 0.039999999 0 0 0.64631355
0.0039752643 0.035756178 0.039999999 0 0 0.64631355
0.0039742794 0.033102103 0.039999999 0 0 0.64631355
0.0039733704 0.030449292 0.039999999 0 0 0.64631355
0.0039725378 0.027797641 0.039999999 0 0 0.64631355
0.0039717811 0.025147052 0.039999999 0 0 0.64631355
0.0039711003 0.022497421 0.039999999 0 0 0.64631355
0.0039704954 0.01984865 0.039999999 0 0 0.64631355
0.003969966 0.017200634 0.039999999 0 0 0.64631355
0.0039695124 0.014553274 0.039999999 0 0 0.64631355
0.0039691343 0.011906468 0.039999999 0 0 0.64631355
0.0039688321 0.0092601161 0.039999999 0 0 0.64631355
0.0039686053 0.006614117 0.039999999 0 0 0.64631355
0.0039684544 0.0039683692 0.039999999 0 0 0.64631355
0.003968379 0.0013227731 0.039999999 0 0 0.64631355
0.0013338072 0.078477375 0.039999999 0 0 0.64631355
0.0013330671 0.075789012 0.039999999 0 0 0.64631355
0.0013323531 0.073103584 0.039999999 0 0 0.64631355
0.0013316652 0.07042098 0.039999999 0 0 0.64631355
0.0012651462 0.064389303 0.07 0 0 0.64631355
0.0012645418 0.061844498 0.07 0 0 0.64631355
0.0012639619 0.059302069 0.07 0 0 0.64631355
0.0012634067 0.056761928 0.07 0 0 0.64631355
0.001262876 0.054223966 0.07 0 0 0.64631355
0.0012942465 0.05299329 0.055447228 0 0 0.64631355
0.0013275755 0.051712915 0.039999999 0 0 0.64631355
0.0013270943 0.049049105 0.039999999 0 0 0.64631355
0.0013266386 0.046387173 0.039999999 0 0 0.64631355
0.0013262086 0.043727014 0.039999999 0 0 0.64631355
0.001325804 0.041068535 0.039999999 0 0 0.64631355
0.0013254249 0.038411621 0.039999999 0 0 0.64631355
0.0013250712 0.035756178 0.039999999 0 0 0.64631355
0.0013247429 0.033102103 0.039999999 0 0 0.64631355
0.00132444 0.030449292 0.039999999 0 0 0.64631355
0.0013241625 0.027797641 0.039999999 0 0 0.64631355
0.0013239102 0.025147052 0.039999999 0 0 0.64631355
0.0013236833 0.022497421 0.039999999 0 0 0.64631355
0.0013234817 0.01984865 0.039999999 0 0 0.64631355
0.0013233052 0.017200634 0.039999999 0 0 0.64631355
0.001323154 0.014553274 0.039999999 0 0 0.64631355
0.001323028 0.011906468 0.039999999 0 0 0.64631355
0.0013229273 0.0092601161 0.039999999 0 0 0.64631355
0.0013228517 0.006614117 0.039999999 0 0 0.64631355
0.0013228013 0.0039683692 0.039999999 0 0 0.64631355
0.0013227762 0.0013227731 0.039999999 0 0 0.64631355
