# .PCD v0.7 - Point Cloud Data file format
VERSION 0.7
FIELDS x y z vp_x vp_y vp_z
SIZE 4 4 4 4 4 4
TYPE F F F F F F
COUNT 1 1 1 1 1 1
WIDTH 676
HEIGHT 1
VIEWPOINT 0 0 0 1 0 0 0
POINTS 676
DATA ascii
0.033506647 0.074063167 0.07 -0.32315677 -0.19972187 0.52287865
0.034923673 0.071693204 0.07 -0.32315677 -0.19972187 0.52287865
0.036341853 0.069326237 0.07 -0.32315677 -0.19972187 0.52287865
0.037761256 0.066962145 0.07 -0.32315677 -0.19972187 0.52287865
0.039181944 0.064600825 0.07 -0.32315677 -0.19972187 0.52287865
0.026045581 0.078974351 0.07 -0.32315677 -0.19972187 0.52287865
0.027455663 0.076604329 0.07 -0.32315677 -0.19972187 0.52287865
0.031536929 0.076315679 0.066564679 -0.32315677 -0.19972187 0.52287865
0.033716042 0.074515417 0.065595388 -0.32315677 -0.19972187 0.52287865
0.031691566 0.069513336 0.07 -0.32315677 -0.19972187 0.52287865
0.033105623 0.067155674 0.07 -0.32315677 -0.19972187 0.52287865
0.034520835 0.064800829 0.07 -0.32315677 -0.19972187 0.52287865
0.039353717 0.064943008 0.065691262 -0.32315677 -0.19972187 0.52287865
0.037354954 0.060099155 0.07 -0.32315677 -0.19972187 0.52287865
0.038773987 0.057752114 0.07 -0.32315677 -0.19972187 0.52287865
0.021451214 0.079139374 0.07 -0.32315677 -0.19972187 0.52287865
0.022856707 0.076775528 0.07 -0.32315677 -0.19972187 0.52287865
0.024262968 0.074414976 0.07 -0.32315677 -0.19972187 0.52287865
0.025670065 0.07205762 0.07 -0.32315677 -0.19972187 0.52287865
0.033544566 0.07467784 0.061638337 -0.32315677 -0.19972187 0.52287865
0.028486999 0.067352042 0.07 -0.32315677 -0.19972187 0.52287865
0.029896962 0.065003596 0.07 -0.32315677 -0.19972187 0.52287865
0.031308006 0.062657915 0.07 -0.32315677 -0.19972187 0.52287865
0.032720193 0.060314879 0.07 -0.32315677 -0.19972187 0.52287865
0.034133583 0.057974383 0.07 -0.32315677 -0.19972187 0.52287865
0.03554824 0.055636328 0.07 -0.32315677 -0.19972187 0.52287865
0.036964227 0.053300597 0.07 -0.32315677 -0.19972187 0.52287865
0.016891925 0.079307415 0.07 -0.32315677 -0.19972187 0.52287865
0.018293042 0.076949686 0.07 -0.32315677 -0.19972187 0.52287865
0.02548294 0.079226412 0.062354352 -0.32315677 -0.19972187 0.52287865
0.021097267 0.072244145 0.07 -0.32315677 -0.19972187 0.52287865
0.022500498 0.069896109 0.07 -0.32315677 -0.19972187 0.52287865
0.033371586 0.074841693 0.057646517 -0.32315677 -0.19972187 0.52287865
0.025309499 0.065208994 0.07 -0.32315677 -0.19972187 0.52287865
0.026715396 0.062869698 0.07 -0.32315677 -0.19972187 0.52287865
0.028122302 0.060533091 0.07 -0.32315677 -0.19972187 0.52287865
0.039252181 0.065308727 0.057516295 -0.32315677 -0.19972187 0.52287865
0.030939396 0.055867545 0.07 -0.32315677 -0.19972187 0.52287865
0.032349709 0.05353839 0.07 -0.32315677 -0.19972187 0.52287865
0.033761278 0.05121151 0.07 -0.32315677 -0.19972187 0.52287865
0.035174169 0.048886795 0.07 -0.32315677 -0.19972187 0.52287865
0.016966835 0.079758525 0.06569469 -0.32315677 -0.19972187 0.52287865
0.015161358 0.074778363 0.07 -0.32315677 -0.19972187 0.52287865
0.016559409 0.072433345 0.07 -0.32315677 -0.19972187 0.52287865
0.028214425 0.078203999 0.056383263 -0.32315677 -0.19972187 0.52287865
0.019357488 0.067752711 0.07 -0.32315677 -0.19972187 0.52287865
0.020757638 0.065416887 0.07 -0.32315677 -0.19972187 0.52287865
0.022158608 0.063083902 0.07 -0.32315677 -0.19972187 0.52287865
0.023560463 0.060753658 0.07 -0.32315677 -0.19972187 0.52287865
0.02496326 0.058426052 0.07 -0.32315677 -0.19972187 0.52287865
0.026367063 0.056100979 0.07 -0.32315677 -0.19972187 0.52287865
0.027771933 0.053778328 0.07 -0.32315677 -0.19972187 0.52287865
0.02917793 0.051458001 0.07 -0.32315677 -0.19972187 0.52287865
0.030585116 0.049139887 0.07 -0.32315677 -0.19972187 0.52287865
0.037729114 0.05080552 0.06268616 -0.32315677 -0.19972187 0.52287865
0.010661862 0.074964024 0.07 -0.32315677 -0.19972187 0.52287865
0.021095239 0.079969347 0.057787422 -0.32315677 -0.19972187 0.52287865
0.013450076 0.070289366 0.07 -0.32315677 -0.19972187 0.52287865
0.014845013 0.067956746 0.07 -0.32315677 -0.19972187 0.52287865
0.016240584 0.06562712 0.07 -0.32315677 -0.19972187 0.52287865
0.01763685 0.063300386 0.07 -0.32315677 -0.19972187 0.52287865
0.019033873 0.060976446 0.07 -0.32315677 -0.19972187 0.52287865
0.020431712 0.058655184 0.07 -0.32315677 -0.19972187 0.52287865
0.021830428 0.056336496 0.07 -0.32315677 -0.19972187 0.52287865
0.039148737 0.065681331 0.049187381 -0.32315677 -0.19972187 0.52287865
0.024630737 0.051706437 0.07 -0.32315677 -0.19972187 0.52287865
0.026032448 0.049394857 0.07 -0.32315677 -0.19972187 0.52287865
0.027435282 0.047085442 0.07 -0.32315677 -0.19972187 0.52287865
0.028839298 0.044778083 0.07 -0.32315677 -0.19972187 0.52287865
0.015693955 0.079500906 0.058897145 -0.32315677 -0.19972187 0.52287865
0.008975666 0.07048957 0.07 -0.32315677 -0.19972187 0.52287865
0.010366363 0.068163052 0.07 -0.32315677 -0.19972187 0.52287865
0.011757568 0.065839574 0.07 -0.32315677 -0.19972187 0.52287865
0.013149346 0.063519031 0.07 -0.32315677 -0.19972187 0.52287865
0.014541754 0.061201315 0.07 -0.32315677 -0.19972187 0.52287865
0.015934853 0.058886331 0.07 -0.32315677 -0.19972187 0.52287865
0.017328702 0.056573968 0.07 -0.32315677 -0.19972187 0.52287865
0.038037512 0.068612792 0.044415113 -0.32315677 -0.19972187 0.52287865
0.020118898 0.051956698 0.07 -0.32315677 -0.19972187 0.52287865
0.021515364 0.049651582 0.07 -0.32315677 -0.19972187 0.52287865
0.039974503 0.059529576 0.047672495 -0.32315677 -0.19972187 0.52287865
0.024311334 0.045047879 0.07 -0.32315677 -0.19972187 0.52287865
0.025710959 0.042749085 0.07 -0.32315677 -0.19972187 0.52287865
0.0045341235 0.070691973 0.07 -0.32315677 -0.19972187 0.52287865
0.0059207864 0.068371497 0.07 -0.32315677 -0.19972187 0.52287865
0.0073078373 0.066054098 0.07 -0.32315677 -0.19972187 0.52287865
0.027391944 0.078583159 0.044484735 -0.32315677 -0.19972187 0.52287865
0.01008334 0.061428145 0.07 -0.32315677 -0.19972187 0.52287865
0.032629468 0.075485118 0.041365858 -0.32315677 -0.19972187 0.52287865
0.012861113 0.05681327 0.07 -0.32315677 -0.19972187 0.52287865
0.014250999 0.054509733 0.07 -0.32315677 -0.19972187 0.52287865
0.015641633 0.052208655 0.07 -0.32315677 -0.19972187 0.52287865
0.017033074 0.049909934 0.07 -0.32315677 -0.19972187 0.52287865
0.018425381 0.047613472 0.07 -0.32315677 -0.19972187 0.52287865
0.019818615 0.045319166 0.07 -0.32315677 -0.19972187 0.52287865
0.021212835 0.043026913 0.07 -0.32315677 -0.19972187 0.52287865
0.022608103 0.040736616 0.07 -0.32315677 -0.19972187 0.52287865
0.0022881106 0.06922701 0.068911195 -0.32315677 -0.19972187 0.52287865
0.019710246 0.07999216 0.046637651 -0.32315677 -0.19972187 0.52287865
0.0042740782 0.063962229 0.07 -0.32315677 -0.19972187 0.52287865
0.0056578889 0.061656799 0.07 -0.32315677 -0.19972187 0.52287865
0.0070421454 0.059354179 0.07 -0.32315677 -0.19972187 0.52287865
0.0084269056 0.05705427 0.07 -0.32315677 -0.19972187 0.52287865
0.0098122312 0.054756973 0.07 -0.32315677 -0.19972187 0.52287865
0.01119818 0.052462183 0.07 -0.32315677 -0.19972187 0.52287865
0.012584812 0.050169796 0.07 -0.32315677 -0.19972187 0.52287865
0.013972186 0.047879711 0.07 -0.32315677 -0.19972187 0.52287865
0.015360363 0.045591831 0.07 -0.32315677 -0.19972187 0.52287865
0.016749403 0.043306049 0.07 -0.32315677 -0.19972187 0.52287865
0.018139362 0.041022271 0.07 -0.32315677 -0.19972187 0.52287865
0.021438094 0.040067952 0.067478754 -0.32315677 -0.19972187 0.52287865
0.030218385 0.04284133 0.057764426 -0.32315677 -0.19972187 0.52287865
0.0026589523 0.069926485 0.064151935 -0.32315677 -0.19972187 0.52287865
0.00059801975 0.064769156 0.069000192 -0.32315677 -0.19972187 0.52287865
0.0012646717 0.061887152 0.07 -0.32315677 -0.19972187 0.52287865
0.02828726 0.079999998 0.034355868 -0.32315677 -0.19972187 0.52287865
0.032926209 0.079999998 0.029996028 -0.32315677 -0.19972187 0.52287865
0.0054063178 0.055005729 0.07 -0.32315677 -0.19972187 0.52287865
0.0067877918 0.05271716 0.07 -0.32315677 -0.19972187 0.52287865
0.008169828 0.050431043 0.07 -0.32315677 -0.19972187 0.52287865
0.0095524834 0.048147272 0.07 -0.32315677 -0.19972187 0.52287865
0.01093582 0.045865752 0.07 -0.32315677 -0.19972187 0.52287865
0.012319894 0.043586377 0.07 -0.32315677 -0.19972187 0.52287865
0.013704766 0.041309055 0.07 -0.32315677 -0.19972187 0.52287865
0.016823661 0.040257052 0.067679465 -0.32315677 -0.19972187 0.52287865
0.021188829 0.040040832 0.063717283 -0.32315677 -0.19972187 0.52287865
0.029104833 0.042207953 0.055073116 -0.32315677 -0.19972187 0.52287865
0.0031439445 0.070725664 0.059175555 -0.32315677 -0.19972187 0.52287865
0.00073196483 0.065251581 0.064582057 -0.32315677 -0.19972187 0.52287865
6.9065194e-05 0.061273843 0.067478232 -0.32315677 -0.19972187 0.52287865
0.00011354594 0.057905752 0.069357701 -0.32315677 -0.19972187 0.52287865
0.0010325356 0.055255882 0.07 -0.32315677 -0.19972187 0.52287865
0.0024097417 0.052973475 0.07 -0.32315677 -0.19972187 0.52287865
0.003787389 0.05069356 0.07 -0.32315677 -0.19972187 0.52287865
0.0051655364 0.048416041 0.07 -0.32315677 -0.19972187 0.52287865
0.0065442421 0.046140816 0.07 -0.32315677 -0.19972187 0.52287865
0.0080750706 0.043979254 0.069792755 -0.32315677 -0.19972187 0.52287865
0.01045767 0.042434566 0.068427876 -0.32315677 -0.19972187 0.52287865
0.013283649 0.041189197 0.066473797 -0.32315677 -0.19972187 0.52287865
0.01663899 0.040291101 0.063821748 -0.32315677 -0.19972187 0.52287865
0.020960135 0.040029299 0.059893213 -0.32315677 -0.19972187 0.52287865
0.028515624 0.041935351 0.0516643 -0.32315677 -0.19972187 0.52287865
0.038696777 0.04550549 0.039999999 -0.32315677 -0.19972187 0.52287865
0.0037674769 0.071645305 0.05394147 -0.32315677 -0.19972187 0.52287865
0.00086745503 0.065739565 0.060112949 -0.32315677 -0.19972187 0.52287865
8.9169102e-05 0.06164464 0.06321428 -0.32315677 -0.19972187 0.52287865
9.6223783e-05 0.058225244 0.065177299 -0.32315677 -0.19972187 0.52287865
0.00059889007 0.055227704 0.066425174 -0.32315677 -0.19972187 0.52287865
0.0014745548 0.052540734 0.067139238 -0.32315677 -0.19972187 0.52287865
0.0026477834 0.050094578 0.067431808 -0.32315677 -0.19972187 0.52287865
0.0041025761 0.047867734 0.067330584 -0.32315677 -0.19972187 0.52287865
0.0058711912 0.045875542 0.066795908 -0.32315677 -0.19972187 0.52287865
0.007928988 0.044090308 0.065867305 -0.32315677 -0.19972187 0.52287865
0.010306465 0.042525541 0.064507894 -0.32315677 -0.19972187 0.52287865
0.013109659 0.041247826 0.06257797 -0.32315677 -0.19972187 0.52287865
0.016459836 0.040330533 0.059919424 -0.32315677 -0.19972187 0.52287865
0.020746136 0.040029299 0.0560131 -0.32315677 -0.19972187 0.52287865
0.0279225 0.041660942 0.04823285 -0.32315677 -0.19972187 0.52287865
0.03548336 0.043444667 0.039999999 -0.32315677 -0.19972187 0.52287865
0.036955696 0.041043103 0.039999999 -0.32315677 -0.19972187 0.52287865
0.038429119 0.038642991 0.039999999 -0.32315677 -0.19972187 0.52287865
0.039903693 0.036244228 0.039999999 -0.32315677 -0.19972187 0.52287865
0.0089013074 0.079963304 0.039999999 -0.32315677 -0.19972187 0.52287865
0.0046772235 0.072808795 0.048229162 -0.32315677 -0.19972187 0.52287865
0.0010045223 0.066233225 0.055591822 -0.32315677 -0.19972187 0.52287865
0.00010949135 0.062019464 0.058904015 -0.32315677 -0.19972187 0.52287865
7.8718513e-05 0.058548111 0.060952716 -0.32315677 -0.19972187 0.52287865
0.00052686111 0.055487126 0.06230263 -0.32315677 -0.19972187 0.52287865
0.0013844585 0.052766867 0.06306123 -0.32315677 -0.19972187 0.52287865
0.0025434985 0.050291277 0.063388549 -0.32315677 -0.19972187 0.52287865
0.0039838646 0.048035547 0.063318431 -0.32315677 -0.19972187 0.52287865
0.0057300809 0.046009205 0.062821686 -0.32315677 -0.19972187 0.52287865
0.0077815219 0.044202413 0.061904684 -0.32315677 -0.19972187 0.52287865
0.010153839 0.042617369 0.060551081 -0.32315677 -0.19972187 0.52287865
0.012934066 0.041306991 0.058646239 -0.32315677 -0.19972187 0.52287865
0.016279042 0.040370326 0.055981409 -0.32315677 -0.19972187 0.52287865
0.020530231 0.040029299 0.052098423 -0.32315677 -0.19972187 0.52287865
0.027353121 0.041403763 0.044740584 -0.32315677 -0.19972187 0.52287865
0.032295 0.041399911 0.039999999 -0.32315677 -0.19972187 0.52287865
0.033762641 0.039006885 0.039999999 -0.32315677 -0.19972187 0.52287865
0.035231311 0.036615264 0.039999999 -0.32315677 -0.19972187 0.52287865
0.036701061 0.034224939 0.039999999 -0.32315677 -0.19972187 0.52287865
0.038171962 0.031835817 0.039999999 -0.32315677 -0.19972187 0.52287865
0.03964407 0.02944779 0.039999999 -0.32315677 -0.19972187 0.52287865
0.0058032759 0.077791564 0.039999999 -0.32315677 -0.19972187 0.52287865
0.0066666659 0.074877948 0.040866125 -0.32315677 -0.19972187 0.52287865
0.0012054478 0.066783838 0.050927009 -0.32315677 -0.19972187 0.52287865
0.0001599012 0.062422611 0.054503247 -0.32315677 -0.19972187 0.52287865
6.1026538e-05 0.058874425 0.056683071 -0.32315677 -0.19972187 0.52287865
0.00045898638 0.055753075 0.058130726 -0.32315677 -0.19972187 0.52287865
0.001293452 0.052995283 0.058942027 -0.32315677 -0.19972187 0.52287865
0.0024381746 0.05048994 0.059305009 -0.32315677 -0.19972187 0.52287865
0.0038672751 0.048207503 0.059262194 -0.32315677 -0.19972187 0.52287865
0.0055876109 0.046144154 0.058809169 -0.32315677 -0.19972187 0.52287865
0.0076326467 0.044315591 0.057904199 -0.32315677 -0.19972187 0.52287865
0.0099997669 0.04271007 0.056556769 -0.32315677 -0.19972187 0.52287865
0.012756841 0.041366708 0.054677952 -0.32315677 -0.19972187 0.52287865
0.016096579 0.040410485 0.052007053 -0.32315677 -0.19972187 0.52287865
0.020312386 0.040029299 0.048148572 -0.32315677 -0.19972187 0.52287865
0.02696701 0.041273657 0.040966466 -0.32315677 -0.19972187 0.52287865
0.029131273 0.039370958 0.039999999 -0.32315677 -0.19972187 0.52287865
0.030594263 0.036986399 0.039999999 -0.32315677 -0.19972187 0.52287865
0.032058209 0.034603197 0.039999999 -0.32315677 -0.19972187 0.52287865
0.033523172 0.03222125 0.039999999 -0.32315677 -0.19972187 0.52287865
0.034989215 0.029840456 0.039999999 -0.32315677 -0.19972187 0.52287865
0.036456395 0.027460713 0.039999999 -0.32315677 -0.19972187 0.52287865
0.037924781 0.025081921 0.039999999 -0.32315677 -0.19972187 0.52287865
0.039394431 0.022703981 0.039999999 -0.32315677 -0.19972187 0.52287865
0.0012765034 0.078050479 0.039999999 -0.32315677 -0.19972187 0.52287865
0.0027290778 0.075636528 0.039999999 -0.32315677 -0.19972187 0.52287865
0.0041815052 0.073225625 0.039999999 -0.32315677 -0.19972187 0.52287865
0.0014366197 0.067364052 0.046164259 -0.32315677 -0.19972187 0.52287865
0.00022917335 0.062845148 0.050026238 -0.32315677 -0.19972187 0.52287865
4.3144166e-05 0.059204247 0.052367479 -0.32315677 -0.19972187 0.52287865
0.00041211912 0.056038946 0.053883996 -0.32315677 -0.19972187 0.52287865
0.0012015178 0.053226028 0.054780833 -0.32315677 -0.19972187 0.52287865
0.0023317917 0.050690599 0.055180416 -0.32315677 -0.19972187 0.52287865
0.0037495277 0.048381168 0.055165667 -0.32315677 -0.19972187 0.52287865
0.005448096 0.046283666 0.054751445 -0.32315677 -0.19972187 0.52287865
0.0074823368 0.044429857 0.053865161 -0.32315677 -0.19972187 0.52287865
0.0098442212 0.042803653 0.052524261 -0.32315677 -0.19972187 0.52287865
0.012580003 0.041428458 0.050669562 -0.32315677 -0.19972187 0.52287865
0.015912419 0.040451016 0.047995701 -0.32315677 -0.19972187 0.52287865
0.020092566 0.040029299 0.044162918 -0.32315677 -0.19972187 0.52287865
0.024534242 0.039735109 0.039999999 -0.32315677 -0.19972187 0.52287865
0.025991783 0.037357546 0.039999999 -0.32315677 -0.19972187 0.52287865
0.027450154 0.034981392 0.039999999 -0.32315677 -0.19972187 0.52287865
0.028909411 0.032606546 0.039999999 -0.32315677 -0.19972187 0.52287865
0.030369621 0.030232906 0.039999999 -0.32315677 -0.19972187 0.52287865
0.031830844 0.027860375 0.039999999 -0.32315677 -0.19972187 0.52287865
0.033293135 0.025488852 0.039999999 -0.32315677 -0.19972187 0.52287865
0.034756564 0.023118235 0.039999999 -0.32315677 -0.19972187 0.52287865
0.036221184 0.020748427 0.039999999 -0.32315677 -0.19972187 0.52287865
0.037687063 0.018379325 0.039999999 -0.32315677 -0.19972187 0.52287865
0.039154261 0.016010834 0.039999999 -0.32315677 -0.19972187 0.52287865
0 0.077421188 0.037339535 -0.32315677 -0.19972187 0.52287865
5.5511151e-17 0.073770165 0.039518852 -0.32315677 -0.19972187 0.52287865
0.001127147 0.071096227 0.039999999 -0.32315677 -0.19972187 0.52287865
0.0016706892 0.067951538 0.041341811 -0.32315677 -0.19972187 0.52287865
0.00029923962 0.063272528 0.045497905 -0.32315677 -0.19972187 0.52287865
2.5067617e-05 0.059537649 0.048005022 -0.32315677 -0.19972187 0.52287865
0.00036475406 0.056327857 0.049592163 -0.32315677 -0.19972187 0.52287865
0.0011086381 0.053459145 0.050576843 -0.32315677 -0.19972187 0.52287865
0.0022243301 0.050893292 0.051013991 -0.32315677 -0.19972187 0.52287865
0.0036306004 0.04855657 0.051028095 -0.32315677 -0.19972187 0.52287865
0.0053201742 0.046434268 0.050635166 -0.32315677 -0.19972187 0.52287865
0.0073305652 0.044545237 0.049786847 -0.32315677 -0.19972187 0.52287865
0.0096871741 0.042898141 0.048452854 -0.32315677 -0.19972187 0.52287865
0.012418633 0.041503116 0.046598859 -0.32315677 -0.19972187 0.52287865
0.015726529 0.040491931 0.04394668 -0.32315677 -0.19972187 0.52287865
0.019870736 0.040029299 0.040140819 -0.32315677 -0.19972187 0.52287865
0.021423114 0.0377286 0.039999999 -0.32315677 -0.19972187 0.52287865
0.022876132 0.035359424 0.039999999 -0.32315677 -0.19972187 0.52287865
0.024329914 0.032991607 0.039999999 -0.32315677 -0.19972187 0.52287865
0.02578452 0.030625051 0.039999999 -0.32315677 -0.19972187 0.52287865
0.02724001 0.028259657 0.039999999 -0.32315677 -0.19972187 0.52287865
0.028696444 0.025895327 0.039999999 -0.32315677 -0.19972187 0.52287865
0.030153885 0.023531958 0.039999999 -0.32315677 -0.19972187 0.52287865
0.031612393 0.021169456 0.039999999 -0.32315677 -0.19972187 0.52287865
0.033072028 0.018807717 0.039999999 -0.32315677 -0.19972187 0.52287865
0.034532849 0.016446644 0.039999999 -0.32315677 -0.19972187 0.52287865
0.035994925 0.014086139 0.039999999 -0.32315677 -0.19972187 0.52287865
0.037458308 0.011726104 0.039999999 -0.32315677 -0.19972187 0.52287865
0.038923066 0.0093664387 0.039999999 -0.32315677 -0.19972187 0.52287865
0 0.077890083 0.032727327 -0.32315677 -0.19972187 0.52287865
0 0.074214719 0.034942769 -0.32315677 -0.19972187 0.52287865
0 0.070575595 0.037137873 -0.32315677 -0.19972187 0.52287865
0 0.066972062 0.039313018 -0.32315677 -0.19972187 0.52287865
0.00037011638 0.063704848 0.040917192 -0.32315677 -0.19972187 0.52287865
6.7930114e-06 0.05987471 0.04359477 -0.32315677 -0.19972187 0.52287865
0.0003168814 0.056619864 0.045254335 -0.32315677 -0.19972187 0.52287865
0.0010228009 0.053700943 0.046317466 -0.32315677 -0.19972187 0.52287865
0.0021157686 0.05109806 0.046804938 -0.32315677 -0.19972187 0.52287865
0.0035104707 0.048733748 0.046848692 -0.32315677 -0.19972187 0.52287865
0.0051909727 0.046586376 0.046477709 -0.32315677 -0.19972187 0.52287865
0.0071773049 0.044661745 0.045668524 -0.32315677 -0.19972187 0.52287865
0.0095285997 0.042993549 0.044341825 -0.32315677 -0.19972187 0.52287865
0.012255704 0.041578494 0.042488828 -0.32315677 -0.19972187 0.52287865
0.015440215 0.040463246 0.039999999 -0.32315677 -0.19972187 0.52287865
0.016887523 0.038099464 0.039999999 -0.32315677 -0.19972187 0.52287865
0.018335409 0.035737194 0.039999999 -0.32315677 -0.19972187 0.52287865
0.019783935 0.03337634 0.039999999 -0.32315677 -0.19972187 0.52287865
0.02123316 0.031016797 0.039999999 -0.32315677 -0.19972187 0.52287865
0.022683144 0.028658468 0.039999999 -0.32315677 -0.19972187 0.52287865
0.024133949 0.026301257 0.039999999 -0.32315677 -0.19972187 0.52287865
0.025585631 0.023945063 0.039999999 -0.32315677 -0.19972187 0.52287865
0.027038256 0.02158979 0.039999999 -0.32315677 -0.19972187 0.52287865
0.028491879 0.019235337 0.039999999 -0.32315677 -0.19972187 0.52287865
0.029946564 0.016881607 0.039999999 -0.32315677 -0.19972187 0.52287865
0.031402368 0.014528505 0.039999999 -0.32315677 -0.19972187 0.52287865
0.032859359 0.012175928 0.039999999 -0.32315677 -0.19972187 0.52287865
0.03431759 0.0098237814 0.039999999 -0.32315677 -0.19972187 0.52287865
0.035777126 0.0074719661 0.039999999 -0.32315677 -0.19972187 0.52287865
0.037238024 0.0051203845 0.039999999 -0.32315677 -0.19972187 0.52287865
0.03870035 0.0027689387 0.039999999 -0.32315677 -0.19972187 0.52287865
0 0.07836435 0.028062226 -0.32315677 -0.19972187 0.52287865
0 0.074664339 0.030314485 -0.32315677 -0.19972187 0.52287865
0 0.071001038 0.032545842 -0.32315677 -0.19972187 0.52287865
0 0.067373797 0.034756679 -0.32315677 -0.19972187 0.52287865
0 0.063781954 0.036947366 -0.32315677 -0.19972187 0.52287865
0 0.060224891 0.039118271 -0.32315677 -0.19972187 0.52287865
0.00026849116 0.05691503 0.040869609 -0.32315677 -0.19972187 0.52287865
0.00095158559 0.053957433 0.04199025 -0.32315677 -0.19972187 0.52287865
0.0020060868 0.05130494 0.042552434 -0.32315677 -0.19972187 0.52287865
0.0033891159 0.048912734 0.04262666 -0.32315677 -0.19972187 0.52287865
0.0050604674 0.046740018 0.04227829 -0.32315677 -0.19972187 0.52287865
0.0070258235 0.044781853 0.04150464 -0.32315677 -0.19972187 0.52287865
0.0093684681 0.043089893 0.040190432 -0.32315677 -0.19972187 0.52287865
0.010941774 0.04082704 0.039999999 -0.32315677 -0.19972187 0.52287865
0.012384287 0.038470048 0.039999999 -0.32315677 -0.19972187 0.52287865
0.013827257 0.036114618 0.039999999 -0.32315677 -0.19972187 0.52287865
0.015270744 0.033760652 0.039999999 -0.32315677 -0.19972187 0.52287865
0.016714808 0.031408053 0.039999999 -0.32315677 -0.19972187 0.52287865
0.018159509 0.029056719 0.039999999 -0.32315677 -0.19972187 0.52287865
0.019604905 0.026706556 0.039999999 -0.32315677 -0.19972187 0.52287865
0.021051057 0.024357464 0.039999999 -0.32315677 -0.19972187 0.52287865
0.022498023 0.022009347 0.039999999 -0.32315677 -0.19972187 0.52287865
0.023945864 0.019662106 0.039999999 -0.32315677 -0.19972187 0.52287865
0.025394641 0.017315645 0.039999999 -0.32315677 -0.19972187 0.52287865
0.026844412 0.014969866 0.039999999 -0.32315677 -0.19972187 0.52287865
0.028295238 0.012624672 0.039999999 -0.32315677 -0.19972187 0.52287865
0.029747179 0.010279965 0.039999999 -0.32315677 -0.19972187 0.52287865
0.031200297 0.0079356488 0.039999999 -0.32315677 -0.19972187 0.52287865
0.032654651 0.0055916263 0.039999999 -0.32315677 -0.19972187 0.52287865
0.0341103 0.0032477998 0.039999999 -0.32315677 -0.19972187 0.52287865
0.035567306 0.00090407301 0.039999999 -0.32315677 -0.19972187 0.52287865
0.039999999 0.00019769794 0.036012545 -0.32315677 -0.19972187 0.52287865
0 0.078844108 0.023343138 -0.32315677 -0.19972187 0.52287865
0 0.075119138 0.025632925 -0.32315677 -0.19972187 0.52287865
0 0.071431361 0.027901229 -0.32315677 -0.19972187 0.52287865
0 0.067780107 0.030148441 -0.32315677 -0.19972187 0.52287865
5.5511151e-17 0.064164713 0.032374945 -0.32315677 -0.19972187 0.52287865
0 0.060584538 0.034581121 -0.32315677 -0.19972187 0.52287865
0 0.057038952 0.036767334 -0.32315677 -0.19972187 0.52287865
0 0.053527344 0.038933944 -0.32315677 -0.19972187 0.52287865
0.00072526181 0.050609674 0.039999999 -0.32315677 -0.19972187 0.52287865
0.00216243 0.048251975 0.039999999 -0.32315677 -0.19972187 0.52287865
0.0035996994 0.045896284 0.039999999 -0.32315677 -0.19972187 0.52287865
0.0050371289 0.043542497 0.039999999 -0.32315677 -0.19972187 0.52287865
0.0064747776 0.04119052 0.039999999 -0.32315677 -0.19972187 0.52287865
0.0079127047 0.038840253 0.039999999 -0.32315677 -0.19972187 0.52287865
0.0093509704 0.036491595 0.039999999 -0.32315677 -0.19972187 0.52287865
0.010789632 0.034144454 0.039999999 -0.32315677 -0.19972187 0.52287865
0.012228749 0.031798728 0.039999999 -0.32315677 -0.19972187 0.52287865
0.013668381 0.029454323 0.039999999 -0.32315677 -0.19972187 0.52287865
0.015108587 0.027111137 0.039999999 -0.32315677 -0.19972187 0.52287865
0.016549425 0.024769077 0.039999999 -0.32315677 -0.19972187 0.52287865
0.017990958 0.022428045 0.039999999 -0.32315677 -0.19972187 0.52287865
0.019433241 0.020087942 0.039999999 -0.32315677 -0.19972187 0.52287865
0.020876335 0.017748674 0.039999999 -0.32315677 -0.19972187 0.52287865
0.0223203 0.015410146 0.039999999 -0.32315677 -0.19972187 0.52287865
0.023765193 0.013072258 0.039999999 -0.32315677 -0.19972187 0.52287865
0.025211079 0.010734914 0.039999999 -0.32315677 -0.19972187 0.52287865
0.026658012 0.0083980197 0.039999999 -0.32315677 -0.19972187 0.52287865
0.028106052 0.0060614767 0.039999999 -0.32315677 -0.19972187 0.52287865
0.029555265 0.0037251902 0.039999999 -0.32315677 -0.19972187 0.52287865
0.031005703 0.0013890632 0.039999999 -0.32315677 -0.19972187 0.52287865
0.034151644 0 0.037699476 -0.32315677 -0.19972187 0.52287865
0.039878204 0 0.031929608 -0.32315677 -0.19972187 0.52287865
0 0.079329468 0.018568937 -0.32315677 -0.19972187 0.52287865
0 0.075579219 0.020896984 -0.32315677 -0.19972187 0.52287865
0 0.071866654 0.023202948 -0.32315677 -0.19972187 0.52287865
0 0.068191089 0.025487237 -0.32315677 -0.19972187 0.52287865
0 0.064551845 0.027750246 -0.32315677 -0.19972187 0.52287865
0 0.060948275 0.029992366 -0.32315677 -0.19972187 0.52287865
0 0.057379737 0.032213971 -0.32315677 -0.19972187 0.52287865
0 0.053845607 0.034415439 -0.32315677 -0.19972187 0.52287865
0 0.050345268 0.036597125 -0.32315677 -0.19972187 0.52287865
0 0.046878129 0.038759388 -0.32315677 -0.19972187 0.52287865
0.00060515705 0.043898962 0.039999999 -0.32315677 -0.19972187 0.52287865
0.0020385431 0.041553598 0.039999999 -0.32315677 -0.19972187 0.52287865
0.00347209 0.039209988 0.039999999 -0.32315677 -0.19972187 0.52287865
0.0049058557 0.036868043 0.039999999 -0.32315677 -0.19972187 0.52287865
0.0063399002 0.034527656 0.039999999 -0.32315677 -0.19972187 0.52287865
0.0077742804 0.03218874 0.039999999 -0.32315677 -0.19972187 0.52287865
0.0092090564 0.029851191 0.039999999 -0.32315677 -0.19972187 0.52287865
0.010644286 0.027514916 0.039999999 -0.32315677 -0.19972187 0.52287865
0.012080029 0.025179816 0.039999999 -0.32315677 -0.19972187 0.52287865
0.013516343 0.022845799 0.039999999 -0.32315677 -0.19972187 0.52287865
0.014953287 0.020512765 0.039999999 -0.32315677 -0.19972187 0.52287865
0.01639092 0.018180618 0.039999999 -0.32315677 -0.19972187 0.52287865
0.017829301 0.015849266 0.039999999 -0.32315677 -0.19972187 0.52287865
0.019268489 0.01351861 0.039999999 -0.32315677 -0.19972187 0.52287865
0.020708542 0.011188555 0.039999999 -0.32315677 -0.19972187 0.52287865
0.02214952 0.0088590048 0.039999999 -0.32315677 -0.19972187 0.52287865
0.023591481 0.0065298658 0.039999999 -0.32315677 -0.19972187 0.52287865
0.025034487 0.0042010406 0.039999999 -0.32315677 -0.19972187 0.52287865
0.026478596 0.0018724342 0.039999999 -0.32315677 -0.19972187 0.52287865
0.028727364 0 0.038894862 -0.32315677 -0.19972187 0.52287865
0.03435475 0 0.033172563 -0.32315677 -0.19972187 0.52287865
0 0.079820544 0.013738465 -0.32315677 -0.19972187 0.52287865
0 0.076044694 0.016105521 -0.32315677 -0.19972187 0.52287865
0 0.07230702 0.018449882 -0.32315677 -0.19972187 0.52287865
0 0.068606839 0.020771967 -0.32315677 -0.19972187 0.52287865
0 0.064943448 0.023072185 -0.32315677 -0.19972187 0.52287865
0 0.061316192 0.025350936 -0.32315677 -0.19972187 0.52287865
0 0.057724413 0.027608614 -0.32315677 -0.19972187 0.52287865
0 0.054167483 0.029845599 -0.32315677 -0.19972187 0.52287865
0 0.05064477 0.032062266 -0.32315677 -0.19972187 0.52287865
0 0.047155675 0.034258977 -0.32315677 -0.19972187 0.52287865
5.5511151e-17 0.043699596 0.036436092 -0.32315677 -0.19972187 0.52287865
0 0.040275957 0.038593963 -0.32315677 -0.19972187 0.52287865
0.00049123919 0.037243862 0.039999999 -0.32315677 -0.19972187 0.52287865
0.0019208698 0.034910172 0.039999999 -0.32315677 -0.19972187 0.52287865
0.0033507196 0.032577995 0.039999999 -0.32315677 -0.19972187 0.52287865
0.0047808466 0.030247239 0.039999999 -0.32315677 -0.19972187 0.52287865
0.0062113097 0.027917806 0.039999999 -0.32315677 -0.19972187 0.52287865
0.0076421667 0.025589602 0.039999999 -0.32315677 -0.19972187 0.52287865
0.0090734754 0.023262529 0.039999999 -0.32315677 -0.19972187 0.52287865
0.010505295 0.020936493 0.039999999 -0.32315677 -0.19972187 0.52287865
0.011937683 0.018611398 0.039999999 -0.32315677 -0.19972187 0.52287865
0.013370698 0.01628715 0.039999999 -0.32315677 -0.19972187 0.52287865
0.0148044 0.013963654 0.039999999 -0.32315677 -0.19972187 0.52287865
0.016238844 0.011640813 0.039999999 -0.32315677 -0.19972187 0.52287865
0.017674092 0.0093185343 0.039999999 -0.32315677 -0.19972187 0.52287865
0.019110199 0.0069967224 0.039999999 -0.32315677 -0.19972187 0.52287865
0.020547228 0.0046752826 0.039999999 -0.32315677 -0.19972187 0.52287865
0.021985235 0.0023541194 0.039999999 -0.32315677 -0.19972187 0.52287865
0.023424279 3.3138633e-05 0.039999999 -0.32315677 -0.19972187 0.52287865
0.028897092 0 0.034404676 -0.32315677 -0.19972187 0.52287865
0.034560163 2.7755576e-17 0.028594207 -0.32315677 -0.19972187 0.52287865
0 0.076515675 0.011257375 -0.32315677 -0.19972187 0.52287865
0 0.072752573 0.013640884 -0.32315677 -0.19972187 0.52287865
0 0.069027446 0.016001502 -0.32315677 -0.19972187 0.52287865
0 0.06533961 0.018339651 -0.32315677 -0.19972187 0.52287865
0 0.061688367 0.020655744 -0.32315677 -0.19972187 0.52287865
0 0.058073062 0.022950184 -0.32315677 -0.19972187 0.52287865
0 0.054493047 0.025223367 -0.32315677 -0.19972187 0.52287865
5.5511151e-17 0.050947692 0.027475679 -0.32315677 -0.19972187 0.52287865
0 0.047436371 0.029707495 -0.32315677 -0.19972187 0.52287865
0 0.043958481 0.031919181 -0.32315677 -0.19972187 0.52287865
0 0.040513434 0.034111105 -0.32315677 -0.19972187 0.52287865
0 0.03710065 0.036283609 -0.32315677 -0.19972187 0.52287865
0 0.033719566 0.038437042 -0.32315677 -0.19972187 0.52287865
0.00038307847 0.030642381 0.039999999 -0.32315677 -0.19972187 0.52287865
0.0018089794 0.028319726 0.039999999 -0.32315677 -0.19972187 0.52287865
0.0032351573 0.025998348 0.039999999 -0.32315677 -0.19972187 0.52287865
0.00466167 0.023678154 0.039999999 -0.32315677 -0.19972187 0.52287865
0.0060885749 0.021359049 0.039999999 -0.32315677 -0.19972187 0.52287865
0.0075159301 0.019040937 0.039999999 -0.32315677 -0.19972187 0.52287865
0.0089437943 0.016723722 0.039999999 -0.32315677 -0.19972187 0.52287865
0.010372223 0.014407315 0.039999999 -0.32315677 -0.19972187 0.52287865
0.011801277 0.012091618 0.039999999 -0.32315677 -0.19972187 0.52287865
0.013231013 0.0097765373 0.039999999 -0.32315677 -0.19972187 0.52287865
0.014661489 0.0074619786 0.039999999 -0.32315677 -0.19972187 0.52287865
0.016092762 0.0051478483 0.039999999 -0.32315677 -0.19972187 0.52287865
0.017524894 0.0028340525 0.039999999 -0.32315677 -0.19972187 0.52287865
0.018957939 0.00052049709 0.039999999 -0.32315677 -0.19972187 0.52287865
0.023503946 0 0.035625909 -0.32315677 -0.19972187 0.52287865
0.02906874 0 0.029863643 -0.32315677 -0.19972187 0.52287865
0.034767933 0 0.023963349 -0.32315677 -0.19972187 0.52287865
0 0.076992281 0.0063513392 -0.32315677 -0.19972187 0.52287865
0 0.073203415 0.0087747741 -0.32315677 -0.19972187 0.52287865
0 0.069453031 0.011174684 -0.32315677 -0.19972187 0.52287865
0 0.065740421 0.013551505 -0.32315677 -0.19972187 0.52287865
0 0.062064894 0.015905665 -0.32315677 -0.19972187 0.52287865
5.5511151e-17 0.058425765 0.018237581 -0.32315677 -0.19972187 0.52287865
0 0.054822382 0.020547658 -0.32315677 -0.19972187 0.52287865
0 0.051254097 0.022836298 -0.32315677 -0.19972187 0.52287865
0 0.04772028 0.025103884 -0.32315677 -0.19972187 0.52287865
0 0.044220317 0.0273508 -0.32315677 -0.19972187 0.52287865
0 0.040753603 0.029577415 -0.32315677 -0.19972187 0.52287865
0 0.037319552 0.031784095 -0.32315677 -0.19972187 0.52287865
5.5511151e-17 0.033917587 0.03397119 -0.32315677 -0.19972187 0.52287865
0 0.030547149 0.036139049 -0.32315677 -0.19972187 0.52287865
0 0.027207687 0.038288012 -0.32315677 -0.19972187 0.52287865
0.00028025435 0.024092596 0.039999999 -0.32315677 -0.19972187 0.52287865
0.0017024509 0.021780353 0.039999999 -0.32315677 -0.19972187 0.52287865
0.003124981 0.019469155 0.039999999 -0.32315677 -0.19972187 0.52287865
0.0045479024 0.017158909 0.039999999 -0.32315677 -0.19972187 0.52287865
0.005971272 0.01484952 0.039999999 -0.32315677 -0.19972187 0.52287865
0.0073951478 0.012540895 0.039999999 -0.32315677 -0.19972187 0.52287865
0.0088195866 0.010232941 0.039999999 -0.32315677 -0.19972187 0.52287865
0.010244647 0.0079255644 0.039999999 -0.32315677 -0.19972187 0.52287865
0.011670385 0.005618671 0.039999999 -0.32315677 -0.19972187 0.52287865
0.01309686 0.0033121684 0.039999999 -0.32315677 -0.19972187 0.52287865
0.014524128 0.001005963 0.039999999 -0.32315677 -0.19972187 0.52287865
0.018174054 0 0.036836229 -0.32315677 -0.19972187 0.52287865
0.023642657 0 0.031121444 -0.32315677 -0.19972187 0.52287865
0.029242352 0 0.025270719 -0.32315677 -0.19972187 0.52287865
0.034978107 0 0.019278899 -0.32315677 -0.19972187 0.52287865
0 0.077474631 0.0013861842 -0.32315677 -0.19972187 0.52287865
0 0.073659658 0.0038503399 -0.32315677 -0.19972187 0.52287865
0 0.069883689 0.0062903203 -0.32315677 -0.19972187 0.52287865
0 0.066145994 0.0087065762 -0.32315677 -0.19972187 0.52287865
0 0.06244586 0.01109955 -0.32315677 -0.19972187 0.52287865
0 0.058782607 0.01346967 -0.32315677 -0.19972187 0.52287865
0 0.05515556 0.015817357 -0.32315677 -0.19972187 0.52287865
0 0.051564064 0.018143024 -0.32315677 -0.19972187 0.52287865
0 0.048007473 0.020447068 -0.32315677 -0.19972187 0.52287865
0 0.044485163 0.022729885 -0.32315677 -0.19972187 0.52287865
0 0.040996518 0.024991853 -0.32315677 -0.19972187 0.52287865
0 0.037540946 0.027233349 -0.32315677 -0.19972187 0.52287865
0 0.034117855 0.02945474 -0.32315677 -0.19972187 0.52287865
0 0.030726675 0.031656381 -0.32315677 -0.19972187 0.52287865
0 0.027366847 0.033838622 -0.32315677 -0.19972187 0.52287865
5.5511151e-17 0.024037827 0.036001805 -0.32315677 -0.19972187 0.52287865
0 0.020739077 0.038146265 -0.32315677 -0.19972187 0.52287865
0.00018235523 0.017592633 0.039999999 -0.32315677 -0.19972187 0.52287865
0.0016008718 0.015290196 0.039999999 -0.32315677 -0.19972187 0.52287865
0.0030197778 0.012988576 0.039999999 -0.32315677 -0.19972187 0.52287865
0.0044391304 0.010687678 0.039999999 -0.32315677 -0.19972187 0.52287865
0.0058589866 0.0083874119 0.039999999 -0.32315677 -0.19972187 0.52287865
0.0072794035 0.0060876841 0.039999999 -0.32315677 -0.19972187 0.52287865
0.0087004378 0.0037884018 0.039999999 -0.32315677 -0.19972187 0.52287865
0.010122147 0.0014894728 0.039999999 -0.32315677 -0.19972187 0.52287865
0.012906186 0 0.038035605 -0.32315677 -0.19972187 0.52287865
0.039999999 0.012704625 0.0011654074 -0.32315677 -0.19972187 0.52287865
0.023782946 0 0.02656568 -0.32315677 -0.19972187 0.52287865
0.029417964 0 0.020624831 -0.32315677 -0.19972187 0.52287865
0.035190735 0 0.014539742 -0.32315677 -0.19972187 0.52287865
0 0.070319526 0.0013471856 -0.32315677 -0.19972187 0.52287865
0 0.066556416 0.0038036597 -0.32315677 -0.19972187 0.52287865
0 0.062831365 0.0062362128 -0.32315677 -0.19972187 0.52287865
0 0.059143677 0.0086452886 -0.32315677 -0.19972187 0.52287865
0 0.055492666 0.01103132 -0.32315677 -0.19972187 0.52287865
0 0.051877663 0.013394733 -0.32315677 -0.19972187 0.52287865
0 0.048298016 0.015735939 -0.32315677 -0.19972187 0.52287865
0 0.044753082 0.018055344 -0.32315677 -0.19972187 0.52287865
0 0.041242242 0.020353343 -0.32315677 -0.19972187 0.52287865
5.5511151e-17 0.037764881 0.022630319 -0.32315677 -0.19972187 0.52287865
0 0.03432041 0.024886653 -0.32315677 -0.19972187 0.52287865
0 0.030908242 0.027122712 -0.32315677 -0.19972187 0.52287865
0 0.027527811 0.029338855 -0.32315677 -0.19972187 0.52287865
0 0.024178557 0.031535435 -0.32315677 -0.19972187 0.52287865
0 0.02085994 0.033712801 -0.32315677 -0.19972187 0.52287865
0 0.017571425 0.035871282 -0.32315677 -0.19972187 0.52287865
0 0.014312494 0.038011216 -0.32315677 -0.19972187 0.52287865
8.8977751e-05 0.011140679 0.039999999 -0.32315677 -0.19972187 0.52287865
0.0015038379 0.0088474536 0.039999999 -0.32315677 -0.19972187 0.52287865
0.0029191426 0.0065548215 0.039999999 -0.32315677 -0.19972187 0.52287865
0.0043349485 0.0042626886 0.039999999 -0.32315677 -0.19972187 0.52287865
0.0057513122 0.001970964 0.039999999 -0.32315677 -0.19972187 0.52287865
0.0076991334 0 0.039223999 -0.32315677 -0.19972187 0.52287865
0.012981392 0 0.033602059 -0.32315677 -0.19972187 0.52287865
0.037602231 0.011235472 0 -0.32315677 -0.19972187 0.52287865
0.02392485 0 0.02195756 -0.32315677 -0.19972187 0.52287865
0.029595619 0 0.015924878 -0.32315677 -0.19972187 0.52287865
0.035405871 0 0.0097447298 -0.32315677 -0.19972187 0.52287865
0 0.063221499 0.0013144375 -0.32315677 -0.19972187 0.52287865
0 0.059509061 0.0037632389 -0.32315677 -0.19972187 0.52287865
0 0.055833779 0.0061883698 -0.32315677 -0.19972187 0.52287865
5.5511151e-17 0.052194972 0.008590268 -0.32315677 -0.19972187 0.52287865
0 0.048591975 0.010969359 -0.32315677 -0.19972187 0.52287865
0 0.045024138 0.013326062 -0.32315677 -0.19972187 0.52287865
0 0.041490827 0.015660783 -0.32315677 -0.19972187 0.52287865
0 0.037991416 0.01797392 -0.32315677 -0.19972187 0.52287865
0 0.034525301 0.020265862 -0.32315677 -0.19972187 0.52287865
0 0.031091895 0.022536989 -0.32315677 -0.19972187 0.52287865
0 0.027690612 0.024787676 -0.32315677 -0.19972187 0.52287865
5.5511151e-17 0.024320889 0.027018281 -0.32315677 -0.19972187 0.52287865
0 0.02098217 0.02922916 -0.32315677 -0.19972187 0.52287865
0 0.017673917 0.031420663 -0.32315677 -0.19972187 0.52287865
5.5511151e-17 0.0143956 0.033593129 -0.32315677 -0.19972187 0.52287865
0 0.0111467 0.035746891 -0.32315677 -0.19972187 0.52287865
5.5511151e-17 0.0079267109 0.037882272 -0.32315677 -0.19972187 0.52287865
0 0.0047351373 0.039999589 -0.32315677 -0.19972187 0.52287865
0.001410953 0.002450374 0.039999999 -0.32315677 -0.19972187 0.52287865
0.0028226783 0.00016615441 0.039999999 -0.32315677 -0.19972187 0.52287865
0.03135496 0.014251056 0 -0.32315677 -0.19972187 0.52287865
0.032884888 0.011778127 0 -0.32315677 -0.19972187 0.52287865
0.018497424 0 0.023277095 -0.32315677 -0.19972187 0.52287865
0.024068398 0 0.017295996 -0.32315677 -0.19972187 0.52287865
0.029775362 0 0.011169727 -0.32315677 -0.19972187 0.52287865
0.035623562 0 0.0048926831 -0.32315677 -0.19972187 0.52287865
5.5511151e-17 0.056178987 0.0012872968 -0.32315677 -0.19972187 0.52287865
0 0.052516073 0.0037284382 -0.32315677 -0.19972187 0.52287865
0 0.048889428 0.0061461572 -0.32315677 -0.19972187 0.52287865
0 0.045298398 0.0085408846 -0.32315677 -0.19972187 0.52287865
0 0.041742332 0.01091304 -0.32315677 -0.19972187 0.52287865
0 0.038220599 0.013263035 -0.32315677 -0.19972187 0.52287865
0 0.03473258 0.015591269 -0.32315677 -0.19972187 0.52287865
0 0.031277675 0.017898137 -0.32315677 -0.19972187 0.52287865
0 0.027855292 0.020184018 -0.32315677 -0.19972187 0.52287865
0 0.024464853 0.02244929 -0.32315677 -0.19972187 0.52287865
0 0.021105798 0.024694318 -0.32315677 -0.19972187 0.52287865
0 0.017777575 0.02691946 -0.32315677 -0.19972187 0.52287865
0 0.014479646 0.029125066 -0.32315677 -0.19972187 0.52287865
0 0.011211485 0.031311478 -0.32315677 -0.19972187 0.52287865
0 0.0079725757 0.033479031 -0.32315677 -0.19972187 0.52287865
0 0.0047624139 0.035628054 -0.32315677 -0.19972187 0.52287865
0.025152618 0.017248699 0 -0.32315677 -0.19972187 0.52287865
0.0025663986 0 0.036035907 -0.32315677 -0.19972187 0.52287865
0.0077888067 0 0.030376049 -0.32315677 -0.19972187 0.52287865
0.013134372 0 0.024583444 -0.32315677 -0.19972187 0.52287865
0.0186077 0 0.018653123 -0.32315677 -0.19972187 0.52287865
0.024213627 0 0.012579874 -0.32315677 -0.19972187 0.52287865
0.029957235 0 0.0063582179 -0.32315677 -0.19972187 0.52287865
0.00078379113 0.049794167 0 -0.32315677 -0.19972187 0.52287865
0.0023021642 0.047323428 0 -0.32315677 -0.19972187 0.52287865
0 0.041996825 0.0061089527 -0.32315677 -0.19972187 0.52287865
0.0053378763 0.042386636 0 -0.32315677 -0.19972187 0.52287865
0 0.034942295 0.010861749 -0.32315677 -0.19972187 0.52287865
0 0.031465627 0.013205042 -0.32315677 -0.19972187 0.52287865
0 0.028021887 0.015526795 -0.32315677 -0.19972187 0.52287865
0 0.024610486 0.017827393 -0.32315677 -0.19972187 0.52287865
0 0.02123085 0.020107213 -0.32315677 -0.19972187 0.52287865
0.014441066 0.027606614 0 -0.32315677 -0.19972187 0.52287865
0 0.014564653 0.024605995 -0.32315677 -0.19972187 0.52287865
0 0.011277006 0.026825666 -0.32315677 -0.19972187 0.52287865
0 0.0080189584 0.029025989 -0.32315677 -0.19972187 0.52287865
0 0.0047899978 0.031207299 -0.32315677 -0.19972187 0.52287865
0 0.001589622 0.033369929 -0.32315677 -0.19972187 0.52287865
0.0025812502 0 0.031621322 -0.32315677 -0.19972187 0.52287865
0.0078344084 0 0.025876617 -0.32315677 -0.19972187 0.52287865
0.013212183 0 0.019996282 -0.32315677 -0.19972187 0.52287865
0.018719263 0 0.01397521 -0.32315677 -0.19972187 0.52287865
0.024360571 0 0.0078080469 -0.32315677 -0.19972187 0.52287865
0.030141283 0 0.0014891548 -0.32315677 -0.19972187 0.52287865
0 0.042254366 0.0012473245 -0.32315677 -0.19972187 0.52287865
0 0.038687143 0.0036732017 -0.32315677 -0.19972187 0.52287865
0.003799415 0.037915982 0 -0.32315677 -0.19972187 0.52287865
0 0.0316558 0.0084565682 -0.32315677 -0.19972187 0.52287865
0.0068251318 0.03300399 0 -0.32315677 -0.19972187 0.52287865
0.0083377771 0.030549625 0 -0.32315677 -0.19972187 0.52287865
0 0.021357358 0.015466763 -0.32315677 -0.19972187 0.52287865
0 0.017988482 0.017761098 -0.32315677 -0.19972187 0.52287865
0.012875573 0.023191907 0 -0.32315677 -0.19972187 0.52287865
0.014388323 0.020740803 0 -0.32315677 -0.19972187 0.52287865
0 0.0080658719 0.024522124 -0.32315677 -0.19972187 0.52287865
0 0.0048178947 0.026736323 -0.32315677 -0.19972187 0.52287865
0 0.0015988388 0.028931357 -0.32315677 -0.19972187 0.52287865
0.0025962703 0 0.027156629 -0.32315677 -0.19972187 0.52287865
0.021955881 0.0084919585 0 -0.32315677 -0.19972187 0.52287865
0.0132909 0 0.015355778 -0.32315677 -0.19972187 0.52287865
0.024985792 0.0035937389 0 -0.32315677 -0.19972187 0.52287865
0.024509268 0 0.0029793372 -0.32315677 -0.19972187 0.52287865
0.00076400192 0.035925038 0 -0.32315677 -0.19972187 0.52287865
0.0022726508 0.033476789 0 -0.32315677 -0.19972187 0.52287865
0.0037810609 0.031029645 0 -0.32315677 -0.19972187 0.52287865
0.0052892915 0.028583517 0 -0.32315677 -0.19972187 0.52287865
0.0067974022 0.026138306 0 -0.32315677 -0.19972187 0.52287865
0 0.018095782 0.013101772 -0.32315677 -0.19972187 0.52287865
0 0.014737624 0.015410589 -0.32315677 -0.19972187 0.52287865
0.0113216 0.018807206 0 -0.32315677 -0.19972187 0.52287865
0.012829818 0.016364699 0 -0.32315677 -0.19972187 0.52287865
0 0.0048461114 0.022214089 -0.32315677 -0.19972187 0.52287865
0 0.0016081609 0.024442134 -0.32315677 -0.19972187 0.52287865
0.0026114625 0 0.022640796 -0.32315677 -0.19972187 0.52287865
0.0079271933 0 0.016721616 -0.32315677 -0.19972187 0.52287865
0.01337054 0 0.010660818 -0.32315677 -0.19972187 0.52287865
0.018946357 0 0.0044530127 -0.32315677 -0.19972187 0.52287865
0 0.028533576 0.0012223569 -0.32315677 -0.19972187 0.52287865
0.002261071 0.026630478 0 -0.32315677 -0.19972187 0.52287865
0.0037647362 0.024193401 0 -0.32315677 -0.19972187 0.52287865
0.0052682827 0.021757102 0 -0.32315677 -0.19972187 0.52287865
0 0.014825629 0.010732062 -0.32315677 -0.19972187 0.52287865
0 0.011478141 0.013055327 -0.32315677 -0.19972187 0.52287865
0.0097787958 0.014451921 0 -0.32315677 -0.19972187 0.52287865
0 0.0048746546 0.017639538 -0.32315677 -0.19972187 0.52287865
0 0.0016175902 0.019901212 -0.32315677 -0.19972187 0.52287865
0.0026268305 0 0.018072765 -0.32315677 -0.19972187 0.52287865
0.0079743993 0 0.012063873 -0.32315677 -0.19972187 0.52287865
0.013451123 0 0.005910255 -0.32315677 -0.19972187 0.52287865
0.00075204624 0.022261309 0 -0.32315677 -0.19972187 0.52287865
0 0.018314201 0.0036171882 -0.32315677 -0.19972187 0.52287865
0 0.014914677 0.0059981397 -0.32315677 -0.19972187 0.52287865
0 0.011546763 0.0083572641 -0.32315677 -0.19972187 0.52287865
0.0067478628 0.012551737 0 -0.32315677 -0.19972187 0.52287865
0 0.0049035312 0.013011577 -0.32315677 -0.19972187 0.52287865
0 0.0016271292 0.015307517 -0.32315677 -0.19972187 0.52287865
0.0026423775 0 0.013451451 -0.32315677 -0.19972187 0.52287865
0.0080221621 0 0.0073511377 -0.32315677 -0.19972187 0.52287865
0.013532668 0 0.0011029117 -0.32315677 -0.19972187 0.52287865
0 0.015004789 0.0012076496 -0.32315677 -0.19972187 0.52287865
0 0.0116162 0.0036033259 -0.32315677 -0.19972187 0.52287865
0 0.0082590394 0.0059770076 -0.32315677 -0.19972187 0.52287865
0 0.0049327482 0.0083290869 -0.32315677 -0.19972187 0.52287865
0 0.00163678 0.010659945 -0.32315677 -0.19972187 0.52287865
0.0026581078 0 0.0087757334 -0.32315677 -0.19972187 0.52287865
0.008070495 0 0.0025822471 -0.32315677 -0.19972187 0.52287865
0 0.0083087692 0.0012027022 -0.32315677 -0.19972187 0.52287865
0 0.0049623121 0.0035909165 -0.32315677 -0.19972187 0.52287865
0.0037242854 0.0039672563 0 -0.32315677 -0.19972187 0.52287865
0.0026740248 0 0.0040444671 -0.32315677 -0.19972187 0.52287865
0 0.0016564268 0.0011986073 -0.32315677 -0.19972187 0.52287865
