# .PCD v0.7 - Point Cloud Data file format
VERSION 0.7
FIELDS x y z vp_x vp_y vp_z
SIZE 4 4 4 4 4 4
TYPE F F F F F F
COUNT 1 1 1 1 1 1
WIDTH 540
HEIGHT 1
VIEWPOINT 0 0 0 1 0 0 0
POINTS 540
DATA ascii
0.012300903 0.078337327 0.07 0 -0.33897066 0.54846609
0.01507208 0.079364032 0.06883765 0 -0.33897066 0.54846609
0.017770875 0.078365698 0.07 0 -0.33897066 0.54846609
0.020506991 0.078383759 0.07 0 -0.33897066 0.54846609
0.02324402 0.078404404 0.07 0 -0.33897066 0.54846609
0.025982087 0.078427635 0.07 0 -0.33897066 0.54846609
0.0068121227 0.074657314 0.07 0 -0.33897066 0.54846609
0.0095373951 0.074664794 0.07 0 -0.33897066 0.54846609
0.01226309 0.074674763 0.07 0 -0.33897066 0.54846609
0.015159497 0.079383269 0.064568229 0 -0.33897066 0.54846609
0.017937304 0.0798641 0.064029589 0 -0.33897066 0.54846609
0.020443929 0.07471966 0.07 0 -0.33897066 0.54846609
0.023172529 0.07473962 0.07 0 -0.33897066 0.54846609
0.02590216 0.074762084 0.07 0 -0.33897066 0.54846609
0.028632943 0.07478705 0.07 0 -0.33897066 0.54846609
0.031364996 0.074814521 0.07 0 -0.33897066 0.54846609
0.0040746476 0.071018055 0.07 0 -0.33897066 0.54846609
0.0067912792 0.071022876 0.07 0 -0.33897066 0.54846609
0.0095082102 0.071030095 0.07 0 -0.33897066 0.54846609
0.012225563 0.071039736 0.07 0 -0.33897066 0.54846609
0.014943454 0.071051776 0.07 0 -0.33897066 0.54846609
0.017662007 0.071066238 0.07 0 -0.33897066 0.54846609
0.020381341 0.071083106 0.07 0 -0.33897066 0.54846609
0.023101578 0.071102396 0.07 0 -0.33897066 0.54846609
0.025822835 0.071124099 0.07 0 -0.33897066 0.54846609
0.028545234 0.071148224 0.07 0 -0.33897066 0.54846609
0.031268898 0.071174771 0.07 0 -0.33897066 0.54846609
0.033993948 0.071203738 0.07 0 -0.33897066 0.54846609
0.0040622354 0.067410856 0.07 0 -0.33897066 0.54846609
0.0067705903 0.067415506 0.07 0 -0.33897066 0.54846609
0.0094792433 0.067422487 0.07 0 -0.33897066 0.54846609
0.012521593 0.07854452 0.056916747 0 -0.33897066 0.54846609
0.015337032 0.079422347 0.055897359 0 -0.33897066 0.54846609
0.017608183 0.067457378 0.07 0 -0.33897066 0.54846609
0.02031922 0.067473665 0.07 0 -0.33897066 0.54846609
0.023031153 0.067492284 0.07 0 -0.33897066 0.54846609
0.025744099 0.067513242 0.07 0 -0.33897066 0.54846609
0.028458182 0.067536533 0.07 0 -0.33897066 0.54846609
0.031173518 0.067562163 0.07 0 -0.33897066 0.54846609
0.034412518 0.073855713 0.06262628 0 -0.33897066 0.54846609
0.036608435 0.067620449 0.07 0 -0.33897066 0.54846609
0.0013499518 0.063828051 0.07 0 -0.33897066 0.54846609
0.0040499149 0.063830294 0.07 0 -0.33897066 0.54846609
0.0067500547 0.063834786 0.07 0 -0.33897066 0.54846609
0.0094504906 0.063841514 0.07 0 -0.33897066 0.54846609
0.012151341 0.063850485 0.07 0 -0.33897066 0.54846609
0.014852723 0.063861705 0.07 0 -0.33897066 0.54846609
0.017554756 0.063875176 0.07 0 -0.33897066 0.54846609
0.020257559 0.063890889 0.07 0 -0.33897066 0.54846609
0.02296125 0.063908853 0.07 0 -0.33897066 0.54846609
0.025665948 0.063929066 0.07 0 -0.33897066 0.54846609
0.028371772 0.063951537 0.07 0 -0.33897066 0.54846609
0.032003228 0.075961195 0.055768885 0 -0.33897066 0.54846609
0.033787277 0.064003244 0.07 0 -0.33897066 0.54846609
0.036497194 0.064032495 0.07 0 -0.33897066 0.54846609
0.039208718 0.064064004 0.07 0 -0.33897066 0.54846609
0.0013458752 0.060273785 0.07 0 -0.33897066 0.54846609
0.0040376843 0.060275946 0.07 0 -0.33897066 0.54846609
0.0069807386 0.075175442 0.052149486 0 -0.33897066 0.54846609
0.0094219483 0.060286757 0.07 0 -0.33897066 0.54846609
0.012114638 0.060295407 0.07 0 -0.33897066 0.54846609
0.014807856 0.060306221 0.07 0 -0.33897066 0.54846609
0.017501719 0.0603192 0.07 0 -0.33897066 0.54846609
0.020196348 0.060334347 0.07 0 -0.33897066 0.54846609
0.023993565 0.079569675 0.046973068 0 -0.33897066 0.54846609
0.025588367 0.060371149 0.07 0 -0.33897066 0.54846609
0.028285995 0.060392808 0.07 0 -0.33897066 0.54846609
0.030984858 0.060416639 0.07 0 -0.33897066 0.54846609
0.034781713 0.073445775 0.054423261 0 -0.33897066 0.54846609
0.036386769 0.060470838 0.07 0 -0.33897066 0.54846609
0.039090056 0.06050121 0.07 0 -0.33897066 0.54846609
0.0013773305 0.067215241 0.057340637 0 -0.33897066 0.54846609
0.0040255426 0.056747384 0.07 0 -0.33897066 0.54846609
0.0070224777 0.075214975 0.047675945 0 -0.33897066 0.54846609
0.0098792743 0.077217437 0.04526272 0 -0.33897066 0.54846609
0.012078201 0.056766123 0.07 0 -0.33897066 0.54846609
0.014763314 0.056776538 0.07 0 -0.33897066 0.54846609
0.01744907 0.056789041 0.07 0 -0.33897066 0.54846609
0.020135581 0.056803625 0.07 0 -0.33897066 0.54846609
0.022822971 0.056820299 0.07 0 -0.33897066 0.54846609
0.02551135 0.056839064 0.07 0 -0.33897066 0.54846609
0.028200841 0.056859922 0.07 0 -0.33897066 0.54846609
0.030891558 0.056882873 0.07 0 -0.33897066 0.54846609
0.033583622 0.056907918 0.07 0 -0.33897066 0.54846609
0.036277145 0.056935064 0.07 0 -0.33897066 0.54846609
0.039633539 0.063682586 0.061881337 0 -0.33897066 0.54846609
0.0013378102 0.053242192 0.07 0 -0.33897066 0.54846609
0.0040134885 0.053244196 0.07 0 -0.33897066 0.54846609
0.0066893403 0.053248204 0.07 0 -0.33897066 0.54846609
0.0093654813 0.053254213 0.07 0 -0.33897066 0.54846609
0.012862909 0.079999998 0.037383877 0 -0.33897066 0.54846609
0.015722064 0.079999998 0.03739693 0 -0.33897066 0.54846609
0.017396796 0.053284273 0.07 0 -0.33897066 0.54846609
0.020075254 0.053298306 0.07 0 -0.33897066 0.54846609
0.022754578 0.053314347 0.07 0 -0.33897066 0.54846609
0.025434889 0.053332403 0.07 0 -0.33897066 0.54846609
0.029838769 0.077387072 0.040688083 0 -0.33897066 0.54846609
0.030798931 0.053374548 0.07 0 -0.33897066 0.54846609
0.035156019 0.073005132 0.046091303 0 -0.33897066 0.54846609
0.036168315 0.053424761 0.07 0 -0.33897066 0.54846609
0.038855299 0.053452902 0.07 0 -0.33897066 0.54846609
0.0013444684 0.052867237 0.066180512 0 -0.33897066 0.54846609
0.0040015201 0.049765982 0.07 0 -0.33897066 0.54846609
0.0066693914 0.04976983 0.07 0 -0.33897066 0.54846609
0.00933755 0.049775608 0.07 0 -0.33897066 0.54846609
0.012006111 0.049783312 0.07 0 -0.33897066 0.54846609
0.014675188 0.049792942 0.07 0 -0.33897066 0.54846609
0.018692046 0.079999998 0.032838359 0 -0.33897066 0.54846609
0.020015355 0.049817983 0.07 0 -0.33897066 0.54846609
0.022686673 0.049833402 0.07 0 -0.33897066 0.54846609
0.025358971 0.049850754 0.07 0 -0.33897066 0.54846609
0.030204497 0.079999998 0.03292527 0 -0.33897066 0.54846609
0.030706963 0.04989126 0.07 0 -0.33897066 0.54846609
0.035345871 0.07278163 0.041865248 0 -0.33897066 0.54846609
0.037828263 0.069007471 0.046541199 0 -0.33897066 0.54846609
0.039186053 0.054453079 0.064480744 0 -0.33897066 0.54846609
0.0013524225 0.052847274 0.061882216 0 -0.33897066 0.54846609
0.0040071248 0.048001241 0.067902632 0 -0.33897066 0.54846609
0.0066495836 0.046316035 0.07 0 -0.33897066 0.54846609
0.0093098162 0.046321582 0.07 0 -0.33897066 0.54846609
0.011970448 0.046328977 0.07 0 -0.33897066 0.54846609
0.015909854 0.079999998 0.028199721 0 -0.33897066 0.54846609
0.017293366 0.046349317 0.07 0 -0.33897066 0.54846609
0.019955879 0.046362266 0.07 0 -0.33897066 0.54846609
0.022619249 0.046377067 0.07 0 -0.33897066 0.54846609
0.025283592 0.046393722 0.07 0 -0.33897066 0.54846609
0.027949018 0.046412237 0.07 0 -0.33897066 0.54846609
0.030615646 0.046432607 0.07 0 -0.33897066 0.54846609
0.033283591 0.046454843 0.07 0 -0.33897066 0.54846609
0.036111239 0.048175771 0.067893691 0 -0.33897066 0.54846609
0.039565511 0.05590253 0.058335327 0 -0.33897066 0.54846609
0.0013604624 0.052827094 0.057537533 0 -0.33897066 0.54846609
0.0040307906 0.047966335 0.063630387 0 -0.33897066 0.54846609
0.0066686966 0.045120127 0.067201182 0 -0.33897066 0.54846609
0.0092882663 0.04313815 0.069691263 0 -0.33897066 0.54846609
0.011935035 0.042898834 0.07 0 -0.33897066 0.54846609
0.014588303 0.0429077 0.07 0 -0.33897066 0.54846609
0.017242193 0.042918339 0.07 0 -0.33897066 0.54846609
0.01989682 0.042930756 0.07 0 -0.33897066 0.54846609
0.022552298 0.042944945 0.07 0 -0.33897066 0.54846609
0.02520874 0.042960919 0.07 0 -0.33897066 0.54846609
0.03056726 0.079999998 0.023623563 0 -0.33897066 0.54846609
0.030527286 0.043027189 0.069963694 0 -0.33897066 0.54846609
0.033370722 0.045157488 0.067322068 0 -0.33897066 0.54846609
0.036362935 0.048547018 0.063105837 0 -0.33897066 0.54846609
0.0013685898 0.052806698 0.053145532 0 -0.33897066 0.54846609
0.0040547126 0.047931053 0.059311956 0 -0.33897066 0.54846609
0.0067082327 0.045082677 0.062917471 0 -0.33897066 0.54846609
0.0093434351 0.043104954 0.065424353 0 -0.33897066 0.54846609
0.011969618 0.041710854 0.06719549 0 -0.33897066 0.54846609
0.014593235 0.040747926 0.068423621 0 -0.33897066 0.54846609
0.017223282 0.040213577 0.069112055 0 -0.33897066 0.54846609
0.019864706 0.040029299 0.069360062 0 -0.33897066 0.54846609
0.022524394 0.04018613 0.069179021 0 -0.33897066 0.54846609
0.025210518 0.040698171 0.068551145 0 -0.33897066 0.54846609
0.027938154 0.041668184 0.067346625 0 -0.33897066 0.54846609
0.030720811 0.04314363 0.065505557 0 -0.33897066 0.54846609
0.033590253 0.04536543 0.062723584 0 -0.33897066 0.54846609
0.03661789 0.048923079 0.058255907 0 -0.33897066 0.54846609
0.0013768065 0.052786075 0.048705269 0 -0.33897066 0.54846609
0.0040788976 0.04789561 0.054946128 0 -0.33897066 0.54846609
0.0067481999 0.045044821 0.058587078 0 -0.33897066 0.54846609
0.0093992054 0.0430714 0.06111085 0 -0.33897066 0.54846609
0.012041082 0.041677792 0.062897027 0 -0.33897066 0.54846609
0.014680646 0.040722124 0.064126596 0 -0.33897066 0.54846609
0.017327119 0.040202282 0.064802274 0 -0.33897066 0.54846609
0.019985076 0.040029299 0.065037578 0 -0.33897066 0.54846609
0.022661792 0.040201075 0.064835228 0 -0.33897066 0.54846609
0.025365723 0.040734097 0.06417425 0 -0.33897066 0.54846609
0.028113509 0.041749313 0.062900439 0 -0.33897066 0.54846609
0.030916607 0.043261435 0.060995143 0 -0.33897066 0.54846609
0.033812463 0.045575909 0.05806895 0 -0.33897066 0.54846609
0.036876187 0.049304061 0.053342506 0 -0.33897066 0.54846609
0.0013851144 0.05276522 0.044215776 0 -0.33897066 0.54846609
0.0041034231 0.047866736 0.050523281 0 -0.33897066 0.54846609
0.0067886058 0.045006547 0.054209076 0 -0.33897066 0.54846609
0.0094555905 0.043037474 0.056749824 0 -0.33897066 0.54846609
0.012113332 0.041644365 0.058551192 0 -0.33897066 0.54846609
0.01476928 0.040702615 0.059773572 0 -0.33897066 0.54846609
0.01743211 0.040190861 0.060444485 0 -0.33897066 0.54846609
0.020106794 0.040029299 0.06066668 0 -0.33897066 0.54846609
0.02280074 0.040216193 0.060442429 0 -0.33897066 0.54846609
0.025523836 0.040787373 0.059725665 0 -0.33897066 0.54846609
0.028290905 0.041831385 0.058402505 0 -0.33897066 0.54846609
0.03111472 0.043380633 0.056431346 0 -0.33897066 0.54846609
0.034037411 0.045788985 0.053356946 0 -0.33897066 0.54846609
0.037137933 0.049690474 0.048363678 0 -0.33897066 0.54846609
0.0013926279 0.052494731 0.039999999 0 -0.33897066 0.54846609
0.0041282214 0.047837541 0.046051137 0 -0.33897066 0.54846609
0.0068294606 0.044967849 0.049782503 0 -0.33897066 0.54846609
0.0095126033 0.043003175 0.052340318 0 -0.33897066 0.54846609
0.012186386 0.041610565 0.054157037 0 -0.33897066 0.54846609
0.014858907 0.04068289 0.055371817 0 -0.33897066 0.54846609
0.017538283 0.040179309 0.056037724 0 -0.33897066 0.54846609
0.020229887 0.040029299 0.056246381 0 -0.33897066 0.54846609
0.022941269 0.040231481 0.055999618 0 -0.33897066 0.54846609
0.025683779 0.040841267 0.055225514 0 -0.33897066 0.54846609
0.028470386 0.041914422 0.053851735 0 -0.33897066 0.54846609
0.031316467 0.043516722 0.051792953 0 -0.33897066 0.54846609
0.034265161 0.046004709 0.048586324 0 -0.33897066 0.54846609
0.037415937 0.050214827 0.043146018 0 -0.33897066 0.54846609
0.0013885885 0.048972879 0.039999999 0 -0.33897066 0.54846609
0.0041532987 0.047808018 0.041528702 0 -0.33897066 0.54846609
0.0068707727 0.044928718 0.045306373 0 -0.33897066 0.54846609
0.0095702549 0.042968489 0.047881342 0 -0.33897066 0.54846609
0.012260259 0.041576389 0.049713571 0 -0.33897066 0.54846609
0.014949546 0.040662941 0.050920337 0 -0.33897066 0.54846609
0.017645661 0.04016763 0.051580977 0 -0.33897066 0.54846609
0.020354386 0.040029299 0.051775668 0 -0.33897066 0.54846609
0.023083413 0.040246945 0.051505763 0 -0.33897066 0.54846609
0.025845597 0.040895794 0.050672729 0 -0.33897066 0.54846609
0.028651994 0.041998446 0.049247019 0 -0.33897066 0.54846609
0.031522196 0.04367312 0.047073815 0 -0.33897066 0.54846609
0.034495771 0.046223145 0.043755803 0 -0.33897066 0.54846609
0.037539475 0.049109042 0.039999999 0 -0.33897066 0.54846609
0.0013845759 0.045474399 0.039999999 0 -0.33897066 0.54846609
0.0041537853 0.045475818 0.039999999 0 -0.33897066 0.54846609
0.0069125514 0.044889145 0.040779676 0 -0.33897066 0.54846609
0.0096285595 0.042933408 0.043371893 0 -0.33897066 0.54846609
0.01233497 0.041541822 0.04521979 0 -0.33897066 0.54846609
0.015041218 0.040642764 0.046418108 0 -0.33897066 0.54846609
0.017754268 0.040155813 0.047073223 0 -0.33897066 0.54846609
0.020480316 0.040029299 0.047253497 0 -0.33897066 0.54846609
0.023227204 0.040262587 0.046959806 0 -0.33897066 0.54846609
0.026009321 0.040950961 0.046066195 0 -0.33897066 0.54846609
0.028835775 0.042083472 0.044587214 0 -0.33897066 0.54846609
0.031730469 0.043831449 0.042296398 0 -0.33897066 0.54846609
0.034651887 0.045585223 0.039999999 0 -0.33897066 0.54846609
0.037430797 0.045603722 0.039999999 0 -0.33897066 0.54846609
0.0013805896 0.041998927 0.039999999 0 -0.33897066 0.54846609
0.0041418257 0.042000271 0.039999999 0 -0.33897066 0.54846609
0.0069032339 0.042002961 0.039999999 0 -0.33897066 0.54846609
0.0096649276 0.042006996 0.039999999 0 -0.33897066 0.54846609
0.012410534 0.041506864 0.040674668 0 -0.33897066 0.54846609
0.015133945 0.040622354 0.04186409 0 -0.33897066 0.54846609
0.017864129 0.040143862 0.042513404 0 -0.33897066 0.54846609
0.02060771 0.040029299 0.042678803 0 -0.33897066 0.54846609
0.023373632 0.04029388 0.042340018 0 -0.33897066 0.54846609
0.026174998 0.041006785 0.04140478 0 -0.33897066 0.54846609
0.029014422 0.042072959 0.039999999 0 -0.33897066 0.54846609
0.031782534 0.042087782 0.039999999 0 -0.33897066 0.54846609
0.034551963 0.042103961 0.039999999 0 -0.33897066 0.54846609
0.03732283 0.042121492 0.039999999 0 -0.33897066 0.54846609
0.0013766293 0.038546104 0.039999999 0 -0.33897066 0.54846609
0.0041299448 0.038547378 0.039999999 0 -0.33897066 0.54846609
0.0068834303 0.038549919 0.039999999 0 -0.33897066 0.54846609
0.0096372003 0.038553737 0.039999999 0 -0.33897066 0.54846609
0.012391368 0.038558822 0.039999999 0 -0.33897066 0.54846609
0.015146047 0.038565185 0.039999999 0 -0.33897066 0.54846609
0.017901352 0.038572818 0.039999999 0 -0.33897066 0.54846609
0.020657394 0.038581725 0.039999999 0 -0.33897066 0.54846609
0.023414291 0.03859191 0.039999999 0 -0.33897066 0.54846609
0.026172156 0.038603369 0.039999999 0 -0.33897066 0.54846609
0.0289311 0.038616106 0.039999999 0 -0.33897066 0.54846609
0.031691242 0.03863012 0.039999999 0 -0.33897066 0.54846609
0.034452695 0.038645416 0.039999999 0 -0.33897066 0.54846609
0.037215576 0.038661994 0.039999999 0 -0.33897066 0.54846609
0.039979994 0.038679857 0.039999999 0 -0.33897066 0.54846609
0.0013726946 0.035115585 0.039999999 0 -0.33897066 0.54846609
0.0041181403 0.035116781 0.039999999 0 -0.33897066 0.54846609
0.0068637547 0.03511918 0.039999999 0 -0.33897066 0.54846609
0.0096096518 0.035122778 0.039999999 0 -0.33897066 0.54846609
0.012355943 0.035127576 0.039999999 0 -0.33897066 0.54846609
0.015102743 0.035133574 0.039999999 0 -0.33897066 0.54846609
0.017850162 0.035140775 0.039999999 0 -0.33897066 0.54846609
0.020598318 0.035149176 0.039999999 0 -0.33897066 0.54846609
0.02334732 0.035158779 0.039999999 0 -0.33897066 0.54846609
0.026097281 0.035169587 0.039999999 0 -0.33897066 0.54846609
0.028848318 0.035181597 0.039999999 0 -0.33897066 0.54846609
0.031600542 0.035194818 0.039999999 0 -0.33897066 0.54846609
0.034354068 0.035209242 0.039999999 0 -0.33897066 0.54846609
0.03710901 0.035224874 0.039999999 0 -0.33897066 0.54846609
0.039865483 0.035241719 0.039999999 0 -0.33897066 0.54846609
0.001368785 0.031707015 0.039999999 0 -0.33897066 0.54846609
0.0041064112 0.031708144 0.039999999 0 -0.33897066 0.54846609
0.0068442053 0.031710397 0.039999999 0 -0.33897066 0.54846609
0.0095822793 0.031713784 0.039999999 0 -0.33897066 0.54846609
0.012320746 0.031718295 0.039999999 0 -0.33897066 0.54846609
0.015059716 0.031723935 0.039999999 0 -0.33897066 0.54846609
0.017799303 0.031730704 0.039999999 0 -0.33897066 0.54846609
0.020539619 0.031738605 0.039999999 0 -0.33897066 0.54846609
0.023280777 0.031747635 0.039999999 0 -0.33897066 0.54846609
0.026022889 0.031757798 0.039999999 0 -0.33897066 0.54846609
0.028766066 0.031769093 0.039999999 0 -0.33897066 0.54846609
0.031510424 0.031781524 0.039999999 0 -0.33897066 0.54846609
0.034256071 0.031795088 0.039999999 0 -0.33897066 0.54846609
0.03700313 0.031809788 0.039999999 0 -0.33897066 0.54846609
0.039751705 0.031825628 0.039999999 0 -0.33897066 0.54846609
0.0013649004 0.028320065 0.039999999 0 -0.33897066 0.54846609
0.0040947567 0.028321121 0.039999999 0 -0.33897066 0.54846609
0.0068247798 0.028323235 0.039999999 0 -0.33897066 0.54846609
0.0095550809 0.028326407 0.039999999 0 -0.33897066 0.54846609
0.012285772 0.028330635 0.039999999 0 -0.33897066 0.54846609
0.015016963 0.028335923 0.039999999 0 -0.33897066 0.54846609
0.017748766 0.028342267 0.039999999 0 -0.33897066 0.54846609
0.020481294 0.028349673 0.039999999 0 -0.33897066 0.54846609
0.023214657 0.028358137 0.039999999 0 -0.33897066 0.54846609
0.025948966 0.028367663 0.039999999 0 -0.33897066 0.54846609
0.028684335 0.02837825 0.039999999 0 -0.33897066 0.54846609
0.031420875 0.028389901 0.039999999 0 -0.33897066 0.54846609
0.034158699 0.028402613 0.039999999 0 -0.33897066 0.54846609
0.03689792 0.028416393 0.039999999 0 -0.33897066 0.54846609
0.03963865 0.02843124 0.039999999 0 -0.33897066 0.54846609
0.00136104 0.024954397 0.039999999 0 -0.33897066 0.54846609
0.0040831752 0.024955384 0.039999999 0 -0.33897066 0.54846609
0.0068054763 0.024957359 0.039999999 0 -0.33897066 0.54846609
0.009528053 0.02496032 0.039999999 0 -0.33897066 0.54846609
0.012251017 0.024964269 0.039999999 0 -0.33897066 0.54846609
0.014974478 0.024969207 0.039999999 0 -0.33897066 0.54846609
0.017698547 0.024975132 0.039999999 0 -0.33897066 0.54846609
0.020423334 0.024982048 0.039999999 0 -0.33897066 0.54846609
0.023148952 0.024989953 0.039999999 0 -0.33897066 0.54846609
0.025875511 0.024998849 0.039999999 0 -0.33897066 0.54846609
0.02860312 0.025008736 0.039999999 0 -0.33897066 0.54846609
0.031331893 0.025019616 0.039999999 0 -0.33897066 0.54846609
0.034061939 0.02503149 0.039999999 0 -0.33897066 0.54846609
0.036793374 0.025044357 0.039999999 0 -0.33897066 0.54846609
0.039526306 0.025058223 0.039999999 0 -0.33897066 0.54846609
0.0013572037 0.021609686 0.039999999 0 -0.33897066 0.54846609
0.0040716659 0.021610603 0.039999999 0 -0.33897066 0.54846609
0.0067862929 0.021612439 0.039999999 0 -0.33897066 0.54846609
0.0095011937 0.021615194 0.039999999 0 -0.33897066 0.54846609
0.012216479 0.021618867 0.039999999 0 -0.33897066 0.54846609
0.014932258 0.021623459 0.039999999 0 -0.33897066 0.54846609
0.017648641 0.02162897 0.039999999 0 -0.33897066 0.54846609
0.020365737 0.021635402 0.039999999 0 -0.33897066 0.54846609
0.023083657 0.021642754 0.039999999 0 -0.33897066 0.54846609
0.025802512 0.021651028 0.039999999 0 -0.33897066 0.54846609
0.028522409 0.021660224 0.039999999 0 -0.33897066 0.54846609
0.031243464 0.021670341 0.039999999 0 -0.33897066 0.54846609
0.033965781 0.021681385 0.039999999 0 -0.33897066 0.54846609
0.036689479 0.021693353 0.039999999 0 -0.33897066 0.54846609
0.039414663 0.021706248 0.039999999 0 -0.33897066 0.54846609
0.0013533911 0.01828561 0.039999999 0 -0.33897066 0.54846609
0.0040602279 0.018286459 0.039999999 0 -0.33897066 0.54846609
0.0067672278 0.01828816 0.039999999 0 -0.33897066 0.54846609
0.0094745001 0.018290708 0.039999999 0 -0.33897066 0.54846609
0.012182154 0.018294109 0.039999999 0 -0.33897066 0.54846609
0.014890298 0.01829836 0.039999999 0 -0.33897066 0.54846609
0.017599043 0.018303461 0.039999999 0 -0.33897066 0.54846609
0.020308495 0.018309414 0.039999999 0 -0.33897066 0.54846609
0.023018764 0.018316219 0.039999999 0 -0.33897066 0.54846609
0.025729964 0.018323878 0.039999999 0 -0.33897066 0.54846609
0.028442198 0.01833239 0.039999999 0 -0.33897066 0.54846609
0.031155581 0.018341755 0.039999999 0 -0.33897066 0.54846609
0.03387022 0.018351978 0.039999999 0 -0.33897066 0.54846609
0.036586225 0.018363055 0.039999999 0 -0.33897066 0.54846609
0.039303709 0.018374991 0.039999999 0 -0.33897066 0.54846609
0.0013496018 0.014981853 0.039999999 0 -0.33897066 0.54846609
0.0040488597 0.014982635 0.039999999 0 -0.33897066 0.54846609
0.0067482796 0.0149842 0.039999999 0 -0.33897066 0.54846609
0.0094479695 0.014986547 0.039999999 0 -0.33897066 0.54846609
0.012148039 0.014989677 0.039999999 0 -0.33897066 0.54846609
0.014848595 0.01499359 0.039999999 0 -0.33897066 0.54846609
0.017549746 0.014998286 0.039999999 0 -0.33897066 0.54846609
0.020251602 0.015003767 0.039999999 0 -0.33897066 0.54846609
0.02295427 0.015010032 0.039999999 0 -0.33897066 0.54846609
0.025657859 0.015017082 0.039999999 0 -0.33897066 0.54846609
0.028362477 0.015024918 0.039999999 0 -0.33897066 0.54846609
0.031068236 0.01503354 0.039999999 0 -0.33897066 0.54846609
0.03377524 0.01504295 0.039999999 0 -0.33897066 0.54846609
0.036483604 0.015053148 0.039999999 0 -0.33897066 0.54846609
0.039193437 0.015064136 0.039999999 0 -0.33897066 0.54846609
0.0013458355 0.011698104 0.039999999 0 -0.33897066 0.54846609
0.00403756 0.011698821 0.039999999 0 -0.33897066 0.54846609
0.0067294459 0.011700252 0.039999999 0 -0.33897066 0.54846609
0.0094216 0.011702399 0.039999999 0 -0.33897066 0.54846609
0.012114131 0.011705262 0.039999999 0 -0.33897066 0.54846609
0.014807145 0.011708842 0.039999999 0 -0.33897066 0.54846609
0.017500751 0.011713138 0.039999999 0 -0.33897066 0.54846609
0.020195054 0.01171815 0.039999999 0 -0.33897066 0.54846609
0.022890165 0.011723882 0.039999999 0 -0.33897066 0.54846609
0.025586192 0.01173033 0.039999999 0 -0.33897066 0.54846609
0.02828324 0.011737498 0.039999999 0 -0.33897066 0.54846609
0.03098142 0.011745385 0.039999999 0 -0.33897066 0.54846609
0.033680841 0.011753992 0.039999999 0 -0.33897066 0.54846609
0.03638161 0.011763321 0.039999999 0 -0.33897066 0.54846609
0.039083835 0.011773372 0.039999999 0 -0.33897066 0.54846609
0.0013420917 0.008434061 0.039999999 0 -0.33897066 0.54846609
0.0040263287 0.008434711 0.039999999 0 -0.33897066 0.54846609
0.0067107254 0.0084360102 0.039999999 0 -0.33897066 0.54846609
0.0093953889 0.0084379595 0.039999999 0 -0.33897066 0.54846609
0.012080425 0.0084405588 0.039999999 0 -0.33897066 0.54846609
0.014765943 0.0084438082 0.039999999 0 -0.33897066 0.54846609
0.017452048 0.0084477086 0.039999999 0 -0.33897066 0.54846609
0.020138847 0.008452259 0.039999999 0 -0.33897066 0.54846609
0.022826446 0.0084574623 0.039999999 0 -0.33897066 0.54846609
0.025514955 0.0084633166 0.039999999 0 -0.33897066 0.54846609
0.028204478 0.0084698237 0.039999999 0 -0.33897066 0.54846609
0.030895127 0.0084769838 0.039999999 0 -0.33897066 0.54846609
0.033587005 0.0084847976 0.039999999 0 -0.33897066 0.54846609
0.036280222 0.008493267 0.039999999 0 -0.33897066 0.54846609
0.038974889 0.0085023912 0.039999999 0 -0.33897066 0.54846609
0.0013383701 0.0051894207 0.039999999 0 -0.33897066 0.54846609
0.0040151635 0.0051900055 0.039999999 0 -0.33897066 0.54846609
0.0066921157 0.0051911743 0.039999999 0 -0.33897066 0.54846609
0.0093693333 0.005192928 0.039999999 0 -0.33897066 0.54846609
0.012046921 0.0051952661 0.039999999 0 -0.33897066 0.54846609
0.014724987 0.0051981895 0.039999999 0 -0.33897066 0.54846609
0.017403634 0.0052016983 0.039999999 0 -0.33897066 0.54846609
0.020082973 0.0052057928 0.039999999 0 -0.33897066 0.54846609
0.022763105 0.0052104732 0.039999999 0 -0.33897066 0.54846609
0.025444143 0.0052157403 0.039999999 0 -0.33897066 0.54846609
0.028126186 0.0052215941 0.039999999 0 -0.33897066 0.54846609
0.030809347 0.0052280356 0.039999999 0 -0.33897066 0.54846609
0.033493731 0.0052350657 0.039999999 0 -0.33897066 0.54846609
0.036179442 0.0052426844 0.039999999 0 -0.33897066 0.54846609
0.038866591 0.0052508926 0.039999999 0 -0.33897066 0.54846609
0.0013346706 0.0019638897 0.039999999 0 -0.33897066 0.54846609
0.0040040645 0.0019644096 0.039999999 0 -0.33897066 0.54846609
0.0066736164 0.0019654497 0.039999999 0 -0.33897066 0.54846609
0.0093434313 0.0019670099 0.039999999 0 -0.33897066 0.54846609
0.012013614 0.0019690902 0.039999999 0 -0.33897066 0.54846609
0.014684271 0.0019716911 0.039999999 0 -0.33897066 0.54846609
0.017355507 0.0019748129 0.039999999 0 -0.33897066 0.54846609
0.020027427 0.0019784556 0.039999999 0 -0.33897066 0.54846609
0.022700138 0.0019826198 0.039999999 0 -0.33897066 0.54846609
0.025373746 0.0019873057 0.039999999 0 -0.33897066 0.54846609
0.028048355 0.0019925139 0.039999999 0 -0.33897066 0.54846609
0.030724073 0.001998245 0.039999999 0 -0.33897066 0.54846609
0.033401005 0.0020044993 0.039999999 0 -0.33897066 0.54846609
0.036079254 0.0020112777 0.039999999 0 -0.33897066 0.54846609
0.038758934 0.0020185807 0.039999999 0 -0.33897066 0.54846609
0.0013358906 0 0.038128868 0 -0.33897066 0.54846609
0.004007719 0 0.038129557 0 -0.33897066 0.54846609
0.0066796881 0 0.038130935 0 -0.33897066 0.54846609
0.0093518924 0 0.038133003 0 -0.33897066 0.54846609
0.012024427 0 0.038135763 0 -0.33897066 0.54846609
0.014697384 0 0.038139209 0 -0.33897066 0.54846609
0.017370859 0 0.038143348 0 -0.33897066 0.54846609
0.020044945 0 0.03814818 0 -0.33897066 0.54846609
0.022719739 0 0.038153701 0 -0.33897066 0.54846609
0.025395334 0 0.038159911 0 -0.33897066 0.54846609
0.028071823 0 0.038166817 0 -0.33897066 0.54846609
0.030749302 0 0.038174413 0 -0.33897066 0.54846609
0.033427868 0 0.038182702 0 -0.33897066 0.54846609
0.036107615 0 0.038191687 0 -0.33897066 0.54846609
0.038788632 0 0.038201369 0 -0.33897066 0.54846609
0.0013449165 0 0.03326533 0 -0.33897066 0.54846609
0.0040347977 0 0.033265937 0 -0.33897066 0.54846609
0.0067248219 0 0.033267148 0 -0.33897066 0.54846609
0.0094150854 0 0.033268962 0 -0.33897066 0.54846609
0.012105684 0 0.033271387 0 -0.33897066 0.54846609
0.014796713 0 0.033274416 0 -0.33897066 0.54846609
0.017488269 0 0.033278052 0 -0.33897066 0.54846609
0.020180449 0 0.033282291 0 -0.33897066 0.54846609
0.022873346 0 0.033287141 0 -0.33897066 0.54846609
0.025567057 0 0.033292595 0 -0.33897066 0.54846609
0.02826168 0 0.03329866 0 -0.33897066 0.54846609
0.03095731 0 0.033305336 0 -0.33897066 0.54846609
0.033654045 0 0.033312615 0 -0.33897066 0.54846609
0.036351979 0 0.033320509 0 -0.33897066 0.54846609
0.039051209 0 0.03332901 0 -0.33897066 0.54846609
0.0013540629 0 0.028336853 0 -0.33897066 0.54846609
0.0040622377 0 0.028337372 0 -0.33897066 0.54846609
0.0067705582 0 0.02833841 0 -0.33897066 0.54846609
0.0094791222 0 0.028339969 0 -0.33897066 0.54846609
0.012188027 0 0.028342046 0 -0.33897066 0.54846609
0.01489737 0 0.028344644 0 -0.33897066 0.54846609
0.017607249 0 0.028347762 0 -0.33897066 0.54846609
0.020317761 0 0.0283514 0 -0.33897066 0.54846609
0.023029003 0 0.028355559 0 -0.33897066 0.54846609
0.025741076 0 0.028360238 0 -0.33897066 0.54846609
0.028454075 0 0.028365439 0 -0.33897066 0.54846609
0.031168098 0 0.028371163 0 -0.33897066 0.54846609
0.033883244 0 0.028377408 0 -0.33897066 0.54846609
0.03659961 0 0.028384177 0 -0.33897066 0.54846609
0.039317299 0 0.028391469 0 -0.33897066 0.54846609
0.0013633327 0 0.023341935 0 -0.33897066 0.54846609
0.0040900474 0 0.023342365 0 -0.33897066 0.54846609
0.006816911 0 0.023343228 0 -0.33897066 0.54846609
0.0095440224 0 0.02334452 0 -0.33897066 0.54846609
0.01227148 0 0.023346243 0 -0.33897066 0.54846609
0.014999384 0 0.023348399 0 -0.33897066 0.54846609
0.017727833 0 0.023350984 0 -0.33897066 0.54846609
0.020456925 0 0.023354001 0 -0.33897066 0.54846609
0.023186762 0 0.023357449 0 -0.33897066 0.54846609
0.025917443 0 0.023361331 0 -0.33897066 0.54846609
0.028649066 0 0.023365645 0 -0.33897066 0.54846609
0.03138173 0 0.023370391 0 -0.33897066 0.54846609
0.034115538 0 0.023375571 0 -0.33897066 0.54846609
0.03685059 0 0.023381185 0 -0.33897066 0.54846609
0.039586984 0 0.023387233 0 -0.33897066 0.54846609
0.0013727286 0 0.018279031 0 -0.33897066 0.54846609
0.0041182362 0 0.018279372 0 -0.33897066 0.54846609
0.0068638949 0 0.01828005 0 -0.33897066 0.54846609
0.0096098054 0 0.018281069 0 -0.33897066 0.54846609
0.012356069 0 0.018282428 0 -0.33897066 0.54846609
0.015102786 0 0.018284127 0 -0.33897066 0.54846609
0.017850058 0 0.018286165 0 -0.33897066 0.54846609
0.020597985 0 0.018288545 0 -0.33897066 0.54846609
0.02334667 0 0.018291265 0 -0.33897066 0.54846609
0.026096212 0 0.018294325 0 -0.33897066 0.54846609
0.028846713 0 0.018297726 0 -0.33897066 0.54846609
0.031598274 0 0.018301468 0 -0.33897066 0.54846609
0.034350999 0 0.018305553 0 -0.33897066 0.54846609
0.03710499 0 0.018309981 0 -0.33897066 0.54846609
0.039860345 0 0.018314749 0 -0.33897066 0.54846609
0.0013822537 0 0.013146546 0 -0.33897066 0.54846609
0.0041468125 0 0.013146792 0 -0.33897066 0.54846609
0.0069115246 0 0.013147284 0 -0.33897066 0.54846609
0.0096764937 0 0.013148022 0 -0.33897066 0.54846609
0.012441821 0 0.013149006 0 -0.33897066 0.54846609
0.015207611 0 0.013150237 0 -0.33897066 0.54846609
0.017973965 0 0.013151713 0 -0.33897066 0.54846609
0.020740986 0 0.013153436 0 -0.33897066 0.54846609
0.023508776 0 0.013155405 0 -0.33897066 0.54846609
0.02627744 0 0.013157622 0 -0.33897066 0.54846609
0.029047079 0 0.013160085 0 -0.33897066 0.54846609
0.031817798 0 0.013162795 0 -0.33897066 0.54846609
0.0345897 0 0.013165753 0 -0.33897066 0.54846609
0.037362892 0 0.013168959 0 -0.33897066 0.54846609
0.0013919109 0 0.0079428358 0 -0.33897066 0.54846609
0.004175785 0 0.0079429848 0 -0.33897066 0.54846609
0.0069598155 0 0.0079432847 0 -0.33897066 0.54846609
0.0097441068 0 0.0079437336 0 -0.33897066 0.54846609
0.012528763 0 0.0079443324 0 -0.33897066 0.54846609
0.01531389 0 0.0079450803 0 -0.33897066 0.54846609
0.018099591 0 0.007945979 0 -0.33897066 0.54846609
0.02088597 0 0.0079470277 0 -0.33897066 0.54846609
0.023673134 0 0.0079482254 0 -0.33897066 0.54846609
0.026461184 0 0.0079495739 0 -0.33897066 0.54846609
0.029250231 0 0.0079510724 0 -0.33897066 0.54846609
0.032040372 0 0.0079527218 0 -0.33897066 0.54846609
0.034831721 0 0.0079545211 0 -0.33897066 0.54846609
0.037624378 0 0.0079564722 0 -0.33897066 0.54846609
0.0014017035 0 0.0026662049 0 -0.33897066 0.54846609
0.0042051636 0 0.0026662555 0 -0.33897066 0.54846609
0.0070087826 0 0.0026663565 0 -0.33897066 0.54846609
0.009812668 0 0.0026665083 0 -0.33897066 0.54846609
0.012616924 0 0.0026667109 0 -0.33897066 0.54846609
0.015421659 0 0.0026669637 0 -0.33897066 0.54846609
0.018226977 0 0.0026672673 0 -0.33897066 0.54846609
0.021032987 0 0.0026676217 0 -0.33897066 0.54846609
0.023839796 0 0.0026680268 0 -0.33897066 0.54846609
0.026647506 0 0.0026684827 0 -0.33897066 0.54846609
0.02945623 0 0.0026689894 0 -0.33897066 0.54846609
0.032266069 0 0.0026695468 0 -0.33897066 0.54846609
0.035077136 0 0.0026701551 0 -0.33897066 0.54846609
0.037889536 0 0.0026708145 0 -0.33897066 0.54846609
