# .PCD v0.7 - Point Cloud Data file format
VERSION 0.7
FIELDS x y z vp_x vp_y vp_z
SIZE 4 4 4 4 4 4
TYPE F F F F F F
COUNT 1 1 1 1 1 1
WIDTH 708
HEIGHT 1
VIEWPOINT 0 0 0 1 0 0 0
POINTS 708
DATA ascii
0.0043769446 0.001137009 0.039999999 0.32315677 0.19972187 0.52287865
0.0029744008 0.0034063724 0.039999999 0.32315677 0.19972187 0.52287865
0.0015714187 0.0056755268 0.039999999 0.32315677 0.19972187 0.52287865
0.00016794319 0.0079445625 0.039999999 0.32315677 0.19972187 0.52287865
0.0086391484 0.00065019238 0.039999999 0.32315677 0.19972187 0.52287865
0.007241474 0.0029124662 0.039999999 0.32315677 0.19972187 0.52287865
0.0058434745 0.0051744771 0.039999999 0.32315677 0.19972187 0.52287865
0.0044450937 0.0074363141 0.039999999 0.32315677 0.19972187 0.52287865
0.0030462774 0.0096980659 0.039999999 0.32315677 0.19972187 0.52287865
0.0016469703 0.011959822 0.039999999 0.32315677 0.19972187 0.52287865
0.00024711722 0.01422167 0.039999999 0.32315677 0.19972187 0.52287865
0.0084611112 0.044855922 0.07 0.32315677 0.19972187 0.52287865
0.0071402509 0.046982713 0.07 0.32315677 0.19972187 0.52287865
0.0058183046 0.049110509 0.07 0.32315677 0.19972187 0.52287865
0.0044952198 0.051239397 0.07 0.32315677 0.19972187 0.52287865
0.0031709431 0.053369466 0.07 0.32315677 0.19972187 0.52287865
0.0018454217 0.055500794 0.07 0.32315677 0.19972187 0.52287865
0.00051860191 0.057633467 0.07 0.32315677 0.19972187 0.52287865
0.012873017 0.00016583406 0.039999999 0.32315677 0.19972187 0.52287865
0.011480017 0.0024210853 0.039999999 0.32315677 0.19972187 0.52287865
0.0100868 0.0046760207 0.039999999 0.32315677 0.19972187 0.52287865
0.0086933142 0.0069307284 0.039999999 0.32315677 0.19972187 0.52287865
0.0072995033 0.0091852965 0.039999999 0.32315677 0.19972187 0.52287865
0.0059053143 0.011439813 0.039999999 0.32315677 0.19972187 0.52287865
0.0045106919 0.013694367 0.039999999 0.32315677 0.19972187 0.52287865
0.0031155811 0.015949046 0.039999999 0.32315677 0.19972187 0.52287865
0.0017199279 0.018203937 0.039999999 0.32315677 0.19972187 0.52287865
0.00032367735 0.02045913 0.039999999 0.32315677 0.19972187 0.52287865
0.012459172 0.04148436 0.068003692 0.32315677 0.19972187 0.52287865
0.012508783 0.044297338 0.07 0.32315677 0.19972187 0.52287865
0.011193912 0.046416722 0.07 0.32315677 0.19972187 0.52287865
0.0098780673 0.048537053 0.07 0.32315677 0.19972187 0.52287865
0.0037508833 0.048379168 0.063075274 0.32315677 0.19972187 0.52287865
0.0072432463 0.052780896 0.07 0.32315677 0.19972187 0.52287865
0.0059241652 0.054904573 0.07 0.32315677 0.19972187 0.52287865
0.0046039 0.057029534 0.07 0.32315677 0.19972187 0.52287865
0.003282398 0.059155863 0.07 0.32315677 0.19972187 0.52287865
0.0019596061 0.061283644 0.07 0.32315677 0.19972187 0.52287865
0.00063547079 0.063412964 0.07 0.32315677 0.19972187 0.52287865
0.015690638 0.001932286 0.039999999 0.32315677 0.19972187 0.52287865
0.01430201 0.0041802125 0.039999999 0.32315677 0.19972187 0.52287865
0.012913221 0.0064278585 0.039999999 0.32315677 0.19972187 0.52287865
0.011524219 0.0086753117 0.039999999 0.32315677 0.19972187 0.52287865
0.010134948 0.010922659 0.039999999 0.32315677 0.19972187 0.52287865
0.0087453546 0.013169989 0.039999999 0.32315677 0.19972187 0.52287865
0.0073553845 0.015417388 0.039999999 0.32315677 0.19972187 0.52287865
0.0059649837 0.017664943 0.039999999 0.32315677 0.19972187 0.52287865
0.0045740977 0.019912744 0.039999999 0.32315677 0.19972187 0.52287865
0.0031826722 0.022160875 0.039999999 0.32315677 0.19972187 0.52287865
0.0017906532 0.024409426 0.039999999 0.32315677 0.19972187 0.52287865
0.00039798632 0.026658485 0.039999999 0.32315677 0.19972187 0.52287865
0.017835839 0.041630883 0.07 0.32315677 0.19972187 0.52287865
0.016527565 0.043742131 0.07 0.32315677 0.19972187 0.52287865
0.015218478 0.045854189 0.07 0.32315677 0.19972187 0.52287865
0.007175521 0.044663101 0.06013985 0.32315677 0.19972187 0.52287865
0.0052356878 0.046533734 0.059264269 0.32315677 0.19972187 0.52287865
0.011285824 0.052196018 0.07 0.32315677 0.19972187 0.52287865
0.0099729691 0.054312125 0.07 0.32315677 0.19972187 0.52287865
0.0086590424 0.056429453 0.07 0.32315677 0.19972187 0.52287865
0.00052350573 0.055499211 0.060219355 0.32315677 0.19972187 0.52287865
0.006027766 0.060668107 0.07 0.32315677 0.19972187 0.52287865
0.0047103111 0.062789597 0.07 0.32315677 0.19972187 0.52287865
0.0033915746 0.064912647 0.07 0.32315677 0.19972187 0.52287865
0.0020715038 0.067037337 0.07 0.32315677 0.19972187 0.52287865
0.019873934 0.0014461239 0.039999999 0.32315677 0.19972187 0.52287865
0.018489705 0.0036871065 0.039999999 0.32315677 0.19972187 0.52287865
0.017105423 0.0059277569 0.039999999 0.32315677 0.19972187 0.52287865
0.015721034 0.0081681618 0.039999999 0.32315677 0.19972187 0.52287865
0.014336485 0.010408408 0.039999999 0.32315677 0.19972187 0.52287865
0.012951724 0.012648582 0.039999999 0.32315677 0.19972187 0.52287865
0.011566695 0.014888771 0.039999999 0.32315677 0.19972187 0.52287865
0.010181345 0.017129062 0.039999999 0.32315677 0.19972187 0.52287865
0.0087956218 0.019369541 0.039999999 0.32315677 0.19972187 0.52287865
0.0074094692 0.021610294 0.039999999 0.32315677 0.19972187 0.52287865
0.0060228356 0.02385141 0.039999999 0.32315677 0.19972187 0.52287865
0.0046356656 0.026092974 0.039999999 0.32315677 0.19972187 0.52287865
0.003247906 0.028335076 0.039999999 0.32315677 0.19972187 0.52287865
0.021820871 0.041086283 0.07 0.32315677 0.19972187 0.52287865
0.015427995 0.040557638 0.062383041 0.32315677 0.19972187 0.52287865
0.019214567 0.045295142 0.07 0.32315677 0.19972187 0.52287865
0.0093244808 0.043116361 0.05726165 0.32315677 0.19972187 0.52287865
0.016605236 0.049507316 0.07 0.32315677 0.19972187 0.52287865
0.015299308 0.051614858 0.07 0.32315677 0.19972187 0.52287865
0.0034900564 0.048763856 0.054615561 0.32315677 0.19972187 0.52287865
0.012684672 0.055833247 0.07 0.32315677 0.19972187 0.52287865
0.011375861 0.057944264 0.07 0.32315677 0.19972187 0.52287865
0.00045623802 0.055769838 0.05609972 0.32315677 0.19972187 0.52287865
0.0087549938 0.062170357 0.07 0.32315677 0.19972187 0.52287865
0.0074428334 0.064285599 0.07 0.32315677 0.19972187 0.52287865
0.006129453 0.06640242 0.07 0.32315677 0.19972187 0.52287865
0.0048147994 0.068520896 0.07 0.32315677 0.19972187 0.52287865
0.0029312114 0.070411913 0.069195837 0.32315677 0.19972187 0.52287865
0.024030492 0.00096265489 0.039999999 0.32315677 0.19972187 0.52287865
0.022650473 0.0031967573 0.039999999 0.32315677 0.19972187 0.52287865
0.021270508 0.0054304763 0.039999999 0.32315677 0.19972187 0.52287865
0.019890543 0.0076638986 0.039999999 0.32315677 0.19972187 0.52287865
0.018510526 0.0098971101 0.039999999 0.32315677 0.19972187 0.52287865
0.017130403 0.012130196 0.039999999 0.32315677 0.19972187 0.52287865
0.015750119 0.014363243 0.039999999 0.32315677 0.19972187 0.52287865
0.014369625 0.016596338 0.039999999 0.32315677 0.19972187 0.52287865
0.012988865 0.018829565 0.039999999 0.32315677 0.19972187 0.52287865
0.011607787 0.021063013 0.039999999 0.32315677 0.19972187 0.52287865
0.010226335 0.023296766 0.039999999 0.32315677 0.19972187 0.52287865
0.0088444594 0.02553091 0.039999999 0.32315677 0.19972187 0.52287865
0.0074621048 0.027765533 0.039999999 0.32315677 0.19972187 0.52287865
0.0060792174 0.03000072 0.039999999 0.32315677 0.19972187 0.52287865
0.024480905 0.042641986 0.07 0.32315677 0.19972187 0.52287865
0.023182783 0.044739608 0.07 0.32315677 0.19972187 0.52287865
0.021884013 0.046838004 0.07 0.32315677 0.19972187 0.52287865
0.020584542 0.048937254 0.07 0.32315677 0.19972187 0.52287865
0.019284319 0.051037434 0.07 0.32315677 0.19972187 0.52287865
0.017983295 0.053138636 0.07 0.32315677 0.19972187 0.52287865
0.016681418 0.055240937 0.07 0.32315677 0.19972187 0.52287865
0.015378636 0.057344418 0.07 0.32315677 0.19972187 0.52287865
0.014074902 0.059449162 0.07 0.32315677 0.19972187 0.52287865
0.012770161 0.061555251 0.07 0.32315677 0.19972187 0.52287865
0.011464363 0.063662767 0.07 0.32315677 0.19972187 0.52287865
0.010157456 0.065771803 0.07 0.32315677 0.19972187 0.52287865
0.0088493889 0.067882426 0.07 0.32315677 0.19972187 0.52287865
0.0075401096 0.069994725 0.07 0.32315677 0.19972187 0.52287865
0.0062295659 0.072108783 0.07 0.32315677 0.19972187 0.52287865
0.028160881 0.00048193443 0.039999999 0.32315677 0.19972187 0.52287865
0.026784889 0.0027092185 0.039999999 0.32315677 0.19972187 0.52287865
0.025409056 0.0049360697 0.039999999 0.32315677 0.19972187 0.52287865
0.024033329 0.0071625728 0.039999999 0.32315677 0.19972187 0.52287865
0.022657653 0.0093888137 0.039999999 0.32315677 0.19972187 0.52287865
0.02128198 0.011614879 0.039999999 0.32315677 0.19972187 0.52287865
0.019906253 0.013840851 0.039999999 0.32315677 0.19972187 0.52287865
0.018530421 0.016066818 0.039999999 0.32315677 0.19972187 0.52287865
0.017154431 0.018292863 0.039999999 0.32315677 0.19972187 0.52287865
0.015778229 0.020519074 0.039999999 0.32315677 0.19972187 0.52287865
0.014401765 0.022745535 0.039999999 0.32315677 0.19972187 0.52287865
0.013024983 0.024972331 0.039999999 0.32315677 0.19972187 0.52287865
0.011647832 0.027199548 0.039999999 0.32315677 0.19972187 0.52287865
0.010270258 0.029427271 0.039999999 0.32315677 0.19972187 0.52287865
0.028416654 0.04209711 0.07 0.32315677 0.19972187 0.52287865
0.027123725 0.044187624 0.07 0.32315677 0.19972187 0.52287865
0.025830248 0.046278853 0.07 0.32315677 0.19972187 0.52287865
0.024536178 0.048370879 0.07 0.32315677 0.19972187 0.52287865
0.0089411614 0.043346986 0.048406236 0.32315677 0.19972187 0.52287865
0.02194605 0.052557644 0.07 0.32315677 0.19972187 0.52287865
0.020649891 0.054652546 0.07 0.32315677 0.19972187 0.52287865
0.019352937 0.056748569 0.07 0.32315677 0.19972187 0.52287865
0.0019505293 0.051409733 0.046095069 0.32315677 0.19972187 0.52287865
0.00099390943 0.053804997 0.046702005 0.32315677 0.19972187 0.52287865
0.015456794 0.063044176 0.07 0.32315677 0.19972187 0.52287865
5.401632e-05 0.059003718 0.049331579 0.32315677 0.19972187 0.52287865
0.012854456 0.067248352 0.07 0.32315677 0.19972187 0.52287865
0.01155166 0.069352821 0.07 0.32315677 0.19972187 0.52287865
0.010247714 0.07145898 0.07 0.32315677 0.19972187 0.52287865
0.0089425622 0.073566914 0.07 0.32315677 0.19972187 0.52287865
0.0076361564 0.075676717 0.07 0.32315677 0.19972187 0.52287865
0.032265659 4.017912e-06 0.039999999 0.32315677 0.19972187 0.52287865
0.030893518 0.0022245448 0.039999999 0.32315677 0.19972187 0.52287865
0.029521635 0.0044445894 0.039999999 0.32315677 0.19972187 0.52287865
0.028149962 0.0066642365 0.039999999 0.32315677 0.19972187 0.52287865
0.026778447 0.0088835703 0.039999999 0.32315677 0.19972187 0.52287865
0.025407035 0.011102677 0.039999999 0.32315677 0.19972187 0.52287865
0.024035677 0.01332164 0.039999999 0.32315677 0.19972187 0.52287865
0.022664318 0.015540545 0.039999999 0.32315677 0.19972187 0.52287865
0.021292906 0.017759476 0.039999999 0.32315677 0.19972187 0.52287865
0.019921392 0.019978518 0.039999999 0.32315677 0.19972187 0.52287865
0.018549718 0.022197755 0.039999999 0.32315677 0.19972187 0.52287865
0.017177837 0.024417274 0.039999999 0.32315677 0.19972187 0.52287865
0.015805693 0.026637156 0.039999999 0.32315677 0.19972187 0.52287865
0.014433235 0.028857488 0.039999999 0.32315677 0.19972187 0.52287865
0.01306041 0.031078355 0.039999999 0.32315677 0.19972187 0.52287865
0.026002293 0.040948592 0.062193077 0.32315677 0.19972187 0.52287865
0.029749596 0.045723349 0.07 0.32315677 0.19972187 0.52287865
0.014704349 0.040716909 0.048859667 0.32315677 0.19972187 0.52287865
0.027171329 0.049893919 0.07 0.32315677 0.19972187 0.52287865
0.025881333 0.051980514 0.07 0.32315677 0.19972187 0.52287865
0.024590697 0.054068092 0.07 0.32315677 0.19972187 0.52287865
0.02329937 0.056156736 0.07 0.32315677 0.19972187 0.52287865
0.022007301 0.058246519 0.07 0.32315677 0.19972187 0.52287865
0.020714445 0.060337525 0.07 0.32315677 0.19972187 0.52287865
0.019420747 0.062429834 0.07 0.32315677 0.19972187 0.52287865
0.018126158 0.064523533 0.07 0.32315677 0.19972187 0.52287865
0.016830627 0.066618696 0.07 0.32315677 0.19972187 0.52287865
0.015534106 0.068715408 0.07 0.32315677 0.19972187 0.52287865
0.014236542 0.070813753 0.07 0.32315677 0.19972187 0.52287865
0.012937886 0.072913803 0.07 0.32315677 0.19972187 0.52287865
0.011638084 0.075015657 0.07 0.32315677 0.19972187 0.52287865
0.010337089 0.07711938 0.07 0.32315677 0.19972187 0.52287865
0.034976907 0.0017427895 0.039999999 0.32315677 0.19972187 0.52287865
0.033608798 0.0039560879 0.039999999 0.32315677 0.19972187 0.52287865
0.032241002 0.0061689396 0.039999999 0.32315677 0.19972187 0.52287865
0.030873463 0.0083814291 0.039999999 0.32315677 0.19972187 0.52287865
0.029506134 0.010593641 0.039999999 0.32315677 0.19972187 0.52287865
0.02813896 0.012805658 0.039999999 0.32315677 0.19972187 0.52287865
0.02677189 0.015017566 0.039999999 0.32315677 0.19972187 0.52287865
0.025404871 0.017229447 0.039999999 0.32315677 0.19972187 0.52287865
0.024037853 0.019441387 0.039999999 0.32315677 0.19972187 0.52287865
0.022670783 0.02165347 0.039999999 0.32315677 0.19972187 0.52287865
0.021303609 0.023865776 0.039999999 0.32315677 0.19972187 0.52287865
0.01993628 0.026078396 0.039999999 0.32315677 0.19972187 0.52287865
0.018568743 0.028291408 0.039999999 0.32315677 0.19972187 0.52287865
0.017200945 0.030504899 0.039999999 0.32315677 0.19972187 0.52287865
0.015832836 0.032718953 0.039999999 0.32315677 0.19972187 0.52287865
0.033053536 0.044857051 0.069078512 0.32315677 0.19972187 0.52287865
0.032358781 0.047249313 0.07 0.32315677 0.19972187 0.52287865
0.031074498 0.049327873 0.07 0.32315677 0.19972187 0.52287865
0.029789727 0.051407278 0.07 0.32315677 0.19972187 0.52287865
0 0.039341025 0.026188906 0.32315677 0.19972187 0.52287865
0.027218523 0.055568937 0.07 0.32315677 0.19972187 0.52287865
0.025931992 0.057651352 0.07 0.32315677 0.19972187 0.52287865
0.024644775 0.059734933 0.07 0.32315677 0.19972187 0.52287865
0.023356823 0.061819758 0.07 0.32315677 0.19972187 0.52287865
0.022068087 0.06390591 0.07 0.32315677 0.19972187 0.52287865
0 0.05680405 0.038879555 0.32315677 0.19972187 0.52287865
0.019488063 0.068082504 0.07 0.32315677 0.19972187 0.52287865
0.018196674 0.070173107 0.07 0.32315677 0.19972187 0.52287865
0.016904302 0.072265364 0.07 0.32315677 0.19972187 0.52287865
0.015610895 0.07435935 0.07 0.32315677 0.19972187 0.52287865
0.014316402 0.076455146 0.07 0.32315677 0.19972187 0.52287865
0.013020774 0.078552835 0.07 0.32315677 0.19972187 0.52287865
0.0390356 0.0012640065 0.039999999 0.32315677 0.19972187 0.52287865
0.037671089 0.0034706173 0.039999999 0.32315677 0.19972187 0.52287865
0.036306992 0.0056767338 0.039999999 0.32315677 0.19972187 0.52287865
0.034943253 0.0078824395 0.039999999 0.32315677 0.19972187 0.52287865
0.033579826 0.010087817 0.039999999 0.32315677 0.19972187 0.52287865
0.032216657 0.012292951 0.039999999 0.32315677 0.19972187 0.52287865
0.030853696 0.014497925 0.039999999 0.32315677 0.19972187 0.52287865
0.029490888 0.016702821 0.039999999 0.32315677 0.19972187 0.52287865
0.028128183 0.018907724 0.039999999 0.32315677 0.19972187 0.52287865
0.026765529 0.021112716 0.039999999 0.32315677 0.19972187 0.52287865
0.025402876 0.023317881 0.039999999 0.32315677 0.19972187 0.52287865
0.024040172 0.025523303 0.039999999 0.32315677 0.19972187 0.52287865
0.022677366 0.027729064 0.039999999 0.32315677 0.19972187 0.52287865
0.021314403 0.029935248 0.039999999 0.32315677 0.19972187 0.52287865
0.019951236 0.032141939 0.039999999 0.32315677 0.19972187 0.52287865
0.018587811 0.034349222 0.039999999 0.32315677 0.19972187 0.52287865
0.033397939 0.045183267 0.065528527 0.32315677 0.19972187 0.52287865
0.018383024 0.040087409 0.043964647 0.32315677 0.19972187 0.52287865
0.0336718 0.050837953 0.07 0.32315677 0.19972187 0.52287865
0.03239163 0.052911103 0.07 0.32315677 0.19972187 0.52287865
0.031110976 0.054985199 0.07 0.32315677 0.19972187 0.52287865
0 0.042552404 0.023944663 0.32315677 0.19972187 0.52287865
0.028548017 0.059136551 0.07 0.32315677 0.19972187 0.52287865
0.027265616 0.061213966 0.07 0.32315677 0.19972187 0.52287865
0.025982535 0.063292645 0.07 0.32315677 0.19972187 0.52287865
0.024698725 0.065372668 0.07 0.32315677 0.19972187 0.52287865
0.023414135 0.067454115 0.07 0.32315677 0.19972187 0.52287865
0.022128718 0.069537066 0.07 0.32315677 0.19972187 0.52287865
0.020842426 0.071621604 0.07 0.32315677 0.19972187 0.52287865
0.019555204 0.073707804 0.07 0.32315677 0.19972187 0.52287865
0.018267006 0.075795755 0.07 0.32315677 0.19972187 0.52287865
0.016977781 0.077885531 0.07 0.32315677 0.19972187 0.52287865
0.039999999 0.0017936017 0.037067808 0.32315677 0.19972187 0.52287865
0.039999999 0.0049479697 0.039405011 0.32315677 0.19972187 0.52287865
0.038988359 0.00738665 0.039999999 0.32315677 0.19972187 0.52287865
0.037628658 0.0095852548 0.039999999 0.32315677 0.19972187 0.52287865
0.036269318 0.011783566 0.039999999 0.32315677 0.19972187 0.52287865
0.034910284 0.013981668 0.039999999 0.32315677 0.19972187 0.52287865
0.033551507 0.016179642 0.039999999 0.32315677 0.19972187 0.52287865
0.032192934 0.01837757 0.039999999 0.32315677 0.19972187 0.52287865
0.030834517 0.020575538 0.039999999 0.32315677 0.19972187 0.52287865
0.029476201 0.022773627 0.039999999 0.32315677 0.19972187 0.52287865
0.028117936 0.024971917 0.039999999 0.32315677 0.19972187 0.52287865
0.026759673 0.027170494 0.039999999 0.32315677 0.19972187 0.52287865
0.025401359 0.029369442 0.039999999 0.32315677 0.19972187 0.52287865
0.024042943 0.03156884 0.039999999 0.32315677 0.19972187 0.52287865
0.022684375 0.033768773 0.039999999 0.32315677 0.19972187 0.52287865
0.021325601 0.035969321 0.039999999 0.32315677 0.19972187 0.52287865
0.033745568 0.045512546 0.061945241 0.32315677 0.19972187 0.52287865
0.037415233 0.050213505 0.069821022 0.32315677 0.19972187 0.52287865
0.036252897 0.052338608 0.07 0.32315677 0.19972187 0.52287865
0.034977295 0.05440554 0.07 0.32315677 0.19972187 0.52287865
0.03370126 0.056473441 0.07 0.32315677 0.19972187 0.52287865
0.032424744 0.058542393 0.07 0.32315677 0.19972187 0.52287865
0.031147702 0.06061247 0.07 0.32315677 0.19972187 0.52287865
0.029870082 0.062683754 0.07 0.32315677 0.19972187 0.52287865
0.028591834 0.064756326 0.07 0.32315677 0.19972187 0.52287865
0.027312914 0.066830255 0.07 0.32315677 0.19972187 0.52287865
0 0.057443816 0.030319829 0.32315677 0.19972187 0.52287865
0.024752853 0.070982531 0.07 0.32315677 0.19972187 0.52287865
0.023471614 0.073061034 0.07 0.32315677 0.19972187 0.52287865
0.022189507 0.075141214 0.07 0.32315677 0.19972187 0.52287865
0.020906478 0.077223167 0.07 0.32315677 0.19972187 0.52287865
0.01962248 0.079306953 0.07 0.32315677 0.19972187 0.52287865
0.039999999 0.0016477194 0.032437962 0.32315677 0.19972187 0.52287865
0.039999999 0.0048227836 0.034812987 0.32315677 0.19972187 0.52287865
0.039999999 0.0079664718 0.037164241 0.32315677 0.19972187 0.52287865
0.039999999 0.011079369 0.039492171 0.32315677 0.19972187 0.52287865
0.038942195 0.01346884 0.039999999 0.32315677 0.19972187 0.52287865
0.037587274 0.015659953 0.039999999 0.32315677 0.19972187 0.52287865
0.036232654 0.017850971 0.039999999 0.32315677 0.19972187 0.52287865
0.034878291 0.020041976 0.039999999 0.32315677 0.19972187 0.52287865
0.033524133 0.02223305 0.039999999 0.32315677 0.19972187 0.52287865
0.032170128 0.024424277 0.039999999 0.32315677 0.19972187 0.52287865
0.030816225 0.026615737 0.039999999 0.32315677 0.19972187 0.52287865
0.029462375 0.028807512 0.039999999 0.32315677 0.19972187 0.52287865
0.028108524 0.030999683 0.039999999 0.32315677 0.19972187 0.52287865
0.026754625 0.033192337 0.039999999 0.32315677 0.19972187 0.52287865
0.025400624 0.035385549 0.039999999 0.32315677 0.19972187 0.52287865
0.024046473 0.03757941 0.039999999 0.32315677 0.19972187 0.52287865
0.034096491 0.045844942 0.058328036 0.32315677 0.19972187 0.52287865
0.037532043 0.050433818 0.06590952 0.32315677 0.19972187 0.52287865
0.038818032 0.053829983 0.07 0.32315677 0.19972187 0.52287865
0.037546966 0.055890735 0.07 0.32315677 0.19972187 0.52287865
0.036275521 0.057952479 0.07 0.32315677 0.19972187 0.52287865
0.035003647 0.060015295 0.07 0.32315677 0.19972187 0.52287865
0.033731297 0.062079255 0.07 0.32315677 0.19972187 0.52287865
0.032458421 0.064144447 0.07 0.32315677 0.19972187 0.52287865
0.031184975 0.06621094 0.07 0.32315677 0.19972187 0.52287865
0.029910909 0.068278812 0.07 0.32315677 0.19972187 0.52287865
0.028636172 0.070348151 0.07 0.32315677 0.19972187 0.52287865
0.026084499 0.074491531 0.07 0.32315677 0.19972187 0.52287865
0.023529569 0.078641713 0.07 0.32315677 0.19972187 0.52287865
0.020364247 0.079973474 0.067160703 0.32315677 0.19972187 0.52287865
0.00095331942 0.075054042 0.039999999 0.32315677 0.19972187 0.52287865
0.039999999 0.001499949 0.02774819 0.32315677 0.19972187 0.52287865
0.039999999 0.004695985 0.030161826 0.32315677 0.19972187 0.52287865
0.039999999 0.0078602359 0.032551065 0.32315677 0.19972187 0.52287865
0.039999999 0.010993295 0.034916364 0.32315677 0.19972187 0.52287865
0.039999999 0.014095747 0.037258171 0.32315677 0.19972187 0.52287865
0.039999999 0.017168159 0.039576914 0.32315677 0.19972187 0.52287865
0.038897395 0.01951207 0.039999999 0.32315677 0.19972187 0.52287865
0.037547216 0.021696195 0.039999999 0.32315677 0.19972187 0.52287865
0.03619729 0.023880418 0.039999999 0.32315677 0.19972187 0.52287865
0.034847569 0.026064824 0.039999999 0.32315677 0.19972187 0.52287865
0.033498 0.028249495 0.039999999 0.32315677 0.19972187 0.52287865
0.032148533 0.030434508 0.039999999 0.32315677 0.19972187 0.52287865
0.030799117 0.032619946 0.039999999 0.32315677 0.19972187 0.52287865
0.029449705 0.034805894 0.039999999 0.32315677 0.19972187 0.52287865
0.028100243 0.036992431 0.039999999 0.32315677 0.19972187 0.52287865
0.026750682 0.039179638 0.039999999 0.32315677 0.19972187 0.52287865
0.034450762 0.046180513 0.054676287 0.32315677 0.19972187 0.52287865
0.037650149 0.050656587 0.061954472 0.32315677 0.19972187 0.52287865
0.039102294 0.05415139 0.06635955 0.32315677 0.19972187 0.52287865
0.039779071 0.05720498 0.069485106 0.32315677 0.19972187 0.52287865
0.038834002 0.059422452 0.07 0.32315677 0.19972187 0.52287865
0.035030887 0.065596171 0.07 0.32315677 0.19972187 0.52287865
0.033762205 0.067656629 0.07 0.32315677 0.19972187 0.52287865
0.032492958 0.06971848 0.07 0.32315677 0.19972187 0.52287865
0.031223092 0.071781814 0.07 0.32315677 0.19972187 0.52287865
0.029952567 0.073846713 0.07 0.32315677 0.19972187 0.52287865
0 0.06385453 0.025890512 0.32315677 0.19972187 0.52287865
0.027409332 0.077981494 0.07 0.32315677 0.19972187 0.52287865
0.024606001 0.079434887 0.067666344 0.32315677 0.19972187 0.52287865
0.019422757 0.079978772 0.06174067 0.32315677 0.19972187 0.52287865
0.0037440092 0.07654465 0.039999999 0.32315677 0.19972187 0.52287865
0.0023839951 0.078758076 0.039999999 0.32315677 0.19972187 0.52287865
0.039999999 0.001350248 0.022997145 0.32315677 0.19972187 0.52287865
0.039999999 0.0045675379 0.025450194 0.32315677 0.19972187 0.52287865
0.039999999 0.0077526248 0.027878208 0.32315677 0.19972187 0.52287865
0.039999999 0.010906114 0.030281654 0.32315677 0.19972187 0.52287865
0.039999999 0.014028599 0.032660987 0.32315677 0.19972187 0.52287865
0.039999999 0.017120657 0.035016663 0.32315677 0.19972187 0.52287865
0.039999999 0.020182854 0.037349112 0.32315677 0.19972187 0.52287865
0.039999999 0.023215741 0.039658766 0.32315677 0.19972187 0.52287865
0.038854238 0.025517799 0.039999999 0.32315677 0.19972187 0.52287865
0.037508775 0.027695425 0.039999999 0.32315677 0.19972187 0.52287865
0.036163513 0.029873345 0.039999999 0.32315677 0.19972187 0.52287865
0.0348184 0.032051638 0.039999999 0.32315677 0.19972187 0.52287865
0.033473395 0.034230385 0.039999999 0.32315677 0.19972187 0.52287865
0.032128438 0.036409665 0.039999999 0.32315677 0.19972187 0.52287865
0.030783486 0.038589563 0.039999999 0.32315677 0.19972187 0.52287865
0.029438486 0.040770158 0.039999999 0.32315677 0.19972187 0.52287865
0.034705687 0.046464715 0.050821193 0.32315677 0.19972187 0.52287865
0.037769582 0.050881855 0.057955001 0.32315677 0.19972187 0.52287865
0.03915979 0.054358482 0.062310368 0.32315677 0.19972187 0.52287865
0.039813459 0.057414699 0.065437831 0.32315677 0.19972187 0.52287865
0.039989173 0.060199715 0.067769565 0.32315677 0.19972187 0.52287865
0.039782546 0.062773831 0.069469251 0.32315677 0.19972187 0.52287865
0.038851194 0.064985976 0.07 0.32315677 0.19972187 0.52287865
0.037587713 0.06703908 0.07 0.32315677 0.19972187 0.52287865
0.036323763 0.069093525 0.07 0.32315677 0.19972187 0.52287865
0.035059299 0.071149394 0.07 0.32315677 0.19972187 0.52287865
0.033794276 0.07320676 0.07 0.32315677 0.19972187 0.52287865
0.032528639 0.075265706 0.07 0.32315677 0.19972187 0.52287865
0.03048295 0.076999485 0.068790756 0.32315677 0.19972187 0.52287865
0.027694887 0.078444362 0.066446222 0.32315677 0.19972187 0.52287865
0.024023347 0.079563126 0.062764116 0.32315677 0.19972187 0.52287865
0.018243939 0.079897456 0.055886514 0.32315677 0.19972187 0.52287865
0.0065176785 0.078026168 0.039999999 0.32315677 0.19972187 0.52287865
0.004542226 0.079999998 0.03905699 0.32315677 0.19972187 0.52287865
0.039999999 0.0011985722 0.018183429 0.32315677 0.19972187 0.52287865
0.039999999 0.0044374056 0.020676725 0.32315677 0.19972187 0.52287865
0.039999999 0.0076436084 0.023144323 0.32315677 0.19972187 0.52287865
0.039999999 0.0108178 0.025586708 0.32315677 0.19972187 0.52287865
0.039999999 0.013960583 0.028004352 0.32315677 0.19972187 0.52287865
0.039999999 0.017072547 0.030397719 0.32315677 0.19972187 0.52287865
0.039999999 0.020154266 0.032767255 0.32315677 0.19972187 0.52287865
0.039999999 0.023206301 0.035113405 0.32315677 0.19972187 0.52287865
0.039999999 0.026229203 0.037436597 0.32315677 0.19972187 0.52287865
0.039999999 0.029223505 0.039737251 0.32315677 0.19972187 0.52287865
0.03881301 0.031487439 0.039999999 0.32315677 0.19972187 0.52287865
0.037472226 0.033659048 0.039999999 0.32315677 0.19972187 0.52287865
0.036131598 0.035831142 0.039999999 0.32315677 0.19972187 0.52287865
0.034791075 0.038003799 0.039999999 0.32315677 0.19972187 0.52287865
0.0334506 0.040177096 0.039999999 0.32315677 0.19972187 0.52287865
0.032110132 0.042351119 0.039999999 0.32315677 0.19972187 0.52287865
0.034938414 0.046738695 0.046884783 0.32315677 0.19972187 0.52287865
0.037890371 0.051109679 0.053910196 0.32315677 0.19972187 0.52287865
0.039217956 0.054568 0.058213722 0.32315677 0.19972187 0.52287865
0.039848253 0.057626899 0.061342664 0.32315677 0.19972187 0.52287865
0.039978102 0.060404003 0.063632198 0.32315677 0.19972187 0.52287865
0.039748397 0.062982105 0.065321147 0.32315677 0.19972187 0.52287865
0.039225902 0.065403379 0.06652496 0.32315677 0.19972187 0.52287865
0.038434535 0.067687452 0.067288414 0.32315677 0.19972187 0.52287865
0.037383545 0.069846265 0.067632191 0.32315677 0.19972187 0.52287865
0.036069583 0.071885675 0.067556597 0.32315677 0.19972187 0.52287865
0.034468662 0.073802531 0.067029357 0.32315677 0.19972187 0.52287865
0.032511249 0.075574994 0.065947168 0.32315677 0.19972187 0.52287865
0.030156821 0.077195711 0.064253926 0.32315677 0.19972187 0.52287865
0.027275963 0.078622237 0.061755985 0.32315677 0.19972187 0.52287865
0.023431638 0.079693355 0.057785716 0.32315677 0.19972187 0.52287865
0.016873084 0.079748325 0.049657248 0.32315677 0.19972187 0.52287865
0.009274588 0.079498731 0.039999999 0.32315677 0.19972187 0.52287865
0 0.078732334 0.027859267 0.32315677 0.19972187 0.52287865
0.039999999 0.0010448766 0.013305609 0.32315677 0.19972187 0.52287865
0.039999999 0.0043055485 0.015840005 0.32315677 0.19972187 0.52287865
0.039999999 0.0075331549 0.018348025 0.32315677 0.19972187 0.52287865
0.039999999 0.010728327 0.020830167 0.32315677 0.19972187 0.52287865
0.039999999 0.013891678 0.02328692 0.32315677 0.19972187 0.52287865
0.039999999 0.017023809 0.025718762 0.32315677 0.19972187 0.52287865
0.039999999 0.020125307 0.028126154 0.32315677 0.19972187 0.52287865
0.039999999 0.023196742 0.03050955 0.32315677 0.19972187 0.52287865
0.039999999 0.026238672 0.032869395 0.32315677 0.19972187 0.52287865
0.039999999 0.029251644 0.035206124 0.32315677 0.19972187 0.52287865
0.039999999 0.032236189 0.037520152 0.32315677 0.19972187 0.52287865
0.039999999 0.035192829 0.039811898 0.32315677 0.19972187 0.52287865
0.03877398 0.037422374 0.039999999 0.32315677 0.19972187 0.52287865
0.037437856 0.03958844 0.039999999 0.32315677 0.19972187 0.52287865
0.036101837 0.041755177 0.039999999 0.32315677 0.19972187 0.52287865
0.034765869 0.043922663 0.039999999 0.32315677 0.19972187 0.52287865
0.035173636 0.047015607 0.042906214 0.32315677 0.19972187 0.52287865
0.038012542 0.051340107 0.04981913 0.32315677 0.19972187 0.52287865
0.039276816 0.054779999 0.054068614 0.32315677 0.19972187 0.52287865
0.039883006 0.057841405 0.057197828 0.32315677 0.19972187 0.52287865
0.039966896 0.060610786 0.059444264 0.32315677 0.19972187 0.52287865
0.039713826 0.063192941 0.061121874 0.32315677 0.19972187 0.52287865
0.039166331 0.065617956 0.06230738 0.32315677 0.19972187 0.52287865
0.038347747 0.067905262 0.063045129 0.32315677 0.19972187 0.52287865
0.03726672 0.070066616 0.063355066 0.32315677 0.19972187 0.52287865
0.03591859 0.072107397 0.063235499 0.32315677 0.19972187 0.52287865
0.034248393 0.074011169 0.062604621 0.32315677 0.19972187 0.52287865
0.032241087 0.075780369 0.061445411 0.32315677 0.19972187 0.52287865
0.02982612 0.077394687 0.059653465 0.32315677 0.19972187 0.52287865
0.026800925 0.078782305 0.056918658 0.32315677 0.19972187 0.52287865
0.022741916 0.079790212 0.05259027 0.32315677 0.19972187 0.52287865
0.01458845 0.07925047 0.041918524 0.32315677 0.19972187 0.52287865
0.0022075796 0.079999998 0.026920741 0.32315677 0.19972187 0.52287865
0.039999999 0.00088911451 0.0083622066 0.32315677 0.19972187 0.52287865
0.039999999 0.0041719275 0.010938582 0.32315677 0.19972187 0.52287865
0.039999999 0.0074212314 0.013487883 0.32315677 0.19972187 0.52287865
0.039999999 0.010637669 0.016010625 0.32315677 0.19972187 0.52287865
0.039999999 0.013821865 0.018507311 0.32315677 0.19972187 0.52287865
0.039999999 0.016974434 0.020978432 0.32315677 0.19972187 0.52287865
0.039999999 0.02009597 0.023424467 0.32315677 0.19972187 0.52287865
0.039999999 0.023187058 0.025845885 0.32315677 0.19972187 0.52287865
0.039999999 0.026248263 0.028243141 0.32315677 0.19972187 0.52287865
0.039999999 0.029280145 0.030616684 0.32315677 0.19972187 0.52287865
0.039999999 0.032283243 0.032966945 0.32315677 0.19972187 0.52287865
0.039999999 0.035258085 0.03529435 0.32315677 0.19972187 0.52287865
0.039999999 0.038205195 0.037599318 0.32315677 0.19972187 0.52287865
0.039999999 0.041125074 0.03988225 0.32315677 0.19972187 0.52287865
0.038737431 0.043323949 0.039999999 0.32315677 0.19972187 0.52287865
0.037405938 0.045484934 0.039999999 0.32315677 0.19972187 0.52287865
0.036074501 0.047646776 0.039999999 0.32315677 0.19972187 0.52287865
0.038136121 0.051573195 0.04568084 0.32315677 0.19972187 0.52287865
0.039336376 0.054994527 0.049874019 0.32315677 0.19972187 0.52287865
0.039894123 0.058046468 0.0529631 0.32315677 0.19972187 0.52287865
0.039955549 0.060820121 0.05520466 0.32315677 0.19972187 0.52287865
0.039678823 0.063406408 0.056870304 0.32315677 0.19972187 0.52287865
0.039106008 0.065835238 0.058036737 0.32315677 0.19972187 0.52287865
0.038259856 0.068125844 0.058747847 0.32315677 0.19972187 0.52287865
0.037148394 0.070289798 0.059022814 0.32315677 0.19972187 0.52287865
0.035738137 0.072319835 0.058813501 0.32315677 0.19972187 0.52287865
0.034025148 0.074222632 0.058120094 0.32315677 0.19972187 0.52287865
0.031967197 0.075988583 0.05688151 0.32315677 0.19972187 0.52287865
0.029490732 0.077596478 0.05498784 0.32315677 0.19972187 0.52287865
0.02631872 0.078944787 0.052008338 0.32315677 0.19972187 0.52287865
0.021997068 0.079871237 0.047240146 0.32315677 0.19972187 0.52287865
0.015482333 0.079999998 0.039065916 0.32315677 0.19972187 0.52287865
0.0083828904 0.079999998 0.030048236 0.32315677 0.19972187 0.52287865
0.0010067219 0.079999998 0.020678293 0.32315677 0.19972187 0.52287865
0.039999999 0.00073123799 0.003351697 0.32315677 0.19972187 0.52287865
0.039999999 0.0040365015 0.0059709577 0.32315677 0.19972187 0.52287865
0.039999999 0.0073078033 0.0085624261 0.32315677 0.19972187 0.52287865
0.039999999 0.010545798 0.011126634 0.32315677 0.19972187 0.52287865
0.039999999 0.013751124 0.0136641 0.32315677 0.19972187 0.52287865
0.039999999 0.016924404 0.016175332 0.32315677 0.19972187 0.52287865
0.039999999 0.020066246 0.018660823 0.32315677 0.19972187 0.52287865
0.039999999 0.023177246 0.021121057 0.32315677 0.19972187 0.52287865
0.039999999 0.026257981 0.023556501 0.32315677 0.19972187 0.52287865
0.039999999 0.029309014 0.025967618 0.32315677 0.19972187 0.52287865
0.039999999 0.032330904 0.028354855 0.32315677 0.19972187 0.52287865
0.039999999 0.035324182 0.030718653 0.32315677 0.19972187 0.52287865
0.039999999 0.038289383 0.033059437 0.32315677 0.19972187 0.52287865
0.039999999 0.041227017 0.035377629 0.32315677 0.19972187 0.52287865
0.039999999 0.044137586 0.03767363 0.32315677 0.19972187 0.52287865
0.039999999 0.047021586 0.039947849 0.32315677 0.19972187 0.52287865
0.038703635 0.049193479 0.039999999 0.32315677 0.19972187 0.52287865
0.038226791 0.051791165 0.041436307 0.32315677 0.19972187 0.52287865
0.039396651 0.055211641 0.045628879 0.32315677 0.19972187 0.52287865
0.039905373 0.058254059 0.0486761 0.32315677 0.19972187 0.52287865
0.039944064 0.061032064 0.050912265 0.32315677 0.19972187 0.52287865
0.039643381 0.063622557 0.052565288 0.32315677 0.19972187 0.52287865
0.039044917 0.066055275 0.053711861 0.32315677 0.19972187 0.52287865
0.038170837 0.068349265 0.054395363 0.32315677 0.19972187 0.52287865
0.037005354 0.070505425 0.054596279 0.32315677 0.19972187 0.52287865
0.035555266 0.07253512 0.05433226 0.32315677 0.19972187 0.52287865
0.033798859 0.07443697 0.053574383 0.32315677 0.19972187 0.52287865
0.031689491 0.076199703 0.052253995 0.32315677 0.19972187 0.52287865
0.029116061 0.077786855 0.050200045 0.32315677 0.19972187 0.52287865
0.025829162 0.079109751 0.047023159 0.32315677 0.19972187 0.52287865
0.021239605 0.079953641 0.041799393 0.32315677 0.19972187 0.52287865
0.014437256 0.079999998 0.033111822 0.32315677 0.19972187 0.52287865
0.007251313 0.079999998 0.023895107 0.32315677 0.19972187 0.52287865
0.039999999 0.003899229 0.00093558937 0.32315677 0.19972187 0.52287865
0.039999999 0.0071928366 0.0035701373 0.32315677 0.19972187 0.52287865
0.039999999 0.010452687 0.0061767031 0.32315677 0.19972187 0.52287865
0.039999999 0.013679432 0.0087558236 0.32315677 0.19972187 0.52287865
0.039999999 0.016873706 0.011308019 0.32315677 0.19972187 0.52287865
0.039999999 0.020036129 0.013833801 0.32315677 0.19972187 0.52287865
0.039999999 0.023167305 0.016333668 0.32315677 0.19972187 0.52287865
0.039999999 0.026267825 0.0188081 0.32315677 0.19972187 0.52287865
0.039999999 0.029338263 0.021257577 0.32315677 0.19972187 0.52287865
0.039999999 0.032379184 0.023682559 0.32315677 0.19972187 0.52287865
0.039999999 0.035391137 0.026083499 0.32315677 0.19972187 0.52287865
0.039999999 0.038374659 0.028460836 0.32315677 0.19972187 0.52287865
0.039999999 0.04133027 0.030815003 0.32315677 0.19972187 0.52287865
0.039999999 0.04425849 0.033146419 0.32315677 0.19972187 0.52287865
0.039999999 0.04715981 0.035455495 0.32315677 0.19972187 0.52287865
0.039999999 0.050034724 0.037742637 0.32315677 0.19972187 0.52287865
0.039995171 0.052881204 0.039999999 0.32315677 0.19972187 0.52287865
0.03945766 0.055431396 0.041332114 0.32315677 0.19972187 0.52287865
0.039916765 0.058464237 0.044335689 0.32315677 0.19972187 0.52287865
0.039932434 0.061246671 0.04656592 0.32315677 0.19972187 0.52287865
0.039607491 0.063841447 0.048205648 0.32315677 0.19972187 0.52287865
0.038983047 0.066278137 0.049331535 0.32315677 0.19972187 0.52287865
0.038061839 0.068566911 0.049955208 0.32315677 0.19972187 0.52287865
0.036857966 0.070722818 0.050106842 0.32315677 0.19972187 0.52287865
0.035369918 0.072753318 0.049790405 0.32315677 0.19972187 0.52287865
0.033569451 0.074654266 0.048966054 0.32315677 0.19972187 0.52287865
0.031407874 0.076413788 0.04756134 0.32315677 0.19972187 0.52287865
0.028716158 0.077971868 0.045309938 0.32315677 0.19972187 0.52287865
0.025328597 0.079275846 0.041955609 0.32315677 0.19972187 0.52287865
0.020374428 0.079999998 0.036113165 0.32315677 0.19972187 0.52287865
0 0.07483197 0.0056416849 0.32315677 0.19972187 0.52287865
0.0060979608 0.079999998 0.01762357 0.32315677 0.19972187 0.52287865
0.039999999 0.010358308 0.0011592961 0.32315677 0.19972187 0.52287865
0.039999999 0.013606767 0.0037809683 0.32315677 0.19972187 0.52287865
0.039999999 0.016822323 0.0063750083 0.32315677 0.19972187 0.52287865
0.039999999 0.020005606 0.008941941 0.32315677 0.19972187 0.52287865
0.039999999 0.023157232 0.011482282 0.32315677 0.19972187 0.52287865
0.039999999 0.026277799 0.013996528 0.32315677 0.19972187 0.52287865
0.039999999 0.0293679 0.016485171 0.32315677 0.19972187 0.52287865
0.039999999 0.032428104 0.018948687 0.32315677 0.19972187 0.52287865
0.039999999 0.035458971 0.021387542 0.32315677 0.19972187 0.52287865
0.039999999 0.038461048 0.023802189 0.32315677 0.19972187 0.52287865
0.039999999 0.041434869 0.026193073 0.32315677 0.19972187 0.52287865
0.039999999 0.044380955 0.028560627 0.32315677 0.19972187 0.52287865
0.039999999 0.047299813 0.030905277 0.32315677 0.19972187 0.52287865
0.039999999 0.050191943 0.033227433 0.32315677 0.19972187 0.52287865
0.039999999 0.053057831 0.035527505 0.32315677 0.19972187 0.52287865
0.039999999 0.055897947 0.037805881 0.32315677 0.19972187 0.52287865
0.039963078 0.058694378 0.039999999 0.32315677 0.19972187 0.52287865
0.039920654 0.061464 0.04216443 0.32315677 0.19972187 0.52287865
0.03957114 0.064063139 0.043790169 0.32315677 0.19972187 0.52287865
0.03890837 0.066498257 0.044874344 0.32315677 0.19972187 0.52287865
0.037946183 0.068785049 0.04544761 0.32315677 0.19972187 0.52287865
0.036708601 0.070943132 0.045557048 0.32315677 0.19972187 0.52287865
0.03518204 0.072974496 0.04518652 0.32315677 0.19972187 0.52287865
0.033336852 0.074874587 0.044293616 0.32315677 0.19972187 0.52287865
0.031106537 0.076624289 0.042776145 0.32315677 0.19972187 0.52287865
0.028310269 0.07815966 0.04034663 0.32315677 0.19972187 0.52287865
0.026198013 0.079999998 0.039053861 0.32315677 0.19972187 0.52287865
0.019373989 0.079999998 0.030130642 0.32315677 0.19972187 0.52287865
0.012287296 0.079999998 0.020862896 0.32315677 0.19972187 0.52287865
0.004922153 0.079999998 0.011229931 0.32315677 0.19972187 0.52287865
0.039999999 0.01677024 0.0013747676 0.32315677 0.19972187 0.52287865
0.039999999 0.019974668 0.0039837384 0.32315677 0.19972187 0.52287865
0.039999999 0.02314702 0.00656542 0.32315677 0.19972187 0.52287865
0.039999999 0.02628791 0.0091203284 0.32315677 0.19972187 0.52287865
0.039999999 0.029397933 0.011648968 0.32315677 0.19972187 0.52287865
0.039999999 0.032477673 0.014151829 0.32315677 0.19972187 0.52287865
0.039999999 0.035527706 0.016629394 0.32315677 0.19972187 0.52287865
0.039999999 0.038548578 0.019082129 0.32315677 0.19972187 0.52287865
0.039999999 0.041540839 0.021510493 0.32315677 0.19972187 0.52287865
0.039999999 0.044505019 0.023914933 0.32315677 0.19972187 0.52287865
0.039999999 0.047441639 0.026295885 0.32315677 0.19972187 0.52287865
0.039999999 0.050351195 0.028653776 0.32315677 0.19972187 0.52287865
0.039999999 0.053234193 0.030989021 0.32315677 0.19972187 0.52287865
0.039999999 0.056091111 0.033302031 0.32315677 0.19972187 0.52287865
0.039999999 0.058922425 0.035593197 0.32315677 0.19972187 0.52287865
0.039999999 0.061728593 0.037862916 0.32315677 0.19972187 0.52287865
0.039934564 0.064478822 0.039999999 0.32315677 0.19972187 0.52287865
0.038821585 0.06671606 0.040339649 0.32315677 0.19972187 0.52287865
0.037828982 0.069006108 0.040879659 0.32315677 0.19972187 0.52287865
0.036557205 0.071166433 0.040945496 0.32315677 0.19972187 0.52287865
0.034991574 0.073198721 0.040519144 0.32315677 0.19972187 0.52287865
0.033367712 0.075212605 0.039999999 0.32315677 0.19972187 0.52287865
0.032053728 0.07736446 0.039999999 0.32315677 0.19972187 0.52287865
0.030739421 0.079518199 0.039999999 0.32315677 0.19972187 0.52287865
0.025259659 0.079999998 0.033152819 0.32315677 0.19972187 0.52287865
0.018354576 0.079999998 0.024034655 0.32315677 0.19972187 0.52287865
0.011181175 0.079999998 0.014561013 0.32315677 0.19972187 0.52287865
0.0037231822 0.079999998 0.0047103376 0.32315677 0.19972187 0.52287865
0.039999999 0.023136672 0.0015815562 0.32315677 0.19972187 0.52287865
0.039999999 0.026298156 0.0041779992 0.32315677 0.19972187 0.52287865
0.039999999 0.02942837 0.0067474898 0.32315677 0.19972187 0.52287865
0.039999999 0.032527912 0.0092905341 0.32315677 0.19972187 0.52287865
0.039999999 0.035597354 0.011807628 0.32315677 0.19972187 0.52287865
0.039999999 0.038637273 0.014299253 0.32315677 0.19972187 0.52287865
0.039999999 0.041648213 0.016765883 0.32315677 0.19972187 0.52287865
0.039999999 0.044630721 0.019207977 0.32315677 0.19972187 0.52287865
0.039999999 0.047585323 0.021625984 0.32315677 0.19972187 0.52287865
0.039999999 0.050512534 0.024020346 0.32315677 0.19972187 0.52287865
0.039999999 0.053412855 0.026391488 0.32315677 0.19972187 0.52287865
0.039999999 0.056286778 0.028739834 0.32315677 0.19972187 0.52287865
0.039999999 0.059134793 0.03106579 0.32315677 0.19972187 0.52287865
0.039999999 0.061957359 0.033369757 0.32315677 0.19972187 0.52287865
0.039999999 0.064754941 0.035652131 0.32315677 0.19972187 0.52287865
0.039999999 0.067527987 0.037913285 0.32315677 0.19972187 0.52287865
0.039909899 0.070235744 0.039999999 0.32315677 0.19972187 0.52287865
0.03860135 0.072376288 0.039999999 0.32315677 0.19972187 0.52287865
0.037292682 0.074518502 0.039999999 0.32315677 0.19972187 0.52287865
0.035983842 0.076662451 0.039999999 0.32315677 0.19972187 0.52287865
0.034674786 0.078808226 0.039999999 0.32315677 0.19972187 0.52287865
0.031033028 0.079999998 0.036113467 0.32315677 0.19972187 0.52287865
0.02430363 0.079999998 0.027140638 0.32315677 0.19972187 0.52287865
0.017315604 0.079999998 0.017821707 0.32315677 0.19972187 0.52287865
0.010053426 0.079999998 0.0081359083 0.32315677 0.19972187 0.52287865
0.039999999 0.029459223 0.001779217 0.32315677 0.19972187 0.52287865
0.039999999 0.03257883 0.0043633054 0.32315677 0.19972187 0.52287865
0.039999999 0.035667948 0.0069207712 0.32315677 0.19972187 0.52287865
0.039999999 0.038727157 0.009452112 0.32315677 0.19972187 0.52287865
0.039999999 0.041757025 0.011957814 0.32315677 0.19972187 0.52287865
0.039999999 0.044758096 0.014438353 0.32315677 0.19972187 0.52287865
0.039999999 0.047730912 0.01689419 0.32315677 0.19972187 0.52287865
0.039999999 0.050675996 0.01932578 0.32315677 0.19972187 0.52287865
0.039999999 0.053593859 0.021733563 0.32315677 0.19972187 0.52287865
0.039999999 0.056485005 0.024117975 0.32315677 0.19972187 0.52287865
0.039999999 0.059349921 0.026479432 0.32315677 0.19972187 0.52287865
0.039999999 0.062189087 0.02881835 0.32315677 0.19972187 0.52287865
0.039999999 0.06500297 0.031135133 0.32315677 0.19972187 0.52287865
0.039999999 0.067792028 0.03343017 0.32315677 0.19972187 0.52287865
0.039999999 0.0705567 0.035703853 0.32315677 0.19972187 0.52287865
0.039999999 0.073297441 0.037956551 0.32315677 0.19972187 0.52287865
0.039889339 0.075966313 0.039999999 0.32315677 0.19972187 0.52287865
0.038585346 0.078104198 0.039999999 0.32315677 0.19972187 0.52287865
0.03669754 0.079999998 0.039014149 0.32315677 0.19972187 0.52287865
0.030138146 0.079999998 0.03018257 0.32315677 0.19972187 0.52287865
0.023329388 0.079999998 0.021013912 0.32315677 0.19972187 0.52287865
0.016256463 0.079999998 0.011488159 0.32315677 0.19972187 0.52287865
0.0089033637 0.079999998 0.001583679 0.32315677 0.19972187 0.52287865
0.039999999 0.0357395 0.0019673076 0.32315677 0.19972187 0.52287865
0.039999999 0.038818263 0.0045392136 0.32315677 0.19972187 0.52287865
0.039999999 0.041867305 0.0070848204 0.32315677 0.19972187 0.52287865
0.039999999 0.044887185 0.009604617 0.32315677 0.19972187 0.52287865
0.039999999 0.047878452 0.012099083 0.32315677 0.19972187 0.52287865
0.039999999 0.050841637 0.014568682 0.32315677 0.19972187 0.52287865
0.039999999 0.053777266 0.01701387 0.32315677 0.19972187 0.52287865
0.039999999 0.05668585 0.019435095 0.32315677 0.19972187 0.52287865
0.039999999 0.05956788 0.021832787 0.32315677 0.19972187 0.52287865
0.039999999 0.062423851 0.024207374 0.32315677 0.19972187 0.52287865
0.039999999 0.065254234 0.026559271 0.32315677 0.19972187 0.52287865
0.039999999 0.068059489 0.028888881 0.32315677 0.19972187 0.52287865
0.039999999 0.070840083 0.031196602 0.32315677 0.19972187 0.52287865
0.039999999 0.073596455 0.033482824 0.32315677 0.19972187 0.52287865
0.039999999 0.076329038 0.035747919 0.32315677 0.19972187 0.52287865
0.039999999 0.079038255 0.037992265 0.32315677 0.19972187 0.52287865
0.035861664 0.079999998 0.03316211 0.32315677 0.19972187 0.52287865
0.014999818 0.074205346 0 0.32315677 0.19972187 0.52287865
0.022336369 0.079999998 0.014769098 0.32315677 0.19972187 0.52287865
0.015176521 0.079999998 0.0050302143 0.32315677 0.19972187 0.52287865
0.039999999 0.041979089 0.002145387 0.32315677 0.19972187 0.52287865
0.039999999 0.045018025 0.0047052815 0.32315677 0.19972187 0.52287865
0.039999999 0.048027981 0.0072391941 0.32315677 0.19972187 0.52287865
0.039999999 0.051009506 0.0097476067 0.32315677 0.19972187 0.52287865
0.039999999 0.053963128 0.012230988 0.32315677 0.19972187 0.52287865
0.039999999 0.05688937 0.014689796 0.32315677 0.19972187 0.52287865
0.039999999 0.05978873 0.017124478 0.32315677 0.19972187 0.52287865
0.039999999 0.062661715 0.019535474 0.32315677 0.19972187 0.52287865
0.039999999 0.065508798 0.021923209 0.32315677 0.19972187 0.52287865
0.039999999 0.068330467 0.024288101 0.32315677 0.19972187 0.52287865
0.039999999 0.071127161 0.026630558 0.32315677 0.19972187 0.52287865
0.039999999 0.073899359 0.028950978 0.32315677 0.19972187 0.52287865
0.039999999 0.076647483 0.031249754 0.32315677 0.19972187 0.52287865
0.039999999 0.079371981 0.033527266 0.32315677 0.19972187 0.52287865
0.035010073 0.079999998 0.027200066 0.32315677 0.19972187 0.52287865
0.017796386 0.075736411 0 0.32315677 0.19972187 0.52287865
0.021323984 0.079999998 0.0084025012 0.32315677 0.19972187 0.52287865
0.039999999 0.048179552 0.0023130155 0.32315677 0.19972187 0.52287865
0.039999999 0.051179655 0.0048610684 0.32315677 0.19972187 0.52287865
0.039999999 0.054151505 0.0073834513 0.32315677 0.19972187 0.52287865
0.039999999 0.057095628 0.0098806378 0.32315677 0.19972187 0.52287865
0.039999999 0.060012542 0.012353087 0.32315677 0.19972187 0.52287865
0.039999999 0.062902749 0.014801252 0.32315677 0.19972187 0.52287865
0.039999999 0.065766752 0.017225571 0.32315677 0.19972187 0.52287865
0.039999999 0.068605013 0.019626474 0.32315677 0.19972187 0.52287865
0.039999999 0.071418025 0.022004383 0.32315677 0.19972187 0.52287865
0.039999999 0.074206233 0.024359707 0.32315677 0.19972187 0.52287865
0.039999999 0.076970093 0.026692849 0.32315677 0.19972187 0.52287865
0.039999999 0.079710037 0.029004199 0.32315677 0.19972187 0.52287865
0.034142293 0.079999998 0.021124661 0.32315677 0.19972187 0.52287865
0.020577755 0.077259153 0 0.32315677 0.19972187 0.52287865
0.020291625 0.079999998 0.0019102779 0.32315677 0.19972187 0.52287865
0.039999999 0.054342449 0.0024697543 0.32315677 0.19972187 0.52287865
0.039999999 0.057304688 0.0050061345 0.32315677 0.19972187 0.52287865
0.039999999 0.060239378 0.0075171511 0.32315677 0.19972187 0.52287865
0.039999999 0.063147038 0.010003268 0.32315677 0.19972187 0.52287865
0.039999999 0.066028155 0.012464939 0.32315677 0.19972187 0.52287865
0.039999999 0.06888324 0.014902606 0.32315677 0.19972187 0.52287865
0.039999999 0.071712755 0.017316703 0.32315677 0.19972187 0.52287865
