# .PCD v0.7 - Point Cloud Data file format
VERSION 0.7
FIELDS x y z vp_x vp_y vp_z
SIZE 4 4 4 4 4 4
TYPE F F F F F F
COUNT 1 1 1 1 1 1
WIDTH 703
HEIGHT 1
VIEWPOINT 0 0 0 1 0 0 0
POINTS 703
DATA ascii
0.0042532496 0.071102865 0.07 0.32315677 -0.19972187 0.52287865
0.0056323619 0.073414713 0.07 0.32315677 -0.19972187 0.52287865
0.00034428795 0.057540886 0.07 0.32315677 -0.19972187 0.52287865
0.0017207877 0.059828587 0.07 0.32315677 -0.19972187 0.52287865
0.0030970224 0.062119082 0.07 0.32315677 -0.19972187 0.52287865
0.0044730506 0.064412482 0.07 0.32315677 -0.19972187 0.52287865
0.0058489316 0.066708878 0.07 0.32315677 -0.19972187 0.52287865
0.0072247237 0.06900838 0.07 0.32315677 -0.19972187 0.52287865
0.0086004864 0.071311094 0.07 0.32315677 -0.19972187 0.52287865
0.009976279 0.073617116 0.07 0.32315677 -0.19972187 0.52287865
0.01135216 0.07592655 0.07 0.32315677 -0.19972187 0.52287865
0.012728188 0.078239508 0.07 0.32315677 -0.19972187 0.52287865
0.001936682 0.053231005 0.07 0.32315677 -0.19972187 0.52287865
0.00010492645 0.058064733 0.065462112 0.32315677 -0.19972187 0.52287865
8.1679282e-05 0.061506495 0.063457228 0.32315677 -0.19972187 0.52287865
0.0060553662 0.060067944 0.07 0.32315677 -0.19972187 0.52287865
0.0074278875 0.062352467 0.07 0.32315677 -0.19972187 0.52287865
0.0088003194 0.064639933 0.07 0.32315677 -0.19972187 0.52287865
0.0040876647 0.072114713 0.061195105 0.32315677 -0.19972187 0.52287865
0.011545151 0.069224097 0.07 0.32315677 -0.19972187 0.52287865
0.012917667 0.071520999 0.07 0.32315677 -0.19972187 0.52287865
0.014290329 0.073821247 0.07 0.32315677 -0.19972187 0.52287865
0.015663195 0.076124959 0.07 0.32315677 -0.19972187 0.52287865
0.017036324 0.078432225 0.07 0.32315677 -0.19972187 0.52287865
0.0035129562 0.048956744 0.07 0.32315677 -0.19972187 0.52287865
0.004882697 0.051221948 0.07 0.32315677 -0.19972187 0.52287865
0.0062521743 0.053489633 0.07 0.32315677 -0.19972187 0.52287865
0.0076214452 0.055759899 0.07 0.32315677 -0.19972187 0.52287865
0.0089905681 0.058032848 0.07 0.32315677 -0.19972187 0.52287865
0.010359601 0.060308576 0.07 0.32315677 -0.19972187 0.52287865
0.011728602 0.062587187 0.07 0.32315677 -0.19972187 0.52287865
0.013097631 0.064868778 0.07 0.32315677 -0.19972187 0.52287865
0.014466743 0.067153454 0.07 0.32315677 -0.19972187 0.52287865
0.015835999 0.069441311 0.07 0.32315677 -0.19972187 0.52287865
0.017205454 0.071732454 0.07 0.32315677 -0.19972187 0.52287865
0.018575171 0.074026994 0.07 0.32315677 -0.19972187 0.52287865
0.019945208 0.076325022 0.07 0.32315677 -0.19972187 0.52287865
0.021315621 0.078626648 0.07 0.32315677 -0.19972187 0.52287865
0.0064398502 0.046971746 0.07 0.32315677 -0.19972187 0.52287865
0.0078058913 0.049228456 0.07 0.32315677 -0.19972187 0.52287865
0.0091717271 0.051487591 0.07 0.32315677 -0.19972187 0.52287865
0.00012237899 0.06219374 0.054912172 0.32315677 -0.19972187 0.52287865
0.01190301 0.056013536 0.07 0.32315677 -0.19972187 0.52287865
0.013268573 0.058280539 0.07 0.32315677 -0.19972187 0.52287865
0.014634161 0.060550369 0.07 0.32315677 -0.19972187 0.52287865
0.015999831 0.062823117 0.07 0.32315677 -0.19972187 0.52287865
0.017365642 0.065098889 0.07 0.32315677 -0.19972187 0.52287865
0.018731652 0.067377783 0.07 0.32315677 -0.19972187 0.52287865
0.010930654 0.07780847 0.056300819 0.32315677 -0.19972187 0.52287865
0.021464499 0.071945347 0.07 0.32315677 -0.19972187 0.52287865
0.022831453 0.074234225 0.07 0.32315677 -0.19972187 0.52287865
0.020465663 0.079976223 0.064344771 0.32315677 -0.19972187 0.52287865
0.025566714 0.078822665 0.07 0.32315677 -0.19972187 0.52287865
0.009344276 0.045001987 0.07 0.32315677 -0.19972187 0.52287865
0.010706639 0.047250271 0.07 0.32315677 -0.19972187 0.52287865
0.012068853 0.049500924 0.07 0.32315677 -0.19972187 0.52287865
0.013430975 0.05175405 0.07 0.32315677 -0.19972187 0.52287865
0.00080611877 0.065518655 0.04945806 0.32315677 -0.19972187 0.52287865
0.016155176 0.0562681 0.07 0.32315677 -0.19972187 0.52287865
0.017517367 0.058529221 0.07 0.32315677 -0.19972187 0.52287865
0.018879697 0.060793202 0.07 0.32315677 -0.19972187 0.52287865
0.020242222 0.06306015 0.07 0.32315677 -0.19972187 0.52287865
0.021605 0.065330155 0.07 0.32315677 -0.19972187 0.52287865
0.022968089 0.067603327 0.07 0.32315677 -0.19972187 0.52287865
0.024331547 0.069879755 0.07 0.32315677 -0.19972187 0.52287865
0.025695432 0.072159551 0.07 0.32315677 -0.19972187 0.52287865
0.027059803 0.074442819 0.07 0.32315677 -0.19972187 0.52287865
0.028424716 0.076729648 0.07 0.32315677 -0.19972187 0.52287865
0.012226601 0.043047212 0.07 0.32315677 -0.19972187 0.52287865
0.013585307 0.04528714 0.07 0.32315677 -0.19972187 0.52287865
0.01494392 0.047529388 0.07 0.32315677 -0.19972187 0.52287865
0.016302498 0.049774047 0.07 0.32315677 -0.19972187 0.52287865
0.00089466514 0.065837562 0.045144793 0.32315677 -0.19972187 0.52287865
0.0019269063 0.068545707 0.044547673 0.32315677 -0.19972187 0.52287865
0.020378588 0.056523483 0.07 0.32315677 -0.19972187 0.52287865
0.004972646 0.073156588 0.044810873 0.32315677 -0.19972187 0.52287865
0.023096846 0.061036967 0.07 0.32315677 -0.19972187 0.52287865
0.02445641 0.063298158 0.07 0.32315677 -0.19972187 0.52287865
0.025816334 0.065562457 0.07 0.32315677 -0.19972187 0.52287865
0.027176684 0.067829952 0.07 0.32315677 -0.19972187 0.52287865
0.028537512 0.070100747 0.07 0.32315677 -0.19972187 0.52287865
0.021796022 0.079893112 0.057486746 0.32315677 -0.19972187 0.52287865
0.031260837 0.074652649 0.07 0.32315677 -0.19972187 0.52287865
0.015087184 0.041107185 0.07 0.32315677 -0.19972187 0.52287865
0.016442254 0.043338824 0.07 0.32315677 -0.19972187 0.52287865
0.017797286 0.045572728 0.07 0.32315677 -0.19972187 0.52287865
0.01915234 0.047808994 0.07 0.32315677 -0.19972187 0.52287865
0.020507468 0.050047714 0.07 0.32315677 -0.19972187 0.52287865
0.021862729 0.052288987 0.07 0.32315677 -0.19972187 0.52287865
0.023218179 0.054532912 0.07 0.32315677 -0.19972187 0.52287865
0.024573876 0.056779578 0.07 0.32315677 -0.19972187 0.52287865
0.025929876 0.059029091 0.07 0.32315677 -0.19972187 0.52287865
0.027286235 0.061281547 0.07 0.32315677 -0.19972187 0.52287865
0.028643012 0.063537039 0.07 0.32315677 -0.19972187 0.52287865
0.030000264 0.065795675 0.07 0.32315677 -0.19972187 0.52287865
0.031358048 0.068057552 0.07 0.32315677 -0.19972187 0.52287865
0.03271642 0.070322759 0.07 0.32315677 -0.19972187 0.52287865
0.034075439 0.072591409 0.07 0.32315677 -0.19972187 0.52287865
0.016458049 0.040330928 0.067821398 0.32315677 -0.19972187 0.52287865
0.019277833 0.041405082 0.07 0.32315677 -0.19972187 0.52287865
0.020629305 0.043630712 0.07 0.32315677 -0.19972187 0.52287865
0.02198085 0.045858648 0.07 0.32315677 -0.19972187 0.52287865
0.023332527 0.048088986 0.07 0.32315677 -0.19972187 0.52287865
0.024684388 0.050321821 0.07 0.32315677 -0.19972187 0.52287865
0.026036493 0.052557252 0.07 0.32315677 -0.19972187 0.52287865
0.027388897 0.05479537 0.07 0.32315677 -0.19972187 0.52287865
0.028741658 0.057036273 0.07 0.32315677 -0.19972187 0.52287865
0.0066501228 0.079999998 0.033770096 0.32315677 -0.19972187 0.52287865
0.031448469 0.061526831 0.07 0.32315677 -0.19972187 0.52287865
0.032802638 0.063776679 0.07 0.32315677 -0.19972187 0.52287865
0.034157388 0.066029705 0.07 0.32315677 -0.19972187 0.52287865
0.035512779 0.068286002 0.07 0.32315677 -0.19972187 0.52287865
0.036868867 0.070545681 0.07 0.32315677 -0.19972187 0.52287865
0.016951153 0.040243182 0.064319208 0.32315677 -0.19972187 0.52287865
0.021369005 0.040060434 0.068911836 0.32315677 -0.19972187 0.52287865
0.02344032 0.041703098 0.07 0.32315677 -0.19972187 0.52287865
0.024788378 0.043922771 0.07 0.32315677 -0.19972187 0.52287865
0 0.067780107 0.030148441 0.32315677 -0.19972187 0.52287865
0.027485099 0.048369262 0.07 0.32315677 -0.19972187 0.52287865
0.028833875 0.050596267 0.07 0.32315677 -0.19972187 0.52287865
0.030183002 0.052825905 0.07 0.32315677 -0.19972187 0.52287865
0.031532537 0.055058271 0.07 0.32315677 -0.19972187 0.52287865
0.0072376779 0.079999998 0.029989533 0.32315677 -0.19972187 0.52287865
0.034233052 0.059531577 0.07 0.32315677 -0.19972187 0.52287865
0.035584148 0.061772712 0.07 0.32315677 -0.19972187 0.52287865
0.036935877 0.064016961 0.07 0.32315677 -0.19972187 0.52287865
0.038288299 0.066264421 0.07 0.32315677 -0.19972187 0.52287865
0.036052704 0.071910568 0.064267419 0.32315677 -0.19972187 0.52287865
0.0008281272 0.046246186 0.039999999 0.32315677 -0.19972187 0.52287865
0.0094022015 0.043069597 0.05074542 0.32315677 -0.19972187 0.52287865
0.017397344 0.040194642 0.060712159 0.32315677 -0.19972187 0.52287865
0.021720901 0.040098716 0.065193877 0.32315677 -0.19972187 0.52287865
0.025127122 0.040679816 0.06831684 0.32315677 -0.19972187 0.52287865
0.02757526 0.042001128 0.07 0.32315677 -0.19972187 0.52287865
0.028920084 0.044214904 0.07 0.32315677 -0.19972187 0.52287865
0.030265199 0.046431072 0.07 0.32315677 -0.19972187 0.52287865
0.03161066 0.048649717 0.07 0.32315677 -0.19972187 0.52287865
0.032956526 0.050870944 0.07 0.32315677 -0.19972187 0.52287865
0.034302853 0.053094845 0.07 0.32315677 -0.19972187 0.52287865
0.035649691 0.055321511 0.07 0.32315677 -0.19972187 0.52287865
0.036997098 0.057551041 0.07 0.32315677 -0.19972187 0.52287865
0.038345136 0.059783533 0.07 0.32315677 -0.19972187 0.52287865
0.020220695 0.079999998 0.038888421 0.32315677 -0.19972187 0.52287865
0.039017744 0.066153146 0.066748336 0.32315677 -0.19972187 0.52287865
0.00093823043 0.039579164 0.039999999 0.32315677 -0.19972187 0.52287865
0.0023675975 0.041916177 0.039999999 0.32315677 -0.19972187 0.52287865
0.0037969199 0.044254996 0.039999999 0.32315677 -0.19972187 0.52287865
0.010881571 0.042214241 0.048589393 0.32315677 -0.19972187 0.52287865
0.017847285 0.040145695 0.0570748 0.32315677 -0.19972187 0.52287865
0.022075983 0.040137347 0.061442263 0.32315677 -0.19972187 0.52287865
0.025446342 0.040761262 0.064527772 0.32315677 -0.19972187 0.52287865
0.028245507 0.041810382 0.066757753 0.32315677 -0.19972187 0.52287865
0.030689115 0.043124557 0.068455353 0.32315677 -0.19972187 0.52287865
0.03283241 0.044669155 0.069699347 0.32315677 -0.19972187 0.52287865
0 0.076044694 0.016105521 0.32315677 -0.19972187 0.52287865
0.035709806 0.048930258 0.07 0.32315677 -0.19972187 0.52287865
0.037052933 0.051145758 0.07 0.32315677 -0.19972187 0.52287865
0.0084270313 0.079999998 0.022336768 0.32315677 -0.19972187 0.52287865
0.03954272 0.055763543 0.069683261 0.32315677 -0.19972187 0.52287865
0.039938048 0.058856919 0.068157017 0.32315677 -0.19972187 0.52287865
0.039837979 0.062435769 0.065815769 0.32315677 -0.19972187 0.52287865
0.038695756 0.06703186 0.061761316 0.32315677 -0.19972187 0.52287865
0.0010426034 0.032966409 0.039999999 0.32315677 -0.19972187 0.52287865
0.002468124 0.035291906 0.039999999 0.32315677 -0.19972187 0.52287865
0.0038935412 0.037618969 0.039999999 0.32315677 -0.19972187 0.52287865
0.0053189131 0.039947689 0.039999999 0.32315677 -0.19972187 0.52287865
0.0067442968 0.042278167 0.039999999 0.32315677 -0.19972187 0.52287865
0.011816667 0.041781615 0.045590762 0.32315677 -0.19972187 0.52287865
0.018301038 0.040096331 0.053406619 0.32315677 -0.19972187 0.52287865
0.022434307 0.040176328 0.0576564 0.32315677 -0.19972187 0.52287865
0.025745561 0.040862087 0.060667314 0.32315677 -0.19972187 0.52287865
0.028527321 0.041940764 0.062878855 0.32315677 -0.19972187 0.52287865
0.030954702 0.043284353 0.064554505 0.32315677 -0.19972187 0.52287865
0.033068027 0.044870775 0.065750226 0.32315677 -0.19972187 0.52287865
0.034894757 0.046687298 0.06650269 0.32315677 -0.19972187 0.52287865
0.036473658 0.048710331 0.066867225 0.32315677 -0.19972187 0.52287865
0.037804931 0.050948527 0.066838548 0.32315677 -0.19972187 0.52287865
0.038876466 0.053421669 0.066391528 0.32315677 -0.19972187 0.52287865
0.039615165 0.056205362 0.065402143 0.32315677 -0.19972187 0.52287865
0.039965473 0.05936297 0.06377241 0.32315677 -0.19972187 0.52287865
0.03973037 0.063092038 0.061172001 0.32315677 -0.19972187 0.52287865
0.038323436 0.06796629 0.056626745 0.32315677 -0.19972187 0.52287865
0.029599681 0.079884037 0.039999999 0.32315677 -0.19972187 0.52287865
0.0011416659 0.026405977 0.039999999 0.32315677 -0.19972187 0.52287865
0.0025633671 0.028720593 0.039999999 0.32315677 -0.19972187 0.52287865
0.0039849072 0.031036535 0.039999999 0.32315677 -0.19972187 0.52287865
0.0054063429 0.033353899 0.039999999 0.32315677 -0.19972187 0.52287865
0.0068277316 0.03567278 0.039999999 0.32315677 -0.19972187 0.52287865
0.008249132 0.037993275 0.039999999 0.32315677 -0.19972187 0.52287865
0.0096706003 0.040315472 0.039999999 0.32315677 -0.19972187 0.52287865
0.012711206 0.041382086 0.042505208 0.32315677 -0.19972187 0.52287865
0.018758671 0.040046543 0.04970707 0.32315677 -0.19972187 0.52287865
0.022795932 0.040215667 0.053835668 0.32315677 -0.19972187 0.52287865
0.026047666 0.040963881 0.056769617 0.32315677 -0.19972187 0.52287865
0.0288119 0.042072427 0.058961917 0.32315677 -0.19972187 0.52287865
0.031222938 0.043445744 0.060614776 0.32315677 -0.19972187 0.52287865
0.033293895 0.045084719 0.061741393 0.32315677 -0.19972187 0.52287865
0.03510382 0.04693342 0.062460583 0.32315677 -0.19972187 0.52287865
0.036664054 0.04899117 0.062784694 0.32315677 -0.19972187 0.52287865
0.037974019 0.051267445 0.062707059 0.32315677 -0.19972187 0.52287865
0.039004128 0.053797811 0.062173855 0.32315677 -0.19972187 0.52287865
0.039688457 0.056652348 0.061071001 0.32315677 -0.19972187 0.52287865
0.03999323 0.059875131 0.059334852 0.32315677 -0.19972187 0.52287865
0.039621349 0.06375692 0.056467328 0.32315677 -0.19972187 0.52287865
0.03780945 0.069042951 0.05118984 0.32315677 -0.19972187 0.52287865
0.032470632 0.077781536 0.039999999 0.32315677 -0.19972187 0.52287865
0.0012358287 0.01989598 0.039999999 0.32315677 -0.19972187 0.52287865
0.0026537371 0.022200329 0.039999999 0.32315677 -0.19972187 0.52287865
0.0040714266 0.024505774 0.039999999 0.32315677 -0.19972187 0.52287865
0.0054889545 0.026812408 0.039999999 0.32315677 -0.19972187 0.52287865
0.0069063781 0.029120324 0.039999999 0.32315677 -0.19972187 0.52287865
0.0083237533 0.031429615 0.039999999 0.32315677 -0.19972187 0.52287865
0.0097411387 0.033740379 0.039999999 0.32315677 -0.19972187 0.52287865
0.011158589 0.036052704 0.039999999 0.32315677 -0.19972187 0.52287865
0.012576164 0.038366687 0.039999999 0.32315677 -0.19972187 0.52287865
0.01399392 0.040682424 0.039999999 0.32315677 -0.19972187 0.52287865
0.01917845 0.040029299 0.045910027 0.32315677 -0.19972187 0.52287865
0.023160916 0.040255375 0.049979437 0.32315677 -0.19972187 0.52287865
0.026352711 0.041066669 0.052833989 0.32315677 -0.19972187 0.52287865
0.029099295 0.04220539 0.055006221 0.32315677 -0.19972187 0.52287865
0.031467009 0.043631166 0.056592494 0.32315677 -0.19972187 0.52287865
0.033522118 0.045300893 0.057690855 0.32315677 -0.19972187 0.52287865
0.035315096 0.047182143 0.058375727 0.32315677 -0.19972187 0.52287865
0.036856502 0.049275029 0.05865822 0.32315677 -0.19972187 0.52287865
0.038144961 0.051589865 0.058530215 0.32315677 -0.19972187 0.52287865
0.039114416 0.054195046 0.057877552 0.32315677 -0.19972187 0.52287865
0.039762612 0.057104602 0.056688789 0.32315677 -0.19972187 0.52287865
0.039976437 0.060434777 0.054769002 0.32315677 -0.19972187 0.52287865
0.039490774 0.064449333 0.051666941 0.32315677 -0.19972187 0.52287865
0.037171487 0.070246235 0.045471739 0.32315677 -0.19972187 0.52287865
0.035321098 0.075694032 0.039999999 0.32315677 -0.19972187 0.52287865
0.036749605 0.078050926 0.039999999 0.32315677 -0.19972187 0.52287865
0.0013254945 0.013434587 0.039999999 0.32315677 -0.19972187 0.52287865
0.0027396353 0.015729271 0.039999999 0.32315677 -0.19972187 0.52287865
0.0041535012 0.018024825 0.039999999 0.32315677 -0.19972187 0.52287865
0.0055671488 0.020321336 0.039999999 0.32315677 -0.19972187 0.52287865
0.0069806343 0.022618901 0.039999999 0.32315677 -0.19972187 0.52287865
0.008394015 0.024917612 0.039999999 0.32315677 -0.19972187 0.52287865
0.0098073464 0.02721756 0.039999999 0.32315677 -0.19972187 0.52287865
0.011220686 0.029518839 0.039999999 0.32315677 -0.19972187 0.52287865
0.01263409 0.031821541 0.039999999 0.32315677 -0.19972187 0.52287865
0.014047616 0.03412576 0.039999999 0.32315677 -0.19972187 0.52287865
0.015461319 0.036431592 0.039999999 0.32315677 -0.19972187 0.52287865
0.016875258 0.038739126 0.039999999 0.32315677 -0.19972187 0.52287865
0.019579966 0.040029299 0.042043984 0.32315677 -0.19972187 0.52287865
0.023497306 0.040321101 0.046036113 0.32315677 -0.19972187 0.52287865
0.026660752 0.041170463 0.048859719 0.32315677 -0.19972187 0.52287865
0.029387474 0.042341396 0.051007692 0.32315677 -0.19972187 0.52287865
0.031713523 0.043818571 0.052528534 0.32315677 -0.19972187 0.52287865
0.033752732 0.045519333 0.053597812 0.32315677 -0.19972187 0.52287865
0.035528626 0.047433522 0.05424729 0.32315677 -0.19972187 0.52287865
0.037051044 0.04956197 0.05448693 0.32315677 -0.19972187 0.52287865
0.038287234 0.051942859 0.054256838 0.32315677 -0.19972187 0.52287865
0.039225977 0.054596882 0.053531524 0.32315677 -0.19972187 0.52287865
0.039837651 0.057562239 0.052254427 0.32315677 -0.19972187 0.52287865
0.039944999 0.061014771 0.05012143 0.32315677 -0.19972187 0.52287865
0.039274085 0.065229826 0.046660196 0.32315677 -0.19972187 0.52287865
0.036727063 0.071276739 0.039999999 0.32315677 -0.19972187 0.52287865
0.038151409 0.073621288 0.039999999 0.32315677 -0.19972187 0.52287865
0.039576914 0.075969093 0.039999999 0.32315677 -0.19972187 0.52287865
0.039999999 0.079309255 0.038282368 0.32315677 -0.19972187 0.52287865
2.7357461e-07 0.0047349646 0.039999999 0.32315677 -0.19972187 0.52287865
0.0014110577 0.0070200171 0.039999999 0.32315677 -0.19972187 0.52287865
0.0028214555 0.0093056234 0.039999999 0.32315677 -0.19972187 0.52287865
0.0042315233 0.011591874 0.039999999 0.32315677 -0.19972187 0.52287865
0.0056413165 0.013878861 0.039999999 0.32315677 -0.19972187 0.52287865
0.0070508923 0.016166674 0.039999999 0.32315677 -0.19972187 0.52287865
0.0084603056 0.018455407 0.039999999 0.32315677 -0.19972187 0.52287865
0.0098696137 0.020745149 0.039999999 0.32315677 -0.19972187 0.52287865
0.011278872 0.023035994 0.039999999 0.32315677 -0.19972187 0.52287865
0.012688138 0.025328031 0.039999999 0.32315677 -0.19972187 0.52287865
0.014097465 0.027621357 0.039999999 0.32315677 -0.19972187 0.52287865
0.015506912 0.029916059 0.039999999 0.32315677 -0.19972187 0.52287865
0.016916534 0.032212231 0.039999999 0.32315677 -0.19972187 0.52287865
0.018326387 0.034509968 0.039999999 0.32315677 -0.19972187 0.52287865
0.019736528 0.036809362 0.039999999 0.32315677 -0.19972187 0.52287865
0.021147015 0.039110504 0.039999999 0.32315677 -0.19972187 0.52287865
0.023828737 0.040394045 0.042041454 0.32315677 -0.19972187 0.52287865
0.026971841 0.041275289 0.044846088 0.32315677 -0.19972187 0.52287865
0.0296521 0.042500615 0.046925921 0.32315677 -0.19972187 0.52287865
0.031962607 0.044007923 0.04842221 0.32315677 -0.19972187 0.52287865
0.03398579 0.045740087 0.049461424 0.32315677 -0.19972187 0.52287865
0.035744458 0.047687605 0.050074406 0.32315677 -0.19972187 0.52287865
0.037231229 0.049866445 0.050242674 0.32315677 -0.19972187 0.52287865
0.038429912 0.052300945 0.049932748 0.32315677 -0.19972187 0.52287865
0.039338838 0.055003408 0.049134731 0.32315677 -0.19972187 0.52287865
0.039893948 0.058043245 0.047733858 0.32315677 -0.19972187 0.52287865
0.039913163 0.061602216 0.04541415 0.32315677 -0.19972187 0.52287865
0.039054312 0.066021442 0.041582096 0.32315677 -0.19972187 0.52287865
0.039540578 0.069227487 0.039999999 0.32315677 -0.19972187 0.52287865
0.039999999 0.072487772 0.038354069 0.32315677 -0.19972187 0.52287865
0.039999999 0.076225534 0.035899263 0.32315677 -0.19972187 0.52287865
0.0014929057 0.00065054017 0.039999999 0.32315677 -0.19972187 0.52287865
0.0028995841 0.0029276407 0.039999999 0.32315677 -0.19972187 0.52287865
0.0043058782 0.0052051661 0.039999999 0.32315677 -0.19972187 0.52287865
0.0057118433 0.0074832072 0.039999999 0.32315677 -0.19972187 0.52287865
0.007117535 0.0097618531 0.039999999 0.32315677 -0.19972187 0.52287865
0.0085230097 0.012041196 0.039999999 0.32315677 -0.19972187 0.52287865
0.0099283224 0.014321325 0.039999999 0.32315677 -0.19972187 0.52287865
0.011333529 0.016602334 0.039999999 0.32315677 -0.19972187 0.52287865
0.012738685 0.018884309 0.039999999 0.32315677 -0.19972187 0.52287865
0.014143847 0.021167343 0.039999999 0.32315677 -0.19972187 0.52287865
0.015549069 0.023451529 0.039999999 0.32315677 -0.19972187 0.52287865
0.016954409 0.025736956 0.039999999 0.32315677 -0.19972187 0.52287865
0.01835992 0.028023716 0.039999999 0.32315677 -0.19972187 0.52287865
0.019765662 0.030311903 0.039999999 0.32315677 -0.19972187 0.52287865
0.021171687 0.032601606 0.039999999 0.32315677 -0.19972187 0.52287865
0.022578053 0.034892917 0.039999999 0.32315677 -0.19972187 0.52287865
0.023984816 0.03718593 0.039999999 0.32315677 -0.19972187 0.52287865
0.025392031 0.039480735 0.039999999 0.32315677 -0.19972187 0.52287865
0.027286042 0.041381158 0.040792346 0.32315677 -0.19972187 0.52287865
0.029919466 0.042661481 0.042801872 0.32315677 -0.19972187 0.52287865
0.032214314 0.044199273 0.044272698 0.32315677 -0.19972187 0.52287865
0.034221336 0.045963198 0.045280848 0.32315677 -0.19972187 0.52287865
0.035957441 0.047948923 0.045847576 0.32315677 -0.19972187 0.52287865
0.037400473 0.050185658 0.045929357 0.32315677 -0.19972187 0.52287865
0.038574234 0.052663155 0.045558903 0.32315677 -0.19972187 0.52287865
0.039453033 0.055414729 0.044686116 0.32315677 -0.19972187 0.52287865
0.039921779 0.058556739 0.043108463 0.32315677 -0.19972187 0.52287865
0.039876398 0.062201452 0.040638138 0.32315677 -0.19972187 0.52287865
0.039999999 0.065728903 0.038430296 0.32315677 -0.19972187 0.52287865
0.039999999 0.069411397 0.035985682 0.32315677 -0.19972187 0.52287865
0.039999999 0.073135488 0.033514179 0.32315677 -0.19972187 0.52287865
0.039999999 0.076902002 0.031015236 0.32315677 -0.19972187 0.52287865
0.0057791057 0.001132653 0.039999999 0.32315677 -0.19972187 0.52287865
0.007180939 0.003402703 0.039999999 0.32315677 -0.19972187 0.52287865
0.0085825007 0.0056732306 0.039999999 0.32315677 -0.19972187 0.52287865
0.0099838451 0.0079443259 0.039999999 0.32315677 -0.19972187 0.52287865
0.011385028 0.010216078 0.039999999 0.32315677 -0.19972187 0.52287865
0.012786104 0.012488578 0.039999999 0.32315677 -0.19972187 0.52287865
0.01418713 0.014761914 0.039999999 0.32315677 -0.19972187 0.52287865
0.01558816 0.017036177 0.039999999 0.32315677 -0.19972187 0.52287865
0.01698925 0.019311458 0.039999999 0.32315677 -0.19972187 0.52287865
0.018390454 0.021587847 0.039999999 0.32315677 -0.19972187 0.52287865
0.019791828 0.023865433 0.039999999 0.32315677 -0.19972187 0.52287865
0.021193428 0.026144309 0.039999999 0.32315677 -0.19972187 0.52287865
0.022595309 0.028424565 0.039999999 0.32315677 -0.19972187 0.52287865
0.023997528 0.030706292 0.039999999 0.32315677 -0.19972187 0.52287865
0.025400138 0.03298958 0.039999999 0.32315677 -0.19972187 0.52287865
0.026803197 0.035274524 0.039999999 0.32315677 -0.19972187 0.52287865
0.02820676 0.037561212 0.039999999 0.32315677 -0.19972187 0.52287865
0.029610882 0.039849736 0.039999999 0.32315677 -0.19972187 0.52287865
0.031015621 0.042140193 0.039999999 0.32315677 -0.19972187 0.52287865
0.032468688 0.044392649 0.04007915 0.32315677 -0.19972187 0.52287865
0.034459423 0.046188716 0.041055202 0.32315677 -0.19972187 0.52287865
0.036149934 0.048232846 0.041535962 0.32315677 -0.19972187 0.52287865
0.037571635 0.050508499 0.041567001 0.32315677 -0.19972187 0.52287865
0.038720232 0.053029567 0.041134272 0.32315677 -0.19972187 0.52287865
0.03955568 0.055842575 0.040162612 0.32315677 -0.19972187 0.52287865
0.039999999 0.059030969 0.038510449 0.32315677 -0.19972187 0.52287865
0.039999999 0.062659509 0.036075972 0.32315677 -0.19972187 0.52287865
0.039999999 0.066328593 0.033614922 0.32315677 -0.19972187 0.52287865
0.039999999 0.070039034 0.031126767 0.32315677 -0.19972187 0.52287865
0.039999999 0.073791675 0.028610958 0.32315677 -0.19972187 0.52287865
0.039999999 0.077587381 0.026066925 0.32315677 -0.19972187 0.52287865
0.0025664303 0 0.032854162 0.32315677 -0.19972187 0.52287865
0.007611895 0 0.03842286 0.32315677 -0.19972187 0.52287865
0.01003655 0.0016124331 0.039999999 0.32315677 -0.19972187 0.52287865
0.011433737 0.0038754994 0.039999999 0.32315677 -0.19972187 0.52287865
0.012830762 0.0061390949 0.039999999 0.32315677 -0.19972187 0.52287865
0.014227681 0.0084033096 0.039999999 0.32315677 -0.19972187 0.52287865
0.015624548 0.010668232 0.039999999 0.32315677 -0.19972187 0.52287865
0.017021419 0.012933951 0.039999999 0.32315677 -0.19972187 0.52287865
0.018418347 0.015200556 0.039999999 0.32315677 -0.19972187 0.52287865
0.019815389 0.017468138 0.039999999 0.32315677 -0.19972187 0.52287865
0.021212598 0.019736785 0.039999999 0.32315677 -0.19972187 0.52287865
0.022610031 0.022006586 0.039999999 0.32315677 -0.19972187 0.52287865
0.024007741 0.024277635 0.039999999 0.32315677 -0.19972187 0.52287865
0.025405783 0.026550017 0.039999999 0.32315677 -0.19972187 0.52287865
0.026804216 0.028823825 0.039999999 0.32315677 -0.19972187 0.52287865
0.028203091 0.031099148 0.039999999 0.32315677 -0.19972187 0.52287865
0.029602466 0.033376079 0.039999999 0.32315677 -0.19972187 0.52287865
0.031002395 0.035654709 0.039999999 0.32315677 -0.19972187 0.52287865
0.032402933 0.037935127 0.039999999 0.32315677 -0.19972187 0.52287865
0.033804137 0.040217426 0.039999999 0.32315677 -0.19972187 0.52287865
0.035206065 0.042501695 0.039999999 0.32315677 -0.19972187 0.52287865
0.036608767 0.044788033 0.039999999 0.32315677 -0.19972187 0.52287865
0.038012303 0.047076523 0.039999999 0.32315677 -0.19972187 0.52287865
0.03941673 0.049367264 0.039999999 0.32315677 -0.19972187 0.52287865
0.039999999 0.052392326 0.038593952 0.32315677 -0.19972187 0.52287865
0.039999999 0.055968184 0.036169536 0.32315677 -0.19972187 0.52287865
0.039999999 0.059583571 0.033718873 0.32315677 -0.19972187 0.52287865
0.039999999 0.063239276 0.031241432 0.32315677 -0.19972187 0.52287865
0.039999999 0.066936113 0.028736673 0.32315677 -0.19972187 0.52287865
0.039999999 0.070674919 0.02620404 0.32315677 -0.19972187 0.52287865
0.039999999 0.074456535 0.023642963 0.32315677 -0.19972187 0.52287865
0.039999999 0.078281857 0.021052856 0.32315677 -0.19972187 0.52287865
0.0025812744 0 0.028423488 0.32315677 -0.19972187 0.52287865
0.0076554194 0 0.034074578 0.32315677 -0.19972187 0.52287865
0.012615167 0 0.039598718 0.32315677 -0.19972187 0.52287865
0.014265858 0.0020898213 0.039999999 0.32315677 -0.19972187 0.52287865
0.015658591 0.0043459688 0.039999999 0.32315677 -0.19972187 0.52287865
0.017051272 0.0066026971 0.039999999 0.32315677 -0.19972187 0.52287865
0.018443955 0.0088600945 0.039999999 0.32315677 -0.19972187 0.52287865
0.019836696 0.011118249 0.039999999 0.32315677 -0.19972187 0.52287865
0.021229548 0.01337725 0.039999999 0.32315677 -0.19972187 0.52287865
0.022622565 0.015637185 0.039999999 0.32315677 -0.19972187 0.52287865
0.024015803 0.017898146 0.039999999 0.32315677 -0.19972187 0.52287865
0.025409317 0.020160217 0.039999999 0.32315677 -0.19972187 0.52287865
0.026803158 0.022423491 0.039999999 0.32315677 -0.19972187 0.52287865
0.028197385 0.024688056 0.039999999 0.32315677 -0.19972187 0.52287865
0.02959205 0.026954003 0.039999999 0.32315677 -0.19972187 0.52287865
0.030987211 0.029221419 0.039999999 0.32315677 -0.19972187 0.52287865
0.03238292 0.031490397 0.039999999 0.32315677 -0.19972187 0.52287865
0.033779234 0.033761024 0.039999999 0.32315677 -0.19972187 0.52287865
0.035176206 0.036033392 0.039999999 0.32315677 -0.19972187 0.52287865
0.036573894 0.038307592 0.039999999 0.32315677 -0.19972187 0.52287865
0.03797235 0.040583715 0.039999999 0.32315677 -0.19972187 0.52287865
0.039371632 0.042861853 0.039999999 0.32315677 -0.19972187 0.52287865
0.039999999 0.045811348 0.038680222 0.32315677 -0.19972187 0.52287865
0.039999999 0.04933577 0.036265805 0.32315677 -0.19972187 0.52287865
0.039999999 0.052898731 0.033825453 0.32315677 -0.19972187 0.52287865
0.039999999 0.056501005 0.031358648 0.32315677 -0.19972187 0.52287865
0.039999999 0.06014337 0.028864857 0.32315677 -0.19972187 0.52287865
0.039999999 0.063826643 0.026343534 0.32315677 -0.19972187 0.52287865
0.039999999 0.067551643 0.02379412 0.32315677 -0.19972187 0.52287865
0.039999999 0.07131923 0.02121604 0.32315677 -0.19972187 0.52287865
0.039999999 0.075130269 0.01860871 0.32315677 -0.19972187 0.52287865
0.039999999 0.078985661 0.015971519 0.32315677 -0.19972187 0.52287865
0.002596288 0 0.023942206 0.32315677 -0.19972187 0.52287865
0.0076994351 0 0.02967721 0.32315677 -0.19972187 0.52287865
0.012686878 0 0.035282563 0.32315677 -0.19972187 0.52287865
0.017079158 0.00031600846 0.039999999 0.32315677 -0.19972187 0.52287865
0.018467627 0.0025647583 0.039999999 0.32315677 -0.19972187 0.52287865
0.019856097 0.0048140511 0.039999999 0.32315677 -0.19972187 0.52287865
0.021244623 0.0070639751 0.039999999 0.32315677 -0.19972187 0.52287865
0.022633258 0.0093146171 0.039999999 0.32315677 -0.19972187 0.52287865
0.024022058 0.011566065 0.039999999 0.32315677 -0.19972187 0.52287865
0.025411075 0.013818408 0.039999999 0.32315677 -0.19972187 0.52287865
0.026800364 0.016071733 0.039999999 0.32315677 -0.19972187 0.52287865
0.028189979 0.01832613 0.039999999 0.32315677 -0.19972187 0.52287865
0.029579977 0.020581685 0.039999999 0.32315677 -0.19972187 0.52287865
0.030970408 0.022838488 0.039999999 0.32315677 -0.19972187 0.52287865
0.032361329 0.025096627 0.039999999 0.32315677 -0.19972187 0.52287865
0.033752792 0.027356192 0.039999999 0.32315677 -0.19972187 0.52287865
0.035144854 0.029617272 0.039999999 0.32315677 -0.19972187 0.52287865
0.036537569 0.031879958 0.039999999 0.32315677 -0.19972187 0.52287865
0.037930995 0.034144334 0.039999999 0.32315677 -0.19972187 0.52287865
0.039325181 0.036410496 0.039999999 0.32315677 -0.19972187 0.52287865
0.039999999 0.039286431 0.038768705 0.32315677 -0.19972187 0.52287865
0.039999999 0.042760633 0.036364216 0.32315677 -0.19972187 0.52287865
0.039999999 0.046272416 0.033934101 0.32315677 -0.19972187 0.52287865
0.039999999 0.049822528 0.031477846 0.32315677 -0.19972187 0.52287865
0.039999999 0.053411726 0.028994935 0.32315677 -0.19972187 0.52287865
0.039999999 0.057040796 0.02648483 0.32315677 -0.19972187 0.52287865
0.039999999 0.060710538 0.023946982 0.32315677 -0.19972187 0.52287865
0.039999999 0.06442178 0.021380829 0.32315677 -0.19972187 0.52287865
0.039999999 0.068175368 0.01878579 0.32315677 -0.19972187 0.52287865
0.039999999 0.071972162 0.016161272 0.32315677 -0.19972187 0.52287865
0.039999999 0.07581307 0.013506668 0.32315677 -0.19972187 0.52287865
0.039999999 0.079698987 0.010821349 0.32315677 -0.19972187 0.52287865
0.0026114746 0 0.019409269 0.32315677 -0.19972187 0.52287865
0.0077439519 0 0.025229752 0.32315677 -0.19972187 0.52287865
0.012759395 0 0.03091781 0.32315677 -0.19972187 0.52287865
0.017661942 0 0.036478125 0.32315677 -0.19972187 0.52287865
0.021258166 0.00079527783 0.039999999 0.32315677 -0.19972187 0.52287865
0.02264245 0.0030371854 0.039999999 0.32315677 -0.19972187 0.52287865
0.024026845 0.0052796858 0.039999999 0.32315677 -0.19972187 0.52287865
0.025411399 0.0075228666 0.039999999 0.32315677 -0.19972187 0.52287865
0.02679617 0.0097668143 0.039999999 0.32315677 -0.19972187 0.52287865
0.02818121 0.012011616 0.039999999 0.32315677 -0.19972187 0.52287865
0.029566573 0.01425736 0.039999999 0.32315677 -0.19972187 0.52287865
0.030952314 0.016504133 0.039999999 0.32315677 -0.19972187 0.52287865
0.032338485 0.018752024 0.039999999 0.32315677 -0.19972187 0.52287865
0.033725139 0.021001119 0.039999999 0.32315677 -0.19972187 0.52287865
0.035112333 0.023251506 0.039999999 0.32315677 -0.19972187 0.52287865
0.036500122 0.025503274 0.039999999 0.32315677 -0.19972187 0.52287865
0.037888557 0.027756514 0.039999999 0.32315677 -0.19972187 0.52287865
0.039277691 0.030011309 0.039999999 0.32315677 -0.19972187 0.52287865
0.039999999 0.032815997 0.038858846 0.32315677 -0.19972187 0.52287865
0.039999999 0.036241166 0.036464211 0.32315677 -0.19972187 0.52287865
0.039999999 0.039702985 0.034044255 0.32315677 -0.19972187 0.52287865
0.039999999 0.043202177 0.031598471 0.32315677 -0.19972187 0.52287865
0.039999999 0.046739474 0.02912635 0.32315677 -0.19972187 0.52287865
0.039999999 0.050315641 0.026627367 0.32315677 -0.19972187 0.52287865
0.039999999 0.053931452 0.024100985 0.32315677 -0.19972187 0.52287865
0.039999999 0.057587713 0.021546649 0.32315677 -0.19972187 0.52287865
0.039999999 0.061285235 0.018963791 0.32315677 -0.19972187 0.52287865
0.039999999 0.065024868 0.01635183 0.32315677 -0.19972187 0.52287865
0.039999999 0.068807468 0.013710166 0.32315677 -0.19972187 0.52287865
0.039999999 0.072633922 0.011038187 0.32315677 -0.19972187 0.52287865
0.039999999 0.076505147 0.0083352616 0.32315677 -0.19972187 0.52287865
0.0026268379 0 0.014823607 0.32315677 -0.19972187 0.52287865
0.0077889808 0 0.020731168 0.32315677 -0.19972187 0.52287865
0.012832738 0 0.026503462 0.32315677 -0.19972187 0.52287865
0.017762316 0 0.032145299 0.32315677 -0.19972187 0.52287865
0.022581726 2.7755576e-17 0.037661262 0.32315677 -0.19972187 0.52287865
0.025410619 0.0012719168 0.039999999 0.32315677 -0.19972187 0.52287865
0.026790904 0.0035070442 0.039999999 0.32315677 -0.19972187 0.52287865
0.028171403 0.0057428135 0.039999999 0.32315677 -0.19972187 0.52287865
0.029552169 0.007979311 0.039999999 0.32315677 -0.19972187 0.52287865
0.030933255 0.010216624 0.039999999 0.32315677 -0.19972187 0.52287865
0.032314714 0.012454838 0.039999999 0.32315677 -0.19972187 0.52287865
0.033696599 0.01469404 0.039999999 0.32315677 -0.19972187 0.52287865
0.035078969 0.016934318 0.039999999 0.32315677 -0.19972187 0.52287865
0.036461867 0.019175759 0.039999999 0.32315677 -0.19972187 0.52287865
0.037845355 0.021418449 0.039999999 0.32315677 -0.19972187 0.52287865
0.039229486 0.023662474 0.039999999 0.32315677 -0.19972187 0.52287865
0.039999999 0.026398497 0.038950112 0.32315677 -0.19972187 0.52287865
0.039999999 0.029775793 0.036565252 0.32315677 -0.19972187 0.52287865
0.039999999 0.033188831 0.034155369 0.32315677 -0.19972187 0.52287865
0.039999999 0.036638308 0.031719968 0.32315677 -0.19972187 0.52287865
0.039999999 0.040124945 0.029258549 0.32315677 -0.19972187 0.52287865
0.039999999 0.043649476 0.026770594 0.32315677 -0.19972187 0.52287865
0.039999999 0.047212653 0.024255576 0.32315677 -0.19972187 0.52287865
0.039999999 0.050815254 0.021712948 0.32315677 -0.19972187 0.52287865
0.039999999 0.054458074 0.019142156 0.32315677 -0.19972187 0.52287865
0.039999999 0.058141924 0.01654263 0.32315677 -0.19972187 0.52287865
0.039999999 0.061867643 0.01391378 0.32315677 -0.19972187 0.52287865
0.039999999 0.065636091 0.011255006 0.32315677 -0.19972187 0.52287865
0.039999999 0.069448143 0.0085656885 0.32315677 -0.19972187 0.52287865
0.039999999 0.073304713 0.0058451919 0.32315677 -0.19972187 0.52287865
0.039999999 0.077206731 0.0030928643 0.32315677 -0.19972187 0.52287865
0.0026423815 2.7755576e-17 0.010184115 0.32315677 -0.19972187 0.52287865
0.0078345314 0 0.016180398 0.32315677 -0.19972187 0.52287865
0.01290692 2.7755576e-17 0.022038501 0.32315677 -0.19972187 0.52287865
0.017863827 0 0.027763365 0.32315677 -0.19972187 0.52287865
0.022709332 0 0.033359695 0.32315677 -0.19972187 0.52287865
0.027447326 0 0.038831983 0.32315677 -0.19972187 0.52287865
0.029537084 0.0017458686 0.039999999 0.32315677 -0.19972187 0.52287865
0.03091355 0.0039742761 0.039999999 0.32315677 -0.19972187 0.52287865
0.032290336 0.0062033734 0.039999999 0.32315677 -0.19972187 0.52287865
0.03366749 0.008433247 0.039999999 0.32315677 -0.19972187 0.52287865
0.035045069 0.010663982 0.039999999 0.32315677 -0.19972187 0.52287865
0.036423121 0.012895665 0.039999999 0.32315677 -0.19972187 0.52287865
0.037801705 0.015128382 0.039999999 0.32315677 -0.19972187 0.52287865
0.039180871 0.01736222 0.039999999 0.32315677 -0.19972187 0.52287865
0.039999999 0.020032395 0.039041966 0.32315677 -0.19972187 0.52287865
0.039999999 0.023362948 0.036666807 0.32315677 -0.19972187 0.52287865
0.039999999 0.026728358 0.034266915 0.32315677 -0.19972187 0.52287865
0.039999999 0.030129308 0.031841807 0.32315677 -0.19972187 0.52287865
0.039999999 0.03356649 0.029390996 0.32315677 -0.19972187 0.52287865
0.039999999 0.037040617 0.026913969 0.32315677 -0.19972187 0.52287865
0.039999999 0.040552426 0.024410207 0.32315677 -0.19972187 0.52287865
0.039999999 0.044102661 0.021879179 0.32315677 -0.19972187 0.52287865
0.039999999 0.047692094 0.019320339 0.32315677 -0.19972187 0.52287865
0.039999999 0.051321518 0.016733125 0.32315677 -0.19972187 0.52287865
0.039999999 0.054991741 0.014116959 0.32315677 -0.19972187 0.52287865
0.039999999 0.058703594 0.011471253 0.32315677 -0.19972187 0.52287865
0.039999999 0.06245793 0.0087954002 0.32315677 -0.19972187 0.52287865
0.039999999 0.066255629 0.006088777 0.32315677 -0.19972187 0.52287865
0.039999999 0.070097595 0.0033507438 0.32315677 -0.19972187 0.52287865
0.039999999 0.07398475 0.00058064359 0.32315677 -0.19972187 0.52287865
0.0026581092 0 0.0054896595 0.32315677 -0.19972187 0.52287865
0.007880616 0 0.011576352 0.32315677 -0.19972187 0.52287865
0.012981961 0 0.017521879 0.32315677 -0.19972187 0.52287865
0.0179665 0 0.023331312 0.32315677 -0.19972187 0.52287865
0.022838382 0 0.029009487 0.32315677 -0.19972187 0.52287865
0.027601561 0 0.034561012 0.32315677 -0.19972187 0.52287865
0.032259811 0 0.039990284 0.32315677 -0.19972187 0.52287865
0.03363812 0.0022170763 0.039999999 0.32315677 -0.19972187 0.52287865
0.035010945 0.0044388226 0.039999999 0.32315677 -0.19972187 0.52287865
0.036384191 0.0066613066 0.039999999 0.32315677 -0.19972187 0.52287865
0.037757907 0.0088846134 0.039999999 0.32315677 -0.19972187 0.52287865
0.039132148 0.011108828 0.039999999 0.32315677 -0.19972187 0.52287865
0.039999999 0.01371618 0.039133891 0.32315677 -0.19972187 0.52287865
0.039999999 0.017001092 0.036768347 0.32315677 -0.19972187 0.52287865
0.039999999 0.020320006 0.034378361 0.32315677 -0.19972187 0.52287865
0.039999999 0.023673579 0.03196346 0.32315677 -0.19972187 0.52287865
0.039999999 0.027062485 0.02952316 0.32315677 -0.19972187 0.52287865
0.039999999 0.030487416 0.027056959 0.32315677 -0.19972187 0.52287865
0.039999999 0.033949085 0.02456435 0.32315677 -0.19972187 0.52287865
0.039999999 0.037448216 0.02204481 0.32315677 -0.19972187 0.52287865
0.039999999 0.040985554 0.019497802 0.32315677 -0.19972187 0.52287865
0.039999999 0.04456187 0.016922774 0.32315677 -0.19972187 0.52287865
0.039999999 0.048177943 0.014319163 0.32315677 -0.19972187 0.52287865
0.039999999 0.051834583 0.011686388 0.32315677 -0.19972187 0.52287865
0.039999999 0.055532619 0.0090238554 0.32315677 -0.19972187 0.52287865
0.039999999 0.059272896 0.0063309525 0.32315677 -0.19972187 0.52287865
0.039999999 0.06305629 0.0036070538 0.32315677 -0.19972187 0.52287865
0.039999999 0.066883698 0.0008515144 0.32315677 -0.19972187 0.52287865
0.002674025 0 0.00073907647 0.32315677 -0.19972187 0.52287865
0.0079272445 0 0.0069179111 0.32315677 -0.19972187 0.52287865
0.013057879 0 0.012952516 0.32315677 -0.19972187 0.52287865
0.018070359 2.7755576e-17 0.018848104 0.32315677 -0.19972187 0.52287865
0.022968903 0 0.02460964 0.32315677 -0.19972187 0.52287865
0.027757535 0 0.030241858 0.32315677 -0.19972187 0.52287865
0.032440089 0 0.035749268 0.32315677 -0.19972187 0.52287865
0.036345381 0.00047103941 0.039999999 0.32315677 -0.19972187 0.52287865
0.037714269 0.0026854833 0.039999999 0.32315677 -0.19972187 0.52287865
0.039083626 0.0049006264 0.039999999 0.32315677 -0.19972187 0.52287865
0.039999999 0.0074483594 0.039225377 0.32315677 -0.19972187 0.52287865
0.039999999 0.010688711 0.036869366 0.32315677 -0.19972187 0.52287865
0.039999999 0.013962229 0.0344892 0.32315677 -0.19972187 0.52287865
0.039999999 0.01726955 0.032084409 0.32315677 -0.19972187 0.52287865
0.039999999 0.020611331 0.029654521 0.32315677 -0.19972187 0.52287865
0.039999999 0.023988243 0.027199045 0.32315677 -0.19972187 0.52287865
0.039999999 0.027400972 0.02471748 0.32315677 -0.19972187 0.52287865
0.039999999 0.030850226 0.022209313 0.32315677 -0.19972187 0.52287865
0.039999999 0.034336727 0.019674018 0.32315677 -0.19972187 0.52287865
0.039999999 0.037861221 0.017111052 0.32315677 -0.19972187 0.52287865
0.039999999 0.041424461 0.014519862 0.32315677 -0.19972187 0.52287865
0.039999999 0.045027237 0.01189988 0.32315677 -0.19972187 0.52287865
0.039999999 0.048670344 0.0092505207 0.32315677 -0.19972187 0.52287865
0.039999999 0.052354611 0.0065711862 0.32315677 -0.19972187 0.52287865
0.039999999 0.056080878 0.0038612611 0.32315677 -0.19972187 0.52287865
0.039999999 0.059850015 0.0011201137 0.32315677 -0.19972187 0.52287865
0.00797443 0 0.0022039248 0.32315677 -0.19972187 0.52287865
0.0081161838 0.0032330137 0 0.32315677 -0.19972187 0.52287865
0.018175425 0 0.014312675 0.32315677 -0.19972187 0.52287865
0.011068642 0.0080088777 0 0.32315677 -0.19972187 0.52287865
0.027915286 0 0.025873527 0.32315677 -0.19972187 0.52287865
0.032622401 0 0.031460501 0.32315677 -0.19972187 0.52287865
0.037225991 0 0.036924478 0.32315677 -0.19972187 0.52287865
0.039999999 0.0012274608 0.039315913 0.32315677 -0.19972187 0.52287865
0.039999999 0.0044243061 0.036969353 0.32315677 -0.19972187 0.52287865
0.039999999 0.0076535037 0.034598913 0.32315677 -0.19972187 0.52287865
0.039999999 0.010915674 0.03220414 0.32315677 -0.19972187 0.52287865
0.039999999 0.014211453 0.029784568 0.32315677 -0.19972187 0.52287865
0.039999999 0.01754149 0.027339712 0.32315677 -0.19972187 0.52287865
0.039999999 0.020906456 0.024869082 0.32315677 -0.19972187 0.52287865
0.039999999 0.024307033 0.022372173 0.32315677 -0.19972187 0.52287865
0.039999999 0.027743923 0.01984847 0.32315677 -0.19972187 0.52287865
0.039999999 0.031217843 0.017297437 0.32315677 -0.19972187 0.52287865
0.039999999 0.034729537 0.014718537 0.32315677 -0.19972187 0.52287865
0.039999999 0.038279757 0.012111207 0.32315677 -0.19972187 0.52287865
0.039999999 0.041869283 0.0094748754 0.32315677 -0.19972187 0.52287865
0.039999999 0.045498908 0.0068089552 0.32315677 -0.19972187 0.52287865
0.039999999 0.049169455 0.004112842 0.32315677 -0.19972187 0.52287865
0.039999999 0.052881759 0.0013859173 0.32315677 -0.19972187 0.52287865
0.013212416 0 0.0036511181 0.32315677 -0.19972187 0.52287865
0.018281728 2.7755576e-17 0.0097239343 0.32315677 -0.19972187 0.52287865
0.023234485 0 0.0156569 0.32315677 -0.19972187 0.52287865
0.015448829 0.0085457359 0 0.32315677 -0.19972187 0.52287865
0.03280678 0 0.02712301 0.32315677 -0.19972187 0.52287865
0.037434068 0 0.03266545 0.32315677 -0.19972187 0.52287865
0.039999999 0.0013923277 0.034707006 0.32315677 -0.19972187 0.52287865
0.039999999 0.0046104207 0.032322157 0.32315677 -0.19972187 0.52287865
0.039999999 0.0078612939 0.029912796 0.32315677 -0.19972187 0.52287865
0.039999999 0.011145579 0.027478455 0.32315677 -0.19972187 0.52287865
0.039999999 0.014463924 0.025018649 0.32315677 -0.19972187 0.52287865
0.039999999 0.017816992 0.022532882 0.32315677 -0.19972187 0.52287865
0.039999999 0.021205466 0.020020647 0.32315677 -0.19972187 0.52287865
0.039999999 0.02463004 0.017481424 0.32315677 -0.19972187 0.52287865
0.039999999 0.028091434 0.014914677 0.32315677 -0.19972187 0.52287865
0.039999999 0.03159038 0.012319858 0.32315677 -0.19972187 0.52287865
0.039999999 0.035127629 0.0096964063 0.32315677 -0.19972187 0.52287865
0.039999999 0.038703952 0.0070437454 0.32315677 -0.19972187 0.52287865
0.039999999 0.042320147 0.0043612826 0.32315677 -0.19972187 0.52287865
0.039999999 0.04597703 0.0016484108 0.32315677 -0.19972187 0.52287865
0.018389292 0 0.0050807558 0.32315677 -0.19972187 0.52287865
0.02336961 0 0.011101872 0.32315677 -0.19972187 0.52287865
0.028236261 2.7755576e-17 0.016985254 0.32315677 -0.19972187 0.52287865
0.032993276 0 0.022735789 0.32315677 -0.19972187 0.52287865
0.037644502 0 0.028358132 0.32315677 -0.19972187 0.52287865
0.039999999 0.0015593191 0.030038713 0.32315677 -0.19972187 0.52287865
0.039999999 0.0047989455 0.027614778 0.32315677 -0.19972187 0.52287865
0.039999999 0.0080717877 0.025165683 0.32315677 -0.19972187 0.52287865
0.039999999 0.011378491 0.022690941 0.32315677 -0.19972187 0.52287865
0.039999999 0.014719715 0.020190053 0.32315677 -0.19972187 0.52287865
0.039999999 0.018096136 0.017662507 0.32315677 -0.19972187 0.52287865
0.039999999 0.02150845 0.015107778 0.32315677 -0.19972187 0.52287865
0.039999999 0.024957364 0.012525329 0.32315677 -0.19972187 0.52287865
0.039999999 0.028443614 0.0099146096 0.32315677 -0.19972187 0.52287865
0.039999999 0.031967945 0.0072750524 0.32315677 -0.19972187 0.52287865
0.039999999 0.035531122 0.0046060774 0.32315677 -0.19972187 0.52287865
0.039999999 0.039133944 0.0019070888 0.32315677 -0.19972187 0.52287865
0.018498143 0 0.00038198652 0.32315677 -0.19972187 0.52287865
0.023506334 0 0.0064929361 0.32315677 -0.19972187 0.52287865
0.028399562 0 0.012463204 0.32315677 -0.19972187 0.52287865
0.033181932 0 0.018297806 0.32315677 -0.19972187 0.52287865
0.037857346 0 0.024001529 0.32315677 -0.19972187 0.52287865
0.039999999 0.0017284825 0.025309693 0.32315677 -0.19972187 0.52287865
0.039999999 0.0049899351 0.022845857 0.32315677 -0.19972187 0.52287865
0.039999999 0.0082850484 0.020356191 0.32315677 -0.19972187 0.52287865
0.039999999 0.01161448 0.017840192 0.32315677 -0.19972187 0.52287865
0.039999999 0.014978902 0.015297346 0.32315677 -0.19972187 0.52287865
0.039999999 0.018379007 0.012727126 0.32315677 -0.19972187 0.52287865
0.039999999 0.021815497 0.010128989 0.32315677 -0.19972187 0.52287865
0.039999999 0.025289103 0.0075023798 0.32315677 -0.19972187 0.52287865
0.039999999 0.028800569 0.0048467298 0.32315677 -0.19972187 0.52287865
0.039999999 0.032350659 0.0021614542 0.32315677 -0.19972187 0.52287865
0.023644689 0 0.0018289491 0.32315677 -0.19972187 0.52287865
0.028564792 0 0.0078877537 0.32315677 -0.19972187 0.52287865
0.033372786 0 0.013808007 0.32315677 -0.19972187 0.52287865
0.038072649 0 0.019594621 0.32315677 -0.19972187 0.52287865
0.039999999 0.0018998674 0.020518575 0.32315677 -0.19972187 0.52287865
0.039999999 0.0051834453 0.018013993 0.32315677 -0.19972187 0.52287865
0.039999999 0.0085011385 0.015482893 0.32315677 -0.19972187 0.52287865
0.039999999 0.011853616 0.012924758 0.32315677 -0.19972187 0.52287865
0.039999999 0.015241564 0.010339054 0.32315677 -0.19972187 0.52287865
0.039999999 0.018665686 0.0077252379 0.32315677 -0.19972187 0.52287865
0.039999999 0.022126706 0.0050827502 0.32315677 -0.19972187 0.52287865
0.039999999 0.025625361 0.0024110172 0.32315677 -0.19972187 0.52287865
0.028731991 0 0.0032577768 0.32315677 -0.19972187 0.52287865
0.03356589 0 0.0092653036 0.32315677 -0.19972187 0.52287865
0.038290456 0 0.015136363 0.32315677 -0.19972187 0.52287865
0.039999999 0.0020735245 0.015663939 0.32315677 -0.19972187 0.52287865
0.039999999 0.0053795339 0.013117744 0.32315677 -0.19972187 0.52287865
0.039999999 0.0087201223 0.010544324 0.32315677 -0.19972187 0.52287865
0.039999999 0.012095971 0.007943145 0.32315677 -0.19972187 0.52287865
0.039999999 0.015507781 0.0053136563 0.32315677 -0.19972187 0.52287865
0.039999999 0.018956268 0.0026552959 0.32315677 -0.19972187 0.52287865
0.033761293 0 0.004668578 0.32315677 -0.19972187 0.52287865
0.038510829 0 0.010625676 0.32315677 -0.19972187 0.52287865
0.039999999 0.0022495058 0.010744324 0.32315677 -0.19972187 0.52287865
0.039999999 0.0055782609 0.0081556244 0.32315677 -0.19972187 0.52287865
0.039999999 0.0089420676 0.0055389721 0.32315677 -0.19972187 0.52287865
0.039999999 0.01234162 0.0028938144 0.32315677 -0.19972187 0.52287865
0.039999999 0.015777634 0.00021958543 0.32315677 -0.19972187 0.52287865
0.033959039 0 1.6683589e-05 0.32315677 -0.19972187 0.52287865
0.038733814 0 0.0060614585 0.32315677 -0.19972187 0.52287865
0.039999999 0.0024278653 0.0057582273 0.32315677 -0.19972187 0.52287865
