# .PCD v0.7 - Point Cloud Data file format
VERSION 0.7
FIELDS x y z vp_x vp_y vp_z
SIZE 4 4 4 4 4 4
TYPE F F F F F F
COUNT 1 1 1 1 1 1
WIDTH 642
HEIGHT 1
VIEWPOINT 0 0 0 1 0 0 0
POINTS 642
DATA ascii
0.039645936 0.06360697 0.068638861 0.32315677 0.19972187 -0.52287865
0.038926929 0.066451676 0.067012668 0.32315677 0.19972187 -0.52287865
0.037785903 0.069087364 0.066277064 0.32315677 0.19972187 -0.52287865
0.036291152 0.071558855 0.066277757 0.32315677 0.19972187 -0.52287865
0.034405924 0.073861957 0.067078285 0.32315677 0.19972187 -0.52287865
0.032008082 0.075957507 0.068914466 0.32315677 0.19972187 -0.52287865
0.039738454 0.056957256 0.068754621 0.32315677 0.19972187 -0.52287865
0.039983612 0.060302351 0.065109886 0.32315677 0.19972187 -0.52287865
0.039688203 0.063349187 0.062622473 0.32315677 0.19972187 -0.52287865
0.039007623 0.066189609 0.060954772 0.32315677 0.19972187 -0.52287865
0.037923221 0.068828359 0.06013196 0.32315677 0.19972187 -0.52287865
0.036470156 0.071294829 0.060069323 0.32315677 0.19972187 -0.52287865
0.03464932 0.073601641 0.060753223 0.32315677 0.19972187 -0.52287865
0.032336541 0.075707808 0.062422 0.32315677 0.19972187 -0.52287865
0.029475529 0.077605627 0.065173253 0.32315677 0.19972187 -0.52287865
0.025685793 0.07915806 0.069748484 0.32315677 0.19972187 -0.52287865
0.038688075 0.052948866 0.068114735 0.32315677 0.19972187 -0.52287865
0.039697189 0.05670559 0.062899426 0.32315677 0.19972187 -0.52287865
0.039996929 0.060056608 0.059199605 0.32315677 0.19972187 -0.52287865
0.039729815 0.063095428 0.056699913 0.32315677 0.19972187 -0.52287865
0.039080136 0.065928429 0.055006567 0.32315677 0.19972187 -0.52287865
0.038058329 0.068573527 0.054085821 0.32315677 0.19972187 -0.52287865
0.036646243 0.071035109 0.053962186 0.32315677 0.19972187 -0.52287865
0.0348727 0.073338665 0.054565597 0.32315677 0.19972187 -0.52287865
0.032659363 0.075462393 0.056040987 0.32315677 0.19972187 -0.52287865
0.029874777 0.077365406 0.058635689 0.32315677 0.19972187 -0.52287865
0.026265884 0.078962594 0.062831976 0.32315677 0.19972187 -0.52287865
0.038584586 0.052689135 0.062403921 0.32315677 0.19972187 -0.52287865
0.039656542 0.056457702 0.057132103 0.32315677 0.19972187 -0.52287865
0.039989401 0.059804428 0.053421844 0.32315677 0.19972187 -0.52287865
0.039770778 0.062845588 0.050868787 0.32315677 0.19972187 -0.52287865
0.039151516 0.06567131 0.049151044 0.32315677 0.19972187 -0.52287865
0.038182933 0.068318911 0.048152782 0.32315677 0.19972187 -0.52287865
0.036819484 0.070779577 0.047953658 0.32315677 0.19972187 -0.52287865
0.039999999 0.075237527 0.038745515 0.32315677 0.19972187 -0.52287865
0.039999999 0.078234471 0.035908431 0.32315677 0.19972187 -0.52287865
0.037125383 0.079999998 0.03874559 0.32315677 0.19972187 -0.52287865
0.026835246 0.078770742 0.056043375 0.32315677 0.19972187 -0.52287865
0.021949947 0.079876363 0.062663525 0.32315677 0.19972187 -0.52287865
0.035834637 0.047793768 0.065259047 0.32315677 0.19972187 -0.52287865
0.038482595 0.052433167 0.056775913 0.32315677 0.19972187 -0.52287865
0.039616499 0.056213498 0.05145048 0.32315677 0.19972187 -0.52287865
0.03997577 0.059552964 0.047743369 0.32315677 0.19972187 -0.52287865
0.039811119 0.062599562 0.045126773 0.32315677 0.19972187 -0.52287865
0.039221797 0.065418161 0.04338583 0.32315677 0.19972187 -0.52287865
0.039999999 0.068851426 0.038950991 0.32315677 0.19972187 -0.52287865
0.039999999 0.071887061 0.036099035 0.32315677 0.19972187 -0.52287865
0.039999999 0.074893735 0.033277374 0.32315677 0.19972187 -0.52287865
0.039999999 0.077872008 0.030485438 0.32315677 0.19972187 -0.52287865
0.033686157 0.078171201 0.039999999 0.32315677 0.19972187 -0.52287865
0.027394194 0.078582399 0.04937892 0.32315677 0.19972187 -0.52287865
0.022821564 0.079781547 0.055356074 0.32315677 0.19972187 -0.52287865
0.035556577 0.047466423 0.059967861 0.32315677 0.19972187 -0.52287865
0.038382072 0.052180875 0.051228713 0.32315677 0.19972187 -0.52287865
0.039577048 0.055972885 0.045852449 0.32315677 0.19972187 -0.52287865
0.039962344 0.059305225 0.042149078 0.32315677 0.19972187 -0.52287865
0.039999999 0.062429581 0.039175581 0.32315677 0.19972187 -0.52287865
0.039999999 0.065504946 0.036308493 0.32315677 0.19972187 -0.52287865
0.039999999 0.068550579 0.033472087 0.32315677 0.19972187 -0.52287865
0.039999999 0.071567059 0.030665779 0.32315677 0.19972187 -0.52287865
0.039999999 0.07455495 0.027889004 0.32315677 0.19972187 -0.52287865
0.039999999 0.077514805 0.025141209 0.32315677 0.19972187 -0.52287865
0.015294218 0.070040286 0.07 0.32315677 0.19972187 -0.52287865
0.031842418 0.079999998 0.035362657 0.32315677 0.19972187 -0.52287865
0.023596857 0.079656988 0.048345134 0.32315677 0.19972187 -0.52287865
0.015187553 0.079389445 0.061512399 0.32315677 0.19972187 -0.52287865
0.035282157 0.047143362 0.054745916 0.32315677 0.19972187 -0.52287865
0.038282976 0.051932171 0.045760389 0.32315677 0.19972187 -0.52287865
0.039999999 0.055970237 0.039418858 0.32315677 0.19972187 -0.52287865
0.039999999 0.059086394 0.036536373 0.32315677 0.19972187 -0.52287865
0.039999999 0.062172033 0.033684965 0.32315677 0.19972187 -0.52287865
0.039999999 0.065227747 0.030864041 0.32315677 0.19972187 -0.52287865
0.039999999 0.068254113 0.028073022 0.32315677 0.19972187 -0.52287865
0.039999999 0.071251698 0.025311347 0.32315677 0.19972187 -0.52287865
0.039999999 0.074221067 0.022578465 0.32315677 0.19972187 -0.52287865
0.039999999 0.077162743 0.019873841 0.32315677 0.19972187 -0.52287865
0.039817147 0.079999998 0.017545708 0.32315677 0.19972187 -0.52287865
0.032808989 0.079999998 0.028195668 0.32315677 0.19972187 -0.52287865
0.025513686 0.079999998 0.039284866 0.32315677 0.19972187 -0.52287865
0.017423974 0.079808258 0.051760294 0.32315677 0.19972187 -0.52287865
0.039999999 0.049471624 0.039680395 0.32315677 0.19972187 -0.52287865
0.039999999 0.052629668 0.03678225 0.32315677 0.19972187 -0.52287865
0.039999999 0.055756379 0.033915583 0.32315677 0.19972187 -0.52287865
0.039999999 0.058852371 0.031079793 0.32315677 0.19972187 -0.52287865
0.039999999 0.061918236 0.02827429 0.32315677 0.19972187 -0.52287865
0.039999999 0.064954564 0.025498502 0.32315677 0.19972187 -0.52287865
0.039999999 0.067961924 0.022751868 0.32315677 0.19972187 -0.52287865
0.039999999 0.070940875 0.02003384 0.32315677 0.19972187 -0.52287865
0.039999999 0.073891953 0.017343888 0.32315677 0.19972187 -0.52287865
0.039999999 0.076815695 0.014681489 0.32315677 0.19972187 -0.52287865
0.039999999 0.079712607 0.012046136 0.32315677 0.19972187 -0.52287865
0.033755653 0.079999998 0.021176288 0.32315677 0.19972187 -0.52287865
0.026552444 0.079999998 0.032012444 0.32315677 0.19972187 -0.52287865
0.018980591 0.079972416 0.043430988 0.32315677 0.19972187 -0.52287865
0.039999999 0.042931959 0.039959781 0.32315677 0.19972187 -0.52287865
0.039999999 0.046133004 0.037045702 0.32315677 0.19972187 -0.52287865
0.039999999 0.049301881 0.034163516 0.32315677 0.19972187 -0.52287865
0.039999999 0.052439217 0.031312607 0.32315677 0.19972187 -0.52287865
0.039999999 0.055545636 0.028492376 0.32315677 0.19972187 -0.52287865
0.039999999 0.058621734 0.025702238 0.32315677 0.19972187 -0.52287865
0.039999999 0.061668098 0.022941623 0.32315677 0.19972187 -0.52287865
0.039999999 0.064685307 0.020209974 0.32315677 0.19972187 -0.52287865
0.039999999 0.067673914 0.017506748 0.32315677 0.19972187 -0.52287865
0.039999999 0.070634469 0.014831415 0.32315677 0.19972187 -0.52287865
0.039999999 0.073567502 0.012183459 0.32315677 0.19972187 -0.52287865
0.039999999 0.076473534 0.0095623722 0.32315677 0.19972187 -0.52287865
0.039999999 0.079353079 0.0069676628 0.32315677 0.19972187 -0.52287865
0.0047710906 0.067585982 0.07 0.32315677 0.19972187 -0.52287865
0.027569661 0.079999998 0.024890833 0.32315677 0.19972187 -0.52287865
0.020164397 0.079999998 0.035919107 0.32315677 0.19972187 -0.52287865
0.039999999 0.03959462 0.037326317 0.32315677 0.19972187 -0.52287865
0.039999999 0.042806778 0.034428347 0.32315677 0.19972187 -0.52287865
0.039999999 0.045986563 0.031562064 0.32315677 0.19972187 -0.52287865
0.039999999 0.049134601 0.028726855 0.32315677 0.19972187 -0.52287865
0.039999999 0.052251521 0.025922127 0.32315677 0.19972187 -0.52287865
0.039999999 0.055337925 0.0231473 0.32315677 0.19972187 -0.52287865
0.039999999 0.058394402 0.020401806 0.32315677 0.19972187 -0.52287865
0.039999999 0.061421532 0.017685089 0.32315677 0.19972187 -0.52287865
0.039999999 0.064419873 0.014996614 0.32315677 0.19972187 -0.52287865
0.039999999 0.06738998 0.012335852 0.32315677 0.19972187 -0.52287865
0.039999999 0.070332378 0.0097022876 0.32315677 0.19972187 -0.52287865
0.039999999 0.073247604 0.0070954203 0.32315677 0.19972187 -0.52287865
0.039999999 0.076136164 0.0045147589 0.32315677 0.19972187 -0.52287865
0.039999999 0.078998551 0.0019598254 0.32315677 0.19972187 -0.52287865
0.035591803 0.079999998 0.0075614718 0.32315677 0.19972187 -0.52287865
0.028566036 0.079999998 0.017915132 0.32315677 0.19972187 -0.52287865
0.021254886 0.079999998 0.028691819 0.32315677 0.19972187 -0.52287865
0.013640237 0.079999998 0.039918389 0.32315677 0.19972187 -0.52287865
0.039999999 0.033012718 0.037623677 0.32315677 0.19972187 -0.52287865
0.039999999 0.036269307 0.034709655 0.32315677 0.19972187 -0.52287865
0.039999999 0.039492656 0.031827737 0.32315677 0.19972187 -0.52287865
0.039999999 0.042683419 0.028977303 0.32315677 0.19972187 -0.52287865
0.039999999 0.045842238 0.026157744 0.32315677 0.19972187 -0.52287865
0.039999999 0.048969734 0.02336847 0.32315677 0.19972187 -0.52287865
0.039999999 0.052066516 0.020608902 0.32315677 0.19972187 -0.52287865
0.039999999 0.055133179 0.017878478 0.32315677 0.19972187 -0.52287865
0.039999999 0.058170304 0.015176648 0.32315677 0.19972187 -0.52287865
0.039999999 0.061178453 0.012502875 0.32315677 0.19972187 -0.52287865
0.039999999 0.064158179 0.0098566366 0.32315677 0.19972187 -0.52287865
0.039999999 0.067110024 0.00723742 0.32315677 0.19972187 -0.52287865
0.039999999 0.070034504 0.0046447269 0.32315677 0.19972187 -0.52287865
0.039999999 0.072932154 0.0020780703 0.32315677 0.19972187 -0.52287865
0.039749034 0.075693622 0 0.32315677 0.19972187 -0.52287865
0.038377509 0.077955157 0 0.32315677 0.19972187 -0.52287865
0.036482502 0.079999998 0.00095708831 0.32315677 0.19972187 -0.52287865
0.029542243 0.079999998 0.01108064 0.32315677 0.19972187 -0.52287865
0.022322876 0.079999998 0.021613644 0.32315677 0.19972187 -0.52287865
0.01480686 0.079999998 0.032581832 0.32315677 0.19972187 -0.52287865
0.039999999 0.026385471 0.037937377 0.32315677 0.19972187 -0.52287865
0.039999999 0.029687665 0.03500703 0.32315677 0.19972187 -0.52287865
0.039999999 0.032955732 0.032109216 0.32315677 0.19972187 -0.52287865
0.039999999 0.036190342 0.0292433 0.32315677 0.19972187 -0.52287865
0.039999999 0.039392162 0.026408665 0.32315677 0.19972187 -0.52287865
0.039999999 0.042561833 0.023604708 0.32315677 0.19972187 -0.52287865
0.039999999 0.04569998 0.020830838 0.32315677 0.19972187 -0.52287865
0.039999999 0.048807215 0.018086484 0.32315677 0.19972187 -0.52287865
0.039999999 0.051884137 0.015371086 0.32315677 0.19972187 -0.52287865
0.039999999 0.054931328 0.012684096 0.32315677 0.19972187 -0.52287865
0.039999999 0.057949353 0.010024982 0.32315677 0.19972187 -0.52287865
0.039999999 0.060938776 0.0073932223 0.32315677 0.19972187 -0.52287865
0.039999999 0.063900128 0.0047883107 0.32315677 0.19972187 -0.52287865
0.039999999 0.066833951 0.0022097507 0.32315677 0.19972187 -0.52287865
0.039814163 0.069655441 0 0.32315677 0.19972187 -0.52287865
0.038437087 0.071919493 0 0.32315677 0.19972187 -0.52287865
0.037060343 0.074185409 0 0.32315677 0.19972187 -0.52287865
0.035683885 0.076453276 0 0.32315677 0.19972187 -0.52287865
0.034307666 0.078723177 0 0.32315677 0.19972187 -0.52287865
0.03049892 0.079999998 0.0043828632 0.32315677 0.19972187 -0.52287865
0.023369096 0.079999998 0.014679752 0.32315677 0.19972187 -0.52287865
0.0077673704 0.07681144 0.039999999 0.32315677 0.19972187 -0.52287865
0.0082209175 0.079999998 0.036563572 0.32315677 0.19972187 -0.52287865
0.039999999 0.019711042 0.038267002 0.32315677 0.19972187 -0.52287865
0.039999999 0.023060044 0.035320055 0.32315677 0.19972187 -0.52287865
0.039999999 0.026374005 0.032406077 0.32315677 0.19972187 -0.52287865
0.039999999 0.029653618 0.029524427 0.32315677 0.19972187 -0.52287865
0.039999999 0.03289957 0.026674466 0.32315677 0.19972187 -0.52287865
0.039999999 0.036112517 0.023855586 0.32315677 0.19972187 -0.52287865
0.039999999 0.03929311 0.021067185 0.32315677 0.19972187 -0.52287865
0.039999999 0.042441979 0.018308679 0.32315677 0.19972187 -0.52287865
0.039999999 0.045559738 0.015579495 0.32315677 0.19972187 -0.52287865
0.039999999 0.04864699 0.012879078 0.32315677 0.19972187 -0.52287865
0.039999999 0.051704321 0.010206887 0.32315677 0.19972187 -0.52287865
0.039999999 0.054732297 0.007562391 0.32315677 0.19972187 -0.52287865
0.039999999 0.057731483 0.0049450723 0.32315677 0.19972187 -0.52287865
0.039999999 0.060702421 0.0023544263 0.32315677 0.19972187 -0.52287865
0.03988621 0.063590959 0 0.32315677 0.19972187 -0.52287865
0.038503557 0.065857939 0 0.32315677 0.19972187 -0.52287865
0.037121285 0.068126619 0 0.32315677 0.19972187 -0.52287865
0.035739344 0.070397064 0 0.32315677 0.19972187 -0.52287865
0.034357686 0.072669365 0 0.32315677 0.19972187 -0.52287865
0.032976262 0.074943595 0 0.32315677 0.19972187 -0.52287865
0.031595029 0.077219844 0 0.32315677 0.19972187 -0.52287865
0.030213935 0.079498179 0 0.32315677 0.19972187 -0.52287865
0.024394244 0.079999998 0.0078855213 0.32315677 0.19972187 -0.52287865
0.017068164 0.079999998 0.018361133 0.32315677 0.19972187 -0.52287865
0.0033440851 0.077673413 0.039999999 0.32315677 0.19972187 -0.52287865
0.039999999 0.012987559 0.038612153 0.32315677 0.19972187 -0.52287865
0.039999999 0.016384603 0.035648324 0.32315677 0.19972187 -0.52287865
0.039999999 0.019745667 0.032717917 0.32315677 0.19972187 -0.52287865
0.039999999 0.023071464 0.029820267 0.32315677 0.19972187 -0.52287865
0.039999999 0.026362702 0.026954733 0.32315677 0.19972187 -0.52287865
0.039999999 0.029620061 0.024120687 0.32315677 0.19972187 -0.52287865
0.039999999 0.032844212 0.021317517 0.32315677 0.19972187 -0.52287865
0.039999999 0.036035798 0.018544631 0.32315677 0.19972187 -0.52287865
0.039999999 0.039195463 0.015801445 0.32315677 0.19972187 -0.52287865
0.039999999 0.042323817 0.013087393 0.32315677 0.19972187 -0.52287865
0.039999999 0.04542147 0.01040192 0.32315677 0.19972187 -0.52287865
0.039999999 0.048489008 0.0077444902 0.32315677 0.19972187 -0.52287865
0.039999999 0.051527005 0.005114574 0.32315677 0.19972187 -0.52287865
0.039999999 0.054536026 0.0025116587 0.32315677 0.19972187 -0.52287865
0.039964925 0.057499003 0 0.32315677 0.19972187 -0.52287865
0.038576677 0.059769347 0 0.32315677 0.19972187 -0.52287865
0.037188858 0.062041201 0 0.32315677 0.19972187 -0.52287865
0.035801411 0.064314649 0 0.32315677 0.19972187 -0.52287865
0.034414291 0.066589773 0 0.32315677 0.19972187 -0.52287865
0.033027455 0.068866648 0 0.32315677 0.19972187 -0.52287865
0.031640854 0.071145363 0 0.32315677 0.19972187 -0.52287865
0.030254433 0.073425993 0 0.32315677 0.19972187 -0.52287865
0.028868152 0.075708613 0 0.32315677 0.19972187 -0.52287865
0.027481958 0.077993311 0 0.32315677 0.19972187 -0.52287865
0.025398986 0.079999998 0.0012265231 0.32315677 0.19972187 -0.52287865
0.018164393 0.079999998 0.011467267 0.32315677 0.19972187 -0.52287865
0.010635068 0.079999998 0.022127206 0.32315677 0.19972187 -0.52287865
0.0027922576 0.079999998 0.033233006 0.32315677 0.19972187 -0.52287865
0.039999999 0.0062131281 0.038972419 0.32315677 0.19972187 -0.52287865
0.039999999 0.0096594822 0.03599143 0.32315677 0.19972187 -0.52287865
0.039999999 0.013068885 0.033044316 0.32315677 0.19972187 -0.52287865
0.039999999 0.016442079 0.030130407 0.32315677 0.19972187 -0.52287865
0.039999999 0.019779788 0.027249042 0.32315677 0.19972187 -0.52287865
0.039999999 0.02308272 0.024399586 0.32315677 0.19972187 -0.52287865
0.039999999 0.026351562 0.021581413 0.32315677 0.19972187 -0.52287865
0.039999999 0.029586982 0.01879392 0.32315677 0.19972187 -0.52287865
0.039999999 0.032789636 0.016036509 0.32315677 0.19972187 -0.52287865
0.039999999 0.035960164 0.013308607 0.32315677 0.19972187 -0.52287865
0.039999999 0.039099187 0.010609649 0.32315677 0.19972187 -0.52287865
0.039999999 0.042207308 0.0079390854 0.32315677 0.19972187 -0.52287865
0.039999999 0.045285124 0.0052963807 0.32315677 0.19972187 -0.52287865
0.039999999 0.048333213 0.0026810106 0.32315677 0.19972187 -0.52287865
0.039999999 0.051352136 9.2465205e-05 0.32315677 0.19972187 -0.52287865
0.038656194 0.05365251 0 0.32315677 0.19972187 -0.52287865
0.037262797 0.055927981 0 0.32315677 0.19972187 -0.52287865
0.035869826 0.058204863 0 0.32315677 0.19972187 -0.52287865
0.03447723 0.06048324 0 0.32315677 0.19972187 -0.52287865
0.033084959 0.062763192 0 0.32315677 0.19972187 -0.52287865
0.031692967 0.065044798 0 0.32315677 0.19972187 -0.52287865
0.030301204 0.067328133 0 0.32315677 0.19972187 -0.52287865
0.028909624 0.069613285 0 0.32315677 0.19972187 -0.52287865
0.027518177 0.071900338 0 0.32315677 0.19972187 -0.52287865
0.026126815 0.074189372 0 0.32315677 0.19972187 -0.52287865
0.02473549 0.076480463 0 0.32315677 0.19972187 -0.52287865
0.023344154 0.0787737 0 0.32315677 0.19972187 -0.52287865
0.019238649 0.079999998 0.0047115842 0.32315677 0.19972187 -0.52287865
0.011805123 0.079999998 0.015130397 0.32315677 0.19972187 -0.52287865
0.0040652337 0.079999998 0.025980504 0.32315677 0.19972187 -0.52287865
0.039999999 0.0028827898 0.036348961 0.32315677 0.19972187 -0.52287865
0.039999999 0.0063418034 0.033384867 0.32315677 0.19972187 -0.52287865
0.039999999 0.0097636357 0.030454429 0.32315677 0.19972187 -0.52287865
0.039999999 0.013149034 0.02755698 0.32315677 0.19972187 -0.52287865
0.039999999 0.016498728 0.024691865 0.32315677 0.19972187 -0.52287865
0.039999999 0.019813424 0.02185845 0.32315677 0.19972187 -0.52287865
0.039999999 0.023093816 0.019056115 0.32315677 0.19972187 -0.52287865
0.039999999 0.02634058 0.016284259 0.32315677 0.19972187 -0.52287865
0.039999999 0.029554371 0.013542293 0.32315677 0.19972187 -0.52287865
0.039999999 0.032735828 0.010829641 0.32315677 0.19972187 -0.52287865
0.039999999 0.035885587 0.008145744 0.32315677 0.19972187 -0.52287865
0.039999999 0.039004248 0.0054900567 0.32315677 0.19972187 -0.52287865
0.039999999 0.042092409 0.0028620453 0.32315677 0.19972187 -0.52287865
0.039999999 0.045150656 0.00026119052 0.32315677 0.19972187 -0.52287865
0.038741857 0.047506209 0 0.32315677 0.19972187 -0.52287865
0.037342861 0.049785737 0 0.32315677 0.19972187 -0.52287865
0.035944335 0.052066494 0 0.32315677 0.19972187 -0.52287865
0.034546237 0.054348562 0 0.32315677 0.19972187 -0.52287865
0.033148509 0.056632023 0 0.32315677 0.19972187 -0.52287865
0.031751107 0.058916952 0 0.32315677 0.19972187 -0.52287865
0.030353984 0.061203435 0 0.32315677 0.19972187 -0.52287865
0.028957088 0.063491553 0 0.32315677 0.19972187 -0.52287865
0.02756037 0.065781385 0 0.32315677 0.19972187 -0.52287865
0.026163783 0.068073019 0 0.32315677 0.19972187 -0.52287865
0.024767276 0.070366524 0 0.32315677 0.19972187 -0.52287865
0.023370802 0.072661996 0 0.32315677 0.19972187 -0.52287865
0.02197431 0.074959509 0 0.32315677 0.19972187 -0.52287865
0.020577755 0.077259153 0 0.32315677 0.19972187 -0.52287865
0.019181084 0.079561003 0 0.32315677 0.19972187 -0.52287865
0.012951555 0.079999998 0.0082748514 0.32315677 0.19972187 -0.52287865
0.0053120027 0.079999998 0.018877309 0.32315677 0.19972187 -0.52287865
0.039999999 0.0030342841 0.030791922 0.32315677 0.19972187 -0.52287865
0.039999999 0.0064686174 0.027878126 0.32315677 0.19972187 -0.52287865
0.039999999 0.0098662907 0.0249971 0.32315677 0.19972187 -0.52287865
0.039999999 0.013228037 0.022148201 0.32315677 0.19972187 -0.52287865
0.039999999 0.016554568 0.019330796 0.32315677 0.19972187 -0.52287865
0.039999999 0.019846583 0.016544268 0.32315677 0.19972187 -0.52287865
0.039999999 0.023104755 0.013788019 0.32315677 0.19972187 -0.52287865
0.039999999 0.026329752 0.011061464 0.32315677 0.19972187 -0.52287865
0.039999999 0.029522214 0.008364032 0.32315677 0.19972187 -0.52287865
0.039999999 0.032682773 0.0056951675 0.32315677 0.19972187 -0.52287865
0.039999999 0.035812039 0.0030543266 0.32315677 0.19972187 -0.52287865
0.039999999 0.038910616 0.00044098086 0.32315677 0.19972187 -0.52287865
0.038833413 0.041329198 0 0.32315677 0.19972187 -0.52287865
0.037428789 0.043613233 0 0.32315677 0.19972187 -0.52287865
0.03602469 0.045898315 0 0.32315677 0.19972187 -0.52287865
0.03462106 0.048184518 0 0.32315677 0.19972187 -0.52287865
0.033217855 0.050471928 0 0.32315677 0.19972187 -0.52287865
0.031815019 0.052760627 0 0.32315677 0.19972187 -0.52287865
0.03041251 0.055050693 0 0.32315677 0.19972187 -0.52287865
0.029010277 0.057342213 0 0.32315677 0.19972187 -0.52287865
0.027608268 0.059635263 0 0.32315677 0.19972187 -0.52287865
0.026206436 0.061929926 0 0.32315677 0.19972187 -0.52287865
0.024804732 0.064226285 0 0.32315677 0.19972187 -0.52287865
0.023403104 0.066524424 0 0.32315677 0.19972187 -0.52287865
0.022001505 0.068824418 0 0.32315677 0.19972187 -0.52287865
0.020599885 0.071126364 0 0.32315677 0.19972187 -0.52287865
0.019198196 0.07343033 0 0.32315677 0.19972187 -0.52287865
0.017796386 0.075736411 0 0.32315677 0.19972187 -0.52287865
0.016394407 0.078044683 0 0.32315677 0.19972187 -0.52287865
0.014075114 0.079999998 0.0015560815 0.32315677 0.19972187 -0.52287865
0.0065334127 0.079999998 0.011918595 0.32315677 0.19972187 -0.52287865
0.039999999 0.0031835975 0.025314875 0.32315677 0.19972187 -0.52287865
0.039999999 0.0065936157 0.022450246 0.32315677 0.19972187 -0.52287865
0.039999999 0.0099674836 0.019617533 0.32315677 0.19972187 -0.52287865
0.039999999 0.013305919 0.016816108 0.32315677 0.19972187 -0.52287865
0.039999999 0.016609622 0.014045357 0.32315677 0.19972187 -0.52287865
0.039999999 0.019879276 0.011304688 0.32315677 0.19972187 -0.52287865
0.039999999 0.023115542 0.0085935164 0.32315677 0.19972187 -0.52287865
0.039999999 0.026319074 0.0059112776 0.32315677 0.19972187 -0.52287865
0.039999999 0.029490501 0.0032574181 0.32315677 0.19972187 -0.52287865
0.039999999 0.032630444 0.0006313984 0.32315677 0.19972187 -0.52287865
0.03893061 0.035120193 0 0.32315677 0.19972187 -0.52287865
0.037520334 0.037409194 0 0.32315677 0.19972187 -0.52287865
0.036110625 0.039699052 0 0.32315677 0.19972187 -0.52287865
0.03470144 0.041989848 0 0.32315677 0.19972187 -0.52287865
0.033292729 0.044281662 0 0.32315677 0.19972187 -0.52287865
0.031884436 0.046574578 0 0.32315677 0.19972187 -0.52287865
0.03047652 0.048868679 0 0.32315677 0.19972187 -0.52287865
0.029068924 0.051164042 0 0.32315677 0.19972187 -0.52287865
0.027661605 0.053460751 0 0.32315677 0.19972187 -0.52287865
0.026254507 0.05575889 0 0.32315677 0.19972187 -0.52287865
0.024847584 0.058058538 0 0.32315677 0.19972187 -0.52287865
0.023440786 0.06035978 0 0.32315677 0.19972187 -0.52287865
0.02203406 0.062662698 0 0.32315677 0.19972187 -0.52287865
0.020627361 0.064967379 0 0.32315677 0.19972187 -0.52287865
0.019220637 0.0672739 0 0.32315677 0.19972187 -0.52287865
0.017813839 0.069582343 0 0.32315677 0.19972187 -0.52287865
0.016406916 0.071892798 0 0.32315677 0.19972187 -0.52287865
0.014999818 0.074205346 0 0.32315677 0.19972187 -0.52287865
0.013592496 0.07652007 0 0.32315677 0.19972187 -0.52287865
0.012184899 0.078837059 0 0.32315677 0.19972187 -0.52287865
0.007730274 0.079999998 0.0050997413 0.32315677 0.19972187 -0.52287865
0.039999999 0.0033307825 0.019915901 0.32315677 0.19972187 -0.52287865
0.039999999 0.0067168409 0.017099347 0.32315677 0.19972187 -0.52287865
0.039999999 0.010067249 0.014313876 0.32315677 0.19972187 -0.52287865
0.039999999 0.013382709 0.011558877 0.32315677 0.19972187 -0.52287865
0.039999999 0.016663907 0.0088337623 0.32315677 0.19972187 -0.52287865
0.039999999 0.019911513 0.0061379517 0.32315677 0.19972187 -0.52287865
0.039999999 0.023126179 0.0034708821 0.32315677 0.19972187 -0.52287865
0.039999999 0.026308544 0.00083200453 0.32315677 0.19972187 -0.52287865
0.039033201 0.028877888 0 0.32315677 0.19972187 -0.52287865
0.037617236 0.03117232 0 0.32315677 0.19972187 -0.52287865
0.036201891 0.033467419 0 0.32315677 0.19972187 -0.52287865
0.034787122 0.035763267 0 0.32315677 0.19972187 -0.52287865
0.033372875 0.038059946 0 0.32315677 0.19972187 -0.52287865
0.031959098 0.040357538 0 0.32315677 0.19972187 -0.52287865
0.030545747 0.042656124 0 0.32315677 0.19972187 -0.52287865
0.029132767 0.044955786 0 0.32315677 0.19972187 -0.52287865
0.02772011 0.047256608 0 0.32315677 0.19972187 -0.52287865
0.026307724 0.049558673 0 0.32315677 0.19972187 -0.52287865
0.024895562 0.051862057 0 0.32315677 0.19972187 -0.52287865
0.023483571 0.054166853 0 0.32315677 0.19972187 -0.52287865
0.022071702 0.056473136 0 0.32315677 0.19972187 -0.52287865
0.020659905 0.058780991 0 0.32315677 0.19972187 -0.52287865
0.01924813 0.061090503 0 0.32315677 0.19972187 -0.52287865
0.017836327 0.063401751 0 0.32315677 0.19972187 -0.52287865
0.016424444 0.065714829 0 0.32315677 0.19972187 -0.52287865
0.015012431 0.068029813 0 0.32315677 0.19972187 -0.52287865
0.01360024 0.070346788 0 0.32315677 0.19972187 -0.52287865
0.012187819 0.072665833 0 0.32315677 0.19972187 -0.52287865
0.010775117 0.074987046 0 0.32315677 0.19972187 -0.52287865
0.0093620848 0.077310503 0 0.32315677 0.19972187 -0.52287865
0.0079486705 0.079636283 0 0.32315677 0.19972187 -0.52287865
0.0012527658 0.079999998 0.0087229433 0.32315677 0.19972187 -0.52287865
0.039999999 7.7574048e-05 0.017393559 0.32315677 0.19972187 -0.52287865
0.039999999 0.0034758898 0.014593141 0.32315677 0.19972187 -0.52287865
0.039999999 0.0068383357 0.011823601 0.32315677 0.19972187 -0.52287865
0.039999999 0.010165619 0.0090843337 0.32315677 0.19972187 -0.52287865
0.039999999 0.01345843 0.0063747517 0.32315677 0.19972187 -0.52287865
0.039999999 0.01671744 0.0036942801 0.32315677 0.19972187 -0.52287865
0.039999999 0.019943308 0.0010423595 0.32315677 0.19972187 -0.52287865
0.039140932 0.022600932 0 0.32315677 0.19972187 -0.52287865
0.037719246 0.024901273 0 0.32315677 0.19972187 -0.52287865
0.03629823 0.027202088 0 0.32315677 0.19972187 -0.52287865
0.034877844 0.029503461 0 0.32315677 0.19972187 -0.52287865
0.033458032 0.031805474 0 0.32315677 0.19972187 -0.52287865
0.032038745 0.034108207 0 0.32315677 0.19972187 -0.52287865
0.030619929 0.036411744 0 0.32315677 0.19972187 -0.52287865
0.029201537 0.038716167 0 0.32315677 0.19972187 -0.52287865
0.027783517 0.041021563 0 0.32315677 0.19972187 -0.52287865
0.02636582 0.043328006 0 0.32315677 0.19972187 -0.52287865
0.024948394 0.045635588 0 0.32315677 0.19972187 -0.52287865
0.023531189 0.047944386 0 0.32315677 0.19972187 -0.52287865
0.022114154 0.050254487 0 0.32315677 0.19972187 -0.52287865
0.020697238 0.05256597 0 0.32315677 0.19972187 -0.52287865
0.019280393 0.05487892 0 0.32315677 0.19972187 -0.52287865
0.017863564 0.057193425 0 0.32315677 0.19972187 -0.52287865
0.016446704 0.059509564 0 0.32315677 0.19972187 -0.52287865
0.015029763 0.061827421 0 0.32315677 0.19972187 -0.52287865
0.013612688 0.064147085 0 0.32315677 0.19972187 -0.52287865
0.012195428 0.066468634 0 0.32315677 0.19972187 -0.52287865
0.010777933 0.068792157 0 0.32315677 0.19972187 -0.52287865
0.0093601523 0.071117744 0 0.32315677 0.19972187 -0.52287865
0.0079420349 0.073445469 0 0.32315677 0.19972187 -0.52287865
0.0065235291 0.07577543 0 0.32315677 0.19972187 -0.52287865
0.0051045846 0.0781077 0 0.32315677 0.19972187 -0.52287865
0.0025003098 0.079999998 0.0019392251 0.32315677 0.19972187 -0.52287865
0.039999999 0.00024441894 0.012098421 0.32315677 0.19972187 -0.52287865
0.039999999 0.0036189687 0.0093447939 0.32315677 0.19972187 -0.52287865
0.039999999 0.0069581405 0.0066212392 0.32315677 0.19972187 -0.52287865
0.039999999 0.010262628 0.0039271717 0.32315677 0.19972187 -0.52287865
0.039999999 0.013533108 0.0012620216 0.32315677 0.19972187 -0.52287865
0.039253552 0.016287951 0 0.32315677 0.19972187 -0.52287865
0.037826106 0.018594686 0 0.32315677 0.19972187 -0.52287865
0.036399387 0.0209017 0 0.32315677 0.19972187 -0.52287865
0.034973349 0.023209078 0 0.32315677 0.19972187 -0.52287865
0.033547942 0.025516903 0 0.32315677 0.19972187 -0.52287865
0.032123107 0.027825253 0 0.32315677 0.19972187 -0.52287865
0.030698799 0.030134216 0 0.32315677 0.19972187 -0.52287865
0.029274967 0.032443874 0 0.32315677 0.19972187 -0.52287865
0.027851557 0.034754306 0 0.32315677 0.19972187 -0.52287865
0.026428521 0.037065599 0 0.32315677 0.19972187 -0.52287865
0.025005804 0.039377838 0 0.32315677 0.19972187 -0.52287865
0.02358336 0.041691102 0 0.32315677 0.19972187 -0.52287865
0.022161135 0.044005476 0 0.32315677 0.19972187 -0.52287865
0.02073908 0.046321046 0 0.32315677 0.19972187 -0.52287865
0.019317143 0.048637893 0 0.32315677 0.19972187 -0.52287865
0.017895272 0.050956104 0 0.32315677 0.19972187 -0.52287865
0.016473416 0.053275757 0 0.32315677 0.19972187 -0.52287865
0.015051526 0.055596944 0 0.32315677 0.19972187 -0.52287865
0.013629549 0.057919744 0 0.32315677 0.19972187 -0.52287865
0.012207435 0.060244244 0 0.32315677 0.19972187 -0.52287865
0.010785132 0.062570527 0 0.32315677 0.19972187 -0.52287865
0.0093625886 0.064898685 0 0.32315677 0.19972187 -0.52287865
0.007939755 0.067228794 0 0.32315677 0.19972187 -0.52287865
0.0065165786 0.069560945 0 0.32315677 0.19972187 -0.52287865
0.0050930078 0.071895219 0 0.32315677 0.19972187 -0.52287865
0.0036689916 0.074231714 0 0.32315677 0.19972187 -0.52287865
0.0022444779 0.076570503 0 0.32315677 0.19972187 -0.52287865
0.0008194152 0.078911684 0 0.32315677 0.19972187 -0.52287865
0.039999999 0.00040894203 0.006876972 0.32315677 0.19972187 -0.52287865
0.039999999 0.0037600663 0.0041691144 0.32315677 0.19972187 -0.52287865
0.039999999 0.0070762946 0.0014905472 0.32315677 0.19972187 -0.52287865
0.039370805 0.0099375285 0 0.32315677 0.19972187 -0.52287865
0.037937563 0.012251155 0 0.32315677 0.19972187 -0.52287865
0.036505103 0.014564863 0 0.32315677 0.19972187 -0.52287865
0.035073377 0.016878737 0 0.32315677 0.19972187 -0.52287865
0.033642337 0.01919286 0 0.32315677 0.19972187 -0.52287865
0.032211926 0.021507313 0 0.32315677 0.19972187 -0.52287865
0.030782092 0.023822185 0 0.32315677 0.19972187 -0.52287865
0.029352786 0.026137553 0 0.32315677 0.19972187 -0.52287865
0.027923958 0.028453505 0 0.32315677 0.19972187 -0.52287865
0.026495554 0.030770123 0 0.32315677 0.19972187 -0.52287865
0.025067521 0.033087492 0 0.32315677 0.19972187 -0.52287865
0.023639813 0.035405692 0 0.32315677 0.19972187 -0.52287865
0.022212373 0.037724812 0 0.32315677 0.19972187 -0.52287865
0.020785153 0.040044934 0 0.32315677 0.19972187 -0.52287865
0.0193581 0.04236614 0 0.32315677 0.19972187 -0.52287865
0.017931163 0.044688515 0 0.32315677 0.19972187 -0.52287865
0.016504291 0.047012147 0 0.32315677 0.19972187 -0.52287865
0.015077432 0.049337119 0 0.32315677 0.19972187 -0.52287865
0.013650535 0.051663511 0 0.32315677 0.19972187 -0.52287865
0.012223548 0.053991415 0 0.32315677 0.19972187 -0.52287865
0.01079642 0.056320913 0 0.32315677 0.19972187 -0.52287865
0.0093690995 0.058652088 0 0.32315677 0.19972187 -0.52287865
0.0079415338 0.060985029 0 0.32315677 0.19972187 -0.52287865
0.0065136724 0.063319825 0 0.32315677 0.19972187 -0.52287865
0.0050854632 0.06565655 0 0.32315677 0.19972187 -0.52287865
0.0036568535 0.067995302 0 0.32315677 0.19972187 -0.52287865
0.0022277921 0.070336163 0 0.32315677 0.19972187 -0.52287865
0.00079822651 0.072679222 0 0.32315677 0.19972187 -0.52287865
0.039999999 0.00057119748 0.0017274894 0.32315677 0.19972187 -0.52287865
0.039492436 0.0035482144 0 0.32315677 0.19972187 -0.52287865
0.038053356 0.0058692396 0 0.32315677 0.19972187 -0.52287865
0.036615115 0.0081901457 0 0.32315677 0.19972187 -0.52287865
0.035177667 0.010511016 0 0.32315677 0.19972187 -0.52287865
0.033740956 0.012831937 0 0.32315677 0.19972187 -0.52287865
0.032304931 0.015152989 0 0.32315677 0.19972187 -0.52287865
0.03086954 0.01747426 0 0.32315677 0.19972187 -0.52287865
0.029434729 0.019795831 0 0.32315677 0.19972187 -0.52287865
0.02800045 0.022117788 0 0.32315677 0.19972187 -0.52287865
0.026566645 0.024440214 0 0.32315677 0.19972187 -0.52287865
0.025133269 0.026763193 0 0.32315677 0.19972187 -0.52287865
0.023700265 0.029086813 0 0.32315677 0.19972187 -0.52287865
0.022267584 0.031411152 0 0.32315677 0.19972187 -0.52287865
0.020835172 0.0337363 0 0.32315677 0.19972187 -0.52287865
0.019402979 0.036062341 0 0.32315677 0.19972187 -0.52287865
0.017970953 0.038389355 0 0.32315677 0.19972187 -0.52287865
0.016539041 0.04071743 0 0.32315677 0.19972187 -0.52287865
0.015107193 0.043046653 0 0.32315677 0.19972187 -0.52287865
0.013675354 0.045377105 0 0.32315677 0.19972187 -0.52287865
0.012243476 0.047708873 0 0.32315677 0.19972187 -0.52287865
0.010811504 0.050042041 0 0.32315677 0.19972187 -0.52287865
0.0093793878 0.052376699 0 0.32315677 0.19972187 -0.52287865
0.0079470742 0.054712929 0 0.32315677 0.19972187 -0.52287865
0.006514512 0.057050817 0 0.32315677 0.19972187 -0.52287865
0.0050816489 0.059390448 0 0.32315677 0.19972187 -0.52287865
0.0036484322 0.061731912 0 0.32315677 0.19972187 -0.52287865
0.0022148099 0.064075299 0 0.32315677 0.19972187 -0.52287865
0.00078072969 0.066420682 0 0.32315677 0.19972187 -0.52287865
0.036729168 0.0017760802 0 0.32315677 0.19972187 -0.52287865
0.035285957 0.0041044601 0 0.32315677 0.19972187 -0.52287865
0.033843536 0.0064326865 0 0.32315677 0.19972187 -0.52287865
0.03240186 0.0087608444 0 0.32315677 0.19972187 -0.52287865
0.030960873 0.011089018 0 0.32315677 0.19972187 -0.52287865
0.029520523 0.013417291 0 0.32315677 0.19972187 -0.52287865
0.028080758 0.015745752 0 0.32315677 0.19972187 -0.52287865
0.026641523 0.018074481 0 0.32315677 0.19972187 -0.52287865
0.025202768 0.020403564 0 0.32315677 0.19972187 -0.52287865
0.023764441 0.022733089 0 0.32315677 0.19972187 -0.52287865
0.022326488 0.025063138 0 0.32315677 0.19972187 -0.52287865
0.020888858 0.027393796 0 0.32315677 0.19972187 -0.52287865
0.019451499 0.029725149 0 0.32315677 0.19972187 -0.52287865
0.018014356 0.032057282 0 0.32315677 0.19972187 -0.52287865
0.01657738 0.034390278 0 0.32315677 0.19972187 -0.52287865
0.015140518 0.036724225 0 0.32315677 0.19972187 -0.52287865
0.013703716 0.039059207 0 0.32315677 0.19972187 -0.52287865
0.012266924 0.041395314 0 0.32315677 0.19972187 -0.52287865
0.010830088 0.043732625 0 0.32315677 0.19972187 -0.52287865
0.0093931565 0.046071228 0 0.32315677 0.19972187 -0.52287865
0.0079560764 0.048411209 0 0.32315677 0.19972187 -0.52287865
0.0065187956 0.050752655 0 0.32315677 0.19972187 -0.52287865
0.005081262 0.05309565 0 0.32315677 0.19972187 -0.52287865
0.0036434229 0.055440288 0 0.32315677 0.19972187 -0.52287865
0.0022052252 0.057786647 0 0.32315677 0.19972187 -0.52287865
0.00076661661 0.060134821 0 0.32315677 0.19972187 -0.52287865
0.032502443 0.0023294061 0 0.32315677 0.19972187 -0.52287865
0.031055823 0.0046649966 0 0.32315677 0.19972187 -0.52287865
0.029609894 0.007000484 0 0.32315677 0.19972187 -0.52287865
0.028164608 0.0093359537 0 0.32315677 0.19972187 -0.52287865
0.026719909 0.011671491 0 0.32315677 0.19972187 -0.52287865
0.025275743 0.014007182 0 0.32315677 0.19972187 -0.52287865
0.023832059 0.016343111 0 0.32315677 0.19972187 -0.52287865
0.022388805 0.018679364 0 0.32315677 0.19972187 -0.52287865
0.020945925 0.021016028 0 0.32315677 0.19972187 -0.52287865
0.01950337 0.023353186 0 0.32315677 0.19972187 -0.52287865
0.018061085 0.025690923 0 0.32315677 0.19972187 -0.52287865
0.016619017 0.028029328 0 0.32315677 0.19972187 -0.52287865
0.015177116 0.030368485 0 0.32315677 0.19972187 -0.52287865
0.013735326 0.032708481 0 0.32315677 0.19972187 -0.52287865
0.012293597 0.035049397 0 0.32315677 0.19972187 -0.52287865
0.010851874 0.037391327 0 0.32315677 0.19972187 -0.52287865
0.0094101056 0.039734349 0 0.32315677 0.19972187 -0.52287865
0.0079682386 0.042078558 0 0.32315677 0.19972187 -0.52287865
0.0065262206 0.044424031 0 0.32315677 0.19972187 -0.52287865
0.0050839987 0.046770863 0 0.32315677 0.19972187 -0.52287865
0.0036415192 0.049119137 0 0.32315677 0.19972187 -0.52287865
0.0021987301 0.051468939 0 0.32315677 0.19972187 -0.52287865
0.0007555777 0.05382036 0 0.32315677 0.19972187 -0.52287865
0.029702572 0.00054391922 0 0.32315677 0.19972187 -0.52287865
0.028251726 0.0028869179 0 0.32315677 0.19972187 -0.52287865
0.026801523 0.0052297791 0 0.32315677 0.19972187 -0.52287865
0.025351912 0.0075725885 0 0.32315677 0.19972187 -0.52287865
0.023902837 0.0099154329 0 0.32315677 0.19972187 -0.52287865
0.022454247 0.012258397 0 0.32315677 0.19972187 -0.52287865
0.021006087 0.014601569 0 0.32315677 0.19972187 -0.52287865
0.019558305 0.016945032 0 0.32315677 0.19972187 -0.52287865
0.018110847 0.019288875 0 0.32315677 0.19972187 -0.52287865
0.016663661 0.021633184 0 0.32315677 0.19972187 -0.52287865
0.015216692 0.023978043 0 0.32315677 0.19972187 -0.52287865
0.013769888 0.02632354 0 0.32315677 0.19972187 -0.52287865
0.012323197 0.028669761 0 0.32315677 0.19972187 -0.52287865
0.010876563 0.031016793 0 0.32315677 0.19972187 -0.52287865
0.0094299354 0.033364721 0 0.32315677 0.19972187 -0.52287865
0.0079832599 0.035713635 0 0.32315677 0.19972187 -0.52287865
0.0065364828 0.038063619 0 0.32315677 0.19972187 -0.52287865
0.0050895521 0.040414762 0 0.32315677 0.19972187 -0.52287865
0.003642414 0.042767145 0 0.32315677 0.19972187 -0.52287865
0.0021950151 0.045120865 0 0.32315677 0.19972187 -0.52287865
0.00074730179 0.047476001 0 0.32315677 0.19972187 -0.52287865
0.025430992 0.0010982906 0 0.32315677 0.19972187 -0.52287865
0.023976492 0.0034485699 0 0.32315677 0.19972187 -0.52287865
0.02252253 0.0057987631 0 0.32315677 0.19972187 -0.52287865
0.021069055 0.008148958 0 0.32315677 0.19972187 -0.52287865
0.019616015 0.010499239 0 0.32315677 0.19972187 -0.52287865
0.018163353 0.012849696 0 0.32315677 0.19972187 -0.52287865
0.016711017 0.015200413 0 0.32315677 0.19972187 -0.52287865
0.015258952 0.017551478 0 0.32315677 0.19972187 -0.52287865
0.013807107 0.019902978 0 0.32315677 0.19972187 -0.52287865
0.012355425 0.022255002 0 0.32315677 0.19972187 -0.52287865
0.010903855 0.024607632 0 0.32315677 0.19972187 -0.52287865
0.009452343 0.026960958 0 0.32315677 0.19972187 -0.52287865
0.0080008339 0.029315067 0 0.32315677 0.19972187 -0.52287865
0.0065492764 0.031670049 0 0.32315677 0.19972187 -0.52287865
0.0050976151 0.034025986 0 0.32315677 0.19972187 -0.52287865
0.0036457973 0.036382966 0 0.32315677 0.19972187 -0.52287865
0.0021937687 0.038741082 0 0.32315677 0.19972187 -0.52287865
0.00074147584 0.041100416 0 0.32315677 0.19972187 -0.52287865
0.021134542 0.0016566943 0 0.32315677 0.19972187 -0.52287865
0.019676207 0.0040143165 0 0.32315677 0.19972187 -0.52287865
0.018218307 0.0063719056 0 0.32315677 0.19972187 -0.52287865
0.016760789 0.0087295491 0 0.32315677 0.19972187 -0.52287865
0.015303598 0.011087334 0 0.32315677 0.19972187 -0.52287865
0.01384668 0.013445348 0 0.32315677 0.19972187 -0.52287865
0.01238998 0.015803678 0 0.32315677 0.19972187 -0.52287865
0.010933446 0.018162413 0 0.32315677 0.19972187 -0.52287865
0.0094770221 0.020521639 0 0.32315677 0.19972187 -0.52287865
0.0080206562 0.022881446 0 0.32315677 0.19972187 -0.52287865
0.0065642921 0.025241919 0 0.32315677 0.19972187 -0.52287865
0.0051078773 0.027603148 0 0.32315677 0.19972187 -0.52287865
0.003651357 0.029965218 0 0.32315677 0.19972187 -0.52287865
0.0021946775 0.032328218 0 0.32315677 0.19972187 -0.52287865
0.00073778455 0.034692239 0 0.32315677 0.19972187 -0.52287865
0.01681268 0.002219084 0 0.32315677 0.19972187 -0.52287865
0.015350329 0.0045841127 0 0.32315677 0.19972187 -0.52287865
0.013888306 0.0069491621 0 0.32315677 0.19972187 -0.52287865
0.012426559 0.0093143201 0 0.32315677 0.19972187 -0.52287865
0.010965031 0.011679674 0 0.32315677 0.19972187 -0.52287865
0.0095036672 0.014045314 0 0.32315677 0.19972187 -0.52287865
0.0080424147 0.016411327 0 0.32315677 0.19972187 -0.52287865
0.0065812194 0.018777801 0 0.32315677 0.19972187 -0.52287865
0.0051200255 0.021144824 0 0.32315677 0.19972187 -0.52287865
0.003658779 0.023512485 0 0.32315677 0.19972187 -0.52287865
0.0021974256 0.025880873 0 0.32315677 0.19972187 -0.52287865
0.00073591038 0.028250078 0 0.32315677 0.19972187 -0.52287865
0.013931681 0.00041289855 0 0.32315677 0.19972187 -0.52287865
0.012464852 0.0027854131 0 0.32315677 0.19972187 -0.52287865
0.010998299 0.0051579135 0 0.32315677 0.19972187 -0.52287865
0.0095319664 0.007530489 0 0.32315677 0.19972187 -0.52287865
0.0080658002 0.0099032288 0 0.32315677 0.19972187 -0.52287865
0.0065997443 0.012276221 0 0.32315677 0.19972187 -0.52287865
0.0051337448 0.014649555 0 0.32315677 0.19972187 -0.52287865
0.0036677462 0.017023319 0 0.32315677 0.19972187 -0.52287865
0.0022016938 0.019397603 0 0.32315677 0.19972187 -0.52287865
0.0007355329 0.021772496 0 0.32315677 0.19972187 -0.52287865
0.0095616076 0.00097563688 0 0.32315677 0.19972187 -0.52287865
0.0080904961 0.0033556351 0 0.32315677 0.19972187 -0.52287865
0.0066195508 0.0057356744 0 0.32315677 0.19972187 -0.52287865
0.0051487167 0.0081158439 0 0.32315677 0.19972187 -0.52287865
0.0036779386 0.010496235 0 0.32315677 0.19972187 -0.52287865
0.0022071612 0.012876934 0 0.32315677 0.19972187 -0.52287865
0.00073632895 0.015258034 0 0.32315677 0.19972187 -0.52287865
0.0051646195 0.0015421547 0 0.32315677 0.19972187 -0.52287865
0.003689033 0.003929704 0 0.32315677 0.19972187 -0.52287865
0.0022135023 0.0063173501 0 0.32315677 0.19972187 -0.52287865
0.00073797198 0.0087051829 0 0.32315677 0.19972187 -0.52287865
0.000740132 0.0021124044 0 0.32315677 0.19972187 -0.52287865
