# .PCD v0.7 - Point Cloud Data file format
VERSION 0.7
FIELDS x y z vp_x vp_y vp_z
SIZE 4 4 4 4 4 4
TYPE F F F F F F
COUNT 1 1 1 1 1 1
WIDTH 586
HEIGHT 1
VIEWPOINT 0 0 0 1 0 0 0
POINTS 586
DATA ascii
0.039999999 0.00061417121 0.039347395 0.32315677 -0.19972187 -0.52287865
0.035631761 0 0.039333355 0.32315677 -0.19972187 -0.52287865
0.039999999 0.00043746072 0.033739157 0.32315677 -0.19972187 -0.52287865
0.039999999 0.0039473879 0.036720511 0.32315677 -0.19972187 -0.52287865
0.039999999 0.0074962899 0.039736684 0.32315677 -0.19972187 -0.52287865
0.035413325 0 0.034194712 0.32315677 -0.19972187 -0.52287865
0.039999999 0.00026330707 0.028212063 0.32315677 -0.19972187 -0.52287865
0.039999999 0.0037478539 0.031142469 0.32315677 -0.19972187 -0.52287865
0.039999999 0.0072708186 0.034106772 0.32315677 -0.19972187 -0.52287865
0.039999999 0.010832997 0.037105668 0.32315677 -0.19972187 -0.52287865
0.030145753 0 0.035891324 0.32315677 -0.19972187 -0.52287865
0.035197675 0 0.029121667 0.32315677 -0.19972187 -0.52287865
0.039999999 9.1648704e-05 0.022764161 0.32315677 -0.19972187 -0.52287865
0.039999999 0.0035511935 0.025644766 0.32315677 -0.19972187 -0.52287865
0.039999999 0.007048612 0.028558372 0.32315677 -0.19972187 -0.52287865
0.039999999 0.010584684 0.031505652 0.32315677 -0.19972187 -0.52287865
0.039999999 0.01416021 0.034487303 0.32315677 -0.19972187 -0.52287865
0.039999999 0.017776014 0.037504029 0.32315677 -0.19972187 -0.52287865
0.033832554 0.045594942 0.069000222 0.32315677 -0.19972187 -0.52287865
0.035875857 0.047842298 0.068151869 0.32315677 -0.19972187 -0.52287865
0.037527088 0.050424475 0.06810917 0.32315677 -0.19972187 -0.52287865
0.038834177 0.053315535 0.068786368 0.32315677 -0.19972187 -0.52287865
0.024814725 0 0.037612714 0.32315677 -0.19972187 -0.52287865
0.029961191 0 0.030780498 0.32315677 -0.19972187 -0.52287865
0.034984753 0 0.024112789 0.32315677 -0.19972187 -0.52287865
0.039889976 0 0.017603487 0.32315677 -0.19972187 -0.52287865
0.039999999 0.003357338 0.020225473 0.32315677 -0.19972187 -0.52287865
0.039999999 0.006829591 0.023089517 0.32315677 -0.19972187 -0.52287865
0.039999999 0.010339949 0.025986347 0.32315677 -0.19972187 -0.52287865
0.039999999 0.013889198 0.028916633 0.32315677 -0.19972187 -0.52287865
0.039999999 0.017478142 0.03188106 0.32315677 -0.19972187 -0.52287865
0.039999999 0.021107608 0.034880333 0.32315677 -0.19972187 -0.52287865
0.039999999 0.024778446 0.037915178 0.32315677 -0.19972187 -0.52287865
0.028297748 0.041834552 0.067526355 0.32315677 -0.19972187 -0.52287865
0.031160537 0.0434082 0.065038435 0.32315677 -0.19972187 -0.52287865
0.033563495 0.045340084 0.063457415 0.32315677 -0.19972187 -0.52287865
0.035625 0.047546975 0.062557623 0.32315677 -0.19972187 -0.52287865
0.037331223 0.050055049 0.062379062 0.32315677 -0.19972187 -0.52287865
0.038666058 0.052893609 0.062967323 0.32315677 -0.19972187 -0.52287865
0.039598927 0.056106318 0.064399086 0.32315677 -0.19972187 -0.52287865
0.039991219 0.059838008 0.066977836 0.32315677 -0.19972187 -0.52287865
0.019418783 0 0.039359123 0.32315677 -0.19972187 -0.52287865
0.024661964 0 0.032463185 0.32315677 -0.19972187 -0.52287865
0.029778967 0 0.025734453 0.32315677 -0.19972187 -0.52287865
0.034774501 0 0.019166676 0.32315677 -0.19972187 -0.52287865
0.039653048 0 0.012753926 0.32315677 -0.19972187 -0.52287865
0.039999999 0.0031662204 0.01488272 0.32315677 -0.19972187 -0.52287865
0.039999999 0.0066136797 0.017698308 0.32315677 -0.19972187 -0.52287865
0.039999999 0.010098708 0.020545814 0.32315677 -0.19972187 -0.52287865
0.039999999 0.013622073 0.02342589 0.32315677 -0.19972187 -0.52287865
0.039999999 0.017184567 0.026339198 0.32315677 -0.19972187 -0.52287865
0.039999999 0.020786995 0.029286422 0.32315677 -0.19972187 -0.52287865
0.039999999 0.024430193 0.032268263 0.32315677 -0.19972187 -0.52287865
0.039999999 0.028115015 0.035285447 0.32315677 -0.19972187 -0.52287865
0.039999999 0.031842336 0.038338706 0.32315677 -0.19972187 -0.52287865
0.030847471 0.043219835 0.059669018 0.32315677 -0.19972187 -0.52287865
0.033297952 0.045088563 0.057987165 0.32315677 -0.19972187 -0.52287865
0.035377476 0.047255579 0.057037711 0.32315677 -0.19972187 -0.52287865
0.037138052 0.049690701 0.056727692 0.32315677 -0.19972187 -0.52287865
0.038500302 0.052477598 0.057229828 0.32315677 -0.19972187 -0.52287865
0.039503824 0.05559767 0.058476947 0.32315677 -0.19972187 -0.52287865
0.03995882 0.059240233 0.060873237 0.32315677 -0.19972187 -0.52287865
0.039640814 0.06363821 0.064904146 0.32315677 -0.19972187 -0.52287865
0.019298572 0 0.034169961 0.32315677 -0.19972187 -0.52287865
0.024511145 0 0.027379083 0.32315677 -0.19972187 -0.52287865
0.019205086 0.007071516 0.039999999 0.32315677 -0.19972187 -0.52287865
0.034566857 0 0.014281975 0.32315677 -0.19972187 -0.52287865
0.039419029 0 0.0079639023 0.32315677 -0.19972187 -0.52287865
0.039999999 0.0029777761 0.0096147014 0.32315677 -0.19972187 -0.52287865
0.039999999 0.006400804 0.012382899 0.32315677 -0.19972187 -0.52287865
0.039999999 0.0098608751 0.015182177 0.32315677 -0.19972187 -0.52287865
0.039999999 0.013358744 0.018013161 0.32315677 -0.19972187 -0.52287865
0.039999999 0.016895184 0.020876497 0.32315677 -0.19972187 -0.52287865
0.039999999 0.020470986 0.023772847 0.32315677 -0.19972187 -0.52287865
0.039999999 0.024086969 0.026702886 0.32315677 -0.19972187 -0.52287865
0.039999999 0.027743967 0.029667316 0.32315677 -0.19972187 -0.52287865
0.039999999 0.03144284 0.032666851 0.32315677 -0.19972187 -0.52287865
0.039999999 0.035184469 0.035702225 0.32315677 -0.19972187 -0.52287865
0.039999999 0.038969763 0.038774196 0.32315677 -0.19972187 -0.52287865
0.035133213 0.046968017 0.05159045 0.32315677 -0.19972187 -0.52287865
0.03691427 0.049360231 0.051219907 0.32315677 -0.19972187 -0.52287865
0.03833684 0.052067358 0.051571965 0.32315677 -0.19972187 -0.52287865
0.039373718 0.05512904 0.052714176 0.32315677 -0.19972187 -0.52287865
0.039926909 0.058651406 0.054860037 0.32315677 -0.19972187 -0.52287865
0.039767046 0.062868372 0.058497492 0.32315677 -0.19972187 -0.52287865
0.038031939 0.068623304 0.06543152 0.32315677 -0.19972187 -0.52287865
0.011600767 0.0014650669 0.039999999 0.32315677 -0.19972187 -0.52287865
0.019179892 0 0.029046884 0.32315677 -0.19972187 -0.52287865
0.024362223 0 0.022358969 0.32315677 -0.19972187 -0.52287865
0.029421333 0 0.015831098 0.32315677 -0.19972187 -0.52287865
0.034361769 0 0.0094573628 0.32315677 -0.19972187 -0.52287865
0.03918786 0 0.0032321475 0.32315677 -0.19972187 -0.52287865
0.039999999 0.0027919423 0.0044196621 0.32315677 -0.19972187 -0.52287865
0.039999999 0.0061908923 0.0071415063 0.32315677 -0.19972187 -0.52287865
0.039999999 0.0096263727 0.0098936148 0.32315677 -0.19972187 -0.52287865
0.039999999 0.013099121 0.012676595 0.32315677 -0.19972187 -0.52287865
0.039999999 0.016609894 0.015491069 0.32315677 -0.19972187 -0.52287865
0.039999999 0.020159472 0.01833768 0.32315677 -0.19972187 -0.52287865
0.039999999 0.023748653 0.021217084 0.32315677 -0.19972187 -0.52287865
0.039999999 0.027378254 0.024129953 0.32315677 -0.19972187 -0.52287865
0.039999999 0.031049117 0.027076984 0.32315677 -0.19972187 -0.52287865
0.039999999 0.034762107 0.030058885 0.32315677 -0.19972187 -0.52287865
0.039999999 0.038518112 0.033076387 0.32315677 -0.19972187 -0.52287865
0.039999999 0.042318046 0.036130246 0.32315677 -0.19972187 -0.52287865
0.039999999 0.04616284 0.039221227 0.32315677 -0.19972187 -0.52287865
0.038175628 0.051662758 0.045991879 0.32315677 -0.19972187 -0.52287865
0.039245442 0.054667 0.047032427 0.32315677 -0.19972187 -0.52287865
0.039895467 0.058071312 0.048935983 0.32315677 -0.19972187 -0.52287865
0.039885297 0.062116362 0.052205469 0.32315677 -0.19972187 -0.52287865
0.038513087 0.067490309 0.058297496 0.32315677 -0.19972187 -0.52287865
0.008373416 0 0.037656695 0.32315677 -0.19972187 -0.52287865
0.013783774 0 0.030738071 0.32315677 -0.19972187 -0.52287865
0.019062707 0 0.023988444 0.32315677 -0.19972187 -0.52287865
0.02421516 0 0.017401461 0.32315677 -0.19972187 -0.52287865
0.029245827 0 0.010971081 0.32315677 -0.19972187 -0.52287865
0.03415918 0 0.0046915594 0.32315677 -0.19972187 -0.52287865
0.038173229 0.00055253826 0 0.32315677 -0.19972187 -0.52287865
0.03961819 0.0028814801 0 0.32315677 -0.19972187 -0.52287865
0.039999999 0.0059838761 0.0019723983 0.32315677 -0.19972187 -0.52287865
0.039999999 0.0093951197 0.0046783662 0.32315677 -0.19972187 -0.52287865
0.039999999 0.012843114 0.0074143941 0.32315677 -0.19972187 -0.52287865
0.039999999 0.016328603 0.010181085 0.32315677 -0.19972187 -0.52287865
0.039999999 0.019852346 0.01297906 0.32315677 -0.19972187 -0.52287865
0.039999999 0.023415126 0.015808955 0.32315677 -0.19972187 -0.52287865
0.039999999 0.027017746 0.018671423 0.32315677 -0.19972187 -0.52287865
0.039999999 0.030661032 0.021567132 0.32315677 -0.19972187 -0.52287865
0.039999999 0.034345824 0.024496775 0.32315677 -0.19972187 -0.52287865
0.039999999 0.038073 0.027461054 0.32315677 -0.19972187 -0.52287865
0.039999999 0.041843448 0.030460697 0.32315677 -0.19972187 -0.52287865
0.039999999 0.045658085 0.033496451 0.32315677 -0.19972187 -0.52287865
0.039999999 0.049517855 0.036569081 0.32315677 -0.19972187 -0.52287865
0.039999999 0.053423725 0.039679382 0.32315677 -0.19972187 -0.52287865
0.039832208 0.057529043 0.043163378 0.32315677 -0.19972187 -0.52287865
0.039921399 0.061450258 0.046174154 0.32315677 -0.19972187 -0.52287865
0.03893888 0.06642168 0.051388491 0.32315677 -0.19972187 -0.52287865
0.002808627 2.7755576e-17 0.039437138 0.32315677 -0.19972187 -0.52287865
0.0083213281 0 0.032452863 0.32315677 -0.19972187 -0.52287865
0.013699079 0 0.025640396 0.32315677 -0.19972187 -0.52287865
0.018946989 0 0.01899324 0.32315677 -0.19972187 -0.52287865
0.024069913 0 0.012505209 0.32315677 -0.19972187 -0.52287865
0.029072465 0 0.0061704316 0.32315677 -0.19972187 -0.52287865
0.033949811 6.3727675e-06 0 0.32315677 -0.19972187 -0.52287865
0.035397977 0.0023424258 0 0.32315677 -0.19972187 -0.52287865
0.036846999 0.0046788384 0 0.32315677 -0.19972187 -0.52287865
0.038296923 0.0070156967 0 0.32315677 -0.19972187 -0.52287865
0.039747812 0.0093530854 0 0.32315677 -0.19972187 -0.52287865
0.039999999 0.012590642 0.00222482 0.32315677 -0.19972187 -0.52287865
0.039999999 0.016051212 0.0049447734 0.32315677 -0.19972187 -0.52287865
0.039999999 0.019549502 0.0076951827 0.32315677 -0.19972187 -0.52287865
0.039999999 0.023086276 0.010476665 0.32315677 -0.19972187 -0.52287865
0.039999999 0.026662322 0.013289849 0.32315677 -0.19972187 -0.52287865
0.039999999 0.030278446 0.016135387 0.32315677 -0.19972187 -0.52287865
0.039999999 0.033935476 0.019013943 0.32315677 -0.19972187 -0.52287865
0.039999999 0.037634268 0.021926204 0.32315677 -0.19972187 -0.52287865
0.039999999 0.041375689 0.024872867 0.32315677 -0.19972187 -0.52287865
0.039999999 0.045160644 0.027854657 0.32315677 -0.19972187 -0.52287865
0.039999999 0.048990052 0.030872315 0.32315677 -0.19972187 -0.52287865
0.039999999 0.052864861 0.033926606 0.32315677 -0.19972187 -0.52287865
0.039999999 0.056786045 0.037018307 0.32315677 -0.19972187 -0.52287865
0.039956953 0.060794204 0.040233817 0.32315677 -0.19972187 -0.52287865
0.039191689 0.065526612 0.044933476 0.32315677 -0.19972187 -0.52287865
0.0027910525 0 0.034191482 0.32315677 -0.19972187 -0.52287865
0.0082699005 0 0.027315024 0.32315677 -0.19972187 -0.52287865
0.013615445 0 0.020606605 0.32315677 -0.19972187 -0.52287865
0.018832704 0 0.014059901 0.32315677 -0.19972187 -0.52287865
0.023926444 0 0.0076689003 0.32315677 -0.19972187 -0.52287865
0.028901201 0 0.0014278875 0.32315677 -0.19972187 -0.52287865
0.031154115 0.0017993035 0 0.32315677 -0.19972187 -0.52287865
0.032606412 0.0041428362 0 0.32315677 -0.19972187 -0.52287865
0.03405951 0.0064867651 0 0.32315677 -0.19972187 -0.52287865
0.035513468 0.0088311769 0 0.32315677 -0.19972187 -0.52287865
0.036968339 0.011176158 0 0.32315677 -0.19972187 -0.52287865
0.038424179 0.013521794 0 0.32315677 -0.19972187 -0.52287865
0.039881036 0.015868174 0 0.32315677 -0.19972187 -0.52287865
0.039999999 0.019250842 0.002484296 0.32315677 -0.19972187 -0.52287865
0.039999999 0.022761993 0.0052184262 0.32315677 -0.19972187 -0.52287865
0.039999999 0.026311859 0.0079834163 0.32315677 -0.19972187 -0.52287865
0.039999999 0.029901231 0.010779895 0.32315677 -0.19972187 -0.52287865
0.039999999 0.033530921 0.013608507 0.32315677 -0.19972187 -0.52287865
0.039999999 0.037201762 0.016469913 0.32315677 -0.19972187 -0.52287865
0.039999999 0.04091461 0.019364793 0.32315677 -0.19972187 -0.52287865
0.039999999 0.044670343 0.022293843 0.32315677 -0.19972187 -0.52287865
0.039999999 0.048469871 0.025257785 0.32315677 -0.19972187 -0.52287865
0.039999999 0.05231411 0.028257351 0.32315677 -0.19972187 -0.52287865
0.039999999 0.056204025 0.031293299 0.32315677 -0.19972187 -0.52287865
0.039999999 0.060140591 0.03436641 0.32315677 -0.19972187 -0.52287865
0.039999999 0.064124815 0.037477482 0.32315677 -0.19972187 -0.52287865
0.036087696 0.071858957 0.04841315 0.32315677 -0.19972187 -0.52287865
0.0027737014 0 0.029012533 0.32315677 -0.19972187 -0.52287865
0.0082191192 0 0.022241743 0.32315677 -0.19972187 -0.52287865
0.01353285 0 0.015635317 0.32315677 -0.19972187 -0.52287865
0.01871982 0 0.0091871051 0.32315677 -0.19972187 -0.52287865
0.023784716 0 0.0028912611 0.32315677 -0.19972187 -0.52287865
0.026886087 0.0012521616 0 0.32315677 -0.19972187 -0.52287865
0.02834183 0.0036028733 0 0.32315677 -0.19972187 -0.52287865
0.029798275 0.0059539317 0 0.32315677 -0.19972187 -0.52287865
0.031255476 0.008305423 0 0.32315677 -0.19972187 -0.52287865
0.032713488 0.010657435 0 0.32315677 -0.19972187 -0.52287865
0.034172364 0.013010056 0 0.32315677 -0.19972187 -0.52287865
0.03563216 0.01536337 0 0.32315677 -0.19972187 -0.52287865
0.037092928 0.017717468 0 0.32315677 -0.19972187 -0.52287865
0.038554724 0.020072434 0 0.32315677 -0.19972187 -0.52287865
0.039999999 0.022442171 3.2513162e-05 0.32315677 -0.19972187 -0.52287865
0.039999999 0.025966244 0.0027503632 0.32315677 -0.19972187 -0.52287865
0.039999999 0.029529262 0.0054988624 0.32315677 -0.19972187 -0.52287865
0.039999999 0.03313202 0.0082786335 0.32315677 -0.19972187 -0.52287865
0.039999999 0.036775336 0.011090318 0.32315677 -0.19972187 -0.52287865
0.039999999 0.040460046 0.013934573 0.32315677 -0.19972187 -0.52287865
0.039999999 0.044187013 0.016812073 0.32315677 -0.19972187 -0.52287865
0.039999999 0.047957122 0.019723512 0.32315677 -0.19972187 -0.52287865
0.039999999 0.051771279 0.022669602 0.32315677 -0.19972187 -0.52287865
0.039999999 0.055630419 0.025651077 0.32315677 -0.19972187 -0.52287865
0.039999999 0.0595355 0.028668685 0.32315677 -0.19972187 -0.52287865
0.039999999 0.063487507 0.031723201 0.32315677 -0.19972187 -0.52287865
0.039999999 0.067487456 0.034815423 0.32315677 -0.19972187 -0.52287865
0.039999999 0.071536392 0.037946165 0.32315677 -0.19972187 -0.52287865
0.0027565691 0 0.023898836 0.32315677 -0.19972187 -0.52287865
0.0081689702 0 0.017231621 0.32315677 -0.19972187 -0.52287865
0 0.008674412 0.033900913 0.32315677 -0.19972187 -0.52287865
0.018608309 0 0.0043735607 0.32315677 -0.19972187 -0.52287865
0.022593366 0.00070104859 0 0.32315677 -0.19972187 -0.52287865
0.024052734 0.0030589998 0 0.32315677 -0.19972187 -0.52287865
0.025512699 0.0054172468 0 0.32315677 -0.19972187 -0.52287865
0.026973318 0.0077758771 0 0.32315677 -0.19972187 -0.52287865
0.028434642 0.010134978 0 0.32315677 -0.19972187 -0.52287865
0.029896729 0.012494639 0 0.32315677 -0.19972187 -0.52287865
0.031359632 0.014854945 0 0.32315677 -0.19972187 -0.52287865
0.032823402 0.017215988 0 0.32315677 -0.19972187 -0.52287865
0.034288101 0.019577852 0 0.32315677 -0.19972187 -0.52287865
0.035753783 0.021940626 0 0.32315677 -0.19972187 -0.52287865
0.037220497 0.024304399 0 0.32315677 -0.19972187 -0.52287865
0.038688302 0.026669262 0 0.32315677 -0.19972187 -0.52287865
0.039999999 0.029162414 0.00029054919 0.32315677 -0.19972187 -0.52287865
0.039999999 0.032738641 0.0030225527 0.32315677 -0.19972187 -0.52287865
0.039999999 0.036354847 0.0057856133 0.32315677 -0.19972187 -0.52287865
0.039999999 0.040011846 0.0085803671 0.32315677 -0.19972187 -0.52287865
0.039999999 0.043710489 0.011407467 0.32315677 -0.19972187 -0.52287865
0.039999999 0.047451634 0.014267582 0.32315677 -0.19972187 -0.52287865
0.039999999 0.051236179 0.017161405 0.32315677 -0.19972187 -0.52287865
0.039999999 0.055065028 0.020089641 0.32315677 -0.19972187 -0.52287865
0.039999999 0.058939125 0.023053018 0.32315677 -0.19972187 -0.52287865
0.039999999 0.062859438 0.026052283 0.32315677 -0.19972187 -0.52287865
0.039999999 0.066826954 0.029088203 0.32315677 -0.19972187 -0.52287865
0.039999999 0.070842691 0.032161571 0.32315677 -0.19972187 -0.52287865
0.039999999 0.074907698 0.035273194 0.32315677 -0.19972187 -0.52287865
0.039999999 0.079023063 0.038423914 0.32315677 -0.19972187 -0.52287865
0.0027396507 0 0.018848976 0.32315677 -0.19972187 -0.52287865
0.0081194397 2.7755576e-17 0.012283294 0.32315677 -0.19972187 -0.52287865
0.013370686 0 0.0058749123 0.32315677 -0.19972187 -0.52287865
0.018275414 0.00014601255 0 0.32315677 -0.19972187 -0.52287865
0.019738587 0.002511265 0 0.32315677 -0.19972187 -0.52287865
0.021202249 0.0048767617 0 0.32315677 -0.19972187 -0.52287865
0.022666462 0.0072425907 0 0.32315677 -0.19972187 -0.52287865
0.024131276 0.0096088406 0 0.32315677 -0.19972187 -0.52287865
0.025596747 0.011975599 0 0.32315677 -0.19972187 -0.52287865
0.027062928 0.014342955 0 0.32315677 -0.19972187 -0.52287865
0.028529879 0.016710998 0 0.32315677 -0.19972187 -0.52287865
0.029997649 0.019079816 0 0.32315677 -0.19972187 -0.52287865
0.031466298 0.021449495 0 0.32315677 -0.19972187 -0.52287865
0.03293588 0.023820128 0 0.32315677 -0.19972187 -0.52287865
0.034406446 0.026191805 0 0.32315677 -0.19972187 -0.52287865
0.035878059 0.02856461 0 0.32315677 -0.19972187 -0.52287865
0.03735077 0.030938637 0 0.32315677 -0.19972187 -0.52287865
0.03882464 0.033313971 0 0.32315677 -0.19972187 -0.52287865
0.039999999 0.035940152 0.00055404718 0.32315677 -0.19972187 -0.52287865
0.039999999 0.039569858 0.0033003895 0.32315677 -0.19972187 -0.52287865
0.039999999 0.043240603 0.0060782046 0.32315677 -0.19972187 -0.52287865
0.039999999 0.046953231 0.0088881422 0.32315677 -0.19972187 -0.52287865
0.039999999 0.050708618 0.011730867 0.32315677 -0.19972187 -0.52287865
0.039999999 0.054507654 0.014607065 0.32315677 -0.19972187 -0.52287865
0.039999999 0.05835126 0.01751744 0.32315677 -0.19972187 -0.52287865
0.039999999 0.062240377 0.02046271 0.32315677 -0.19972187 -0.52287865
0.039999999 0.066175975 0.023443623 0.32315677 -0.19972187 -0.52287865
0.039999999 0.070159063 0.02646094 0.32315677 -0.19972187 -0.52287865
0.039999999 0.074190646 0.029515443 0.32315677 -0.19972187 -0.52287865
0.039999999 0.078271799 0.032607943 0.32315677 -0.19972187 -0.52287865
0.0027229413 0 0.013861574 0.32315677 -0.19972187 -0.52287865
0.0080705145 0 0.0073954458 0.32315677 -0.19972187 -0.52287865
0.013291075 0 0.0010832218 0.32315677 -0.19972187 -0.52287865
0.015398841 0.0019597185 0 0.32315677 -0.19972187 -0.52287865
0.016866386 0.0043325271 0 0.32315677 -0.19972187 -0.52287865
0.018334372 0.0067056161 0 0.32315677 -0.19972187 -0.52287865
0.019802853 0.0090790745 0 0.32315677 -0.19972187 -0.52287865
0.021271886 0.011452992 0 0.32315677 -0.19972187 -0.52287865
0.022741526 0.013827456 0 0.32315677 -0.19972187 -0.52287865
0.024211826 0.016202558 0 0.32315677 -0.19972187 -0.52287865
0.025682844 0.018578386 0 0.32315677 -0.19972187 -0.52287865
0.027154634 0.020955028 0 0.32315677 -0.19972187 -0.52287865
0.028627252 0.023332577 0 0.32315677 -0.19972187 -0.52287865
0.030100754 0.025711119 0 0.32315677 -0.19972187 -0.52287865
0.031575195 0.028090747 0 0.32315677 -0.19972187 -0.52287865
0.033050634 0.030471548 0 0.32315677 -0.19972187 -0.52287865
0.034527123 0.032853615 0 0.32315677 -0.19972187 -0.52287865
0.036004718 0.035237037 0 0.32315677 -0.19972187 -0.52287865
0.03748348 0.037621904 0 0.32315677 -0.19972187 -0.52287865
0.038963463 0.040008307 0 0.32315677 -0.19972187 -0.52287865
0.039999999 0.042777207 0.00082252501 0.32315677 -0.19972187 -0.52287865
0.039999999 0.04646175 0.0035833917 0.32315677 -0.19972187 -0.52287865
0.039999999 0.050188426 0.0063761557 0.32315677 -0.19972187 -0.52287865
0.039999999 0.053958107 0.0092014791 0.32315677 -0.19972187 -0.52287865
0.039999999 0.057771694 0.012060042 0.32315677 -0.19972187 -0.52287865
0.039999999 0.061630107 0.014952542 0.32315677 -0.19972187 -0.52287865
0.039999999 0.065534301 0.017879697 0.32315677 -0.19972187 -0.52287865
0.039999999 0.069485255 0.020842245 0.32315677 -0.19972187 -0.52287865
0.039999999 0.073483966 0.023840945 0.32315677 -0.19972187 -0.52287865
0.039999999 0.077531464 0.026876574 0.32315677 -0.19972187 -0.52287865
0.0027064369 0 0.0089352923 0.32315677 -0.19972187 -0.52287865
0.0080221826 0 0.002566789 0.32315677 -0.19972187 -0.52287865
0.011032942 0.0014044098 0 0.32315677 -0.19972187 -0.52287865
0.012504552 0.0037845944 0 0.32315677 -0.19972187 -0.52287865
0.013976497 0.0061650067 0 0.32315677 -0.19972187 -0.52287865
0.015448829 0.0085457359 0 0.32315677 -0.19972187 -0.52287865
0.016921604 0.010926872 0 0.32315677 -0.19972187 -0.52287865
0.01839488 0.013308506 0 0.32315677 -0.19972187 -0.52287865
0.019868711 0.015690725 0 0.32315677 -0.19972187 -0.52287865
0.021343151 0.018073622 0 0.32315677 -0.19972187 -0.52287865
0.02281826 0.020457285 0 0.32315677 -0.19972187 -0.52287865
0.02429409 0.022841804 0 0.32315677 -0.19972187 -0.52287865
0.025770698 0.025227271 0 0.32315677 -0.19972187 -0.52287865
0.02724814 0.027613774 0 0.32315677 -0.19972187 -0.52287865
0.028726473 0.030001406 0 0.32315677 -0.19972187 -0.52287865
0.030205755 0.032390255 0 0.32315677 -0.19972187 -0.52287865
0.031686042 0.034780417 0 0.32315677 -0.19972187 -0.52287865
0.033167385 0.037171979 0 0.32315677 -0.19972187 -0.52287865
0.034649845 0.03956503 0 0.32315677 -0.19972187 -0.52287865
0.036133483 0.041959666 0 0.32315677 -0.19972187 -0.52287865
0.03761835 0.044355981 0 0.32315677 -0.19972187 -0.52287865
0.039104506 0.046754062 0 0.32315677 -0.19972187 -0.52287865
0.039999999 0.049675427 0.0010954934 0.32315677 -0.19972187 -0.52287865
0.039999999 0.0534162 0.0038710705 0.32315677 -0.19972187 -0.52287865
0.039999999 0.057200231 0.0066789775 0.32315677 -0.19972187 -0.52287865
0.039999999 0.061028425 0.00951989 0.32315677 -0.19972187 -0.52287865
0.039999999 0.06490171 0.012394502 0.32315677 -0.19972187 -0.52287865
0.039999999 0.068821043 0.015303526 0.32315677 -0.19972187 -0.52287865
0.039999999 0.072787397 0.018247694 0.32315677 -0.19972187 -0.52287865
0.039999999 0.076801792 0.021227762 0.32315677 -0.19972187 -0.52287865
0.0026901329 0 0.0040688305 0.32315677 -0.19972187 -0.52287865
0.0066403178 0.00084538775 0 0.32315677 -0.19972187 -0.52287865
0.0081161838 0.0032330137 0 0.32315677 -0.19972187 -0.52287865
0.0095922733 0.0056208135 0 0.32315677 -0.19972187 -0.52287865
0.011068642 0.0080088777 0 0.32315677 -0.19972187 -0.52287865
0.012545345 0.010397296 0 0.32315677 -0.19972187 -0.52287865
0.014022441 0.012786159 0 0.32315677 -0.19972187 -0.52287865
0.015499982 0.015175559 0 0.32315677 -0.19972187 -0.52287865
0.016978027 0.017565584 0 0.32315677 -0.19972187 -0.52287865
0.018456632 0.019956324 0 0.32315677 -0.19972187 -0.52287865
0.019935852 0.022347873 0 0.32315677 -0.19972187 -0.52287865
0.021415742 0.024740322 0 0.32315677 -0.19972187 -0.52287865
0.022896362 0.027133757 0 0.32315677 -0.19972187 -0.52287865
0.024377767 0.029528275 0 0.32315677 -0.19972187 -0.52287865
0.025860012 0.031923965 0 0.32315677 -0.19972187 -0.52287865
0.027343154 0.034320917 0 0.32315677 -0.19972187 -0.52287865
0.028827254 0.036719225 0 0.32315677 -0.19972187 -0.52287865
0.030312363 0.039118979 0 0.32315677 -0.19972187 -0.52287865
0.031798542 0.041520275 0 0.32315677 -0.19972187 -0.52287865
0.033285845 0.043923199 0 0.32315677 -0.19972187 -0.52287865
0.034774337 0.046327852 0 0.32315677 -0.19972187 -0.52287865
0.036264066 0.048734318 0 0.32315677 -0.19972187 -0.52287865
0.037755094 0.051142696 0 0.32315677 -0.19972187 -0.52287865
0.039247483 0.053553078 0 0.32315677 -0.19972187 -0.52287865
0.039999999 0.056636687 0.0013724553 0.32315677 -0.19972187 -0.52287865
0.039999999 0.060435127 0.0041629286 0.32315677 -0.19972187 -0.52287865
0.039999999 0.064277984 0.0069861733 0.32315677 -0.19972187 -0.52287865
0.039999999 0.068166189 0.0098428782 0.32315677 -0.19972187 -0.52287865
0.039999999 0.072100706 0.012733752 0.32315677 -0.19972187 -0.52287865
0.039999999 0.076082528 0.015659522 0.32315677 -0.19972187 -0.52287865
0.0022203892 0.00028270172 0 0.32315677 -0.19972187 -0.52287865
0.0037007025 0.002677836 0 0.32315677 -0.19972187 -0.52287865
0.0051811286 0.0050730896 0 0.32315677 -0.19972187 -0.52287865
0.0066617229 0.0074685528 0 0.32315677 -0.19972187 -0.52287865
0.008142543 0.0098643173 0 0.32315677 -0.19972187 -0.52287865
0.0096236439 0.012260474 0 0.32315677 -0.19972187 -0.52287865
0.011105082 0.014657115 0 0.32315677 -0.19972187 -0.52287865
0.012586915 0.017054329 0 0.32315677 -0.19972187 -0.52287865
0.014069199 0.019452211 0 0.32315677 -0.19972187 -0.52287865
0.015551989 0.021850849 0 0.32315677 -0.19972187 -0.52287865
0.017035343 0.024250336 0 0.32315677 -0.19972187 -0.52287865
0.018519318 0.026650762 0 0.32315677 -0.19972187 -0.52287865
0.020003969 0.029052222 0 0.32315677 -0.19972187 -0.52287865
0.021489354 0.031454805 0 0.32315677 -0.19972187 -0.52287865
0.02297553 0.033858608 0 0.32315677 -0.19972187 -0.52287865
0.024462555 0.036263715 0 0.32315677 -0.19972187 -0.52287865
0.025950486 0.038670227 0 0.32315677 -0.19972187 -0.52287865
0.027439378 0.041078232 0 0.32315677 -0.19972187 -0.52287865
0.028929291 0.043487824 0 0.32315677 -0.19972187 -0.52287865
0.030420283 0.045899093 0 0.32315677 -0.19972187 -0.52287865
0.031912409 0.048312139 0 0.32315677 -0.19972187 -0.52287865
0.033405729 0.050727054 0 0.32315677 -0.19972187 -0.52287865
0.034900304 0.053143926 0 0.32315677 -0.19972187 -0.52287865
0.036396187 0.055562858 0 0.32315677 -0.19972187 -0.52287865
0.037893437 0.057983939 0 0.32315677 -0.19972187 -0.52287865
0.039392117 0.060407262 0 0.32315677 -0.19972187 -0.52287865
0.039999999 0.063662909 0.0016529048 0.32315677 -0.19972187 -0.52287865
0.039999999 0.067520477 0.0044584605 0.32315677 -0.19972187 -0.52287865
0.039999999 0.071423665 0.0072972374 0.32315677 -0.19972187 -0.52287865
0.039999999 0.075373426 0.010169939 0.32315677 -0.19972187 -0.52287865
0.039999999 0.079370767 0.013077289 0.32315677 -0.19972187 -0.52287865
0.00074247515 0.0045218864 0 0.32315677 -0.19972187 -0.52287865
0.0022274891 0.0069248159 0 0.32315677 -0.19972187 -0.52287865
0.0037126164 0.0093279919 0 0.32315677 -0.19972187 -0.52287865
0.0051979139 0.011731507 0 0.32315677 -0.19972187 -0.52287865
0.0066834381 0.014135453 0 0.32315677 -0.19972187 -0.52287865
0.0081692459 0.01653992 0 0.32315677 -0.19972187 -0.52287865
0.0096553946 0.018945003 0 0.32315677 -0.19972187 -0.52287865
0.01114194 0.02135079 0 0.32315677 -0.19972187 -0.52287865
0.01262894 0.023757378 0 0.32315677 -0.19972187 -0.52287865
0.014116451 0.026164854 0 0.32315677 -0.19972187 -0.52287865
0.01560453 0.028573316 0 0.32315677 -0.19972187 -0.52287865
0.017093236 0.030982852 0 0.32315677 -0.19972187 -0.52287865
0.018582623 0.033393558 0 0.32315677 -0.19972187 -0.52287865
0.020072751 0.035805523 0 0.32315677 -0.19972187 -0.52287865
0.021563677 0.038218845 0 0.32315677 -0.19972187 -0.52287865
0.023055457 0.040633615 0 0.32315677 -0.19972187 -0.52287865
0.024548151 0.043049924 0 0.32315677 -0.19972187 -0.52287865
0.026041815 0.045467872 0 0.32315677 -0.19972187 -0.52287865
0.02753651 0.047887545 0 0.32315677 -0.19972187 -0.52287865
0.02903229 0.050309043 0 0.32315677 -0.19972187 -0.52287865
0.030529216 0.05273246 0 0.32315677 -0.19972187 -0.52287865
0.032027345 0.055157889 0 0.32315677 -0.19972187 -0.52287865
0.033526741 0.057585426 0 0.32315677 -0.19972187 -0.52287865
0.035027456 0.060015168 0 0.32315677 -0.19972187 -0.52287865
0.036529552 0.062447209 0 0.32315677 -0.19972187 -0.52287865
0.038033087 0.064881645 0 0.32315677 -0.19972187 -0.52287865
0.039538123 0.067318574 0 0.32315677 -0.19972187 -0.52287865
0.039999999 0.070756033 0.0019363273 0.32315677 -0.19972187 -0.52287865
0.039999999 0.074674249 0.004757151 0.32315677 -0.19972187 -0.52287865
0.039999999 0.078639306 0.0076116552 0.32315677 -0.19972187 -0.52287865
0.00074466347 0.011199314 0 0.32315677 -0.19972187 -0.52287865
0.0022344659 0.01361063 0 0.32315677 -0.19972187 -0.52287865
0.00372444 0.016022414 0 0.32315677 -0.19972187 -0.52287865
0.0052146427 0.018434761 0 0.32315677 -0.19972187 -0.52287865
0.0067051318 0.020847762 0 0.32315677 -0.19972187 -0.52287865
0.0081959646 0.02326151 0 0.32315677 -0.19972187 -0.52287865
0.0096871974 0.0256761 0 0.32315677 -0.19972187 -0.52287865
0.011178888 0.028091621 0 0.32315677 -0.19972187 -0.52287865
0.012671095 0.030508168 0 0.32315677 -0.19972187 -0.52287865
0.014163875 0.032925837 0 0.32315677 -0.19972187 -0.52287865
0.015657285 0.035344716 0 0.32315677 -0.19972187 -0.52287865
0.017151386 0.037764907 0 0.32315677 -0.19972187 -0.52287865
0.018646231 0.040186495 0 0.32315677 -0.19972187 -0.52287865
0.020141883 0.04260958 0 0.32315677 -0.19972187 -0.52287865
0.021638395 0.045034252 0 0.32315677 -0.19972187 -0.52287865
0.02313583 0.047460612 0 0.32315677 -0.19972187 -0.52287865
0.024634242 0.049888749 0 0.32315677 -0.19972187 -0.52287865
0.026133694 0.052318759 0 0.32315677 -0.19972187 -0.52287865
0.027634241 0.054750737 0 0.32315677 -0.19972187 -0.52287865
0.029135944 0.057184782 0 0.32315677 -0.19972187 -0.52287865
0.030638862 0.059620991 0 0.32315677 -0.19972187 -0.52287865
0.032143053 0.062059455 0 0.32315677 -0.19972187 -0.52287865
0.03364858 0.064500272 0 0.32315677 -0.19972187 -0.52287865
0.035155497 0.066943541 0 0.32315677 -0.19972187 -0.52287865
0.036663868 0.069389358 0 0.32315677 -0.19972187 -0.52287865
0.038173754 0.07183782 0 0.32315677 -0.19972187 -0.52287865
0.039685212 0.074289031 0 0.32315677 -0.19972187 -0.52287865
0.039999999 0.077918045 0.0022221983 0.32315677 -0.19972187 -0.52287865
0.00074635446 0.017921548 0 0.32315677 -0.19972187 -0.52287865
0.0022409786 0.020341827 0 0.32315677 -0.19972187 -0.52287865
0.0037358336 0.0227628 0 0.32315677 -0.19972187 -0.52287865
0.0052309777 0.025184561 0 0.32315677 -0.19972187 -0.52287865
0.006726468 0.027607204 0 0.32315677 -0.19972187 -0.52287865
0.008222363 0.030030824 0 0.32315677 -0.19972187 -0.52287865
0.0097187189 0.032455515 0 0.32315677 -0.19972187 -0.52287865
0.011215596 0.034881368 0 0.32315677 -0.19972187 -0.52287865
0.012713051 0.037308481 0 0.32315677 -0.19972187 -0.52287865
0.014211143 0.039736949 0 0.32315677 -0.19972187 -0.52287865
0.015709929 0.042166863 0 0.32315677 -0.19972187 -0.52287865
0.017209468 0.044598322 0 0.32315677 -0.19972187 -0.52287865
0.01870982 0.047031417 0 0.32315677 -0.19972187 -0.52287865
0.020211041 0.049466245 0 0.32315677 -0.19972187 -0.52287865
0.021713192 0.051902901 0 0.32315677 -0.19972187 -0.52287865
0.02321633 0.054341484 0 0.32315677 -0.19972187 -0.52287865
0.024720514 0.056782089 0 0.32315677 -0.19972187 -0.52287865
0.026225805 0.05922481 0 0.32315677 -0.19972187 -0.52287865
0.027732262 0.061669748 0 0.32315677 -0.19972187 -0.52287865
0.029239945 0.064117 0 0.32315677 -0.19972187 -0.52287865
0.030748913 0.066566654 0 0.32315677 -0.19972187 -0.52287865
0.032259226 0.069018818 0 0.32315677 -0.19972187 -0.52287865
0.033770945 0.071473591 0 0.32315677 -0.19972187 -0.52287865
0.035284132 0.073931068 0 0.32315677 -0.19972187 -0.52287865
0.036798842 0.076391347 0 0.32315677 -0.19972187 -0.52287865
0.03831514 0.078854531 0 0.32315677 -0.19972187 -0.52287865
0.00074720086 0.024690306 0 0.32315677 -0.19972187 -0.52287865
0.0022466814 0.027120134 0 0.32315677 -0.19972187 -0.52287865
0.0037464534 0.029550888 0 0.32315677 -0.19972187 -0.52287865
0.005246575 0.03198266 0 0.32315677 -0.19972187 -0.52287865
0.0067471052 0.034415551 0 0.32315677 -0.19972187 -0.52287865
0.0082481019 0.036849648 0 0.32315677 -0.19972187 -0.52287865
0.009749623 0.039285049 0 0.32315677 -0.19972187 -0.52287865
0.011251728 0.041721851 0 0.32315677 -0.19972187 -0.52287865
0.012754475 0.04416015 0 0.32315677 -0.19972187 -0.52287865
0.014257923 0.046600036 0 0.32315677 -0.19972187 -0.52287865
0.01576213 0.049041614 0 0.32315677 -0.19972187 -0.52287865
0.017267156 0.051484972 0 0.32315677 -0.19972187 -0.52287865
0.018773062 0.053930212 0 0.32315677 -0.19972187 -0.52287865
0.020279903 0.05637743 0 0.32315677 -0.19972187 -0.52287865
0.021787742 0.058826718 0 0.32315677 -0.19972187 -0.52287865
0.023296637 0.061278179 0 0.32315677 -0.19972187 -0.52287865
0.024806648 0.063731909 0 0.32315677 -0.19972187 -0.52287865
0.026317837 0.066188008 0 0.32315677 -0.19972187 -0.52287865
0.02783026 0.068646573 0 0.32315677 -0.19972187 -0.52287865
0.029343981 0.0711077 0 0.32315677 -0.19972187 -0.52287865
0.030859059 0.073571488 0 0.32315677 -0.19972187 -0.52287865
0.032375555 0.076038048 0 0.32315677 -0.19972187 -0.52287865
0.033893529 0.078507461 0 0.32315677 -0.19972187 -0.52287865
0.00074685022 0.031507347 0 0.32315677 -0.19972187 -0.52287865
0.0022512234 0.03394733 0 0.32315677 -0.19972187 -0.52287865
0.0037559497 0.036388475 0 0.32315677 -0.19972187 -0.52287865
0.0052610883 0.038830873 0 0.32315677 -0.19972187 -0.52287865
0.0067666974 0.041274622 0 0.32315677 -0.19972187 -0.52287865
0.0082728369 0.043719817 0 0.32315677 -0.19972187 -0.52287865
0.009779565 0.046166558 0 0.32315677 -0.19972187 -0.52287865
0.011286941 0.048614934 0 0.32315677 -0.19972187 -0.52287865
0.012795025 0.051065054 0 0.32315677 -0.19972187 -0.52287865
0.014303875 0.053517003 0 0.32315677 -0.19972187 -0.52287865
0.015813552 0.055970885 0 0.32315677 -0.19972187 -0.52287865
0.017324114 0.058426797 0 0.32315677 -0.19972187 -0.52287865
0.018835623 0.060884837 0 0.32315677 -0.19972187 -0.52287865
0.020348137 0.063345097 0 0.32315677 -0.19972187 -0.52287865
0.021861719 0.065807685 0 0.32315677 -0.19972187 -0.52287865
0.023376426 0.068272695 0 0.32315677 -0.19972187 -0.52287865
0.024892319 0.07074023 0 0.32315677 -0.19972187 -0.52287865
0.02640946 0.073210388 0 0.32315677 -0.19972187 -0.52287865
0.027927911 0.075683266 0 0.32315677 -0.19972187 -0.52287865
0.029447731 0.078158967 0 0.32315677 -0.19972187 -0.52287865
0.00074494467 0.038374491 0 0.32315677 -0.19972187 -0.52287865
0.0022542481 0.040825248 0 0.32315677 -0.19972187 -0.52287865
0.0037639677 0.043277401 0 0.32315677 -0.19972187 -0.52287865
0.0052741631 0.045731049 0 0.32315677 -0.19972187 -0.52287865
0.0067848931 0.048186291 0 0.32315677 -0.19972187 -0.52287865
0.0082962178 0.050643224 0 0.32315677 -0.19972187 -0.52287865
0.0098081967 0.053101942 0 0.32315677 -0.19972187 -0.52287865
0.01132089 0.055562545 0 0.32315677 -0.19972187 -0.52287865
0.012834357 0.058025133 0 0.32315677 -0.19972187 -0.52287865
0.014348658 0.060489804 0 0.32315677 -0.19972187 -0.52287865
0.015863853 0.062956654 0 0.32315677 -0.19972187 -0.52287865
0.017380003 0.065425783 0 0.32315677 -0.19972187 -0.52287865
0.018897166 0.067897297 0 0.32315677 -0.19972187 -0.52287865
0.020415409 0.070371285 0 0.32315677 -0.19972187 -0.52287865
0.021934785 0.072847851 0 0.32315677 -0.19972187 -0.52287865
0.023455361 0.075327106 0 0.32315677 -0.19972187 -0.52287865
0.024977194 0.077809133 0 0.32315677 -0.19972187 -0.52287865
0.00074112025 0.045293599 0 0.32315677 -0.19972187 -0.52287865
0.0022553932 0.047755763 0 0.32315677 -0.19972187 -0.52287865
0.0037701468 0.050219566 0 0.32315677 -0.19972187 -0.52287865
0.0052854405 0.052685112 0 0.32315677 -0.19972187 -0.52287865
0.0068013342 0.055152494 0 0.32315677 -0.19972187 -0.52287865
0.0083178887 0.057621814 0 0.32315677 -0.19972187 -0.52287865
0.0098351641 0.060093168 0 0.32315677 -0.19972187 -0.52287865
0.011353221 0.06256666 0 0.32315677 -0.19972187 -0.52287865
0.012872119 0.065042391 0 0.32315677 -0.19972187 -0.52287865
0.014391921 0.067520455 0 0.32315677 -0.19972187 -0.52287865
0.015912686 0.070000947 0 0.32315677 -0.19972187 -0.52287865
0.017434474 0.072483987 0 0.32315677 -0.19972187 -0.52287865
0.018957349 0.074969657 0 0.32315677 -0.19972187 -0.52287865
0.02048137 0.077458076 0 0.32315677 -0.19972187 -0.52287865
0.022006603 0.079949327 0 0.32315677 -0.19972187 -0.52287865
0.00073500688 0.052266594 0 0.32315677 -0.19972187 -0.52287865
0.00225429 0.054740813 0 0.32315677 -0.19972187 -0.52287865
0.0037741191 0.057216924 0 0.32315677 -0.19972187 -0.52287865
0.0052945544 0.059695024 0 0.32315677 -0.19972187 -0.52287865
0.0068156566 0.062175211 0 0.32315677 -0.19972187 -0.52287865
0.0083374865 0.064657591 0 0.32315677 -0.19972187 -0.52287865
0.0098601058 0.067142263 0 0.32315677 -0.19972187 -0.52287865
0.011383574 0.069629326 0 0.32315677 -0.19972187 -0.52287865
0.012907955 0.072118878 0 0.32315677 -0.19972187 -0.52287865
0.014433308 0.074611031 0 0.32315677 -0.19972187 -0.52287865
0.015959693 0.077105872 0 0.32315677 -0.19972187 -0.52287865
0.017487178 0.079603516 0 0.32315677 -0.19972187 -0.52287865
0.00072622759 0.059295457 0 0.32315677 -0.19972187 -0.52287865
0.0022505631 0.061782397 0 0.32315677 -0.19972187 -0.52287865
0.0037755112 0.064271487 0 0.32315677 -0.19972187 -0.52287865
0.0053011328 0.06676282 0 0.32315677 -0.19972187 -0.52287865
0.0068274895 0.069256499 0 0.32315677 -0.19972187 -0.52287865
0.0083546424 0.071752623 0 0.32315677 -0.19972187 -0.52287865
0.0098826541 0.074251302 0 0.32315677 -0.19972187 -0.52287865
0.011411585 0.07675264 0 0.32315677 -0.19972187 -0.52287865
0.012941498 0.079256728 0 0.32315677 -0.19972187 -0.52287865
0.00071439845 0.066382214 0 0.32315677 -0.19972187 -0.52287865
0.0022438299 0.06888257 0 0.32315677 -0.19972187 -0.52287865
0.0037739419 0.071385331 0 0.32315677 -0.19972187 -0.52287865
0.0053047962 0.073890589 0 0.32315677 -0.19972187 -0.52287865
0.0068364548 0.076398462 0 0.32315677 -0.19972187 -0.52287865
0.0083689801 0.078909047 0 0.32315677 -0.19972187 -0.52287865
0.00069912779 0.073528983 0 0.32315677 -0.19972187 -0.52287865
0.0022337001 0.076043449 0 0.32315677 -0.19972187 -0.52287865
0.0037690222 0.078560583 0 0.32315677 -0.19972187 -0.52287865
