# .PCD v0.7 - Point Cloud Data file format
VERSION 0.7
FIELDS x y z vp_x vp_y vp_z
SIZE 4 4 4 4 4 4
TYPE F F F F F F
COUNT 1 1 1 1 1 1
WIDTH 616
HEIGHT 1
VIEWPOINT 0 0 0 1 0 0 0
POINTS 616
DATA ascii
0.0066339266 0.074846931 0.068413273 -0.32315677 0.19972187 -0.52287865
0.0044384529 0.072527692 0.067250274 -0.32315677 0.19972187 -0.52287865
0.0027165543 0.070035137 0.066933595 -0.32315677 0.19972187 -0.52287865
0.0014380791 0.06736771 0.067420594 -0.32315677 0.19972187 -0.52287865
0.00053461152 0.064540789 0.06859792 -0.32315677 0.19972187 -0.52287865
0.0124121 0.078493863 0.06769494 -0.32315677 0.19972187 -0.52287865
0.0089123501 0.076635681 0.064254455 -0.32315677 0.19972187 -0.52287865
0.0062617925 0.074494444 0.062290203 -0.32315677 0.19972187 -0.52287865
0.0041366122 0.072172336 0.061245158 -0.32315677 0.19972187 -0.52287865
0.0025185323 0.069661632 0.061099645 -0.32315677 0.19972187 -0.52287865
0.0012898567 0.066995695 0.061654516 -0.32315677 0.19972187 -0.52287865
0.00044556696 0.064165071 0.06291078 -0.32315677 0.19972187 -0.52287865
6.1040097e-05 0.061125826 0.065015726 -0.32315677 0.19972187 -0.52287865
0.00011531779 0.057873074 0.067943379 -0.32315677 0.19972187 -0.52287865
0.016415695 0.079659753 0.066557042 -0.32315677 0.19972187 -0.52287865
0.011769036 0.078196347 0.061169378 -0.32315677 0.19972187 -0.52287865
0.0084445206 0.076301605 0.058047805 -0.32315677 0.19972187 -0.52287865
0.0058954079 0.074147396 0.056261748 -0.32315677 0.19972187 -0.52287865
0.0038774156 0.071807452 0.055398058 -0.32315677 0.19972187 -0.52287865
0.0023233893 0.069293551 0.055350516 -0.32315677 0.19972187 -0.52287865
0.0011437536 0.066628993 0.055970874 -0.32315677 0.19972187 -0.52287865
0.0003830886 0.063783973 0.057348657 -0.32315677 0.19972187 -0.52287865
4.0464387e-05 0.060746327 0.059493113 -0.32315677 0.19972187 -0.52287865
0.00017641872 0.05747664 0.062524945 -0.32315677 0.19972187 -0.52287865
0.0009736768 0.053877868 0.066789463 -0.32315677 0.19972187 -0.52287865
0.015464496 0.079450399 0.059562214 -0.32315677 0.19972187 -0.52287865
0.011136753 0.077903822 0.054753222 -0.32315677 0.19972187 -0.52287865
0 0.078956515 0.038080007 -0.32315677 0.19972187 -0.52287865
0.0055346275 0.07380566 0.050325498 -0.32315677 0.19972187 -0.52287865
0.0036312158 0.07144434 0.04965312 -0.32315677 0.19972187 -0.52287865
0.0021310556 0.068930775 0.049684156 -0.32315677 0.19972187 -0.52287865
0.0010125645 0.066262193 0.050390419 -0.32315677 0.19972187 -0.52287865
0.0003214668 0.063408107 0.051862787 -0.32315677 0.19972187 -0.52287865
2.0166673e-05 0.060371954 0.054045118 -0.32315677 0.19972187 -0.52287865
0.00024086163 0.057083558 0.05718476 -0.32315677 0.19972187 -0.52287865
0.001103143 0.05347294 0.061511058 -0.32315677 0.19972187 -0.52287865
0.0031456661 0.049271796 0.068016663 -0.32315677 0.19972187 -0.52287865
0.021373894 0.079939038 0.061706014 -0.32315677 0.19972187 -0.52287865
0.014550718 0.079237752 0.052729622 -0.32315677 0.19972187 -0.52287865
0.0040007289 0.079999998 0.037289653 -0.32315677 0.19972187 -0.52287865
5.5511151e-17 0.078474738 0.032972984 -0.32315677 0.19972187 -0.52287865
0 0.075460657 0.035529397 -0.32315677 0.19972187 -0.52287865
5.5511151e-17 0.072421357 0.038109142 -0.32315677 0.19972187 -0.52287865
0.0019414638 0.068573162 0.044098575 -0.32315677 0.19972187 -0.52287865
0.00090916525 0.065889791 0.044933267 -0.32315677 0.19972187 -0.52287865
0.00026068173 0.063037336 0.046451405 -0.32315677 0.19972187 -0.52287865
1.4060289e-07 0.060002591 0.048670035 -0.32315677 0.19972187 -0.52287865
0.00030447164 0.056695558 0.051913593 -0.32315677 0.19972187 -0.52287865
0.0012693582 0.053055756 0.056367625 -0.32315677 0.19972187 -0.52287865
0.0034664897 0.048798617 0.06307517 -0.32315677 0.19972187 -0.52287865
0.019640571 0.079986788 0.053529818 -0.32315677 0.19972187 -0.52287865
0.013787924 0.078980722 0.046247285 -0.32315677 0.19972187 -0.52287865
0.0026461056 0.079999998 0.029923674 -0.32315677 0.19972187 -0.52287865
5.5511151e-17 0.077999137 0.027931444 -0.32315677 0.19972187 -0.52287865
0 0.075001419 0.030451344 -0.32315677 0.19972187 -0.52287865
5.5511151e-17 0.07197877 0.032994017 -0.32315677 0.19972187 -0.52287865
5.5511151e-17 0.068930723 0.035559863 -0.32315677 0.19972187 -0.52287865
0 0.065856837 0.038149294 -0.32315677 0.19972187 -0.52287865
0.00020071419 0.062671557 0.041112807 -0.32315677 0.19972187 -0.52287865
2.0564525e-05 0.059620705 0.043436624 -0.32315677 0.19972187 -0.52287865
0.0003672672 0.056312528 0.046709921 -0.32315677 0.19972187 -0.52287865
0.001433539 0.052643679 0.051287144 -0.32315677 0.19972187 -0.52287865
0.0037836647 0.048330817 0.058189865 -0.32315677 0.19972187 -0.52287865
0.018312424 0.079904906 0.046147171 -0.32315677 0.19972187 -0.52287865
0.0095039289 0.079999998 0.033959478 -0.32315677 0.19972187 -0.52287865
0.001319585 0.079999998 0.02271051 -0.32315677 0.19972187 -0.52287865
5.5511151e-17 0.077529579 0.02295395 -0.32315677 0.19972187 -0.52287865
0 0.074548043 0.025438052 -0.32315677 0.19972187 -0.52287865
5.5511151e-17 0.071541846 0.027944384 -0.32315677 0.19972187 -0.52287865
5.5511151e-17 0.068510547 0.030473337 -0.32315677 0.19972187 -0.52287865
5.5511151e-17 0.065453686 0.033025309 -0.32315677 0.19972187 -0.52287865
5.5511151e-17 0.062370811 0.035600711 -0.32315677 0.19972187 -0.52287865
0 0.059261441 0.038199954 -0.32315677 0.19972187 -0.52287865
0.00042926616 0.055934355 0.041572258 -0.32315677 0.19972187 -0.52287865
0.0015957287 0.052236602 0.046268281 -0.32315677 0.19972187 -0.52287865
0.0041052448 0.04786459 0.053373672 -0.32315677 0.19972187 -0.52287865
0.034641929 0.073610336 0.068030223 -0.32315677 0.19972187 -0.52287865
0.0080944616 0.079999998 0.026632609 -0.32315677 0.19972187 -0.52287865
2.0253097e-05 0.079999998 0.015645185 -0.32315677 0.19972187 -0.52287865
0 0.07706593 0.018039104 -0.32315677 0.19972187 -0.52287865
5.5511151e-17 0.074100398 0.020488102 -0.32315677 0.19972187 -0.52287865
5.5511151e-17 0.071110465 0.022958804 -0.32315677 0.19972187 -0.52287865
5.5511151e-17 0.068095714 0.025451589 -0.32315677 0.19972187 -0.52287865
5.5511151e-17 0.065055691 0.027966846 -0.32315677 0.19972187 -0.52287865
5.5511151e-17 0.061989948 0.030504966 -0.32315677 0.19972187 -0.52287865
0 0.058898009 0.033066358 -0.32315677 0.19972187 -0.52287865
5.5511151e-17 0.055779412 0.03565143 -0.32315677 0.19972187 -0.52287865
5.5511151e-17 0.052633666 0.038260613 -0.32315677 0.19972187 -0.52287865
0.0045449096 0.047346979 0.048823293 -0.32315677 0.19972187 -0.52287865
0.01501766 0.079999998 0.030646341 -0.32315677 0.19972187 -0.52287865
0.0067141103 0.079999998 0.019457094 -0.32315677 0.19972187 -0.52287865
0 0.079534069 0.010791797 -0.32315677 0.19972187 -0.52287865
0 0.076608062 0.013185543 -0.32315677 0.19972187 -0.52287865
0 0.073658347 0.015600118 -0.32315677 0.19972187 -0.52287865
5.5511151e-17 0.070684507 0.018035881 -0.32315677 0.19972187 -0.52287865
5.5511151e-17 0.067686118 0.020493204 -0.32315677 0.19972187 -0.52287865
5.5511151e-17 0.06466274 0.022972459 -0.32315677 0.19972187 -0.52287865
5.5511151e-17 0.061613929 0.025474034 -0.32315677 0.19972187 -0.52287865
0 0.058539219 0.027998323 -0.32315677 0.19972187 -0.52287865
0 0.055438153 0.030545723 -0.32315677 0.19972187 -0.52287865
5.5511151e-17 0.052310251 0.03311665 -0.32315677 0.19972187 -0.52287865
5.5511151e-17 0.049155023 0.035711519 -0.32315677 0.19972187 -0.52287865
0 0.045971971 0.038330767 -0.32315677 0.19972187 -0.52287865
0.022094438 0.079999998 0.034754559 -0.32315677 0.19972187 -0.52287865
0.035972882 0.072028309 0.059728045 -0.32315677 0.19972187 -0.52287865
0.0053619309 0.079999998 0.012428028 -0.32315677 0.19972187 -0.52287865
0 0.07906647 0.0060314778 -0.32315677 0.19972187 -0.52287865
0 0.076155849 0.0083919503 -0.32315677 0.19972187 -0.52287865
5.5511151e-17 0.073221788 0.010772761 -0.32315677 0.19972187 -0.52287865
0 0.070263855 0.013174258 -0.32315677 0.19972187 -0.52287865
5.5511151e-17 0.067281649 0.015596801 -0.32315677 0.19972187 -0.52287865
5.5511151e-17 0.064274721 0.018040758 -0.32315677 0.19972187 -0.52287865
0 0.061242647 0.020506499 -0.32315677 0.19972187 -0.52287865
0 0.05818497 0.02299441 -0.32315677 0.19972187 -0.52287865
0 0.055101231 0.025504878 -0.32315677 0.19972187 -0.52287865
0 0.05199096 0.028038306 -0.32315677 0.19972187 -0.52287865
5.5511151e-17 0.048853684 0.0305951 -0.32315677 0.19972187 -0.52287865
0 0.045688905 0.033175677 -0.32315677 0.19972187 -0.52287865
0 0.042496122 0.035780467 -0.32315677 0.19972187 -0.52287865
0 0.039274827 0.038409904 -0.32315677 0.19972187 -0.52287865
0.029330289 0.079999998 0.038960252 -0.32315677 0.19972187 -0.52287865
0.020542098 0.079999998 0.027347315 -0.32315677 0.19972187 -0.52287865
0.012118531 0.079999998 0.016217433 -0.32315677 0.19972187 -0.52287865
0.0040370198 0.079999998 0.0055407099 -0.32315677 0.19972187 -0.52287865
0 0.078604572 0.0013292121 -0.32315677 0.19972187 -0.52287865
0 0.075709179 0.0036570414 -0.32315677 0.19972187 -0.52287865
5.5511151e-17 0.072790585 0.0060047284 -0.32315677 0.19972187 -0.52287865
5.5511151e-17 0.069848396 0.0083726132 -0.32315677 0.19972187 -0.52287865
0 0.066882186 0.010761046 -0.32315677 0.19972187 -0.52287865
0 0.06389153 0.013170381 -0.32315677 0.19972187 -0.52287865
5.5511151e-17 0.060876001 0.015600983 -0.32315677 0.19972187 -0.52287865
0 0.057835158 0.018053222 -0.32315677 0.19972187 -0.52287865
0 0.054768547 0.020527482 -0.32315677 0.19972187 -0.52287865
0 0.051675707 0.023024146 -0.32315677 0.19972187 -0.52287865
0 0.048556168 0.025543613 -0.32315677 0.19972187 -0.52287865
0 0.045409445 0.02808629 -0.32315677 0.19972187 -0.52287865
5.5511151e-17 0.042235043 0.030652588 -0.32315677 0.19972187 -0.52287865
5.5511151e-17 0.039032463 0.033242937 -0.32315677 0.19972187 -0.52287865
5.5511151e-17 0.035801183 0.035857763 -0.32315677 0.19972187 -0.52287865
0 0.032540686 0.038497519 -0.32315677 0.19972187 -0.52287865
0.033110179 0.078149267 0.039999999 -0.32315677 0.19972187 -0.52287865
0.019021958 0.079999998 0.020093711 -0.32315677 0.19972187 -0.52287865
0.010713192 0.079999998 0.0092230821 -0.32315677 0.19972187 -0.52287865
0.0034940166 0.079722457 0 -0.32315677 0.19972187 -0.52287865
0.0020626255 0.077372283 0 -0.32315677 0.19972187 -0.52287865
0.00063189521 0.075024568 0 -0.32315677 0.19972187 -0.52287865
5.5511151e-17 0.072364643 0.0012947558 -0.32315677 0.19972187 -0.52287865
0 0.06943801 0.0036296656 -0.32315677 0.19972187 -0.52287865
0 0.066487618 0.0059846356 -0.32315677 0.19972187 -0.52287865
5.5511151e-17 0.063513055 0.0083600124 -0.32315677 0.19972187 -0.52287865
0 0.060513891 0.010756149 -0.32315677 0.19972187 -0.52287865
5.5511151e-17 0.057489693 0.013173407 -0.32315677 0.19972187 -0.52287865
5.5511151e-17 0.054440014 0.015612155 -0.32315677 0.19972187 -0.52287865
0 0.051364403 0.018072773 -0.32315677 0.19972187 -0.52287865
5.5511151e-17 0.048262391 0.020555643 -0.32315677 0.19972187 -0.52287865
0 0.045133512 0.02306116 -0.32315677 0.19972187 -0.52287865
5.5511151e-17 0.041977271 0.025589731 -0.32315677 0.19972187 -0.52287865
0 0.038793184 0.028141761 -0.32315677 0.19972187 -0.52287865
5.5511151e-17 0.035580732 0.030717678 -0.32315677 0.19972187 -0.52287865
5.5511151e-17 0.032339405 0.033317909 -0.32315677 0.19972187 -0.52287865
5.5511151e-17 0.029068671 0.035942897 -0.32315677 0.19972187 -0.52287865
5.5511151e-17 0.025767988 0.038593095 -0.32315677 0.19972187 -0.52287865
0.03499217 0.079999998 0.035611335 -0.32315677 0.19972187 -0.52287865
0.026077347 0.079999998 0.024059521 -0.32315677 0.19972187 -0.52287865
0.034705978 0.073965229 0.039999999 -0.32315677 0.19972187 -0.52287865
0.037347779 0.069913723 0.046620049 -0.32315677 0.19972187 -0.52287865
0.0063983821 0.07818076 0 -0.32315677 0.19972187 -0.52287865
0.0049612224 0.075824037 0 -0.32315677 0.19972187 -0.52287865
0.0035247845 0.073469751 0 -0.32315677 0.19972187 -0.52287865
0.0020890147 0.071117826 0 -0.32315677 0.19972187 -0.52287865
0.00065386103 0.068768166 0 -0.32315677 0.19972187 -0.52287865
5.5511151e-17 0.066097856 0.0012663065 -0.32315677 0.19972187 -0.52287865
5.5511151e-17 0.0631392 0.0036083683 -0.32315677 0.19972187 -0.52287865
5.5511151e-17 0.060156222 0.005970696 -0.32315677 0.19972187 -0.52287865
0 0.057148479 0.0083536413 -0.32315677 0.19972187 -0.52287865
5.5511151e-17 0.054115541 0.010757564 -0.32315677 0.19972187 -0.52287865
5.5511151e-17 0.051056959 0.013182828 -0.32315677 0.19972187 -0.52287865
5.5511151e-17 0.047972277 0.015629811 -0.32315677 0.19972187 -0.52287865
5.5511151e-17 0.04486103 0.018098896 -0.32315677 0.19972187 -0.52287865
0 0.041722741 0.020590473 -0.32315677 0.19972187 -0.52287865
5.5511151e-17 0.038556922 0.023104943 -0.32315677 0.19972187 -0.52287865
5.5511151e-17 0.035363074 0.025642717 -0.32315677 0.19972187 -0.52287865
5.5511151e-17 0.032140687 0.028204212 -0.32315677 0.19972187 -0.52287865
5.5511151e-17 0.028889243 0.030789856 -0.32315677 0.19972187 -0.52287865
5.5511151e-17 0.025608206 0.033400089 -0.32315677 0.19972187 -0.52287865
5.5511151e-17 0.022297032 0.036035355 -0.32315677 0.19972187 -0.52287865
5.5511151e-17 0.018955162 0.038696121 -0.32315677 0.19972187 -0.52287865
0.033290066 0.079999998 0.028117646 -0.32315677 0.19972187 -0.52287865
0.03941961 0.074862637 0.039999999 -0.32315677 0.19972187 -0.52287865
0.037863377 0.072310105 0.039999999 -0.32315677 0.19972187 -0.52287865
0.010763408 0.078995958 0 -0.32315677 0.19972187 -0.52287865
0.0093196006 0.076630123 0 -0.32315677 0.19972187 -0.52287865
0.0078766309 0.074266806 0 -0.32315677 0.19972187 -0.52287865
0.0064344434 0.071905926 0 -0.32315677 0.19972187 -0.52287865
0.0049929856 0.069547378 0 -0.32315677 0.19972187 -0.52287865
0.0035522038 0.067191079 0 -0.32315677 0.19972187 -0.52287865
0.002112045 0.064836949 0 -0.32315677 0.19972187 -0.52287865
0.00067245582 0.06248489 0 -0.32315677 0.19972187 -0.52287865
5.5511151e-17 0.059802894 0.0012433613 -0.32315677 0.19972187 -0.52287865
5.5511151e-17 0.056811426 0.0035926455 -0.32315677 0.19972187 -0.52287865
5.5511151e-17 0.05379504 0.0059624049 -0.32315677 0.19972187 -0.52287865
0 0.050753295 0.0083529959 -0.32315677 0.19972187 -0.52287865
0 0.047685746 0.010764782 -0.32315677 0.19972187 -0.52287865
5.5511151e-17 0.04459193 0.013198138 -0.32315677 0.19972187 -0.52287865
0 0.041471381 0.015653443 -0.32315677 0.19972187 -0.52287865
5.5511151e-17 0.038323615 0.018131085 -0.32315677 0.19972187 -0.52287865
0 0.035148147 0.020631462 -0.32315677 0.19972187 -0.52287865
5.5511151e-17 0.031944476 0.023154983 -0.32315677 0.19972187 -0.52287865
0 0.028712086 0.025702063 -0.32315677 0.19972187 -0.52287865
5.5511151e-17 0.025450457 0.028273128 -0.32315677 0.19972187 -0.52287865
5.5511151e-17 0.022159051 0.03086861 -0.32315677 0.19972187 -0.52287865
5.5511151e-17 0.01883732 0.033488959 -0.32315677 0.19972187 -0.52287865
0 0.015484702 0.036134627 -0.32315677 0.19972187 -0.52287865
5.5511151e-17 0.012100625 0.038806081 -0.32315677 0.19972187 -0.52287865
0.031623434 0.079999998 0.020780133 -0.32315677 0.19972187 -0.52287865
0.022957468 0.079999998 0.0097683147 -0.32315677 0.19972187 -0.52287865
0.015158329 0.079817884 0 -0.32315677 0.19972187 -0.52287865
0.013707654 0.077442847 0 -0.32315677 0.19972187 -0.52287865
0.012257931 0.075070404 0 -0.32315677 0.19972187 -0.52287865
0.010809108 0.072700463 0 -0.32315677 0.19972187 -0.52287865
0.0093611302 0.070332944 0 -0.32315677 0.19972187 -0.52287865
0.0079139434 0.067967743 0 -0.32315677 0.19972187 -0.52287865
0.0064674933 0.065604776 0 -0.32315677 0.19972187 -0.52287865
0.0050217267 0.063243955 0 -0.32315677 0.19972187 -0.52287865
0.0035765897 0.060885195 0 -0.32315677 0.19972187 -0.52287865
0.0021320288 0.058528397 0 -0.32315677 0.19972187 -0.52287865
0.00068799092 0.056173481 0 -0.32315677 0.19972187 -0.52287865
5.5511151e-17 0.053478424 0.0012254155 -0.32315677 0.19972187 -0.52287865
0 0.050453331 0.0035819914 -0.32315677 0.19972187 -0.52287865
5.5511151e-17 0.047402717 0.0059592542 -0.32315677 0.19972187 -0.52287865
5.5511151e-17 0.04432613 0.0083575659 -0.32315677 0.19972187 -0.52287865
0 0.041223116 0.010777296 -0.32315677 0.19972187 -0.52287865
0 0.038093198 0.013218825 -0.32315677 0.19972187 -0.52287865
0 0.034935895 0.015682535 -0.32315677 0.19972187 -0.52287865
0 0.031750716 0.018168826 -0.32315677 0.19972187 -0.52287865
5.5511151e-17 0.028537154 0.020678097 -0.32315677 0.19972187 -0.52287865
0 0.025294697 0.023210766 -0.32315677 0.19972187 -0.52287865
5.5511151e-17 0.022022817 0.025767252 -0.32315677 0.19972187 -0.52287865
0 0.018720975 0.02834799 -0.32315677 0.19972187 -0.52287865
5.5511151e-17 0.015388622 0.030953422 -0.32315677 0.19972187 -0.52287865
5.5511151e-17 0.012025191 0.033583999 -0.32315677 0.19972187 -0.52287865
0 0.0086301062 0.036240187 -0.32315677 0.19972187 -0.52287865
5.5511151e-17 0.0052027781 0.038922455 -0.32315677 0.19972187 -0.52287865
0.038904734 0.079999998 0.024811216 -0.32315677 0.19972187 -0.52287865
0.02999112 0.079999998 0.013593695 -0.32315677 0.19972187 -0.52287865
0.02144476 0.079999998 0.0028390617 -0.32315677 0.19972187 -0.52287865
0.018126018 0.078262202 0 -0.32315677 0.19972187 -0.52287865
0.01666932 0.075880542 0 -0.32315677 0.19972187 -0.52287865
0.015213638 0.07350146 0 -0.32315677 0.19972187 -0.52287865
0.013758918 0.071124867 0 -0.32315677 0.19972187 -0.52287865
0.012305107 0.068750672 0 -0.32315677 0.19972187 -0.52287865
0.010852149 0.06637878 0 -0.32315677 0.19972187 -0.52287865
0.0093999896 0.064009108 0 -0.32315677 0.19972187 -0.52287865
0.0079485755 0.061641566 0 -0.32315677 0.19972187 -0.52287865
0.0064978516 0.059276063 0 -0.32315677 0.19972187 -0.52287865
0.0050477637 0.056912508 0 -0.32315677 0.19972187 -0.52287865
0.0035982581 0.054550812 0 -0.32315677 0.19972187 -0.52287865
0.0021492811 0.052190889 0 -0.32315677 0.19972187 -0.52287865
0.00070077908 0.049832646 0 -0.32315677 0.19972187 -0.52287865
0 0.047123116 0.0012119623 -0.32315677 0.19972187 -0.52287865
0 0.044063568 0.0035758978 -0.32315677 0.19972187 -0.52287865
5.5511151e-17 0.040977888 0.005960735 -0.32315677 0.19972187 -0.52287865
0 0.037865609 0.0083668418 -0.32315677 0.19972187 -0.52287865
0 0.034726258 0.010794594 -0.32315677 0.19972187 -0.52287865
0 0.031559352 0.013244375 -0.32315677 0.19972187 -0.52287865
0 0.028364394 0.015716577 -0.32315677 0.19972187 -0.52287865
5.5511151e-17 0.02514088 0.018211601 -0.32315677 0.19972187 -0.52287865
0 0.021888291 0.02072986 -0.32315677 0.19972187 -0.52287865
0 0.018606097 0.023271771 -0.32315677 0.19972187 -0.52287865
5.5511151e-17 0.015293756 0.025837764 -0.32315677 0.19972187 -0.52287865
5.5511151e-17 0.011950715 0.028428281 -0.32315677 0.19972187 -0.52287865
0 0.008576408 0.03104377 -0.32315677 0.19972187 -0.52287865
5.5511151e-17 0.0051702517 0.03368469 -0.32315677 0.19972187 -0.52287865
5.5511151e-17 0.0017316539 0.036351513 -0.32315677 0.19972187 -0.52287865
0.037180316 0.079999998 0.017506372 -0.32315677 0.19972187 -0.52287865
0.028392009 0.079999998 0.0065534478 -0.32315677 0.19972187 -0.52287865
0.022575347 0.079088219 0 -0.32315677 0.19972187 -0.52287865
0.021111442 0.07669723 0 -0.32315677 0.19972187 -0.52287865
0.019648673 0.074308909 0 -0.32315677 0.19972187 -0.52287865
0.018186986 0.071923152 0 -0.32315677 0.19972187 -0.52287865
0.016726328 0.069539867 0 -0.32315677 0.19972187 -0.52287865
0.015266641 0.06715896 0 -0.32315677 0.19972187 -0.52287865
0.01380787 0.064780347 0 -0.32315677 0.19972187 -0.52287865
0.01234996 0.062403936 0 -0.32315677 0.19972187 -0.52287865
0.010892857 0.060029633 0 -0.32315677 0.19972187 -0.52287865
0.0094365049 0.05765735 0 -0.32315677 0.19972187 -0.52287865
0.0079808505 0.055286996 0 -0.32315677 0.19972187 -0.52287865
0.0065258392 0.052918486 0 -0.32315677 0.19972187 -0.52287865
0.005071416 0.050551724 0 -0.32315677 0.19972187 -0.52287865
0.0036175272 0.048186626 0 -0.32315677 0.19972187 -0.52287865
0.0021641182 0.045823101 0 -0.32315677 0.19972187 -0.52287865
0.00071113516 0.043461062 0 -0.32315677 0.19972187 -0.52287865
0 0.040735625 0.0012024922 -0.32315677 0.19972187 -0.52287865
5.5511151e-17 0.037640784 0.0035738535 -0.32315677 0.19972187 -0.52287865
5.5511151e-17 0.034519181 0.0059663351 -0.32315677 0.19972187 -0.52287865
5.5511151e-17 0.031370334 0.0083803097 -0.32315677 0.19972187 -0.52287865
0 0.028193763 0.010816158 -0.32315677 0.19972187 -0.52287865
0 0.024988966 0.013274271 -0.32315677 0.19972187 -0.52287865
5.5511151e-17 0.021755436 0.015755048 -0.32315677 0.19972187 -0.52287865
5.5511151e-17 0.018492652 0.018258894 -0.32315677 0.19972187 -0.52287865
5.5511151e-17 0.01520008 0.02078623 -0.32315677 0.19972187 -0.52287865
0 0.011877178 0.023337478 -0.32315677 0.19972187 -0.52287865
0 0.0085233878 0.025913078 -0.32315677 0.19972187 -0.52287865
5.5511151e-17 0.0051381383 0.028513476 -0.32315677 0.19972187 -0.52287865
5.5511151e-17 0.0017208473 0.03113913 -0.32315677 0.19972187 -0.52287865
0.035491284 0.079999998 0.010351414 -0.32315677 0.19972187 -0.52287865
0.027056307 0.079920888 0 -0.32315677 0.19972187 -0.52287865
0.025584958 0.07752049 0 -0.32315677 0.19972187 -0.52287865
0.024114871 0.075122818 0 -0.32315677 0.19972187 -0.52287865
0.022645989 0.072727799 0 -0.32315677 0.19972187 -0.52287865
0.021178253 0.070335329 0 -0.32315677 0.19972187 -0.52287865
0.01971161 0.067945316 0 -0.32315677 0.19972187 -0.52287865
0.018246002 0.065557666 0 -0.32315677 0.19972187 -0.52287865
0.016781375 0.063172296 0 -0.32315677 0.19972187 -0.52287865
0.015317673 0.060789105 0 -0.32315677 0.19972187 -0.52287865
0.01385484 0.058408007 0 -0.32315677 0.19972187 -0.52287865
0.01239282 0.05602891 0 -0.32315677 0.19972187 -0.52287865
0.010931559 0.053651724 0 -0.32315677 0.19972187 -0.52287865
0.009471002 0.051276356 0 -0.32315677 0.19972187 -0.52287865
0.0080110943 0.04890272 0 -0.32315677 0.19972187 -0.52287865
0.0065517803 0.046530727 0 -0.32315677 0.19972187 -0.52287865
0.0050930064 0.04416028 0 -0.32315677 0.19972187 -0.52287865
0.0036347171 0.041791301 0 -0.32315677 0.19972187 -0.52287865
0.0021768585 0.039423693 0 -0.32315677 0.19972187 -0.52287865
0.00071937602 0.03705737 0 -0.32315677 0.19972187 -0.52287865
5.5511151e-17 0.034314606 0.0011964921 -0.32315677 0.19972187 -0.52287865
0 0.031183613 0.0035753443 -0.32315677 0.19972187 -0.52287865
0 0.028025212 0.0059755375 -0.32315677 0.19972187 -0.52287865
0 0.024838913 0.0083974507 -0.32315677 0.19972187 -0.52287865
0 0.021624217 0.010841471 -0.32315677 0.19972187 -0.52287865
0 0.018380608 0.013307994 -0.32315677 0.19972187 -0.52287865
5.5511151e-17 0.015107567 0.015797425 -0.32315677 0.19972187 -0.52287865
0 0.011804558 0.01831018 -0.32315677 0.19972187 -0.52287865
5.5511151e-17 0.0084710317 0.020846682 -0.32315677 0.19972187 -0.52287865
5.5511151e-17 0.0051064296 0.023407361 -0.32315677 0.19972187 -0.52287865
0 0.0017101775 0.025992665 -0.32315677 0.19972187 -0.52287865
0.033836495 0.079999998 0.0033415116 -0.32315677 0.19972187 -0.52287865
0.03009055 0.078350313 0 -0.32315677 0.19972187 -0.52287865
0.028612906 0.075943209 0 -0.32315677 0.19972187 -0.52287865
0.02713659 0.073538825 0 -0.32315677 0.19972187 -0.52287865
0.025661545 0.071137071 0 -0.32315677 0.19972187 -0.52287865
0.024187714 0.06873785 0 -0.32315677 0.19972187 -0.52287865
0.022715041 0.066341072 0 -0.32315677 0.19972187 -0.52287865
0.02124347 0.063946649 0 -0.32315677 0.19972187 -0.52287865
0.019772941 0.061554477 0 -0.32315677 0.19972187 -0.52287865
0.018303404 0.059164472 0 -0.32315677 0.19972187 -0.52287865
0.016834797 0.056776542 0 -0.32315677 0.19972187 -0.52287865
0.015367068 0.054390591 0 -0.32315677 0.19972187 -0.52287865
0.013900161 0.052006532 0 -0.32315677 0.19972187 -0.52287865
0.012434019 0.049624272 0 -0.32315677 0.19972187 -0.52287865
0.010968586 0.047243726 0 -0.32315677 0.19972187 -0.52287865
0.0095038097 0.044864792 0 -0.32315677 0.19972187 -0.52287865
0.0080396328 0.042487394 0 -0.32315677 0.19972187 -0.52287865
0.0065760002 0.04011143 0 -0.32315677 0.19972187 -0.52287865
0.005112858 0.037736818 0 -0.32315677 0.19972187 -0.52287865
0.0036501503 0.035363466 0 -0.32315677 0.19972187 -0.52287865
0.0021878229 0.032991283 0 -0.32315677 0.19972187 -0.52287865
0.00072582089 0.030620184 0 -0.32315677 0.19972187 -0.52287865
5.5511151e-17 0.027858701 0.0011934458 -0.32315677 0.19972187 -0.52287865
0 0.024690684 0.0035798517 -0.32315677 0.19972187 -0.52287865
5.5511151e-17 0.021494597 0.005987823 -0.32315677 0.19972187 -0.52287865
0 0.018269939 0.0084177442 -0.32315677 0.19972187 -0.52287865
0 0.015016194 0.010870009 -0.32315677 0.19972187 -0.52287865
0 0.011732835 0.013345019 -0.32315677 0.19972187 -0.52287865
0 0.0084193265 0.015843187 -0.32315677 0.19972187 -0.52287865
0 0.0050751162 0.018364932 -0.32315677 0.19972187 -0.52287865
5.5511151e-17 0.0016996412 0.020910686 -0.32315677 0.19972187 -0.52287865
0.034628905 0.079186723 0 -0.32315677 0.19972187 -0.52287865
0.033143461 0.076770075 0 -0.32315677 0.19972187 -0.52287865
0.031659469 0.074356228 0 -0.32315677 0.19972187 -0.52287865
0.030176878 0.071945094 0 -0.32315677 0.19972187 -0.52287865
0.028695622 0.069536567 0 -0.32315677 0.19972187 -0.52287865
0.02721565 0.067130566 0 -0.32315677 0.19972187 -0.52287865
0.025736902 0.064726986 0 -0.32315677 0.19972187 -0.52287865
0.024259321 0.062325746 0 -0.32315677 0.19972187 -0.52287865
0.022782849 0.059926741 0 -0.32315677 0.19972187 -0.52287865
0.021307431 0.057529882 0 -0.32315677 0.19972187 -0.52287865
0.01983301 0.055135079 0 -0.32315677 0.19972187 -0.52287865
0.018359529 0.052742239 0 -0.32315677 0.19972187 -0.52287865
0.016886933 0.05035127 0 -0.32315677 0.19972187 -0.52287865
0.015415166 0.047962081 0 -0.32315677 0.19972187 -0.52287865
0.01394417 0.045574579 0 -0.32315677 0.19972187 -0.52287865
0.012473891 0.043188676 0 -0.32315677 0.19972187 -0.52287865
0.011004272 0.040804278 0 -0.32315677 0.19972187 -0.52287865
0.0095352596 0.038421296 0 -0.32315677 0.19972187 -0.52287865
0.0080667958 0.036039639 0 -0.32315677 0.19972187 -0.52287865
0.0065988274 0.033659216 0 -0.32315677 0.19972187 -0.52287865
0.0051312977 0.03127994 0 -0.32315677 0.19972187 -0.52287865
0.003664152 0.02890172 0 -0.32315677 0.19972187 -0.52287865
0.002197335 0.026524466 0 -0.32315677 0.19972187 -0.52287865
0.00073079171 0.024148088 0 -0.32315677 0.19972187 -0.52287865
5.5511151e-17 0.021366544 0.0011928322 -0.32315677 0.19972187 -0.52287865
0 0.018160611 0.0035868532 -0.32315677 0.19972187 -0.52287865
0 0.014925933 0.0060026669 -0.32315677 0.19972187 -0.52287865
0 0.011661991 0.008440664 -0.32315677 0.19972187 -0.52287865
0 0.0083682574 0.010901244 -0.32315677 0.19972187 -0.52287865
0 0.0050441897 0.013384815 -0.32315677 0.19972187 -0.52287865
5.5511151e-17 0.0016892359 0.015891798 -0.32315677 0.19972187 -0.52287865
0.039290756 0.079999998 0.00012990859 -0.32315677 0.19972187 -0.52287865
0.037707236 0.077603437 0 -0.32315677 0.19972187 -0.52287865
0.036215328 0.075180024 0 -0.32315677 0.19972187 -0.52287865
0.034724943 0.072759405 0 -0.32315677 0.19972187 -0.52287865
0.033236023 0.070341475 0 -0.32315677 0.19972187 -0.52287865
0.031748511 0.067926146 0 -0.32315677 0.19972187 -0.52287865
0.030262351 0.06551332 0 -0.32315677 0.19972187 -0.52287865
0.02877748 0.063102908 0 -0.32315677 0.19972187 -0.52287865
0.027293842 0.060694806 0 -0.32315677 0.19972187 -0.52287865
0.025811382 0.058288932 0 -0.32315677 0.19972187 -0.52287865
0.02433004 0.055885185 0 -0.32315677 0.19972187 -0.52287865
0.022849759 0.053483471 0 -0.32315677 0.19972187 -0.52287865
0.021370485 0.051083703 0 -0.32315677 0.19972187 -0.52287865
0.019892158 0.048685782 0 -0.32315677 0.19972187 -0.52287865
0.018414723 0.046289623 0 -0.32315677 0.19972187 -0.52287865
0.016938124 0.043895129 0 -0.32315677 0.19972187 -0.52287865
0.015462303 0.041502211 0 -0.32315677 0.19972187 -0.52287865
0.013987205 0.039110776 0 -0.32315677 0.19972187 -0.52287865
0.012512773 0.036720734 0 -0.32315677 0.19972187 -0.52287865
0.011038952 0.034331989 0 -0.32315677 0.19972187 -0.52287865
0.0095656849 0.031944457 0 -0.32315677 0.19972187 -0.52287865
0.0080929175 0.029558046 0 -0.32315677 0.19972187 -0.52287865
0.0066205924 0.027172664 0 -0.32315677 0.19972187 -0.52287865
0.0051486553 0.024788219 0 -0.32315677 0.19972187 -0.52287865
0.0036770501 0.022404626 0 -0.32315677 0.19972187 -0.52287865
0.0022057213 0.020021789 0 -0.32315677 0.19972187 -0.52287865
0.00073461339 0.017639622 0 -0.32315677 0.19972187 -0.52287865
0 0.014836763 0.0011941262 -0.32315677 0.19972187 -0.52287865
5.5511151e-17 0.011592006 0.0035958213 -0.32315677 0.19972187 -0.52287865
5.5511151e-17 0.0083178105 0.0060195397 -0.32315677 0.19972187 -0.52287865
0 0.0050136424 0.0084656784 -0.32315677 0.19972187 -0.52287865
5.5511151e-17 0.0016789585 0.010934643 -0.32315677 0.19972187 -0.52287865
0.039306451 0.073580012 0 -0.32315677 0.19972187 -0.52287865
0.037809618 0.071152575 0 -0.32315677 0.19972187 -0.52287865
0.036314324 0.068727814 0 -0.32315677 0.19972187 -0.52287865
0.034820504 0.066305645 0 -0.32315677 0.19972187 -0.52287865
0.033328105 0.063885957 0 -0.32315677 0.19972187 -0.52287865
0.031837065 0.061468672 0 -0.32315677 0.19972187 -0.52287865
0.030347325 0.059053678 0 -0.32315677 0.19972187 -0.52287865
0.028858829 0.056640893 0 -0.32315677 0.19972187 -0.52287865
0.027371518 0.054230213 0 -0.32315677 0.19972187 -0.52287865
0.025885336 0.051821556 0 -0.32315677 0.19972187 -0.52287865
0.024400223 0.049414817 0 -0.32315677 0.19972187 -0.52287865
0.022916123 0.047009911 0 -0.32315677 0.19972187 -0.52287865
0.021432981 0.044606742 0 -0.32315677 0.19972187 -0.52287865
0.019950734 0.042205215 0 -0.32315677 0.19972187 -0.52287865
0.018469332 0.039805241 0 -0.32315677 0.19972187 -0.52287865
0.016988715 0.037406728 0 -0.32315677 0.19972187 -0.52287865
0.015508825 0.035009582 0 -0.32315677 0.19972187 -0.52287865
0.014029608 0.032613713 0 -0.32315677 0.19972187 -0.52287865
0.012551006 0.03021903 0 -0.32315677 0.19972187 -0.52287865
0.011072963 0.027825439 0 -0.32315677 0.19972187 -0.52287865
0.0095954239 0.025432853 0 -0.32315677 0.19972187 -0.52287865
0.0081183314 0.023041178 0 -0.32315677 0.19972187 -0.52287865
0.0066416301 0.020650322 0 -0.32315677 0.19972187 -0.52287865
0.0051652635 0.018260196 0 -0.32315677 0.19972187 -0.52287865
0.0036891759 0.015870711 0 -0.32315677 0.19972187 -0.52287865
0.0022133114 0.013481773 0 -0.32315677 0.19972187 -0.52287865
0.000737614 0.011093294 0 -0.32315677 0.19972187 -0.52287865
5.5511151e-17 0.0082679726 0.0011967968 -0.32315677 0.19972187 -0.52287865
5.5511151e-17 0.0049834652 0.0036062235 -0.32315677 0.19972187 -0.52287865
5.5511151e-17 0.0016688064 0.0060379072 -0.32315677 0.19972187 -0.52287865
0.039412074 0.06710396 0 -0.32315677 0.19972187 -0.52287865
0.037911899 0.064674906 0 -0.32315677 0.19972187 -0.52287865
0.036413211 0.062248327 0 -0.32315677 0.19972187 -0.52287865
0.034915954 0.059824124 0 -0.32315677 0.19972187 -0.52287865
0.033420064 0.057402201 0 -0.32315677 0.19972187 -0.52287865
0.031925485 0.054982465 0 -0.32315677 0.19972187 -0.52287865
0.030432161 0.052564818 0 -0.32315677 0.19972187 -0.52287865
0.028940031 0.050149173 0 -0.32315677 0.19972187 -0.52287865
0.027449036 0.047735427 0 -0.32315677 0.19972187 -0.52287865
0.025959121 0.045323491 0 -0.32315677 0.19972187 -0.52287865
0.024470227 0.042913269 0 -0.32315677 0.19972187 -0.52287865
0.022982294 0.040504672 0 -0.32315677 0.19972187 -0.52287865
0.021495268 0.038097601 0 -0.32315677 0.19972187 -0.52287865
0.020009091 0.035691969 0 -0.32315677 0.19972187 -0.52287865
0.018523704 0.033287678 0 -0.32315677 0.19972187 -0.52287865
0.017039053 0.030884642 0 -0.32315677 0.19972187 -0.52287865
0.015555078 0.028482763 0 -0.32315677 0.19972187 -0.52287865
0.014071723 0.026081953 0 -0.32315677 0.19972187 -0.52287865
0.012588933 0.023682117 0 -0.32315677 0.19972187 -0.52287865
0.01110665 0.021283166 0 -0.32315677 0.19972187 -0.52287865
0.0096248174 0.018885007 0 -0.32315677 0.19972187 -0.52287865
0.0081433794 0.016487548 0 -0.32315677 0.19972187 -0.52287865
0.006662278 0.014090699 0 -0.32315677 0.19972187 -0.52287865
0.0051814588 0.011694368 0 -0.32315677 0.19972187 -0.52287865
0.0037008643 0.0092984643 0 -0.32315677 0.19972187 -0.52287865
0.0022204383 0.0069028968 0 -0.32315677 0.19972187 -0.52287865
0.00074012508 0.0045075738 0 -0.32315677 0.19972187 -0.52287865
0 0.0016587769 0.0012003079 -0.32315677 0.19972187 -0.52287865
0.039517973 0.060600262 0 -0.32315677 0.19972187 -0.52287865
0.038014449 0.058169104 0 -0.32315677 0.19972187 -0.52287865
0.03651236 0.055740211 0 -0.32315677 0.19972187 -0.52287865
0.035011653 0.053313486 0 -0.32315677 0.19972187 -0.52287865
0.033512268 0.050888833 0 -0.32315677 0.19972187 -0.52287865
0.032014143 0.048466157 0 -0.32315677 0.19972187 -0.52287865
0.030517224 0.046045363 0 -0.32315677 0.19972187 -0.52287865
0.029021448 0.043626357 0 -0.32315677 0.19972187 -0.52287865
0.027526759 0.041209046 0 -0.32315677 0.19972187 -0.52287865
0.026033098 0.038793333 0 -0.32315677 0.19972187 -0.52287865
0.024540408 0.036379125 0 -0.32315677 0.19972187 -0.52287865
0.023048628 0.033966329 0 -0.32315677 0.19972187 -0.52287865
0.021557705 0.031554855 0 -0.32315677 0.19972187 -0.52287865
0.02006758 0.029144606 0 -0.32315677 0.19972187 -0.52287865
0.018578194 0.02673549 0 -0.32315677 0.19972187 -0.52287865
0.01708949 0.024327416 0 -0.32315677 0.19972187 -0.52287865
0.015601411 0.021920288 0 -0.32315677 0.19972187 -0.52287865
0.014113901 0.019514017 0 -0.32315677 0.19972187 -0.52287865
0.012626902 0.017108509 0 -0.32315677 0.19972187 -0.52287865
0.011140357 0.014703672 0 -0.32315677 0.19972187 -0.52287865
0.009654209 0.012299415 0 -0.32315677 0.19972187 -0.52287865
0.0081684021 0.0098956442 0 -0.32315677 0.19972187 -0.52287865
0.0066828774 0.0074922699 0 -0.32315677 0.19972187 -0.52287865
0.0051975804 0.0050891982 0 -0.32315677 0.19972187 -0.52287865
0.0037124532 0.0026863387 0 -0.32315677 0.19972187 -0.52287865
0.0022274393 0.00028359934 0 -0.32315677 0.19972187 -0.52287865
0.03962452 0.054067548 0 -0.32315677 0.19972187 -0.52287865
0.038117636 0.05163379 0 -0.32315677 0.19972187 -0.52287865
0.036612142 0.049202088 0 -0.32315677 0.19972187 -0.52287865
0.035107978 0.046772346 0 -0.32315677 0.19972187 -0.52287865
0.033605088 0.044344462 0 -0.32315677 0.19972187 -0.52287865
0.032103404 0.041918345 0 -0.32315677 0.19972187 -0.52287865
0.030602878 0.039493896 0 -0.32315677 0.19972187 -0.52287865
0.029103445 0.037071031 0 -0.32315677 0.19972187 -0.52287865
0.027605047 0.034649644 0 -0.32315677 0.19972187 -0.52287865
0.026107628 0.032229643 0 -0.32315677 0.19972187 -0.52287865
0.024611127 0.029810939 0 -0.32315677 0.19972187 -0.52287865
0.023115488 0.027393436 0 -0.32315677 0.19972187 -0.52287865
0.02162065 0.02497704 0 -0.32315677 0.19972187 -0.52287865
0.020126559 0.022561654 0 -0.32315677 0.19972187 -0.52287865
0.018633155 0.020147191 0 -0.32315677 0.19972187 -0.52287865
0.017140381 0.017733555 0 -0.32315677 0.19972187 -0.52287865
0.015648181 0.015320654 0 -0.32315677 0.19972187 -0.52287865
0.014156493 0.012908394 0 -0.32315677 0.19972187 -0.52287865
0.012665263 0.010496682 0 -0.32315677 0.19972187 -0.52287865
0.011174435 0.008085425 0 -0.32315677 0.19972187 -0.52287865
0.009683948 0.0056745321 0 -0.32315677 0.19972187 -0.52287865
0.0081937471 0.0032639103 0 -0.32315677 0.19972187 -0.52287865
0.0067037744 0.00085346645 0 -0.32315677 0.19972187 -0.52287865
0.039732099 0.047504421 0 -0.32315677 0.19972187 -0.52287865
0.038221847 0.045067567 0 -0.32315677 0.19972187 -0.52287865
0.036712933 0.04263255 0 -0.32315677 0.19972187 -0.52287865
0.035205305 0.04019928 0 -0.32315677 0.19972187 -0.52287865
0.033698894 0.03776766 0 -0.32315677 0.19972187 -0.52287865
0.032193642 0.03533759 0 -0.32315677 0.19972187 -0.52287865
0.030689497 0.03290898 0 -0.32315677 0.19972187 -0.52287865
0.029186392 0.030481735 0 -0.32315677 0.19972187 -0.52287865
0.027684273 0.028055759 0 -0.32315677 0.19972187 -0.52287865
0.026183078 0.025630957 0 -0.32315677 0.19972187 -0.52287865
0.024682753 0.023207232 0 -0.32315677 0.19972187 -0.52287865
0.023183234 0.020784495 0 -0.32315677 0.19972187 -0.52287865
0.021684468 0.018362653 0 -0.32315677 0.19972187 -0.52287865
0.020186393 0.015941605 0 -0.32315677 0.19972187 -0.52287865
0.018688951 0.013521263 0 -0.32315677 0.19972187 -0.52287865
0.017192086 0.011101533 0 -0.32315677 0.19972187 -0.52287865
0.015695741 0.008682319 0 -0.32315677 0.19972187 -0.52287865
0.014199856 0.0062635299 0 -0.32315677 0.19972187 -0.52287865
0.012704373 0.0038450717 0 -0.32315677 0.19972187 -0.52287865
0.011209236 0.0014268507 0 -0.32315677 0.19972187 -0.52287865
0.039841082 0.040909458 0 -0.32315677 0.19972187 -0.52287865
0.038327456 0.038468994 0 -0.32315677 0.19972187 -0.52287865
0.036815114 0.036030155 0 -0.32315677 0.19972187 -0.52287865
0.035304006 0.033592843 0 -0.32315677 0.19972187 -0.52287865
0.033794064 0.031156966 0 -0.32315677 0.19972187 -0.52287865
0.032285236 0.02872243 0 -0.32315677 0.19972187 -0.52287865
0.030777454 0.026289135 0 -0.32315677 0.19972187 -0.52287865
0.029270664 0.023856988 0 -0.32315677 0.19972187 -0.52287865
0.027764807 0.021425895 0 -0.32315677 0.19972187 -0.52287865
0.026259823 0.01899576 0 -0.32315677 0.19972187 -0.52287865
0.024755653 0.016566487 0 -0.32315677 0.19972187 -0.52287865
0.023252239 0.014137984 0 -0.32315677 0.19972187 -0.52287865
0.021749523 0.011710156 0 -0.32315677 0.19972187 -0.52287865
0.020247445 0.0092829084 0 -0.32315677 0.19972187 -0.52287865
0.018745948 0.0068561458 0 -0.32315677 0.19972187 -0.52287865
0.01724497 0.0044297758 0 -0.32315677 0.19972187 -0.52287865
0.015744459 0.0020037033 0 -0.32315677 0.19972187 -0.52287865
0.039951865 0.034281202 0 -0.32315677 0.19972187 -0.52287865
0.038434848 0.031836607 0 -0.32315677 0.19972187 -0.52287865
0.036919069 0.029393418 0 -0.32315677 0.19972187 -0.52287865
0.03540447 0.026951544 0 -0.32315677 0.19972187 -0.52287865
0.033890985 0.024510888 0 -0.32315677 0.19972187 -0.52287865
0.032378558 0.022071352 0 -0.32315677 0.19972187 -0.52287865
0.03086713 0.019632842 0 -0.32315677 0.19972187 -0.52287865
0.02935664 0.017195262 0 -0.32315677 0.19972187 -0.52287865
0.027847029 0.014758516 0 -0.32315677 0.19972187 -0.52287865
0.026338236 0.01232251 0 -0.32315677 0.19972187 -0.52287865
0.024830207 0.0098871477 0 -0.32315677 0.19972187 -0.52287865
0.023322877 0.0074523343 0 -0.32315677 0.19972187 -0.52287865
0.02181619 0.0050179749 0 -0.32315677 0.19972187 -0.52287865
0.020310089 0.0025839752 0 -0.32315677 0.19972187 -0.52287865
0.018804511 0.00015023981 0 -0.32315677 0.19972187 -0.52287865
0.03854442 0.025168899 0 -0.32315677 0.19972187 -0.52287865
0.037025187 0.022720836 0 -0.32315677 0.19972187 -0.52287865
0.035507083 0.020273864 0 -0.32315677 0.19972187 -0.52287865
0.03399004 0.017827891 0 -0.32315677 0.19972187 -0.52287865
0.032474004 0.015382819 0 -0.32315677 0.19972187 -0.52287865
0.03095891 0.012938553 0 -0.32315677 0.19972187 -0.52287865
0.029444702 0.010494995 0 -0.32315677 0.19972187 -0.52287865
0.02793132 0.0080520501 0 -0.32315677 0.19972187 -0.52287865
0.026418701 0.0056096232 0 -0.32315677 0.19972187 -0.52287865
0.02490679 0.0031676178 0 -0.32315677 0.19972187 -0.52287865
0.023395525 0.00072593876 0 -0.32315677 0.19972187 -0.52287865
0.038656559 0.018464336 0 -0.32315677 0.19972187 -0.52287865
0.037133861 0.016010853 0 -0.32315677 0.19972187 -0.52287865
0.035612237 0.013558242 0 -0.32315677 0.19972187 -0.52287865
0.034091622 0.011106405 0 -0.32315677 0.19972187 -0.52287865
0.032571957 0.0086552473 0 -0.32315677 0.19972187 -0.52287865
0.031053184 0.0062046722 0 -0.32315677 0.19972187 -0.52287865
0.02953524 0.003754582 0 -0.32315677 0.19972187 -0.52287865
0.028018067 0.0013048811 0 -0.32315677 0.19972187 -0.52287865
0.038771674 0.011721336 0 -0.32315677 0.19972187 -0.52287865
0.037245497 0.0092618819 0 -0.32315677 0.19972187 -0.52287865
0.035720333 0.0068030753 0 -0.32315677 0.19972187 -0.52287865
0.034196131 0.0043448191 0 -0.32315677 0.19972187 -0.52287865
0.032672819 0.0018870161 0 -0.32315677 0.19972187 -0.52287865
0.038890168 0.0049382807 0 -0.32315677 0.19972187 -0.52287865
0.037360493 0.0024722931 0 -0.32315677 0.19972187 -0.52287865
0.035831779 6.7260339e-06 0 -0.32315677 0.19972187 -0.52287865
