# .PCD v0.7 - Point Cloud Data file format
VERSION 0.7
FIELDS x y z vp_x vp_y vp_z
SIZE 4 4 4 4 4 4
TYPE F F F F F F
COUNT 1 1 1 1 1 1
WIDTH 568
HEIGHT 1
VIEWPOINT 0 0 0 1 0 0 0
POINTS 568
DATA ascii
5.5511151e-17 0.0017399933 0.039044719 -0.32315677 -0.19972187 -0.52287865
5.5511151e-17 0.00872932 0.039172351 -0.32315677 -0.19972187 -0.52287865
5.5511151e-17 0.0052122632 0.036468081 -0.32315677 -0.19972187 -0.52287865
0 0.0017290828 0.033790506 -0.32315677 -0.19972187 -0.52287865
0.0051685167 0.0014459488 0.039999999 -0.32315677 -0.19972187 -0.52287865
0.00089362677 0.054166175 0.069697559 -0.32315677 -0.19972187 -0.52287865
0.002097012 0.051133439 0.068862788 -0.32315677 -0.19972187 -0.52287865
0.0037165743 0.048429769 0.068791933 -0.32315677 -0.19972187 -0.52287865
0.0057217889 0.046017058 0.069418333 -0.32315677 -0.19972187 -0.52287865
5.5511151e-17 0.01576685 0.039304812 -0.32315677 -0.19972187 -0.52287865
5.5511151e-17 0.012203269 0.036589362 -0.32315677 -0.19972187 -0.52287865
0 0.008674412 0.033900913 -0.32315677 -0.19972187 -0.52287865
0 0.0051796357 0.031238971 -0.32315677 -0.19972187 -0.52287865
5.5511151e-17 0.0017183109 0.028603047 -0.32315677 -0.19972187 -0.52287865
0.002791024 0 0.030733129 -0.32315677 -0.19972187 -0.52287865
0.0084791696 2.7755576e-17 0.037741121 -0.32315677 -0.19972187 -0.52287865
6.1386825e-05 0.061132222 0.068445094 -0.32315677 -0.19972187 -0.52287865
0.00021431649 0.057245474 0.065692067 -0.32315677 -0.19972187 -0.52287865
0.00097486615 0.053873584 0.064069651 -0.32315677 -0.19972187 -0.52287865
0.0022209757 0.050899621 0.063340612 -0.32315677 -0.19972187 -0.52287865
0.0038523541 0.048229508 0.063311525 -0.32315677 -0.19972187 -0.52287865
0.0058857906 0.045861714 0.064001709 -0.32315677 -0.19972187 -0.52287865
0.008328123 0.04378688 0.065412432 -0.32315677 -0.19972187 -0.52287865
0.011251695 0.042043004 0.067660637 -0.32315677 -0.19972187 -0.52287865
5.5511151e-17 0.02285425 0.039441567 -0.32315677 -0.19972187 -0.52287865
0 0.019243004 0.036714815 -0.32315677 -0.19972187 -0.52287865
5.5511151e-17 0.015667353 0.03401538 -0.32315677 -0.19972187 -0.52287865
5.5511151e-17 0.012126635 0.03134276 -0.32315677 -0.19972187 -0.52287865
5.5511151e-17 0.0086202016 0.028696461 -0.32315677 -0.19972187 -0.52287865
5.5511151e-17 0.0051474213 0.026075995 -0.32315677 -0.19972187 -0.52287865
5.5511151e-17 0.0017076746 0.02348089 -0.32315677 -0.19972187 -0.52287865
0.0027736814 0 0.025578074 -0.32315677 -0.19972187 -0.52287865
0.0084258178 0 0.032477029 -0.32315677 -0.19972187 -0.52287865
0.014222301 0 0.039552618 -0.32315677 -0.19972187 -0.52287865
0.00074807258 0.065309592 0.066923603 -0.32315677 -0.19972187 -0.52287865
3.8285987e-05 0.060706146 0.062618352 -0.32315677 -0.19972187 -0.52287865
0.00026927749 0.056910232 0.060054813 -0.32315677 -0.19972187 -0.52287865
0.0010577529 0.053586863 0.058519032 -0.32315677 -0.19972187 -0.52287865
0.0023433839 0.050668735 0.057887726 -0.32315677 -0.19972187 -0.52287865
0.003986449 0.048031736 0.057899147 -0.32315677 -0.19972187 -0.52287865
0.0060477941 0.045708258 0.058651064 -0.32315677 -0.19972187 -0.52287865
0.0084952237 0.043659847 0.06007579 -0.32315677 -0.19972187 -0.52287865
0.011442048 0.041954935 0.062361483 -0.32315677 -0.19972187 -0.52287865
5.5511151e-17 0.029993206 0.039582074 -0.32315677 -0.19972187 -0.52287865
5.5511151e-17 0.026333127 0.036843896 -0.32315677 -0.19972187 -0.52287865
0 0.022709539 0.034133364 -0.32315677 -0.19972187 -0.52287865
0 0.019121759 0.031449959 -0.32315677 -0.19972187 -0.52287865
5.5511151e-17 0.015569121 0.028793177 -0.32315677 -0.19972187 -0.52287865
0 0.01205097 0.026162526 -0.32315677 -0.19972187 -0.52287865
0 0.0085666738 0.023557527 -0.32315677 -0.19972187 -0.52287865
5.5511151e-17 0.0051156101 0.020977709 -0.32315677 -0.19972187 -0.52287865
5.5511151e-17 0.0016971709 0.018422617 -0.32315677 -0.19972187 -0.52287865
0.0027565558 0 0.020487556 -0.32315677 -0.19972187 -0.52287865
0.0083731432 0 0.027279653 -0.32315677 -0.19972187 -0.52287865
0.014132259 0 0.034244452 -0.32315677 -0.19972187 -0.52287865
0.0034312257 0.071149372 0.069016643 -0.32315677 -0.19972187 -0.52287865
0.00059297594 0.064750992 0.060873162 -0.32315677 -0.19972187 -0.52287865
1.5497495e-05 0.060285836 0.056870397 -0.32315677 -0.19972187 -0.52287865
0.00032352528 0.05657934 0.054490708 -0.32315677 -0.19972187 -0.52287865
0.0011631947 0.053322215 0.053081051 -0.32315677 -0.19972187 -0.52287865
0.00246427 0.050440721 0.052502643 -0.32315677 -0.19972187 -0.52287865
0.0041251662 0.047841135 0.05256436 -0.32315677 -0.19972187 -0.52287865
0.0062078428 0.045556657 0.053365003 -0.32315677 -0.19972187 -0.52287865
5.5511151e-17 0.037185427 0.039725777 -0.32315677 -0.19972187 -0.52287865
5.5511151e-17 0.033475321 0.036976058 -0.32315677 -0.19972187 -0.52287865
5.5511151e-17 0.029802626 0.034254313 -0.32315677 -0.19972187 -0.52287865
5.5511151e-17 0.026166636 0.031560015 -0.32315677 -0.19972187 -0.52287865
5.5511151e-17 0.022566669 0.028892651 -0.32315677 -0.19972187 -0.52287865
5.5511151e-17 0.01900205 0.026251718 -0.32315677 -0.19972187 -0.52287865
0 0.015472124 0.023636732 -0.32315677 -0.19972187 -0.52287865
5.5511151e-17 0.011976254 0.021047212 -0.32315677 -0.19972187 -0.52287865
5.5511151e-17 0.0085138138 0.018482694 -0.32315677 -0.19972187 -0.52287865
5.5511151e-17 0.0050841938 0.015942721 -0.32315677 -0.19972187 -0.52287865
5.5511151e-17 0.001686797 0.01342685 -0.32315677 -0.19972187 -0.52287865
0.0027396425 0 0.015460179 -0.32315677 -0.19972187 -0.52287865
0.0083211297 0 0.022147536 -0.32315677 -0.19972187 -0.52287865
0.014043363 0 0.029003767 -0.32315677 -0.19972187 -0.52287865
0.019911965 0 0.03603562 -0.32315677 -0.19972187 -0.52287865
0.0027764139 0.070148043 0.062049065 -0.32315677 -0.19972187 -0.52287865
0.00045309094 0.064210966 0.054932237 -0.32315677 -0.19972187 -0.52287865
6.4026735e-06 0.059881907 0.051223211 -0.32315677 -0.19972187 -0.52287865
0.00037707566 0.056252699 0.048998136 -0.32315677 -0.19972187 -0.52287865
0.0012673207 0.053060871 0.047710922 -0.32315677 -0.19972187 -0.52287865
0.0025836669 0.050215513 0.047183897 -0.32315677 -0.19972187 -0.52287865
5.5511151e-17 0.044432636 0.039872117 -0.32315677 -0.19972187 -0.52287865
5.5511151e-17 0.040671282 0.037110746 -0.32315677 -0.19972187 -0.52287865
5.5511151e-17 0.036948282 0.034377676 -0.32315677 -0.19972187 -0.52287865
5.5511151e-17 0.033262916 0.031672381 -0.32315677 -0.19972187 -0.52287865
5.5511151e-17 0.029614469 0.028994331 -0.32315677 -0.19972187 -0.52287865
5.5511151e-17 0.026002254 0.026343022 -0.32315677 -0.19972187 -0.52287865
5.5511151e-17 0.022425598 0.023717957 -0.32315677 -0.19972187 -0.52287865
5.5511151e-17 0.018883841 0.021118648 -0.32315677 -0.19972187 -0.52287865
5.5511151e-17 0.01537634 0.018544622 -0.32315677 -0.19972187 -0.52287865
5.5511151e-17 0.011902466 0.015995417 -0.32315677 -0.19972187 -0.52287865
5.5511151e-17 0.0084616076 0.013470579 -0.32315677 -0.19972187 -0.52287865
0 0.005053164 0.010969668 -0.32315677 -0.19972187 -0.52287865
0 0.0016765503 0.0084922509 -0.32315677 -0.19972187 -0.52287865
0.0027229371 0 0.010494588 -0.32315677 -0.19972187 -0.52287865
0.0082697626 0 0.017079266 -0.32315677 -0.19972187 -0.52287865
0.013955586 0 0.023829091 -0.32315677 -0.19972187 -0.52287865
0.019785924 0 0.030750623 -0.32315677 -0.19972187 -0.52287865
0.025766592 0 0.037850767 -0.32315677 -0.19972187 -0.52287865
0.002349694 0.069343165 0.055586629 -0.32315677 -0.19972187 -0.52287865
0.00037360023 0.063726097 0.049178075 -0.32315677 -0.19972187 -0.52287865
2.6739381e-05 0.059506815 0.045702048 -0.32315677 -0.19972187 -0.52287865
0.00042994399 0.055930223 0.043575522 -0.32315677 -0.19972187 -0.52287865
0.0013701594 0.052802756 0.042407185 -0.32315677 -0.19972187 -0.52287865
5.5511151e-17 0.047922738 0.03724739 -0.32315677 -0.19972187 -0.52287865
5.5511151e-17 0.044148207 0.03450289 -0.32315677 -0.19972187 -0.52287865
5.5511151e-17 0.040412258 0.03178649 -0.32315677 -0.19972187 -0.52287865
5.5511151e-17 0.036714159 0.02909766 -0.32315677 -0.19972187 -0.52287865
5.5511151e-17 0.033053201 0.026435878 -0.32315677 -0.19972187 -0.52287865
5.5511151e-17 0.029428683 0.023800643 -0.32315677 -0.19972187 -0.52287865
5.5511151e-17 0.025839934 0.021191461 -0.32315677 -0.19972187 -0.52287865
0 0.022286288 0.018607847 -0.32315677 -0.19972187 -0.52287865
0 0.0187671 0.016049333 -0.32315677 -0.19972187 -0.52287865
0 0.015281738 0.013515458 -0.32315677 -0.19972187 -0.52287865
0 0.011829586 0.011005773 -0.32315677 -0.19972187 -0.52287865
0 0.0084100403 0.0085198395 -0.32315677 -0.19972187 -0.52287865
5.5511151e-17 0.0050225127 0.006057228 -0.32315677 -0.19972187 -0.52287865
5.5511151e-17 0.0016664277 0.0036175209 -0.32315677 -0.19972187 -0.52287865
0.0027064353 0 0.0055894647 -0.32315677 -0.19972187 -0.52287865
0.0082190298 0 0.012073469 -0.32315677 -0.19972187 -0.52287865
0.013868904 0 0.018718993 -0.32315677 -0.19972187 -0.52287865
0.019661475 0 0.025532408 -0.32315677 -0.19972187 -0.52287865
0.025602451 0 0.032520428 -0.32315677 -0.19972187 -0.52287865
0.031697839 0 0.039690129 -0.32315677 -0.19972187 -0.52287865
0.0019296781 0.068550937 0.049225718 -0.32315677 -0.19972187 -0.52287865
0.00029518726 0.063247807 0.043501928 -0.32315677 -0.19972187 -0.52287865
4.6814075e-05 0.059136558 0.040252019 -0.32315677 -0.19972187 -0.52287865
5.5511151e-17 0.055231426 0.037385423 -0.32315677 -0.19972187 -0.52287865
5.5511151e-17 0.051404111 0.034629382 -0.32315677 -0.19972187 -0.52287865
0 0.047616355 0.031901777 -0.32315677 -0.19972187 -0.52287865
5.5511151e-17 0.043867402 0.029202066 -0.32315677 -0.19972187 -0.52287865
5.5511151e-17 0.040156517 0.026529722 -0.32315677 -0.19972187 -0.52287865
5.5511151e-17 0.036482986 0.023884231 -0.32315677 -0.19972187 -0.52287865
5.5511151e-17 0.032846116 0.021265091 -0.32315677 -0.19972187 -0.52287865
0 0.029245218 0.018671812 -0.32315677 -0.19972187 -0.52287865
5.5511151e-17 0.025679629 0.016103914 -0.32315677 -0.19972187 -0.52287865
5.5511151e-17 0.0221487 0.013560931 -0.32315677 -0.19972187 -0.52287865
0 0.018651797 0.011042406 -0.32315677 -0.19972187 -0.52287865
5.5511151e-17 0.015188295 0.0085478928 -0.32315677 -0.19972187 -0.52287865
0 0.011757594 0.0060769552 -0.32315677 -0.19972187 -0.52287865
0 0.0083590988 0.0036291685 -0.32315677 -0.19972187 -0.52287865
0 0.0049922313 0.0012041166 -0.32315677 -0.19972187 -0.52287865
0.00074248208 0.0021191118 0 -0.32315677 -0.19972187 -0.52287865
0.0026901325 0 0.00074352848 -0.32315677 -0.19972187 -0.52287865
0.0081689153 0 0.0071288114 -0.32315677 -0.19972187 -0.52287865
0.030316552 0.0098001212 0.039999999 -0.32315677 -0.19972187 -0.52287865
0.019538585 0 0.020379523 -0.32315677 -0.19972187 -0.52287865
0.025440387 0 0.027257672 -0.32315677 -0.19972187 -0.52287865
0.031494603 0 0.034313396 -0.32315677 -0.19972187 -0.52287865
0.0016391173 0.067872293 0.043177955 -0.32315677 -0.19972187 -0.52287865
5.5511151e-17 0.062599123 0.037524261 -0.32315677 -0.19972187 -0.52287865
5.5511151e-17 0.058717739 0.034756575 -0.32315677 -0.19972187 -0.52287865
5.5511151e-17 0.054876912 0.032017663 -0.32315677 -0.19972187 -0.52287865
5.5511151e-17 0.051075872 0.029306978 -0.32315677 -0.19972187 -0.52287865
0 0.047313858 0.026623981 -0.32315677 -0.19972187 -0.52287865
0 0.043590136 0.023968149 -0.32315677 -0.19972187 -0.52287865
5.5511151e-17 0.039903987 0.021338971 -0.32315677 -0.19972187 -0.52287865
0 0.036254704 0.018735949 -0.32315677 -0.19972187 -0.52287865
5.5511151e-17 0.032641605 0.016158598 -0.32315677 -0.19972187 -0.52287865
5.5511151e-17 0.029064022 0.013606437 -0.32315677 -0.19972187 -0.52287865
5.5511151e-17 0.025521299 0.011079008 -0.32315677 -0.19972187 -0.52287865
5.5511151e-17 0.022012798 0.0085758539 -0.32315677 -0.19972187 -0.52287865
5.5511151e-17 0.018537898 0.006096534 -0.32315677 -0.19972187 -0.52287865
0 0.015095987 0.0036406147 -0.32315677 -0.19972187 -0.52287865
0 0.011686471 0.0012076737 -0.32315677 -0.19972187 -0.52287865
0.00074502447 0.0087883752 0 -0.32315677 -0.19972187 -0.52287865
0.0022346552 0.0063777198 0 -0.32315677 -0.19972187 -0.52287865
0.0037242854 0.0039672563 0 -0.32315677 -0.19972187 -0.52287865
0.0052139726 0.0015568916 0 -0.32315677 -0.19972187 -0.52287865
0.008119408 0 0.0022439931 -0.32315677 -0.19972187 -0.52287865
0.013698732 0 0.0086869923 -0.32315677 -0.19972187 -0.52287865
0.019417219 0 0.015290556 -0.32315677 -0.19972187 -0.52287865
0.025280362 0 0.022061022 -0.32315677 -0.19972187 -0.52287865
0.031293951 0 0.029005071 -0.32315677 -0.19972187 -0.52287865
0.037464086 0 0.036129743 -0.32315677 -0.19972187 -0.52287865
5.5511151e-17 0.070027612 0.037663314 -0.32315677 -0.19972187 -0.52287865
0 0.066090845 0.034883879 -0.32315677 -0.19972187 -0.52287865
5.5511151e-17 0.062195666 0.032133564 -0.32315677 -0.19972187 -0.52287865
0 0.05834128 0.02941181 -0.32315677 -0.19972187 -0.52287865
5.5511151e-17 0.054526903 0.026718071 -0.32315677 -0.19972187 -0.52287865
5.5511151e-17 0.050751779 0.024051815 -0.32315677 -0.19972187 -0.52287865
5.5511151e-17 0.047015168 0.021412523 -0.32315677 -0.19972187 -0.52287865
5.5511151e-17 0.043316342 0.018799685 -0.32315677 -0.19972187 -0.52287865
5.5511151e-17 0.039654598 0.016212808 -0.32315677 -0.19972187 -0.52287865
5.5511151e-17 0.036029249 0.013651406 -0.32315677 -0.19972187 -0.52287865
5.5511151e-17 0.032439616 0.011115011 -0.32315677 -0.19972187 -0.52287865
0 0.028885048 0.0086031593 -0.32315677 -0.19972187 -0.52287865
5.5511151e-17 0.0253649 0.0061154026 -0.32315677 -0.19972187 -0.52287865
0 0.021878548 0.0036513 -0.32315677 -0.19972187 -0.52287865
5.5511151e-17 0.018425375 0.0012104224 -0.32315677 -0.19972187 -0.52287865
0.00074809627 0.015501873 0 -0.32315677 -0.19972187 -0.52287865
0.0022424313 0.013082705 0 -0.32315677 -0.19972187 -0.52287865
0.0037367081 0.010663953 0 -0.32315677 -0.19972187 -0.52287865
0.0052309847 0.0082455212 0 -0.32315677 -0.19972187 -0.52287865
0.0067253178 0.0058273189 0 -0.32315677 -0.19972187 -0.52287865
0.0082197655 0.0034092513 0 -0.32315677 -0.19972187 -0.52287865
0.0097143864 0.00099122594 0 -0.32315677 -0.19972187 -0.52287865
0.013615198 0 0.0037624228 -0.32315677 -0.19972187 -0.52287865
0.019297345 0 0.010264134 -0.32315677 -0.19972187 -0.52287865
0.025122328 0 0.016929049 -0.32315677 -0.19972187 -0.52287865
0.031095827 2.7755576e-17 0.02376366 -0.32315677 -0.19972187 -0.52287865
0.039999999 0.0015385457 0.035039842 -0.32315677 -0.19972187 -0.52287865
5.5511151e-17 0.077518716 0.037801977 -0.32315677 -0.19972187 -0.52287865
5.5511151e-17 0.07352522 0.035010692 -0.32315677 -0.19972187 -0.52287865
5.5511151e-17 0.069574371 0.032248877 -0.32315677 -0.19972187 -0.52287865
5.5511151e-17 0.065665342 0.029515967 -0.32315677 -0.19972187 -0.52287865
5.5511151e-17 0.061797343 0.026811402 -0.32315677 -0.19972187 -0.52287865
5.5511151e-17 0.057969581 0.024134642 -0.32315677 -0.19972187 -0.52287865
5.5511151e-17 0.054181296 0.021485157 -0.32315677 -0.19972187 -0.52287865
5.5511151e-17 0.050431743 0.018862434 -0.32315677 -0.19972187 -0.52287865
5.5511151e-17 0.046720196 0.016265964 -0.32315677 -0.19972187 -0.52287865
0 0.043045938 0.013695261 -0.32315677 -0.19972187 -0.52287865
5.5511151e-17 0.039408285 0.01114984 -0.32315677 -0.19972187 -0.52287865
5.5511151e-17 0.035806555 0.0086292364 -0.32315677 -0.19972187 -0.52287865
0 0.032240093 0.0061329906 -0.32315677 -0.19972187 -0.52287865
5.5511151e-17 0.028708247 0.0036606567 -0.32315677 -0.19972187 -0.52287865
5.5511151e-17 0.025210392 0.0012117983 -0.32315677 -0.19972187 -0.52287865
0.00075204624 0.022261309 0 -0.32315677 -0.19972187 -0.52287865
0.0022511182 0.019833047 0 -0.32315677 -0.19972187 -0.52287865
0.0037500728 0.017405426 0 -0.32315677 -0.19972187 -0.52287865
0.0052489685 0.014978355 0 -0.32315677 -0.19972187 -0.52287865
0.0067478628 0.012551737 0 -0.32315677 -0.19972187 -0.52287865
0.0082468148 0.010125479 0 -0.32315677 -0.19972187 -0.52287865
0.009745881 0.0076994868 0 -0.32315677 -0.19972187 -0.52287865
0.01124512 0.0052736662 0 -0.32315677 -0.19972187 -0.52287865
0.012744592 0.0028479239 0 -0.32315677 -0.19972187 -0.52287865
0.014244352 0.00042216526 0 -0.32315677 -0.19972187 -0.52287865
0.019178931 0 0.0052989242 -0.32315677 -0.19972187 -0.52287865
0.024966242 0 0.011860362 -0.32315677 -0.19972187 -0.52287865
0.030900178 0 0.018587708 -0.32315677 -0.19972187 -0.52287865
0.036986612 0 0.025487611 -0.32315677 -0.19972187 -0.52287865
5.5511151e-17 0.077014804 0.032363001 -0.32315677 -0.19972187 -0.52287865
5.5511151e-17 0.073049821 0.029618844 -0.32315677 -0.19972187 -0.52287865
5.5511151e-17 0.069126897 0.02690337 -0.32315677 -0.19972187 -0.52287865
5.5511151e-17 0.065245233 0.02421603 -0.32315677 -0.19972187 -0.52287865
5.5511151e-17 0.061404038 0.021556282 -0.32315677 -0.19972187 -0.52287865
5.5511151e-17 0.057602543 0.018923601 -0.32315677 -0.19972187 -0.52287865
0 0.05384 0.016317477 -0.32315677 -0.19972187 -0.52287865
0 0.050115675 0.013737409 -0.32315677 -0.19972187 -0.52287865
5.5511151e-17 0.046428859 0.01118291 -0.32315677 -0.19972187 -0.52287865
0 0.042778857 0.008653501 -0.32315677 -0.19972187 -0.52287865
5.5511151e-17 0.039164983 0.0061487188 -0.32315677 -0.19972187 -0.52287865
5.5511151e-17 0.035586573 0.0036681092 -0.32315677 -0.19972187 -0.52287865
5.5511151e-17 0.032042984 0.0012112283 -0.32315677 -0.19972187 -0.52287865
0.00075722835 0.029068429 0 -0.32315677 -0.19972187 -0.52287865
0.002261071 0.026630478 0 -0.32315677 -0.19972187 -0.52287865
0.0037647362 0.024193401 0 -0.32315677 -0.19972187 -0.52287865
0.0052682827 0.021757102 0 -0.32315677 -0.19972187 -0.52287865
0.0067717694 0.019321484 0 -0.32315677 -0.19972187 -0.52287865
0.0082752537 0.016886456 0 -0.32315677 -0.19972187 -0.52287865
0.0097787958 0.014451921 0 -0.32315677 -0.19972187 -0.52287865
0.011282452 0.012017784 0 -0.32315677 -0.19972187 -0.52287865
0.012786282 0.009583951 0 -0.32315677 -0.19972187 -0.52287865
0.014290345 0.0071503264 0 -0.32315677 -0.19972187 -0.52287865
0.015794698 0.0047168164 0 -0.32315677 -0.19972187 -0.52287865
0.017299401 0.0022833259 0 -0.32315677 -0.19972187 -0.52287865
0.019061944 0 0.00039362902 -0.32315677 -0.19972187 -0.52287865
0.024812063 0 0.0068536056 -0.32315677 -0.19972187 -0.52287865
0.030706951 0 0.013475806 -0.32315677 -0.19972187 -0.52287865
0.036752369 0 0.020266686 -0.32315677 -0.19972187 -0.52287865
5.5511151e-17 0.076517306 0.026993364 -0.32315677 -0.19972187 -0.52287865
5.5511151e-17 0.072580442 0.024295367 -0.32315677 -0.19972187 -0.52287865
5.5511151e-17 0.06868507 0.021625286 -0.32315677 -0.19972187 -0.52287865
5.5511151e-17 0.064830393 0.018982586 -0.32315677 -0.19972187 -0.52287865
5.5511151e-17 0.061015639 0.016366746 -0.32315677 -0.19972187 -0.52287865
5.5511151e-17 0.057240058 0.013777258 -0.32315677 -0.19972187 -0.52287865
5.5511151e-17 0.053502917 0.011213626 -0.32315677 -0.19972187 -0.52287865
5.5511151e-17 0.049803492 0.0086753638 -0.32315677 -0.19972187 -0.52287865
5.5511151e-17 0.046141088 0.0061619994 -0.32315677 -0.19972187 -0.52287865
5.5511151e-17 0.042515021 0.0036730724 -0.32315677 -0.19972187 -0.52287865
5.5511151e-17 0.038924623 0.0012081307 -0.32315677 -0.19972187 -0.52287865
0.00076400192 0.035925038 0 -0.32315677 -0.19972187 -0.52287865
0.0022726508 0.033476789 0 -0.32315677 -0.19972187 -0.52287865
0.0037810609 0.031029645 0 -0.32315677 -0.19972187 -0.52287865
0.0052892915 0.028583517 0 -0.32315677 -0.19972187 -0.52287865
0.0067974022 0.026138306 0 -0.32315677 -0.19972187 -0.52287865
0.0083054509 0.023693914 0 -0.32315677 -0.19972187 -0.52287865
0.0098134968 0.021250244 0 -0.32315677 -0.19972187 -0.52287865
0.0113216 0.018807206 0 -0.32315677 -0.19972187 -0.52287865
0.012829818 0.016364699 0 -0.32315677 -0.19972187 -0.52287865
0.01433821 0.013922631 0 -0.32315677 -0.19972187 -0.52287865
0.015846835 0.011480904 0 -0.32315677 -0.19972187 -0.52287865
0.017355753 0.0090394244 0 -0.32315677 -0.19972187 -0.52287865
0.018865023 0.0065980959 0 -0.32315677 -0.19972187 -0.52287865
0.0203747 0.0041568223 0 -0.32315677 -0.19972187 -0.52287865
0.021884849 0.0017155095 0 -0.32315677 -0.19972187 -0.52287865
0.024659751 2.7755576e-17 0.0019074655 -0.32315677 -0.19972187 -0.52287865
0.030516094 0 0.0084265769 -0.32315677 -0.19972187 -0.52287865
0.036521032 0 0.015110597 -0.32315677 -0.19972187 -0.52287865
0 0.079976954 0.024372036 -0.32315677 -0.19972187 -0.52287865
5.5511151e-17 0.076026097 0.021691553 -0.32315677 -0.19972187 -0.52287865
5.5511151e-17 0.072116971 0.019038772 -0.32315677 -0.19972187 -0.52287865
0 0.068248764 0.016413158 -0.32315677 -0.19972187 -0.52287865
5.5511151e-17 0.064420708 0.013814197 -0.32315677 -0.19972187 -0.52287865
5.5511151e-17 0.060632043 0.011241382 -0.32315677 -0.19972187 -0.52287865
5.5511151e-17 0.056882035 0.0086942213 -0.32315677 -0.19972187 -0.52287865
5.5511151e-17 0.053169958 0.0061722347 -0.32315677 -0.19972187 -0.52287865
5.5511151e-17 0.049495112 0.0036749514 -0.32315677 -0.19972187 -0.52287865
5.5511151e-17 0.045856804 0.0012019142 -0.32315677 -0.19972187 -0.52287865
0.00077273231 0.042832982 0 -0.32315677 -0.19972187 -0.52287865
0.0022862242 0.040373806 0 -0.32315677 -0.19972187 -0.52287865
0.003799415 0.037915982 0 -0.32315677 -0.19972187 -0.52287865
0.0053123641 0.03545941 0 -0.32315677 -0.19972187 -0.52287865
0.0068251318 0.03300399 0 -0.32315677 -0.19972187 -0.52287865
0.0083377771 0.030549625 0 -0.32315677 -0.19972187 -0.52287865
0.0098503595 0.028096221 0 -0.32315677 -0.19972187 -0.52287865
0.011362938 0.025643682 0 -0.32315677 -0.19972187 -0.52287865
0.012875573 0.023191907 0 -0.32315677 -0.19972187 -0.52287865
0.014388323 0.020740803 0 -0.32315677 -0.19972187 -0.52287865
0.015901247 0.018290272 0 -0.32315677 -0.19972187 -0.52287865
0.017414406 0.015840219 0 -0.32315677 -0.19972187 -0.52287865
0.018927859 0.013390546 0 -0.32315677 -0.19972187 -0.52287865
0.020441664 0.010941158 0 -0.32315677 -0.19972187 -0.52287865
0.021955881 0.0084919585 0 -0.32315677 -0.19972187 -0.52287865
0.023470571 0.0060428507 0 -0.32315677 -0.19972187 -0.52287865
0.024985792 0.0035937389 0 -0.32315677 -0.19972187 -0.52287865
0.026501603 0.0011445271 0 -0.32315677 -0.19972187 -0.52287865
0.030327553 0 0.0034386895 -0.32315677 -0.19972187 -0.52287865
0.036292545 0 0.010017951 -0.32315677 -0.19972187 -0.52287865
0 0.079463974 0.019091532 -0.32315677 -0.19972187 -0.52287865
0 0.075541034 0.016456092 -0.32315677 -0.19972187 -0.52287865
0 0.071659259 0.013847607 -0.32315677 -0.19972187 -0.52287865
0 0.067817859 0.011265565 -0.32315677 -0.19972187 -0.52287865
0 0.064016066 0.0087094633 -0.32315677 -0.19972187 -0.52287865
5.5511151e-17 0.060253147 0.0061788149 -0.32315677 -0.19972187 -0.52287865
0 0.056528375 0.0036731414 -0.32315677 -0.19972187 -0.52287865
5.5511151e-17 0.052841038 0.0011919772 -0.32315677 -0.19972187 -0.52287865
0.00078379113 0.049794167 0 -0.32315677 -0.19972187 -0.52287865
0.0023021642 0.047323428 0 -0.32315677 -0.19972187 -0.52287865
0.0038201725 0.044854283 0 -0.32315677 -0.19972187 -0.52287865
0.0053378763 0.042386636 0 -0.32315677 -0.19972187 -0.52287865
0.006855336 0.039920382 0 -0.32315677 -0.19972187 -0.52287865
0.0083726114 0.037455425 0 -0.32315677 -0.19972187 -0.52287865
0.0098897619 0.034991667 0 -0.32315677 -0.19972187 -0.52287865
0.011406848 0.032529011 0 -0.32315677 -0.19972187 -0.52287865
0.01292393 0.030067358 0 -0.32315677 -0.19972187 -0.52287865
0.014441066 0.027606614 0 -0.32315677 -0.19972187 -0.52287865
0.015958318 0.025146678 0 -0.32315677 -0.19972187 -0.52287865
0.017475747 0.022687452 0 -0.32315677 -0.19972187 -0.52287865
0.018993407 0.020228842 0 -0.32315677 -0.19972187 -0.52287865
0.020511365 0.017770749 0 -0.32315677 -0.19972187 -0.52287865
0.022029676 0.015313076 0 -0.32315677 -0.19972187 -0.52287865
0.023548402 0.012855726 0 -0.32315677 -0.19972187 -0.52287865
0.025067601 0.010398603 0 -0.32315677 -0.19972187 -0.52287865
0.026587335 0.0079416083 0 -0.32315677 -0.19972187 -0.52287865
0.028107665 0.0054846467 0 -0.32315677 -0.19972187 -0.52287865
0.029628649 0.0030276196 0 -0.32315677 -0.19972187 -0.52287865
0.031150347 0.00057043112 0 -0.32315677 -0.19972187 -0.52287865
0.036066845 0 0.004987394 -0.32315677 -0.19972187 -0.52287865
0 0.078957379 0.013876857 -0.32315677 -0.19972187 -0.52287865
0 0.075061992 0.011285545 -0.32315677 -0.19972187 -0.52287865
0 0.071207196 0.0087204659 -0.32315677 -0.19972187 -0.52287865
0 0.067392237 0.0061811209 -0.32315677 -0.19972187 -0.52287865
0 0.063616365 0.0036670261 -0.32315677 -0.19972187 -0.52287865
0 0.059878852 0.0011777076 -0.32315677 -0.19972187 -0.52287865
0.00079755666 0.056810554 0 -0.32315677 -0.19972187 -0.52287865
0.0023208505 0.054327596 0 -0.32315677 -0.19972187 -0.52287865
0.0038437149 0.051846482 0 -0.32315677 -0.19972187 -0.52287865
0.0053662104 0.049367107 0 -0.32315677 -0.19972187 -0.52287865
0.006888398 0.046889376 0 -0.32315677 -0.19972187 -0.52287865
0.0084103383 0.044413187 0 -0.32315677 -0.19972187 -0.52287865
0.0099320905 0.041938443 0 -0.32315677 -0.19972187 -0.52287865
0.011453717 0.039465044 0 -0.32315677 -0.19972187 -0.52287865
0.012975277 0.036992889 0 -0.32315677 -0.19972187 -0.52287865
0.014496832 0.034521885 0 -0.32315677 -0.19972187 -0.52287865
0.016018441 0.032051925 0 -0.32315677 -0.19972187 -0.52287865
0.017540164 0.029582918 0 -0.32315677 -0.19972187 -0.52287865
0.019062065 0.027114762 0 -0.32315677 -0.19972187 -0.52287865
0.020584198 0.024647361 0 -0.32315677 -0.19972187 -0.52287865
0.022106629 0.022180615 0 -0.32315677 -0.19972187 -0.52287865
0.023629416 0.019714428 0 -0.32315677 -0.19972187 -0.52287865
0.025152618 0.017248699 0 -0.32315677 -0.19972187 -0.52287865
0.026676297 0.014783334 0 -0.32315677 -0.19972187 -0.52287865
0.028200515 0.012318233 0 -0.32315677 -0.19972187 -0.52287865
0.02972533 0.0098532988 0 -0.32315677 -0.19972187 -0.52287865
0.031250805 0.0073884334 0 -0.32315677 -0.19972187 -0.52287865
0.032776996 0.0049235397 0 -0.32315677 -0.19972187 -0.52287865
0.034303967 0.0024585188 0 -0.32315677 -0.19972187 -0.52287865
0.035843868 0 1.7609578e-05 -0.32315677 -0.19972187 -0.52287865
0 0.07845705 0.0087265922 -0.32315677 -0.19972187 -0.52287865
0 0.074588828 0.0061785211 -0.32315677 -0.19972187 -0.52287865
0 0.07076066 0.0036559782 -0.32315677 -0.19972187 -0.52287865
0 0.066971794 0.001158482 -0.32315677 -0.19972187 -0.52287865
0.00081441435 0.063884169 0 -0.32315677 -0.19972187 -0.52287865
0.00234267 0.06138831 0 -0.32315677 -0.19972187 -0.52287865
0.0038704302 0.058894556 0 -0.32315677 -0.19972187 -0.52287865
0.0053977561 0.056402795 0 -0.32315677 -0.19972187 -0.52287865
0.0069247088 0.053912926 0 -0.32315677 -0.19972187 -0.52287865
0.00845135 0.051424854 0 -0.32315677 -0.19972187 -0.52287865
0.0099777402 0.048938472 0 -0.32315677 -0.19972187 -0.52287865
0.01150394 0.046453685 0 -0.32315677 -0.19972187 -0.52287865
0.013030012 0.043970391 0 -0.32315677 -0.19972187 -0.52287865
0.014556016 0.041488487 0 -0.32315677 -0.19972187 -0.52287865
0.016082013 0.039007876 0 -0.32315677 -0.19972187 -0.52287865
0.017608063 0.036528461 0 -0.32315677 -0.19972187 -0.52287865
0.019134227 0.034050137 0 -0.32315677 -0.19972187 -0.52287865
0.020660568 0.031572808 0 -0.32315677 -0.19972187 -0.52287865
0.022187144 0.029096376 0 -0.32315677 -0.19972187 -0.52287865
0.023714015 0.02662074 0 -0.32315677 -0.19972187 -0.52287865
0.025241246 0.024145802 0 -0.32315677 -0.19972187 -0.52287865
0.026768895 0.021671463 0 -0.32315677 -0.19972187 -0.52287865
0.028297022 0.019197626 0 -0.32315677 -0.19972187 -0.52287865
0.029825691 0.01672419 0 -0.32315677 -0.19972187 -0.52287865
0.03135496 0.014251056 0 -0.32315677 -0.19972187 -0.52287865
0.032884888 0.011778127 0 -0.32315677 -0.19972187 -0.52287865
0.034415543 0.0093053058 0 -0.32315677 -0.19972187 -0.52287865
0.03594698 0.0068324911 0 -0.32315677 -0.19972187 -0.52287865
0.037479263 0.0043595857 0 -0.32315677 -0.19972187 -0.52287865
0.039012454 0.0018864911 0 -0.32315677 -0.19972187 -0.52287865
0 0.077962846 0.0036393586 -0.32315677 -0.19972187 -0.52287865
0 0.074121423 0.0011336652 -0.32315677 -0.19972187 -0.52287865
0.00083475717 0.071017079 0 -0.32315677 -0.19972187 -0.52287865
0.0023680171 0.068507642 0 -0.32315677 -0.19972187 -0.52287865
0.003900714 0.066000551 0 -0.32315677 -0.19972187 -0.52287865
0.0054329098 0.063495725 0 -0.32315677 -0.19972187 -0.52287865
0.0069646668 0.060993042 0 -0.32315677 -0.19972187 -0.52287865
0.0084960461 0.058492415 0 -0.32315677 -0.19972187 -0.52287865
0.01002711 0.055993732 0 -0.32315677 -0.19972187 -0.52287865
0.011557919 0.053496893 0 -0.32315677 -0.19972187 -0.52287865
0.013088536 0.051001798 0 -0.32315677 -0.19972187 -0.52287865
0.014619022 0.04850835 0 -0.32315677 -0.19972187 -0.52287865
0.016149437 0.04601644 0 -0.32315677 -0.19972187 -0.52287865
0.017679846 0.043525971 0 -0.32315677 -0.19972187 -0.52287865
0.019210305 0.041036844 0 -0.32315677 -0.19972187 -0.52287865
0.02074088 0.038548958 0 -0.32315677 -0.19972187 -0.52287865
0.022271628 0.036062211 0 -0.32315677 -0.19972187 -0.52287865
0.023802614 0.0335765 0 -0.32315677 -0.19972187 -0.52287865
0.025333898 0.031091733 0 -0.32315677 -0.19972187 -0.52287865
0.02686554 0.028607804 0 -0.32315677 -0.19972187 -0.52287865
0.028397601 0.026124617 0 -0.32315677 -0.19972187 -0.52287865
0.029930146 0.023642071 0 -0.32315677 -0.19972187 -0.52287865
0.031463232 0.021160066 0 -0.32315677 -0.19972187 -0.52287865
0.032996923 0.018678503 0 -0.32315677 -0.19972187 -0.52287865
0.034531277 0.016197283 0 -0.32315677 -0.19972187 -0.52287865
0.036066361 0.013716305 0 -0.32315677 -0.19972187 -0.52287865
0.037602231 0.011235472 0 -0.32315677 -0.19972187 -0.52287865
0.039138954 0.0087546827 0 -0.32315677 -0.19972187 -0.52287865
0.00085898623 0.078211449 0 -0.32315677 -0.19972187 -0.52287865
0.0023972939 0.075687706 0 -0.32315677 -0.19972187 -0.52287865
0.0039349701 0.073166586 0 -0.32315677 -0.19972187 -0.52287865
0.0054720771 0.070647985 0 -0.32315677 -0.19972187 -0.52287865
0.0070086778 0.068131797 0 -0.32315677 -0.19972187 -0.52287865
0.0085448343 0.065617919 0 -0.32315677 -0.19972187 -0.52287865
0.010080609 0.063106254 0 -0.32315677 -0.19972187 -0.52287865
0.011616063 0.060596686 0 -0.32315677 -0.19972187 -0.52287865
0.013151261 0.058089122 0 -0.32315677 -0.19972187 -0.52287865
0.014686262 0.055583455 0 -0.32315677 -0.19972187 -0.52287865
0.01622113 0.053079586 0 -0.32315677 -0.19972187 -0.52287865
0.017755928 0.05057741 0 -0.32315677 -0.19972187 -0.52287865
0.019290714 0.048076823 0 -0.32315677 -0.19972187 -0.52287865
0.02082555 0.045577727 0 -0.32315677 -0.19972187 -0.52287865
0.022360502 0.043080021 0 -0.32315677 -0.19972187 -0.52287865
0.023895627 0.040583599 0 -0.32315677 -0.19972187 -0.52287865
0.02543099 0.038088366 0 -0.32315677 -0.19972187 -0.52287865
0.026966652 0.035594217 0 -0.32315677 -0.19972187 -0.52287865
0.028502673 0.033101056 0 -0.32315677 -0.19972187 -0.52287865
0.030039117 0.030608775 0 -0.32315677 -0.19972187 -0.52287865
0.031576045 0.02811728 0 -0.32315677 -0.19972187 -0.52287865
0.033113517 0.025626468 0 -0.32315677 -0.19972187 -0.52287865
0.034651596 0.023136238 0 -0.32315677 -0.19972187 -0.52287865
0.036190342 0.02064649 0 -0.32315677 -0.19972187 -0.52287865
0.037729822 0.018157126 0 -0.32315677 -0.19972187 -0.52287865
0.039270096 0.015668044 0 -0.32315677 -0.19972187 -0.52287865
0.0055156709 0.077861734 0 -0.32315677 -0.19972187 -0.52287865
0.0070571564 0.075331323 0 -0.32315677 -0.19972187 -0.52287865
0.0085981302 0.07280349 0 -0.32315677 -0.19972187 -0.52287865
0.010138654 0.070278138 0 -0.32315677 -0.19972187 -0.52287865
0.011678792 0.067755148 0 -0.32315677 -0.19972187 -0.52287865
0.013218606 0.065234423 0 -0.32315677 -0.19972187 -0.52287865
0.014758158 0.062715851 0 -0.32315677 -0.19972187 -0.52287865
0.016297512 0.060199339 0 -0.32315677 -0.19972187 -0.52287865
0.017836729 0.057684775 0 -0.32315677 -0.19972187 -0.52287865
0.019375874 0.05517206 0 -0.32315677 -0.19972187 -0.52287865
0.020915005 0.052661091 0 -0.32315677 -0.19972187 -0.52287865
0.022454187 0.050151765 0 -0.32315677 -0.19972187 -0.52287865
0.023993483 0.047643978 0 -0.32315677 -0.19972187 -0.52287865
0.025532953 0.045137629 0 -0.32315677 -0.19972187 -0.52287865
0.027072661 0.042632613 0 -0.32315677 -0.19972187 -0.52287865
0.028612668 0.040128835 0 -0.32315677 -0.19972187 -0.52287865
0.030153034 0.037626185 0 -0.32315677 -0.19972187 -0.52287865
0.031693827 0.035124566 0 -0.32315677 -0.19972187 -0.52287865
0.033235103 0.032623876 0 -0.32315677 -0.19972187 -0.52287865
0.034776926 0.030124011 0 -0.32315677 -0.19972187 -0.52287865
0.036319364 0.027624873 0 -0.32315677 -0.19972187 -0.52287865
0.037862469 0.025126362 0 -0.32315677 -0.19972187 -0.52287865
0.039406311 0.022628373 0 -0.32315677 -0.19972187 -0.52287865
0.010201671 0.077511542 0 -0.32315677 -0.19972187 -0.52287865
0.01174653 0.07497441 0 -0.32315677 -0.19972187 -0.52287865
0.013290998 0.072439812 0 -0.32315677 -0.19972187 -0.52287865
0.014835138 0.069907635 0 -0.32315677 -0.19972187 -0.52287865
0.016379014 0.067377783 0 -0.32315677 -0.19972187 -0.52287865
0.017922686 0.064850144 0 -0.32315677 -0.19972187 -0.52287865
0.019466219 0.062324613 0 -0.32315677 -0.19972187 -0.52287865
0.021009678 0.059801091 0 -0.32315677 -0.19972187 -0.52287865
0.022553122 0.057279464 0 -0.32315677 -0.19972187 -0.52287865
0.024096616 0.054759637 0 -0.32315677 -0.19972187 -0.52287865
0.025640221 0.052241504 0 -0.32315677 -0.19972187 -0.52287865
0.027184002 0.049724963 0 -0.32315677 -0.19972187 -0.52287865
0.028728019 0.047209904 0 -0.32315677 -0.19972187 -0.52287865
0.030272339 0.044696234 0 -0.32315677 -0.19972187 -0.52287865
0.031817019 0.042183843 0 -0.32315677 -0.19972187 -0.52287865
0.033362124 0.039672628 0 -0.32315677 -0.19972187 -0.52287865
0.034907714 0.037162494 0 -0.32315677 -0.19972187 -0.52287865
0.036453858 0.034653328 0 -0.32315677 -0.19972187 -0.52287865
0.038000613 0.032145038 0 -0.32315677 -0.19972187 -0.52287865
0.039548047 0.029637516 0 -0.32315677 -0.19972187 -0.52287865
0.013368876 0.079707496 0 -0.32315677 -0.19972187 -0.52287865
0.01491764 0.077160992 0 -0.32315677 -0.19972187 -0.52287865
0.016466072 0.07461708 0 -0.32315677 -0.19972187 -0.52287865
0.018014235 0.07207565 0 -0.32315677 -0.19972187 -0.52287865
0.019562192 0.069536597 0 -0.32315677 -0.19972187 -0.52287865
0.021110009 0.066999815 0 -0.32315677 -0.19972187 -0.52287865
0.022657746 0.064465195 0 -0.32315677 -0.19972187 -0.52287865
0.02420547 0.061932638 0 -0.32315677 -0.19972187 -0.52287865
0.025753241 0.059402037 0 -0.32315677 -0.19972187 -0.52287865
0.027301123 0.056873284 0 -0.32315677 -0.19972187 -0.52287865
0.028849179 0.054346278 0 -0.32315677 -0.19972187 -0.52287865
0.030397473 0.051820915 0 -0.32315677 -0.19972187 -0.52287865
0.031946067 0.049297087 0 -0.32315677 -0.19972187 -0.52287865
0.033495024 0.046774693 0 -0.32315677 -0.19972187 -0.52287865
0.035044409 0.044253625 0 -0.32315677 -0.19972187 -0.52287865
0.036594283 0.041733786 0 -0.32315677 -0.19972187 -0.52287865
0.038144708 0.039215069 0 -0.32315677 -0.19972187 -0.52287865
0.039695751 0.036697373 0 -0.32315677 -0.19972187 -0.52287865
0.018111827 0.07936348 0 -0.32315677 -0.19972187 -0.52287865
0.019664245 0.076810181 0 -0.32315677 -0.19972187 -0.52287865
0.021216452 0.074259423 0 -0.32315677 -0.19972187 -0.52287865
0.022768516 0.071711101 0 -0.32315677 -0.19972187 -0.52287865
0.024320498 0.069165103 0 -0.32315677 -0.19972187 -0.52287865
0.025872465 0.066621333 0 -0.32315677 -0.19972187 -0.52287865
0.027424477 0.064079672 0 -0.32315677 -0.19972187 -0.52287865
0.028976601 0.061540026 0 -0.32315677 -0.19972187 -0.52287865
0.030528897 0.05900228 0 -0.32315677 -0.19972187 -0.52287865
0.032081433 0.056466334 0 -0.32315677 -0.19972187 -0.52287865
0.033634268 0.053932082 0 -0.32315677 -0.19972187 -0.52287865
0.035187468 0.051399413 0 -0.32315677 -0.19972187 -0.52287865
0.036741093 0.048868231 0 -0.32315677 -0.19972187 -0.52287865
0.038295213 0.046338428 0 -0.32315677 -0.19972187 -0.52287865
0.039849889 0.043809898 0 -0.32315677 -0.19972187 -0.52287865
0.022885891 0.079019383 0 -0.32315677 -0.19972187 -0.52287865
0.024442166 0.076459222 0 -0.32315677 -0.19972187 -0.52287865
0.025998358 0.073901556 0 -0.32315677 -0.19972187 -0.52287865
0.027554531 0.071346276 0 -0.32315677 -0.19972187 -0.52287865
0.02911075 0.068793274 0 -0.32315677 -0.19972187 -0.52287865
0.030667078 0.066242442 0 -0.32315677 -0.19972187 -0.52287865
0.032223579 0.06369368 0 -0.32315677 -0.19972187 -0.52287865
0.033780318 0.061146874 0 -0.32315677 -0.19972187 -0.52287865
0.035337359 0.058601916 0 -0.32315677 -0.19972187 -0.52287865
0.036894765 0.056058705 0 -0.32315677 -0.19972187 -0.52287865
0.038452599 0.053517133 0 -0.32315677 -0.19972187 -0.52287865
0.027691761 0.078675307 0 -0.32315677 -0.19972187 -0.52287865
0.029252104 0.076108225 0 -0.32315677 -0.19972187 -0.52287865
0.030812491 0.073543586 0 -0.32315677 -0.19972187 -0.52287865
0.032372985 0.070981279 0 -0.32315677 -0.19972187 -0.52287865
0.033933654 0.068421207 0 -0.32315677 -0.19972187 -0.52287865
0.035494562 0.065863252 0 -0.32315677 -0.19972187 -0.52287865
0.037055768 0.063307315 0 -0.32315677 -0.19972187 -0.52287865
0.038617343 0.060753278 0 -0.32315677 -0.19972187 -0.52287865
0.032530144 0.078331366 0 -0.32315677 -0.19972187 -0.52287865
0.03409477 0.075757295 0 -0.32315677 -0.19972187 -0.52287865
0.035659567 0.073185615 0 -0.32315677 -0.19972187 -0.52287865
0.037224602 0.070616223 0 -0.32315677 -0.19972187 -0.52287865
0.038789943 0.068049014 0 -0.32315677 -0.19972187 -0.52287865
0.037401769 0.077987671 0 -0.32315677 -0.19972187 -0.52287865
0.038970895 0.075406551 0 -0.32315677 -0.19972187 -0.52287865
