# .PCD v0.7 - Point Cloud Data file format
VERSION 0.7
FIELDS x y z vp_x vp_y vp_z
SIZE 4 4 4 4 4 4
TYPE F F F F F F
COUNT 1 1 1 1 1 1
WIDTH 556
HEIGHT 1
VIEWPOINT 0 0 0 1 0 0 0
POINTS 556
DATA ascii
0.015690349 0.078482278 0.07 -0.19972187 -0.52287865 0.32315677
0.01845449 0.077404566 0.07 -0.19972187 -0.52287865 0.32315677
0.021219898 0.076331846 0.07 -0.19972187 -0.52287865 0.32315677
0.023986733 0.075264059 0.07 -0.19972187 -0.52287865 0.32315677
0.026755152 0.074201144 0.07 -0.19972187 -0.52287865 0.32315677
0.029525319 0.073143035 0.07 -0.19972187 -0.52287865 0.32315677
0.032297388 0.072089672 0.07 -0.19972187 -0.52287865 0.32315677
0.035071522 0.071040995 0.07 -0.19972187 -0.52287865 0.32315677
0.0074775363 0.073062181 0.07 -0.19972187 -0.52287865 0.32315677
0.010211702 0.071986601 0.07 -0.19972187 -0.52287865 0.32315677
0.012946746 0.070915893 0.07 -0.19972187 -0.52287865 0.32315677
0.015682824 0.069849998 0.07 -0.19972187 -0.52287865 0.32315677
0.018420093 0.068788849 0.07 -0.19972187 -0.52287865 0.32315677
0.021158705 0.067732386 0.07 -0.19972187 -0.52287865 0.32315677
0.023898816 0.066680558 0.07 -0.19972187 -0.52287865 0.32315677
0.026640583 0.065633297 0.07 -0.19972187 -0.52287865 0.32315677
0.029384162 0.064590544 0.07 -0.19972187 -0.52287865 0.32315677
0.032129709 0.063552238 0.07 -0.19972187 -0.52287865 0.32315677
0.034877378 0.062518328 0.07 -0.19972187 -0.52287865 0.32315677
0.037627328 0.061488748 0.07 -0.19972187 -0.52287865 0.32315677
0.0021414801 0.066702992 0.07 -0.19972187 -0.52287865 0.32315677
0.0048476607 0.065634727 0.07 -0.19972187 -0.52287865 0.32315677
0.0075545008 0.064571165 0.07 -0.19972187 -0.52287865 0.32315677
0.010262152 0.063512236 0.07 -0.19972187 -0.52287865 0.32315677
0.012970765 0.062457886 0.07 -0.19972187 -0.52287865 0.32315677
0.015680492 0.06140805 0.07 -0.19972187 -0.52287865 0.32315677
0.018391486 0.060362671 0.07 -0.19972187 -0.52287865 0.32315677
0.021103896 0.059321683 0.07 -0.19972187 -0.52287865 0.32315677
0.023817876 0.058285035 0.07 -0.19972187 -0.52287865 0.32315677
0.026533578 0.057252668 0.07 -0.19972187 -0.52287865 0.32315677
0.029251153 0.056224521 0.07 -0.19972187 -0.52287865 0.32315677
0.031970754 0.055200536 0.07 -0.19972187 -0.52287865 0.32315677
0.034692537 0.054180659 0.07 -0.19972187 -0.52287865 0.32315677
0.037416652 0.053164836 0.07 -0.19972187 -0.52287865 0.32315677
3.9103812e-05 0.060721233 0.069434881 -0.19972187 -0.52287865 0.32315677
0.0022736622 0.058365081 0.07 -0.19972187 -0.52287865 0.32315677
0.0049537495 0.057313263 0.07 -0.19972187 -0.52287865 0.32315677
0.0076345825 0.05626585 0.07 -0.19972187 -0.52287865 0.32315677
0.010316309 0.055222783 0.07 -0.19972187 -0.52287865 0.32315677
0.012999077 0.054184008 0.07 -0.19972187 -0.52287865 0.32315677
0.015683034 0.053149462 0.07 -0.19972187 -0.52287865 0.32315677
0.018368332 0.052119087 0.07 -0.19972187 -0.52287865 0.32315677
0.021055114 0.051092826 0.07 -0.19972187 -0.52287865 0.32315677
0.023743533 0.050070625 0.07 -0.19972187 -0.52287865 0.32315677
0.026433734 0.049052425 0.07 -0.19972187 -0.52287865 0.32315677
0.029125869 0.04803817 0.07 -0.19972187 -0.52287865 0.32315677
0.031820085 0.047027808 0.07 -0.19972187 -0.52287865 0.32315677
0.034692936 0.046449706 0.069809355 -0.19972187 -0.52287865 0.32315677
4.9366394e-05 0.060910515 0.066206895 -0.19972187 -0.52287865 0.32315677
0.00083763909 0.054367822 0.06862434 -0.19972187 -0.52287865 0.32315677
0.0024795847 0.050411832 0.069909811 -0.19972187 -0.52287865 0.32315677
0.0050621429 0.0491715 0.07 -0.19972187 -0.52287865 0.32315677
0.0077175414 0.048139472 0.07 -0.19972187 -0.52287865 0.32315677
0.010373912 0.047111511 0.07 -0.19972187 -0.52287865 0.32315677
0.013031399 0.046087563 0.07 -0.19972187 -0.52287865 0.32315677
0.015690148 0.045067575 0.07 -0.19972187 -0.52287865 0.32315677
0.018350305 0.044051483 0.07 -0.19972187 -0.52287865 0.32315677
0.021012012 0.04303924 0.07 -0.19972187 -0.52287865 0.32315677
0.023675418 0.042030785 0.07 -0.19972187 -0.52287865 0.32315677
0.026357602 0.041068316 0.069981031 -0.19972187 -0.52287865 0.32315677
0.030130884 0.042788684 0.068757094 -0.19972187 -0.52287865 0.32315677
0.034772195 0.046543013 0.066614076 -0.19972187 -0.52287865 0.32315677
5.9672431e-05 0.061100602 0.062965237 -0.19972187 -0.52287865 0.32315677
0.00081673701 0.054443102 0.06546291 -0.19972187 -0.52287865 0.32315677
0.0024557584 0.050456773 0.066777036 -0.19972187 -0.52287865 0.32315677
0.0044264956 0.047486387 0.067642622 -0.19972187 -0.52287865 0.32315677
0.0066142292 0.045171723 0.068218842 -0.19972187 -0.52287865 0.32315677
0.0089633986 0.043333609 0.068584628 -0.19972187 -0.52287865 0.32315677
0.011470377 0.041941829 0.06875243 -0.19972187 -0.52287865 0.32315677
0.014109938 0.040910777 0.068759762 -0.19972187 -0.52287865 0.32315677
0.016891537 0.040249668 0.068601571 -0.19972187 -0.52287865 0.32315677
0.019848887 0.040029299 0.068244882 -0.19972187 -0.52287865 0.32315677
0.022983925 0.040236119 0.067694753 -0.19972187 -0.52287865 0.32315677
0.02638725 0.041078307 0.06685552 -0.19972187 -0.52287865 0.32315677
0.030174818 0.042815119 0.065607585 -0.19972187 -0.52287865 0.32315677
0.034851775 0.046636697 0.063405946 -0.19972187 -0.52287865 0.32315677
7.0022608e-05 0.061291501 0.059709694 -0.19972187 -0.52287865 0.32315677
0.00079575344 0.054518677 0.062289152 -0.19972187 -0.52287865 0.32315677
0.0024318416 0.050501887 0.063632362 -0.19972187 -0.52287865 0.32315677
0.004403613 0.047513325 0.064515971 -0.19972187 -0.52287865 0.32315677
0.0065954197 0.045189537 0.065102525 -0.19972187 -0.52287865 0.32315677
0.0089486139 0.043342505 0.065475941 -0.19972187 -0.52287865 0.32315677
0.011461128 0.041946109 0.065646924 -0.19972187 -0.52287865 0.32315677
0.014106726 0.040911857 0.065654777 -0.19972187 -0.52287865 0.32315677
0.016895022 0.040249288 0.065494217 -0.19972187 -0.52287865 0.32315677
0.019859815 0.040029299 0.065131813 -0.19972187 -0.52287865 0.32315677
0.023003038 0.040238198 0.064572752 -0.19972187 -0.52287865 0.32315677
0.026417008 0.041088331 0.063718267 -0.19972187 -0.52287865 0.32315677
0.030218922 0.042841654 0.062446039 -0.19972187 -0.52287865 0.32315677
0.034931675 0.04673076 0.060184766 -0.19972187 -0.52287865 0.32315677
8.0417594e-05 0.061483227 0.056440059 -0.19972187 -0.52287865 0.32315677
0.0007746871 0.05459455 0.059102882 -0.19972187 -0.52287865 0.32315677
0.0024078328 0.050547171 0.060475592 -0.19972187 -0.52287865 0.32315677
0.0043806434 0.047540367 0.061377458 -0.19972187 -0.52287865 0.32315677
0.006576539 0.045207422 0.06197447 -0.19972187 -0.52287865 0.32315677
0.0089337751 0.04335143 0.062355608 -0.19972187 -0.52287865 0.32315677
0.011451845 0.041950401 0.062529825 -0.19972187 -0.52287865 0.32315677
0.014103503 0.040912945 0.062538199 -0.19972187 -0.52287865 0.32315677
0.01689852 0.040248908 0.062375251 -0.19972187 -0.52287865 0.32315677
0.019870786 0.040029299 0.062007088 -0.19972187 -0.52287865 0.32315677
0.02302222 0.040240288 0.061439008 -0.19972187 -0.52287865 0.32315677
0.026446881 0.041098397 0.060569093 -0.19972187 -0.52287865 0.32315677
0.030263197 0.042868294 0.059272263 -0.19972187 -0.52287865 0.32315677
0.035011906 0.046825211 0.056950327 -0.19972187 -0.52287865 0.32315677
9.0858084e-05 0.061675791 0.053156111 -0.19972187 -0.52287865 0.32315677
0.0007535367 0.054670729 0.0559039 -0.19972187 -0.52287865 0.32315677
0.0023837306 0.050592631 0.057306536 -0.19972187 -0.52287865 0.32315677
0.0043575861 0.047567513 0.058226909 -0.19972187 -0.52287865 0.32315677
0.0065575866 0.045225374 0.058834486 -0.19972187 -0.52287865 0.32315677
0.0089188796 0.043360393 0.059223454 -0.19972187 -0.52287865 0.32315677
0.011442527 0.041954715 0.059400931 -0.19972187 -0.52287865 0.32315677
0.014100267 0.040914036 0.059409849 -0.19972187 -0.52287865 0.32315677
0.016902033 0.040248528 0.059244491 -0.19972187 -0.52287865 0.32315677
0.019881798 0.040029299 0.058870513 -0.19972187 -0.52287865 0.32315677
0.023041477 0.040242381 0.058293324 -0.19972187 -0.52287865 0.32315677
0.026476866 0.041108504 0.057407808 -0.19972187 -0.52287865 0.32315677
0.030307643 0.042895038 0.056086067 -0.19972187 -0.52287865 0.32315677
0.035092473 0.046920057 0.053702429 -0.19972187 -0.52287865 0.32315677
0.00010134478 0.061869208 0.049857631 -0.19972187 -0.52287865 0.32315677
0.00073230098 0.054747209 0.052692011 -0.19972187 -0.52287865 0.32315677
0.0023595334 0.050638273 0.054125 -0.19972187 -0.52287865 0.32315677
0.0043344391 0.047594763 0.055064127 -0.19972187 -0.52287865 0.32315677
0.0065385611 0.045243394 0.055682387 -0.19972187 -0.52287865 0.32315677
0.0089039272 0.04336939 0.056079291 -0.19972187 -0.52287865 0.32315677
0.011433173 0.04195904 0.056260068 -0.19972187 -0.52287865 0.32315677
0.014097018 0.040915128 0.056269534 -0.19972187 -0.52287865 0.32315677
0.016905557 0.040248144 0.056101751 -0.19972187 -0.52287865 0.32315677
0.019892851 0.040029299 0.055721898 -0.19972187 -0.52287865 0.32315677
0.023060806 0.040244486 0.055135518 -0.19972187 -0.52287865 0.32315677
0.02650697 0.041118644 0.054234218 -0.19972187 -0.52287865 0.32315677
0.030352267 0.042921886 0.05288725 -0.19972187 -0.52287865 0.32315677
0.035173375 0.047015302 0.050440859 -0.19972187 -0.52287865 0.32315677
0.002035623 0.077001944 0.039999999 -0.19972187 -0.52287865 0.32315677
0.00011187839 0.062063493 0.046544392 -0.19972187 -0.52287865 0.32315677
0.00071097858 0.054824006 0.049467009 -0.19972187 -0.52287865 0.32315677
0.0023352399 0.050684094 0.050930787 -0.19972187 -0.52287865 0.32315677
0.0043112012 0.047622122 0.05188892 -0.19972187 -0.52287865 0.32315677
0.0065194611 0.045261487 0.052517984 -0.19972187 -0.52287865 0.32315677
0.0088889161 0.04337842 0.052922923 -0.19972187 -0.52287865 0.32315677
0.011423782 0.041963387 0.053107042 -0.19972187 -0.52287865 0.32315677
0.014093757 0.040916227 0.053117067 -0.19972187 -0.52287865 0.32315677
0.016909096 0.040247757 0.052946836 -0.19972187 -0.52287865 0.32315677
0.019903949 0.040029299 0.05256106 -0.19972187 -0.52287865 0.32315677
0.023080213 0.040246595 0.051965401 -0.19972187 -0.52287865 0.32315677
0.026537191 0.041128829 0.051048134 -0.19972187 -0.52287865 0.32315677
0.030397069 0.042948842 0.049675621 -0.19972187 -0.52287865 0.32315677
0.035254624 0.047110949 0.047165405 -0.19972187 -0.52287865 0.32315677
0 0.071140714 0.039488222 -0.19972187 -0.52287865 0.32315677
0.00014277098 0.062318124 0.043187723 -0.19972187 -0.52287865 0.32315677
0.00068956817 0.054901116 0.046228692 -0.19972187 -0.52287865 0.32315677
0.0023108486 0.050730102 0.047723703 -0.19972187 -0.52287865 0.32315677
0.0042878706 0.047649588 0.048701096 -0.19972187 -0.52287865 0.32315677
0.0065002861 0.045279652 0.049341083 -0.19972187 -0.52287865 0.32315677
0.0088738464 0.043387488 0.049754165 -0.19972187 -0.52287865 0.32315677
0.011414356 0.041967746 0.049941659 -0.19972187 -0.52287865 0.32315677
0.014090483 0.040917329 0.049952257 -0.19972187 -0.52287865 0.32315677
0.016912648 0.040247373 0.049779557 -0.19972187 -0.52287865 0.32315677
0.019915089 0.040029299 0.049387798 -0.19972187 -0.52287865 0.32315677
0.023099694 0.040248714 0.048782773 -0.19972187 -0.52287865 0.32315677
0.026567534 0.041139055 0.047849357 -0.19972187 -0.52287865 0.32315677
0.030442052 0.042975906 0.04645098 -0.19972187 -0.52287865 0.32315677
0.035336222 0.047207013 0.043875858 -0.19972187 -0.52287865 0.32315677
2.7755576e-17 0.07133282 0.036104258 -0.19972187 -0.52287865 0.32315677
4.3310054e-05 0.062191762 0.039999999 -0.19972187 -0.52287865 0.32315677
0.0006680683 0.054978549 0.042976853 -0.19972187 -0.52287865 0.32315677
0.0022863576 0.050776295 0.044503544 -0.19972187 -0.52287865 0.32315677
0.0042644464 0.047677163 0.045500457 -0.19972187 -0.52287865 0.32315677
0.0064810342 0.045297887 0.046151485 -0.19972187 -0.52287865 0.32315677
0.008858717 0.043396592 0.046572819 -0.19972187 -0.52287865 0.32315677
0.011404891 0.041972127 0.046763729 -0.19972187 -0.52287865 0.32315677
0.014087196 0.04091844 0.046774909 -0.19972187 -0.52287865 0.32315677
0.016916215 0.040246986 0.046599723 -0.19972187 -0.52287865 0.32315677
0.019926274 0.040029299 0.046201922 -0.19972187 -0.52287865 0.32315677
0.023119256 0.040250842 0.045587439 -0.19972187 -0.52287865 0.32315677
0.026597999 0.041149318 0.044637688 -0.19972187 -0.52287865 0.32315677
0.030487221 0.043003082 0.043213118 -0.19972187 -0.52287865 0.32315677
0.035418175 0.04730349 0.040571995 -0.19972187 -0.52287865 0.32315677
0.038660556 0.047419567 0.039999999 -0.19972187 -0.52287865 0.32315677
2.7755576e-17 0.071525812 0.032704767 -0.19972187 -0.52287865 0.32315677
2.7755576e-17 0.062230479 0.036720056 -0.19972187 -0.52287865 0.32315677
0.00044238078 0.054467622 0.039999999 -0.19972187 -0.52287865 0.32315677
0.0022617658 0.050822683 0.041270111 -0.19972187 -0.52287865 0.32315677
0.0042409273 0.047704853 0.042286802 -0.19972187 -0.52287865 0.32315677
0.0064617041 0.045316197 0.042948991 -0.19972187 -0.52287865 0.32315677
0.0088435272 0.04340573 0.043378685 -0.19972187 -0.52287865 0.32315677
0.011395388 0.041976523 0.043573052 -0.19972187 -0.52287865 0.32315677
0.014083896 0.04091955 0.043584827 -0.19972187 -0.52287865 0.32315677
0.016919797 0.040246595 0.043407131 -0.19972187 -0.52287865 0.32315677
0.019937502 0.040029299 0.043003239 -0.19972187 -0.52287865 0.32315677
0.023138894 0.04025298 0.042379204 -0.19972187 -0.52287865 0.32315677
0.026628587 0.041159626 0.041412931 -0.19972187 -0.52287865 0.32315677
0.030501544 0.042954106 0.039999999 -0.19972187 -0.52287865 0.32315677
0.033240933 0.041922268 0.039999999 -0.19972187 -0.52287865 0.32315677
0.03598202 0.040892687 0.039999999 -0.19972187 -0.52287865 0.32315677
0.03872494 0.039865319 0.039999999 -0.19972187 -0.52287865 0.32315677
0 0.071719699 0.029289514 -0.19972187 -0.52287865 0.32315677
2.7755576e-17 0.062396798 0.03336348 -0.19972187 -0.52287865 0.32315677
5.5511151e-17 0.053331833 0.037325934 -0.19972187 -0.52287865 0.32315677
0.00083690515 0.04689151 0.039999999 -0.19972187 -0.52287865 0.32315677
0.0035424796 0.045844514 0.039999999 -0.19972187 -0.52287865 0.32315677
0.0062483735 0.044800106 0.039999999 -0.19972187 -0.52287865 0.32315677
0.0088282749 0.043414906 0.040171571 -0.19972187 -0.52287865 0.32315677
0.011385847 0.041980937 0.040369432 -0.19972187 -0.52287865 0.32315677
0.014080582 0.040920667 0.040381815 -0.19972187 -0.52287865 0.32315677
0.016923392 0.040246204 0.040201586 -0.19972187 -0.52287865 0.32315677
0.019787176 0.039615192 0.039999999 -0.19972187 -0.52287865 0.32315677
0.022497712 0.038585279 0.039999999 -0.19972187 -0.52287865 0.32315677
0.025209477 0.037557609 0.039999999 -0.19972187 -0.52287865 0.32315677
0.027922601 0.036532134 0.039999999 -0.19972187 -0.52287865 0.32315677
0.030637216 0.035508804 0.039999999 -0.19972187 -0.52287865 0.32315677
0.033353448 0.034487568 0.039999999 -0.19972187 -0.52287865 0.32315677
0.036071435 0.033468381 0.039999999 -0.19972187 -0.52287865 0.32315677
0.038791303 0.032451194 0.039999999 -0.19972187 -0.52287865 0.32315677
2.7755576e-17 0.071914487 0.025858255 -0.19972187 -0.52287865 0.32315677
2.7755576e-17 0.062563881 0.029991435 -0.19972187 -0.52287865 0.32315677
2.7755576e-17 0.053472664 0.034011103 -0.19972187 -0.52287865 0.32315677
2.7755576e-17 0.044629876 0.037922055 -0.19972187 -0.52287865 0.32315677
0.0012268997 0.039458539 0.039999999 -0.19972187 -0.52287865 0.32315677
0.0039090491 0.038423944 0.039999999 -0.19972187 -0.52287865 0.32315677
0.0065915957 0.037391722 0.039999999 -0.19972187 -0.52287865 0.32315677
0.0092746662 0.036361832 0.039999999 -0.19972187 -0.52287865 0.32315677
0.011958388 0.035334215 0.039999999 -0.19972187 -0.52287865 0.32315677
0.014642888 0.034308828 0.039999999 -0.19972187 -0.52287865 0.32315677
0.017328294 0.033285618 0.039999999 -0.19972187 -0.52287865 0.32315677
0.020014731 0.032264542 0.039999999 -0.19972187 -0.52287865 0.32315677
0.022702331 0.031245548 0.039999999 -0.19972187 -0.52287865 0.32315677
0.025391217 0.030228591 0.039999999 -0.19972187 -0.52287865 0.32315677
0.028081518 0.02921362 0.039999999 -0.19972187 -0.52287865 0.32315677
0.030773364 0.028200591 0.039999999 -0.19972187 -0.52287865 0.32315677
0.033466879 0.027189454 0.039999999 -0.19972187 -0.52287865 0.32315677
0.036162198 0.026180163 0.039999999 -0.19972187 -0.52287865 0.32315677
0.038859446 0.025172671 0.039999999 -0.19972187 -0.52287865 0.32315677
2.7755576e-17 0.072110206 0.02241075 -0.19972187 -0.52287865 0.32315677
5.5511151e-17 0.06273175 0.02660368 -0.19972187 -0.52287865 0.32315677
2.7755576e-17 0.05361414 0.030681076 -0.19972187 -0.52287865 0.32315677
5.5511151e-17 0.044746339 0.03464783 -0.19972187 -0.52287865 0.32315677
2.7755576e-17 0.036117911 0.038508568 -0.19972187 -0.52287865 0.32315677
0.0016123793 0.032164041 0.039999999 -0.19972187 -0.52287865 0.32315677
0.0042715603 0.031141281 0.039999999 -0.19972187 -0.52287865 0.32315677
0.0069312127 0.030120691 0.039999999 -0.19972187 -0.52287865 0.32315677
0.0095914602 0.029102219 0.039999999 -0.19972187 -0.52287865 0.32315677
0.012252429 0.02808582 0.039999999 -0.19972187 -0.52287865 0.32315677
0.014914241 0.027071446 0.039999999 -0.19972187 -0.52287865 0.32315677
0.017577022 0.026059046 0.039999999 -0.19972187 -0.52287865 0.32315677
0.020240897 0.025048578 0.039999999 -0.19972187 -0.52287865 0.32315677
0.022905992 0.024039993 0.039999999 -0.19972187 -0.52287865 0.32315677
0.02557243 0.023033245 0.039999999 -0.19972187 -0.52287865 0.32315677
0.028240338 0.022028284 0.039999999 -0.19972187 -0.52287865 0.32315677
0.03090984 0.021025067 0.039999999 -0.19972187 -0.52287865 0.32315677
0.033581063 0.020023547 0.039999999 -0.19972187 -0.52287865 0.32315677
0.03625413 0.019023679 0.039999999 -0.19972187 -0.52287865 0.32315677
0.038929172 0.018025417 0.039999999 -0.19972187 -0.52287865 0.32315677
2.7755576e-17 0.072306857 0.018946748 -0.19972187 -0.52287865 0.32315677
2.7755576e-17 0.062900402 0.023199977 -0.19972187 -0.52287865 0.32315677
2.7755576e-17 0.053756274 0.027335621 -0.19972187 -0.52287865 0.32315677
2.7755576e-17 0.044863336 0.031358678 -0.19972187 -0.52287865 0.32315677
2.7755576e-17 0.03621107 0.035273854 -0.19972187 -0.52287865 0.32315677
2.7755576e-17 0.027789539 0.039085612 -0.19972187 -0.52287865 0.32315677
0.0019933574 0.025003539 0.039999999 -0.19972187 -0.52287865 0.32315677
0.004630012 0.02399208 0.039999999 -0.19972187 -0.52287865 0.32315677
0.0072672078 0.022982586 0.039999999 -0.19972187 -0.52287865 0.32315677
0.0099050682 0.021975012 0.039999999 -0.19972187 -0.52287865 0.32315677
0.012543714 0.020969315 0.039999999 -0.19972187 -0.52287865 0.32315677
0.015183266 0.019965442 0.039999999 -0.19972187 -0.52287865 0.32315677
0.017823849 0.018963352 0.039999999 -0.19972187 -0.52287865 0.32315677
0.020465584 0.017962998 0.039999999 -0.19972187 -0.52287865 0.32315677
0.023108594 0.016964333 0.039999999 -0.19972187 -0.52287865 0.32315677
0.025753001 0.015967311 0.039999999 -0.19972187 -0.52287865 0.32315677
0.028398929 0.014971889 0.039999999 -0.19972187 -0.52287865 0.32315677
0.031046499 0.013978019 0.039999999 -0.19972187 -0.52287865 0.32315677
0.033695836 0.012985658 0.039999999 -0.19972187 -0.52287865 0.32315677
0.036347061 0.011994759 0.039999999 -0.19972187 -0.52287865 0.32315677
0.039000303 0.011005279 0.039999999 -0.19972187 -0.52287865 0.32315677
0.002514387 0.079999998 0.011592343 -0.19972187 -0.52287865 0.32315677
0.0057706768 0.079999998 0.011014448 -0.19972187 -0.52287865 0.32315677
0 0.053899072 0.023974504 -0.19972187 -0.52287865 0.32315677
0 0.044980869 0.028054362 -0.19972187 -0.52287865 0.32315677
0 0.036304649 0.032024466 -0.19972187 -0.52287865 0.32315677
0 0.027860397 0.035889357 -0.19972187 -0.52287865 0.32315677
0 0.019638639 0.039653331 -0.19972187 -0.52287865 0.32315677
0.0023698458 0.017972752 0.039999999 -0.19972187 -0.52287865 0.32315677
0.0049844002 0.016972074 0.039999999 -0.19972187 -0.52287865 0.32315677
0.0075995643 0.015973171 0.039999999 -0.19972187 -0.52287865 0.32315677
0.010215458 0.014975996 0.039999999 -0.19972187 -0.52287865 0.32315677
0.012832198 0.013980503 0.039999999 -0.19972187 -0.52287865 0.32315677
0.015449907 0.012986649 0.039999999 -0.19972187 -0.52287865 0.32315677
0.018068703 0.011994387 0.039999999 -0.19972187 -0.52287865 0.32315677
0.020688707 0.011003674 0.039999999 -0.19972187 -0.52287865 0.32315677
0.023310037 0.010014463 0.039999999 -0.19972187 -0.52287865 0.32315677
0.025932817 0.0090267109 0.039999999 -0.19972187 -0.52287865 0.32315677
0.028557165 0.0080403723 0.039999999 -0.19972187 -0.52287865 0.32315677
0.0311832 0.0070554037 0.039999999 -0.19972187 -0.52287865 0.32315677
0.033811048 0.0060717608 0.039999999 -0.19972187 -0.52287865 0.32315677
0.036440823 0.0050893989 0.039999999 -0.19972187 -0.52287865 0.32315677
0.039072655 0.0041082748 0.039999999 -0.19972187 -0.52287865 0.32315677
0.0024469614 0.079999998 0.0081556123 -0.19972187 -0.52287865 0.32315677
0 0.063240126 0.016343746 -0.19972187 -0.52287865 0.32315677
0 0.054042544 0.020597484 -0.19972187 -0.52287865 0.32315677
0.012272496 0.079999998 0.0063972361 -0.19972187 -0.52287865 0.32315677
0 0.03639866 0.028760171 -0.19972187 -0.52287865 0.32315677
0 0.027931575 0.03267866 -0.19972187 -0.52287865 0.32315677
0 0.01968815 0.036494505 -0.19972187 -0.52287865 0.32315677
0.00014954265 0.012059591 0.039999999 -0.19972187 -0.52287865 0.32315677
0.0027418546 0.01106757 0.039999999 -0.19972187 -0.52287865 0.32315677
0.0053347228 0.010077183 0.039999999 -0.19972187 -0.52287865 0.32315677
0.0079282653 0.0090883831 0.039999999 -0.19972187 -0.52287865 0.32315677
0.010522597 0.0081011262 0.039999999 -0.19972187 -0.52287865 0.32315677
0.013117838 0.0071153692 0.039999999 -0.19972187 -0.52287865 0.32315677
0.015714103 0.0061310665 0.039999999 -0.19972187 -0.52287865 0.32315677
0.018311512 0.0051481747 0.039999999 -0.19972187 -0.52287865 0.32315677
0.020910179 0.0041666497 0.039999999 -0.19972187 -0.52287865 0.32315677
0.023510225 0.0031864475 0.039999999 -0.19972187 -0.52287865 0.32315677
0.026111767 0.0022075251 0.039999999 -0.19972187 -0.52287865 0.32315677
0.028714921 0.0012298386 0.039999999 -0.19972187 -0.52287865 0.32315677
0.031319808 0.00025334451 0.039999999 -0.19972187 -0.52287865 0.32315677
0.034249619 0 0.039608471 -0.19972187 -0.52287865 0.32315677
0.037304178 0 0.039078437 -0.19972187 -0.52287865 0.32315677
0.0023792479 0.079999998 0.0047042286 -0.19972187 -0.52287865 0.32315677
0.0056510279 0.079999998 0.0041119028 -0.19972187 -0.52287865 0.32315677
0.0089339614 0.079999998 0.0035184505 -0.19972187 -0.52287865 0.32315677
0 0.045217589 0.021399327 -0.19972187 -0.52287865 0.32315677
0.015533996 0.079999998 0.0023280582 -0.19972187 -0.52287865 0.32315677
0 0.028003076 0.029453304 -0.19972187 -0.52287865 0.32315677
0.02218079 0.079999998 0.00113283 -0.19972187 -0.52287865 0.32315677
0 0.011688421 0.037089471 -0.19972187 -0.52287865 0.32315677
0.00053843128 0.0052660736 0.039999999 -0.19972187 -0.52287865 0.32315677
0.0031093929 0.0042840536 0.039999999 -0.19972187 -0.52287865 0.32315677
0.005680975 0.0033034855 0.039999999 -0.19972187 -0.52287865 0.32315677
0.0082532922 0.0023243253 0.039999999 -0.19972187 -0.52287865 0.32315677
0.010826458 0.0013465298 0.039999999 -0.19972187 -0.52287865 0.32315677
0.013400589 0.00037005573 0.039999999 -0.19972187 -0.52287865 0.32315677
0.016225722 0 0.039671917 -0.19972187 -0.52287865 0.32315677
0.019213393 0 0.03914227 -0.19972187 -0.52287865 0.32315677
0.022213057 0 0.038611297 -0.19972187 -0.52287865 0.32315677
0.025224896 0 0.038078964 -0.19972187 -0.52287865 0.32315677
0.028249092 0 0.037545245 -0.19972187 -0.52287865 0.32315677
0.031285834 0 0.037010111 -0.19972187 -0.52287865 0.32315677
0.034335308 0 0.036473539 -0.19972187 -0.52287865 0.32315677
0.037397709 0 0.035935491 -0.19972187 -0.52287865 0.32315677
0.002311243 0.079999998 0.0012379661 -0.19972187 -0.52287865 0.32315677
0 0.063583165 0.0094207525 -0.19972187 -0.52287865 0.32315677
0 0.05433156 0.013794762 -0.19972187 -0.52287865 0.32315677
0 0.04533679 0.01804813 -0.19972187 -0.52287865 0.32315677
0 0.036587995 0.022185957 -0.19972187 -0.52287865 0.32315677
0 0.028074909 0.026213067 -0.19972187 -0.52287865 0.32315677
0 0.019787841 0.030134011 -0.19972187 -0.52287865 0.32315677
0 0.011717618 0.0339531 -0.19972187 -0.52287865 0.32315677
0.026356813 0.073367395 0 -0.19972187 -0.52287865 0.32315677
0.0014646424 0 0.039234862 -0.19972187 -0.52287865 0.32315677
0.0044022012 0 0.038704392 -0.19972187 -0.52287865 0.32315677
0.0073509333 0 0.03817264 -0.19972187 -0.52287865 0.32315677
0.010311011 0 0.037639573 -0.19972187 -0.52287865 0.32315677
0.013282607 0 0.037105165 -0.19972187 -0.52287865 0.32315677
0.016265899 0 0.036569394 -0.19972187 -0.52287865 0.32315677
0.019261064 0 0.03603223 -0.19972187 -0.52287865 0.32315677
0.022268282 0 0.035493642 -0.19972187 -0.52287865 0.32315677
0.025287736 0 0.034953605 -0.19972187 -0.52287865 0.32315677
0.028319612 0 0.03441209 -0.19972187 -0.52287865 0.32315677
0.031364098 0 0.033869065 -0.19972187 -0.52287865 0.32315677
0.034421384 0 0.033324502 -0.19972187 -0.52287865 0.32315677
0.037491661 0 0.032778375 -0.19972187 -0.52287865 0.32315677
0.0008505361 0.075843573 0 -0.19972187 -0.52287865 0.32315677
0.0037357484 0.074728809 0 -0.19972187 -0.52287865 0.32315677
0 0.054477125 0.010368565 -0.19972187 -0.52287865 0.32315677
0 0.045456566 0.014680828 -0.19972187 -0.52287865 0.32315677
0 0.036683328 0.018875573 -0.19972187 -0.52287865 0.32315677
0 0.028147075 0.022957716 -0.19972187 -0.52287865 0.32315677
0 0.01983803 0.026931902 -0.19972187 -0.52287865 0.32315677
0 0.011746949 0.030802524 -0.19972187 -0.52287865 0.32315677
0 0.0038650839 0.034573738 -0.19972187 -0.52287865 0.32315677
0.0014682412 0 0.036155012 -0.19972187 -0.52287865 0.32315677
0.0044130385 0 0.0356174 -0.19972187 -0.52287865 0.32315677
0.0073690652 0 0.035078421 -0.19972187 -0.52287865 0.32315677
0.010336493 0 0.034538038 -0.19972187 -0.52287865 0.32315677
0.013315498 0 0.033996228 -0.19972187 -0.52287865 0.32315677
0.016306257 0 0.033452962 -0.19972187 -0.52287865 0.32315677
0.019308949 0 0.032908209 -0.19972187 -0.52287865 0.32315677
0.022323756 0 0.032361943 -0.19972187 -0.52287865 0.32315677
0.025350861 0 0.031814136 -0.19972187 -0.52287865 0.32315677
0.028390452 0 0.031264752 -0.19972187 -0.52287865 0.32315677
0.031442717 0 0.030713769 -0.19972187 -0.52287865 0.32315677
0.034507848 0 0.030161152 -0.19972187 -0.52287865 0.32315677
0.037586041 0 0.029606869 -0.19972187 -0.52287865 0.32315677
0 0.06392961 0.0024289459 -0.19972187 -0.52287865 0.32315677
0 0.054623406 0.006925473 -0.19972187 -0.52287865 0.32315677
0 0.045576923 0.011297173 -0.19972187 -0.52287865 0.32315677
0 0.036779124 0.015549354 -0.19972187 -0.52287865 0.32315677
0 0.028219583 0.019687027 -0.19972187 -0.52287865 0.32315677
0 0.019888451 0.023714924 -0.19972187 -0.52287865 0.32315677
0 0.011776414 0.027637528 -0.19972187 -0.52287865 0.32315677
0 0.003874653 0.031459071 -0.19972187 -0.52287865 0.32315677
0.0014718564 0 0.033061344 -0.19972187 -0.52287865 0.32315677
0.0044239252 0 0.032516535 -0.19972187 -0.52287865 0.32315677
0.0073872786 0 0.031970266 -0.19972187 -0.52287865 0.32315677
0.010362091 0 0.031422507 -0.19972187 -0.52287865 0.32315677
0.013348537 0 0.030873228 -0.19972187 -0.52287865 0.32315677
0.016346797 0 0.030322401 -0.19972187 -0.52287865 0.32315677
0.019357052 0 0.029769998 -0.19972187 -0.52287865 0.32315677
0.02237948 0 0.029215988 -0.19972187 -0.52287865 0.32315677
0.025414273 0 0.028660338 -0.19972187 -0.52287865 0.32315677
0.028461616 0 0.028103024 -0.19972187 -0.52287865 0.32315677
0.031521697 0 0.027544009 -0.19972187 -0.52287865 0.32315677
0.034594715 0 0.026983263 -0.19972187 -0.52287865 0.32315677
0.037680857 0 0.026420757 -0.19972187 -0.52287865 0.32315677
0 0.054770414 0.0034652287 -0.19972187 -0.52287865 0.32315677
0.0050028167 0.059940096 0 -0.19972187 -0.52287865 0.32315677
0 0.036875378 0.012207058 -0.19972187 -0.52287865 0.32315677
0 0.028292436 0.01640076 -0.19972187 -0.52287865 0.32315677
0.013515776 0.05667321 0 -0.19972187 -0.52287865 0.32315677
0 0.011806014 0.024457889 -0.19972187 -0.52287865 0.32315677
0 0.0038842657 0.028330199 -0.19972187 -0.52287865 0.32315677
0.0014754878 0 0.029953655 -0.19972187 -0.52287865 0.32315677
0.0044348608 0 0.029401584 -0.19972187 -0.52287865 0.32315677
0.0074055749 0 0.028847963 -0.19972187 -0.52287865 0.32315677
0.010387804 0 0.02829276 -0.19972187 -0.52287865 0.32315677
0.013381728 0 0.027735949 -0.19972187 -0.52287865 0.32315677
0.016387524 0 0.027177498 -0.19972187 -0.52287865 0.32315677
0.019405374 0 0.026617374 -0.19972187 -0.52287865 0.32315677
0.022435464 0 0.026055552 -0.19972187 -0.52287865 0.32315677
0.025477979 0 0.025491996 -0.19972187 -0.52287865 0.32315677
0.028533109 0 0.024926675 -0.19972187 -0.52287865 0.32315677
0.031601045 0 0.024359562 -0.19972187 -0.52287865 0.32315677
0.03468198 0 0.023790618 -0.19972187 -0.52287865 0.32315677
0.037776113 0 0.023219815 -0.19972187 -0.52287865 0.32315677
0.0028075941 0.053813901 0 -0.19972187 -0.52287865 0.32315677
0 0.036972106 0.0088484408 -0.19972187 -0.52287865 0.32315677
0.0084374286 0.051653445 0 -0.19972187 -0.52287865 0.32315677
0 0.019990008 0.017235443 -0.19972187 -0.52287865 0.32315677
0.014067096 0.049497519 0 -0.19972187 -0.52287865 0.32315677
0.016882163 0.048421144 0 -0.19972187 -0.52287865 0.32315677
0.0014791359 0 0.026831724 -0.19972187 -0.52287865 0.32315677
0.0044458467 0 0.026272329 -0.19972187 -0.52287865 0.32315677
0.007423955 0 0.025711292 -0.19972187 -0.52287865 0.32315677
0.010413637 0 0.025148584 -0.19972187 -0.52287865 0.32315677
0.013415071 0 0.024584174 -0.19972187 -0.52287865 0.32315677
0.016428439 0 0.024018031 -0.19972187 -0.52287865 0.32315677
0.019453922 0 0.023450121 -0.19972187 -0.52287865 0.32315677
0.022491707 0 0.022880416 -0.19972187 -0.52287865 0.32315677
0.02554198 0 0.022308884 -0.19972187 -0.52287865 0.32315677
0.028604934 0 0.021735491 -0.19972187 -0.52287865 0.32315677
0.031680763 0 0.021160204 -0.19972187 -0.52287865 0.32315677
0.034769658 0 0.020582989 -0.19972187 -0.52287865 0.32315677
0.037871819 0 0.020003814 -0.19972187 -0.52287865 0.32315677
0.00064830581 0.047787987 0 -0.19972187 -0.52287865 0.32315677
0 0.03706931 0.0054732538 -0.19972187 -0.52287865 0.32315677
0.0062333667 0.045645956 0 -0.19972187 -0.52287865 0.32315677
0.0090257153 0.044576466 0 -0.19972187 -0.52287865 0.32315677
0 0.011865634 0.018053789 -0.19972187 -0.52287865 0.32315677
0 0.0039036248 0.022028966 -0.19972187 -0.52287865 0.32315677
0.0014828009 0 0.023695337 -0.19972187 -0.52287865 0.32315677
0.0044568838 0 0.023128552 -0.19972187 -0.52287865 0.32315677
0.0074424213 0 0.022560036 -0.19972187 -0.52287865 0.32315677
0.010439591 0 0.021989755 -0.19972187 -0.52287865 0.32315677
0.013448571 0 0.021417681 -0.19972187 -0.52287865 0.32315677
0.016469546 0 0.020843778 -0.19972187 -0.52287865 0.32315677
0.019502698 0 0.020268014 -0.19972187 -0.52287865 0.32315677
0.022548214 0 0.019690359 -0.19972187 -0.52287865 0.32315677
0.025606284 0 0.019110778 -0.19972187 -0.52287865 0.32315677
0.0286771 0 0.018529238 -0.19972187 -0.52287865 0.32315677
0.031760857 0 0.017945707 -0.19972187 -0.52287865 0.32315677
0.03485775 0 0.017360147 -0.19972187 -0.52287865 0.32315677
0.037967976 0 0.016772525 -0.19972187 -0.52287865 0.32315677
0 0.037166998 0.0020812438 -0.19972187 -0.52287865 0.32315677
0 0.028513119 0.0064461119 -0.19972187 -0.52287865 0.32315677
0 0.020092541 0.01069371 -0.19972187 -0.52287865 0.32315677
0 0.011895656 0.014828869 -0.19972187 -0.52287865 0.32315677
0 0.0039133723 0.018856158 -0.19972187 -0.52287865 0.32315677
0.0014864831 0 0.02054427 -0.19972187 -0.52287865 0.32315677
0.0044679726 0 0.019970033 -0.19972187 -0.52287865 0.32315677
0.0074609737 0 0.019393971 -0.19972187 -0.52287865 0.32315677
0.010465666 0 0.018816052 -0.19972187 -0.52287865 0.32315677
0.013482228 0 0.018236244 -0.19972187 -0.52287865 0.32315677
0.016510846 0 0.017654514 -0.19972187 -0.52287865 0.32315677
0.019551704 0 0.017070826 -0.19972187 -0.52287865 0.32315677
0.022604989 0 0.016485149 -0.19972187 -0.52287865 0.32315677
0.025670893 0 0.015897449 -0.19972187 -0.52287865 0.32315677
0.028749609 0 0.015307691 -0.19972187 -0.52287865 0.32315677
0.031841334 0 0.01471584 -0.19972187 -0.52287865 0.32315677
0.034946263 0 0.01412186 -0.19972187 -0.52287865 0.32315677
0.038064599 0 0.013525715 -0.19972187 -0.52287865 0.32315677
0 0.028587407 0.0030951314 -0.19972187 -0.52287865 0.32315677
0 0.020144183 0.0073989034 -0.19972187 -0.52287865 0.32315677
0 0.011925823 0.011588394 -0.19972187 -0.52287865 0.32315677
0 0.0039231665 0.01566826 -0.19972187 -0.52287865 0.32315677
0.0014901827 0 0.0173783 -0.19972187 -0.52287865 0.32315677
0.004479114 0 0.016796546 -0.19972187 -0.52287865 0.32315677
0.0074796146 0 0.016212871 -0.19972187 -0.52287865 0.32315677
0.010491865 0 0.015627246 -0.19972187 -0.52287865 0.32315677
0.013516046 0 0.015039638 -0.19972187 -0.52287865 0.32315677
0.016552344 0 0.014450009 -0.19972187 -0.52287865 0.32315677
0.019600945 0 0.013858328 -0.19972187 -0.52287865 0.32315677
0.022662038 0 0.013264557 -0.19972187 -0.52287865 0.32315677
0.025735814 0 0.012668665 -0.19972187 -0.52287865 0.32315677
0.02882247 0 0.012070615 -0.19972187 -0.52287865 0.32315677
0.031922199 0 0.011470369 -0.19972187 -0.52287865 0.32315677
0.035035204 0 0.010867893 -0.19972187 -0.52287865 0.32315677
0.038161688 0 0.010263149 -0.19972187 -0.52287865 0.32315677
0 0.02019608 0.0040878118 -0.19972187 -0.52287865 0.32315677
0.0052858242 0.026111035 0 -0.19972187 -0.52287865 0.32315677
0 0.0039330078 0.012465035 -0.19972187 -0.52287865 0.32315677
0.0014939 0 0.014197201 -0.19972187 -0.52287865 0.32315677
0.0044903085 0 0.013607861 -0.19972187 -0.52287865 0.32315677
0.0074983449 0 0.013016508 -0.19972187 -0.52287865 0.32315677
0.01051819 0 0.012423109 -0.19972187 -0.52287865 0.32315677
0.013550027 0 0.011827628 -0.19972187 -0.52287865 0.32315677
0.016594043 0 0.011230032 -0.19972187 -0.52287865 0.32315677
0.019650424 0 0.010630284 -0.19972187 -0.52287865 0.32315677
0.022719363 0 0.010028349 -0.19972187 -0.52287865 0.32315677
0.02580105 0 0.009424191 -0.19972187 -0.52287865 0.32315677
0.028895684 0 0.0088177724 -0.19972187 -0.52287865 0.32315677
0.032003462 0 0.0082090572 -0.19972187 -0.52287865 0.32315677
0.035124585 0 0.0075980071 -0.19972187 -0.52287865 0.32315677
0.038259257 0 0.006984585 -0.19972187 -0.52287865 0.32315677
0.0004709294 0.021528888 0 -0.19972187 -0.52287865 0.32315677
0 0.0119866 0.0050598225 -0.19972187 -0.52287865 0.32315677
0.0058828201 0.019460456 0 -0.19972187 -0.52287865 0.32315677
0.0014976352 0 0.011000739 -0.19972187 -0.52287865 0.32315677
0.0045015574 0 0.010403748 -0.19972187 -0.52287865 0.32315677
0.007517166 0 0.0098046474 -0.19972187 -0.52287865 0.32315677
0.010544643 0 0.0092034042 -0.19972187 -0.52287865 0.32315677
0.013584174 0 0.0085999826 -0.19972187 -0.52287865 0.32315677
0.016635945 0 0.0079943463 -0.19972187 -0.52287865 0.32315677
0.019700145 0 0.0073864595 -0.19972187 -0.52287865 0.32315677
0.022776967 0 0.0067762849 -0.19972187 -0.52287865 0.32315677
0.025866607 0 0.0061637857 -0.19972187 -0.52287865 0.32315677
0.028969258 0 0.0055489237 -0.19972187 -0.52287865 0.32315677
0.032085124 0 0.0049316613 -0.19972187 -0.52287865 0.32315677
0.035214406 0 0.0043119597 -0.19972187 -0.52287865 0.32315677
0.038357306 0 0.0036897794 -0.19972187 -0.52287865 0.32315677
0 0.012017216 0.0017712408 -0.19972187 -0.52287865 0.32315677
0.0037858484 0.013939242 0 -0.19972187 -0.52287865 0.32315677
0.0015013885 0 0.0077886833 -0.19972187 -0.52287865 0.32315677
0.0045128614 0 0.0071839709 -0.19972187 -0.52287865 0.32315677
0.0075360793 0 0.006577054 -0.19972187 -0.52287865 0.32315677
0.010571226 0 0.0059678964 -0.19972187 -0.52287865 0.32315677
0.013618488 0 0.0053564617 -0.19972187 -0.52287865 0.32315677
0.016678054 0 0.0047427132 -0.19972187 -0.52287865 0.32315677
0.019750113 0 0.004126613 -0.19972187 -0.52287865 0.32315677
0.022834858 0 0.0035081243 -0.19972187 -0.52287865 0.32315677
0.025932487 0 0.002887208 -0.19972187 -0.52287865 0.32315677
0.029043198 0 0.0022638256 -0.19972187 -0.52287865 0.32315677
0.032167193 0 0.0016379377 -0.19972187 -0.52287865 0.32315677
0.035304673 0 0.0010095045 -0.19972187 -0.52287865 0.32315677
0.038455844 0 0.00037848571 -0.19972187 -0.52287865 0.32315677
0 0.0039628209 0.0027610639 -0.19972187 -0.52287865 0.32315677
0.0015051605 0 0.0045607947 -0.19972187 -0.52287865 0.32315677
0.0045242207 0 0.0039482922 -0.19972187 -0.52287865 0.32315677
0.0075550862 0 0.0033334878 -0.19972187 -0.52287865 0.32315677
0.010597941 0 0.0027163441 -0.19972187 -0.52287865 0.32315677
0.013652973 0 0.0020968236 -0.19972187 -0.52287865 0.32315677
0.016720371 0 0.0014748889 -0.19972187 -0.52287865 0.32315677
0.019800328 0 0.00085050124 -0.19972187 -0.52287865 0.32315677
0.022893038 0 0.00022362187 -0.19972187 -0.52287865 0.32315677
0.0015089512 0 0.0013168324 -0.19972187 -0.52287865 0.32315677
0.0045356373 0 0.00069646933 -0.19972187 -0.52287865 0.32315677
0.0075741881 0 7.3705523e-05 -0.19972187 -0.52287865 0.32315677
