# .PCD v0.7 - Point Cloud Data file format
VERSION 0.7
FIELDS x y z vp_x vp_y vp_z
SIZE 4 4 4 4 4 4
TYPE F F F F F F
COUNT 1 1 1 1 1 1
WIDTH 563
HEIGHT 1
VIEWPOINT 0 0 0 1 0 0 0
POINTS 563
DATA ascii
0.0032695092 0.068853855 0.07 0.19972187 -0.52287865 0.32315677
0.0059746206 0.069936588 0.07 0.19972187 -0.52287865 0.32315677
0.0086796787 0.071024276 0.07 0.19972187 -0.52287865 0.32315677
0.011384835 0.072116978 0.07 0.19972187 -0.52287865 0.32315677
0.014090243 0.073214769 0.07 0.19972187 -0.52287865 0.32315677
0.016796052 0.074317701 0.07 0.19972187 -0.52287865 0.32315677
0.019502416 0.075425856 0.07 0.19972187 -0.52287865 0.32315677
0.02220949 0.076539293 0.07 0.19972187 -0.52287865 0.32315677
0.024917422 0.07765808 0.07 0.19972187 -0.52287865 0.32315677
0.00040582751 0.059421368 0.07 0.19972187 -0.52287865 0.32315677
0.0030848675 0.060482185 0.07 0.19972187 -0.52287865 0.32315677
0.0057636062 0.061547589 0.07 0.19972187 -0.52287865 0.32315677
0.0084421905 0.062617645 0.07 0.19972187 -0.52287865 0.32315677
0.01112077 0.063692413 0.07 0.19972187 -0.52287865 0.32315677
0.013799493 0.064771965 0.07 0.19972187 -0.52287865 0.32315677
0.016478507 0.065856352 0.07 0.19972187 -0.52287865 0.32315677
0.019157961 0.06694565 0.07 0.19972187 -0.52287865 0.32315677
0.021838004 0.068039916 0.07 0.19972187 -0.52287865 0.32315677
0.024518786 0.06913922 0.07 0.19972187 -0.52287865 0.32315677
0.027200453 0.070243627 0.07 0.19972187 -0.52287865 0.32315677
0.029883159 0.071353212 0.07 0.19972187 -0.52287865 0.32315677
0.032567054 0.072468035 0.07 0.19972187 -0.52287865 0.32315677
0.0028996665 0.052292593 0.07 0.19972187 -0.52287865 0.32315677
0.005552623 0.053341482 0.07 0.19972187 -0.52287865 0.32315677
0.0082053309 0.054394741 0.07 0.19972187 -0.52287865 0.32315677
0.010857934 0.055452418 0.07 0.19972187 -0.52287865 0.32315677
0.013510578 0.056514584 0.07 0.19972187 -0.52287865 0.32315677
0.016163407 0.057581294 0.07 0.19972187 -0.52287865 0.32315677
0.018816568 0.058652617 0.07 0.19972187 -0.52287865 0.32315677
0.021470204 0.059728608 0.07 0.19972187 -0.52287865 0.32315677
0.024124462 0.060809337 0.07 0.19972187 -0.52287865 0.32315677
0.026779488 0.061894864 0.07 0.19972187 -0.52287865 0.32315677
0.029435426 0.062985256 0.07 0.19972187 -0.52287865 0.32315677
0.032092422 0.064080581 0.07 0.19972187 -0.52287865 0.32315677
0.034750629 0.065180898 0.07 0.19972187 -0.52287865 0.32315677
0.037410185 0.066286288 0.07 0.19972187 -0.52287865 0.32315677
0.0047133253 0.047148705 0.069181494 0.19972187 -0.52287865 0.32315677
0.0079691997 0.046348874 0.07 0.19972187 -0.52287865 0.32315677
0.010596406 0.047390264 0.07 0.19972187 -0.52287865 0.32315677
0.013223555 0.048435859 0.07 0.19972187 -0.52287865 0.32315677
0.01585079 0.049485717 0.07 0.19972187 -0.52287865 0.32315677
0.01847825 0.0505399 0.07 0.19972187 -0.52287865 0.32315677
0.021106079 0.051598467 0.07 0.19972187 -0.52287865 0.32315677
0.023734417 0.052661482 0.07 0.19972187 -0.52287865 0.32315677
0.02636341 0.053729005 0.07 0.19972187 -0.52287865 0.32315677
0.028993195 0.054801099 0.07 0.19972187 -0.52287865 0.32315677
0.031623919 0.055877823 0.07 0.19972187 -0.52287865 0.32315677
0.034255724 0.056959249 0.07 0.19972187 -0.52287865 0.32315677
0.036888756 0.058045432 0.07 0.19972187 -0.52287865 0.32315677
0.039523154 0.059136447 0.07 0.19972187 -0.52287865 0.32315677
0.0048030992 0.047043014 0.066135429 0.19972187 -0.52287865 0.32315677
0.0090658693 0.043271955 0.068301834 0.19972187 -0.52287865 0.32315677
0.0126488 0.041403115 0.069607385 0.19972187 -0.52287865 0.32315677
0.015540686 0.041563123 0.07 0.19972187 -0.52287865 0.32315677
0.018143019 0.042600967 0.07 0.19972187 -0.52287865 0.32315677
0.020745616 0.043642916 0.07 0.19972187 -0.52287865 0.32315677
0.02334862 0.044689037 0.07 0.19972187 -0.52287865 0.32315677
0.025952166 0.045739386 0.07 0.19972187 -0.52287865 0.32315677
0.028556393 0.046794023 0.07 0.19972187 -0.52287865 0.32315677
0.031161444 0.047853008 0.07 0.19972187 -0.52287865 0.32315677
0.033767454 0.048916407 0.07 0.19972187 -0.52287865 0.32315677
0.036374569 0.049984276 0.07 0.19972187 -0.52287865 0.32315677
0.038550023 0.052602388 0.069318205 0.19972187 -0.52287865 0.32315677
0.039906058 0.058266737 0.067299843 0.19972187 -0.52287865 0.32315677
0.0048931688 0.046936978 0.06307932 0.19972187 -0.52287865 0.32315677
0.0091415904 0.043226399 0.065244764 0.19972187 -0.52287865 0.32315677
0.012724274 0.041377682 0.066557333 0.19972187 -0.52287865 0.32315677
0.01598233 0.040435631 0.067455284 0.19972187 -0.52287865 0.32315677
0.019049237 0.040029299 0.068108983 0.19972187 -0.52287865 0.32315677
0.021944782 0.040123072 0.068535879 0.19972187 -0.52287865 0.32315677
0.024716508 0.040589441 0.068794802 0.19972187 -0.52287865 0.32315677
0.027375542 0.041411314 0.068894401 0.19972187 -0.52287865 0.32315677
0.029907756 0.042654436 0.068806022 0.19972187 -0.52287865 0.32315677
0.032329232 0.044286635 0.06854517 0.19972187 -0.52287865 0.32315677
0.034627307 0.046372443 0.06808392 0.19972187 -0.52287865 0.32315677
0.036750201 0.049118232 0.067331128 0.19972187 -0.52287865 0.32315677
0.038629957 0.052802995 0.06616392 0.19972187 -0.52287865 0.32315677
0.039929792 0.058704589 0.064015277 0.19972187 -0.52287865 0.32315677
0.0049835397 0.046830583 0.060012985 0.19972187 -0.52287865 0.32315677
0.0092175808 0.043180678 0.062176846 0.19972187 -0.52287865 0.32315677
0.012800019 0.04135216 0.063496262 0.19972187 -0.52287865 0.32315677
0.016062059 0.040418081 0.064401671 0.19972187 -0.52287865 0.32315677
0.019129973 0.040029299 0.065055445 0.19972187 -0.52287865 0.32315677
0.02202937 0.040132277 0.065483481 0.19972187 -0.52287865 0.32315677
0.02480475 0.040608861 0.065741017 0.19972187 -0.52287865 0.32315677
0.027465034 0.041449293 0.065833457 0.19972187 -0.52287865 0.32315677
0.029999206 0.042709459 0.065736316 0.19972187 -0.52287865 0.32315677
0.032423094 0.044357989 0.065464921 0.19972187 -0.52287865 0.32315677
0.034718234 0.04647949 0.0649819 0.19972187 -0.52287865 0.32315677
0.036841158 0.049252395 0.064207718 0.19972187 -0.52287865 0.32315677
0.038710233 0.053004473 0.062995963 0.19972187 -0.52287865 0.32315677
0.039953642 0.059144694 0.060713816 0.19972187 -0.52287865 0.32315677
0.0050742165 0.046723831 0.056936268 0.19972187 -0.52287865 0.32315677
0.0092938449 0.043134794 0.059097908 0.19972187 -0.52287865 0.32315677
0.012876041 0.041326545 0.060424004 0.19972187 -0.52287865 0.32315677
0.016142081 0.040400468 0.061336834 0.19972187 -0.52287865 0.32315677
0.019211011 0.040029299 0.061990518 0.19972187 -0.52287865 0.32315677
0.022114275 0.040141512 0.062419619 0.19972187 -0.52287865 0.32315677
0.024893327 0.040628359 0.062675662 0.19972187 -0.52287865 0.32315677
0.027553953 0.041490432 0.062759347 0.19972187 -0.52287865 0.32315677
0.030091012 0.042764697 0.062654644 0.19972187 -0.52287865 0.32315677
0.032517325 0.044429626 0.062372502 0.19972187 -0.52287865 0.32315677
0.034809534 0.046586972 0.061867259 0.19972187 -0.52287865 0.32315677
0.036932498 0.049387116 0.061071329 0.19972187 -0.52287865 0.32315677
0.038790863 0.053206831 0.059814136 0.19972187 -0.52287865 0.32315677
0.039977621 0.059587087 0.057395216 0.19972187 -0.52287865 0.32315677
0.0051652044 0.046616711 0.053848997 0.19972187 -0.52287865 0.32315677
0.0093703857 0.043088742 0.056007773 0.19972187 -0.52287865 0.32315677
0.012952345 0.041300833 0.057340376 0.19972187 -0.52287865 0.32315677
0.016222401 0.040382791 0.058260586 0.19972187 -0.52287865 0.32315677
0.019292355 0.040029299 0.058914013 0.19972187 -0.52287865 0.32315677
0.022199504 0.040150784 0.059344105 0.19972187 -0.52287865 0.32315677
0.024982244 0.040647928 0.059598565 0.19972187 -0.52287865 0.32315677
0.027643219 0.04153173 0.059673246 0.19972187 -0.52287865 0.32315677
0.030183181 0.042820152 0.059560809 0.19972187 -0.52287865 0.32315677
0.032611936 0.044501547 0.059267726 0.19972187 -0.52287865 0.32315677
0.034901209 0.046694893 0.058739807 0.19972187 -0.52287865 0.32315677
0.037024219 0.049522404 0.05792176 0.19972187 -0.52287865 0.32315677
0.038871851 0.053410087 0.056618217 0.19972187 -0.52287865 0.32315677
0.039997425 0.060047477 0.054051973 0.19972187 -0.52287865 0.32315677
0.0052565085 0.046509221 0.050750997 0.19972187 -0.52287865 0.32315677
0.0094472077 0.043042518 0.05290626 0.19972187 -0.52287865 0.32315677
0.013028935 0.041275024 0.054245193 0.19972187 -0.52287865 0.32315677
0.016303023 0.040365048 0.055172753 0.19972187 -0.52287865 0.32315677
0.019374009 0.040029299 0.055825744 0.19972187 -0.52287865 0.32315677
0.022285061 0.04016009 0.056256752 0.19972187 -0.52287865 0.32315677
0.025071505 0.040667575 0.056509532 0.19972187 -0.52287865 0.32315677
0.027732836 0.041573193 0.056574959 0.19972187 -0.52287865 0.32315677
0.030275719 0.04287583 0.056454629 0.19972187 -0.52287865 0.32315677
0.032706928 0.044573762 0.056150403 0.19972187 -0.52287865 0.32315677
0.034993265 0.046803266 0.055599339 0.19972187 -0.52287865 0.32315677
0.03711633 0.049658265 0.054758813 0.19972187 -0.52287865 0.32315677
0.038953185 0.053614307 0.053407967 0.19972187 -0.52287865 0.32315677
0.039961234 0.06071528 0.050595123 0.19972187 -0.52287865 0.32315677
0.0053481343 0.046401352 0.047642089 0.19972187 -0.52287865 0.32315677
0.0095243165 0.042996127 0.049793188 0.19972187 -0.52287865 0.32315677
0.013105815 0.041249119 0.051138274 0.19972187 -0.52287865 0.32315677
0.016383953 0.040347233 0.052073143 0.19972187 -0.52287865 0.32315677
0.019455981 0.040029299 0.052725531 0.19972187 -0.52287865 0.32315677
0.022370951 0.040169436 0.053157378 0.19972187 -0.52287865 0.32315677
0.025161117 0.040687297 0.053408381 0.19972187 -0.52287865 0.32315677
0.027822813 0.041614823 0.053464297 0.19972187 -0.52287865 0.32315677
0.03036863 0.042931732 0.053335909 0.19972187 -0.52287865 0.32315677
0.032802306 0.044646271 0.053020339 0.19972187 -0.52287865 0.32315677
0.035085708 0.046912093 0.052445658 0.19972187 -0.52287865 0.32315677
0.037203383 0.049813926 0.051573165 0.19972187 -0.52287865 0.32315677
0.03902249 0.053863939 0.050162129 0.19972187 -0.52287865 0.32315677
0.039924819 0.061387166 0.04711714 0.19972187 -0.52287865 0.32315677
0.038570773 0.077573508 0.039999999 0.19972187 -0.52287865 0.32315677
0.0054400861 0.046293095 0.044522107 0.19972187 -0.52287865 0.32315677
0.0096017169 0.042949557 0.046668373 0.19972187 -0.52287865 0.32315677
0.01318299 0.041223116 0.048019439 0.19972187 -0.52287865 0.32315677
0.016465195 0.040329352 0.048961576 0.19972187 -0.52287865 0.32315677
0.019538272 0.040029299 0.049613185 0.19972187 -0.52287865 0.32315677
0.022457179 0.040178817 0.050045796 0.19972187 -0.52287865 0.32315677
0.025251083 0.040707096 0.050294917 0.19972187 -0.52287865 0.32315677
0.027913151 0.041656617 0.050341066 0.19972187 -0.52287865 0.32315677
0.03046192 0.042987861 0.050204452 0.19972187 -0.52287865 0.32315677
0.032898083 0.044719078 0.049877327 0.19972187 -0.52287865 0.32315677
0.035178542 0.047021385 0.049278554 0.19972187 -0.52287865 0.32315677
0.037289239 0.049975857 0.048370782 0.19972187 -0.52287865 0.32315677
0.039092124 0.054114755 0.046900947 0.19972187 -0.52287865 0.32315677
0.039888177 0.062063199 0.043617703 0.19972187 -0.52287865 0.32315677
0.039999999 0.072836488 0.039000977 0.19972187 -0.52287865 0.32315677
0.0018684797 0.047941148 0.039999999 0.19972187 -0.52287865 0.32315677
0.0055263052 0.046202224 0.041382063 0.19972187 -0.52287865 0.32315677
0.0096794115 0.042902812 0.04353163 0.19972187 -0.52287865 0.32315677
0.013260464 0.041197009 0.044888493 0.19972187 -0.52287865 0.32315677
0.016546754 0.040311404 0.045837864 0.19972187 -0.52287865 0.32315677
0.01962089 0.040029299 0.046488512 0.19972187 -0.52287865 0.32315677
0.022543751 0.040188234 0.046921808 0.19972187 -0.52287865 0.32315677
0.025341412 0.040726978 0.047168951 0.19972187 -0.52287865 0.32315677
0.02800386 0.041698582 0.047205072 0.19972187 -0.52287865 0.32315677
0.030555595 0.043044221 0.047060061 0.19972187 -0.52287865 0.32315677
0.032992255 0.044799004 0.04671786 0.19972187 -0.52287865 0.32315677
0.035271779 0.047131144 0.046097822 0.19972187 -0.52287865 0.32315677
0.037375476 0.050138514 0.045154061 0.19972187 -0.52287865 0.32315677
0.039162088 0.054366767 0.043624178 0.19972187 -0.52287865 0.32315677
0.039796822 0.062943041 0.039999999 0.19972187 -0.52287865 0.32315677
0.039999999 0.073428243 0.035470035 0.19972187 -0.52287865 0.32315677
0.0014549796 0.04049556 0.039999999 0.19972187 -0.52287865 0.32315677
0.004136716 0.041535053 0.039999999 0.19972187 -0.52287865 0.32315677
0.0068184366 0.042577077 0.039999999 0.19972187 -0.52287865 0.32315677
0.009757407 0.042855885 0.040382765 0.19972187 -0.52287865 0.32315677
0.013338244 0.041170802 0.041745245 0.19972187 -0.52287865 0.32315677
0.016628636 0.040293381 0.042701811 0.19972187 -0.52287865 0.32315677
0.019703837 0.040029299 0.043351322 0.19972187 -0.52287865 0.32315677
0.022630671 0.040197689 0.043785222 0.19972187 -0.52287865 0.32315677
0.025429441 0.040755566 0.044026017 0.19972187 -0.52287865 0.32315677
0.028094944 0.041740723 0.044056114 0.19972187 -0.52287865 0.32315677
0.030649662 0.043100819 0.043902539 0.19972187 -0.52287865 0.32315677
0.033084691 0.044886559 0.043541361 0.19972187 -0.52287865 0.32315677
0.035365418 0.047241382 0.042903256 0.19972187 -0.52287865 0.32315677
0.037462104 0.050301909 0.041922774 0.19972187 -0.52287865 0.32315677
0.039232392 0.054619998 0.040331591 0.19972187 -0.52287865 0.32315677
0.039999999 0.062746756 0.036886107 0.19972187 -0.52287865 0.32315677
0.039999999 0.074023515 0.031918135 0.19972187 -0.52287865 0.32315677
0.001046455 0.033189014 0.039999999 0.19972187 -0.52287865 0.32315677
0.0037050671 0.034216255 0.039999999 0.19972187 -0.52287865 0.32315677
0.0063635809 0.035245806 0.039999999 0.19972187 -0.52287865 0.32315677
0.0090221213 0.036277719 0.039999999 0.19972187 -0.52287865 0.32315677
0.011680813 0.037312046 0.039999999 0.19972187 -0.52287865 0.32315677
0.01433978 0.038348835 0.039999999 0.19972187 -0.52287865 0.32315677
0.016999146 0.039388135 0.039999999 0.19972187 -0.52287865 0.32315677
0.019787122 0.040029299 0.040201418 0.19972187 -0.52287865 0.32315677
0.022717947 0.040207185 0.040635843 0.19972187 -0.52287865 0.32315677
0.025517531 0.040785249 0.040869582 0.19972187 -0.52287865 0.32315677
0.028186409 0.041783039 0.040893994 0.19972187 -0.52287865 0.32315677
0.030744126 0.043157656 0.040731676 0.19972187 -0.52287865 0.32315677
0.033177525 0.044974495 0.040351119 0.19972187 -0.52287865 0.32315677
0.035636425 0.046737827 0.039999999 0.19972187 -0.52287865 0.32315677
0.038303498 0.047799058 0.039999999 0.19972187 -0.52287865 0.32315677
0.039999999 0.052364346 0.038266081 0.19972187 -0.52287865 0.32315677
0.039999999 0.063297957 0.033392068 0.19972187 -0.52287865 0.32315677
0.039999999 0.074622355 0.02834495 0.19972187 -0.52287865 0.32315677
0.00064287701 0.026017016 0.039999999 0.19972187 -0.52287865 0.32315677
0.0032788133 0.027032552 0.039999999 0.19972187 -0.52287865 0.32315677
0.0059145731 0.028050197 0.039999999 0.19972187 -0.52287865 0.32315677
0.0085502788 0.029069999 0.039999999 0.19972187 -0.52287865 0.32315677
0.011186051 0.030092007 0.039999999 0.19972187 -0.52287865 0.32315677
0.013822014 0.031116266 0.039999999 0.19972187 -0.52287865 0.32315677
0.016458286 0.032142829 0.039999999 0.19972187 -0.52287865 0.32315677
0.019094992 0.033171739 0.039999999 0.19972187 -0.52287865 0.32315677
0.021732256 0.034203053 0.039999999 0.19972187 -0.52287865 0.32315677
0.024370195 0.035236813 0.039999999 0.19972187 -0.52287865 0.32315677
0.027008936 0.036273073 0.039999999 0.19972187 -0.52287865 0.32315677
0.0296486 0.037311882 0.039999999 0.19972187 -0.52287865 0.32315677
0.032289311 0.03835329 0.039999999 0.19972187 -0.52287865 0.32315677
0.03493119 0.039397348 0.039999999 0.19972187 -0.52287865 0.32315677
0.037574362 0.040444106 0.039999999 0.19972187 -0.52287865 0.32315677
0.039999999 0.042268347 0.039611302 0.19972187 -0.52287865 0.32315677
0.039999999 0.052873757 0.034827966 0.19972187 -0.52287865 0.32315677
0.039999999 0.063852422 0.029877311 0.19972187 -0.52287865 0.32315677
0.039999999 0.075224817 0.024750151 0.19972187 -0.52287865 0.32315677
0.00024421926 0.01897525 0.039999999 0.19972187 -0.52287865 0.32315677
0.0028579137 0.019979615 0.039999999 0.19972187 -0.52287865 0.32315677
0.0054713567 0.02098589 0.039999999 0.19972187 -0.52287865 0.32315677
0.0080846678 0.021994125 0.039999999 0.19972187 -0.52287865 0.32315677
0.010697966 0.023004366 0.039999999 0.19972187 -0.52287865 0.32315677
0.013311372 0.024016658 0.039999999 0.19972187 -0.52287865 0.32315677
0.015925003 0.025031049 0.039999999 0.19972187 -0.52287865 0.32315677
0.018538982 0.026047587 0.039999999 0.19972187 -0.52287865 0.32315677
0.021153424 0.027066322 0.039999999 0.19972187 -0.52287865 0.32315677
0.023768453 0.028087297 0.039999999 0.19972187 -0.52287865 0.32315677
0.026384186 0.029110564 0.039999999 0.19972187 -0.52287865 0.32315677
0.029000744 0.03013617 0.039999999 0.19972187 -0.52287865 0.32315677
0.031618249 0.031164164 0.039999999 0.19972187 -0.52287865 0.32315677
0.034236819 0.032194596 0.039999999 0.19972187 -0.52287865 0.32315677
0.036856573 0.033227514 0.039999999 0.19972187 -0.52287865 0.32315677
0.039477639 0.03426297 0.039999999 0.19972187 -0.52287865 0.32315677
0.039999999 0.042738121 0.036227256 0.19972187 -0.52287865 0.32315677
0.039999999 0.053386163 0.031369664 0.19972187 -0.52287865 0.32315677
0.039999999 0.06441021 0.026341511 0.19972187 -0.52287865 0.32315677
0.039999999 0.075830959 0.021133404 0.19972187 -0.52287865 0.32315677
0.0024423297 0.013053289 0.039999999 0.19972187 -0.52287865 0.32315677
0.0050338791 0.014048709 0.039999999 0.19972187 -0.52287865 0.32315677
0.0076252227 0.015045896 0.039999999 0.19972187 -0.52287865 0.32315677
0.010216477 0.016044898 0.039999999 0.19972187 -0.52287865 0.32315677
0.01280776 0.017045757 0.039999999 0.19972187 -0.52287865 0.32315677
0.015399188 0.018048521 0.039999999 0.19972187 -0.52287865 0.32315677
0.017990878 0.019053238 0.039999999 0.19972187 -0.52287865 0.32315677
0.020582946 0.020059949 0.039999999 0.19972187 -0.52287865 0.32315677
0.02317551 0.021068705 0.039999999 0.19972187 -0.52287865 0.32315677
0.025768688 0.022079552 0.039999999 0.19972187 -0.52287865 0.32315677
0.028362598 0.023092536 0.039999999 0.19972187 -0.52287865 0.32315677
0.030957356 0.024107706 0.039999999 0.19972187 -0.52287865 0.32315677
0.033553079 0.025125109 0.039999999 0.19972187 -0.52287865 0.32315677
0.036149889 0.026144791 0.039999999 0.19972187 -0.52287865 0.32315677
0.038747903 0.027166804 0.039999999 0.19972187 -0.52287865 0.32315677
0.039999999 0.03287895 0.037591286 0.19972187 -0.52287865 0.32315677
0.039999999 0.043210626 0.032823533 0.19972187 -0.52287865 0.32315677
0.039999999 0.053901605 0.027890865 0.19972187 -0.52287865 0.32315677
0.039999999 0.064971365 0.022784345 0.19972187 -0.52287865 0.32315677
0.039999999 0.076440834 0.017494367 0.19972187 -0.52287865 0.32315677
0.002032025 0.0062495894 0.039999999 0.19972187 -0.52287865 0.32315677
0.00460209 0.0072346446 0.039999999 0.19972187 -0.52287865 0.32315677
0.0071718786 0.0082212836 0.039999999 0.19972187 -0.52287865 0.32315677
0.0097415056 0.00920955 0.039999999 0.19972187 -0.52287865 0.32315677
0.012311084 0.010199489 0.039999999 0.19972187 -0.52287865 0.32315677
0.014880731 0.011191145 0.039999999 0.19972187 -0.52287865 0.32315677
0.017450558 0.012184563 0.039999999 0.19972187 -0.52287865 0.32315677
0.020020682 0.013179787 0.039999999 0.19972187 -0.52287865 0.32315677
0.022591218 0.014176865 0.039999999 0.19972187 -0.52287865 0.32315677
0.02516228 0.01517584 0.039999999 0.19972187 -0.52287865 0.32315677
0.027733982 0.016176758 0.039999999 0.19972187 -0.52287865 0.32315677
0.03030644 0.017179666 0.039999999 0.19972187 -0.52287865 0.32315677
0.03287977 0.01818461 0.039999999 0.19972187 -0.52287865 0.32315677
0.035454087 0.019191636 0.039999999 0.19972187 -0.52287865 0.32315677
0.038029507 0.020200793 0.039999999 0.19972187 -0.52287865 0.32315677
0.039999999 0.023284813 0.038921326 0.19972187 -0.52287865 0.32315677
0.039999999 0.033313584 0.034240339 0.19972187 -0.52287865 0.32315677
0.039999999 0.043685906 0.029399822 0.19972187 -0.52287865 0.32315677
0.039999999 0.054420128 0.024391251 0.19972187 -0.52287865 0.32315677
0.039999999 0.065535948 0.019205481 0.19972187 -0.52287865 0.32315677
0.039999999 0.077054501 0.013832696 0.19972187 -0.52287865 0.32315677
0.0014619123 0 0.039764073 0.19972187 -0.52287865 0.32315677
0.0041759429 0.00053985743 0.039999999 0.19972187 -0.52287865 0.32315677
0.006724576 0.0015164233 0.039999999 0.19972187 -0.52287865 0.32315677
0.0092729768 0.0024944383 0.039999999 0.19972187 -0.52287865 0.32315677
0.011821259 0.0034739459 0.039999999 0.19972187 -0.52287865 0.32315677
0.014369532 0.0044549899 0.039999999 0.19972187 -0.52287865 0.32315677
0.016917912 0.005437613 0.039999999 0.19972187 -0.52287865 0.32315677
0.019466508 0.0064218603 0.039999999 0.19972187 -0.52287865 0.32315677
0.022015434 0.0074077751 0.039999999 0.19972187 -0.52287865 0.32315677
0.024564801 0.0083954018 0.039999999 0.19972187 -0.52287865 0.32315677
0.027114723 0.0093847858 0.039999999 0.19972187 -0.52287865 0.32315677
0.029665314 0.01037597 0.039999999 0.19972187 -0.52287865 0.32315677
0.032216683 0.011369001 0.039999999 0.19972187 -0.52287865 0.32315677
0.034768946 0.012363923 0.039999999 0.19972187 -0.52287865 0.32315677
0.037322216 0.013360782 0.039999999 0.19972187 -0.52287865 0.32315677
0.039876603 0.014359623 0.039999999 0.19972187 -0.52287865 0.32315677
0.039999999 0.023683481 0.035621442 0.19972187 -0.52287865 0.32315677
0.039999999 0.033750746 0.030869897 0.19972187 -0.52287865 0.32315677
0.039999999 0.044163998 0.02595582 0.19972187 -0.52287865 0.32315677
0.039999999 0.054941788 0.020870499 0.19972187 -0.52287865 0.32315677
0.039999999 0.066104002 0.015604584 0.19972187 -0.52287865 0.32315677
0.039999999 0.07767202 0.010148036 0.19972187 -0.52287865 0.32315677
0.0014654979 0 0.036691271 0.19972187 -0.52287865 0.32315677
0.0043883473 0 0.037226215 0.19972187 -0.52287865 0.32315677
0.0073004733 0 0.03775987 0.19972187 -0.52287865 0.32315677
0.010202041 0 0.038292255 0.19972187 -0.52287865 0.32315677
0.013093213 0 0.038823403 0.19972187 -0.52287865 0.32315677
0.015974147 0 0.039353341 0.19972187 -0.52287865 0.32315677
0.018845007 0 0.039882086 0.19972187 -0.52287865 0.32315677
0.021448018 0.00075760006 0.039999999 0.19972187 -0.52287865 0.32315677
0.023976102 0.00173438 0.039999999 0.19972187 -0.52287865 0.32315677
0.026504658 0.0027127361 0.039999999 0.19972187 -0.52287865 0.32315677
0.029033797 0.0036927122 0.039999999 0.19972187 -0.52287865 0.32315677
0.031563625 0.0046743513 0.039999999 0.19972187 -0.52287865 0.32315677
0.034094259 0.005657698 0.039999999 0.19972187 -0.52287865 0.32315677
0.036625806 0.0066427961 0.039999999 0.19972187 -0.52287865 0.32315677
0.039158382 0.0076296898 0.039999999 0.19972187 -0.52287865 0.32315677
0.039999999 0.014309384 0.036968123 0.19972187 -0.52287865 0.32315677
0.039999999 0.024084449 0.032302525 0.19972187 -0.52287865 0.32315677
0.039999999 0.034190476 0.027479662 0.19972187 -0.52287865 0.32315677
0.039999999 0.044644956 0.022491215 0.19972187 -0.52287865 0.32315677
0.039999999 0.055466626 0.017328283 0.19972187 -0.52287865 0.32315677
0.039999999 0.066675588 0.011981309 0.19972187 -0.52287865 0.32315677
0.039999999 0.078293458 0.006440029 0.19972187 -0.52287865 0.32315677
0.0014690994 0 0.033604719 0.19972187 -0.52287865 0.32315677
0.004399112 0 0.034146689 0.19972187 -0.52287865 0.32315677
0.0073183491 0 0.034687281 0.19972187 -0.52287865 0.32315677
0.010226976 0 0.035226524 0.19972187 -0.52287865 0.32315677
0.013125156 0 0.035764441 0.19972187 -0.52287865 0.32315677
0.016013052 0 0.036301065 0.19972187 -0.52287865 0.32315677
0.018890822 0 0.036836416 0.19972187 -0.52287865 0.32315677
0.021758627 0 0.037370522 0.19972187 -0.52287865 0.32315677
0.024616621 0 0.037903409 0.19972187 -0.52287865 0.32315677
0.027464958 0 0.038435105 0.19972187 -0.52287865 0.32315677
0.030303791 0 0.038965635 0.19972187 -0.52287865 0.32315677
0.033133268 0 0.039495021 0.19972187 -0.52287865 0.32315677
0.035940073 4.3017968e-05 0.039999999 0.19972187 -0.52287865 0.32315677
0.038451247 0.0010184833 0.039999999 0.19972187 -0.52287865 0.32315677
0.039999999 0.0051809438 0.03828159 0.19972187 -0.52287865 0.32315677
0.039999999 0.01467596 0.033699065 0.19972187 -0.52287865 0.32315677
0.039999999 0.024487751 0.028964287 0.19972187 -0.52287865 0.32315677
0.039999999 0.034632813 0.024069324 0.19972187 -0.52287865 0.32315677
0.039999999 0.045128819 0.019005686 0.19972187 -0.52287865 0.32315677
0.039999999 0.055994693 0.013764271 0.19972187 -0.52287865 0.32315677
0.039999999 0.067250758 0.008335311 0.19972187 -0.52287865 0.32315677
0.039999999 0.078918859 0.0027083096 0.19972187 -0.52287865 0.32315677
0.0014727173 0 0.030504204 0.19972187 -0.52287865 0.32315677
0.0044099251 0 0.03105326 0.19972187 -0.52287865 0.32315677
0.007336305 0 0.031600852 0.19972187 -0.52287865 0.32315677
0.010252023 0 0.032147005 0.19972187 -0.52287865 0.32315677
0.013157244 0 0.032691751 0.19972187 -0.52287865 0.32315677
0.016052131 0 0.033235114 0.19972187 -0.52287865 0.32315677
0.018936845 0 0.033777125 0.19972187 -0.52287865 0.32315677
0.021811543 0 0.03431781 0.19972187 -0.52287865 0.32315677
0.024676384 0 0.034857191 0.19972187 -0.52287865 0.32315677
0.027531525 0 0.035395302 0.19972187 -0.52287865 0.32315677
0.030377116 0 0.035932161 0.19972187 -0.52287865 0.32315677
0.03321331 0 0.036467802 0.19972187 -0.52287865 0.32315677
0.036040261 0 0.037002243 0.19972187 -0.52287865 0.32315677
0.038858112 0 0.037535515 0.19972187 -0.52287865 0.32315677
0.039999999 0.0055148229 0.035060793 0.19972187 -0.52287865 0.32315677
0.039999999 0.015044653 0.03041113 0.19972187 -0.52287865 0.32315677
0.039999999 0.024893424 0.025606424 0.19972187 -0.52287865 0.32315677
0.039999999 0.035077799 0.020638574 0.19972187 -0.52287865 0.32315677
0.039999999 0.045615628 0.015498908 0.19972187 -0.52287865 0.32315677
0.039999999 0.056526039 0.010178123 0.19972187 -0.52287865 0.32315677
0.039999999 0.067829572 0.0046662325 0.19972187 -0.52287865 0.32315677
0.0014763516 0 0.027389508 0.19972187 -0.52287865 0.32315677
0.004420788 0 0.02794571 0.19972187 -0.52287865 0.32315677
0.0073543428 0 0.02850036 0.19972187 -0.52287865 0.32315677
0.010277184 0 0.029053487 0.19972187 -0.52287865 0.32315677
0.013189477 0 0.029605117 0.19972187 -0.52287865 0.32315677
0.016091386 0 0.030155282 0.19972187 -0.52287865 0.32315677
0.018983074 0 0.030704008 0.19972187 -0.52287865 0.32315677
0.021864697 0 0.031251322 0.19972187 -0.52287865 0.32315677
0.024736417 0 0.031797256 0.19972187 -0.52287865 0.32315677
0.02759839 0 0.03234183 0.19972187 -0.52287865 0.32315677
0.030450771 0 0.032885075 0.19972187 -0.52287865 0.32315677
0.033293709 0 0.033427019 0.19972187 -0.52287865 0.32315677
0.036127362 0 0.033967689 0.19972187 -0.52287865 0.32315677
0.03895187 0 0.034507103 0.19972187 -0.52287865 0.32315677
0.039999999 0.0058506154 0.031821549 0.19972187 -0.52287865 0.32315677
0.039999999 0.015415494 0.027104026 0.19972187 -0.52287865 0.32315677
0.039999999 0.025301503 0.022228636 0.19972187 -0.52287865 0.32315677
0.039999999 0.035525475 0.017187098 0.19972187 -0.52287865 0.32315677
0.039999999 0.046105433 0.011970554 0.19972187 -0.52287865 0.32315677
0.039999999 0.057060719 0.0065694936 0.19972187 -0.52287865 0.32315677
0.039999999 0.06841208 0.00097371376 0.19972187 -0.52287865 0.32315677
0.0014800029 0 0.024260418 0.19972187 -0.52287865 0.32315677
0.0044317008 0 0.024823828 0.19972187 -0.52287865 0.32315677
0.0073724636 0 0.025385598 0.19972187 -0.52287865 0.32315677
0.01030246 0 0.025945755 0.19972187 -0.52287865 0.32315677
0.013221858 0 0.02650433 0.19972187 -0.52287865 0.32315677
0.016130822 0 0.027061354 0.19972187 -0.52287865 0.32315677
0.019029513 0 0.027616853 0.19972187 -0.52287865 0.32315677
0.021918094 0 0.028170856 0.19972187 -0.52287865 0.32315677
0.024796724 0 0.028723391 0.19972187 -0.52287865 0.32315677
0.027665561 0 0.029274488 0.19972187 -0.52287865 0.32315677
0.03052476 0 0.029824173 0.19972187 -0.52287865 0.32315677
0.033374473 0 0.030372474 0.19972187 -0.52287865 0.32315677
0.036214855 0 0.030919418 0.19972187 -0.52287865 0.32315677
0.039046057 0 0.031465031 0.19972187 -0.52287865 0.32315677
0.039999999 0.0061883498 0.028563565 0.19972187 -0.52287865 0.32315677
0.039999999 0.01578852 0.023777461 0.19972187 -0.52287865 0.32315677
0.039999999 0.025712028 0.018830614 0.19972187 -0.52287865 0.32315677
0.039999999 0.035975877 0.013714575 0.19972187 -0.52287865 0.32315677
0.039999999 0.046598282 0.0084202858 0.19972187 -0.52287865 0.32315677
0.039999999 0.057598777 0.0029380335 0.19972187 -0.52287865 0.32315677
0.0014836711 0 0.021116713 0.19972187 -0.52287865 0.32315677
0.0044426643 0 0.021687394 0.19972187 -0.52287865 0.32315677
0.0073906686 0 0.022256345 0.19972187 -0.52287865 0.32315677
0.010327854 0 0.022823595 0.19972187 -0.52287865 0.32315677
0.013254389 0 0.023389174 0.19972187 -0.52287865 0.32315677
0.016170438 0 0.023953114 0.19972187 -0.52287865 0.32315677
0.019076167 0 0.024515443 0.19972187 -0.52287865 0.32315677
0.021971738 0 0.025076192 0.19972187 -0.52287865 0.32315677
0.024857309 0 0.025635388 0.19972187 -0.52287865 0.32315677
0.027733041 0 0.026193062 0.19972187 -0.52287865 0.32315677
0.030599087 0 0.02674924 0.19972187 -0.52287865 0.32315677
0.033455607 0 0.027303951 0.19972187 -0.52287865 0.32315677
0.036302749 0 0.027857224 0.19972187 -0.52287865 0.32315677
0.039140668 0 0.028409084 0.19972187 -0.52287865 0.32315677
0.039999999 0.0065280562 0.025286557 0.19972187 -0.52287865 0.32315677
0.039999999 0.016163759 0.020431131 0.19972187 -0.52287865 0.32315677
0.039999999 0.026125034 0.015412049 0.19972187 -0.52287865 0.32315677
0.039999999 0.036429051 0.010220677 0.19972187 -0.52287865 0.32315677
0.039999999 0.047094218 0.004847764 0.19972187 -0.52287865 0.32315677
0.0014873567 0 0.01795817 0.19972187 -0.52287865 0.32315677
0.0044536795 0 0.018536184 0.19972187 -0.52287865 0.32315677
0.0074089593 0 0.019112378 0.19972187 -0.52287865 0.32315677
0.010353367 0 0.019686783 0.19972187 -0.52287865 0.32315677
0.013287072 0 0.020259427 0.19972187 -0.52287865 0.32315677
0.016210241 0 0.020830344 0.19972187 -0.52287865 0.32315677
0.01912304 0 0.021399563 0.19972187 -0.52287865 0.32315677
0.02202563 0 0.021967115 0.19972187 -0.52287865 0.32315677
0.024918174 0 0.022533029 0.19972187 -0.52287865 0.32315677
0.027800832 0 0.023097334 0.19972187 -0.52287865 0.32315677
0.030673761 0 0.023660062 0.19972187 -0.52287865 0.32315677
0.033537116 0 0.024221238 0.19972187 -0.52287865 0.32315677
0.03639105 0 0.024780894 0.19972187 -0.52287865 0.32315677
0.039235719 0 0.025339056 0.19972187 -0.52287865 0.32315677
0.039999999 0.0068697655 0.021990232 0.19972187 -0.52287865 0.32315677
0.039999999 0.01654125 0.017064733 0.19972187 -0.52287865 0.32315677
0.039999999 0.026540561 0.011972619 0.19972187 -0.52287865 0.32315677
0.039999999 0.036885045 0.0067050722 0.19972187 -0.52287865 0.32315677
0.039999999 0.047593292 0.0012526414 0.19972187 -0.52287865 0.32315677
0.0014910599 0 0.014784561 0.19972187 -0.52287865 0.32315677
0.0044647474 0 0.015369975 0.19972187 -0.52287865 0.32315677
0.0074273371 0 0.015953476 0.19972187 -0.52287865 0.32315677
0.010379001 0 0.016535096 0.19972187 -0.52287865 0.32315677
0.01331991 0 0.017114867 0.19972187 -0.52287865 0.32315677
0.016250232 0 0.017692821 0.19972187 -0.52287865 0.32315677
0.019170133 0 0.018268989 0.19972187 -0.52287865 0.32315677
0.022079777 0 0.018843403 0.19972187 -0.52287865 0.32315677
0.024979327 0 0.019416094 0.19972187 -0.52287865 0.32315677
0.027868941 0 0.01998709 0.19972187 -0.52287865 0.32315677
0.030748783 0 0.02055642 0.19972187 -0.52287865 0.32315677
0.033619005 0 0.021124119 0.19972187 -0.52287865 0.32315677
0.03647976 0 0.02169021 0.19972187 -0.52287865 0.32315677
0.039331209 0 0.022254728 0.19972187 -0.52287865 0.32315677
0.039999999 0.0072135082 0.018674292 0.19972187 -0.52287865 0.32315677
0.039999999 0.016921027 0.013677957 0.19972187 -0.52287865 0.32315677
0.039999999 0.026958648 0.0085120024 0.19972187 -0.52287865 0.32315677
0.039999999 0.037343893 0.003167423 0.19972187 -0.52287865 0.32315677
0.0014947809 0 0.011595657 0.19972187 -0.52287865 0.32315677
0.0044758683 0 0.012188536 0.19972187 -0.52287865 0.32315677
0.0074458029 0 0.012779408 0.19972187 -0.52287865 0.32315677
0.010404758 0 0.013368309 0.19972187 -0.52287865 0.32315677
0.013352905 0 0.013955269 0.19972187 -0.52287865 0.32315677
0.016290413 0 0.014540322 0.19972187 -0.52287865 0.32315677
0.01921745 0 0.0151235 0.19972187 -0.52287865 0.32315677
0.022134181 0 0.015704837 0.19972187 -0.52287865 0.32315677
0.025040768 0 0.01628436 0.19972187 -0.52287865 0.32315677
0.027937375 0 0.016862104 0.19972187 -0.52287865 0.32315677
0.030824158 0 0.017438097 0.19972187 -0.52287865 0.32315677
0.033701278 0 0.018012371 0.19972187 -0.52287865 0.32315677
0.036568891 0 0.018584955 0.19972187 -0.52287865 0.32315677
0.03942715 0 0.019155882 0.19972187 -0.52287865 0.32315677
0.039999999 0.0075593153 0.015338432 0.19972187 -0.52287865 0.32315677
0.039999999 0.017303124 0.010270486 0.19972187 -0.52287865 0.32315677
0.039999999 0.027379334 0.0050298693 0.19972187 -0.52287865 0.32315677
0.00149852 0 0.0083912266 0.19972187 -0.52287865 0.32315677
0.0044870432 0 0.0089916354 0.19972187 -0.52287865 0.32315677
0.0074643581 0 0.009589945 0.19972187 -0.52287865 0.32315677
0.01043064 0 0.01018619 0.19972187 -0.52287865 0.32315677
0.01338606 0 0.010780402 0.19972187 -0.52287865 0.32315677
0.016330788 0 0.011372617 0.19972187 -0.52287865 0.32315677
0.019264996 0 0.011962867 0.19972187 -0.52287865 0.32315677
0.022188846 0 0.012551185 0.19972187 -0.52287865 0.32315677
0.025102505 0 0.013137602 0.19972187 -0.52287865 0.32315677
0.028006135 0 0.013722152 0.19972187 -0.52287865 0.32315677
0.030899895 0 0.014304865 0.19972187 -0.52287865 0.32315677
0.033783946 0 0.014885774 0.19972187 -0.52287865 0.32315677
0.036658447 0 0.015464907 0.19972187 -0.52287865 0.32315677
0.039523549 0 0.016042296 0.19972187 -0.52287865 0.32315677
0.039999999 0.0079072192 0.011982347 0.19972187 -0.52287865 0.32315677
0.039999999 0.017687578 0.0068419995 0.19972187 -0.52287865 0.32315677
0.039999999 0.027802659 0.0015258834 0.19972187 -0.52287865 0.32315677
0.0015022774 0 0.0051710317 0.19972187 -0.52287865 0.32315677
0.0044982731 0 0.0057790386 0.19972187 -0.52287865 0.32315677
0.0074830046 0 0.0063848514 0.19972187 -0.52287865 0.32315677
0.010456648 0 0.0069885054 0.19972187 -0.52287865 0.32315677
0.013419376 0 0.007590035 0.19972187 -0.52287865 0.32315677
0.01637136 0 0.0081894752 0.19972187 -0.52287865 0.32315677
0.019312771 0 0.008786859 0.19972187 -0.52287865 0.32315677
0.022243777 0 0.00938222 0.19972187 -0.52287865 0.32315677
0.025164541 0 0.0099755926 0.19972187 -0.52287865 0.32315677
0.028075228 0 0.010567009 0.19972187 -0.52287865 0.32315677
0.030975999 0 0.011156499 0.19972187 -0.52287865 0.32315677
0.033867016 0 0.011744099 0.19972187 -0.52287865 0.32315677
0.036748432 0 0.012329838 0.19972187 -0.52287865 0.32315677
0.039620411 0 0.012913748 0.19972187 -0.52287865 0.32315677
0.039999999 0.0082572531 0.0086057223 0.19972187 -0.52287865 0.32315677
0.039999999 0.018074423 0.00339217 0.19972187 -0.52287865 0.32315677
0.0015060537 0 0.001934832 0.19972187 -0.52287865 0.32315677
0.0045095589 0 0.0025505053 0.19972187 -0.52287865 0.32315677
0.0075017433 0 0.0031638891 0.19972187 -0.52287865 0.32315677
0.010482784 0 0.003775019 0.19972187 -0.52287865 0.32315677
0.013452857 0 0.0043839309 0.19972187 -0.52287865 0.32315677
0.016412133 0 0.0049906601 0.19972187 -0.52287865 0.32315677
0.019360783 0 0.0055952412 0.19972187 -0.52287865 0.32315677
0.022298977 0 0.0061977087 0.19972187 -0.52287865 0.32315677
0.02522688 0 0.0067980969 0.19972187 -0.52287865 0.32315677
0.028144658 0 0.0073964391 0.19972187 -0.52287865 0.32315677
0.031052474 0 0.0079927687 0.19972187 -0.52287865 0.32315677
0.033950485 0 0.0085871182 0.19972187 -0.52287865 0.32315677
0.036838856 0 0.0091795204 0.19972187 -0.52287865 0.32315677
0.039717741 0 0.0097700069 0.19972187 -0.52287865 0.32315677
0.039999999 0.0086094486 0.005208238 0.19972187 -0.52287865 0.32315677
0.010509051 0 0.00054548943 0.19972187 -0.52287865 0.32315677
0.013486505 0 0.0011618499 0.19972187 -0.52287865 0.32315677
0.016453108 0 0.0017759337 0.19972187 -0.52287865 0.32315677
0.019409033 0 0.0023877765 0.19972187 -0.52287865 0.32315677
0.022354452 0 0.0029974137 0.19972187 -0.52287865 0.32315677
0.025289528 0 0.0036048801 0.19972187 -0.52287865 0.32315677
0.028214432 0 0.0042102104 0.19972187 -0.52287865 0.32315677
0.031129325 0 0.0048134378 0.19972187 -0.52287865 0.32315677
0.034034368 0 0.0054145972 0.19972187 -0.52287865 0.32315677
0.036929727 0 0.0060137212 0.19972187 -0.52287865 0.32315677
0.039815549 0 0.0066108429 0.19972187 -0.52287865 0.32315677
0.039999999 0.0089638401 0.0017895708 0.19972187 -0.52287865 0.32315677
0.025352491 0 0.00039570255 0.19972187 -0.52287865 0.32315677
0.028284553 0 0.0010080829 0.19972187 -0.52287865 0.32315677
0.031206559 0 0.0016182705 0.19972187 -0.52287865 0.32315677
0.034118667 0 0.0022262998 0.19972187 -0.52287865 0.32315677
0.037021045 0 0.002832205 0.19972187 -0.52287865 0.32315677
0.039913844 0 0.0034360199 0.19972187 -0.52287865 0.32315677
0.039999999 4.1352021e-05 0.00021976244 0.19972187 -0.52287865 0.32315677
