# .PCD v0.7 - Point Cloud Data file format
VERSION 0.7
FIELDS x y z vp_x vp_y vp_z
SIZE 4 4 4 4 4 4
TYPE F F F F F F
COUNT 1 1 1 1 1 1
WIDTH 313
HEIGHT 1
VIEWPOINT 0 0 0 1 0 0 0
POINTS 313
DATA ascii
0.001524393 0.052415647 0.068818979 0 -0.64631355 0
0.0045400993 0.047352642 0.068321615 0 -0.64631355 0
0.007534706 0.044390045 0.068032414 0 -0.64631355 0
0.010518565 0.042397927 0.06784007 0 -0.64631355 0
0.013499392 0.041116502 0.067719005 0 -0.64631355 0
0.016481325 0.040325802 0.067647547 0 -0.64631355 0
0.019471003 0.040029299 0.067626067 0 -0.64631355 0
0.02247349 0.04018059 0.06764999 0 -0.64631355 0
0.025494695 0.040777553 0.067719132 0 -0.64631355 0
0.028545929 0.041949373 0.067846261 0 -0.64631355 0
0.031637833 0.043761026 0.068037808 0 -0.64631355 0
0.034796979 0.04657219 0.06832929 0 -0.64631355 0
0.038097642 0.051500618 0.068831049 0 -0.64631355 0
0.001524393 0.052415647 0.065741919 0 -0.64631355 0
0.0045400993 0.047352642 0.065266795 0 -0.64631355 0
0.007534706 0.044390045 0.06499052 0 -0.64631355 0
0.010518565 0.042397927 0.064806774 0 -0.64631355 0
0.013499392 0.041116502 0.064691126 0 -0.64631355 0
0.016481325 0.040325802 0.064622864 0 -0.64631355 0
0.019471003 0.040029299 0.064602345 0 -0.64631355 0
0.02247349 0.04018059 0.064625196 0 -0.64631355 0
0.025494695 0.040777553 0.064691253 0 -0.64631355 0
0.028545929 0.041949373 0.06481269 0 -0.64631355 0
0.031637833 0.043761026 0.064995669 0 -0.64631355 0
0.034796979 0.04657219 0.065274127 0 -0.64631355 0
0.038097642 0.051500618 0.065753445 0 -0.64631355 0
0.001524393 0.052415647 0.062667385 0 -0.64631355 0
0.0045400993 0.047352642 0.062214479 0 -0.64631355 0
0.007534706 0.044390045 0.061951127 0 -0.64631355 0
0.010518565 0.042397927 0.061775975 0 -0.64631355 0
0.013499392 0.041116502 0.061665732 0 -0.64631355 0
0.016481325 0.040325802 0.061600666 0 -0.64631355 0
0.019471003 0.040029299 0.061581101 0 -0.64631355 0
0.02247349 0.04018059 0.061602887 0 -0.64631355 0
0.025494695 0.040777553 0.061665852 0 -0.64631355 0
0.028545929 0.041949373 0.061781611 0 -0.64631355 0
0.031637833 0.043761026 0.061956037 0 -0.64631355 0
0.034796979 0.04657219 0.062221467 0 -0.64631355 0
0.038097642 0.051500618 0.062678374 0 -0.64631355 0
0.001524393 0.052415647 0.059595257 0 -0.64631355 0
0.0045400993 0.047352642 0.059164554 0 -0.64631355 0
0.007534706 0.044390045 0.05891411 0 -0.64631355 0
0.010518565 0.042397927 0.058747545 0 -0.64631355 0
0.013499392 0.041116502 0.058642704 0 -0.64631355 0
0.016481325 0.040325802 0.058580831 0 -0.64631355 0
0.019471003 0.040029299 0.058562223 0 -0.64631355 0
0.02247349 0.04018059 0.058582943 0 -0.64631355 0
0.025494695 0.040777553 0.05864282 0 -0.64631355 0
0.028545929 0.041949373 0.058752906 0 -0.64631355 0
0.031637833 0.043761026 0.058918778 0 -0.64631355 0
0.034796979 0.04657219 0.059171196 0 -0.64631355 0
0.038097642 0.051500618 0.059605706 0 -0.64631355 0
0.001524393 0.052415647 0.056525413 0 -0.64631355 0
0.0045400993 0.047352642 0.056116894 0 -0.64631355 0
0.007534706 0.044390045 0.055879351 0 -0.64631355 0
0.010518565 0.042397927 0.055721369 0 -0.64631355 0
0.013499392 0.041116502 0.055621929 0 -0.64631355 0
0.016481325 0.040325802 0.055563241 0 -0.64631355 0
0.019471003 0.040029299 0.055545595 0 -0.64631355 0
0.02247349 0.04018059 0.055565245 0 -0.64631355 0
0.025494695 0.040777553 0.055622038 0 -0.64631355 0
0.028545929 0.041949373 0.055726454 0 -0.64631355 0
0.031637833 0.043761026 0.05588378 0 -0.64631355 0
0.034796979 0.04657219 0.056123197 0 -0.64631355 0
0.038097642 0.051500618 0.056535322 0 -0.64631355 0
0.001524393 0.052415647 0.053457733 0 -0.64631355 0
0.0045400993 0.047352642 0.053071387 0 -0.64631355 0
0.007534706 0.044390045 0.052846737 0 -0.64631355 0
0.010518565 0.042397927 0.052697327 0 -0.64631355 0
0.013499392 0.041116502 0.052603282 0 -0.64631355 0
0.016481325 0.040325802 0.052547783 0 -0.64631355 0
0.019471003 0.040029299 0.052531093 0 -0.64631355 0
0.02247349 0.04018059 0.052549675 0 -0.64631355 0
0.025494695 0.040777553 0.052603386 0 -0.64631355 0
0.028545929 0.041949373 0.052702136 0 -0.64631355 0
0.031637833 0.043761026 0.052850924 0 -0.64631355 0
0.034796979 0.04657219 0.053077348 0 -0.64631355 0
0.038097642 0.051500618 0.053467106 0 -0.64631355 0
0.001524393 0.052415647 0.050392102 0 -0.64631355 0
0.0045400993 0.047352642 0.050027914 0 -0.64631355 0
0.007534706 0.044390045 0.049816146 0 -0.64631355 0
0.010518565 0.042397927 0.049675304 0 -0.64631355 0
0.013499392 0.041116502 0.049586654 0 -0.64631355 0
0.016481325 0.040325802 0.049534336 0 -0.64631355 0
0.019471003 0.040029299 0.0495186 0 -0.64631355 0
0.02247349 0.04018059 0.04953612 0 -0.64631355 0
0.025494695 0.040777553 0.049586751 0 -0.64631355 0
0.028545929 0.041949373 0.049679838 0 -0.64631355 0
0.031637833 0.043761026 0.049820095 0 -0.64631355 0
0.034796979 0.04657219 0.050033532 0 -0.64631355 0
0.038097642 0.051500618 0.050400939 0 -0.64631355 0
0.001524393 0.052415647 0.047328401 0 -0.64631355 0
0.0045400993 0.047352642 0.046986356 0 -0.64631355 0
0.007534706 0.044390045 0.046787459 0 -0.64631355 0
0.010518565 0.042397927 0.046655182 0 -0.64631355 0
0.013499392 0.041116502 0.046571922 0 -0.64631355 0
0.016481325 0.040325802 0.046522781 0 -0.64631355 0
0.019471003 0.040029299 0.046508007 0 -0.64631355 0
0.02247349 0.04018059 0.046524461 0 -0.64631355 0
0.025494695 0.040777553 0.046572015 0 -0.64631355 0
0.028545929 0.041949373 0.04665944 0 -0.64631355 0
0.031637833 0.043761026 0.04679117 0 -0.64631355 0
0.034796979 0.04657219 0.046991631 0 -0.64631355 0
0.038097642 0.051500618 0.047336701 0 -0.64631355 0
0.001524393 0.052415647 0.044266511 0 -0.64631355 0
0.0045400993 0.047352642 0.043946594 0 -0.64631355 0
0.007534706 0.044390045 0.043760568 0 -0.64631355 0
0.010518565 0.042397927 0.043636844 0 -0.64631355 0
0.013499392 0.041116502 0.04355897 0 -0.64631355 0
0.016481325 0.040325802 0.043513011 0 -0.64631355 0
0.019471003 0.040029299 0.04349919 0 -0.64631355 0
0.02247349 0.04018059 0.04351458 0 -0.64631355 0
0.025494695 0.040777553 0.043559056 0 -0.64631355 0
0.028545929 0.041949373 0.043640826 0 -0.64631355 0
0.031637833 0.043761026 0.043764036 0 -0.64631355 0
0.034796979 0.04657219 0.043951526 0 -0.64631355 0
0.038097642 0.051500618 0.044274274 0 -0.64631355 0
0.0014100396 0 0.038115192 0 -0.64631355 0
0.0042301724 0 0.038115919 0 -0.64631355 0
0.0070504667 0 0.038117371 0 -0.64631355 0
0.0098710293 0 0.038119547 0 -0.64631355 0
0.012691967 0 0.038122453 0 -0.64631355 0
0.015513389 0 0.038126081 0 -0.64631355 0
0.018335402 0 0.038130436 0 -0.64631355 0
0.021158114 0 0.038135521 0 -0.64631355 0
0.023981633 0 0.038141333 0 -0.64631355 0
0.026806066 0 0.03814787 0 -0.64631355 0
0.02963152 0 0.038155138 0 -0.64631355 0
0.032458104 0 0.038163137 0 -0.64631355 0
0.035285931 0 0.038171865 0 -0.64631355 0
0.038115103 0 0.038181324 0 -0.64631355 0
0.0014100396 0 0.035286013 0 -0.64631355 0
0.0042301724 0 0.035286687 0 -0.64631355 0
0.0070504667 0 0.035288028 0 -0.64631355 0
0.0098710293 0 0.035290048 0 -0.64631355 0
0.012691967 0 0.035292733 0 -0.64631355 0
0.015513389 0 0.035296094 0 -0.64631355 0
0.018335402 0 0.035300128 0 -0.64631355 0
0.021158114 0 0.035304833 0 -0.64631355 0
0.023981633 0 0.035310213 0 -0.64631355 0
0.026806066 0 0.035316266 0 -0.64631355 0
0.02963152 0 0.035322994 0 -0.64631355 0
0.032458104 0 0.0353304 0 -0.64631355 0
0.035285931 0 0.03533848 0 -0.64631355 0
0.038115103 0 0.035347238 0 -0.64631355 0
0.0014100396 0 0.032458182 0 -0.64631355 0
0.0042301724 0 0.032458801 0 -0.64631355 0
0.0070504667 0 0.032460038 0 -0.64631355 0
0.0098710293 0 0.032461893 0 -0.64631355 0
0.012691967 0 0.032464363 0 -0.64631355 0
0.015513389 0 0.032467455 0 -0.64631355 0
0.018335402 0 0.032471165 0 -0.64631355 0
0.021158114 0 0.032475494 0 -0.64631355 0
0.023981633 0 0.032480441 0 -0.64631355 0
0.026806066 0 0.03248601 0 -0.64631355 0
0.02963152 0 0.032492202 0 -0.64631355 0
0.032458104 0 0.032499012 0 -0.64631355 0
0.035285931 0 0.032506444 0 -0.64631355 0
0.038115103 0 0.032514498 0 -0.64631355 0
0.0014100396 0 0.02963159 0 -0.64631355 0
0.0042301724 0 0.029632155 0 -0.64631355 0
0.0070504667 0 0.029633284 0 -0.64631355 0
0.0098710293 0 0.029634975 0 -0.64631355 0
0.012691967 0 0.029637232 0 -0.64631355 0
0.015513389 0 0.029640054 0 -0.64631355 0
0.018335402 0 0.029643441 0 -0.64631355 0
0.021158114 0 0.029647393 0 -0.64631355 0
0.023981633 0 0.029651912 0 -0.64631355 0
0.026806066 0 0.029656995 0 -0.64631355 0
0.02963152 0 0.029662646 0 -0.64631355 0
0.032458104 0 0.029668864 0 -0.64631355 0
0.035285931 0 0.029675648 0 -0.64631355 0
0.038115103 0 0.029683001 0 -0.64631355 0
0.0014100396 0 0.026806129 0 -0.64631355 0
0.0042301724 0 0.02680664 0 -0.64631355 0
0.0070504667 0 0.02680766 0 -0.64631355 0
0.0098710293 0 0.026809191 0 -0.64631355 0
0.012691967 0 0.026811233 0 -0.64631355 0
0.015513389 0 0.026813786 0 -0.64631355 0
0.018335402 0 0.026816851 0 -0.64631355 0
0.021158114 0 0.026820425 0 -0.64631355 0
0.023981633 0 0.026824512 0 -0.64631355 0
0.026806066 0 0.02682911 0 -0.64631355 0
0.02963152 0 0.026834223 0 -0.64631355 0
0.032458104 0 0.026839847 0 -0.64631355 0
0.035285931 0 0.026845986 0 -0.64631355 0
0.038115103 0 0.026852638 0 -0.64631355 0
0.0014100396 0 0.023981689 0 -0.64631355 0
0.0042301724 0 0.023982147 0 -0.64631355 0
0.0070504667 0 0.023983059 0 -0.64631355 0
0.0098710293 0 0.023984428 0 -0.64631355 0
0.012691967 0 0.023986256 0 -0.64631355 0
0.015513389 0 0.023988539 0 -0.64631355 0
0.018335402 0 0.023991281 0 -0.64631355 0
0.021158114 0 0.023994479 0 -0.64631355 0
0.023981633 0 0.023998136 0 -0.64631355 0
0.026806066 0 0.02400225 0 -0.64631355 0
0.02963152 0 0.024006823 0 -0.64631355 0
0.032458104 0 0.024011856 0 -0.64631355 0
0.035285931 0 0.024017347 0 -0.64631355 0
0.038115103 0 0.024023298 0 -0.64631355 0
0.0014100396 0 0.021158164 0 -0.64631355 0
0.0042301724 0 0.021158567 0 -0.64631355 0
0.0070504667 0 0.021159373 0 -0.64631355 0
0.0098710293 0 0.021160582 0 -0.64631355 0
0.012691967 0 0.021162193 0 -0.64631355 0
0.015513389 0 0.021164209 0 -0.64631355 0
0.018335402 0 0.021166626 0 -0.64631355 0
0.021158114 0 0.021169448 0 -0.64631355 0
0.023981633 0 0.021172674 0 -0.64631355 0
0.026806066 0 0.021176305 0 -0.64631355 0
0.02963152 0 0.021180339 0 -0.64631355 0
0.032458104 0 0.021184778 0 -0.64631355 0
0.035285931 0 0.021189623 0 -0.64631355 0
0.038115103 0 0.021194873 0 -0.64631355 0
0.0014100396 0 0.018335447 0 -0.64631355 0
0.0042301724 0 0.018335795 0 -0.64631355 0
0.0070504667 0 0.018336494 0 -0.64631355 0
0.0098710293 0 0.01833754 0 -0.64631355 0
0.012691967 0 0.018338937 0 -0.64631355 0
0.015513389 0 0.018340683 0 -0.64631355 0
0.018335402 0 0.01834278 0 -0.64631355 0
0.021158114 0 0.018345224 0 -0.64631355 0
0.023981633 0 0.01834802 0 -0.64631355 0
0.026806066 0 0.018351166 0 -0.64631355 0
0.02963152 0 0.018354662 0 -0.64631355 0
0.032458104 0 0.01835851 0 -0.64631355 0
0.035285931 0 0.018362708 0 -0.64631355 0
0.038115103 0 0.018367259 0 -0.64631355 0
0.0014100396 0 0.015513427 0 -0.64631355 0
0.0042301724 0 0.015513722 0 -0.64631355 0
0.0070504667 0 0.015514312 0 -0.64631355 0
0.0098710293 0 0.015515199 0 -0.64631355 0
0.012691967 0 0.01551638 0 -0.64631355 0
0.015513389 0 0.015517858 0 -0.64631355 0
0.018335402 0 0.015519631 0 -0.64631355 0
0.021158114 0 0.0155217 0 -0.64631355 0
0.023981633 0 0.015524065 0 -0.64631355 0
0.026806066 0 0.015526727 0 -0.64631355 0
0.02963152 0 0.015529685 0 -0.64631355 0
0.032458104 0 0.01553294 0 -0.64631355 0
0.035285931 0 0.015536493 0 -0.64631355 0
0.038115103 0 0.015540343 0 -0.64631355 0
0.0014100396 0 0.012691998 0 -0.64631355 0
0.0042301724 0 0.012692239 0 -0.64631355 0
0.0070504667 0 0.012692722 0 -0.64631355 0
0.0098710293 0 0.012693448 0 -0.64631355 0
0.012691967 0 0.012694415 0 -0.64631355 0
0.015513389 0 0.012695624 0 -0.64631355 0
0.018335402 0 0.012697074 0 -0.64631355 0
0.021158114 0 0.012698767 0 -0.64631355 0
0.023981633 0 0.012700702 0 -0.64631355 0
0.026806066 0 0.012702879 0 -0.64631355 0
0.02963152 0 0.012705299 0 -0.64631355 0
0.032458104 0 0.012707963 0 -0.64631355 0
0.035285931 0 0.012710868 0 -0.64631355 0
0.038115103 0 0.012714018 0 -0.64631355 0
0.0014100396 0 0.0098710526 0 -0.64631355 0
0.0042301724 0 0.0098712407 0 -0.64631355 0
0.0070504667 0 0.009871616 0 -0.64631355 0
0.0098710293 0 0.0098721804 0 -0.64631355 0
0.012691967 0 0.009872932 0 -0.64631355 0
0.015513389 0 0.0098738717 0 -0.64631355 0
0.018335402 0 0.0098750005 0 -0.64631355 0
0.021158114 0 0.0098763173 0 -0.64631355 0
0.023981633 0 0.0098778224 0 -0.64631355 0
0.026806066 0 0.0098795155 0 -0.64631355 0
0.02963152 0 0.0098813977 0 -0.64631355 0
0.032458104 0 0.009883469 0 -0.64631355 0
0.035285931 0 0.0098857293 0 -0.64631355 0
0.038115103 0 0.0098881787 0 -0.64631355 0
0.0014100396 0 0.0070504835 0 -0.64631355 0
0.0042301724 0 0.0070506176 0 -0.64631355 0
0.0070504667 0 0.0070508858 0 -0.64631355 0
0.0098710293 0 0.0070512886 0 -0.64631355 0
0.012691967 0 0.007051826 0 -0.64631355 0
0.015513389 0 0.0070524975 0 -0.64631355 0
0.018335402 0 0.0070533031 0 -0.64631355 0
0.021158114 0 0.0070542432 0 -0.64631355 0
0.023981633 0 0.0070553184 0 -0.64631355 0
0.026806066 0 0.0070565282 0 -0.64631355 0
0.02963152 0 0.0070578726 0 -0.64631355 0
0.032458104 0 0.007059352 0 -0.64631355 0
0.035285931 0 0.0070609665 0 -0.64631355 0
0.038115103 0 0.0070627159 0 -0.64631355 0
0.0014100396 0 0.0042301826 0 -0.64631355 0
0.0042301724 0 0.0042302632 0 -0.64631355 0
0.0070504667 0 0.0042304243 0 -0.64631355 0
0.0098710293 0 0.004230666 0 -0.64631355 0
0.012691967 0 0.0042309882 0 -0.64631355 0
0.015513389 0 0.004231391 0 -0.64631355 0
0.018335402 0 0.0042318744 0 -0.64631355 0
0.021158114 0 0.0042324387 0 -0.64631355 0
0.023981633 0 0.0042330837 0 -0.64631355 0
0.026806066 0 0.0042338092 0 -0.64631355 0
0.02963152 0 0.0042346162 0 -0.64631355 0
0.032458104 0 0.0042355037 0 -0.64631355 0
0.035285931 0 0.0042364723 0 -0.64631355 0
0.038115103 0 0.0042375219 0 -0.64631355 0
0.0014100396 0 0.001410043 0 -0.64631355 0
0.0042301724 0 0.0014100698 0 -0.64631355 0
0.0070504667 0 0.0014101235 0 -0.64631355 0
0.0098710293 0 0.0014102041 0 -0.64631355 0
0.012691967 0 0.0014103114 0 -0.64631355 0
0.015513389 0 0.0014104458 0 -0.64631355 0
0.018335402 0 0.0014106069 0 -0.64631355 0
0.021158114 0 0.001410795 0 -0.64631355 0
0.023981633 0 0.0014110099 0 -0.64631355 0
0.026806066 0 0.0014112518 0 -0.64631355 0
0.02963152 0 0.0014115208 0 -0.64631355 0
0.032458104 0 0.0014118166 0 -0.64631355 0
0.035285931 0 0.0014121395 0 -0.64631355 0
0.038115103 0 0.0014124895 0 -0.64631355 0
