# .PCD v0.7 - Point Cloud Data file format
VERSION 0.7
FIELDS x y z vp_x vp_y vp_z
SIZE 4 4 4 4 4 4
TYPE F F F F F F
COUNT 1 1 1 1 1 1
WIDTH 611
HEIGHT 1
VIEWPOINT 0 0 0 1 0 0 0
POINTS 611
DATA ascii
0.030716527 0.076858953 0.069598764 -0.33897066 0.54846609 0
0.025595983 0.079188317 0.069019593 -0.33897066 0.54846609 0
0.021779681 0.079894893 0.068683505 -0.33897066 0.54846609 0
0.018510113 0.079926416 0.068449594 -0.33897066 0.54846609 0
0.01562033 0.079484701 0.068287447 -0.33897066 0.54846609 0
0.01299304 0.078712881 0.068175562 -0.33897066 0.54846609 0
0.010594103 0.077647522 0.068108164 -0.33897066 0.54846609 0
0.0084209703 0.076283701 0.068085536 -0.33897066 0.54846609 0
0.006438212 0.074661553 0.068101466 -0.33897066 0.54846609 0
0.0046465648 0.072772697 0.068156809 -0.33897066 0.54846609 0
0.003055901 0.070595816 0.068254232 -0.33897066 0.54846609 0
0.0017127644 0.068057142 0.068403862 -0.33897066 0.54846609 0
0.00067854166 0.06505917 0.068619058 -0.33897066 0.54846609 0
7.6549986e-05 0.061411891 0.068926133 -0.33897066 0.54846609 0
0.00034211646 0.056465939 0.06941589 -0.33897066 0.54846609 0
0.030716527 0.076858953 0.066950165 -0.33897066 0.54846609 0
0.025595983 0.079188317 0.066393033 -0.33897066 0.54846609 0
0.021779681 0.079894893 0.066069737 -0.33897066 0.54846609 0
0.018510113 0.079926416 0.06584473 -0.33897066 0.54846609 0
0.01562033 0.079484701 0.065688744 -0.33897066 0.54846609 0
0.01299304 0.078712881 0.065581121 -0.33897066 0.54846609 0
0.010594103 0.077647522 0.065516293 -0.33897066 0.54846609 0
0.0084209703 0.076283701 0.065494522 -0.33897066 0.54846609 0
0.006438212 0.074661553 0.065509848 -0.33897066 0.54846609 0
0.0046465648 0.072772697 0.065563083 -0.33897066 0.54846609 0
0.003055901 0.070595816 0.065656804 -0.33897066 0.54846609 0
0.0017127644 0.068057142 0.065800734 -0.33897066 0.54846609 0
0.00067854166 0.06505917 0.066007741 -0.33897066 0.54846609 0
7.6549986e-05 0.061411891 0.066303134 -0.33897066 0.54846609 0
0.00034211646 0.056465939 0.066774249 -0.33897066 0.54846609 0
0.030716527 0.076858953 0.064304151 -0.33897066 0.54846609 0
0.025595983 0.079188317 0.063769035 -0.33897066 0.54846609 0
0.021779681 0.079894893 0.063458517 -0.33897066 0.54846609 0
0.018510113 0.079926416 0.063242398 -0.33897066 0.54846609 0
0.01562033 0.079484701 0.063092582 -0.33897066 0.54846609 0
0.01299304 0.078712881 0.062989213 -0.33897066 0.54846609 0
0.010594103 0.077647522 0.062926941 -0.33897066 0.54846609 0
0.0084209703 0.076283701 0.062906034 -0.33897066 0.54846609 0
0.006438212 0.074661553 0.062920757 -0.33897066 0.54846609 0
0.0046465648 0.072772697 0.062971883 -0.33897066 0.54846609 0
0.003055901 0.070595816 0.0630619 -0.33897066 0.54846609 0
0.0017127644 0.068057142 0.063200146 -0.33897066 0.54846609 0
0.00067854166 0.06505917 0.063398972 -0.33897066 0.54846609 0
7.6549986e-05 0.061411891 0.063682683 -0.33897066 0.54846609 0
0.00034211646 0.056465939 0.064135179 -0.33897066 0.54846609 0
0.030716527 0.076858953 0.061660606 -0.33897066 0.54846609 0
0.025595983 0.079188317 0.061147489 -0.33897066 0.54846609 0
0.021779681 0.079894893 0.060849737 -0.33897066 0.54846609 0
0.018510113 0.079926416 0.060642507 -0.33897066 0.54846609 0
0.01562033 0.079484701 0.060498849 -0.33897066 0.54846609 0
0.01299304 0.078712881 0.060399726 -0.33897066 0.54846609 0
0.010594103 0.077647522 0.060340017 -0.33897066 0.54846609 0
0.0084209703 0.076283701 0.060319968 -0.33897066 0.54846609 0
0.006438212 0.074661553 0.060334086 -0.33897066 0.54846609 0
0.0046465648 0.072772697 0.060383111 -0.33897066 0.54846609 0
0.003055901 0.070595816 0.060469426 -0.33897066 0.54846609 0
0.0017127644 0.068057142 0.060601987 -0.33897066 0.54846609 0
0.00067854166 0.06505917 0.060792644 -0.33897066 0.54846609 0
7.6549986e-05 0.061411891 0.061064694 -0.33897066 0.54846609 0
0.00034211646 0.056465939 0.061498586 -0.33897066 0.54846609 0
0.030716527 0.076858953 0.059019439 -0.33897066 0.54846609 0
0.025595983 0.079188317 0.0585283 -0.33897066 0.54846609 0
0.021779681 0.079894893 0.058243304 -0.33897066 0.54846609 0
0.018510113 0.079926416 0.058044948 -0.33897066 0.54846609 0
0.01562033 0.079484701 0.057907443 -0.33897066 0.54846609 0
0.01299304 0.078712881 0.057812568 -0.33897066 0.54846609 0
0.010594103 0.077647522 0.057755414 -0.33897066 0.54846609 0
0.0084209703 0.076283701 0.057736222 -0.33897066 0.54846609 0
0.006438212 0.074661553 0.057749737 -0.33897066 0.54846609 0
0.0046465648 0.072772697 0.057796665 -0.33897066 0.54846609 0
0.003055901 0.070595816 0.05787928 -0.33897066 0.54846609 0
0.0017127644 0.068057142 0.058006164 -0.33897066 0.54846609 0
0.00067854166 0.06505917 0.058188651 -0.33897066 0.54846609 0
7.6549986e-05 0.061411891 0.058449049 -0.33897066 0.54846609 0
0.00034211646 0.056465939 0.058864359 -0.33897066 0.54846609 0
0.030716527 0.076858953 0.05638054 -0.33897066 0.54846609 0
0.025595983 0.079188317 0.055911358 -0.33897066 0.54846609 0
0.021779681 0.079894893 0.055639107 -0.33897066 0.54846609 0
0.018510113 0.079926416 0.05544962 -0.33897066 0.54846609 0
0.01562033 0.079484701 0.055318262 -0.33897066 0.54846609 0
0.01299304 0.078712881 0.05522763 -0.33897066 0.54846609 0
0.010594103 0.077647522 0.055173032 -0.33897066 0.54846609 0
0.0084209703 0.076283701 0.0551547 -0.33897066 0.54846609 0
0.006438212 0.074661553 0.055167608 -0.33897066 0.54846609 0
0.0046465648 0.072772697 0.055212438 -0.33897066 0.54846609 0
0.003055901 0.070595816 0.055291358 -0.33897066 0.54846609 0
0.0017127644 0.068057142 0.055412568 -0.33897066 0.54846609 0
0.00067854166 0.06505917 0.055586901 -0.33897066 0.54846609 0
7.6549986e-05 0.061411891 0.055835653 -0.33897066 0.54846609 0
0.00034211646 0.056465939 0.056232393 -0.33897066 0.54846609 0
0.030716527 0.076858953 0.053743806 -0.33897066 0.54846609 0
0.025595983 0.079188317 0.05329657 -0.33897066 0.54846609 0
0.021779681 0.079894893 0.053037047 -0.33897066 0.54846609 0
0.018510113 0.079926416 0.052856423 -0.33897066 0.54846609 0
0.01562033 0.079484701 0.052731209 -0.33897066 0.54846609 0
0.01299304 0.078712881 0.052644812 -0.33897066 0.54846609 0
0.010594103 0.077647522 0.052592769 -0.33897066 0.54846609 0
0.0084209703 0.076283701 0.052575294 -0.33897066 0.54846609 0
0.006438212 0.074661553 0.052587599 -0.33897066 0.54846609 0
0.0046465648 0.072772697 0.052630331 -0.33897066 0.54846609 0
0.003055901 0.070595816 0.052705564 -0.33897066 0.54846609 0
0.0017127644 0.068057142 0.052821103 -0.33897066 0.54846609 0
0.00067854166 0.06505917 0.052987281 -0.33897066 0.54846609 0
7.6549986e-05 0.061411891 0.053224403 -0.33897066 0.54846609 0
0.00034211646 0.056465939 0.053602587 -0.33897066 0.54846609 0
0.030716527 0.076858953 0.051109135 -0.33897066 0.54846609 0
0.025595983 0.079188317 0.050683822 -0.33897066 0.54846609 0
0.021779681 0.079894893 0.050437022 -0.33897066 0.54846609 0
0.018510113 0.079926416 0.050265253 -0.33897066 0.54846609 0
0.01562033 0.079484701 0.050146177 -0.33897066 0.54846609 0
0.01299304 0.078712881 0.050064016 -0.33897066 0.54846609 0
0.010594103 0.077647522 0.050014526 -0.33897066 0.54846609 0
0.0084209703 0.076283701 0.049997907 -0.33897066 0.54846609 0
0.006438212 0.074661553 0.050009608 -0.33897066 0.54846609 0
0.0046465648 0.072772697 0.050050247 -0.33897066 0.54846609 0
0.003055901 0.070595816 0.050121792 -0.33897066 0.54846609 0
0.0017127644 0.068057142 0.050231669 -0.33897066 0.54846609 0
0.00067854166 0.06505917 0.050389696 -0.33897066 0.54846609 0
7.6549986e-05 0.061411891 0.050615195 -0.33897066 0.54846609 0
0.00034211646 0.056465939 0.050974838 -0.33897066 0.54846609 0
0.030716527 0.076858953 0.048476424 -0.33897066 0.54846609 0
0.025595983 0.079188317 0.04807302 -0.33897066 0.54846609 0
0.021779681 0.079894893 0.047838934 -0.33897066 0.54846609 0
0.018510113 0.079926416 0.047676012 -0.33897066 0.54846609 0
0.01562033 0.079484701 0.047563069 -0.33897066 0.54846609 0
0.01299304 0.078712881 0.047485143 -0.33897066 0.54846609 0
0.010594103 0.077647522 0.047438201 -0.33897066 0.54846609 0
0.0084209703 0.076283701 0.047422435 -0.33897066 0.54846609 0
0.006438212 0.074661553 0.047433536 -0.33897066 0.54846609 0
0.0046465648 0.072772697 0.047472082 -0.33897066 0.54846609 0
0.003055901 0.070595816 0.047539938 -0.33897066 0.54846609 0
0.0017127644 0.068057142 0.047644157 -0.33897066 0.54846609 0
0.00067854166 0.06505917 0.047794048 -0.33897066 0.54846609 0
7.6549986e-05 0.061411891 0.048007928 -0.33897066 0.54846609 0
0.00034211646 0.056465939 0.048349045 -0.33897066 0.54846609 0
0.030716527 0.076858953 0.045845572 -0.33897066 0.54846609 0
0.025595983 0.079188317 0.045464061 -0.33897066 0.54846609 0
0.021779681 0.079894893 0.045242678 -0.33897066 0.54846609 0
0.018510113 0.079926416 0.045088597 -0.33897066 0.54846609 0
0.01562033 0.079484701 0.044981785 -0.33897066 0.54846609 0
0.01299304 0.078712881 0.044908088 -0.33897066 0.54846609 0
0.010594103 0.077647522 0.044863693 -0.33897066 0.54846609 0
0.0084209703 0.076283701 0.044848785 -0.33897066 0.54846609 0
0.006438212 0.074661553 0.044859283 -0.33897066 0.54846609 0
0.0046465648 0.072772697 0.044895735 -0.33897066 0.54846609 0
0.003055901 0.070595816 0.04495991 -0.33897066 0.54846609 0
0.0017127644 0.068057142 0.04505847 -0.33897066 0.54846609 0
0.00067854166 0.06505917 0.045200225 -0.33897066 0.54846609 0
7.6549986e-05 0.061411891 0.045402501 -0.33897066 0.54846609 0
0.00034211646 0.056465939 0.045725107 -0.33897066 0.54846609 0
0.030716527 0.076858953 0.043216474 -0.33897066 0.54846609 0
0.025595983 0.079188317 0.042856842 -0.33897066 0.54846609 0
0.021779681 0.079894893 0.042648155 -0.33897066 0.54846609 0
0.018510113 0.079926416 0.04250291 -0.33897066 0.54846609 0
0.01562033 0.079484701 0.042402223 -0.33897066 0.54846609 0
0.01299304 0.078712881 0.042332754 -0.33897066 0.54846609 0
0.010594103 0.077647522 0.042290904 -0.33897066 0.54846609 0
0.0084209703 0.076283701 0.042276852 -0.33897066 0.54846609 0
0.006438212 0.074661553 0.042286746 -0.33897066 0.54846609 0
0.0046465648 0.072772697 0.042321108 -0.33897066 0.54846609 0
0.003055901 0.070595816 0.042381603 -0.33897066 0.54846609 0
0.0017127644 0.068057142 0.042474512 -0.33897066 0.54846609 0
0.00067854166 0.06505917 0.042608138 -0.33897066 0.54846609 0
7.6549986e-05 0.061411891 0.042798813 -0.33897066 0.54846609 0
0.00034211646 0.056465939 0.043102916 -0.33897066 0.54846609 0
0.030716527 0.076858953 0.040589031 -0.33897066 0.54846609 0
0.025595983 0.079188317 0.040251262 -0.33897066 0.54846609 0
0.021779681 0.079894893 0.040055264 -0.33897066 0.54846609 0
0.018453972 0.079999998 0.039912581 -0.33897066 0.54846609 0
0.015230719 0.079999998 0.039780527 -0.33897066 0.54846609 0
0.012028664 0.079999998 0.039650097 -0.33897066 0.54846609 0
0.0088474778 0.079999998 0.03952127 -0.33897066 0.54846609 0
0.032093521 0.044107448 0.042412285 -0.33897066 0.54846609 0
0.002546422 0.079999998 0.039268341 -0.33897066 0.54846609 0
0 0.079205267 0.039210606 -0.33897066 0.54846609 0
0 0.074865438 0.039449275 -0.33897066 0.54846609 0
0 0.070472367 0.039691623 -0.33897066 0.54846609 0
0 0.066024907 0.039937735 -0.33897066 0.54846609 0
7.6549986e-05 0.061411891 0.040196761 -0.33897066 0.54846609 0
0.00034211646 0.056465939 0.040482379 -0.33897066 0.54846609 0
0.038257845 0.079999998 0.038104542 -0.33897066 0.54846609 0
0.034900147 0.079999998 0.037971489 -0.33897066 0.54846609 0
0.031565756 0.079999998 0.037840083 -0.33897066 0.54846609 0
0.028254297 0.079999998 0.037710294 -0.33897066 0.54846609 0
0.024965417 0.079999998 0.037582111 -0.33897066 0.54846609 0
0.021698758 0.079999998 0.037455503 -0.33897066 0.54846609 0
0.039999999 0.051760245 0.039580785 -0.33897066 0.54846609 0
0.015230719 0.079999998 0.037206944 -0.33897066 0.54846609 0
0.012028664 0.079999998 0.037084952 -0.33897066 0.54846609 0
0.0088474778 0.079999998 0.036964461 -0.33897066 0.54846609 0
0.0056868359 0.079999998 0.036845446 -0.33897066 0.54846609 0
0.002546422 0.079999998 0.036727894 -0.33897066 0.54846609 0
0 0.079205267 0.036673892 -0.33897066 0.54846609 0
0 0.074865438 0.036897119 -0.33897066 0.54846609 0
0 0.070472367 0.037123792 -0.33897066 0.54846609 0
0 0.066024907 0.037353981 -0.33897066 0.54846609 0
0 0.061521858 0.037587762 -0.33897066 0.54846609 0
0 0.056962006 0.037825212 -0.33897066 0.54846609 0
0 0.052344084 0.03806641 -0.33897066 0.54846609 0
0 0.047666803 0.03831144 -0.33897066 0.54846609 0
0 0.042928826 0.038560383 -0.33897066 0.54846609 0
0 0.038128782 0.038813327 -0.33897066 0.54846609 0
0 0.033265255 0.039070357 -0.33897066 0.54846609 0
0 0.028336788 0.03933157 -0.33897066 0.54846609 0
0 0.023341881 0.039597061 -0.33897066 0.54846609 0
0 0.018278988 0.039866921 -0.33897066 0.54846609 0
0.038257845 0.079999998 0.035470329 -0.33897066 0.54846609 0
0.034900147 0.079999998 0.035346474 -0.33897066 0.54846609 0
0.031565756 0.079999998 0.035224151 -0.33897066 0.54846609 0
0.028254297 0.079999998 0.035103336 -0.33897066 0.54846609 0
0.024965417 0.079999998 0.034984011 -0.33897066 0.54846609 0
0.021698758 0.079999998 0.034866158 -0.33897066 0.54846609 0
0.018453972 0.079999998 0.034749754 -0.33897066 0.54846609 0
0.015230719 0.079999998 0.034634784 -0.33897066 0.54846609 0
0.039999999 0.042667672 0.037272241 -0.33897066 0.54846609 0
0.0088474778 0.079999998 0.034409061 -0.33897066 0.54846609 0
0.0056868359 0.079999998 0.034298275 -0.33897066 0.54846609 0
0.002546422 0.079999998 0.034188848 -0.33897066 0.54846609 0
0 0.079205267 0.034138583 -0.33897066 0.54846609 0
0 0.074865438 0.034346376 -0.33897066 0.54846609 0
0 0.070472367 0.034557376 -0.33897066 0.54846609 0
0 0.066024907 0.034771655 -0.33897066 0.54846609 0
0 0.061521858 0.034989271 -0.33897066 0.54846609 0
0 0.056962006 0.035210308 -0.33897066 0.54846609 0
0 0.052344084 0.035434835 -0.33897066 0.54846609 0
0 0.047666803 0.035662923 -0.33897066 0.54846609 0
0 0.042928826 0.035894655 -0.33897066 0.54846609 0
0 0.038128782 0.036130112 -0.33897066 0.54846609 0
0 0.033265255 0.036369376 -0.33897066 0.54846609 0
0 0.028336788 0.036612533 -0.33897066 0.54846609 0
0 0.023341881 0.036859665 -0.33897066 0.54846609 0
0 0.018278988 0.037110873 -0.33897066 0.54846609 0
0 0.013146515 0.037366241 -0.33897066 0.54846609 0
0 0.0079428172 0.037625868 -0.33897066 0.54846609 0
0 0.0026661986 0.037889857 -0.33897066 0.54846609 0
0.038257845 0.079999998 0.032837469 -0.33897066 0.54846609 0
0.034900147 0.079999998 0.032722808 -0.33897066 0.54846609 0
0.039999999 0.069336653 0.033351831 -0.33897066 0.54846609 0
0.028254297 0.079999998 0.032497719 -0.33897066 0.54846609 0
0.024965417 0.079999998 0.032387253 -0.33897066 0.54846609 0
0.021698758 0.079999998 0.032278147 -0.33897066 0.54846609 0
0.018453972 0.079999998 0.032170381 -0.33897066 0.54846609 0
0.015230719 0.079999998 0.032063942 -0.33897066 0.54846609 0
0.012028664 0.079999998 0.031958815 -0.33897066 0.54846609 0
0.039999999 0.038041577 0.034708086 -0.33897066 0.54846609 0
0.0056868359 0.079999998 0.031752415 -0.33897066 0.54846609 0
0.002546422 0.079999998 0.031651109 -0.33897066 0.54846609 0
0 0.079205267 0.031604577 -0.33897066 0.54846609 0
0 0.074865438 0.031796947 -0.33897066 0.54846609 0
0 0.070472367 0.031992286 -0.33897066 0.54846609 0
0 0.066024907 0.032190654 -0.33897066 0.54846609 0
0 0.061521858 0.032392122 -0.33897066 0.54846609 0
0 0.056962006 0.032596752 -0.33897066 0.54846609 0
0 0.052344084 0.032804608 -0.33897066 0.54846609 0
0 0.047666803 0.033015769 -0.33897066 0.54846609 0
0 0.042928826 0.033230301 -0.33897066 0.54846609 0
0 0.038128782 0.033448279 -0.33897066 0.54846609 0
0 0.033265255 0.033669785 -0.33897066 0.54846609 0
0 0.028336788 0.033894889 -0.33897066 0.54846609 0
0 0.023341881 0.034123681 -0.33897066 0.54846609 0
0 0.018278988 0.03435624 -0.33897066 0.54846609 0
0 0.013146515 0.034592655 -0.33897066 0.54846609 0
0 0.0079428172 0.03483301 -0.33897066 0.54846609 0
0 0.0026661986 0.035077404 -0.33897066 0.54846609 0
0.038257845 0.079999998 0.030205866 -0.33897066 0.54846609 0
0.039999999 0.073609799 0.030510984 -0.33897066 0.54846609 0
0.031565756 0.079999998 0.029996226 -0.33897066 0.54846609 0
0.028254297 0.079999998 0.029893342 -0.33897066 0.54846609 0
0.024965417 0.079999998 0.029791728 -0.33897066 0.54846609 0
0.021698758 0.079999998 0.029691365 -0.33897066 0.54846609 0
0.018453972 0.079999998 0.029592238 -0.33897066 0.54846609 0
0.039999999 0.047240194 0.031556867 -0.33897066 0.54846609 0
0.012028664 0.079999998 0.029397625 -0.33897066 0.54846609 0
0.0088474778 0.079999998 0.029302109 -0.33897066 0.54846609 0
0.039999999 0.03336079 0.032115612 -0.33897066 0.54846609 0
0.002546422 0.079999998 0.029114582 -0.33897066 0.54846609 0
0 0.079205267 0.029071776 -0.33897066 0.54846609 0
0 0.074865438 0.029248729 -0.33897066 0.54846609 0
0 0.070472367 0.029428413 -0.33897066 0.54846609 0
0 0.066024907 0.029610887 -0.33897066 0.54846609 0
0 0.061521858 0.029796207 -0.33897066 0.54846609 0
0 0.056962006 0.029984437 -0.33897066 0.54846609 0
0 0.052344084 0.030175639 -0.33897066 0.54846609 0
0 0.047666803 0.030369876 -0.33897066 0.54846609 0
0 0.042928826 0.030567216 -0.33897066 0.54846609 0
0 0.038128782 0.030767726 -0.33897066 0.54846609 0
0 0.033265255 0.030971479 -0.33897066 0.54846609 0
0 0.028336788 0.031178543 -0.33897066 0.54846609 0
0 0.023341881 0.031388998 -0.33897066 0.54846609 0
0 0.018278988 0.031602919 -0.33897066 0.54846609 0
0 0.013146515 0.031820387 -0.33897066 0.54846609 0
0 0.0079428172 0.032041483 -0.33897066 0.54846609 0
0 0.0026661986 0.032266289 -0.33897066 0.54846609 0
0.038257845 0.079999998 0.027575415 -0.33897066 0.54846609 0
0.039999999 0.073609799 0.027853962 -0.33897066 0.54846609 0
0.031565756 0.079999998 0.02738403 -0.33897066 0.54846609 0
0.028254297 0.079999998 0.027290106 -0.33897066 0.54846609 0
0.024965417 0.079999998 0.027197341 -0.33897066 0.54846609 0
0.021698758 0.079999998 0.027105719 -0.33897066 0.54846609 0
0.018453972 0.079999998 0.027015224 -0.33897066 0.54846609 0
0.015230719 0.079999998 0.026925841 -0.33897066 0.54846609 0
0.012028664 0.079999998 0.026837559 -0.33897066 0.54846609 0
0.039999999 0.038041577 0.029146273 -0.33897066 0.54846609 0
0.0056868359 0.079999998 0.026664235 -0.33897066 0.54846609 0
0.002546422 0.079999998 0.026579164 -0.33897066 0.54846609 0
0 0.079205267 0.026540086 -0.33897066 0.54846609 0
0 0.074865438 0.026701629 -0.33897066 0.54846609 0
0 0.070472367 0.026865667 -0.33897066 0.54846609 0
0 0.066024907 0.027032249 -0.33897066 0.54846609 0
0 0.061521858 0.027201431 -0.33897066 0.54846609 0
0 0.056962006 0.027373269 -0.33897066 0.54846609 0
0 0.052344084 0.02754782 -0.33897066 0.54846609 0
0 0.047666803 0.027725141 -0.33897066 0.54846609 0
0 0.042928826 0.027905297 -0.33897066 0.54846609 0
0 0.038128782 0.028088346 -0.33897066 0.54846609 0
0 0.033265255 0.028274354 -0.33897066 0.54846609 0
0 0.028336788 0.028463388 -0.33897066 0.54846609 0
0 0.023341881 0.028655516 -0.33897066 0.54846609 0
0 0.018278988 0.028850809 -0.33897066 0.54846609 0
0 0.013146515 0.029049337 -0.33897066 0.54846609 0
0 0.0079428172 0.029251179 -0.33897066 0.54846609 0
0 0.0026661986 0.029456409 -0.33897066 0.54846609 0
0.039999999 0.077836484 0.025061224 -0.33897066 0.54846609 0
0.034900147 0.079999998 0.024858909 -0.33897066 0.54846609 0
0.031565756 0.079999998 0.024772881 -0.33897066 0.54846609 0
0.028254297 0.079999998 0.024687912 -0.33897066 0.54846609 0
0.024965417 0.079999998 0.024603993 -0.33897066 0.54846609 0
0.039999999 0.056228891 0.025765367 -0.33897066 0.54846609 0
0.018453972 0.079999998 0.02443924 -0.33897066 0.54846609 0
0.039999999 0.047240194 0.026061762 -0.33897066 0.54846609 0
0.012028664 0.079999998 0.024278518 -0.33897066 0.54846609 0
0.0088474778 0.079999998 0.024199633 -0.33897066 0.54846609 0
0.0056868359 0.079999998 0.024121718 -0.33897066 0.54846609 0
0.002546422 0.079999998 0.02404476 -0.33897066 0.54846609 0
0 0.079205267 0.024009408 -0.33897066 0.54846609 0
0 0.074865438 0.024155548 -0.33897066 0.54846609 0
0 0.070472367 0.024303943 -0.33897066 0.54846609 0
0 0.066024907 0.024454642 -0.33897066 0.54846609 0
0 0.061521858 0.024607692 -0.33897066 0.54846609 0
0 0.056962006 0.024763145 -0.33897066 0.54846609 0
0 0.052344084 0.024921052 -0.33897066 0.54846609 0
0 0.047666803 0.025081465 -0.33897066 0.54846609 0
0 0.042928826 0.025244441 -0.33897066 0.54846609 0
0 0.038128782 0.025410036 -0.33897066 0.54846609 0
0 0.033265255 0.025578309 -0.33897066 0.54846609 0
0 0.028336788 0.025749318 -0.33897066 0.54846609 0
0 0.023341881 0.025923125 -0.33897066 0.54846609 0
0 0.018278988 0.026099795 -0.33897066 0.54846609 0
0 0.013146515 0.026279395 -0.33897066 0.54846609 0
0 0.0079428172 0.026461991 -0.33897066 0.54846609 0
0 0.0026661986 0.026647652 -0.33897066 0.54846609 0
0.038257845 0.079999998 0.022317568 -0.33897066 0.54846609 0
0.034900147 0.079999998 0.02223964 -0.33897066 0.54846609 0
0.031565756 0.079999998 0.022162674 -0.33897066 0.54846609 0
0.028254297 0.079999998 0.022086659 -0.33897066 0.54846609 0
0.024965417 0.079999998 0.022011582 -0.33897066 0.54846609 0
0.021698758 0.079999998 0.02193743 -0.33897066 0.54846609 0
0.018453972 0.079999998 0.021864189 -0.33897066 0.54846609 0
0.039999999 0.047240194 0.023315754 -0.33897066 0.54846609 0
0.012028664 0.079999998 0.0217204 -0.33897066 0.54846609 0
0.0088474778 0.079999998 0.021649828 -0.33897066 0.54846609 0
0.002546422 0.079999998 0.021511273 -0.33897066 0.54846609 0
0 0.079205267 0.021479646 -0.33897066 0.54846609 0
5.5511151e-17 0.074865438 0.021610389 -0.33897066 0.54846609 0
0 0.070472367 0.021743149 -0.33897066 0.54846609 0
0 0.066024907 0.021877969 -0.33897066 0.54846609 0
0 0.061521858 0.022014892 -0.33897066 0.54846609 0
0 0.056962006 0.022153966 -0.33897066 0.54846609 0
0 0.052344084 0.022295235 -0.33897066 0.54846609 0
0 0.047666803 0.022438746 -0.33897066 0.54846609 0
0 0.042928826 0.02258455 -0.33897066 0.54846609 0
0 0.038128782 0.022732697 -0.33897066 0.54846609 0
0 0.033265255 0.022883238 -0.33897066 0.54846609 0
0 0.028336788 0.02303623 -0.33897066 0.54846609 0
0 0.023341881 0.023191724 -0.33897066 0.54846609 0
0 0.018278988 0.023349781 -0.33897066 0.54846609 0
0 0.013146515 0.023510456 -0.33897066 0.54846609 0
0 0.0079428172 0.023673812 -0.33897066 0.54846609 0
0 0.0026661986 0.02383991 -0.33897066 0.54846609 0
0.038257845 0.079999998 0.01968997 -0.33897066 0.54846609 0
0.034900147 0.079999998 0.019621218 -0.33897066 0.54846609 0
0.031565756 0.079999998 0.019553315 -0.33897066 0.54846609 0
0.028254297 0.079999998 0.019486248 -0.33897066 0.54846609 0
0.024965417 0.079999998 0.019420011 -0.33897066 0.54846609 0
0.021698758 0.079999998 0.019354589 -0.33897066 0.54846609 0
0.018453972 0.079999998 0.019289972 -0.33897066 0.54846609 0
0.039999999 0.047240194 0.020570634 -0.33897066 0.54846609 0
0.012028664 0.079999998 0.019163113 -0.33897066 0.54846609 0
0.039999999 0.038041577 0.020811627 -0.33897066 0.54846609 0
0.0056868359 0.079999998 0.019039351 -0.33897066 0.54846609 0
0.002546422 0.079999998 0.018978607 -0.33897066 0.54846609 0
0 0.079205267 0.018950704 -0.33897066 0.54846609 0
0 0.074865438 0.019066053 -0.33897066 0.54846609 0
0 0.070472367 0.019183181 -0.33897066 0.54846609 0
0 0.066024907 0.019302128 -0.33897066 0.54846609 0
0 0.061521858 0.019422932 -0.33897066 0.54846609 0
0 0.056962006 0.01954563 -0.33897066 0.54846609 0
0 0.052344084 0.019670267 -0.33897066 0.54846609 0
0 0.047666803 0.019796882 -0.33897066 0.54846609 0
0 0.042928826 0.01992552 -0.33897066 0.54846609 0
0 0.038128782 0.020056223 -0.33897066 0.54846609 0
0 0.033265255 0.020189041 -0.33897066 0.54846609 0
0 0.028336788 0.02032402 -0.33897066 0.54846609 0
0 0.023341881 0.020461207 -0.33897066 0.54846609 0
0 0.018278988 0.020600654 -0.33897066 0.54846609 0
0 0.013146515 0.020742413 -0.33897066 0.54846609 0
0 0.0079428172 0.020886535 -0.33897066 0.54846609 0
0 0.0026661986 0.021033078 -0.33897066 0.54846609 0
0.038257845 0.079999998 0.017063124 -0.33897066 0.54846609 0
0.034900147 0.079999998 0.017003544 -0.33897066 0.54846609 0
0.031565756 0.079999998 0.016944699 -0.33897066 0.54846609 0
0.028254297 0.079999998 0.016886583 -0.33897066 0.54846609 0
0.039999999 0.060647171 0.017524412 -0.33897066 0.54846609 0
0.021698758 0.079999998 0.016772486 -0.33897066 0.54846609 0
0.039999999 0.051760245 0.017724182 -0.33897066 0.54846609 0
0.015230719 0.079999998 0.016661182 -0.33897066 0.54846609 0
0.012028664 0.079999998 0.016606554 -0.33897066 0.54846609 0
0.0088474778 0.079999998 0.016552597 -0.33897066 0.54846609 0
0.039999999 0.03336079 0.018141929 -0.33897066 0.54846609 0
0.002546422 0.079999998 0.016446665 -0.33897066 0.54846609 0
0 0.079205267 0.016422484 -0.33897066 0.54846609 0
0 0.074865438 0.016522443 -0.33897066 0.54846609 0
0 0.070472367 0.016623946 -0.33897066 0.54846609 0
0 0.066024907 0.016727025 -0.33897066 0.54846609 0
0 0.061521858 0.016831711 -0.33897066 0.54846609 0
0 0.056962006 0.01693804 -0.33897066 0.54846609 0
0 0.052344084 0.017046049 -0.33897066 0.54846609 0
0 0.047666803 0.017155772 -0.33897066 0.54846609 0
0 0.042928826 0.01726725 -0.33897066 0.54846609 0
0 0.038128782 0.017380517 -0.33897066 0.54846609 0
0 0.033265255 0.017495615 -0.33897066 0.54846609 0
0 0.028336788 0.017612586 -0.33897066 0.54846609 0
0 0.023341881 0.017731469 -0.33897066 0.54846609 0
0 0.018278988 0.017852314 -0.33897066 0.54846609 0
0 0.013146515 0.017975159 -0.33897066 0.54846609 0
0 0.0079428172 0.018100055 -0.33897066 0.54846609 0
0 0.0026661986 0.018227046 -0.33897066 0.54846609 0
0.038257845 0.079999998 0.014436929 -0.33897066 0.54846609 0
0.034900147 0.079999998 0.014386518 -0.33897066 0.54846609 0
0.031565756 0.079999998 0.01433673 -0.33897066 0.54846609 0
0.028254297 0.079999998 0.014287557 -0.33897066 0.54846609 0
0.024965417 0.079999998 0.014238991 -0.33897066 0.54846609 0
0.021698758 0.079999998 0.014191022 -0.33897066 0.54846609 0
0.039999999 0.051760245 0.014996242 -0.33897066 0.54846609 0
0.015230719 0.079999998 0.01409685 -0.33897066 0.54846609 0
0.012028664 0.079999998 0.01405063 -0.33897066 0.54846609 0
0.0088474778 0.079999998 0.014004977 -0.33897066 0.54846609 0
0.039999999 0.03336079 0.015349695 -0.33897066 0.54846609 0
0.002546422 0.079999998 0.013915348 -0.33897066 0.54846609 0
0 0.079205267 0.013894889 -0.33897066 0.54846609 0
0 0.074865438 0.013979464 -0.33897066 0.54846609 0
0 0.070472367 0.014065345 -0.33897066 0.54846609 0
0 0.066024907 0.014152558 -0.33897066 0.54846609 0
0.039999999 0.004060342 0.015921647 -0.33897066 0.54846609 0
0 0.056962006 0.014331097 -0.33897066 0.54846609 0
0 0.052344084 0.014422482 -0.33897066 0.54846609 0
0 0.047666803 0.014515317 -0.33897066 0.54846609 0
0 0.042928826 0.014609636 -0.33897066 0.54846609 0
0 0.038128782 0.01470547 -0.33897066 0.54846609 0
0 0.033265255 0.014802854 -0.33897066 0.54846609 0
0 0.028336788 0.014901822 -0.33897066 0.54846609 0
0 0.023341881 0.015002409 -0.33897066 0.54846609 0
0 0.018278988 0.015104652 -0.33897066 0.54846609 0
0 0.013146515 0.015208592 -0.33897066 0.54846609 0
0 0.0079428172 0.015314264 -0.33897066 0.54846609 0
0 0.0026661986 0.015421711 -0.33897066 0.54846609 0
0.039999999 0.077836484 0.011865831 -0.33897066 0.54846609 0
0.039999999 0.073609799 0.011930591 -0.33897066 0.54846609 0
0.031565756 0.079999998 0.011729307 -0.33897066 0.54846609 0
0.028254297 0.079999998 0.011689078 -0.33897066 0.54846609 0
0.024965417 0.079999998 0.011649344 -0.33897066 0.54846609 0
0.021698758 0.079999998 0.011610099 -0.33897066 0.54846609 0
0.018453972 0.079999998 0.011571338 -0.33897066 0.54846609 0
0.015230719 0.079999998 0.011533054 -0.33897066 0.54846609 0
0.012028664 0.079999998 0.01149524 -0.33897066 0.54846609 0
0.0088474778 0.079999998 0.01145789 -0.33897066 0.54846609 0
0.0056868359 0.079999998 0.011421 -0.33897066 0.54846609 0
0.002546422 0.079999998 0.011384563 -0.33897066 0.54846609 0
0 0.079205267 0.011367824 -0.33897066 0.54846609 0
0 0.074865438 0.011437017 -0.33897066 0.54846609 0
0 0.070472367 0.011507278 -0.33897066 0.54846609 0
0 0.066024907 0.011578631 -0.33897066 0.54846609 0
0 0.061521858 0.011651096 -0.33897066 0.54846609 0
0 0.056962006 0.011724698 -0.33897066 0.54846609 0
0 0.052344084 0.011799463 -0.33897066 0.54846609 0
0 0.047666803 0.011875415 -0.33897066 0.54846609 0
0 0.042928826 0.01195258 -0.33897066 0.54846609 0
0 0.038128782 0.012030984 -0.33897066 0.54846609 0
0 0.033265255 0.012110657 -0.33897066 0.54846609 0
0 0.028336788 0.012191625 -0.33897066 0.54846609 0
0 0.023341881 0.012273919 -0.33897066 0.54846609 0
0 0.018278988 0.012357567 -0.33897066 0.54846609 0
0 0.013146515 0.012442603 -0.33897066 0.54846609 0
0 0.0079428172 0.012529057 -0.33897066 0.54846609 0
0 0.0026661986 0.012616963 -0.33897066 0.54846609 0
0.038257845 0.079999998 0.0091860872 -0.33897066 0.54846609 0
0.034900147 0.079999998 0.0091540115 -0.33897066 0.54846609 0
0.031565756 0.079999998 0.0091223316 -0.33897066 0.54846609 0
0.028254297 0.079999998 0.0090910429 -0.33897066 0.54846609 0
0.039999999 0.060647171 0.0094344243 -0.33897066 0.54846609 0
0.021698758 0.079999998 0.0090296194 -0.33897066 0.54846609 0
0.018453972 0.079999998 0.0089994725 -0.33897066 0.54846609 0
0.015230719 0.079999998 0.0089696972 -0.33897066 0.54846609 0
0.012028664 0.079999998 0.0089402879 -0.33897066 0.54846609 0
0.0088474778 0.079999998 0.0089112399 -0.33897066 0.54846609 0
0.0056868359 0.079999998 0.0088825487 -0.33897066 0.54846609 0
0.002546422 0.079999998 0.0088542094 -0.33897066 0.54846609 0
0 0.079205267 0.0088411914 -0.33897066 0.54846609 0
0 0.074865438 0.008895006 -0.33897066 0.54846609 0
0 0.070472367 0.0089496514 -0.33897066 0.54846609 0
0 0.066024907 0.0090051442 -0.33897066 0.54846609 0
0 0.061521858 0.0090615032 -0.33897066 0.54846609 0
0 0.056962006 0.009118747 -0.33897066 0.54846609 0
0 0.052344084 0.0091768941 -0.33897066 0.54846609 0
0 0.047666803 0.0092359651 -0.33897066 0.54846609 0
0 0.042928826 0.0092959786 -0.33897066 0.54846609 0
0 0.038128782 0.0093569579 -0.33897066 0.54846609 0
0 0.033265255 0.0094189215 -0.33897066 0.54846609 0
0 0.028336788 0.0094818939 -0.33897066 0.54846609 0
0 0.023341881 0.0095458962 -0.33897066 0.54846609 0
0 0.018278988 0.0096109537 -0.33897066 0.54846609 0
0 0.013146515 0.0096770888 -0.33897066 0.54846609 0
0 0.0079428172 0.0097443275 -0.33897066 0.54846609 0
0 0.0026661986 0.009812695 -0.33897066 0.54846609 0
0.038257845 0.079999998 0.0065612406 -0.33897066 0.54846609 0
0.034900147 0.079999998 0.0065383306 -0.33897066 0.54846609 0
0.031565756 0.079999998 0.0065157032 -0.33897066 0.54846609 0
0.028254297 0.079999998 0.0064933551 -0.33897066 0.54846609 0
0.024965417 0.079999998 0.0064712828 -0.33897066 0.54846609 0
0.021698758 0.079999998 0.0064494824 -0.33897066 0.54846609 0
0.018453972 0.079999998 0.0064279502 -0.33897066 0.54846609 0
0.015230719 0.079999998 0.006406683 -0.33897066 0.54846609 0
0.012028664 0.079999998 0.006385677 -0.33897066 0.54846609 0
0.0088474778 0.079999998 0.006364929 -0.33897066 0.54846609 0
0.039999999 0.03336079 0.0069760708 -0.33897066 0.54846609 0
0.002546422 0.079999998 0.0063241948 -0.33897066 0.54846609 0
0 0.079205267 0.0063148965 -0.33897066 0.54846609 0
0 0.074865438 0.0063533341 -0.33897066 0.54846609 0
0 0.070472367 0.0063923644 -0.33897066 0.54846609 0
0 0.066024907 0.006432001 -0.33897066 0.54846609 0
0 0.061521858 0.006472256 -0.33897066 0.54846609 0
0 0.056962006 0.0065131425 -0.33897066 0.54846609 0
0 0.052344084 0.0065546748 -0.33897066 0.54846609 0
0 0.047666803 0.0065968665 -0.33897066 0.54846609 0
0 0.042928826 0.006639732 -0.33897066 0.54846609 0
0 0.038128782 0.0066832863 -0.33897066 0.54846609 0
0 0.033265255 0.0067275451 -0.33897066 0.54846609 0
0 0.028336788 0.0067725233 -0.33897066 0.54846609 0
0 0.023341881 0.0068182377 -0.33897066 0.54846609 0
0 0.018278988 0.0068647056 -0.33897066 0.54846609 0
0 0.013146515 0.0069119432 -0.33897066 0.54846609 0
0 0.0079428172 0.0069599687 -0.33897066 0.54846609 0
0 0.0026661986 0.0070088007 -0.33897066 0.54846609 0
0.038257845 0.079999998 0.0039366446 -0.33897066 0.54846609 0
0.034900147 0.079999998 0.0039228988 -0.33897066 0.54846609 0
0.031565756 0.079999998 0.0039093224 -0.33897066 0.54846609 0
0.028254297 0.079999998 0.0038959142 -0.33897066 0.54846609 0
0.024965417 0.079999998 0.003882671 -0.33897066 0.54846609 0
0.021698758 0.079999998 0.003869591 -0.33897066 0.54846609 0
0.039999999 0.051760245 0.0040891576 -0.33897066 0.54846609 0
0.015230719 0.079999998 0.0038439122 -0.33897066 0.54846609 0
0.012028664 0.079999998 0.0038313088 -0.33897066 0.54846609 0
0.039999999 0.038041577 0.0041608987 -0.33897066 0.54846609 0
0.0056868359 0.079999998 0.0038065652 -0.33897066 0.54846609 0
0.002546422 0.079999998 0.0037944205 -0.33897066 0.54846609 0
0 0.079205267 0.0037888417 -0.33897066 0.54846609 0
0 0.074865438 0.0038119035 -0.33897066 0.54846609 0
0 0.070472367 0.0038353214 -0.33897066 0.54846609 0
0 0.066024907 0.0038591025 -0.33897066 0.54846609 0
0 0.061521858 0.0038832549 -0.33897066 0.54846609 0
0 0.056962006 0.0039077862 -0.33897066 0.54846609 0
0 0.052344084 0.0039327051 -0.33897066 0.54846609 0
0 0.047666803 0.0039580194 -0.33897066 0.54846609 0
0 0.042928826 0.0039837384 -0.33897066 0.54846609 0
0 0.038128782 0.0040098699 -0.33897066 0.54846609 0
0 0.033265255 0.0040364247 -0.33897066 0.54846609 0
0 0.028336788 0.0040634107 -0.33897066 0.54846609 0
0 0.023341881 0.0040908391 -0.33897066 0.54846609 0
0 0.018278988 0.0041187187 -0.33897066 0.54846609 0
0 0.013146515 0.0041470607 -0.33897066 0.54846609 0
0 0.0079428172 0.0041758753 -0.33897066 0.54846609 0
0 0.0026661986 0.0042051738 -0.33897066 0.54846609 0
0.038257845 0.079999998 0.0013121981 -0.33897066 0.54846609 0
0.034900147 0.079999998 0.0013076162 -0.33897066 0.54846609 0
0.031565756 0.079999998 0.0013030909 -0.33897066 0.54846609 0
0.028254297 0.079999998 0.0012986215 -0.33897066 0.54846609 0
0.024965417 0.079999998 0.0012942073 -0.33897066 0.54846609 0
0.021698758 0.079999998 0.0012898473 -0.33897066 0.54846609 0
0.039999999 0.051760245 0.0013630352 -0.33897066 0.54846609 0
0.015230719 0.079999998 0.0012812878 -0.33897066 0.54846609 0
0.012028664 0.079999998 0.0012770868 -0.33897066 0.54846609 0
0.0088474778 0.079999998 0.0012729374 -0.33897066 0.54846609 0
0.0056868359 0.079999998 0.0012688389 -0.33897066 0.54846609 0
0.002546422 0.079999998 0.0012647908 -0.33897066 0.54846609 0
0 0.079205267 0.0012629313 -0.33897066 0.54846609 0
0 0.074865438 0.0012706184 -0.33897066 0.54846609 0
0 0.070472367 0.0012784243 -0.33897066 0.54846609 0
0 0.066024907 0.0012863512 -0.33897066 0.54846609 0
0 0.061521858 0.0012944018 -0.33897066 0.54846609 0
0 0.056962006 0.001302579 -0.33897066 0.54846609 0
0 0.052344084 0.0013108851 -0.33897066 0.54846609 0
0 0.047666803 0.0013193231 -0.33897066 0.54846609 0
0 0.042928826 0.0013278959 -0.33897066 0.54846609 0
0 0.038128782 0.0013366065 -0.33897066 0.54846609 0
0 0.033265255 0.0013454577 -0.33897066 0.54846609 0
0 0.028336788 0.0013544532 -0.33897066 0.54846609 0
0 0.023341881 0.0013635957 -0.33897066 0.54846609 0
0 0.018278988 0.0013728888 -0.33897066 0.54846609 0
0 0.013146515 0.001382336 -0.33897066 0.54846609 0
0 0.0079428172 0.0013919408 -0.33897066 0.54846609 0
0 0.0026661986 0.0014017068 -0.33897066 0.54846609 0
