# .PCD v0.7 - Point Cloud Data file format
VERSION 0.7
FIELDS x y z vp_x vp_y vp_z
SIZE 4 4 4 4 4 4
TYPE F F F F F F
COUNT 1 1 1 1 1 1
WIDTH 453
HEIGHT 1
VIEWPOINT 0 0 0 1 0 0 0
POINTS 453
DATA ascii
0.019427173 0.040029299 0.069389701 0.19972187 -0.52287865 -0.32315677
0.022612393 0.040195704 0.068748392 0.19972187 -0.52287865 -0.32315677
0.025644481 0.040828027 0.068433933 0.19972187 -0.52287865 -0.32315677
0.028527223 0.041940719 0.06845443 0.19972187 -0.52287865 -0.32315677
0.031281862 0.043490417 0.068777926 0.19972187 -0.52287865 -0.32315677
0.033870973 0.04563133 0.069509178 0.19972187 -0.52287865 -0.32315677
0.026134264 0 0.039451726 0.19972187 -0.52287865 -0.32315677
0.029155187 0 0.038749516 0.19972187 -0.52287865 -0.32315677
0.032165445 0 0.038050663 0.19972187 -0.52287865 -0.32315677
0.035165217 0 0.037355125 0.19972187 -0.52287865 -0.32315677
0.038154673 0 0.036662858 0.19972187 -0.52287865 -0.32315677
0.039999999 0.0037388618 0.03854179 0.19972187 -0.52287865 -0.32315677
0.031180633 0.043420289 0.065053508 0.19972187 -0.52287865 -0.32315677
0.033768691 0.045534447 0.065760627 0.19972187 -0.52287865 -0.32315677
0.036187164 0.048287757 0.066902094 0.19972187 -0.52287865 -0.32315677
0.038337659 0.052069411 0.068740696 0.19972187 -0.52287865 -0.32315677
0.01083519 0 0.03955305 0.19972187 -0.52287865 -0.32315677
0.013904253 0 0.038841743 0.19972187 -0.52287865 -0.32315677
0.016961796 0 0.03813393 0.19972187 -0.52287865 -0.32315677
0.020008003 0 0.037429553 0.19972187 -0.52287865 -0.32315677
0.023043063 0 0.036728572 0.19972187 -0.52287865 -0.32315677
0.026067151 0 0.036030937 0.19972187 -0.52287865 -0.32315677
0.029080449 0 0.035336606 0.19972187 -0.52287865 -0.32315677
0.032083135 0 0.034645528 0.19972187 -0.52287865 -0.32315677
0.035075385 0 0.033957664 0.19972187 -0.52287865 -0.32315677
0.038057372 0 0.033272967 0.19972187 -0.52287865 -0.32315677
0.039999999 0.0033913476 0.034898747 0.19972187 -0.52287865 -0.32315677
0.031077679 0.043358345 0.061356127 0.19972187 -0.52287865 -0.32315677
0.033667009 0.045438137 0.062034298 0.19972187 -0.52287865 -0.32315677
0.036089882 0.04814427 0.063134074 0.19972187 -0.52287865 -0.32315677
0.038251288 0.051852643 0.064906858 0.19972187 -0.52287865 -0.32315677
0.039858308 0.057688218 0.068106957 0.19972187 -0.52287865 -0.32315677
0.0015529325 0 0.038240507 0.19972187 -0.52287865 -0.32315677
0.0046496531 0 0.037527103 0.19972187 -0.52287865 -0.32315677
0.0077343425 0 0.036817223 0.19972187 -0.52287865 -0.32315677
0.010807193 0 0.036110822 0.19972187 -0.52287865 -0.32315677
0.013868394 0 0.035407845 0.19972187 -0.52287865 -0.32315677
0.016918132 0 0.03470825 0.19972187 -0.52287865 -0.32315677
0.019956594 0 0.03401199 0.19972187 -0.52287865 -0.32315677
0.022983961 0 0.033319019 0.19972187 -0.52287865 -0.32315677
0.026000412 0 0.032629292 0.19972187 -0.52287865 -0.32315677
0.029006129 0 0.031942762 0.19972187 -0.52287865 -0.32315677
0.032001287 0 0.031259388 0.19972187 -0.52287865 -0.32315677
0.034986056 0 0.030579122 0.19972187 -0.52287865 -0.32315677
0.037960615 0 0.029901924 0.19972187 -0.52287865 -0.32315677
0.039999999 0.0030462174 0.031280693 0.19972187 -0.52287865 -0.32315677
0.039999999 0.013017318 0.037312634 0.19972187 -0.52287865 -0.32315677
0.033565931 0.045342393 0.058329839 0.19972187 -0.52287865 -0.32315677
0.035993185 0.048001643 0.059388753 0.19972187 -0.52287865 -0.32315677
0.038165458 0.051637232 0.061097041 0.19972187 -0.52287865 -0.32315677
0.039800182 0.05733373 0.064175032 0.19972187 -0.52287865 -0.32315677
0.0015489088 0 0.034792121 0.19972187 -0.52287865 -0.32315677
0.0046376288 0 0.034087293 0.19972187 -0.52287865 -0.32315677
0.00771438 0 0.033385877 0.19972187 -0.52287865 -0.32315677
0.010779352 0 0.032687832 0.19972187 -0.52287865 -0.32315677
0.013832735 0 0.031993106 0.19972187 -0.52287865 -0.32315677
0.016874712 0 0.031301655 0.19972187 -0.52287865 -0.32315677
0.01990547 0 0.030613434 0.19972187 -0.52287865 -0.32315677
0.022925187 0 0.029928396 0.19972187 -0.52287865 -0.32315677
0.025934044 0 0.029246498 0.19972187 -0.52287865 -0.32315677
0.028932219 0 0.028567698 0.19972187 -0.52287865 -0.32315677
0.031919885 0 0.027891951 0.19972187 -0.52287865 -0.32315677
0.034897219 0 0.027219214 0.19972187 -0.52287865 -0.32315677
0.037864387 0 0.026549444 0.19972187 -0.52287865 -0.32315677
0.039999999 0.0027034332 0.027687237 0.19972187 -0.52287865 -0.32315677
0.039999999 0.012636373 0.03363781 0.19972187 -0.52287865 -0.32315677
0.039999999 0.022917518 0.039797686 0.19972187 -0.52287865 -0.32315677
0.035895482 0.047865398 0.055669457 0.19972187 -0.52287865 -0.32315677
0.038071983 0.051452219 0.057330132 0.19972187 -0.52287865 -0.32315677
0.039742444 0.056981605 0.060269322 0.19972187 -0.52287865 -0.32315677
0.0015449075 0 0.031362932 0.19972187 -0.52287865 -0.32315677
0.0046256715 0 0.030666593 0.19972187 -0.52287865 -0.32315677
0.007694528 0 0.029973563 0.19972187 -0.52287865 -0.32315677
0.010751666 0 0.029283792 0.19972187 -0.52287865 -0.32315677
0.013797272 0 0.028597238 0.19972187 -0.52287865 -0.32315677
0.016831532 0 0.027913852 0.19972187 -0.52287865 -0.32315677
0.019854626 0 0.027233591 0.19972187 -0.52287865 -0.32315677
0.022866737 0 0.026556414 0.19972187 -0.52287865 -0.32315677
0.025868041 0 0.025882274 0.19972187 -0.52287865 -0.32315677
0.028858716 0 0.025211129 0.19972187 -0.52287865 -0.32315677
0.031838935 0 0.024542937 0.19972187 -0.52287865 -0.32315677
0.034808867 0 0.023877658 0.19972187 -0.52287865 -0.32315677
0.037768684 0 0.023215249 0.19972187 -0.52287865 -0.32315677
0.039999999 0.0023629586 0.024117989 0.19972187 -0.52287865 -0.32315677
0.039999999 0.012258035 0.029988145 0.19972187 -0.52287865 -0.32315677
0.039999999 0.022498844 0.036064029 0.19972187 -0.52287865 -0.32315677
0.035793822 0.04774572 0.051982448 0.19972187 -0.52287865 -0.32315677
0.037977479 0.051273979 0.053589724 0.19972187 -0.52287865 -0.32315677
0.039685089 0.056631807 0.056389421 0.19972187 -0.52287865 -0.32315677
0.001540928 0 0.027952643 0.19972187 -0.52287865 -0.32315677
0.00461378 0 0.027264716 0.19972187 -0.52287865 -0.32315677
0.0076747849 0 0.026579989 0.19972187 -0.52287865 -0.32315677
0.010724131 0 0.025898416 0.19972187 -0.52287865 -0.32315677
0.013762004 0 0.025219955 0.19972187 -0.52287865 -0.32315677
0.016788587 0 0.024544559 0.19972187 -0.52287865 -0.32315677
0.01980406 0 0.023872185 0.19972187 -0.52287865 -0.32315677
0.022808606 0 0.023202794 0.19972187 -0.52287865 -0.32315677
0.025802398 0 0.022536337 0.19972187 -0.52287865 -0.32315677
0.028785611 0 0.021872777 0.19972187 -0.52287865 -0.32315677
0.03175842 0 0.021212073 0.19972187 -0.52287865 -0.32315677
0.034720995 0 0.020554181 0.19972187 -0.52287865 -0.32315677
0.037673499 0 0.019899063 0.19972187 -0.52287865 -0.32315677
0.039999999 0.0020247574 0.020572577 0.19972187 -0.52287865 -0.32315677
0.039999999 0.011882264 0.026363242 0.19972187 -0.52287865 -0.32315677
0.039999999 0.022083059 0.032356128 0.19972187 -0.52287865 -0.32315677
0.039999999 0.032645814 0.038562231 0.19972187 -0.52287865 -0.32315677
0.037883542 0.051096801 0.049871672 0.19972187 -0.52287865 -0.32315677
0.039628107 0.056284297 0.052534934 0.19972187 -0.52287865 -0.32315677
0.0015369705 0 0.024560973 0.19972187 -0.52287865 -0.32315677
0.0046019536 0 0.023881376 0.19972187 -0.52287865 -0.32315677
0.0076551498 0 0.023204874 0.19972187 -0.52287865 -0.32315677
0.010696745 0 0.022531424 0.19972187 -0.52287865 -0.32315677
0.013726926 0 0.021860979 0.19972187 -0.52287865 -0.32315677
0.016745875 0 0.021193499 0.19972187 -0.52287865 -0.32315677
0.019753769 0 0.020528939 0.19972187 -0.52287865 -0.32315677
0.022750787 0 0.019867258 0.19972187 -0.52287865 -0.32315677
0.025737107 0 0.019208414 0.19972187 -0.52287865 -0.32315677
0.028712898 0 0.01855237 0.19972187 -0.52287865 -0.32315677
0.031678338 0 0.017899081 0.19972187 -0.52287865 -0.32315677
0.034633592 0 0.017248509 0.19972187 -0.52287865 -0.32315677
0.037578825 0 0.016600614 0.19972187 -0.52287865 -0.32315677
0.039999999 0.0016887945 0.017050626 0.19972187 -0.52287865 -0.32315677
0.039999999 0.011509021 0.022762718 0.19972187 -0.52287865 -0.32315677
0.039999999 0.021670116 0.028673571 0.19972187 -0.52287865 -0.32315677
0.039999999 0.032190561 0.034793962 0.19972187 -0.52287865 -0.32315677
0.037790164 0.050920673 0.046175633 0.19972187 -0.52287865 -0.32315677
0.039571498 0.055939045 0.048705459 0.19972187 -0.52287865 -0.32315677
0.0015330343 0 0.021187641 0.19972187 -0.52287865 -0.32315677
0.0045901905 0 0.020516299 0.19972187 -0.52287865 -0.32315677
0.00763562 0 0.019847944 0.19972187 -0.52287865 -0.32315677
0.010669508 0 0.019182539 0.19972187 -0.52287865 -0.32315677
0.013692038 0 0.018520035 0.19972187 -0.52287865 -0.32315677
0.016703391 0 0.017860396 0.19972187 -0.52287865 -0.32315677
0.019703746 0 0.017203575 0.19972187 -0.52287865 -0.32315677
0.022693278 0 0.016549537 0.19972187 -0.52287865 -0.32315677
0.025672164 0 0.015898235 0.19972187 -0.52287865 -0.32315677
0.028640574 0 0.015249635 0.19972187 -0.52287865 -0.32315677
0.03159868 0 0.014603695 0.19972187 -0.52287865 -0.32315677
0.034546651 0 0.013960375 0.19972187 -0.52287865 -0.32315677
0.03748465 0 0.013319639 0.19972187 -0.52287865 -0.32315677
0.039999999 0.0013550345 0.013551769 0.19972187 -0.52287865 -0.32315677
0.039999999 0.011138264 0.019186186 0.19972187 -0.52287865 -0.32315677
0.039999999 0.021259969 0.025015963 0.19972187 -0.52287865 -0.32315677
0.039999999 0.031738441 0.031051654 0.19972187 -0.52287865 -0.32315677
0.039999999 0.042593315 0.037304591 0.19972187 -0.52287865 -0.32315677
0.039509315 0.055617448 0.044914246 0.19972187 -0.52287865 -0.32315677
0.0015291192 0 0.017832372 0.19972187 -0.52287865 -0.32315677
0.0045784907 0 0.017169204 0.19972187 -0.52287865 -0.32315677
0.0076161944 0 0.016508924 0.19972187 -0.52287865 -0.32315677
0.010642415 0 0.015851486 0.19972187 -0.52287865 -0.32315677
0.013657334 0 0.015196852 0.19972187 -0.52287865 -0.32315677
0.016661134 0 0.01454498 0.19972187 -0.52287865 -0.32315677
0.019653987 0 0.013895829 0.19972187 -0.52287865 -0.32315677
0.022636073 0 0.01324936 0.19972187 -0.52287865 -0.32315677
0.025607564 0 0.012605533 0.19972187 -0.52287865 -0.32315677
0.028568631 0 0.011964309 0.19972187 -0.52287865 -0.32315677
0.031519443 0 0.01132565 0.19972187 -0.52287865 -0.32315677
0.034460168 0 0.010689517 0.19972187 -0.52287865 -0.32315677
0.03739097 0 0.010055874 0.19972187 -0.52287865 -0.32315677
0.039999999 0.0010234435 0.010075652 0.19972187 -0.52287865 -0.32315677
0.039999999 0.010769957 0.015633278 0.19972187 -0.52287865 -0.32315677
0.039999999 0.020852577 0.021382913 0.19972187 -0.52287865 -0.32315677
0.039999999 0.03128941 0.027334901 0.19972187 -0.52287865 -0.32315677
0.039999999 0.042099886 0.033500336 0.19972187 -0.52287865 -0.32315677
0.039999999 0.05330487 0.039891142 0.19972187 -0.52287865 -0.32315677
0.0015252248 0 0.014494895 0.19972187 -0.52287865 -0.32315677
0.0045668525 0 0.013839826 0.19972187 -0.52287865 -0.32315677
0.0075968713 0 0.013187543 0.19972187 -0.52287865 -0.32315677
0.010615465 0 0.012538001 0.19972187 -0.52287865 -0.32315677
0.013622814 0 0.011891163 0.19972187 -0.52287865 -0.32315677
0.016619097 0 0.011246988 0.19972187 -0.52287865 -0.32315677
0.019604489 0 0.010605435 0.19972187 -0.52287865 -0.32315677
0.022579167 0 0.0099664666 0.19972187 -0.52287865 -0.32315677
0.0255433 0 0.0093300445 0.19972187 -0.52287865 -0.32315677
0.028497063 0 0.0086961295 0.19972187 -0.52287865 -0.32315677
0.031440619 0 0.0080646845 0.19972187 -0.52287865 -0.32315677
0.034374136 0 0.0074356734 0.19972187 -0.52287865 -0.32315677
0.037297778 0 0.0068090581 0.19972187 -0.52287865 -0.32315677
0.039999999 0.00069398811 0.00662192 0.19972187 -0.52287865 -0.32315677
0.039999999 0.01040406 0.012103623 0.19972187 -0.52287865 -0.32315677
0.039999999 0.020447897 0.017774038 0.19972187 -0.52287865 -0.32315677
0.039999999 0.030843418 0.023643296 0.19972187 -0.52287865 -0.32315677
0.039999999 0.04160985 0.029722266 0.19972187 -0.52287865 -0.32315677
0.039999999 0.052767843 0.036022626 0.19972187 -0.52287865 -0.32315677
0.0015213509 0 0.011174941 0.19972187 -0.52287865 -0.32315677
0.0045552752 0 0.010527898 0.19972187 -0.52287865 -0.32315677
0.0075776498 0 0.009883537 0.19972187 -0.52287865 -0.32315677
0.010588656 0 0.0092418185 0.19972187 -0.52287865 -0.32315677
0.013588473 0 0.0086027049 0.19972187 -0.52287865 -0.32315677
0.016577279 0 0.0079661552 0.19972187 -0.52287865 -0.32315677
0.01955525 0 0.0073321313 0.19972187 -0.52287865 -0.32315677
0.022522556 0 0.0067005958 0.19972187 -0.52287865 -0.32315677
0.025479371 0 0.0060715107 0.19972187 -0.52287865 -0.32315677
0.028425863 0 0.0054448391 0.19972187 -0.52287865 -0.32315677
0.031362198 0 0.0048205443 0.19972187 -0.52287865 -0.32315677
0.034288544 0 0.0041985898 0.19972187 -0.52287865 -0.32315677
0.037205063 0 0.0035789397 0.19972187 -0.52287865 -0.32315677
0.039999999 0.00036663504 0.0031902285 0.19972187 -0.52287865 -0.32315677
0.039999999 0.010040536 0.0085968617 0.19972187 -0.52287865 -0.32315677
0.039999999 0.020045884 0.01418896 0.19972187 -0.52287865 -0.32315677
0.039999999 0.030400416 0.01997645 0.19972187 -0.52287865 -0.32315677
0.039999999 0.041123159 0.025969975 0.19972187 -0.52287865 -0.32315677
0.039999999 0.052234545 0.032180969 0.19972187 -0.52287865 -0.32315677
0.039999999 0.06375654 0.038621724 0.19972187 -0.52287865 -0.32315677
0.0015174971 0 0.007872249 0.19972187 -0.52287865 -0.32315677
0.0045437585 0 0.0072331559 0.19972187 -0.52287865 -0.32315677
0.0075585274 0 0.0065966458 0.19972187 -0.52287865 -0.32315677
0.010561985 0 0.0059626796 0.19972187 -0.52287865 -0.32315677
0.013554309 0 0.0053312187 0.19972187 -0.52287865 -0.32315677
0.016535677 0 0.0047022258 0.19972187 -0.52287865 -0.32315677
0.019506263 0 0.0040756627 0.19972187 -0.52287865 -0.32315677
0.022466237 0 0.0034514929 0.19972187 -0.52287865 -0.32315677
0.025415769 0 0.0028296788 0.19972187 -0.52287865 -0.32315677
0.028355028 0 0.0022101849 0.19972187 -0.52287865 -0.32315677
0.031284183 0 0.0015929753 0.19972187 -0.52287865 -0.32315677
0.034203392 0 0.00097801443 0.19972187 -0.52287865 -0.32315677
0.037112821 0 0.00036526754 0.19972187 -0.52287865 -0.32315677
0.039891306 0.00039720524 0 0.19972187 -0.52287865 -0.32315677
0.039999999 0.0096793482 0.0051126406 0.19972187 -0.52287865 -0.32315677
0.039999999 0.019646497 0.010627312 0.19972187 -0.52287865 -0.32315677
0.039999999 0.029960359 0.016333975 0.19972187 -0.52287865 -0.32315677
0.039999999 0.040639758 0.022243055 0.19972187 -0.52287865 -0.32315677
0.039999999 0.051704913 0.028365746 0.19972187 -0.52287865 -0.32315677
0.039999999 0.063177563 0.034714084 0.19972187 -0.52287865 -0.32315677
0.0015136632 0 0.0045865593 0.19972187 -0.52287865 -0.32315677
0.0045323004 0 0.0039553437 0.19972187 -0.52287865 -0.32315677
0.0075395033 0 0.0033266123 0.19972187 -0.52287865 -0.32315677
0.010535451 0 0.0027003272 0.19972187 -0.52287865 -0.32315677
0.013520321 0 0.002076451 0.19972187 -0.52287865 -0.32315677
0.016494287 0 0.0014549462 0.19972187 -0.52287865 -0.32315677
0.019457525 0 0.0008357765 0.19972187 -0.52287865 -0.32315677
0.022410203 0 0.00021890548 0.19972187 -0.52287865 -0.32315677
0.025138715 0.0006410451 0 0.19972187 -0.52287865 -0.32315677
0.027748084 0.0016362165 0 0.19972187 -0.52287865 -0.32315677
0.030358439 0.0026315949 0 0.19972187 -0.52287865 -0.32315677
0.032969877 0.0036272176 0 0.19972187 -0.52287865 -0.32315677
0.035582498 0.004623122 0 0.19972187 -0.52287865 -0.32315677
0.038196396 0.0056193457 0 0.19972187 -0.52287865 -0.32315677
0.039999999 0.0093204621 0.00165061 0.19972187 -0.52287865 -0.32315677
0.039999999 0.0192497 0.0070887278 0.19972187 -0.52287865 -0.32315677
0.039999999 0.029523199 0.012715491 0.19972187 -0.52287865 -0.32315677
0.039999999 0.040159598 0.018541109 0.19972187 -0.52287865 -0.32315677
0.039999999 0.051178899 0.024576545 0.19972187 -0.52287865 -0.32315677
0.039999999 0.062602602 0.03083358 0.19972187 -0.52287865 -0.32315677
0.039999999 0.074453846 0.03732489 0.19972187 -0.52287865 -0.32315677
0.0015098489 0 0.0013176157 0.19972187 -0.52287865 -0.32315677
0.004520901 0 0.00069420651 0.19972187 -0.52287865 -0.32315677
0.0075205755 0 7.3183815e-05 0.19972187 -0.52287865 -0.32315677
0.01018912 0.00088411284 0 0.19972187 -0.52287865 -0.32315677
0.012814513 0.0018866959 0 0.19972187 -0.52287865 -0.32315677
0.015440374 0.0028893999 0 0.19972187 -0.52287865 -0.32315677
0.018066799 0.0038922632 0 0.19972187 -0.52287865 -0.32315677
0.020693893 0.0048953234 0 0.19972187 -0.52287865 -0.32315677
0.02332175 0.0058986186 0 0.19972187 -0.52287865 -0.32315677
0.025950471 0.0069021876 0 0.19972187 -0.52287865 -0.32315677
0.028580159 0.0079060672 0 0.19972187 -0.52287865 -0.32315677
0.031210912 0.0089102974 0 0.19972187 -0.52287865 -0.32315677
0.033842832 0.0099149151 0 0.19972187 -0.52287865 -0.32315677
0.036476016 0.010919958 0 0.19972187 -0.52287865 -0.32315677
0.039110567 0.011925467 0 0.19972187 -0.52287865 -0.32315677
0.039999999 0.018855447 0.0035728521 0.19972187 -0.52287865 -0.32315677
0.039999999 0.029088894 0.0091206254 0.19972187 -0.52287865 -0.32315677
0.039999999 0.039682627 0.01486375 0.19972187 -0.52287865 -0.32315677
0.039999999 0.050656438 0.020812957 0.19972187 -0.52287865 -0.32315677
0.039999999 0.062031597 0.02697978 0.19972187 -0.52287865 -0.32315677
0.039999999 0.073830992 0.033376627 0.19972187 -0.52287865 -0.32315677
0.00031213049 0.0031494808 0 0.19972187 -0.52287865 -0.32315677
0.0029565946 0.004159634 0 0.19972187 -0.52287865 -0.32315677
0.0056011914 0.0051698959 0 0.19972187 -0.52287865 -0.32315677
0.0082460213 0.006180305 0 0.19972187 -0.52287865 -0.32315677
0.010891188 0.0071909004 0 0.19972187 -0.52287865 -0.32315677
0.01353679 0.0082017202 0 0.19972187 -0.52287865 -0.32315677
0.016182931 0.009212804 0 0.19972187 -0.52287865 -0.32315677
0.018829711 0.01022419 0 0.19972187 -0.52287865 -0.32315677
0.021477232 0.011235917 0 0.19972187 -0.52287865 -0.32315677
0.024125597 0.012248023 0 0.19972187 -0.52287865 -0.32315677
0.026774906 0.01326055 0 0.19972187 -0.52287865 -0.32315677
0.029425262 0.014273534 0 0.19972187 -0.52287865 -0.32315677
0.032076765 0.015287016 0 0.19972187 -0.52287865 -0.32315677
0.034729522 0.016301034 0 0.19972187 -0.52287865 -0.32315677
0.037383635 0.017315626 0 0.19972187 -0.52287865 -0.32315677
0.039999999 0.018463701 7.9334364e-05 0.19972187 -0.52287865 -0.32315677
0.039999999 0.028657397 0.0055490136 0.19972187 -0.52287865 -0.32315677
0.039999999 0.039208796 0.011210593 0.19972187 -0.52287865 -0.32315677
0.039999999 0.050137475 0.017074581 0.19972187 -0.52287865 -0.32315677
0.039999999 0.061464489 0.023152266 0.19972187 -0.52287865 -0.32315677
0.039999999 0.07321246 0.029455792 0.19972187 -0.52287865 -0.32315677
0.00094350358 0.0095209442 0 0.19972187 -0.52287865 -0.32315677
0.00360824 0.010539136 0 0.19972187 -0.52287865 -0.32315677
0.0062731756 0.01155758 0 0.19972187 -0.52287865 -0.32315677
0.008938414 0.012576316 0 0.19972187 -0.52287865 -0.32315677
0.011604058 0.013595385 0 0.19972187 -0.52287865 -0.32315677
0.014270212 0.014614823 0 0.19972187 -0.52287865 -0.32315677
0.016936976 0.015634673 0 0.19972187 -0.52287865 -0.32315677
0.019604459 0.016654974 0 0.19972187 -0.52287865 -0.32315677
0.022272762 0.017675763 0 0.19972187 -0.52287865 -0.32315677
0.024941986 0.018697085 0 0.19972187 -0.52287865 -0.32315677
0.027612241 0.019718975 0 0.19972187 -0.52287865 -0.32315677
0.030283626 0.020741474 0 0.19972187 -0.52287865 -0.32315677
0.032956246 0.021764625 0 0.19972187 -0.52287865 -0.32315677
0.035630208 0.022788465 0 0.19972187 -0.52287865 -0.32315677
0.038305614 0.023813035 0 0.19972187 -0.52287865 -0.32315677
0.039999999 0.028228667 0.0020002951 0.19972187 -0.52287865 -0.32315677
0.039999999 0.038738053 0.0075812638 0.19972187 -0.52287865 -0.32315677
0.039999999 0.049621962 0.013361024 0.19972187 -0.52287865 -0.32315677
0.039999999 0.060901213 0.019350626 0.19972187 -0.52287865 -0.32315677
0.039999999 0.072598197 0.025561953 0.19972187 -0.52287865 -0.32315677
0.0015844663 0.015991416 0 0.19972187 -0.52287865 -0.32315677
0.0042698164 0.017018024 0 0.19972187 -0.52287865 -0.32315677
0.006955435 0.018045034 0 0.19972187 -0.52287865 -0.32315677
0.0096414275 0.019072484 0 0.19972187 -0.52287865 -0.32315677
0.0123279 0.020100418 0 0.19972187 -0.52287865 -0.32315677
0.015014957 0.021128874 0 0.19972187 -0.52287865 -0.32315677
0.017702704 0.022157894 0 0.19972187 -0.52287865 -0.32315677
0.020391248 0.023187516 0 0.19972187 -0.52287865 -0.32315677
0.023080694 0.024217784 0 0.19972187 -0.52287865 -0.32315677
0.025771147 0.025248736 0 0.19972187 -0.52287865 -0.32315677
0.028462712 0.026280414 0 0.19972187 -0.52287865 -0.32315677
0.031155499 0.027312858 0 0.19972187 -0.52287865 -0.32315677
0.033849612 0.028346112 0 0.19972187 -0.52287865 -0.32315677
0.036545157 0.029380213 0 0.19972187 -0.52287865 -0.32315677
0.039242245 0.030415205 0 0.19972187 -0.52287865 -0.32315677
0.039999999 0.038270354 0.0039753919 0.19972187 -0.52287865 -0.32315677
0.039999999 0.049109835 0.0096718995 0.19972187 -0.52287865 -0.32315677
0.039999999 0.060341708 0.015574454 0.19972187 -0.52287865 -0.32315677
0.039999999 0.071988121 0.021694686 0.19972187 -0.52287865 -0.32315677
0.0022351521 0.022563793 0 0.19972187 -0.52287865 -0.32315677
0.0049414677 0.023599213 0 0.19972187 -0.52287865 -0.32315677
0.0076481239 0.024635186 0 0.19972187 -0.52287865 -0.32315677
0.010355229 0.025671758 0 0.19972187 -0.52287865 -0.32315677
0.013062891 0.026708966 0 0.19972187 -0.52287865 -0.32315677
0.015771216 0.027746854 0 0.19972187 -0.52287865 -0.32315677
0.01848031 0.028785462 0 0.19972187 -0.52287865 -0.32315677
0.021190286 0.029824832 0 0.19972187 -0.52287865 -0.32315677
0.023901248 0.030865006 0 0.19972187 -0.52287865 -0.32315677
0.026613306 0.031906027 0 0.19972187 -0.52287865 -0.32315677
0.029326566 0.032947935 0 0.19972187 -0.52287865 -0.32315677
0.03204114 0.033990771 0 0.19972187 -0.52287865 -0.32315677
0.03475713 0.035034578 0 0.19972187 -0.52287865 -0.32315677
0.037474655 0.036079403 0 0.19972187 -0.52287865 -0.32315677
0.039999999 0.03780565 0.00039261513 0.19972187 -0.52287865 -0.32315677
0.039999999 0.048601054 0.0060068276 0.19972187 -0.52287865 -0.32315677
0.039999999 0.059785921 0.011823354 0.19972187 -0.52287865 -0.32315677
0.039999999 0.071382165 0.017853577 0.19972187 -0.52287865 -0.32315677
0.00016836415 0.028197121 0 0.19972187 -0.52287865 -0.32315677
0.0028957005 0.029241089 0 0.19972187 -0.52287865 -0.32315677
0.0056233439 0.030285729 0 0.19972187 -0.52287865 -0.32315677
0.0083514042 0.031331085 0 0.19972187 -0.52287865 -0.32315677
0.01107999 0.032377195 0 0.19972187 -0.52287865 -0.32315677
0.013809213 0.033424105 0 0.19972187 -0.52287865 -0.32315677
0.016539181 0.034471858 0 0.19972187 -0.52287865 -0.32315677
0.019270005 0.03552049 0 0.19972187 -0.52287865 -0.32315677
0.022001794 0.036570054 0 0.19972187 -0.52287865 -0.32315677
0.024734659 0.037620582 0 0.19972187 -0.52287865 -0.32315677
0.027468709 0.038672127 0 0.19972187 -0.52287865 -0.32315677
0.030204056 0.039724723 0 0.19972187 -0.52287865 -0.32315677
0.032940812 0.040778417 0 0.19972187 -0.52287865 -0.32315677
0.035679083 0.041833252 0 0.19972187 -0.52287865 -0.32315677
0.03841899 0.042889271 0 0.19972187 -0.52287865 -0.32315677
0.039999999 0.048095554 0.0023654359 0.19972187 -0.52287865 -0.32315677
0.039999999 0.059233792 0.0080969352 0.19972187 -0.52287865 -0.32315677
0.039999999 0.070780277 0.014038212 0.19972187 -0.52287865 -0.32315677
0.00081729499 0.034972977 0 0.19972187 -0.52287865 -0.32315677
0.0035662572 0.036026429 0 0.19972187 -0.52287865 -0.32315677
0.0063156029 0.03708072 0 0.19972187 -0.52287865 -0.32315677
0.0090654446 0.038135886 0 0.19972187 -0.52287865 -0.32315677
0.011815893 0.03919198 0 0.19972187 -0.52287865 -0.32315677
0.01456706 0.040249035 0 0.19972187 -0.52287865 -0.32315677
0.017319059 0.041307099 0 0.19972187 -0.52287865 -0.32315677
0.020072002 0.042366218 0 0.19972187 -0.52287865 -0.32315677
0.022825999 0.043426432 0 0.19972187 -0.52287865 -0.32315677
0.025581164 0.044487786 0 0.19972187 -0.52287865 -0.32315677
0.028337611 0.045550324 0 0.19972187 -0.52287865 -0.32315677
0.031095451 0.046614088 0 0.19972187 -0.52287865 -0.32315677
0.033854797 0.047679126 0 0.19972187 -0.52287865 -0.32315677
0.036615763 0.048745483 0 0.19972187 -0.52287865 -0.32315677
0.039378464 0.0498132 0 0.19972187 -0.52287865 -0.32315677
0.039999999 0.058685262 0.0043948144 0.19972187 -0.52287865 -0.32315677
0.039999999 0.070182383 0.010248192 0.19972187 -0.52287865 -0.32315677
0.0014760039 0.041859686 0 0.19972187 -0.52287865 -0.32315677
0.0042469748 0.042923067 0 0.19972187 -0.52287865 -0.32315677
0.0070184092 0.043987453 0 0.19972187 -0.52287865 -0.32315677
0.0097904215 0.045052886 0 0.19972187 -0.52287865 -0.32315677
0.012563125 0.046119414 0 0.19972187 -0.52287865 -0.32315677
0.015336635 0.047187079 0 0.19972187 -0.52287865 -0.32315677
0.018111065 0.048255928 0 0.19972187 -0.52287865 -0.32315677
0.020886527 0.049326006 0 0.19972187 -0.52287865 -0.32315677
0.023663141 0.050397355 0 0.19972187 -0.52287865 -0.32315677
0.026441019 0.051470019 0 0.19972187 -0.52287865 -0.32315677
0.029220276 0.052544046 0 0.19972187 -0.52287865 -0.32315677
0.032001026 0.053619482 0 0.19972187 -0.52287865 -0.32315677
0.034783389 0.05469637 0 0.19972187 -0.52287865 -0.32315677
0.037567478 0.05577476 0 0.19972187 -0.52287865 -0.32315677
0.039999999 0.058140274 0.00071661471 0.19972187 -0.52287865 -0.32315677
0.039999999 0.06958843 0.0064831208 0.19972187 -0.52287865 -0.32315677
0.0021446384 0.048860617 0 0.19972187 -0.52287865 -0.32315677
0.0049380134 0.04993438 0 0.19972187 -0.52287865 -0.32315677
0.007731935 0.051009323 0 0.19972187 -0.52287865 -0.32315677
0.01052652 0.052085496 0 0.19972187 -0.52287865 -0.32315677
0.013321884 0.05316294 0 0.19972187 -0.52287865 -0.32315677
0.016118145 0.054241698 0 0.19972187 -0.52287865 -0.32315677
0.018915419 0.05532182 0 0.19972187 -0.52287865 -0.32315677
0.021713821 0.056403354 0 0.19972187 -0.52287865 -0.32315677
0.02451347 0.057486337 0 0.19972187 -0.52287865 -0.32315677
0.027314484 0.058570825 0 0.19972187 -0.52287865 -0.32315677
0.030116981 0.059656858 0 0.19972187 -0.52287865 -0.32315677
0.032921076 0.060744483 0 0.19972187 -0.52287865 -0.32315677
0.03572689 0.06183375 0 0.19972187 -0.52287865 -0.32315677
0.038534537 0.062924705 0 0.19972187 -0.52287865 -0.32315677
0.039999999 0.068998352 0.0027426127 0.19972187 -0.52287865 -0.32315677
7.6810729e-06 0.054895941 0 0.19972187 -0.52287865 -0.32315677
0.0028233528 0.055979256 0 0.19972187 -0.52287865 -0.32315677
0.0056395396 0.057063881 0 0.19972187 -0.52287865 -0.32315677
0.0084563596 0.058149874 0 0.19972187 -0.52287865 -0.32315677
0.011273933 0.059237275 0 0.19972187 -0.52287865 -0.32315677
0.014092376 0.060326129 0 0.19972187 -0.52287865 -0.32315677
0.01691181 0.061416488 0 0.19972187 -0.52287865 -0.32315677
0.019732354 0.062508397 0 0.19972187 -0.52287865 -0.32315677
0.022554126 0.063601896 0 0.19972187 -0.52287865 -0.32315677
0.025377247 0.064697042 0 0.19972187 -0.52287865 -0.32315677
0.028201835 0.065793887 0 0.19972187 -0.52287865 -0.32315677
0.031028014 0.06689246 0 0.19972187 -0.52287865 -0.32315677
0.0338559 0.067992821 0 0.19972187 -0.52287865 -0.32315677
0.036685616 0.069095023 0 0.19972187 -0.52287865 -0.32315677
0.039517283 0.070199102 0 0.19972187 -0.52287865 -0.32315677
0.00067349186 0.062124752 0 0.19972187 -0.52287865 -0.32315677
0.0035123087 0.063219242 0 0.19972187 -0.52287865 -0.32315677
0.0063517285 0.064315237 0 0.19972187 -0.52287865 -0.32315677
0.0091918726 0.065412775 0 0.19972187 -0.52287865 -0.32315677
0.012032862 0.066511922 0 0.19972187 -0.52287865 -0.32315677
0.014874818 0.067612708 0 0.19972187 -0.52287865 -0.32315677
0.017717863 0.068715192 0 0.19972187 -0.52287865 -0.32315677
0.020562116 0.069819413 0 0.19972187 -0.52287865 -0.32315677
0.023407701 0.070925429 0 0.19972187 -0.52287865 -0.32315677
0.026254741 0.072033286 0 0.19972187 -0.52287865 -0.32315677
0.029103359 0.073143035 0 0.19972187 -0.52287865 -0.32315677
0.031953674 0.074254714 0 0.19972187 -0.52287865 -0.32315677
0.034805816 0.075368382 0 0.19972187 -0.52287865 -0.32315677
0.037659898 0.076484092 0 0.19972187 -0.52287865 -0.32315677
0.039999999 0.079548307 0.0010474933 0.19972187 -0.52287865 -0.32315677
0.001349282 0.069478177 0 0.19972187 -0.52287865 -0.32315677
0.0042116754 0.070584357 0 0.19972187 -0.52287865 -0.32315677
0.0070747635 0.071692236 0 0.19972187 -0.52287865 -0.32315677
0.0099386694 0.072801866 0 0.19972187 -0.52287865 -0.32315677
0.012803518 0.073913284 0 0.19972187 -0.52287865 -0.32315677
0.015669433 0.075026549 0 0.19972187 -0.52287865 -0.32315677
0.018536538 0.076141708 0 0.19972187 -0.52287865 -0.32315677
0.021404957 0.077258803 0 0.19972187 -0.52287865 -0.32315677
0.024274819 0.078377903 0 0.19972187 -0.52287865 -0.32315677
0.027146241 0.079499036 0 0.19972187 -0.52287865 -0.32315677
0.0020352146 0.076960139 0 0.19972187 -0.52287865 -0.32315677
0.0049216296 0.078078553 0 0.19972187 -0.52287865 -0.32315677
0.0078088352 0.07919886 0 0.19972187 -0.52287865 -0.32315677
