# .PCD v0.7 - Point Cloud Data file format
VERSION 0.7
FIELDS x y z vp_x vp_y vp_z
SIZE 4 4 4 4 4 4
TYPE F F F F F F
COUNT 1 1 1 1 1 1
WIDTH 460
HEIGHT 1
VIEWPOINT 0 0 0 1 0 0 0
POINTS 460
DATA ascii
0.0034732057 0.048788711 0.068864755 -0.19972187 -0.52287865 -0.32315677
0.0057939533 0.045948703 0.067681968 -0.19972187 -0.52287865 -0.32315677
0.0083398083 0.043777999 0.066956036 -0.19972187 -0.52287865 -0.32315677
0.011067308 0.04212831 0.066587389 -0.19972187 -0.52287865 -0.32315677
0.013969965 0.040957939 0.066549346 -0.19972187 -0.52287865 -0.32315677
0.0015560135 0 0.038957488 -0.19972187 -0.52287865 -0.32315677
0.0046773818 0 0.039678089 -0.19972187 -0.52287865 -0.32315677
0.023845438 0.040397722 0.068491027 -0.19972187 -0.52287865 -0.32315677
9.9191995e-05 0.058170497 0.069970541 -0.19972187 -0.52287865 -0.32315677
0.001487271 0.05250882 0.066897281 -0.19972187 -0.52287865 -0.32315677
0.0034987817 0.048750989 0.065105774 -0.19972187 -0.52287865 -0.32315677
0.0058165174 0.045927331 0.063943632 -0.19972187 -0.52287865 -0.32315677
0.0083567202 0.043765139 0.063228637 -0.19972187 -0.52287865 -0.32315677
0.011078388 0.042123184 0.062866934 -0.19972187 -0.52287865 -0.32315677
0 0.0040867901 0.037589833 -0.19972187 -0.52287865 -0.32315677
0.0015519737 0 0.035500418 -0.19972187 -0.52287865 -0.32315677
0.0046652141 0 0.036212221 -0.19972187 -0.52287865 -0.32315677
0.0077910107 0 0.036927588 -0.19972187 -0.52287865 -0.32315677
0.010929564 0 0.037646569 -0.19972187 -0.52287865 -0.32315677
0.014081078 0 0.038369209 -0.19972187 -0.52287865 -0.32315677
0.017245756 0 0.039095566 -0.19972187 -0.52287865 -0.32315677
0.020423813 0 0.039825689 -0.19972187 -0.52287865 -0.32315677
0.00010688456 0.058028616 0.066119611 -0.19972187 -0.52287865 -0.32315677
0.0015125744 0.052445311 0.063126624 -0.19972187 -0.52287865 -0.32315677
0.0035242133 0.048713479 0.061368056 -0.19972187 -0.52287865 -0.32315677
0.0058389548 0.045906078 0.060226277 -0.19972187 -0.52287865 -0.32315677
0.008373539 0.043752354 0.05952207 -0.19972187 -0.52287865 -0.32315677
0 0.012397293 0.039055638 -0.19972187 -0.52287865 -0.32315677
0 0.0040761502 0.034126624 -0.19972187 -0.52287865 -0.32315677
0.0015479565 0 0.032062624 -0.19972187 -0.52287865 -0.32315677
0.0046531144 0 0.032765716 -0.19972187 -0.52287865 -0.32315677
0.0077707628 0 0.033472262 -0.19972187 -0.52287865 -0.32315677
0.010901101 0 0.034182303 -0.19972187 -0.52287865 -0.32315677
0.014044332 0 0.034895893 -0.19972187 -0.52287865 -0.32315677
0.01720066 0 0.035613082 -0.19972187 -0.52287865 -0.32315677
0.02037029 0 0.036333922 -0.19972187 -0.52287865 -0.32315677
0.023553437 0 0.037058465 -0.19972187 -0.52287865 -0.32315677
0.026750309 0 0.037786759 -0.19972187 -0.52287865 -0.32315677
0.029961126 0 0.038518865 -0.19972187 -0.52287865 -0.32315677
0.033186104 0 0.039254829 -0.19972187 -0.52287865 -0.32315677
0.036425468 0 0.039994709 -0.19972187 -0.52287865 -0.32315677
0.00011453145 0.057887577 0.062291551 -0.19972187 -0.52287865 -0.32315677
0.0015377338 0.052382164 0.059377398 -0.19972187 -0.52287865 -0.32315677
0.0035495022 0.048676182 0.057651281 -0.19972187 -0.52287865 -0.32315677
0.0058612674 0.045884941 0.05652957 -0.19972187 -0.52287865 -0.32315677
0.0083902637 0.043739639 0.055836033 -0.19972187 -0.52287865 -0.32315677
0 0.012364669 0.035551239 -0.19972187 -0.52287865 -0.32315677
2.7755576e-17 0.004065569 0.030682644 -0.19972187 -0.52287865 -0.32315677
0.0015439615 0 0.028643815 -0.19972187 -0.52287865 -0.32315677
0.0046410817 0 0.029338282 -0.19972187 -0.52287865 -0.32315677
0.0077506271 0 0.030036086 -0.19972187 -0.52287865 -0.32315677
0.010872797 0 0.030737279 -0.19972187 -0.52287865 -0.32315677
0.014007791 0 0.031441905 -0.19972187 -0.52287865 -0.32315677
0.017155813 0 0.032150019 -0.19972187 -0.52287865 -0.32315677
0.020317068 0 0.032861669 -0.19972187 -0.52287865 -0.32315677
0.023491766 0 0.033576898 -0.19972187 -0.52287865 -0.32315677
0.026680117 0 0.034295768 -0.19972187 -0.52287865 -0.32315677
0.029882336 0 0.035018325 -0.19972187 -0.52287865 -0.32315677
0.033098642 0 0.035744626 -0.19972187 -0.52287865 -0.32315677
0.036329255 0 0.03647472 -0.19972187 -0.52287865 -0.32315677
0.039574396 0 0.037208661 -0.19972187 -0.52287865 -0.32315677
0.00012883989 0.057766851 0.058498822 -0.19972187 -0.52287865 -0.32315677
0.0015627517 0.05231937 0.055649273 -0.19972187 -0.52287865 -0.32315677
0.0035746507 0.048639089 0.053955138 -0.19972187 -0.52287865 -0.32315677
0.0058834571 0.045863923 0.052853215 -0.19972187 -0.52287865 -0.32315677
0 0.020840228 0.037009712 -0.19972187 -0.52287865 -0.32315677
2.7755576e-17 0.012332226 0.03206636 -0.19972187 -0.52287865 -0.32315677
0 0.0040550465 0.027257605 -0.19972187 -0.52287865 -0.32315677
0.0015399883 0 0.025243707 -0.19972187 -0.52287865 -0.32315677
0.0046291146 0 0.025929626 -0.19972187 -0.52287865 -0.32315677
0.0077306023 0 0.026618777 -0.19972187 -0.52287865 -0.32315677
0.010844648 0 0.027311204 -0.19972187 -0.52287865 -0.32315677
0.013971452 0 0.028006954 -0.19972187 -0.52287865 -0.32315677
0.017111214 0 0.028706077 -0.19972187 -0.52287865 -0.32315677
0.020264139 0 0.029408623 -0.19972187 -0.52287865 -0.32315677
0.023430437 0 0.030114636 -0.19972187 -0.52287865 -0.32315677
0.026610315 0 0.030824171 -0.19972187 -0.52287865 -0.32315677
0.029803986 0 0.031537276 -0.19972187 -0.52287865 -0.32315677
0.033011667 0 0.032254003 -0.19972187 -0.52287865 -0.32315677
0.036233578 0 0.032974403 -0.19972187 -0.52287865 -0.32315677
0.039469939 0 0.033698533 -0.19972187 -0.52287865 -0.32315677
0.00014675916 0.057657551 0.05473493 -0.19972187 -0.52287865 -0.32315677
0.0015876301 0.052256931 0.051941935 -0.19972187 -0.52287865 -0.32315677
0.0035996612 0.048602205 0.050279308 -0.19972187 -0.52287865 -0.32315677
0 0.029509589 0.038503069 -0.19972187 -0.52287865 -0.32315677
2.7755576e-17 0.020784946 0.033482723 -0.19972187 -0.52287865 -0.32315677
0 0.012299963 0.02860071 -0.19972187 -0.52287865 -0.32315677
0 0.0040445812 0.023851221 -0.19972187 -0.52287865 -0.32315677
0.0015360366 0 0.021862017 -0.19972187 -0.52287865 -0.32315677
0.0046172128 0 0.022539472 -0.19972187 -0.52287865 -0.32315677
0.0077106864 0 0.023220049 -0.19972187 -0.52287865 -0.32315677
0.010816653 0 0.023903793 -0.19972187 -0.52287865 -0.32315677
0.01393531 0 0.024590753 -0.19972187 -0.52287865 -0.32315677
0.017066859 0 0.025280973 -0.19972187 -0.52287865 -0.32315677
0.020211501 0 0.025974501 -0.19972187 -0.52287865 -0.32315677
0.023369445 0 0.026671385 -0.19972187 -0.52287865 -0.32315677
0.026540896 0 0.027371675 -0.19972187 -0.52287865 -0.32315677
0.029726068 0 0.028075418 -0.19972187 -0.52287865 -0.32315677
0.032925174 0 0.028782668 -0.19972187 -0.52287865 -0.32315677
0.03613843 0 0.02949347 -0.19972187 -0.52287865 -0.32315677
0.039366059 0 0.030207882 -0.19972187 -0.52287865 -0.32315677
0.00016457681 0.057548869 0.050992385 -0.19972187 -0.52287865 -0.32315677
0.0016123712 0.05219483 0.048255071 -0.19972187 -0.52287865 -0.32315677
0.0036245354 0.048565518 0.046623491 -0.19972187 -0.52287865 -0.32315677
0 0.029430438 0.034932707 -0.19972187 -0.52287865 -0.32315677
2.7755576e-17 0.020729972 0.029975262 -0.19972187 -0.52287865 -0.32315677
0 0.012267875 0.025153996 -0.19972187 -0.52287865 -0.32315677
0 0.0040341723 0.02046321 -0.19972187 -0.52287865 -0.32315677
0.0015321062 0 0.018498469 -0.19972187 -0.52287865 -0.32315677
0.0046053748 0 0.019167537 -0.19972187 -0.52287865 -0.32315677
0.0076908772 0 0.019839622 -0.19972187 -0.52287865 -0.32315677
0.010788809 0 0.020514768 -0.19972187 -0.52287865 -0.32315677
0.013899365 0 0.021193018 -0.19972187 -0.52287865 -0.32315677
0.017022744 0 0.021874418 -0.19972187 -0.52287865 -0.32315677
0.02015915 0 0.022559017 -0.19972187 -0.52287865 -0.32315677
0.023308784 0 0.02324686 -0.19972187 -0.52287865 -0.32315677
0.026471855 0 0.023937993 -0.19972187 -0.52287865 -0.32315677
0.029648574 0 0.024632465 -0.19972187 -0.52287865 -0.32315677
0.032839153 0 0.025330326 -0.19972187 -0.52287865 -0.32315677
0.036043804 0 0.026031625 -0.19972187 -0.52287865 -0.32315677
0.039262753 0 0.026736412 -0.19972187 -0.52287865 -0.32315677
0.00018229437 0.057440799 0.047270861 -0.19972187 -0.52287865 -0.32315677
0.001636977 0.052133076 0.044588368 -0.19972187 -0.52287865 -0.32315677
0 0.038275734 0.036417324 -0.19972187 -0.52287865 -0.32315677
0 0.029351728 0.031382184 -0.19972187 -0.52287865 -0.32315677
0 0.020675298 0.026487032 -0.19972187 -0.52287865 -0.32315677
0 0.012235963 0.021725936 -0.19972187 -0.52287865 -0.32315677
2.7755576e-17 0.0040238192 0.017093297 -0.19972187 -0.52287865 -0.32315677
0.0015281966 0 0.015152789 -0.19972187 -0.52287865 -0.32315677
0.0045935996 0 0.01581355 -0.19972187 -0.52287865 -0.32315677
0.0076711741 0 0.016477223 -0.19972187 -0.52287865 -0.32315677
0.010761113 0 0.017143849 -0.19972187 -0.52287865 -0.32315677
0.013863611 0 0.017813474 -0.19972187 -0.52287865 -0.32315677
0.016978865 0 0.018486138 -0.19972187 -0.52287865 -0.32315677
0.020107077 0 0.019161891 -0.19972187 -0.52287865 -0.32315677
0.023248451 0 0.019840777 -0.19972187 -0.52287865 -0.32315677
0.026403189 0 0.020522842 -0.19972187 -0.52287865 -0.32315677
0.0295715 0 0.021208132 -0.19972187 -0.52287865 -0.32315677
0.032753598 0 0.021896696 -0.19972187 -0.52287865 -0.32315677
0.035949696 0 0.022588581 -0.19972187 -0.52287865 -0.32315677
0.039160009 0 0.023283837 -0.19972187 -0.52287865 -0.32315677
0.00019991335 0.057333328 0.043570042 -0.19972187 -0.52287865 -0.32315677
2.7755576e-17 0.047328208 0.037937649 -0.19972187 -0.52287865 -0.32315677
0 0.038172204 0.032822456 -0.19972187 -0.52287865 -0.32315677
2.7755576e-17 0.02927345 0.027851211 -0.19972187 -0.52287865 -0.32315677
0 0.020620922 0.023017747 -0.19972187 -0.52287865 -0.32315677
0 0.01220422 0.018316247 -0.19972187 -0.52287865 -0.32315677
0 0.0040135207 0.01374121 -0.19972187 -0.52287865 -0.32315677
0.0015243076 0 0.011824709 -0.19972187 -0.52287865 -0.32315677
0.0045818868 0 0.012477241 -0.19972187 -0.52287865 -0.32315677
0.0076515749 0 0.01313258 -0.19972187 -0.52287865 -0.32315677
0.010733564 0 0.013790767 -0.19972187 -0.52287865 -0.32315677
0.013828048 0 0.014451845 -0.19972187 -0.52287865 -0.32315677
0.01693522 0 0.015115858 -0.19972187 -0.52287865 -0.32315677
0.020055285 0 0.015782848 -0.19972187 -0.52287865 -0.32315677
0.023188438 0 0.016452862 -0.19972187 -0.52287865 -0.32315677
0.026334887 0 0.017125944 -0.19972187 -0.52287865 -0.32315677
0.029494839 0 0.017802138 -0.19972187 -0.52287865 -0.32315677
0.032668501 0 0.018481493 -0.19972187 -0.52287865 -0.32315677
0.03585609 0 0.019164056 -0.19972187 -0.52287865 -0.32315677
0.039057817 0 0.019849872 -0.19972187 -0.52287865 -0.32315677
2.7755576e-17 0.056595583 0.039494801 -0.19972187 -0.52287865 -0.32315677
2.7755576e-17 0.047198713 0.03429709 -0.19972187 -0.52287865 -0.32315677
2.7755576e-17 0.038069248 0.029247457 -0.19972187 -0.52287865 -0.32315677
2.7755576e-17 0.029195599 0.024339486 -0.19972187 -0.52287865 -0.32315677
0 0.020566838 0.019567123 -0.19972187 -0.52287865 -0.32315677
0 0.012172646 0.014924653 -0.19972187 -0.52287865 -0.32315677
0 0.0040032761 0.010406681 -0.19972187 -0.52287865 -0.32315677
0.0015204389 0 0.0085139656 -0.19972187 -0.52287865 -0.32315677
0.004570235 0 0.009158344 -0.19972187 -0.52287865 -0.32315677
0.0076320781 0 0.009805426 -0.19972187 -0.52287865 -0.32315677
0.010706159 0 0.010455252 -0.19972187 -0.52287865 -0.32315677
0.01379267 0 0.011107864 -0.19972187 -0.52287865 -0.32315677
0.016891805 0 0.011763304 -0.19972187 -0.52287865 -0.32315677
0.020003764 0 0.012421615 -0.19972187 -0.52287865 -0.32315677
0.023128742 0 0.01308284 -0.19972187 -0.52287865 -0.32315677
0.026266947 0 0.013747023 -0.19972187 -0.52287865 -0.32315677
0.029418584 0 0.014414209 -0.19972187 -0.52287865 -0.32315677
0.032583859 0 0.015084443 -0.19972187 -0.52287865 -0.32315677
0.035762984 0 0.015757769 -0.19972187 -0.52287865 -0.32315677
0.038956173 0 0.016434237 -0.19972187 -0.52287865 -0.32315677
0 0.056438912 0.035807155 -0.19972187 -0.52287865 -0.32315677
2.7755576e-17 0.047069937 0.030676741 -0.19972187 -0.52287865 -0.32315677
0 0.037966851 0.025692029 -0.19972187 -0.52287865 -0.32315677
0 0.029118169 0.020846721 -0.19972187 -0.52287865 -0.32315677
0 0.020513043 0.016134877 -0.19972187 -0.52287865 -0.32315677
0 0.012141238 0.011550885 -0.19972187 -0.52287865 -0.32315677
2.7755576e-17 0.0039930847 0.0070894472 -0.19972187 -0.52287865 -0.32315677
0.0015165901 0 0.0052202973 -0.19972187 -0.52287865 -0.32315677
0.0045586433 0 0.0058565973 -0.19972187 -0.52287865 -0.32315677
0.0076126824 0 0.0064954986 -0.19972187 -0.52287865 -0.32315677
0.010678897 0 0.0071370411 -0.19972187 -0.52287865 -0.32315677
0.013757477 0 0.0077812658 -0.19972187 -0.52287865 -0.32315677
0.016848616 0 0.0084282132 -0.19972187 -0.52287865 -0.32315677
0.019952511 0 0.0090779252 -0.19972187 -0.52287865 -0.32315677
0.023069359 0 0.0097304434 -0.19972187 -0.52287865 -0.32315677
0.026199365 0 0.010385812 -0.19972187 -0.52287865 -0.32315677
0.02934273 0 0.011044073 -0.19972187 -0.52287865 -0.32315677
0.03249966 0 0.011705271 -0.19972187 -0.52287865 -0.32315677
0.03567037 0 0.01236945 -0.19972187 -0.52287865 -0.32315677
0.038855065 0 0.013036655 -0.19972187 -0.52287865 -0.32315677
2.7755576e-17 0.065900855 0.037353776 -0.19972187 -0.52287865 -0.32315677
2.7755576e-17 0.056283116 0.03214008 -0.19972187 -0.52287865 -0.32315677
0 0.046941869 0.0270763 -0.19972187 -0.52287865 -0.32315677
2.7755576e-17 0.037865013 0.022155879 -0.19972187 -0.52287865 -0.32315677
2.7755576e-17 0.029041152 0.017372632 -0.19972187 -0.52287865 -0.32315677
0 0.020459531 0.012720733 -0.19972187 -0.52287865 -0.32315677
0 0.012109993 0.0081946719 -0.19972187 -0.52287865 -0.32315677
0 0.0039829453 0.0037892479 -0.19972187 -0.52287865 -0.32315677
0.001512761 0 0.0019434489 -0.19972187 -0.52287865 -0.32315677
0.0045471112 0 0.0025717441 -0.19972187 -0.52287865 -0.32315677
0.0075933863 0 0.0032025396 -0.19972187 -0.52287865 -0.32315677
0.010651775 0 0.0038358748 -0.19972187 -0.52287865 -0.32315677
0.013722464 0 0.0044717891 -0.19972187 -0.52287865 -0.32315677
0.016805649 0 0.005110322 -0.19972187 -0.52287865 -0.32315677
0.019901523 0 0.0057515143 -0.19972187 -0.52287865 -0.32315677
0.023010286 0 0.0063954075 -0.19972187 -0.52287865 -0.32315677
0.026132133 0 0.0070420429 -0.19972187 -0.52287865 -0.32315677
0.02926727 0 0.0076914621 -0.19972187 -0.52287865 -0.32315677
0.0324159 0 0.0083437087 -0.19972187 -0.52287865 -0.32315677
0.035578236 0 0.0089988261 -0.19972187 -0.52287865 -0.32315677
0.038754486 0 0.0096568577 -0.19972187 -0.52287865 -0.32315677
2.7755576e-17 0.07559298 0.038938127 -0.19972187 -0.52287865 -0.32315677
2.7755576e-17 0.065716766 0.033638541 -0.19972187 -0.52287865 -0.32315677
2.7755576e-17 0.056128182 0.028493263 -0.19972187 -0.52287865 -0.32315677
2.7755576e-17 0.046814498 0.023495466 -0.19972187 -0.52287865 -0.32315677
0 0.037763722 0.018638713 -0.19972187 -0.52287865 -0.32315677
0 0.028964544 0.013916939 -0.19972187 -0.52287865 -0.32315677
2.7755576e-17 0.020406298 0.0093244202 -0.19972187 -0.52287865 -0.32315677
0 0.012078909 0.0048557525 -0.19972187 -0.52287865 -0.32315677
0 0.0039728577 0.00050582824 -0.19972187 -0.52287865 -0.32315677
0.0023323023 0.0021393972 0 -0.19972187 -0.52287865 -0.32315677
0.0049768048 0.001129345 0 -0.19972187 -0.52287865 -0.32315677
0.0076214788 0.00011928525 0 -0.19972187 -0.52287865 -0.32315677
0.01062479 0 0.00055149704 -0.19972187 -0.52287865 -0.32315677
0.013687631 0 0.0011791768 -0.19972187 -0.52287865 -0.32315677
0.016762903 0 0.0018093727 -0.19972187 -0.52287865 -0.32315677
0.019850798 0 0.0024421241 -0.19972187 -0.52287865 -0.32315677
0.022951512 0 0.0030774712 -0.19972187 -0.52287865 -0.32315677
0.026065245 0 0.0037154541 -0.19972187 -0.52287865 -0.32315677
0.029192198 0 0.0043561142 -0.19972187 -0.52287865 -0.32315677
0.032332573 0 0.0049994932 -0.19972187 -0.52287865 -0.32315677
0.035486583 0 0.0056456327 -0.19972187 -0.52287865 -0.32315677
0.038654428 0 0.006294576 -0.19972187 -0.52287865 -0.32315677
2.7755576e-17 0.075379245 0.035173245 -0.19972187 -0.52287865 -0.32315677
2.7755576e-17 0.065533698 0.029943934 -0.19972187 -0.52287865 -0.32315677
0 0.055974092 0.0248664 -0.19972187 -0.52287865 -0.32315677
2.7755576e-17 0.046687815 0.019933943 -0.19972187 -0.52287865 -0.32315677
0 0.037662968 0.015140248 -0.19972187 -0.52287865 -0.32315677
0 0.028888337 0.010479364 -0.19972187 -0.52287865 -0.32315677
0 0.020353341 0.0059456713 -0.19972187 -0.52287865 -0.32315677
0 0.012047985 0.0015338669 -0.19972187 -0.52287865 -0.32315677
0.0017211369 0.0085029658 0 -0.19972187 -0.52287865 -0.32315677
0.0043857847 0.0074851611 0 -0.19972187 -0.52287865 -0.32315677
0.0070505426 0.0064674905 0 -0.19972187 -0.52287865 -0.32315677
0.0097155143 0.0054499144 0 -0.19972187 -0.52287865 -0.32315677
0.012380803 0.0044323942 0 -0.19972187 -0.52287865 -0.32315677
0.015046512 0.0034148898 0 -0.19972187 -0.52287865 -0.32315677
0.017712744 0.0023973619 0 -0.19972187 -0.52287865 -0.32315677
0.020379603 0.0013797713 0 -0.19972187 -0.52287865 -0.32315677
0.023047192 0.00036207834 0 -0.19972187 -0.52287865 -0.32315677
0.025998699 0 0.0004057886 -0.19972187 -0.52287865 -0.32315677
0.02911751 0 0.0010377701 -0.19972187 -0.52287865 -0.32315677
0.032249674 0 0.001672363 -0.19972187 -0.52287865 -0.32315677
0.035395395 0 0.0023096085 -0.19972187 -0.52287865 -0.32315677
0.038554884 0 0.0029495477 -0.19972187 -0.52287865 -0.32315677
2.7755576e-17 0.07516671 0.031429376 -0.19972187 -0.52287865 -0.32315677
0 0.065351635 0.026269644 -0.19972187 -0.52287865 -0.32315677
0 0.055820838 0.021259191 -0.19972187 -0.52287865 -0.32315677
2.7755576e-17 0.046561807 0.016391443 -0.19972187 -0.52287865 -0.32315677
2.7755576e-17 0.037562743 0.011660203 -0.19972187 -0.52287865 -0.32315677
0 0.028812526 0.0070596342 -0.19972187 -0.52287865 -0.32315677
0 0.020300655 0.0025842218 -0.19972187 -0.52287865 -0.32315677
0.0011007203 0.014965168 0 -0.19972187 -0.52287865 -0.32315677
0.0037858484 0.013939242 0 -0.19972187 -0.52287865 -0.32315677
0.0064710239 0.012913596 0 -0.19972187 -0.52287865 -0.32315677
0.009156351 0.011888191 0 -0.19972187 -0.52287865 -0.32315677
0.011841936 0.010862987 0 -0.19972187 -0.52287865 -0.32315677
0.014527882 0.0098379413 0 -0.19972187 -0.52287865 -0.32315677
0.017214298 0.0088130161 0 -0.19972187 -0.52287865 -0.32315677
0.019901287 0.0077881715 0 -0.19972187 -0.52287865 -0.32315677
0.022588953 0.0067633665 0 -0.19972187 -0.52287865 -0.32315677
0.025277404 0.005738561 0 -0.19972187 -0.52287865 -0.32315677
0.027966747 0.0047137146 0 -0.19972187 -0.52287865 -0.32315677
0.030657083 0.003688788 0 -0.19972187 -0.52287865 -0.32315677
0.033348523 0.0026637402 0 -0.19972187 -0.52287865 -0.32315677
0.03604117 0.0016385312 0 -0.19972187 -0.52287865 -0.32315677
0.038735129 0.00061312085 0 -0.19972187 -0.52287865 -0.32315677
0 0.074955344 0.027706206 -0.19972187 -0.52287865 -0.32315677
2.7755576e-17 0.065170564 0.022615368 -0.19972187 -0.52287865 -0.32315677
0 0.055668406 0.017671339 -0.19972187 -0.52287865 -0.32315677
2.7755576e-17 0.046436466 0.012867677 -0.19972187 -0.52287865 -0.32315677
2.7755576e-17 0.037463043 0.0081983022 -0.19972187 -0.52287865 -0.32315677
2.7755576e-17 0.028737104 0.003657484 -0.19972187 -0.52287865 -0.32315677
0.0004709294 0.021528888 0 -0.19972187 -0.52287865 -0.32315677
0.0031768843 0.020494457 0 -0.19972187 -0.52287865 -0.32315677
0.0058828201 0.019460456 0 -0.19972187 -0.52287865 -0.32315677
0.008588843 0.018426847 0 -0.19972187 -0.52287865 -0.32315677
0.011295062 0.017393589 0 -0.19972187 -0.52287865 -0.32315677
0.014001583 0.016360639 0 -0.19972187 -0.52287865 -0.32315677
0.016708514 0.015327957 0 -0.19972187 -0.52287865 -0.32315677
0.019415962 0.014295502 0 -0.19972187 -0.52287865 -0.32315677
0.022124033 0.013263234 0 -0.19972187 -0.52287865 -0.32315677
0.024832837 0.012231112 0 -0.19972187 -0.52287865 -0.32315677
0.027542481 0.011199093 0 -0.19972187 -0.52287865 -0.32315677
0.030253073 0.01016714 0 -0.19972187 -0.52287865 -0.32315677
0.032964718 0.0091352081 0 -0.19972187 -0.52287865 -0.32315677
0.03567753 0.0081032589 0 -0.19972187 -0.52287865 -0.32315677
0.038391609 0.007071251 0 -0.19972187 -0.52287865 -0.32315677
2.7755576e-17 0.074745134 0.024003426 -0.19972187 -0.52287865 -0.32315677
2.7755576e-17 0.064990468 0.018980801 -0.19972187 -0.52287865 -0.32315677
2.7755576e-17 0.055516787 0.014102556 -0.19972187 -0.52287865 -0.32315677
0 0.046311781 0.009362367 -0.19972187 -0.52287865 -0.32315677
2.7755576e-17 0.037363857 0.0047542718 -0.19972187 -0.52287865 -0.32315677
0 0.028662065 0.00027264876 -0.19972187 -0.52287865 -0.32315677
0.0025587743 0.027153783 0 -0.19972187 -0.52287865 -0.32315677
0.0052858242 0.026111035 0 -0.19972187 -0.52287865 -0.32315677
0.0080128945 0.025068831 0 -0.19972187 -0.52287865 -0.32315677
0.010740096 0.024027133 0 -0.19972187 -0.52287865 -0.32315677
0.013467536 0.022985898 0 -0.19972187 -0.52287865 -0.32315677
0.016195325 0.021945084 0 -0.19972187 -0.52287865 -0.32315677
0.018923573 0.020904649 0 -0.19972187 -0.52287865 -0.32315677
0.021652387 0.019864554 0 -0.19972187 -0.52287865 -0.32315677
0.02438188 0.018824752 0 -0.19972187 -0.52287865 -0.32315677
0.02711216 0.017785206 0 -0.19972187 -0.52287865 -0.32315677
0.029843334 0.016745875 0 -0.19972187 -0.52287865 -0.32315677
0.032575518 0.015706714 0 -0.19972187 -0.52287865 -0.32315677
0.035308816 0.014667683 0 -0.19972187 -0.52287865 -0.32315677
0.038043343 0.01362874 0 -0.19972187 -0.52287865 -0.32315677
2.7755576e-17 0.07453607 0.020320725 -0.19972187 -0.52287865 -0.32315677
2.7755576e-17 0.064811334 0.015365649 -0.19972187 -0.52287865 -0.32315677
2.7755576e-17 0.055365965 0.010552553 -0.19972187 -0.52287865 -0.32315677
2.7755576e-17 0.046187744 0.0058752336 -0.19972187 -0.52287865 -0.32315677
0 0.037265178 0.0013278447 -0.19972187 -0.52287865 -0.32315677
0.0019313949 0.033920314 0 -0.19972187 -0.52287865 -0.32315677
0.0046799243 0.032868404 0 -0.19972187 -0.52287865 -0.32315677
0.0074284044 0.031817202 0 -0.19972187 -0.52287865 -0.32315677
0.010176946 0.030766664 0 -0.19972187 -0.52287865 -0.32315677
0.012925663 0.029716749 0 -0.19972187 -0.52287865 -0.32315677
0.015674664 0.028667411 0 -0.19972187 -0.52287865 -0.32315677
0.018424062 0.027618611 0 -0.19972187 -0.52287865 -0.32315677
0.021173969 0.026570307 0 -0.19972187 -0.52287865 -0.32315677
0.023924494 0.025522454 0 -0.19972187 -0.52287865 -0.32315677
0.026675751 0.02447501 0 -0.19972187 -0.52287865 -0.32315677
0.029427852 0.023427933 0 -0.19972187 -0.52287865 -0.32315677
0.032180909 0.022381181 0 -0.19972187 -0.52287865 -0.32315677
0.034935035 0.021334713 0 -0.19972187 -0.52287865 -0.32315677
0.037690338 0.020288484 0 -0.19972187 -0.52287865 -0.32315677
2.7755576e-17 0.074328125 0.016657803 -0.19972187 -0.52287865 -0.32315677
0 0.064633153 0.01176962 -0.19972187 -0.52287865 -0.32315677
2.7755576e-17 0.055215925 0.0070210481 -0.19972187 -0.52287865 -0.32315677
0 0.046064343 0.0024060055 -0.19972187 -0.52287865 -0.32315677
0.0012946172 0.040797271 0 -0.19972187 -0.52287865 -0.32315677
0.0040650023 0.039735768 0 -0.19972187 -0.52287865 -0.32315677
0.0068352651 0.038675144 0 -0.19972187 -0.52287865 -0.32315677
0.0096055195 0.037615348 0 -0.19972187 -0.52287865 -0.32315677
0.012375879 0.036556337 0 -0.19972187 -0.52287865 -0.32315677
0.015146457 0.035498071 0 -0.19972187 -0.52287865 -0.32315677
0.017917367 0.034440503 0 -0.19972187 -0.52287865 -0.32315677
0.020688724 0.033383593 0 -0.19972187 -0.52287865 -0.32315677
0.02346064 0.032327294 0 -0.19972187 -0.52287865 -0.32315677
0.02623323 0.031271566 0 -0.19972187 -0.52287865 -0.32315677
0.029006608 0.030216364 0 -0.19972187 -0.52287865 -0.32315677
0.031780887 0.029161647 0 -0.19972187 -0.52287865 -0.32315677
0.034556184 0.028107369 0 -0.19972187 -0.52287865 -0.32315677
0.037332609 0.02705349 0 -0.19972187 -0.52287865 -0.32315677
2.7755576e-17 0.074121289 0.013014365 -0.19972187 -0.52287865 -0.32315677
2.7755576e-17 0.064455904 0.0081924265 -0.19972187 -0.52287865 -0.32315677
2.7755576e-17 0.055066664 0.0035077645 -0.19972187 -0.52287865 -0.32315677
0.00064830581 0.047787987 0 -0.19972187 -0.52287865 -0.32315677
0.0034409354 0.046716448 0 -0.19972187 -0.52287865 -0.32315677
0.0062333667 0.045645956 0 -0.19972187 -0.52287865 -0.32315677
0.0090257153 0.044576466 0 -0.19972187 -0.52287865 -0.32315677
0.011818097 0.043507934 0 -0.19972187 -0.52287865 -0.32315677
0.014610628 0.04244031 0 -0.19972187 -0.52287865 -0.32315677
0.017403424 0.041373558 0 -0.19972187 -0.52287865 -0.32315677
0.020196602 0.04030763 0 -0.19972187 -0.52287865 -0.32315677
0.022990275 0.03924248 0 -0.19972187 -0.52287865 -0.32315677
0.025784561 0.038178064 0 -0.19972187 -0.52287865 -0.32315677
0.028579578 0.037114341 0 -0.19972187 -0.52287865 -0.32315677
0.031375442 0.036051266 0 -0.19972187 -0.52287865 -0.32315677
0.034172263 0.034988791 0 -0.19972187 -0.52287865 -0.32315677
0.036970165 0.033926878 0 -0.19972187 -0.52287865 -0.32315677
0.039769262 0.03286548 0 -0.19972187 -0.52287865 -0.32315677
0 0.073915541 0.0093901148 -0.19972187 -0.52287865 -0.32315677
2.7755576e-17 0.064279571 0.0046337857 -0.19972187 -0.52287865 -0.32315677
0 0.054918163 1.2428714e-05 -0.19972187 -0.52287865 -0.32315677
0.0028075941 0.053813901 0 -0.19972187 -0.52287865 -0.32315677
0.0056225914 0.052733082 0 -0.19972187 -0.52287865 -0.32315677
0.0084374286 0.051653445 0 -0.19972187 -0.52287865 -0.32315677
0.011252224 0.050574936 0 -0.19972187 -0.52287865 -0.32315677
0.014067096 0.049497519 0 -0.19972187 -0.52287865 -0.32315677
0.016882163 0.048421144 0 -0.19972187 -0.52287865 -0.32315677
0.019697543 0.047345765 0 -0.19972187 -0.52287865 -0.32315677
0.022513354 0.046271335 0 -0.19972187 -0.52287865 -0.32315677
0.025329715 0.045197815 0 -0.19972187 -0.52287865 -0.32315677
0.028146744 0.044125155 0 -0.19972187 -0.52287865 -0.32315677
0.030964557 0.04305331 0 -0.19972187 -0.52287865 -0.32315677
0.033783279 0.041982241 0 -0.19972187 -0.52287865 -0.32315677
0.036603022 0.040911898 0 -0.19972187 -0.52287865 -0.32315677
0.039423909 0.039842237 0 -0.19972187 -0.52287865 -0.32315677
2.7755576e-17 0.073710866 0.0057847654 -0.19972187 -0.52287865 -0.32315677
2.7755576e-17 0.064104147 0.0010934199 -0.19972187 -0.52287865 -0.32315677
0.002164843 0.061031718 0 -0.19972187 -0.52287865 -0.32315677
0.0050028167 0.059940096 0 -0.19972187 -0.52287865 -0.32315677
0.0078405496 0.058849834 0 -0.19972187 -0.52287865 -0.32315677
0.010678163 0.057760887 0 -0.19972187 -0.52287865 -0.32315677
0.013515776 0.05667321 0 -0.19972187 -0.52287865 -0.32315677
0.01635351 0.055586755 0 -0.19972187 -0.52287865 -0.32315677
0.019191489 0.054501474 0 -0.19972187 -0.52287865 -0.32315677
0.022029828 0.053417325 0 -0.19972187 -0.52287865 -0.32315677
0.02486865 0.05233426 0 -0.19972187 -0.52287865 -0.32315677
0.027708076 0.051252231 0 -0.19972187 -0.52287865 -0.32315677
0.030548226 0.050171196 0 -0.19972187 -0.52287865 -0.32315677
0.033389222 0.049091108 0 -0.19972187 -0.52287865 -0.32315677
0.036231186 0.048011918 0 -0.19972187 -0.52287865 -0.32315677
0.039074235 0.046933584 0 -0.19972187 -0.52287865 -0.32315677
0 0.073507242 0.0021980335 -0.19972187 -0.52287865 -0.32315677
0.0015125399 0.068373643 0 -0.19972187 -0.52287865 -0.32315677
0.0043739136 0.067270711 0 -0.19972187 -0.52287865 -0.32315677
0.0072349631 0.066169336 0 -0.19972187 -0.52287865 -0.32315677
0.010095811 0.065069459 0 -0.19972187 -0.52287865 -0.32315677
0.012956579 0.063971035 0 -0.19972187 -0.52287865 -0.32315677
0.015817393 0.062874027 0 -0.19972187 -0.52287865 -0.32315677
0.018678375 0.061778381 0 -0.19972187 -0.52287865 -0.32315677
0.021539645 0.060684048 0 -0.19972187 -0.52287865 -0.32315677
0.024401329 0.05959098 0 -0.19972187 -0.52287865 -0.32315677
0.027263552 0.058499135 0 -0.19972187 -0.52287865 -0.32315677
0.030126434 0.057408463 0 -0.19972187 -0.52287865 -0.32315677
0.032990098 0.056318916 0 -0.19972187 -0.52287865 -0.32315677
0.035854667 0.05523045 0 -0.19972187 -0.52287865 -0.32315677
0.038720269 0.054143015 0 -0.19972187 -0.52287865 -0.32315677
0.0008505361 0.075843573 0 -0.19972187 -0.52287865 -0.32315677
0.0037357484 0.074728809 0 -0.19972187 -0.52287865 -0.32315677
0.0066205477 0.073615797 0 -0.19972187 -0.52287865 -0.32315677
0.0095050605 0.072504483 0 -0.19972187 -0.52287865 -0.32315677
0.012389411 0.071394816 0 -0.19972187 -0.52287865 -0.32315677
0.015273727 0.070286758 0 -0.19972187 -0.52287865 -0.32315677
0.018158132 0.06918025 0 -0.19972187 -0.52287865 -0.32315677
0.021042753 0.068075247 0 -0.19972187 -0.52287865 -0.32315677
0.023927713 0.066971704 0 -0.19972187 -0.52287865 -0.32315677
0.02681314 0.06586957 0 -0.19972187 -0.52287865 -0.32315677
0.02969916 0.064768799 0 -0.19972187 -0.52287865 -0.32315677
0.032585897 0.063669331 0 -0.19972187 -0.52287865 -0.32315677
0.035473477 0.062571138 0 -0.19972187 -0.52287865 -0.32315677
0.038362026 0.061474163 0 -0.19972187 -0.52287865 -0.32315677
0.011814173 0.078948513 0 -0.19972187 -0.52287865 -0.32315677
0.014722428 0.077828877 0 -0.19972187 -0.52287865 -0.32315677
0.017630691 0.076710999 0 -0.19972187 -0.52287865 -0.32315677
0.020539092 0.075594828 0 -0.19972187 -0.52287865 -0.32315677
0.023447756 0.07448031 0 -0.19972187 -0.52287865 -0.32315677
0.026356813 0.073367395 0 -0.19972187 -0.52287865 -0.32315677
0.029266391 0.072256036 0 -0.19972187 -0.52287865 -0.32315677
0.032176618 0.071146183 0 -0.19972187 -0.52287865 -0.32315677
0.035087619 0.070037782 0 -0.19972187 -0.52287865 -0.32315677
0.037999529 0.068930797 0 -0.19972187 -0.52287865 -0.32315677
0.028828103 0.079874173 0 -0.19972187 -0.52287865 -0.32315677
0.03176225 0.078753427 0 -0.19972187 -0.52287865 -0.32315677
0.034697108 0.077634342 0 -0.19972187 -0.52287865 -0.32315677
0.037632801 0.076516859 0 -0.19972187 -0.52287865 -0.32315677
