# .PCD v0.7 - Point Cloud Data file format
VERSION 0.7
FIELDS x y z vp_x vp_y vp_z
SIZE 4 4 4 4 4 4
TYPE F F F F F F
COUNT 1 1 1 1 1 1
WIDTH 682
HEIGHT 1
VIEWPOINT 0 0 0 1 0 0 0
POINTS 682
DATA ascii
0.0053264708 0.073573142 0.069886982 -0.52287865 0.32315677 -0.19972187
0.0035553053 0.07133238 0.069697365 -0.52287865 0.32315677 -0.19972187
0.0021307089 0.068930119 0.06968572 -0.52287865 0.32315677 -0.19972187
0.0010413099 0.066365719 0.069847636 -0.52287865 0.32315677 -0.19972187
0.013533957 0.078895144 0.06883581 -0.52287865 0.32315677 -0.19972187
0.010136868 0.077372424 0.0678358 -0.52287865 0.32315677 -0.19972187
0.0074482416 0.075544223 0.067188121 -0.52287865 0.32315677 -0.19972187
0.0052610403 0.073496111 0.066791102 -0.52287865 0.32315677 -0.19972187
0.003502313 0.071254224 0.066609822 -0.52287865 0.32315677 -0.19972187
0.0020888932 0.068851247 0.066603847 -0.52287865 0.32315677 -0.19972187
0.0010181458 0.066282295 0.066773243 -0.52287865 0.32315677 -0.19972187
0.0003392784 0.063516751 0.06714455 -0.52287865 0.32315677 -0.19972187
3.0282175e-05 0.060558524 0.067708172 -0.52287865 0.32315677 -0.19972187
0.00019772832 0.057346657 0.06852033 -0.52287865 0.32315677 -0.19972187
0.00099745917 0.053792212 0.069663234 -0.52287865 0.32315677 -0.19972187
0.017937545 0.079864129 0.067242324 -0.52287865 0.32315677 -0.19972187
0.01338074 0.078843519 0.065685458 -0.52287865 0.32315677 -0.19972187
0.010027127 0.077306397 0.064718433 -0.52287865 0.32315677 -0.19972187
0.0073569533 0.075474821 0.064087309 -0.52287865 0.32315677 -0.19972187
0.0051958752 0.073419392 0.063707791 -0.52287865 0.32315677 -0.19972187
0.0034495341 0.07117638 0.063534699 -0.52287865 0.32315677 -0.19972187
0.0020472442 0.068772689 0.06353426 -0.52287865 0.32315677 -0.19972187
0.00099507265 0.066199191 0.063710906 -0.52287865 0.32315677 -0.19972187
0.00032561261 0.063433394 0.064082533 -0.52287865 0.32315677 -0.19972187
2.5748643e-05 0.06047491 0.064644098 -0.52287865 0.32315677 -0.19972187
0.00021233792 0.057257544 0.065456413 -0.52287865 0.32315677 -0.19972187
0.0010225716 0.053701766 0.066591293 -0.52287865 0.32315677 -0.19972187
0.0029721714 0.049527679 0.068314292 -0.52287865 0.32315677 -0.19972187
0.017712116 0.079839602 0.064052038 -0.52287865 0.32315677 -0.19972187
0.013228184 0.078792118 0.062548719 -0.52287865 0.32315677 -0.19972187
0.0099178441 0.077240646 0.061614044 -0.52287865 0.32315677 -0.19972187
0.0072660395 0.075405709 0.060999215 -0.52287865 0.32315677 -0.19972187
0.0051309718 0.073342986 0.060636859 -0.52287865 0.32315677 -0.19972187
0.0033969646 0.071098842 0.060471803 -0.52287865 0.32315677 -0.19972187
0.0020057594 0.068694435 0.060476761 -0.52287865 0.32315677 -0.19972187
0.00097208889 0.066116415 0.060660437 -0.52287865 0.32315677 -0.19972187
0.00031199941 0.063350357 0.061032288 -0.52287865 0.32315677 -0.19972187
2.1232425e-05 0.060391612 0.06159173 -0.52287865 0.32315677 -0.19972187
0.00022689269 0.057168763 0.062403999 -0.52287865 0.32315677 -0.19972187
0.0010479466 0.053611476 0.063530967 -0.52287865 0.32315677 -0.19972187
0.0030488691 0.04941456 0.065259635 -0.52287865 0.32315677 -0.19972187
0.02646964 0.078893937 0.064518712 -0.52287865 0.32315677 -0.19972187
0.01748771 0.079815187 0.060876183 -0.52287865 0.32315677 -0.19972187
0.013076279 0.078740932 0.059425365 -0.52287865 0.32315677 -0.19972187
0.0098090116 0.077175163 0.058522444 -0.52287865 0.32315677 -0.19972187
0.0071754949 0.075336874 0.057923656 -0.52287865 0.32315677 -0.19972187
0.0050663259 0.073266879 0.057578113 -0.52287865 0.32315677 -0.19972187
0.003344602 0.071021616 0.057420935 -0.52287865 0.32315677 -0.19972187
0.0019644359 0.068616495 0.057431173 -0.52287865 0.32315677 -0.19972187
0.00094919314 0.066033952 0.057621654 -0.52287865 0.32315677 -0.19972187
0.00029843795 0.063267633 0.057993643 -0.52287865 0.32315677 -0.19972187
1.6733253e-05 0.060308628 0.058550883 -0.52287865 0.32315677 -0.19972187
0.00024139347 0.057080314 0.059362903 -0.52287865 0.32315677 -0.19972187
0.0010865127 0.053514678 0.060488474 -0.52287865 0.32315677 -0.19972187
0.003125299 0.049301833 0.062215641 -0.52287865 0.32315677 -0.19972187
0.025304843 0.079281077 0.060866833 -0.52287865 0.32315677 -0.19972187
0.017264308 0.079790883 0.057714563 -0.52287865 0.32315677 -0.19972187
0.012925017 0.078689963 0.05631521 -0.52287865 0.32315677 -0.19972187
0.0097006215 0.077109948 0.055443436 -0.52287865 0.32315677 -0.19972187
0.0070853136 0.075268321 0.054860439 -0.52287865 0.32315677 -0.19972187
0.0050019338 0.073191069 0.054531362 -0.52287865 0.32315677 -0.19972187
0.0032924425 0.070944682 0.054381918 -0.52287865 0.32315677 -0.19972187
0.0019232716 0.068538852 0.054397304 -0.52287865 0.32315677 -0.19972187
0.00092638412 0.065951802 0.054594379 -0.52287865 0.32315677 -0.19972187
0.00028492746 0.06318523 0.054966416 -0.52287865 0.32315677 -0.19972187
1.225086e-05 0.060225956 0.055521376 -0.52287865 0.32315677 -0.19972187
0.00025584112 0.056992188 0.05633295 -0.52287865 0.32315677 -0.19972187
0.0011249407 0.05341823 0.057456877 -0.52287865 0.32315677 -0.19972187
0.0032014658 0.049189497 0.05918213 -0.52287865 0.32315677 -0.19972187
0.024725767 0.079408526 0.057514351 -0.52287865 0.32315677 -0.19972187
0.017041896 0.079766691 0.05456695 -0.52287865 0.32315677 -0.19972187
0.012774386 0.078639202 0.053218041 -0.52287865 0.32315677 -0.19972187
0.0095926691 0.077045001 0.052376825 -0.52287865 0.32315677 -0.19972187
0.007002993 0.075196519 0.051812936 -0.52287865 0.32315677 -0.19972187
0.0049377913 0.073115557 0.051496428 -0.52287865 0.32315677 -0.19972187
0.0032404833 0.070868053 0.051354565 -0.52287865 0.32315677 -0.19972187
0.0018822637 0.0684615 0.051374976 -0.52287865 0.32315677 -0.19972187
0.00090366043 0.065869957 0.051578425 -0.52287865 0.32315677 -0.19972187
0.00027146711 0.063103124 0.051950425 -0.52287865 0.32315677 -0.19972187
7.7849827e-06 0.060143586 0.052503031 -0.52287865 0.32315677 -0.19972187
0.00027023649 0.056904383 0.053313963 -0.52287865 0.32315677 -0.19972187
0.0011632328 0.053322118 0.054435998 -0.52287865 0.32315677 -0.19972187
0.0032773737 0.049077541 0.05615893 -0.52287865 0.32315677 -0.19972187
0.024149967 0.079535253 0.054180838 -0.52287865 0.32315677 -0.19972187
0.016820461 0.079742603 0.051433139 -0.52287865 0.32315677 -0.19972187
0.012624376 0.078588657 0.050133668 -0.52287865 0.32315677 -0.19972187
0.0094851451 0.076980308 0.049322419 -0.52287865 0.32315677 -0.19972187
0.0069253417 0.075122967 0.048779331 -0.52287865 0.32315677 -0.19972187
0.0048738942 0.073040329 0.04847312 -0.52287865 0.32315677 -0.19972187
0.0031887211 0.070791706 0.048338693 -0.52287865 0.32315677 -0.19972187
0.0018428842 0.068383731 0.048364703 -0.52287865 0.32315677 -0.19972187
0.00088102068 0.065788418 0.048573613 -0.52287865 0.32315677 -0.19972187
0.00025805613 0.063021325 0.048945498 -0.52287865 0.32315677 -0.19972187
3.3353615e-06 0.060061518 0.049495671 -0.52287865 0.32315677 -0.19972187
0.00028458037 0.056816891 0.050305773 -0.52287865 0.32315677 -0.19972187
0.0012013913 0.053226344 0.051425666 -0.52287865 0.32315677 -0.19972187
0.0033530267 0.048965961 0.053145882 -0.52287865 0.32315677 -0.19972187
0.023577394 0.079661272 0.050866012 -0.52287865 0.32315677 -0.19972187
0.016627243 0.079706311 0.048325446 -0.52287865 0.32315677 -0.19972187
0.012491686 0.078530684 0.047069591 -0.52287865 0.32315677 -0.19972187
0.0093780449 0.076915868 0.046280034 -0.52287865 0.32315677 -0.19972187
0.0068479879 0.075049698 0.04575735 -0.52287865 0.32315677 -0.19972187
0.0048102397 0.072965391 0.045461264 -0.52287865 0.32315677 -0.19972187
0.0031371529 0.070715651 0.045334127 -0.52287865 0.32315677 -0.19972187
0.0018106563 0.06830284 0.045368865 -0.52287865 0.32315677 -0.19972187
0.00085846358 0.065707177 0.045579776 -0.52287865 0.32315677 -0.19972187
0.00024469374 0.062939815 0.045951452 -0.52287865 0.32315677 -0.19972187
1.1598871e-06 0.059978604 0.046500191 -0.52287865 0.32315677 -0.19972187
0.00029887364 0.056729704 0.047308199 -0.52287865 0.32315677 -0.19972187
0.0012394183 0.053130902 0.048425712 -0.52287865 0.32315677 -0.19972187
0.0034284289 0.04885475 0.050142813 -0.52287865 0.32315677 -0.19972187
0.023083163 0.079753086 0.047603633 -0.52287865 0.32315677 -0.19972187
0.016444087 0.079666004 0.045234978 -0.52287865 0.32315677 -0.19972187
0.012363223 0.078471251 0.044019382 -0.52287865 0.32315677 -0.19972187
0.0092713609 0.076851681 0.04324948 -0.52287865 0.32315677 -0.19972187
0 0.078149386 0.03964714 -0.52287865 0.32315677 -0.19972187
0.0047468226 0.072890729 0.042460673 -0.52287865 0.32315677 -0.19972187
0.0030857758 0.070639879 0.042340681 -0.52287865 0.32315677 -0.19972187
0.0017785456 0.068222247 0.04238392 -0.52287865 0.32315677 -0.19972187
0.00083598786 0.065626226 0.042596739 -0.52287865 0.32315677 -0.19972187
0.00023137916 0.062858604 0.042968124 -0.52287865 0.32315677 -0.19972187
5.8257615e-06 0.059892546 0.043518499 -0.52287865 0.32315677 -0.19972187
0.00031311705 0.056642827 0.044321079 -0.52287865 0.32315677 -0.19972187
0.0012773158 0.053035785 0.045435965 -0.52287865 0.32315677 -0.19972187
0.0035035848 0.048743904 0.047149565 -0.52287865 0.32315677 -0.19972187
0.022703724 0.079794362 0.044408511 -0.52287865 0.32315677 -0.19972187
0.016261684 0.07962586 0.042157203 -0.52287865 0.32315677 -0.19972187
0.0087633431 0.079999998 0.03941939 -0.52287865 0.32315677 -0.19972187
0.0022280896 0.079999998 0.03710198 -0.52287865 0.32315677 -0.19972187
0 0.07804206 0.036720473 -0.52287865 0.32315677 -0.19972187
0 0.075038843 0.037347645 -0.52287865 0.32315677 -0.19972187
0.03885242 0.053361326 0.055640973 -0.52287865 0.32315677 -0.19972187
0 0.068990923 0.038613595 -0.52287865 0.32315677 -0.19972187
0.036114499 0.04818058 0.055758111 -0.52287865 0.32315677 -0.19972187
0 0.062886246 0.039895382 -0.52287865 0.32315677 -0.19972187
1.0475434e-05 0.05980679 0.040547162 -0.52287865 0.32315677 -0.19972187
0.00032731143 0.056556243 0.04134424 -0.52287865 0.32315677 -0.19972187
0.0013150859 0.052940983 0.042456269 -0.52287865 0.32315677 -0.19972187
0.003578498 0.048633415 0.044165976 -0.52287865 0.32315677 -0.19972187
0.022326091 0.079835445 0.041228615 -0.52287865 0.32315677 -0.19972187
0.015163674 0.079999998 0.038685896 -0.52287865 0.32315677 -0.19972187
0.0085086655 0.079999998 0.036355641 -0.52287865 0.32315677 -0.19972187
0.0019878978 0.079999998 0.034073308 -0.52287865 0.32315677 -0.19972187
0 0.077935107 0.033803783 -0.52287865 0.32315677 -0.19972187
0 0.074935772 0.034423444 -0.52287865 0.32315677 -0.19972187
0.038816795 0.053271916 0.052475329 -0.52287865 0.32315677 -0.19972187
0.037621036 0.050601672 0.0526108 -0.52287865 0.32315677 -0.19972187
0 0.065854572 0.036305185 -0.52287865 0.32315677 -0.19972187
0 0.062799051 0.036940187 -0.52287865 0.32315677 -0.19972187
0.031660516 0.043778274 0.051947828 -0.52287865 0.32315677 -0.19972187
0 0.056644 0.038222138 -0.52287865 0.32315677 -0.19972187
0 0.053544011 0.038869195 -0.52287865 0.32315677 -0.19972187
0 0.050428737 0.039520383 -0.52287865 0.32315677 -0.19972187
0.033501983 0.074718177 0.043105368 -0.52287865 0.32315677 -0.19972187
0.014895127 0.079999998 0.035599653 -0.52287865 0.32315677 -0.19972187
0.008255084 0.079999998 0.033305079 -0.52287865 0.32315677 -0.19972187
0.001748731 0.079999998 0.031057563 -0.52287865 0.32315677 -0.19972187
0.039950371 0.059084289 0.048517253 -0.52287865 0.32315677 -0.19972187
0 0.074833043 0.031509101 -0.52287865 0.32315677 -0.19972187
0 0.071823888 0.032124966 -0.52287865 0.32315677 -0.19972187
0 0.068800829 0.032744542 -0.52287865 0.32315677 -0.19972187
0 0.06576366 0.03336788 -0.52287865 0.32315677 -0.19972187
0 0.062712155 0.033995029 -0.52287865 0.32315677 -0.19972187
0 0.059646092 0.034626041 -0.52287865 0.32315677 -0.19972187
0.028609298 0.041978691 0.048118055 -0.52287865 0.32315677 -0.19972187
0 0.053469382 0.03589987 -0.52287865 0.32315677 -0.19972187
0 0.050358273 0.036542796 -0.52287865 0.32315677 -0.19972187
0 0.047231685 0.037189804 -0.52287865 0.32315677 -0.19972187
0 0.044089373 0.037840948 -0.52287865 0.32315677 -0.19972187
0.0033005916 0.03914959 0.039999999 -0.52287865 0.32315677 -0.19972187
0 0.037756607 0.039155871 -0.52287865 0.32315677 -0.19972187
0 0.034565654 0.039819773 -0.52287865 0.32315677 -0.19972187
0.035347108 0.079999998 0.039596993 -0.52287865 0.32315677 -0.19972187
0.034833256 0.0771157 0.039999999 -0.52287865 0.32315677 -0.19972187
0.021390434 0.079999998 0.034833558 -0.52287865 0.32315677 -0.19972187
0.014627733 0.079999998 0.032526664 -0.52287865 0.32315677 -0.19972187
0.039131891 0.065742001 0.0437534 -0.52287865 0.32315677 -0.19972187
0.0015105737 0.079999998 0.028054545 -0.52287865 0.32315677 -0.19972187
0 0.077722274 0.027999669 -0.52287865 0.32315677 -0.19972187
0.039570086 0.055930424 0.045883592 -0.52287865 0.32315677 -0.19972187
0 0.071725398 0.029212805 -0.52287865 0.32315677 -0.19972187
0 0.068706267 0.029824769 -0.52287865 0.32315677 -0.19972187
0 0.065673061 0.030440398 -0.52287865 0.32315677 -0.19972187
0 0.06262555 0.03105974 -0.52287865 0.32315677 -0.19972187
0 0.059563525 0.031682845 -0.52287865 0.32315677 -0.19972187
0 0.056486752 0.032309771 -0.52287865 0.32315677 -0.19972187
0 0.053395003 0.032940563 -0.52287865 0.32315677 -0.19972187
0.019658107 0.040029299 0.042346299 -0.52287865 0.32315677 -0.19972187
0.012932581 0.040339451 0.039999999 -0.52287865 0.32315677 -0.19972187
0.011464515 0.037907463 0.039999999 -0.52287865 0.32315677 -0.19972187
0 0.040873587 0.035503492 -0.52287865 0.32315677 -0.19972187
0 0.037703421 0.036154445 -0.52287865 0.32315677 -0.19972187
0 0.034516834 0.036809597 -0.52287865 0.32315677 -0.19972187
0 0.031313576 0.037469011 -0.52287865 0.32315677 -0.19972187
0 0.028093386 0.038132742 -0.52287865 0.32315677 -0.19972187
0 0.024856003 0.038800858 -0.52287865 0.32315677 -0.19972187
0 0.021601161 0.039473414 -0.52287865 0.32315677 -0.19972187
0.035032868 0.079999998 0.036426216 -0.52287865 0.32315677 -0.19972187
0.027997661 0.079999998 0.03405688 -0.52287865 0.32315677 -0.19972187
0.021108789 0.079999998 0.031737596 -0.52287865 0.32315677 -0.19972187
0.014361476 0.079999998 0.029466728 -0.52287865 0.32315677 -0.19972187
0.0077511426 0.079999998 0.027242715 -0.52287865 0.32315677 -0.19972187
0.039886888 0.062087011 0.041623693 -0.52287865 0.32315677 -0.19972187
0 0.077616379 0.025111934 -0.52287865 0.32315677 -0.19972187
0.039553385 0.05582859 0.042762186 -0.52287865 0.32315677 -0.19972187
0.038710665 0.053005554 0.043044224 -0.52287865 0.32315677 -0.19972187
0 0.068612009 0.026914619 -0.52287865 0.32315677 -0.19972187
0.035916422 0.047890048 0.043131959 -0.52287865 0.32315677 -0.19972187
0 0.062539235 0.028134163 -0.52287865 0.32315677 -0.19972187
0 0.05948123 0.02874941 -0.52287865 0.32315677 -0.19972187
0.028439378 0.041900076 0.041828595 -0.52287865 0.32315677 -0.19972187
0.024684276 0.040582348 0.040835489 -0.52287865 0.32315677 -0.19972187
0 0.050218061 0.030617649 -0.52287865 0.32315677 -0.19972187
0 0.047099851 0.03124807 -0.52287865 0.32315677 -0.19972187
0.018326558 0.034180544 0.039999999 -0.52287865 0.32315677 -0.19972187
0 0.04081627 0.032520745 -0.52287865 0.32315677 -0.19972187
0 0.037650414 0.033163112 -0.52287865 0.32315677 -0.19972187
0 0.034468181 0.033809569 -0.52287865 0.32315677 -0.19972187
0 0.031269323 0.03446018 -0.52287865 0.32315677 -0.19972187
0 0.028053578 0.035114996 -0.52287865 0.32315677 -0.19972187
0 0.024820687 0.035774082 -0.52287865 0.32315677 -0.19972187
0 0.021570386 0.036437493 -0.52287865 0.32315677 -0.19972187
0 0.018302405 0.0371053 -0.52287865 0.32315677 -0.19972187
0 0.015016468 0.037777554 -0.52287865 0.32315677 -0.19972187
0 0.011712299 0.038454324 -0.52287865 0.32315677 -0.19972187
0.0018920756 0.0072506061 0.039999999 -0.52287865 0.32315677 -0.19972187
0 0.0050481269 0.039821669 -0.52287865 0.32315677 -0.19972187
0.034719985 0.079999998 0.033269133 -0.52287865 0.32315677 -0.19972187
0.039999999 0.074568436 0.036089785 -0.52287865 0.32315677 -0.19972187
0.020828338 0.079999998 0.028654758 -0.52287865 0.32315677 -0.19972187
0.014096336 0.079999998 0.026419647 -0.52287865 0.32315677 -0.19972187
0.039999999 0.065100454 0.037953313 -0.52287865 0.32315677 -0.19972187
0.0010372258 0.079999998 0.022085918 -0.52287865 0.32315677 -0.19972187
0 0.077510826 0.022233535 -0.52287865 0.32315677 -0.19972187
0.039999999 0.055506814 0.039848246 -0.52287865 0.32315677 -0.19972187
0 0.071529374 0.023417059 -0.52287865 0.32315677 -0.19972187
0.037450448 0.050279923 0.040038697 -0.52287865 0.32315677 -0.19972187
0.035860758 0.047821287 0.039999999 -0.52287865 0.32315677 -0.19972187
0 0.062453199 0.02521814 -0.52287865 0.32315677 -0.19972187
0.032860074 0.042823479 0.039999999 -0.52287865 0.32315677 -0.19972187
0.031358551 0.040328201 0.039999999 -0.52287865 0.32315677 -0.19972187
0 0.053246986 0.02705133 -0.52287865 0.32315677 -0.19972187
0 0.050148305 0.027669761 -0.52287865 0.32315677 -0.19972187
0 0.04703426 0.028291961 -0.52287865 0.32315677 -0.19972187
0 0.043904621 0.028917985 -0.52287865 0.32315677 -0.19972187
0.023837371 0.027884994 0.039999999 -0.52287865 0.32315677 -0.19972187
0.022330111 0.025402458 0.039999999 -0.52287865 0.32315677 -0.19972187
0 0.034419689 0.030819526 -0.52287865 0.32315677 -0.19972187
0.019312218 0.020442894 0.039999999 -0.52287865 0.32315677 -0.19972187
0 0.028013902 0.032107335 -0.52287865 0.32315677 -0.19972187
0 0.024785491 0.032757442 -0.52287865 0.32315677 -0.19972187
0 0.021539716 0.033411767 -0.52287865 0.32315677 -0.19972187
0 0.01827631 0.034070369 -0.52287865 0.32315677 -0.19972187
0 0.014994999 0.034733307 -0.52287865 0.32315677 -0.19972187
0 0.011695507 0.03540064 -0.52287865 0.32315677 -0.19972187
0 0.008377553 0.036072437 -0.52287865 0.32315677 -0.19972187
0 0.0050408486 0.036748756 -0.52287865 0.32315677 -0.19972187
0.0027408486 0 0.038672779 -0.52287865 0.32315677 -0.19972187
0.034408439 0.079999998 0.030125532 -0.52287865 0.32315677 -0.19972187
0.027406203 0.079999998 0.027831091 -0.52287865 0.32315677 -0.19972187
0.039999999 0.071296677 0.033649262 -0.52287865 0.32315677 -0.19972187
0.013832299 0.079999998 0.023385225 -0.52287865 0.32315677 -0.19972187
0.039999999 0.064979069 0.034880009 -0.52287865 0.32315677 -0.19972187
0.00080200518 0.079999998 0.01911993 -0.52287865 0.32315677 -0.19972187
0 0.077405617 0.01936432 -0.52287865 0.32315677 -0.19972187
0 0.074425504 0.0199471 -0.52287865 0.32315677 -0.19972187
0 0.071431838 0.020533165 -0.52287865 0.32315677 -0.19972187
0.039999999 0.0489375 0.038017064 -0.52287865 0.32315677 -0.19972187
0 0.065403022 0.021715324 -0.52287865 0.32315677 -0.19972187
0 0.062367439 0.022311512 -0.52287865 0.32315677 -0.19972187
0 0.059317447 0.02291117 -0.52287865 0.32315677 -0.19972187
0 0.056252822 0.023514347 -0.52287865 0.32315677 -0.19972187
0 0.053173341 0.024121091 -0.52287865 0.32315677 -0.19972187
0 0.050078772 0.02473145 -0.52287865 0.32315677 -0.19972187
0 0.046968885 0.025345476 -0.52287865 0.32315677 -0.19972187
0 0.043843441 0.025963223 -0.52287865 0.32315677 -0.19972187
0 0.040702201 0.026584739 -0.52287865 0.32315677 -0.19972187
0 0.037544921 0.027210081 -0.52287865 0.32315677 -0.19972187
0 0.034371357 0.027839299 -0.52287865 0.32315677 -0.19972187
0.026413925 0.016431713 0.039999999 -0.52287865 0.32315677 -0.19972187
0 0.027974358 0.029109593 -0.52287865 0.32315677 -0.19972187
0 0.02475041 0.029750781 -0.52287865 0.32315677 -0.19972187
0 0.021509146 0.03039607 -0.52287865 0.32315677 -0.19972187
0 0.018250301 0.031045523 -0.52287865 0.32315677 -0.19972187
0.018755049 0.0039194296 0.039999999 -0.52287865 0.32315677 -0.19972187
0.017219493 0.0014211461 0.039999999 -0.52287865 0.32315677 -0.19972187
0 0.0083655315 0.033019446 -0.52287865 0.32315677 -0.19972187
0 0.005033595 0.03368615 -0.52287865 0.32315677 -0.19972187
0 0.0016826726 0.034357321 -0.52287865 0.32315677 -0.19972187
0.034098212 0.079999998 0.02699521 -0.52287865 0.32315677 -0.19972187
0.027112335 0.079999998 0.024737796 -0.52287865 0.32315677 -0.19972187
0.039999999 0.071167707 0.030600525 -0.52287865 0.32315677 -0.19972187
0.013569346 0.079999998 0.020363269 -0.52287865 0.32315677 -0.19972187
0.0070030438 0.079999998 0.018243155 -0.52287865 0.32315677 -0.19972187
0.0005677336 0.079999998 0.016165908 -0.52287865 0.32315677 -0.19972187
0.039999999 0.058492851 0.033045337 -0.52287865 0.32315677 -0.19972187
0 0.074324429 0.017079664 -0.52287865 0.32315677 -0.19972187
0 0.071334615 0.017658381 -0.52287865 0.32315677 -0.19972187
0 0.06833107 0.018240334 -0.52287865 0.32315677 -0.19972187
0.039999999 0.045588691 0.035544354 -0.52287865 0.32315677 -0.19972187
0.039999999 0.042325139 0.036177937 -0.52287865 0.32315677 -0.19972187
0 0.059235945 0.020006055 -0.52287865 0.32315677 -0.19972187
0 0.056175347 0.020601407 -0.52287865 0.32315677 -0.19972187
0.039999999 0.032440692 0.038100671 -0.52287865 0.32315677 -0.19972187
0 0.050009463 0.021802558 -0.52287865 0.32315677 -0.19972187
0 0.046903718 0.022408457 -0.52287865 0.32315677 -0.19972187
0 0.043782458 0.023017973 -0.52287865 0.32315677 -0.19972187
0 0.040645443 0.023631157 -0.52287865 0.32315677 -0.19972187
0.036774367 0.017401488 0.039999999 -0.52287865 0.32315677 -0.19972187
0 0.034323178 0.024868734 -0.52287865 0.32315677 -0.19972187
0.033680145 0.012327612 0.039999999 -0.52287865 0.32315677 -0.19972187
0 0.027934941 0.026121613 -0.52287865 0.32315677 -0.19972187
0 0.024715442 0.026753929 -0.52287865 0.32315677 -0.19972187
0 0.021478677 0.027390236 -0.52287865 0.32315677 -0.19972187
0 0.018224377 0.028030591 -0.52287865 0.32315677 -0.19972187
0 0.014952274 0.028675053 -0.52287865 0.32315677 -0.19972187
0 0.011662091 0.029323682 -0.52287865 0.32315677 -0.19972187
0 0.00835355 0.029976537 -0.52287865 0.32315677 -0.19972187
0.0082613258 0 0.034273226 -0.52287865 0.32315677 -0.19972187
0 0.0016802489 0.031295169 -0.52287865 0.32315677 -0.19972187
0.033789277 0.079999998 0.023877965 -0.52287865 0.32315677 -0.19972187
0.039999999 0.07416974 0.026965387 -0.52287865 0.32315677 -0.19972187
0.019993966 0.079999998 0.019483007 -0.52287865 0.32315677 -0.19972187
0.013307461 0.079999998 0.017353587 -0.52287865 0.32315677 -0.19972187
0.0067556971 0.079999998 0.015267601 -0.52287865 0.32315677 -0.19972187
0.00033439646 0.079999998 0.013223669 -0.52287865 0.32315677 -0.19972187
0.039999999 0.058380295 0.029975908 -0.52287865 0.32315677 -0.19972187
0.039999999 0.055180393 0.030587699 -0.52287865 0.32315677 -0.19972187
0.039999999 0.051965982 0.031202825 -0.52287865 0.32315677 -0.19972187
0 0.068238012 0.015367114 -0.52287865 0.32315677 -0.19972187
0 0.065224431 0.015944853 -0.52287865 0.32315677 -0.19972187
0 0.062196735 0.016525824 -0.52287865 0.32315677 -0.19972187
0.039999999 0.038958654 0.033697624 -0.52287865 0.32315677 -0.19972187
0 0.056098115 0.017697638 -0.52287865 0.32315677 -0.19972187
0 0.053026747 0.018288575 -0.52287865 0.32315677 -0.19972187
0 0.049940374 0.018882928 -0.52287865 0.32315677 -0.19972187
0 0.046838757 0.019480746 -0.52287865 0.32315677 -0.19972187
0.039999999 0.022344997 0.036896992 -0.52287865 0.32315677 -0.19972187
0 0.040588867 0.020686977 -0.52287865 0.32315677 -0.19972187
0 0.03744011 0.021295488 -0.52287865 0.32315677 -0.19972187
0 0.034275159 0.021907667 -0.52287865 0.32315677 -0.19972187
0.039999999 0.0087510562 0.039525248 -0.52287865 0.32315677 -0.19972187
0 0.027895652 0.023143232 -0.52287865 0.32315677 -0.19972187
0 0.024680588 0.023766726 -0.52287865 0.32315677 -0.19972187
0 0.021448307 0.024394101 -0.52287865 0.32315677 -0.19972187
0.03120305 0 0.038437322 -0.52287865 0.32315677 -0.19972187
0 0.014931017 0.02566072 -0.52287865 0.32315677 -0.19972187
0 0.011645465 0.026300076 -0.52287865 0.32315677 -0.19972187
0 0.0083416067 0.026943544 -0.52287865 0.32315677 -0.19972187
0 0.0050191586 0.02759118 -0.52287865 0.32315677 -0.19972187
0 0.001677833 0.028243048 -0.52287865 0.32315677 -0.19972187
0.03348162 0.079999998 0.020773595 -0.52287865 0.32315677 -0.19972187
0.02652823 0.079999998 0.018589405 -0.52287865 0.32315677 -0.19972187
0.019718112 0.079999998 0.016450694 -0.52287865 0.32315677 -0.19972187
0.013046628 0.079999998 0.014355991 -0.52287865 0.32315677 -0.19972187
0.0065093348 0.079999998 0.012303888 -0.52287865 0.32315677 -0.19972187
0.00010197941 0.079999998 0.010293033 -0.52287865 0.32315677 -0.19972187
0.039999999 0.058268081 0.02691588 -0.52287865 0.32315677 -0.19972187
0 0.074123226 0.011371399 -0.52287865 0.32315677 -0.19972187
0.039999999 0.05186196 0.028127253 -0.52287865 0.32315677 -0.19972187
0 0.068145238 0.012502744 -0.52287865 0.32315677 -0.19972187
0.039999999 0.045397032 0.029351754 -0.52287865 0.32315677 -0.19972187
0.039999999 0.042141948 0.029969044 -0.52287865 0.32315677 -0.19972187
0 0.059073713 0.01422306 -0.52287865 0.32315677 -0.19972187
0 0.056021124 0.014802889 -0.52287865 0.32315677 -0.19972187
0 0.052953795 0.015385989 -0.52287865 0.32315677 -0.19972187
0.039999999 0.028965287 0.032472931 -0.52287865 0.32315677 -0.19972187
0 0.046774 0.01656219 -0.52287865 0.32315677 -0.19972187
0 0.043661069 0.017155385 -0.52287865 0.32315677 -0.19972187
0 0.040532466 0.017752042 -0.52287865 0.32315677 -0.19972187
0.039999999 0.015526759 0.035034787 -0.52287865 0.32315677 -0.19972187
0 0.034227286 0.01895594 -0.52287865 0.32315677 -0.19972187
0 0.031050215 0.019563282 -0.52287865 0.32315677 -0.19972187
0 0.027856486 0.020174289 -0.52287865 0.32315677 -0.19972187
0 0.024645846 0.020789012 -0.52287865 0.32315677 -0.19972187
0 0.021418033 0.021407509 -0.52287865 0.32315677 -0.19972187
0.031156257 0 0.035243131 -0.52287865 0.32315677 -0.19972187
0 0.014909826 0.022656031 -0.52287865 0.32315677 -0.19972187
0 0.011628892 0.023286169 -0.52287865 0.32315677 -0.19972187
0 0.0083297025 0.023920303 -0.52287865 0.32315677 -0.19972187
0 0.0050119758 0.02455849 -0.52287865 0.32315677 -0.19972187
0.0027250226 0 0.02637299 -0.52287865 0.32315677 -0.19972187
0.033175219 0.079999998 0.017681906 -0.52287865 0.32315677 -0.19972187
0.039999999 0.073905967 0.020928698 -0.52287865 0.32315677 -0.19972187
0.019443363 0.079999998 0.013430532 -0.52287865 0.32315677 -0.19972187
0.039999999 0.067647018 0.022094315 -0.52287865 0.32315677 -0.19972187
0.0062639415 0.079999998 0.00935183 -0.52287865 0.32315677 -0.19972187
0 0.079939745 0.0074251341 -0.52287865 0.32315677 -0.19972187
0.039999999 0.058156211 0.023865089 -0.52287865 0.32315677 -0.19972187
0 0.074023075 0.008530274 -0.52287865 0.32315677 -0.19972187
0 0.071044728 0.0090871966 -0.52287865 0.32315677 -0.19972187
0.039999999 0.048537396 0.025663713 -0.52287865 0.32315677 -0.19972187
0 0.065046936 0.010209952 -0.52287865 0.32315677 -0.19972187
0.039999999 0.042050771 0.026878862 -0.52287865 0.32315677 -0.19972187
0.039999999 0.038784549 0.027491394 -0.52287865 0.32315677 -0.19972187
0 0.055944372 0.011917008 -0.52287865 0.32315677 -0.19972187
0 0.052881069 0.012492315 -0.52287865 0.32315677 -0.19972187
0 0.049802836 0.01307084 -0.52287865 0.32315677 -0.19972187
0 0.046709441 0.013652631 -0.52287865 0.32315677 -0.19972187
0 0.043600656 0.014237734 -0.52287865 0.32315677 -0.19972187
0 0.040476244 0.014826198 -0.52287865 0.32315677 -0.19972187
0 0.037335962 0.015418069 -0.52287865 0.32315677 -0.19972187
0 0.034179565 0.016013399 -0.52287865 0.32315677 -0.19972187
0 0.031006811 0.016612235 -0.52287865 0.32315677 -0.19972187
0.039999999 0.0052241078 0.03381018 -0.52287865 0.32315677 -0.19972187
0 0.02461121 0.017820632 -0.52287865 0.32315677 -0.19972187
0 0.021387853 0.018430298 -0.52287865 0.32315677 -0.19972187
0 0.018147107 0.019043678 -0.52287865 0.32315677 -0.19972187
0 0.014888703 0.019660827 -0.52287865 0.32315677 -0.19972187
0 0.011612372 0.020281801 -0.52287865 0.32315677 -0.19972187
0 0.0083178366 0.020906653 -0.52287865 0.32315677 -0.19972187
0 0.0050048158 0.021535445 -0.52287865 0.32315677 -0.19972187
0 0.0016730247 0.022168228 -0.52287865 0.32315677 -0.19972187
0.039938129 0.079999998 0.016759932 -0.52287865 0.32315677 -0.19972187
0.032870054 0.079999998 0.014602702 -0.52287865 0.32315677 -0.19972187
0.025948841 0.079999998 0.01249066 -0.52287865 0.32315677 -0.19972187
0.039999999 0.070655763 0.018497936 -0.52287865 0.32315677 -0.19972187
0.012528052 0.079999998 0.0083963145 -0.52287865 0.32315677 -0.19972187
0.0060195024 0.079999998 0.0064112497 -0.52287865 0.32315677 -0.19972187
0.039999999 0.061218187 0.020237628 -0.52287865 0.32315677 -0.19972187
0 0.076884404 0.005150713 -0.52287865 0.32315677 -0.19972187
0 0.07392323 0.0056976238 -0.52287865 0.32315677 -0.19972187
0.039999999 0.051654864 0.022003921 -0.52287865 0.32315677 -0.19972187
0 0.067960538 0.00679996 -0.52287865 0.32315677 -0.19972187
0.039999999 0.045206543 0.023196798 -0.52287865 0.32315677 -0.19972187
0 0.061942644 0.007913922 -0.52287865 0.32315677 -0.19972187
0.039999999 0.038697887 0.024402371 -0.52287865 0.32315677 -0.19972187
0 0.055867847 0.0090398453 -0.52287865 0.32315677 -0.19972187
0 0.05280856 0.0096074007 -0.52287865 0.32315677 -0.19972187
0 0.04973438 0.010178078 -0.52287865 0.32315677 -0.19972187
0.039999999 0.025492052 0.026853081 -0.52287865 0.32315677 -0.19972187
0 0.043540429 0.011328978 -0.52287865 0.32315677 -0.19972187
0 0.040420189 0.011909293 -0.52287865 0.32315677 -0.19972187
0 0.037284125 0.012492914 -0.52287865 0.32315677 -0.19972187
0 0.034131989 0.013079888 -0.52287865 0.32315677 -0.19972187
0 0.03096354 0.013670266 -0.52287865 0.32315677 -0.19972187
0 0.027778521 0.014264095 -0.52287865 0.32315677 -0.19972187
0 0.024576684 0.014861426 -0.52287865 0.32315677 -0.19972187
0 0.021357767 0.015462311 -0.52287865 0.32315677 -0.19972187
0 0.018121511 0.016066801 -0.52287865 0.32315677 -0.19972187
0 0.014867646 0.016674951 -0.52287865 0.32315677 -0.19972187
0 0.011595903 0.017286809 -0.52287865 0.32315677 -0.19972187
0 0.0083060069 0.017902436 -0.52287865 0.32315677 -0.19972187
0 0.0049976776 0.018521884 -0.52287865 0.32315677 -0.19972187
0.0027171862 0 0.020282572 -0.52287865 0.32315677 -0.19972187
0.039617587 0.079999998 0.013656439 -0.52287865 0.32315677 -0.19972187
0.039999999 0.076745667 0.014363194 -0.52287865 0.32315677 -0.19972187
0.025660869 0.079999998 0.0094594294 -0.52287865 0.32315677 -0.19972187
0.018897111 0.079999998 0.007425915 -0.52287865 0.32315677 -0.19972187
0.012270276 0.079999998 0.0054338677 -0.52287865 0.32315677 -0.19972187
0.0057760025 0.079999998 0.0034819671 -0.52287865 0.32315677 -0.19972187
0 0.07972537 0.0017962927 -0.52287865 0.32315677 -0.19972187
0 0.076781094 0.0023334504 -0.52287865 0.32315677 -0.19972187
0 0.073823683 0.0028733034 -0.52287865 0.32315677 -0.19972187
0 0.070852913 0.003415891 -0.52287865 0.32315677 -0.19972187
0 0.067868598 0.0039612525 -0.52287865 0.32315677 -0.19972187
0 0.064870514 0.0045094285 -0.52287865 0.32315677 -0.19972187
0.039999999 0.041869242 0.020726223 -0.52287865 0.32315677 -0.19972187
0 0.058832206 0.0056143869 -0.52287865 0.32315677 -0.19972187
0 0.055791553 0.0061712526 -0.52287865 0.32315677 -0.19972187
0 0.052736267 0.0067310994 -0.52287865 0.32315677 -0.19972187
0 0.049666133 0.0072939708 -0.52287865 0.32315677 -0.19972187
0 0.046580914 0.0078599108 -0.52287865 0.32315677 -0.19972187
0 0.043480385 0.0084289629 -0.52287865 0.32315677 -0.19972187
0 0.040364306 0.009001174 -0.52287865 0.32315677 -0.19972187
0.039999999 0.015359354 0.025587836 -0.52287865 0.32315677 -0.19972187
0.039999999 0.011970655 0.02621077 -0.52287865 0.32315677 -0.19972187
0.039999999 0.0085644377 0.026837256 -0.52287865 0.32315677 -0.19972187
0 0.027739719 0.011322534 -0.52287865 0.32315677 -0.19972187
0 0.024542263 0.011911241 -0.52287865 0.32315677 -0.19972187
0 0.021327775 0.012503395 -0.52287865 0.32315677 -0.19972187
0 0.018095993 0.013099045 -0.52287865 0.32315677 -0.19972187
0 0.014846653 0.013698243 -0.52287865 0.32315677 -0.19972187
0.019432306 0 0.022255007 -0.52287865 0.32315677 -0.19972187
0 0.0082942136 0.014907491 -0.52287865 0.32315677 -0.19972187
0 0.0049905623 0.01551765 -0.52287865 0.32315677 -0.19972187
0 0.0016682466 0.016131571 -0.52287865 0.32315677 -0.19972187
0.039298322 0.079999998 0.010565317 -0.52287865 0.32315677 -0.19972187
0.032263361 0.079999998 0.0084809819 -0.52287865 0.32315677 -0.19972187
0.025374023 0.079999998 0.0064400434 -0.52287865 0.32315677 -0.19972187
0.018625576 0.079999998 0.0044410918 -0.52287865 0.32315677 -0.19972187
0.01201349 0.079999998 0.002482777 -0.52287865 0.32315677 -0.19972187
0.005533427 0.079999998 0.00056380709 -0.52287865 0.32315677 -0.19972187
0.0026467817 0.078385867 0 -0.52287865 0.32315677 -0.19972187
0.0012482762 0.076089665 2.7755576e-17 -0.52287865 0.32315677 -0.19972187
0 0.073724419 5.7168862e-05 -0.52287865 0.32315677 -0.19972187
0.039999999 0.051448986 0.015916625 -0.52287865 0.32315677 -0.19972187
0.039999999 0.048240468 0.016495954 -0.52287865 0.32315677 -0.19972187
0 0.064782687 0.0016716914 -0.52287865 0.32315677 -0.19972187
0 0.061774511 0.0022153382 -0.52287865 0.32315677 -0.19972187
0 0.058752183 0.0027617882 -0.52287865 0.32315677 -0.19972187
0 0.055715479 0.003311082 -0.52287865 0.32315677 -0.19972187
0 0.052664191 0.0038632618 -0.52287865 0.32315677 -0.19972187
0 0.049598083 0.0044183694 -0.52287865 0.32315677 -0.19972187
0 0.046516936 0.0049764481 -0.52287865 0.32315677 -0.19972187
0 0.043420516 0.0055375411 -0.52287865 0.32315677 -0.19972187
0.039999999 0.018670822 0.02184711 -0.52287865 0.32315677 -0.19972187
0 0.037180923 0.0066689472 -0.52287865 0.32315677 -0.19972187
0 0.03403727 0.0072393515 -0.52287865 0.32315677 -0.19972187
0 0.030877389 0.0078129508 -0.52287865 0.32315677 -0.19972187
0 0.027701031 0.0083897924 -0.52287865 0.32315677 -0.19972187
0 0.024507944 0.0089699244 -0.52287865 0.32315677 -0.19972187
0 0.02129787 0.0095533952 -0.52287865 0.32315677 -0.19972187
0 0.018070552 0.010140254 -0.52287865 0.32315677 -0.19972187
0.025141984 0 0.0208499 -0.52287865 0.32315677 -0.19972187
0.019403817 0 0.019156178 -0.52287865 0.32315677 -0.19972187
0 0.0082824565 0.011921665 -0.52287865 0.32315677 -0.19972187
0 0.0049834684 0.012522585 -0.52287865 0.32315677 -0.19972187
0 0.0016658684 0.013127153 -0.52287865 0.32315677 -0.19972187
0.038980316 0.079999998 0.0074863746 -0.52287865 0.32315677 -0.19972187
0.031961795 0.079999998 0.0054380903 -0.52287865 0.32315677 -0.19972187
0.025088286 0.079999998 0.00343232 -0.52287865 0.32315677 -0.19972187
0.018355079 0.079999998 0.0014676846 -0.52287865 0.32315677 -0.19972187
0.012984191 0.079442173 0 -0.52287865 0.32315677 -0.19972187
0.01156254 0.077113084 0 -0.52287865 0.32315677 -0.19972187
0.010141758 0.074786492 0 -0.52287865 0.32315677 -0.19972187
0.0087217921 0.072462313 0 -0.52287865 0.32315677 -0.19972187
0.0073025911 0.070140451 0 -0.52287865 0.32315677 -0.19972187
0.0058841044 0.067820825 0 -0.52287865 0.32315677 -0.19972187
0.0044662794 0.065503351 0 -0.52287865 0.32315677 -0.19972187
0.0030490663 0.063187942 0 -0.52287865 0.32315677 -0.19972187
0.0016324136 0.060874518 0 -0.52287865 0.32315677 -0.19972187
0.00021627027 0.05856299 2.7755576e-17 -0.52287865 0.32315677 -0.19972187
0 0.055639628 0.00045918883 -0.52287865 0.32315677 -0.19972187
0 0.052592319 0.0010037423 -0.52287865 0.32315677 -0.19972187
0 0.049530234 0.001551128 -0.52287865 0.32315677 -0.19972187
0 0.046453144 0.0021013876 -0.52287865 0.32315677 -0.19972187
0 0.043360822 0.0026545636 -0.52287865 0.32315677 -0.19972187
0.039999999 0.018611018 0.018734956 -0.52287865 0.32315677 -0.19972187
0.039999999 0.015248584 0.01933687 -0.52287865 0.32315677 -0.19972187
0 0.033990119 0.0043320241 -0.52287865 0.32315677 -0.19972187
0 0.030834505 0.0048973029 -0.52287865 0.32315677 -0.19972187
0 0.027662458 0.0054657208 -0.52287865 0.32315677 -0.19972187
0 0.024473727 0.0060373237 -0.52287865 0.32315677 -0.19972187
0 0.021268057 0.0066121593 -0.52287865 0.32315677 -0.19972187
0 0.018045187 0.0071902755 -0.52287865 0.32315677 -0.19972187
0 0.014804857 0.0077717206 -0.52287865 0.32315677 -0.19972187
0 0.011546797 0.0083565451 -0.52287865 0.32315677 -0.19972187
0.013733828 0 0.014425597 -0.52287865 0.32315677 -0.19972187
0 0.004976396 0.0095365336 -0.52287865 0.32315677 -0.19972187
0 0.0016634976 0.010131801 -0.52287865 0.32315677 -0.19972187
0.039999999 0.079421297 0.0049052727 -0.52287865 0.32315677 -0.19972187
0.031661395 0.079999998 0.0024069301 -0.52287865 0.32315677 -0.19972187
0.024803638 0.079999998 0.00043607681 -0.52287865 0.32315677 -0.19972187
0.022164065 0.078166783 0 -0.52287865 0.32315677 -0.19972187
0.020718861 0.075806469 0 -0.52287865 0.32315677 -0.19972187
0.019274753 0.07344874 0 -0.52287865 0.32315677 -0.19972187
0.017831689 0.071093492 0 -0.52287865 0.32315677 -0.19972187
0.016389614 0.068740644 0 -0.52287865 0.32315677 -0.19972187
0.014948475 0.066390112 0 -0.52287865 0.32315677 -0.19972187
0.01350822 0.064041793 0 -0.52287865 0.32315677 -0.19972187
0.012068794 0.061695613 2.7755576e-17 -0.52287865 0.32315677 -0.19972187
0.010630145 0.059351474 0 -0.52287865 0.32315677 -0.19972187
0.009192219 0.057009298 0 -0.52287865 0.32315677 -0.19972187
0.0077549634 0.054668993 0 -0.52287865 0.32315677 -0.19972187
0.0063183261 0.052330475 0 -0.52287865 0.32315677 -0.19972187
0.0048822537 0.049993657 0 -0.52287865 0.32315677 -0.19972187
0.0034466945 0.047658447 0 -0.52287865 0.32315677 -0.19972187
0.0020115958 0.045324769 0 -0.52287865 0.32315677 -0.19972187
0.039999999 0.021892473 0.015041688 -0.52287865 0.32315677 -0.19972187
0 0.040197641 0.00032804717 -0.52287865 0.32315677 -0.19972187
0.039999999 0.01519344 0.016225006 -0.52287865 0.32315677 -0.19972187
0 0.033943105 0.0014331262 -0.52287865 0.32315677 -0.19972187
0 0.030791745 0.0019901299 -0.52287865 0.32315677 -0.19972187
0 0.027623996 0.0025501694 -0.52287865 0.32315677 -0.19972187
0.039999999 0.0015878706 0.018630097 -0.52287865 0.32315677 -0.19972187
0 0.021238329 0.003679537 -0.52287865 0.32315677 -0.19972187
0 0.018019898 0.0042489581 -0.52287865 0.32315677 -0.19972187
0.025067927 0 0.014627855 -0.52287865 0.32315677 -0.19972187
0 0.011530526 0.0053975121 -0.52287865 0.32315677 -0.19972187
0.013713913 0 0.011371749 -0.52287865 0.32315677 -0.19972187
0.0081661427 0 0.0097809732 -0.52287865 0.32315677 -0.19972187
0 0.0016611338 0.007145361 -0.52287865 0.32315677 -0.19972187
0.038348 0.079999998 0.0013642773 -0.52287865 0.32315677 -0.19972187
0.033067595 0.079251781 0 -0.52287865 0.32315677 -0.19972187
0.031596314 0.076856703 0 -0.52287865 0.32315677 -0.19972187
0.030126426 0.074464381 0 -0.52287865 0.32315677 -0.19972187
0.028657882 0.072074719 0 -0.52287865 0.32315677 -0.19972187
0.027190618 0.069687627 0 -0.52287865 0.32315677 -0.19972187
0.025724584 0.067303024 2.7755576e-17 -0.52287865 0.32315677 -0.19972187
0.024259722 0.064920798 0 -0.52287865 0.32315677 -0.19972187
0.022795977 0.062540874 0 -0.52287865 0.32315677 -0.19972187
0.021333292 0.060163155 0 -0.52287865 0.32315677 -0.19972187
0.019871613 0.057787549 0 -0.52287865 0.32315677 -0.19972187
0.018410884 0.055413969 0 -0.52287865 0.32315677 -0.19972187
0.016951049 0.053042319 0 -0.52287865 0.32315677 -0.19972187
0.039999999 0.038268372 0.0090918262 -0.52287865 0.32315677 -0.19972187
0.014033847 0.048304468 0 -0.52287865 0.32315677 -0.19972187
0.01257637 0.045938086 2.7755576e-17 -0.52287865 0.32315677 -0.19972187
0.011119568 0.043573279 0 -0.52287865 0.32315677 -0.19972187
0.0096633881 0.041209962 0 -0.52287865 0.32315677 -0.19972187
0.0082077766 0.038848042 0 -0.52287865 0.32315677 -0.19972187
0.0067526782 0.036487438 0 -0.52287865 0.32315677 -0.19972187
0.0052980389 0.034128051 0 -0.52287865 0.32315677 -0.19972187
0.0038438051 0.031769801 0 -0.52287865 0.32315677 -0.19972187
0.0023899225 0.029412599 2.7755576e-17 -0.52287865 0.32315677 -0.19972187
0.00093633716 0.027056357 0 -0.52287865 0.32315677 -0.19972187
0 0.024405591 0.00019767365 -0.52287865 0.32315677 -0.19972187
0 0.021208689 0.00075537909 -0.52287865 0.32315677 -0.19972187
0 0.017994681 0.0013161523 -0.52287865 0.32315677 -0.19972187
0 0.014763307 0.0018800395 -0.52287865 0.32315677 -0.19972187
0.019318877 0 0.0099166557 -0.52287865 0.32315677 -0.19972187
0 0.008247395 0.0030173445 -0.52287865 0.32315677 -0.19972187
0 0.0049623135 0.0035908588 -0.52287865 0.32315677 -0.19972187
0.0026978054 0 0.0052196528 -0.52287865 0.32315677 -0.19972187
0.039796565 0.073085047 2.7755576e-17 -0.52287865 0.32315677 -0.19972187
0.038302399 0.070662647 0 -0.52287865 0.32315677 -0.19972187
0.036809772 0.068242908 0 -0.52287865 0.32315677 -0.19972187
0.035318624 0.065825723 0 -0.52287865 0.32315677 -0.19972187
0.033828903 0.06341102 0 -0.52287865 0.32315677 -0.19972187
0.032340541 0.060998686 0 -0.52287865 0.32315677 -0.19972187
0.030853488 0.058588631 0 -0.52287865 0.32315677 -0.19972187
0.029367682 0.056180764 0 -0.52287865 0.32315677 -0.19972187
0.027883066 0.053774994 0 -0.52287865 0.32315677 -0.19972187
0.026399584 0.05137122 0 -0.52287865 0.32315677 -0.19972187
0.024917178 0.048969354 0 -0.52287865 0.32315677 -0.19972187
0.02343579 0.046569303 0 -0.52287865 0.32315677 -0.19972187
0.021955363 0.044170972 0 -0.52287865 0.32315677 -0.19972187
0.020475842 0.041774273 0 -0.52287865 0.32315677 -0.19972187
0.01899717 0.039379112 0 -0.52287865 0.32315677 -0.19972187
0.01751929 0.036985397 0 -0.52287865 0.32315677 -0.19972187
0.016042145 0.034593035 0 -0.52287865 0.32315677 -0.19972187
0.014565678 0.032201938 0 -0.52287865 0.32315677 -0.19972187
0.013089837 0.029812016 0 -0.52287865 0.32315677 -0.19972187
0.011614561 0.027423173 0 -0.52287865 0.32315677 -0.19972187
0.010139798 0.025035322 0 -0.52287865 0.32315677 -0.19972187
0.008665489 0.022648372 0 -0.52287865 0.32315677 -0.19972187
0.0071915803 0.020262232 0 -0.52287865 0.32315677 -0.19972187
0.0057180151 0.017876811 0 -0.52287865 0.32315677 -0.19972187
0.0042447383 0.01549202 0 -0.52287865 0.32315677 -0.19972187
0.002771694 0.013107768 0 -0.52287865 0.32315677 -0.19972187
0.0012988267 0.010723967 0 -0.52287865 0.32315677 -0.19972187
0 0.0082357759 6.6453387e-05 -0.52287865 0.32315677 -0.19972187
0 0.0049553025 0.00063093193 -0.52287865 0.32315677 -0.19972187
0.0026939635 0 0.0022337832 -0.52287865 0.32315677 -0.19972187
0.039129872 0.05452903 0 -0.52287865 0.32315677 -0.19972187
0.03762022 0.052090246 2.7755576e-17 -0.52287865 0.32315677 -0.19972187
0.036111955 0.049653534 0 -0.52287865 0.32315677 -0.19972187
0.034605011 0.047218796 2.7755576e-17 -0.52287865 0.32315677 -0.19972187
0.033099338 0.044785932 0 -0.52287865 0.32315677 -0.19972187
0.031594869 0.042354852 0 -0.52287865 0.32315677 -0.19972187
0.03009155 0.03992546 0 -0.52287865 0.32315677 -0.19972187
0.028589319 0.037497658 0 -0.52287865 0.32315677 -0.19972187
0.027088117 0.035071354 0 -0.52287865 0.32315677 -0.19972187
0.025587887 0.032646451 0 -0.52287865 0.32315677 -0.19972187
0.024088569 0.030222856 0 -0.52287865 0.32315677 -0.19972187
0.022590104 0.027800474 2.7755576e-17 -0.52287865 0.32315677 -0.19972187
0.021092437 0.025379211 0 -0.52287865 0.32315677 -0.19972187
0.019595508 0.022958973 0 -0.52287865 0.32315677 -0.19972187
0.018099256 0.020539667 0 -0.52287865 0.32315677 -0.19972187
0.016603628 0.0181212 0 -0.52287865 0.32315677 -0.19972187
0.015108565 0.015703477 0 -0.52287865 0.32315677 -0.19972187
0.013614006 0.013286404 0 -0.52287865 0.32315677 -0.19972187
0.012119898 0.01086989 0 -0.52287865 0.32315677 -0.19972187
0.010626179 0.0084538413 0 -0.52287865 0.32315677 -0.19972187
0.009132795 0.0060381643 0 -0.52287865 0.32315677 -0.19972187
0.01365452 0 0.0022643777 -0.52287865 0.32315677 -0.19972187
0.0061467956 0.001207554 0 -0.52287865 0.32315677 -0.19972187
0.0399785 0.038024418 0 -0.52287865 0.32315677 -0.19972187
0.038451578 0.035563149 0 -0.52287865 0.32315677 -0.19972187
0.036925938 0.033103425 0 -0.52287865 0.32315677 -0.19972187
0.035401516 0.03064516 0 -0.52287865 0.32315677 -0.19972187
0.033878256 0.028188245 0 -0.52287865 0.32315677 -0.19972187
0.032356095 0.02573259 0 -0.52287865 0.32315677 -0.19972187
0.039999999 0.018314524 0.0033057814 -0.52287865 0.32315677 -0.19972187
0.029314829 0.02082466 0 -0.52287865 0.32315677 -0.19972187
0.027795603 0.018372189 0 -0.52287865 0.32315677 -0.19972187
0.026277235 0.015920589 0 -0.52287865 0.32315677 -0.19972187
0.024759663 0.01346976 0 -0.52287865 0.32315677 -0.19972187
0.023242829 0.011019607 0 -0.52287865 0.32315677 -0.19972187
0.021726673 0.0085700322 0 -0.52287865 0.32315677 -0.19972187
0.020211134 0.0061209393 0 -0.52287865 0.32315677 -0.19972187
0.018696155 0.0036722324 0 -0.52287865 0.32315677 -0.19972187
0.017181672 0.0012238155 0 -0.52287865 0.32315677 -0.19972187
0.039309822 0.018629566 0 -0.52287865 0.32315677 -0.19972187
0.03776652 0.016143093 0 -0.52287865 0.32315677 -0.19972187
0.036224328 0.013657521 0 -0.52287865 0.32315677 -0.19972187
0.034683179 0.011172751 0 -0.52287865 0.32315677 -0.19972187
0.039999999 0.0048105898 0.0024630162 -0.52287865 0.32315677 -0.19972187
0.031603765 0.0062052151 0 -0.52287865 0.32315677 -0.19972187
0.030065378 0.0037222493 2.7755576e-17 -0.52287865 0.32315677 -0.19972187
0.028527787 0.0012396856 0 -0.52287865 0.32315677 -0.19972187
