# .PCD v0.7 - Point Cloud Data file format
VERSION 0.7
FIELDS x y z vp_x vp_y vp_z
SIZE 4 4 4 4 4 4
TYPE F F F F F F
COUNT 1 1 1 1 1 1
WIDTH 704
HEIGHT 1
VIEWPOINT 0 0 0 1 0 0 0
POINTS 704
DATA ascii
0.038948983 0.055224314 0.07 -0.52287865 0.32315677 0.19972187
0.037355192 0.052932132 0.07 -0.52287865 0.32315677 0.19972187
0.035769183 0.050640266 0.07 -0.52287865 0.32315677 0.19972187
0.03419083 0.048348565 0.07 -0.52287865 0.32315677 0.19972187
0.032620013 0.046056867 0.07 -0.52287865 0.32315677 0.19972187
0.031056618 0.043765031 0.07 -0.52287865 0.32315677 0.19972187
0.034854785 0.072299324 0.07 -0.52287865 0.32315677 0.19972187
0.033263024 0.070044838 0.07 -0.52287865 0.32315677 0.19972187
0.03167909 0.067791514 0.07 -0.52287865 0.32315677 0.19972187
0.030102862 0.065539189 0.07 -0.52287865 0.32315677 0.19972187
0.028534221 0.06328772 0.07 -0.52287865 0.32315677 0.19972187
0.02697305 0.061036967 0.07 -0.52287865 0.32315677 0.19972187
0.02541923 0.058786776 0.07 -0.52287865 0.32315677 0.19972187
0.023872646 0.056536999 0.07 -0.52287865 0.32315677 0.19972187
0.022333186 0.054287493 0.07 -0.52287865 0.32315677 0.19972187
0.020800736 0.052038111 0.07 -0.52287865 0.32315677 0.19972187
0.019275183 0.049788706 0.07 -0.52287865 0.32315677 0.19972187
0.017756419 0.047539137 0.07 -0.52287865 0.32315677 0.19972187
0.016244333 0.045289252 0.07 -0.52287865 0.32315677 0.19972187
0.01473882 0.043038912 0.07 -0.52287865 0.32315677 0.19972187
0.023161406 0.077677608 0.07 -0.52287865 0.32315677 0.19972187
0.02161032 0.075463206 0.07 -0.52287865 0.32315677 0.19972187
0.020066524 0.073250018 0.07 -0.52287865 0.32315677 0.19972187
0.018529905 0.071037911 0.07 -0.52287865 0.32315677 0.19972187
0.017000349 0.068826728 0.07 -0.52287865 0.32315677 0.19972187
0.015477744 0.066616341 0.07 -0.52287865 0.32315677 0.19972187
0.013961981 0.064406604 0.07 -0.52287865 0.32315677 0.19972187
0.012452949 0.062197376 0.07 -0.52287865 0.32315677 0.19972187
0.010950542 0.059988521 0.07 -0.52287865 0.32315677 0.19972187
0.0094546527 0.05777989 0.07 -0.52287865 0.32315677 0.19972187
0.0079651754 0.055571351 0.07 -0.52287865 0.32315677 0.19972187
0.0064820051 0.053362764 0.07 -0.52287865 0.32315677 0.19972187
0.0050050393 0.051153988 0.07 -0.52287865 0.32315677 0.19972187
0.0035341757 0.048944883 0.07 -0.52287865 0.32315677 0.19972187
0.018438935 0.079918675 0.068421036 -0.52287865 0.32315677 0.19972187
0.013983074 0.07904648 0.069132552 -0.52287865 0.32315677 0.19972187
0.01066626 0.077686146 0.06957192 -0.52287865 0.32315677 0.19972187
0.0080677513 0.076015182 0.069839701 -0.52287865 0.32315677 0.19972187
0.0059201424 0.074147873 0.07 -0.52287865 0.32315677 0.19972187
0.0044342899 0.071976408 0.07 -0.52287865 0.32315677 0.19972187
0.0029548018 0.069805674 0.07 -0.52287865 0.32315677 0.19972187
0.0015345092 0.067609742 0.069986902 -0.52287865 0.32315677 0.19972187
0.0006979446 0.065129049 0.069830447 -0.52287865 0.32315677 0.19972187
0.00017101577 0.062490407 0.069597594 -0.52287865 0.32315677 0.19972187
1.8662673e-05 0.059655782 0.069271475 -0.52287865 0.32315677 0.19972187
0.00032400855 0.05657639 0.068830505 -0.52287865 0.32315677 0.19972187
0.0012219029 0.053174865 0.068239868 -0.52287865 0.32315677 0.19972187
0.003204897 0.049184434 0.067374393 -0.52287865 0.32315677 0.19972187
0.018650837 0.079941727 0.065662935 -0.52287865 0.32315677 0.19972187
0.014126813 0.079094917 0.066407509 -0.52287865 0.32315677 0.19972187
0.010785026 0.077741094 0.066863582 -0.52287865 0.32315677 0.19972187
0.0081538595 0.076080643 0.067146406 -0.52287865 0.32315677 0.19972187
0.0059755938 0.074223347 0.067319006 -0.52287865 0.32315677 0.19972187
0.0041629593 0.07220336 0.067402326 -0.52287865 0.32315677 0.19972187
0.002707772 0.070018575 0.067397639 -0.52287865 0.32315677 0.19972187
0.0015645685 0.067685187 0.067315653 -0.52287865 0.32315677 0.19972187
0.00071903248 0.065205 0.067159332 -0.52287865 0.32315677 0.19972187
0.0001835381 0.062566787 0.066924877 -0.52287865 0.32315677 0.19972187
1.4262916e-05 0.059736934 0.06659732 -0.52287865 0.32315677 0.19972187
0.00031054224 0.056658532 0.066150501 -0.52287865 0.32315677 0.19972187
0.0011859756 0.053265039 0.065554321 -0.52287865 0.32315677 0.19972187
0.0031334732 0.049289778 0.064680994 -0.52287865 0.32315677 0.19972187
0.010271629 0.0425465 0.062467895 -0.52287865 0.32315677 0.19972187
0.018863289 0.079964839 0.062897682 -0.52287865 0.32315677 0.19972187
0.014270891 0.079143465 0.063676059 -0.52287865 0.32315677 0.19972187
0.010904062 0.077796161 0.064149112 -0.52287865 0.32315677 0.19972187
0.008240154 0.076146245 0.064447328 -0.52287865 0.32315677 0.19972187
0.0060473811 0.074291348 0.0646284 -0.52287865 0.32315677 0.19972187
0.0042221658 0.072273061 0.064717844 -0.52287865 0.32315677 0.19972187
0.0027474947 0.070093498 0.06471923 -0.52287865 0.32315677 0.19972187
0.0015946866 0.06776078 0.064639166 -0.52287865 0.32315677 0.19972187
0.00074016117 0.065281101 0.064483047 -0.52287865 0.32315677 0.19972187
0.00019608429 0.062643312 0.064247064 -0.52287865 0.32315677 0.19972187
9.8550317e-06 0.059818231 0.063918225 -0.52287865 0.32315677 0.19972187
0.00029705145 0.05674082 0.063465625 -0.52287865 0.32315677 0.19972187
0.0011499857 0.05335537 0.06286411 -0.52287865 0.32315677 0.19972187
0.0030619344 0.049395289 0.061983254 -0.52287865 0.32315677 0.19972187
0.0094059575 0.04306734 0.059934892 -0.52287865 0.32315677 0.19972187
0.019103635 0.079975747 0.060118102 -0.52287865 0.32315677 0.19972187
0.014415313 0.079192124 0.060938079 -0.52287865 0.32315677 0.19972187
0.011023371 0.077851363 0.061428379 -0.52287865 0.32315677 0.19972187
0.0083266366 0.076211989 0.061742339 -0.52287865 0.32315677 0.19972187
0.0061193225 0.074359491 0.061932039 -0.52287865 0.32315677 0.19972187
0.0042814966 0.07234291 0.06202773 -0.52287865 0.32315677 0.19972187
0.0027872983 0.070168577 0.062035374 -0.52287865 0.32315677 0.19972187
0.0016248651 0.067836523 0.061957322 -0.52287865 0.32315677 0.19972187
0.00076133152 0.06535735 0.061801489 -0.52287865 0.32315677 0.19972187
0.00020865489 0.062719993 0.061564047 -0.52287865 0.32315677 0.19972187
5.4388311e-06 0.059899684 0.061234072 -0.52287865 0.32315677 0.19972187
0.0002835356 0.056823261 0.060775757 -0.52287865 0.32315677 0.19972187
0.0011139319 0.053445861 0.060169116 -0.52287865 0.32315677 0.19972187
0.0029902775 0.049500976 0.059281066 -0.52287865 0.32315677 0.19972187
0.0087004555 0.043503828 0.057362653 -0.52287865 0.32315677 0.19972187
0.019353941 0.079982519 0.057328362 -0.52287865 0.32315677 0.19972187
0.014560088 0.079240911 0.058193445 -0.52287865 0.32315677 0.19972187
0.011142962 0.077906691 0.058701266 -0.52287865 0.32315677 0.19972187
0.008413313 0.076277882 0.059031315 -0.52287865 0.32315677 0.19972187
0.0061914208 0.074427783 0.059229791 -0.52287865 0.32315677 0.19972187
0.0043409541 0.072412908 0.059331857 -0.52287865 0.32315677 0.19972187
0.0028271845 0.070243806 0.059345961 -0.52287865 0.32315677 0.19972187
0.0016551053 0.067912422 0.059270002 -0.52287865 0.32315677 0.19972187
0.00078254449 0.065433748 0.059114531 -0.52287865 0.32315677 0.19972187
0.00022125046 0.062796824 0.058875699 -0.52287865 0.32315677 0.19972187
1.0141217e-06 0.059981294 0.058544751 -0.52287865 0.32315677 0.19972187
0.00026999408 0.056905862 0.058080789 -0.52287865 0.32315677 0.19972187
0.0010778125 0.053536516 0.057469223 -0.52287865 0.32315677 0.19972187
0.0029184995 0.049606841 0.056574315 -0.52287865 0.32315677 0.19972187
0.0084213493 0.04371601 0.054675903 -0.52287865 0.32315677 0.19972187
0.019612767 0.079985812 0.054528572 -0.52287865 0.32315677 0.19972187
0.014714901 0.07928542 0.05543942 -0.52287865 0.32315677 0.19972187
0.011262837 0.077962153 0.055967644 -0.52287865 0.32315677 0.19972187
0.0085001858 0.076343924 0.056314137 -0.52287865 0.32315677 0.19972187
0.0062636794 0.074496232 0.056521535 -0.52287865 0.32315677 0.19972187
0.0044005415 0.072483063 0.056630109 -0.52287865 0.32315677 0.19972187
0.0028680579 0.070318766 0.056650624 -0.52287865 0.32315677 0.19972187
0.0016854083 0.067988478 0.05657709 -0.52287865 0.32315677 0.19972187
0.00080380106 0.065510303 0.056422055 -0.52287865 0.32315677 0.19972187
0.00023387156 0.062873803 0.056181904 -0.52287865 0.32315677 0.19972187
3.2376777e-06 0.060059715 0.055848304 -0.52287865 0.32315677 0.19972187
0.00025642634 0.056988619 0.055380594 -0.52287865 0.32315677 0.19972187
0.0010435053 0.053626373 0.054763794 -0.52287865 0.32315677 0.19972187
0.0028514941 0.049710341 0.053861529 -0.52287865 0.32315677 0.19972187
0.0081419758 0.043928392 0.051986586 -0.52287865 0.32315677 0.19972187
0.038691726 0.0016571191 0.039999999 -0.52287865 0.32315677 0.19972187
0.019873599 0.079988554 0.051720254 -0.52287865 0.32315677 0.19972187
0.014885646 0.079323001 0.052674126 -0.52287865 0.32315677 0.19972187
0.011383004 0.078017749 0.053227384 -0.52287865 0.32315677 0.19972187
0.0085872589 0.076410115 0.053590681 -0.52287865 0.32315677 0.19972187
0.0063361013 0.074564829 0.053807154 -0.52287865 0.32315677 0.19972187
0.0044602612 0.072553366 0.053922355 -0.52287865 0.32315677 0.19972187
0.0029165393 0.070390269 0.053947385 -0.52287865 0.32315677 0.19972187
0.0017157756 0.068064697 0.053878464 -0.52287865 0.32315677 0.19972187
0.00082510203 0.065587021 0.053723942 -0.52287865 0.32315677 0.19972187
0.00024651873 0.062950946 0.05348254 -0.52287865 0.32315677 0.19972187
7.4441609e-06 0.060137298 0.053145826 -0.52287865 0.32315677 0.19972187
0.00024283174 0.057071541 0.052675061 -0.52287865 0.32315677 0.19972187
0.0010200705 0.053710774 0.052050125 -0.52287865 0.32315677 0.19972187
0.0028011494 0.049805298 0.05113915 -0.52287865 0.32315677 0.19972187
0.0078623258 0.044140987 0.049294598 -0.52287865 0.32315677 0.19972187
0.039104674 0.024490183 0.039999999 -0.52287865 0.32315677 0.19972187
0.03755774 0.022079248 0.039999999 -0.52287865 0.32315677 0.19972187
0.036014851 0.019668233 0.039999999 -0.52287865 0.32315677 0.19972187
0.034475919 0.017257005 0.039999999 -0.52287865 0.32315677 0.19972187
0.032940857 0.014845441 0.039999999 -0.52287865 0.32315677 0.19972187
0.031409584 0.012433412 0.039999999 -0.52287865 0.32315677 0.19972187
0.029882014 0.010020789 0.039999999 -0.52287865 0.32315677 0.19972187
0.028358063 0.0076074442 0.039999999 -0.52287865 0.32315677 0.19972187
0.026837651 0.0051932512 0.039999999 -0.52287865 0.32315677 0.19972187
0.025320692 0.0027780815 0.039999999 -0.52287865 0.32315677 0.19972187
0.023807105 0.00036180695 0.039999999 -0.52287865 0.32315677 0.19972187
0.020135205 0.079991303 0.048903588 -0.52287865 0.32315677 0.19972187
0.015056844 0.079360679 0.049901504 -0.52287865 0.32315677 0.19972187
0.011503466 0.078073479 0.050480355 -0.52287865 0.32315677 0.19972187
0.0086745378 0.07647647 0.050860815 -0.52287865 0.32315677 0.19972187
0.00640869 0.074633583 0.051086519 -0.52287865 0.32315677 0.19972187
0.0045201159 0.072623834 0.051208477 -0.52287865 0.32315677 0.19972187
0.0029651283 0.070461936 0.051238135 -0.52287865 0.32315677 0.19972187
0.0017462086 0.06814108 0.051174 -0.52287865 0.32315677 0.19972187
0.00084644853 0.065663904 0.051020075 -0.52287865 0.32315677 0.19972187
0.00025919254 0.063028254 0.050777491 -0.52287865 0.32315677 0.19972187
1.1659396e-05 0.060215045 0.050437726 -0.52287865 0.32315677 0.19972187
0.00022920972 0.057154633 0.049964067 -0.52287865 0.32315677 0.19972187
0.00099658908 0.053795345 0.049331069 -0.52287865 0.32315677 0.19972187
0.0027507097 0.049900439 0.048411623 -0.52287865 0.32315677 0.19972187
0.0075823856 0.044353798 0.046599824 -0.52287865 0.32315677 0.19972187
0.028924789 0.029964488 0.039999999 -0.52287865 0.32315677 0.19972187
0.027407203 0.027592216 0.039999999 -0.52287865 0.32315677 0.19972187
0.025893332 0.025219969 0.039999999 -0.52287865 0.32315677 0.19972187
0.024383098 0.022847624 0.039999999 -0.52287865 0.32315677 0.19972187
0.022876415 0.02047506 0.039999999 -0.52287865 0.32315677 0.19972187
0.021373207 0.018102149 0.039999999 -0.52287865 0.32315677 0.19972187
0.019873386 0.015728772 0.039999999 -0.52287865 0.32315677 0.19972187
0.018376879 0.013354806 0.039999999 -0.52287865 0.32315677 0.19972187
0.016883604 0.010980126 0.039999999 -0.52287865 0.32315677 0.19972187
0.015393481 0.0086046113 0.039999999 -0.52287865 0.32315677 0.19972187
0.013906432 0.0062281382 0.039999999 -0.52287865 0.32315677 0.19972187
0.012422379 0.003850583 0.039999999 -0.52287865 0.32315677 0.19972187
0.010941244 0.0014718231 0.039999999 -0.52287865 0.32315677 0.19972187
0.020409066 0.079988934 0.046075188 -0.52287865 0.32315677 0.19972187
0.015228502 0.079398461 0.047121417 -0.52287865 0.32315677 0.19972187
0.011624232 0.078129351 0.04772643 -0.52287865 0.32315677 0.19972187
0.0087620243 0.076542981 0.048124418 -0.52287865 0.32315677 0.19972187
0.0064814491 0.074702501 0.048359506 -0.52287865 0.32315677 0.19972187
0.0045801089 0.072694458 0.048488349 -0.52287865 0.32315677 0.19972187
0.0030138276 0.07053376 0.048522741 -0.52287865 0.32315677 0.19972187
0.0017767086 0.068217635 0.048463579 -0.52287865 0.32315677 0.19972187
0.00086784142 0.065740958 0.048310328 -0.52287865 0.32315677 0.19972187
0.00027189357 0.063105725 0.048066635 -0.52287865 0.32315677 0.19972187
1.5883568e-05 0.060292955 0.047723882 -0.52287865 0.32315677 0.19972187
0.00021555966 0.057237893 0.047247492 -0.52287865 0.32315677 0.19972187
0.0009730602 0.053880088 0.0466065 -0.52287865 0.32315677 0.19972187
0.0027001726 0.049995761 0.045678832 -0.52287865 0.32315677 0.19972187
0.0073021459 0.04456684 0.043902162 -0.52287865 0.32315677 0.19972187
0.019086545 0.035255075 0.039999999 -0.52287865 0.32315677 0.19972187
0.017597213 0.032920226 0.039999999 -0.52287865 0.32315677 0.19972187
0.01611129 0.030585503 0.039999999 -0.52287865 0.32315677 0.19972187
0.014628698 0.028250787 0.039999999 -0.52287865 0.32315677 0.19972187
0.013149358 0.02591596 0.039999999 -0.52287865 0.32315677 0.19972187
0.011673193 0.023580901 0.039999999 -0.52287865 0.32315677 0.19972187
0.010200126 0.021245496 0.039999999 -0.52287865 0.32315677 0.19972187
0.00873008 0.018909622 0.039999999 -0.52287865 0.32315677 0.19972187
0.0072629796 0.016573165 0.039999999 -0.52287865 0.32315677 0.19972187
0.0057987478 0.014236002 0.039999999 -0.52287865 0.32315677 0.19972187
0.0043373099 0.011898019 0.039999999 -0.52287865 0.32315677 0.19972187
0.00287859 0.0095590958 0.039999999 -0.52287865 0.32315677 0.19972187
0.001422514 0.0072191148 0.039999999 -0.52287865 0.32315677 0.19972187
0 0.0048590899 0.039990533 -0.52287865 0.32315677 0.19972187
1.110223e-16 0.0016241766 0.039546009 -0.52287865 0.32315677 0.19972187
0.034981173 0.079592623 0.039999999 -0.52287865 0.32315677 0.19972187
0.033454031 0.077272601 0.039999999 -0.52287865 0.32315677 0.19972187
0.020695798 0.079981171 0.043234557 -0.52287865 0.32315677 0.19972187
0.015400629 0.079436347 0.044333734 -0.52287865 0.32315677 0.19972187
0.011745306 0.078185372 0.04496548 -0.52287865 0.32315677 0.19972187
0.0088606589 0.076604582 0.045378186 -0.52287865 0.32315677 0.19972187
0.0065543819 0.074771591 0.045625988 -0.52287865 0.32315677 0.19972187
0.0046402421 0.072765253 0.045761846 -0.52287865 0.32315677 0.19972187
0.0030626392 0.070605747 0.045801084 -0.52287865 0.32315677 0.19972187
0.0018072771 0.068294361 0.045747075 -0.52287865 0.32315677 0.19972187
0.00088928168 0.065818176 0.045594577 -0.52287865 0.32315677 0.19972187
0.00028462237 0.063183367 0.045349848 -0.52287865 0.32315677 0.19972187
2.0116871e-05 0.060371034 0.045004174 -0.52287865 0.32315677 0.19972187
0.00020188095 0.057321329 0.044525217 -0.52287865 0.32315677 0.19972187
0.00094948261 0.053965006 0.043876298 -0.52287865 0.32315677 0.19972187
0.0026495359 0.05009127 0.042940654 -0.52287865 0.32315677 0.19972187
0.0070351921 0.044772975 0.041197442 -0.52287865 0.32315677 0.19972187
0.0095726764 0.040371224 0.039999999 -0.52287865 0.32315677 0.19972187
0.0081105633 0.038072623 0.039999999 -0.52287865 0.32315677 0.19972187
0.006651571 0.035774238 0.039999999 -0.52287865 0.32315677 0.19972187
0.0051956228 0.033475962 0.039999999 -0.52287865 0.32315677 0.19972187
0.003742645 0.031177673 0.039999999 -0.52287865 0.32315677 0.19972187
0.0022925627 0.028879261 0.039999999 -0.52287865 0.32315677 0.19972187
0.00084530201 0.026580611 0.039999999 -0.52287865 0.32315677 0.19972187
0 0.023938712 0.039816752 -0.52287865 0.32315677 0.19972187
0 0.020801907 0.039374083 -0.52287865 0.32315677 0.19972187
0 0.017648635 0.038929764 -0.52287865 0.32315677 0.19972187
0 0.014478648 0.038483765 -0.52287865 0.32315677 0.19972187
1.110223e-16 0.011291693 0.038036056 -0.52287865 0.32315677 0.19972187
0 0.008087514 0.0375866 -0.52287865 0.32315677 0.19972187
0 0.0048658522 0.037135374 -0.52287865 0.32315677 0.19972187
0 0.0016264432 0.036682341 -0.52287865 0.32315677 0.19972187
0.034348492 0.079999998 0.037358955 -0.52287865 0.32315677 0.19972187
0.027568098 0.079999998 0.038895767 -0.52287865 0.32315677 0.19972187
0.020983441 0.079973392 0.040384874 -0.52287865 0.32315677 0.19972187
0.015573235 0.07947433 0.041538309 -0.52287865 0.32315677 0.19972187
0.011866694 0.078241527 0.042197365 -0.52287865 0.32315677 0.19972187
0.0089616654 0.076665349 0.042624414 -0.52287865 0.32315677 0.19972187
0.0066274912 0.074840836 0.042885836 -0.52287865 0.32315677 0.19972187
0.0047005187 0.07283622 0.043028843 -0.52287865 0.32315677 0.19972187
0.0031115653 0.070677914 0.04307304 -0.52287865 0.32315677 0.19972187
0.0018379154 0.068371259 0.043024369 -0.52287865 0.32315677 0.19972187
0.00091077032 0.065895565 0.042872701 -0.52287865 0.32315677 0.19972187
0.00029737953 0.063261181 0.042627007 -0.52287865 0.32315677 0.19972187
2.4359495e-05 0.060449287 0.042278476 -0.52287865 0.32315677 0.19972187
0.00018817297 0.057404943 0.04179712 -0.52287865 0.32315677 0.19972187
0.0009258553 0.054050103 0.04114034 -0.52287865 0.32315677 0.19972187
0.0025987974 0.050186973 0.04019697 -0.52287865 0.32315677 0.19972187
0.0018058412 0.04758551 0.039999999 -0.52287865 0.32315677 0.19972187
0.00036705119 0.045321614 0.039999999 -0.52287865 0.32315677 0.19972187
0 0.04248441 0.03967284 -0.52287865 0.32315677 0.19972187
0 0.039437439 0.039232098 -0.52287865 0.32315677 0.19972187
1.110223e-16 0.03637537 0.038789775 -0.52287865 0.32315677 0.19972187
0 0.033297975 0.038345855 -0.52287865 0.32315677 0.19972187
0 0.030205028 0.037900303 -0.52287865 0.32315677 0.19972187
0 0.02709629 0.037453093 -0.52287865 0.32315677 0.19972187
0 0.023971528 0.037004191 -0.52287865 0.32315677 0.19972187
0 0.020830499 0.036553573 -0.52287865 0.32315677 0.19972187
1.110223e-16 0.017672956 0.036101207 -0.52287865 0.32315677 0.19972187
0 0.014498654 0.035647057 -0.52287865 0.32315677 0.19972187
1.110223e-16 0.011307336 0.0351911 -0.52287865 0.32315677 0.19972187
0 0.0080987494 0.034733299 -0.52287865 0.32315677 0.19972187
0 0.0048726304 0.034273621 -0.52287865 0.32315677 0.19972187
0 0.0016287151 0.033812039 -0.52287865 0.32315677 0.19972187
0.034649838 0.079999998 0.034441344 -0.52287865 0.32315677 0.19972187
0.027854025 0.079999998 0.036010657 -0.52287865 0.32315677 0.19972187
0.021195009 0.079999998 0.037548937 -0.52287865 0.32315677 0.19972187
0.014668458 0.079999998 0.039057169 -0.52287865 0.32315677 0.19972187
0.010059671 0.079180799 0.039999999 -0.52287865 0.32315677 0.19972187
0.0086089717 0.07693658 0.039999999 -0.52287865 0.32315677 0.19972187
0.0067007812 0.074910261 0.040138923 -0.52287865 0.32315677 0.19972187
0.0047609415 0.072907351 0.040289208 -0.52287865 0.32315677 0.19972187
0.0031606085 0.070750244 0.040338475 -0.52287865 0.32315677 0.19972187
0.0018739201 0.068445764 0.04029372 -0.52287865 0.32315677 0.19972187
0.00093230826 0.06597314 0.040144578 -0.52287865 0.32315677 0.19972187
1.110223e-16 0.0634932 0.039992739 -0.52287865 0.32315677 0.19972187
0 0.060542084 0.03955543 -0.52287865 0.32315677 0.19972187
1.110223e-16 0.057577334 0.039116651 -0.52287865 0.32315677 0.19972187
0 0.054598752 0.038676377 -0.52287865 0.32315677 0.19972187
0 0.051606122 0.038234577 -0.52287865 0.32315677 0.19972187
1.110223e-16 0.048599236 0.037791226 -0.52287865 0.32315677 0.19972187
0 0.04557788 0.037346296 -0.52287865 0.32315677 0.19972187
0 0.042541832 0.036899757 -0.52287865 0.32315677 0.19972187
1.110223e-16 0.039490871 0.036451586 -0.52287865 0.32315677 0.19972187
0 0.036424775 0.036001746 -0.52287865 0.32315677 0.19972187
0 0.033343315 0.035550214 -0.52287865 0.32315677 0.19972187
0 0.03024626 0.035096958 -0.52287865 0.32315677 0.19972187
0 0.027133374 0.034641948 -0.52287865 0.32315677 0.19972187
1.110223e-16 0.02400442 0.034185153 -0.52287865 0.32315677 0.19972187
1.110223e-16 0.020859156 0.033726543 -0.52287865 0.32315677 0.19972187
0 0.017697334 0.033266086 -0.52287865 0.32315677 0.19972187
0 0.014518705 0.032803748 -0.52287865 0.32315677 0.19972187
0 0.011323017 0.032339502 -0.52287865 0.32315677 0.19972187
0 0.008110011 0.031873312 -0.52287865 0.32315677 0.19972187
0 0.0048794243 0.031405143 -0.52287865 0.32315677 0.19972187
0 0.0016309924 0.030934967 -0.52287865 0.32315677 0.19972187
0.034952171 0.079999998 0.031514153 -0.52287865 0.32315677 0.19972187
0.028140882 0.079999998 0.03311618 -0.52287865 0.32315677 0.19972187
0.021466954 0.079999998 0.034686409 -0.52287865 0.32315677 0.19972187
0.014926029 0.079999998 0.036225844 -0.52287865 0.32315677 0.19972187
0.0085139349 0.079999998 0.037735455 -0.52287865 0.32315677 0.19972187
0.0022266693 0.079999998 0.039216168 -0.52287865 0.32315677 0.19972187
0 0.078154035 0.0394614 -0.52287865 0.32315677 0.19972187
0 0.075264499 0.039024621 -0.52287865 0.32315677 0.19972187
0 0.072362296 0.038586423 -0.52287865 0.32315677 0.19972187
0 0.069447219 0.038146771 -0.52287865 0.32315677 0.19972187
1.110223e-16 0.066519082 0.037705645 -0.52287865 0.32315677 0.19972187
1.110223e-16 0.063577682 0.037263017 -0.52287865 0.32315677 0.19972187
1.110223e-16 0.060622826 0.036818862 -0.52287865 0.32315677 0.19972187
1.110223e-16 0.057654303 0.03637315 -0.52287865 0.32315677 0.19972187
0 0.054671906 0.035925858 -0.52287865 0.32315677 0.19972187
0 0.051675431 0.035476949 -0.52287865 0.32315677 0.19972187
0 0.048664663 0.035026405 -0.52287865 0.32315677 0.19972187
1.110223e-16 0.045639385 0.034574192 -0.52287865 0.32315677 0.19972187
0 0.04259938 0.03412028 -0.52287865 0.32315677 0.19972187
1.110223e-16 0.039544426 0.033664644 -0.52287865 0.32315677 0.19972187
0 0.036474295 0.033207249 -0.52287865 0.32315677 0.19972187
0 0.03338876 0.03274807 -0.52287865 0.32315677 0.19972187
0 0.030287588 0.032287072 -0.52287865 0.32315677 0.19972187
0 0.027170544 0.031824224 -0.52287865 0.32315677 0.19972187
1.110223e-16 0.024037389 0.031359497 -0.52287865 0.32315677 0.19972187
0 0.02088788 0.030892856 -0.52287865 0.32315677 0.19972187
1.110223e-16 0.017721768 0.030424271 -0.52287865 0.32315677 0.19972187
0 0.014538805 0.029953707 -0.52287865 0.32315677 0.19972187
0 0.011338735 0.029481132 -0.52287865 0.32315677 0.19972187
0 0.0081212986 0.029006511 -0.52287865 0.32315677 0.19972187
0 0.0048862346 0.028529812 -0.52287865 0.32315677 0.19972187
0 0.0016332751 0.028050995 -0.52287865 0.32315677 0.19972187
0.03525551 0.079999998 0.028577218 -0.52287865 0.32315677 0.19972187
0.028428683 0.079999998 0.030212181 -0.52287865 0.32315677 0.19972187
0.021739783 0.079999998 0.031814564 -0.52287865 0.32315677 0.19972187
0.015184429 0.079999998 0.033385407 -0.52287865 0.32315677 0.19972187
0.0087584229 0.079999998 0.034925699 -0.52287865 0.32315677 0.19972187
0.0024577414 0.079999998 0.036436394 -0.52287865 0.32315677 0.19972187
0 0.07825698 0.036758546 -0.52287865 0.32315677 0.19972187
1.110223e-16 0.075363852 0.036315303 -0.52287865 0.32315677 0.19972187
0 0.072458021 0.035870556 -0.52287865 0.32315677 0.19972187
0 0.069539294 0.035424277 -0.52287865 0.32315677 0.19972187
0 0.066607475 0.034976438 -0.52287865 0.32315677 0.19972187
0 0.063662358 0.034527015 -0.52287865 0.32315677 0.19972187
1.110223e-16 0.060703751 0.034075979 -0.52287865 0.32315677 0.19972187
1.110223e-16 0.057731446 0.0336233 -0.52287865 0.32315677 0.19972187
0 0.054745231 0.033168953 -0.52287865 0.32315677 0.19972187
1.110223e-16 0.051744901 0.03271291 -0.52287865 0.32315677 0.19972187
1.110223e-16 0.048730243 0.032255135 -0.52287865 0.32315677 0.19972187
1.110223e-16 0.045701038 0.031795602 -0.52287865 0.32315677 0.19972187
1.110223e-16 0.042657066 0.031334285 -0.52287865 0.32315677 0.19972187
1.110223e-16 0.039598107 0.030871147 -0.52287865 0.32315677 0.19972187
0 0.036523931 0.030406162 -0.52287865 0.32315677 0.19972187
1.110223e-16 0.033434313 0.029939296 -0.52287865 0.32315677 0.19972187
0 0.030329015 0.029470516 -0.52287865 0.32315677 0.19972187
1.110223e-16 0.027207803 0.028999794 -0.52287865 0.32315677 0.19972187
1.110223e-16 0.024070438 0.028527094 -0.52287865 0.32315677 0.19972187
1.110223e-16 0.020916672 0.028052384 -0.52287865 0.32315677 0.19972187
0 0.017746262 0.027575631 -0.52287865 0.32315677 0.19972187
1.110223e-16 0.014558953 0.027096799 -0.52287865 0.32315677 0.19972187
0 0.01135449 0.026615852 -0.52287865 0.32315677 0.19972187
1.110223e-16 0.0081326142 0.026132761 -0.52287865 0.32315677 0.19972187
0 0.0048930617 0.025647484 -0.52287865 0.32315677 0.19972187
1.110223e-16 0.0016355634 0.025159987 -0.52287865 0.32315677 0.19972187
0.03555987 0.079999998 0.025630381 -0.52287865 0.32315677 0.19972187
0.028717443 0.079999998 0.027298499 -0.52287865 0.32315677 0.19972187
0.022013512 0.079999998 0.028933255 -0.52287865 0.32315677 0.19972187
0.015443671 0.079999998 0.030535711 -0.52287865 0.32315677 0.19972187
0.0090036998 0.079999998 0.032106884 -0.52287865 0.32315677 0.19972187
0.0026895506 0.079999998 0.033647753 -0.52287865 0.32315677 0.19972187
0 0.078360155 0.03404944 -0.52287865 0.32315677 0.19972187
0 0.075463437 0.033599701 -0.52287865 0.32315677 0.19972187
0 0.072553977 0.033148378 -0.52287865 0.32315677 0.19972187
0 0.069631591 0.032695439 -0.52287865 0.32315677 0.19972187
1.110223e-16 0.066696078 0.032240856 -0.52287865 0.32315677 0.19972187
0 0.063747235 0.031784605 -0.52287865 0.32315677 0.19972187
0 0.060784869 0.031326655 -0.52287865 0.32315677 0.19972187
0 0.057808772 0.030866979 -0.52287865 0.32315677 0.19972187
0 0.054818731 0.030405544 -0.52287865 0.32315677 0.19972187
0 0.051814537 0.029942324 -0.52287865 0.32315677 0.19972187
0 0.048795976 0.029477285 -0.52287865 0.32315677 0.19972187
0 0.045762837 0.0290104 -0.52287865 0.32315677 0.19972187
0 0.04271489 0.028541638 -0.52287865 0.32315677 0.19972187
1.110223e-16 0.039651915 0.028070964 -0.52287865 0.32315677 0.19972187
0 0.036573686 0.027598349 -0.52287865 0.32315677 0.19972187
0 0.033479974 0.027123759 -0.52287865 0.32315677 0.19972187
0 0.030370541 0.026647164 -0.52287865 0.32315677 0.19972187
0 0.027245153 0.026168525 -0.52287865 0.32315677 0.19972187
0 0.024103565 0.025687814 -0.52287865 0.32315677 0.19972187
0 0.020945536 0.025204994 -0.52287865 0.32315677 0.19972187
0 0.017770816 0.024720032 -0.52287865 0.32315677 0.19972187
0 0.01457915 0.024232889 -0.52287865 0.32315677 0.19972187
1.110223e-16 0.011370284 0.023743533 -0.52287865 0.32315677 0.19972187
1.110223e-16 0.0081439577 0.023251925 -0.52287865 0.32315677 0.19972187
0 0.0048999051 0.022758029 -0.52287865 0.32315677 0.19972187
0 0.0016378574 0.022261808 -0.52287865 0.32315677 0.19972187
0.035865273 0.079999998 0.02267348 -0.52287865 0.32315677 0.19972187
0.029007178 0.079999998 0.024374977 -0.52287865 0.32315677 0.19972187
0.022288155 0.079999998 0.02604232 -0.52287865 0.32315677 0.19972187
0.015703769 0.079999998 0.027676597 -0.52287865 0.32315677 0.19972187
0.0092497785 0.079999998 0.029278854 -0.52287865 0.32315677 0.19972187
0.0029221096 0.079999998 0.03085009 -0.52287865 0.32315677 0.19972187
1.110223e-16 0.078463577 0.031333961 -0.52287865 0.32315677 0.19972187
0 0.075563252 0.030877694 -0.52287865 0.32315677 0.19972187
0 0.072650157 0.030419759 -0.52287865 0.32315677 0.19972187
0 0.069724098 0.029960128 -0.52287865 0.32315677 0.19972187
1.110223e-16 0.066784889 0.029498771 -0.52287865 0.32315677 0.19972187
0 0.063832313 0.029035658 -0.52287865 0.32315677 0.19972187
1.110223e-16 0.060866181 0.028570762 -0.52287865 0.32315677 0.19972187
0 0.05788628 0.028104052 -0.52287865 0.32315677 0.19972187
0 0.054892402 0.027635496 -0.52287865 0.32315677 0.19972187
1.110223e-16 0.051884338 0.027165066 -0.52287865 0.32315677 0.19972187
0 0.048861872 0.026692729 -0.52287865 0.32315677 0.19972187
1.110223e-16 0.045824781 0.026218455 -0.52287865 0.32315677 0.19972187
0 0.042772852 0.02574221 -0.52287865 0.32315677 0.19972187
0 0.039705854 0.025263963 -0.52287865 0.32315677 0.19972187
1.110223e-16 0.036623564 0.024783682 -0.52287865 0.32315677 0.19972187
0 0.033525746 0.02430133 -0.52287865 0.32315677 0.19972187
1.110223e-16 0.030412169 0.023816876 -0.52287865 0.32315677 0.19972187
0 0.027282594 0.023330286 -0.52287865 0.32315677 0.19972187
0 0.024136776 0.022841522 -0.52287865 0.32315677 0.19972187
0 0.02097447 0.022350552 -0.52287865 0.32315677 0.19972187
0 0.017795429 0.021857338 -0.52287865 0.32315677 0.19972187
0 0.014599398 0.021361845 -0.52287865 0.32315677 0.19972187
0 0.011386119 0.020864032 -0.52287865 0.32315677 0.19972187
0 0.0081553301 0.020363867 -0.52287865 0.32315677 0.19972187
0 0.0049067661 0.019861309 -0.52287865 0.32315677 0.19972187
0 0.0016401572 0.019356318 -0.52287865 0.32315677 0.19972187
0.036171731 0.079999998 0.019706348 -0.52287865 0.32315677 0.19972187
0.039999999 0.075287215 0.017986082 -0.52287865 0.32315677 0.19972187
0.022563726 0.079999998 0.0231416 -0.52287865 0.32315677 0.19972187
0.015964739 0.079999998 0.024807911 -0.52287865 0.32315677 0.19972187
0.009496673 0.079999998 0.026441457 -0.52287865 0.32315677 0.19972187
0.0031554308 0.079999998 0.028043259 -0.52287865 0.32315677 0.19972187
0 0.078567244 0.028611977 -0.52287865 0.32315677 0.19972187
0 0.075663306 0.028149152 -0.52287865 0.32315677 0.19972187
1.110223e-16 0.072746567 0.027684577 -0.52287865 0.32315677 0.19972187
0 0.069816835 0.027218221 -0.52287865 0.32315677 0.19972187
0 0.066873915 0.026750054 -0.52287865 0.32315677 0.19972187
0 0.0639176 0.026280047 -0.52287865 0.32315677 0.19972187
0 0.06094769 0.02580817 -0.52287865 0.32315677 0.19972187
0 0.057963978 0.025334392 -0.52287865 0.32315677 0.19972187
1.110223e-16 0.054966256 0.024858681 -0.52287865 0.32315677 0.19972187
0 0.05195431 0.024381006 -0.52287865 0.32315677 0.19972187
0 0.048927926 0.023901334 -0.52287865 0.32315677 0.19972187
0 0.045886882 0.023419634 -0.52287865 0.32315677 0.19972187
0 0.042830959 0.022935871 -0.52287865 0.32315677 0.19972187
0 0.03975993 0.022450013 -0.52287865 0.32315677 0.19972187
0 0.036673564 0.021962026 -0.52287865 0.32315677 0.19972187
0 0.033571634 0.021471875 -0.52287865 0.32315677 0.19972187
0 0.030453902 0.020979524 -0.52287865 0.32315677 0.19972187
0 0.027320128 0.020484939 -0.52287865 0.32315677 0.19972187
0 0.024170069 0.019988084 -0.52287865 0.32315677 0.19972187
1.110223e-16 0.021003477 0.019488921 -0.52287865 0.32315677 0.19972187
0 0.017820105 0.018987415 -0.52287865 0.32315677 0.19972187
0 0.014619697 0.018483527 -0.52287865 0.32315677 0.19972187
1.110223e-16 0.011401992 0.017977219 -0.52287865 0.32315677 0.19972187
0 0.0081667313 0.017468451 -0.52287865 0.32315677 0.19972187
0 0.0049136449 0.016957184 -0.52287865 0.32315677 0.19972187
0 0.0016424628 0.016443379 -0.52287865 0.32315677 0.19972187
0.036479264 0.079999998 0.016728818 -0.52287865 0.32315677 0.19972187
0.029589638 0.079999998 0.018497758 -0.52287865 0.32315677 0.19972187
0.039999999 0.072354101 0.014586966 -0.52287865 0.32315677 0.19972187
0.016226595 0.079999998 0.021929497 -0.52287865 0.32315677 0.19972187
0.0097443946 0.079999998 0.023594536 -0.52287865 0.32315677 0.19972187
0.0033895269 0.079999998 0.025227105 -0.52287865 0.32315677 0.19972187
0 0.078671165 0.025883362 -0.52287865 0.32315677 0.19972187
0 0.075763606 0.025413947 -0.52287865 0.32315677 0.19972187
0 0.072843209 0.0249427 -0.52287865 0.32315677 0.19972187
1.110223e-16 0.069909796 0.024469586 -0.52287865 0.32315677 0.19972187
1.110223e-16 0.066963159 0.023994578 -0.52287865 0.32315677 0.19972187
1.110223e-16 0.064003095 0.023517642 -0.52287865 0.32315677 0.19972187
0 0.061029401 0.023038751 -0.52287865 0.32315677 0.19972187
1.110223e-16 0.058041871 0.02255787 -0.52287865 0.32315677 0.19972187
0 0.055040296 0.022074968 -0.52287865 0.32315677 0.19972187
0 0.052024458 0.021590011 -0.52287865 0.32315677 0.19972187
0 0.048994146 0.021102969 -0.52287865 0.32315677 0.19972187
1.110223e-16 0.045949139 0.020613804 -0.52287865 0.32315677 0.19972187
1.110223e-16 0.042889211 0.020122487 -0.52287865 0.32315677 0.19972187
0 0.039814141 0.019628979 -0.52287865 0.32315677 0.19972187
0 0.036723692 0.019133249 -0.52287865 0.32315677 0.19972187
0 0.033617638 0.018635258 -0.52287865 0.32315677 0.19972187
0 0.03049574 0.01813497 -0.52287865 0.32315677 0.19972187
1.110223e-16 0.027357757 0.017632352 -0.52287865 0.32315677 0.19972187
0 0.024203446 0.017127363 -0.52287865 0.32315677 0.19972187
0 0.021032559 0.016619967 -0.52287865 0.32315677 0.19972187
0 0.017844845 0.016110126 -0.52287865 0.32315677 0.19972187
1.110223e-16 0.014640047 0.0155978 -0.52287865 0.32315677 0.19972187
0 0.011417908 0.01508295 -0.52287865 0.32315677 0.19972187
0 0.0081781615 0.014565536 -0.52287865 0.32315677 0.19972187
0 0.0049205413 0.014045517 -0.52287865 0.32315677 0.19972187
0 0.0016447745 0.013522852 -0.52287865 0.32315677 0.19972187
0.036787886 0.079999998 0.013740725 -0.52287865 0.32315677 0.19972187
0.029882398 0.079999998 0.015543733 -0.52287865 0.32315677 0.19972187
0.023117721 0.079999998 0.017310163 -0.52287865 0.32315677 0.19972187
0.039999999 0.069400974 0.011165454 -0.52287865 0.32315677 0.19972187
0.0099929599 0.079999998 0.020737937 -0.52287865 0.32315677 0.19972187
0.0036244106 0.079999998 0.022401476 -0.52287865 0.32315677 0.19972187
0 0.078775346 0.023147989 -0.52287865 0.32315677 0.19972187
1.110223e-16 0.075864151 0.022671953 -0.52287865 0.32315677 0.19972187
1.110223e-16 0.072940096 0.022193998 -0.52287865 0.32315677 0.19972187
0 0.070002988 0.021714095 -0.52287865 0.32315677 0.19972187
0 0.067052625 0.02123221 -0.52287865 0.32315677 0.19972187
0 0.064088799 0.020748314 -0.52287865 0.32315677 0.19972187
0 0.061111316 0.020262372 -0.52287865 0.32315677 0.19972187
0 0.05811996 0.019774353 -0.52287865 0.32315677 0.19972187
0 0.055114519 0.019284224 -0.52287865 0.32315677 0.19972187
1.110223e-16 0.052094784 0.018791951 -0.52287865 0.32315677 0.19972187
0 0.049060535 0.018297499 -0.52287865 0.32315677 0.19972187
0 0.046011552 0.017800836 -0.52287865 0.32315677 0.19972187
1.110223e-16 0.042947613 0.017301925 -0.52287865 0.32315677 0.19972187
0 0.039868489 0.01680073 -0.52287865 0.32315677 0.19972187
0 0.03677395 0.016297214 -0.52287865 0.32315677 0.19972187
0 0.033663761 0.015791344 -0.52287865 0.32315677 0.19972187
1.110223e-16 0.030537687 0.015283081 -0.52287865 0.32315677 0.19972187
1.110223e-16 0.027395485 0.014772386 -0.52287865 0.32315677 0.19972187
0 0.024236912 0.014259223 -0.52287865 0.32315677 0.19972187
1.110223e-16 0.021061717 0.013743551 -0.52287865 0.32315677 0.19972187
0 0.017869649 0.013225332 -0.52287865 0.32315677 0.19972187
0 0.014660452 0.012704525 -0.52287865 0.32315677 0.19972187
1.110223e-16 0.011433864 0.012181089 -0.52287865 0.32315677 0.19972187
0 0.0081896223 0.011654984 -0.52287865 0.32315677 0.19972187
0 0.0049274554 0.011126167 -0.52287865 0.32315677 0.19972187
0 0.0016470923 0.010594595 -0.52287865 0.32315677 0.19972187
0.037097622 0.079999998 0.010741894 -0.52287865 0.32315677 0.19972187
0.030176196 0.079999998 0.012579207 -0.52287865 0.32315677 0.19972187
0.023396173 0.079999998 0.01437912 -0.52287865 0.32315677 0.19972187
0.016753018 0.079999998 0.016142834 -0.52287865 0.32315677 0.19972187
0.01024238 0.079999998 0.017871497 -0.52287865 0.32315677 0.19972187
0.0038600951 0.079999998 0.019566216 -0.52287865 0.32315677 0.19972187
0 0.078879789 0.020405728 -0.52287865 0.32315677 0.19972187
0 0.075964957 0.019923039 -0.52287865 0.32315677 0.19972187
0 0.073037229 0.019438345 -0.52287865 0.32315677 0.19972187
0 0.070096418 0.018951617 -0.52287865 0.32315677 0.19972187
1.110223e-16 0.067142323 0.018462822 -0.52287865 0.32315677 0.19972187
0 0.064174727 0.017971929 -0.52287865 0.32315677 0.19972187
0 0.06119344 0.017478902 -0.52287865 0.32315677 0.19972187
0 0.058198247 0.01698371 -0.52287865 0.32315677 0.19972187
0 0.055188935 0.016486317 -0.52287865 0.32315677 0.19972187
0 0.052165292 0.01598669 -0.52287865 0.32315677 0.19972187
1.110223e-16 0.049127094 0.015484792 -0.52287865 0.32315677 0.19972187
1.110223e-16 0.04607413 0.01498059 -0.52287865 0.32315677 0.19972187
0 0.043006167 0.014474046 -0.52287865 0.32315677 0.19972187
0 0.039922979 0.013965124 -0.52287865 0.32315677 0.19972187
1.110223e-16 0.036824334 0.013453787 -0.52287865 0.32315677 0.19972187
1.110223e-16 0.033710003 0.012939997 -0.52287865 0.32315677 0.19972187
0 0.030579742 0.012423716 -0.52287865 0.32315677 0.19972187
1.110223e-16 0.027433312 0.011904905 -0.52287865 0.32315677 0.19972187
1.110223e-16 0.024270464 0.011383524 -0.52287865 0.32315677 0.19972187
1.110223e-16 0.021090951 0.010859533 -0.52287865 0.32315677 0.19972187
0 0.017894519 0.010332893 -0.52287865 0.32315677 0.19972187
0 0.014680911 0.0098035606 -0.52287865 0.32315677 0.19972187
0 0.011449864 0.0092714941 -0.52287865 0.32315677 0.19972187
0 0.008201113 0.0087366523 -0.52287865 0.32315677 0.19972187
0 0.0049343887 0.0081989914 -0.52287865 0.32315677 0.19972187
0 0.0016494163 0.0076584662 -0.52287865 0.32315677 0.19972187
0.037408479 0.079999998 0.0077321548 -0.52287865 0.32315677 0.19972187
0.030471051 0.079999998 0.0096040117 -0.52287865 0.32315677 0.19972187
0.023675619 0.079999998 0.011437638 -0.52287865 0.32315677 0.19972187
0.017017616 0.079999998 0.013234261 -0.52287865 0.32315677 0.19972187
0.010492671 0.079999998 0.014995061 -0.52287865 0.32315677 0.19972187
0.0040965932 0.079999998 0.016721165 -0.52287865 0.32315677 0.19972187
1.110223e-16 0.078984492 0.017656449 -0.52287865 0.32315677 0.19972187
1.110223e-16 0.076066017 0.017167071 -0.52287865 0.32315677 0.19972187
0 0.073134616 0.016675605 -0.52287865 0.32315677 0.19972187
1.110223e-16 0.070190094 0.016182018 -0.52287865 0.32315677 0.19972187
0 0.067232251 0.015686279 -0.52287865 0.32315677 0.19972187
0 0.064260878 0.015188353 -0.52287865 0.32315677 0.19972187
0 0.06127578 0.014688207 -0.52287865 0.32315677 0.19972187
0 0.058276739 0.014185804 -0.52287865 0.32315677 0.19972187
0 0.055263545 0.013681112 -0.52287865 0.32315677 0.19972187
0 0.05223598 0.013174092 -0.52287865 0.32315677 0.19972187
0 0.049193829 0.012664712 -0.52287865 0.32315677 0.19972187
1.110223e-16 0.046136867 0.012152933 -0.52287865 0.32315677 0.19972187
0 0.043064874 0.011638718 -0.52287865 0.32315677 0.19972187
0 0.039977614 0.011122029 -0.52287865 0.32315677 0.19972187
0 0.036874857 0.010602829 -0.52287865 0.32315677 0.19972187
1.110223e-16 0.033756368 0.010081078 -0.52287865 0.32315677 0.19972187
0 0.03062191 0.0095567377 -0.52287865 0.32315677 0.19972187
0 0.027471239 0.0090297675 -0.52287865 0.32315677 0.19972187
0 0.024304107 0.0085001262 -0.52287865 0.32315677 0.19972187
0 0.021120265 0.0079677738 -0.52287865 0.32315677 0.19972187
0 0.017919457 0.0074326675 -0.52287865 0.32315677 0.19972187
0 0.014701424 0.0068947654 -0.52287865 0.32315677 0.19972187
0 0.011465906 0.0063540237 -0.52287865 0.32315677 0.19972187
1.110223e-16 0.0082126353 0.0058103986 -0.52287865 0.32315677 0.19972187
0 0.0049413405 0.0052638459 -0.52287865 0.32315677 0.19972187
0 0.0016517466 0.0047143199 -0.52287865 0.32315677 0.19972187
0.037720483 0.079999998 0.0047113313 -0.52287865 0.32315677 0.19972187
0.030766983 0.079999998 0.0066179754 -0.52287865 0.32315677 0.19972187
0.023956072 0.079999998 0.0084855482 -0.52287865 0.32315677 0.19972187
0.017283158 0.079999998 0.010315309 -0.52287865 0.32315677 0.19972187
0.010743846 0.079999998 0.012108463 -0.52287865 0.32315677 0.19972187
0.0043339184 0.079999998 0.013866164 -0.52287865 0.32315677 0.19972187
1.110223e-16 0.079089478 0.014900018 -0.52287865 0.32315677 0.19972187
1.110223e-16 0.076167338 0.014403919 -0.52287865 0.32315677 0.19972187
0 0.073232248 0.013905646 -0.52287865 0.32315677 0.19972187
1.110223e-16 0.070284009 0.013405167 -0.52287865 0.32315677 0.19972187
1.110223e-16 0.067322411 0.012902448 -0.52287865 0.32315677 0.19972187
0 0.064347252 0.012397454 -0.52287865 0.32315677 0.19972187
0 0.061358336 0.011890151 -0.52287865 0.32315677 0.19972187
0 0.058355439 0.011380502 -0.52287865 0.32315677 0.19972187
1.110223e-16 0.055338353 0.010868472 -0.52287865 0.32315677 0.19972187
0 0.052306861 0.010354024 -0.52287865 0.32315677 0.19972187
0 0.049260743 0.0098371208 -0.52287865 0.32315677 0.19972187
0 0.046199776 0.0093177259 -0.52287865 0.32315677 0.19972187
0 0.043123737 0.0087957997 -0.52287865 0.32315677 0.19972187
0 0.040032394 0.0082713049 -0.52287865 0.32315677 0.19972187
1.110223e-16 0.036925513 0.0077442005 -0.52287865 0.32315677 0.19972187
0 0.033802859 0.0072144479 -0.52287865 0.32315677 0.19972187
1.110223e-16 0.030664193 0.0066820062 -0.52287865 0.32315677 0.19972187
0 0.02750927 0.0061468338 -0.52287865 0.32315677 0.19972187
1.110223e-16 0.024337841 0.0056088897 -0.52287865 0.32315677 0.19972187
1.110223e-16 0.021149658 0.0050681308 -0.52287865 0.32315677 0.19972187
0 0.017944461 0.0045245145 -0.52287865 0.32315677 0.19972187
0 0.014721994 0.0039779968 -0.52287865 0.32315677 0.19972187
0 0.011481993 0.0034285332 -0.52287865 0.32315677 0.19972187
1.110223e-16 0.0082241893 0.0028760787 -0.52287865 0.32315677 0.19972187
0 0.004948312 0.0023205872 -0.52287865 0.32315677 0.19972187
0 0.0016540834 0.0017620119 -0.52287865 0.32315677 0.19972187
0.039999999 0.079147585 0.00098498375 -0.52287865 0.32315677 0.19972187
0.031064004 0.079999998 0.0036209237 -0.52287865 0.32315677 0.19972187
0.024237549 0.079999998 0.0055226814 -0.52287865 0.32315677 0.19972187
0.038302399 0.070662647 0 -0.52287865 0.32315677 0.19972187
0.010995919 0.079999998 0.0092115384 -0.52287865 0.32315677 0.19972187
0.0045720842 0.079999998 0.011001051 -0.52287865 0.32315677 0.19972187
0 0.079194732 0.012136304 -0.52287865 0.32315677 0.19972187
1.110223e-16 0.076268934 0.011633448 -0.52287865 0.32315677 0.19972187
0 0.073330149 0.011128335 -0.52287865 0.32315677 0.19972187
1.110223e-16 0.070378177 0.010620928 -0.52287865 0.32315677 0.19972187
1.110223e-16 0.067412816 0.010111194 -0.52287865 0.32315677 0.19972187
0 0.064433865 0.0095990961 -0.52287865 0.32315677 0.19972187
0 0.061441112 0.0090845991 -0.52287865 0.32315677 0.19972187
0 0.058434349 0.0085676666 -0.52287865 0.32315677 0.19972187
0 0.055413358 0.0080482615 -0.52287865 0.32315677 0.19972187
1.110223e-16 0.052377928 0.0075263456 -0.52287865 0.32315677 0.19972187
1.110223e-16 0.049327835 0.007001882 -0.52287865 0.32315677 0.19972187
1.110223e-16 0.046262853 0.0064748311 -0.52287865 0.32315677 0.19972187
0 0.04318276 0.0059451545 -0.52287865 0.32315677 0.19972187
0 0.040087324 0.0054128114 -0.52287865 0.32315677 0.19972187
0 0.036976308 0.0048777619 -0.52287865 0.32315677 0.19972187
0 0.033849478 0.0043399655 -0.52287865 0.32315677 0.19972187
0 0.030706592 0.0037993796 -0.52287865 0.32315677 0.19972187
1.110223e-16 0.027547404 0.0032559626 -0.52287865 0.32315677 0.19972187
0 0.024371669 0.0027096709 -0.52287865 0.32315677 0.19972187
0 0.02117913 0.0021604616 -0.52287865 0.32315677 0.19972187
0 0.017969536 0.0016082897 -0.52287865 0.32315677 0.19972187
1.110223e-16 0.014742621 0.0010531106 -0.52287865 0.32315677 0.19972187
0 0.011498124 0.00049487839 -0.52287865 0.32315677 0.19972187
0.031362135 0.079999998 0.00061268127 -0.52287865 0.32315677 0.19972187
0.024520066 0.079999998 0.0025488648 -0.52287865 0.32315677 0.19972187
0.017817138 0.079999998 0.004445591 -0.52287865 0.32315677 0.19972187
0.011248905 0.079999998 0.0063041216 -0.52287865 0.32315677 0.19972187
0.0048111044 0.079999998 0.0081256656 -0.52287865 0.32315677 0.19972187
0 0.079300277 0.0093651703 -0.52287865 0.32315677 0.19972187
0 0.076370798 0.0088555245 -0.52287865 0.32315677 0.19972187
0 0.073428303 0.0083435355 -0.52287865 0.32315677 0.19972187
0 0.070472591 0.0078291651 -0.52287865 0.32315677 0.19972187
0 0.06750346 0.0073123793 -0.52287865 0.32315677 0.19972187
0 0.064520702 0.0067931414 -0.52287865 0.32315677 0.19972187
0 0.061524112 0.006271414 -0.52287865 0.32315677 0.19972187
1.110223e-16 0.058513474 0.0057471599 -0.52287865 0.32315677 0.19972187
1.110223e-16 0.055488572 0.005220341 -0.52287865 0.32315677 0.19972187
0 0.052449193 0.0046909191 -0.52287865 0.32315677 0.19972187
1.110223e-16 0.04939511 0.004158855 -0.52287865 0.32315677 0.19972187
0 0.046326105 0.0036241086 -0.52287865 0.32315677 0.19972187
0 0.043241948 0.00308664 -0.52287865 0.32315677 0.19972187
0 0.040142406 0.0025464082 -0.52287865 0.32315677 0.19972187
0 0.037027244 0.0020033719 -0.52287865 0.32315677 0.19972187
1.110223e-16 0.033896226 0.0014574886 -0.52287865 0.32315677 0.19972187
1.110223e-16 0.030749109 0.00090871577 -0.52287865 0.32315677 0.19972187
0 0.027585646 0.00035700967 -0.52287865 0.32315677 0.19972187
0.018085606 0.079999998 0.0014944844 -0.52287865 0.32315677 0.19972187
0.01150282 0.079999998 0.0033860439 -0.52287865 0.32315677 0.19972187
0.0050509921 0.079999998 0.0052398387 -0.52287865 0.32315677 0.19972187
0 0.079406105 0.0065864809 -0.52287865 0.32315677 0.19972187
0 0.076472946 0.0060700113 -0.52287865 0.32315677 0.19972187
1.110223e-16 0.073526733 0.0055511105 -0.52287865 0.32315677 0.19972187
0 0.070567273 0.0050297412 -0.52287865 0.32315677 0.19972187
0 0.067594364 0.0045058676 -0.52287865 0.32315677 0.19972187
1.110223e-16 0.064607784 0.0039794515 -0.52287865 0.32315677 0.19972187
0 0.061607342 0.0034504561 -0.52287865 0.32315677 0.19972187
1.110223e-16 0.058592819 0.0029188422 -0.52287865 0.32315677 0.19972187
0 0.055563994 0.0023845714 -0.52287865 0.32315677 0.19972187
1.110223e-16 0.052520655 0.0018476036 -0.52287865 0.32315677 0.19972187
0 0.049462575 0.0013078989 -0.52287865 0.32315677 0.19972187
1.110223e-16 0.046389535 0.00076541654 -0.52287865 0.32315677 0.19972187
1.110223e-16 0.043301299 0.00022011518 -0.52287865 0.32315677 0.19972187
0.011757676 0.079999998 0.00045713541 -0.52287865 0.32315677 0.19972187
0.01156254 0.077113084 0 -0.52287865 0.32315677 0.19972187
0 0.079512224 0.0038001002 -0.52287865 0.32315677 0.19972187
0 0.076575369 0.0032767707 -0.52287865 0.32315677 0.19972187
0 0.073625438 0.002750922 -0.52287865 0.32315677 0.19972187
0 0.070662215 0.0022225173 -0.52287865 0.32315677 0.19972187
1.110223e-16 0.067685515 0.0016915186 -0.52287865 0.32315677 0.19972187
1.110223e-16 0.064695112 0.0011578877 -0.52287865 0.32315677 0.19972187
0 0.061690807 0.00062158593 -0.52287865 0.32315677 0.19972187
0 0.058672387 8.2573744e-05 -0.52287865 0.32315677 0.19972187
0 0.079618648 0.001005889 -0.52287865 0.32315677 0.19972187
0 0.07667809 0.00047566355 -0.52287865 0.32315677 0.19972187
