# .PCD v0.7 - Point Cloud Data file format
VERSION 0.7
FIELDS x y z vp_x vp_y vp_z
SIZE 4 4 4 4 4 4
TYPE F F F F F F
COUNT 1 1 1 1 1 1
WIDTH 529
HEIGHT 1
VIEWPOINT 0 0 0 1 0 0 0
POINTS 529
DATA ascii
0.0011411363 0.066622421 0.06984555 -0.64631355 0 0
0.00036810516 0.063692585 0.069731511 -0.64631355 0 0
4.4147269e-05 0.060814254 0.069667302 -0.64631355 0 0
0.00010973449 0.057976052 0.06964644 -0.64631355 0 0
0.00061301561 0.055176828 0.06967406 -0.64631355 0 0
0.0015272236 0.052408542 0.069747232 -0.64631355 0 0
0.002877315 0.049667582 0.069868587 -0.64631355 0 0
0.0080501763 0.076001823 0.067785993 -0.64631355 0 0
0.0046058157 0.072724722 0.06739568 -0.64631355 0 0
0.0024987825 0.069624379 0.067145422 -0.64631355 0 0
0.0011411363 0.066622421 0.0669742 -0.64631355 0 0
0.00036810516 0.063692585 0.066864848 -0.64631355 0 0
4.4147269e-05 0.060814254 0.066803284 -0.64631355 0 0
0.00010973449 0.057976052 0.066783279 -0.64631355 0 0
0.00061301561 0.055176828 0.066809766 -0.64631355 0 0
0.0015272236 0.052408542 0.066879921 -0.64631355 0 0
0.002877315 0.049667582 0.066996291 -0.64631355 0 0
0.0048709889 0.046963088 0.067180254 -0.64631355 0 0
0.0076576103 0.044296611 0.067447156 -0.64631355 0 0
0.011982571 0.04170486 0.067873791 -0.64631355 0 0
0.0080501763 0.076001823 0.06488245 -0.64631355 0 0
0.0046058157 0.072724722 0.064508855 -0.64631355 0 0
0.0024987825 0.069624379 0.064269319 -0.64631355 0 0
0.0011411363 0.066622421 0.064105429 -0.64631355 0 0
0.00036810516 0.063692585 0.064000763 -0.64631355 0 0
4.4147269e-05 0.060814254 0.063941829 -0.64631355 0 0
0.00010973449 0.057976052 0.063922688 -0.64631355 0 0
0.00061301561 0.055176828 0.063948035 -0.64631355 0 0
0.0015272236 0.052408542 0.064015195 -0.64631355 0 0
0.002877315 0.049667582 0.064126574 -0.64631355 0 0
0.0048709889 0.046963088 0.064302653 -0.64631355 0 0
0.0076576103 0.044296611 0.064558126 -0.64631355 0 0
0.011982571 0.04170486 0.064966492 -0.64631355 0 0
0.0080501763 0.076001823 0.061981402 -0.64631355 0 0
0.0046058157 0.072724722 0.061624508 -0.64631355 0 0
0.0024987825 0.069624379 0.061395682 -0.64631355 0 0
0.0011411363 0.066622421 0.06123912 -0.64631355 0 0
0.00036810516 0.063692585 0.061139137 -0.64631355 0 0
4.4147269e-05 0.060814254 0.06108284 -0.64631355 0 0
0.00010973449 0.057976052 0.061064549 -0.64631355 0 0
0.00061301561 0.055176828 0.061088767 -0.64631355 0 0
0.0015272236 0.052408542 0.06115292 -0.64631355 0 0
0.002877315 0.049667582 0.061259322 -0.64631355 0 0
0.0048709889 0.046963088 0.06142753 -0.64631355 0 0
0.0076576103 0.044296611 0.061671577 -0.64631355 0 0
0.011982571 0.04170486 0.062061682 -0.64631355 0 0
0.0080501763 0.076001823 0.059082735 -0.64631355 0 0
0.0046058157 0.072724722 0.058742531 -0.64631355 0 0
0.0024987825 0.069624379 0.058524407 -0.64631355 0 0
0.0011411363 0.066622421 0.058375169 -0.64631355 0 0
0.00036810516 0.063692585 0.058279857 -0.64631355 0 0
4.4147269e-05 0.060814254 0.058226194 -0.64631355 0 0
0.00010973449 0.057976052 0.05820876 -0.64631355 0 0
0.00061301561 0.055176828 0.058231845 -0.64631355 0 0
0.0015272236 0.052408542 0.058292996 -0.64631355 0 0
0.002877315 0.049667582 0.058394425 -0.64631355 0 0
0.0048709889 0.046963088 0.058554765 -0.64631355 0 0
0.0076576103 0.044296611 0.058787398 -0.64631355 0 0
0.011982571 0.04170486 0.05915926 -0.64631355 0 0
0.0080501763 0.076001823 0.056186333 -0.64631355 0 0
0.0046058157 0.072724722 0.055862807 -0.64631355 0 0
0.0024987825 0.069624379 0.055655379 -0.64631355 0 0
0.0011411363 0.066622421 0.055513453 -0.64631355 0 0
0.00036810516 0.063692585 0.055422816 -0.64631355 0 0
4.4147269e-05 0.060814254 0.055371784 -0.64631355 0 0
0.00010973449 0.057976052 0.055355206 -0.64631355 0 0
0.00061301561 0.055176828 0.055377159 -0.64631355 0 0
0.0015272236 0.052408542 0.055435311 -0.64631355 0 0
0.002877315 0.049667582 0.055531766 -0.64631355 0 0
0.0048709889 0.046963088 0.055684246 -0.64631355 0 0
0.0076576103 0.044296611 0.055905476 -0.64631355 0 0
0.011982571 0.04170486 0.056259107 -0.64631355 0 0
0.0080501763 0.076001823 0.053292088 -0.64631355 0 0
0.0046058157 0.072724722 0.052985229 -0.64631355 0 0
0.0024987825 0.069624379 0.052788485 -0.64631355 0 0
0.0011411363 0.066622421 0.052653871 -0.64631355 0 0
0.00036810516 0.063692585 0.052567903 -0.64631355 0 0
4.4147269e-05 0.060814254 0.052519497 -0.64631355 0 0
0.00010973449 0.057976052 0.052503772 -0.64631355 0 0
0.00061301561 0.055176828 0.052524596 -0.64631355 0 0
0.0015272236 0.052408542 0.052579753 -0.64631355 0 0
0.002877315 0.049667582 0.052671239 -0.64631355 0 0
0.0048709889 0.046963088 0.052815866 -0.64631355 0 0
0.0076576103 0.044296611 0.0530257 -0.64631355 0 0
0.011982571 0.04170486 0.053361114 -0.64631355 0 0
0.0080501763 0.076001823 0.050399885 -0.64631355 0 0
0.0046058157 0.072724722 0.050109681 -0.64631355 0 0
0.0024987825 0.069624379 0.04992361 -0.64631355 0 0
0.0011411363 0.066622421 0.049796306 -0.64631355 0 0
0.00036810516 0.063692585 0.049715001 -0.64631355 0 0
4.4147269e-05 0.060814254 0.049669225 -0.64631355 0 0
0.00010973449 0.057976052 0.049654353 -0.64631355 0 0
0.00061301561 0.055176828 0.049674045 -0.64631355 0 0
0.0015272236 0.052408542 0.049726211 -0.64631355 0 0
0.002877315 0.049667582 0.04981273 -0.64631355 0 0
0.0048709889 0.046963088 0.049949508 -0.64631355 0 0
0.0076576103 0.044296611 0.050147954 -0.64631355 0 0
0.011982571 0.04170486 0.050465167 -0.64631355 0 0
0.0080501763 0.076001823 0.047509614 -0.64631355 0 0
0.0046058157 0.072724722 0.047236051 -0.64631355 0 0
0.0024987825 0.069624379 0.047060654 -0.64631355 0 0
0.0011411363 0.066622421 0.046940647 -0.64631355 0 0
0.00036810516 0.063692585 0.046864007 -0.64631355 0 0
4.4147269e-05 0.060814254 0.046820853 -0.64631355 0 0
0.00010973449 0.057976052 0.046806835 -0.64631355 0 0
0.00061301561 0.055176828 0.046825398 -0.64631355 0 0
0.0015272236 0.052408542 0.046874572 -0.64631355 0 0
0.002877315 0.049667582 0.046956129 -0.64631355 0 0
0.0048709889 0.046963088 0.047085062 -0.64631355 0 0
0.0076576103 0.044296611 0.047272127 -0.64631355 0 0
0.011982571 0.04170486 0.047571149 -0.64631355 0 0
0.0080501763 0.076001823 0.044621158 -0.64631355 0 0
0.0046058157 0.072724722 0.044364229 -0.64631355 0 0
0.0024987825 0.069624379 0.044199493 -0.64631355 0 0
0.0011411363 0.066622421 0.044086784 -0.64631355 0 0
0.00036810516 0.063692585 0.044014804 -0.64631355 0 0
4.4147269e-05 0.060814254 0.043974273 -0.64631355 0 0
0.00010973449 0.057976052 0.043961108 -0.64631355 0 0
0.00061301561 0.055176828 0.043978542 -0.64631355 0 0
0.0015272236 0.052408542 0.044024725 -0.64631355 0 0
0.002877315 0.049667582 0.044101328 -0.64631355 0 0
0.0048709889 0.046963088 0.044222422 -0.64631355 0 0
0.0076576103 0.044296611 0.044398114 -0.64631355 0 0
0.011982571 0.04170486 0.044678956 -0.64631355 0 0
0.0080501763 0.076001823 0.041734412 -0.64631355 0 0
0.0046058157 0.072724722 0.041494105 -0.64631355 0 0
0.0024987825 0.069624379 0.041340027 -0.64631355 0 0
0.0011411363 0.066622421 0.041234609 -0.64631355 0 0
0.00036810516 0.063692585 0.041167285 -0.64631355 0 0
4.4147269e-05 0.060814254 0.041129377 -0.64631355 0 0
0.00010973449 0.057976052 0.041117061 -0.64631355 0 0
0.00061301561 0.055176828 0.04113337 -0.64631355 0 0
0.0015272236 0.052408542 0.041176565 -0.64631355 0 0
0.002877315 0.049667582 0.04124821 -0.64631355 0 0
0.0048709889 0.046963088 0.04136147 -0.64631355 0 0
0.0076576103 0.044296611 0.041525796 -0.64631355 0 0
0.011982571 0.04170486 0.04178847 -0.64631355 0 0
0 0.077926405 0.038391147 -0.64631355 0 0
0 0.07506682 0.038371328 -0.64631355 0 0
0 0.072210133 0.038352255 -0.64631355 0 0
0 0.069356233 0.038333934 -0.64631355 0 0
0 0.066505 0.038316358 -0.64631355 0 0
0 0.063656323 0.038299527 -0.64631355 0 0
0 0.0608101 0.038283437 -0.64631355 0 0
0 0.05796621 0.038268093 -0.64631355 0 0
0 0.055124544 0.038253486 -0.64631355 0 0
0 0.052284993 0.038239621 -0.64631355 0 0
0 0.049447447 0.038226489 -0.64631355 0 0
0 0.046611793 0.038214099 -0.64631355 0 0
0 0.043777928 0.038202439 -0.64631355 0 0
0 0.040945731 0.038191516 -0.64631355 0 0
0 0.038115103 0.038181324 -0.64631355 0 0
0 0.035285931 0.038171865 -0.64631355 0 0
0 0.032458104 0.038163137 -0.64631355 0 0
0 0.02963152 0.038155138 -0.64631355 0 0
0 0.026806066 0.03814787 -0.64631355 0 0
0 0.023981633 0.038141333 -0.64631355 0 0
0 0.021158114 0.038135521 -0.64631355 0 0
0 0.018335402 0.038130436 -0.64631355 0 0
0 0.015513389 0.038126081 -0.64631355 0 0
0 0.012691967 0.038122453 -0.64631355 0 0
0 0.0098710293 0.038119547 -0.64631355 0 0
0 0.0070504667 0.038117371 -0.64631355 0 0
0 0.0042301724 0.038115919 -0.64631355 0 0
0 0.0014100396 0.038115192 -0.64631355 0 0
0 0.077926405 0.035541486 -0.64631355 0 0
0 0.07506682 0.035523135 -0.64631355 0 0
0 0.072210133 0.035505481 -0.64631355 0 0
0 0.069356233 0.035488516 -0.64631355 0 0
0 0.066505 0.035472248 -0.64631355 0 0
0 0.063656323 0.035456665 -0.64631355 0 0
0 0.0608101 0.035441771 -0.64631355 0 0
0 0.05796621 0.035427563 -0.64631355 0 0
0 0.055124544 0.03541404 -0.64631355 0 0
0 0.052284993 0.035401203 -0.64631355 0 0
0 0.049447447 0.035389051 -0.64631355 0 0
0 0.046611793 0.035377577 -0.64631355 0 0
0 0.043777928 0.035366785 -0.64631355 0 0
0 0.040945731 0.035356671 -0.64631355 0 0
0 0.038115103 0.035347238 -0.64631355 0 0
0 0.035285931 0.03533848 -0.64631355 0 0
0 0.032458104 0.0353304 -0.64631355 0 0
0 0.02963152 0.035322994 -0.64631355 0 0
0 0.026806066 0.035316266 -0.64631355 0 0
0 0.023981633 0.035310213 -0.64631355 0 0
0 0.021158114 0.035304833 -0.64631355 0 0
0 0.018335402 0.035300128 -0.64631355 0 0
0 0.015513389 0.035296094 -0.64631355 0 0
0 0.012691967 0.035292733 -0.64631355 0 0
0 0.0098710293 0.035290048 -0.64631355 0 0
0 0.0070504667 0.035288028 -0.64631355 0 0
0 0.0042301724 0.035286687 -0.64631355 0 0
0 0.0014100396 0.035286013 -0.64631355 0 0
0 0.077926405 0.032693181 -0.64631355 0 0
0 0.07506682 0.032676302 -0.64631355 0 0
0 0.072210133 0.03266006 -0.64631355 0 0
0 0.069356233 0.032644458 -0.64631355 0 0
0 0.066505 0.03262949 -0.64631355 0 0
0 0.063656323 0.032615155 -0.64631355 0 0
0 0.0608101 0.032601457 -0.64631355 0 0
0 0.05796621 0.032588389 -0.64631355 0 0
0 0.055124544 0.03257595 -0.64631355 0 0
0 0.052284993 0.032564141 -0.64631355 0 0
0 0.049447447 0.032552961 -0.64631355 0 0
0 0.046611793 0.032542408 -0.64631355 0 0
0 0.043777928 0.03253248 -0.64631355 0 0
0 0.040945731 0.032523178 -0.64631355 0 0
0 0.038115103 0.032514498 -0.64631355 0 0
0 0.035285931 0.032506444 -0.64631355 0 0
0 0.032458104 0.032499012 -0.64631355 0 0
0 0.02963152 0.032492202 -0.64631355 0 0
0 0.026806066 0.03248601 -0.64631355 0 0
0 0.023981633 0.032480441 -0.64631355 0 0
0 0.021158114 0.032475494 -0.64631355 0 0
0 0.018335402 0.032471165 -0.64631355 0 0
0 0.015513389 0.032467455 -0.64631355 0 0
0 0.012691967 0.032464363 -0.64631355 0 0
0 0.0098710293 0.032461893 -0.64631355 0 0
0 0.0070504667 0.032460038 -0.64631355 0 0
0 0.0042301724 0.032458801 -0.64631355 0 0
0 0.0014100396 0.032458182 -0.64631355 0 0
0 0.077926405 0.029846124 -0.64631355 0 0
0 0.07506682 0.029830715 -0.64631355 0 0
0 0.072210133 0.029815888 -0.64631355 0 0
0 0.069356233 0.029801643 -0.64631355 0 0
0 0.066505 0.02978798 -0.64631355 0 0
0 0.063656323 0.029774895 -0.64631355 0 0
0 0.0608101 0.029762387 -0.64631355 0 0
0 0.05796621 0.029750457 -0.64631355 0 0
0 0.055124544 0.029739102 -0.64631355 0 0
0 0.052284993 0.029728321 -0.64631355 0 0
0 0.049447447 0.029718114 -0.64631355 0 0
0 0.046611793 0.02970848 -0.64631355 0 0
0 0.043777928 0.029699417 -0.64631355 0 0
0 0.040945731 0.029690925 -0.64631355 0 0
0 0.038115103 0.029683001 -0.64631355 0 0
0 0.035285931 0.029675648 -0.64631355 0 0
0 0.032458104 0.029668864 -0.64631355 0 0
0 0.02963152 0.029662646 -0.64631355 0 0
0 0.026806066 0.029656995 -0.64631355 0 0
0 0.023981633 0.029651912 -0.64631355 0 0
0 0.021158114 0.029647393 -0.64631355 0 0
0 0.018335402 0.029643441 -0.64631355 0 0
0 0.015513389 0.029640054 -0.64631355 0 0
0 0.012691967 0.029637232 -0.64631355 0 0
0 0.0098710293 0.029634975 -0.64631355 0 0
0 0.0070504667 0.029633284 -0.64631355 0 0
0 0.0042301724 0.029632155 -0.64631355 0 0
0 0.0014100396 0.02963159 -0.64631355 0 0
0 0.077926405 0.027000206 -0.64631355 0 0
0 0.07506682 0.026986266 -0.64631355 0 0
0 0.072210133 0.026972853 -0.64631355 0 0
0 0.069356233 0.026959967 -0.64631355 0 0
0 0.066505 0.026947604 -0.64631355 0 0
0 0.063656323 0.026935767 -0.64631355 0 0
0 0.0608101 0.026924454 -0.64631355 0 0
0 0.05796621 0.026913662 -0.64631355 0 0
0 0.055124544 0.026903389 -0.64631355 0 0
0 0.052284993 0.026893636 -0.64631355 0 0
0 0.049447447 0.026884403 -0.64631355 0 0
0 0.046611793 0.026875686 -0.64631355 0 0
0 0.043777928 0.026867488 -0.64631355 0 0
0 0.040945731 0.026859805 -0.64631355 0 0
0 0.038115103 0.026852638 -0.64631355 0 0
0 0.035285931 0.026845986 -0.64631355 0 0
0 0.032458104 0.026839847 -0.64631355 0 0
0 0.02963152 0.026834223 -0.64631355 0 0
0 0.026806066 0.02682911 -0.64631355 0 0
0 0.023981633 0.026824512 -0.64631355 0 0
0 0.021158114 0.026820425 -0.64631355 0 0
0 0.018335402 0.026816851 -0.64631355 0 0
0 0.015513389 0.026813786 -0.64631355 0 0
0 0.012691967 0.026811233 -0.64631355 0 0
0 0.0098710293 0.026809191 -0.64631355 0 0
0 0.0070504667 0.02680766 -0.64631355 0 0
0 0.0042301724 0.02680664 -0.64631355 0 0
0 0.0014100396 0.026806129 -0.64631355 0 0
0 0.077926405 0.024155317 -0.64631355 0 0
0 0.07506682 0.024142846 -0.64631355 0 0
0 0.072210133 0.024130845 -0.64631355 0 0
0 0.069356233 0.024119318 -0.64631355 0 0
0 0.066505 0.024108259 -0.64631355 0 0
0 0.063656323 0.02409767 -0.64631355 0 0
0 0.0608101 0.024087546 -0.64631355 0 0
0 0.05796621 0.02407789 -0.64631355 0 0
0 0.055124544 0.024068702 -0.64631355 0 0
0 0.052284993 0.024059977 -0.64631355 0 0
0 0.049447447 0.024051717 -0.64631355 0 0
0 0.046611793 0.024043918 -0.64631355 0 0
0 0.043777928 0.024036583 -0.64631355 0 0
0 0.040945731 0.024029709 -0.64631355 0 0
0 0.038115103 0.024023298 -0.64631355 0 0
0 0.035285931 0.024017347 -0.64631355 0 0
0 0.032458104 0.024011856 -0.64631355 0 0
0 0.02963152 0.024006823 -0.64631355 0 0
0 0.026806066 0.02400225 -0.64631355 0 0
0 0.023981633 0.023998136 -0.64631355 0 0
0 0.021158114 0.023994479 -0.64631355 0 0
0 0.018335402 0.023991281 -0.64631355 0 0
0 0.015513389 0.023988539 -0.64631355 0 0
0 0.012691967 0.023986256 -0.64631355 0 0
0 0.0098710293 0.023984428 -0.64631355 0 0
0 0.0070504667 0.023983059 -0.64631355 0 0
0 0.0042301724 0.023982147 -0.64631355 0 0
0 0.0014100396 0.023981689 -0.64631355 0 0
0 0.077926405 0.02131135 -0.64631355 0 0
0 0.07506682 0.021300348 -0.64631355 0 0
0 0.072210133 0.02128976 -0.64631355 0 0
0 0.069356233 0.021279588 -0.64631355 0 0
0 0.066505 0.021269832 -0.64631355 0 0
0 0.063656323 0.021260489 -0.64631355 0 0
0 0.0608101 0.021251559 -0.64631355 0 0
0 0.05796621 0.02124304 -0.64631355 0 0
0 0.055124544 0.021234931 -0.64631355 0 0
0 0.052284993 0.021227235 -0.64631355 0 0
0 0.049447447 0.021219946 -0.64631355 0 0
0 0.046611793 0.021213066 -0.64631355 0 0
0 0.043777928 0.021206595 -0.64631355 0 0
0 0.040945731 0.021200532 -0.64631355 0 0
0 0.038115103 0.021194873 -0.64631355 0 0
0 0.035285931 0.021189623 -0.64631355 0 0
0 0.032458104 0.021184778 -0.64631355 0 0
0 0.02963152 0.021180339 -0.64631355 0 0
0 0.026806066 0.021176305 -0.64631355 0 0
0 0.023981633 0.021172674 -0.64631355 0 0
0 0.021158114 0.021169448 -0.64631355 0 0
0 0.018335402 0.021166626 -0.64631355 0 0
0 0.015513389 0.021164209 -0.64631355 0 0
0 0.012691967 0.021162193 -0.64631355 0 0
0 0.0098710293 0.021160582 -0.64631355 0 0
0 0.0070504667 0.021159373 -0.64631355 0 0
0 0.0042301724 0.021158567 -0.64631355 0 0
0 0.0014100396 0.021158164 -0.64631355 0 0
0 0.077926405 0.018468196 -0.64631355 0 0
0 0.07506682 0.018458659 -0.64631355 0 0
0 0.072210133 0.018449485 -0.64631355 0 0
0 0.069356233 0.018440671 -0.64631355 0 0
0 0.066505 0.018432217 -0.64631355 0 0
0 0.063656323 0.01842412 -0.64631355 0 0
0 0.0608101 0.018416381 -0.64631355 0 0
0 0.05796621 0.018408999 -0.64631355 0 0
0 0.055124544 0.018401971 -0.64631355 0 0
0 0.052284993 0.018395301 -0.64631355 0 0
0 0.049447447 0.018388985 -0.64631355 0 0
0 0.046611793 0.018383024 -0.64631355 0 0
0 0.043777928 0.018377416 -0.64631355 0 0
0 0.040945731 0.018372161 -0.64631355 0 0
0 0.038115103 0.018367259 -0.64631355 0 0
0 0.035285931 0.018362708 -0.64631355 0 0
0 0.032458104 0.01835851 -0.64631355 0 0
0 0.02963152 0.018354662 -0.64631355 0 0
0 0.026806066 0.018351166 -0.64631355 0 0
0 0.023981633 0.01834802 -0.64631355 0 0
0 0.021158114 0.018345224 -0.64631355 0 0
0 0.018335402 0.01834278 -0.64631355 0 0
0 0.015513389 0.018340683 -0.64631355 0 0
0 0.012691967 0.018338937 -0.64631355 0 0
0 0.0098710293 0.01833754 -0.64631355 0 0
0 0.0070504667 0.018336494 -0.64631355 0 0
0 0.0042301724 0.018335795 -0.64631355 0 0
0 0.0014100396 0.018335447 -0.64631355 0 0
0 0.077926405 0.015625743 -0.64631355 0 0
0 0.07506682 0.015617676 -0.64631355 0 0
0 0.072210133 0.015609914 -0.64631355 0 0
0 0.069356233 0.015602456 -0.64631355 0 0
0 0.066505 0.015595303 -0.64631355 0 0
0 0.063656323 0.015588452 -0.64631355 0 0
0 0.0608101 0.015581904 -0.64631355 0 0
0 0.05796621 0.015575658 -0.64631355 0 0
0 0.055124544 0.015569713 -0.64631355 0 0
0 0.052284993 0.015564069 -0.64631355 0 0
0 0.049447447 0.015558725 -0.64631355 0 0
0 0.046611793 0.015553681 -0.64631355 0 0
0 0.043777928 0.015548936 -0.64631355 0 0
0 0.040945731 0.01554449 -0.64631355 0 0
0 0.038115103 0.015540343 -0.64631355 0 0
0 0.035285931 0.015536493 -0.64631355 0 0
0 0.032458104 0.01553294 -0.64631355 0 0
0 0.02963152 0.015529685 -0.64631355 0 0
0 0.026806066 0.015526727 -0.64631355 0 0
0 0.023981633 0.015524065 -0.64631355 0 0
0 0.021158114 0.0155217 -0.64631355 0 0
0 0.018335402 0.015519631 -0.64631355 0 0
0 0.015513389 0.015517858 -0.64631355 0 0
0 0.012691967 0.01551638 -0.64631355 0 0
0 0.0098710293 0.015515199 -0.64631355 0 0
0 0.0070504667 0.015514312 -0.64631355 0 0
0 0.0042301724 0.015513722 -0.64631355 0 0
0 0.0014100396 0.015513427 -0.64631355 0 0
0 0.077926405 0.012783888 -0.64631355 0 0
0 0.07506682 0.012777288 -0.64631355 0 0
0 0.072210133 0.012770937 -0.64631355 0 0
0 0.069356233 0.012764836 -0.64631355 0 0
0 0.066505 0.012758983 -0.64631355 0 0
0 0.063656323 0.012753379 -0.64631355 0 0
0 0.0608101 0.012748022 -0.64631355 0 0
0 0.05796621 0.012742911 -0.64631355 0 0
0 0.055124544 0.012738048 -0.64631355 0 0
0 0.052284993 0.012733431 -0.64631355 0 0
0 0.049447447 0.012729058 -0.64631355 0 0
0 0.046611793 0.012724931 -0.64631355 0 0
0 0.043777928 0.01272105 -0.64631355 0 0
0 0.040945731 0.012717412 -0.64631355 0 0
0 0.038115103 0.012714018 -0.64631355 0 0
0 0.035285931 0.012710868 -0.64631355 0 0
0 0.032458104 0.012707963 -0.64631355 0 0
0 0.02963152 0.012705299 -0.64631355 0 0
0 0.026806066 0.012702879 -0.64631355 0 0
0 0.023981633 0.012700702 -0.64631355 0 0
0 0.021158114 0.012698767 -0.64631355 0 0
0 0.018335402 0.012697074 -0.64631355 0 0
0 0.015513389 0.012695624 -0.64631355 0 0
0 0.012691967 0.012694415 -0.64631355 0 0
0 0.0098710293 0.012693448 -0.64631355 0 0
0 0.0070504667 0.012692722 -0.64631355 0 0
0 0.0042301724 0.012692239 -0.64631355 0 0
0 0.0014100396 0.012691998 -0.64631355 0 0
0 0.077926405 0.0099425195 -0.64631355 0 0
0 0.07506682 0.009937386 -0.64631355 0 0
0 0.072210133 0.0099324463 -0.64631355 0 0
0 0.069356233 0.0099277012 -0.64631355 0 0
0 0.066505 0.0099231498 -0.64631355 0 0
0 0.063656323 0.0099187903 -0.64631355 0 0
0 0.0608101 0.0099146245 -0.64631355 0 0
0 0.05796621 0.0099106496 -0.64631355 0 0
0 0.055124544 0.0099068675 -0.64631355 0 0
0 0.052284993 0.0099032763 -0.64631355 0 0
0 0.049447447 0.0098998761 -0.64631355 0 0
0 0.046611793 0.0098966667 -0.64631355 0 0
0 0.043777928 0.0098936474 -0.64631355 0 0
0 0.040945731 0.009890818 -0.64631355 0 0
0 0.038115103 0.0098881787 -0.64631355 0 0
0 0.035285931 0.0098857293 -0.64631355 0 0
0 0.032458104 0.009883469 -0.64631355 0 0
0 0.02963152 0.0098813977 -0.64631355 0 0
0 0.026806066 0.0098795155 -0.64631355 0 0
0 0.023981633 0.0098778224 -0.64631355 0 0
0 0.021158114 0.0098763173 -0.64631355 0 0
0 0.018335402 0.0098750005 -0.64631355 0 0
0 0.015513389 0.0098738717 -0.64631355 0 0
0 0.012691967 0.009872932 -0.64631355 0 0
0 0.0098710293 0.0098721804 -0.64631355 0 0
0 0.0070504667 0.009871616 -0.64631355 0 0
0 0.0042301724 0.0098712407 -0.64631355 0 0
0 0.0014100396 0.0098710526 -0.64631355 0 0
0 0.077926405 0.0071015288 -0.64631355 0 0
0 0.07506682 0.0070978622 -0.64631355 0 0
0 0.072210133 0.0070943348 -0.64631355 0 0
0 0.069356233 0.0070909453 -0.64631355 0 0
0 0.066505 0.007087694 -0.64631355 0 0
0 0.063656323 0.0070845806 -0.64631355 0 0
0 0.0608101 0.007081605 -0.64631355 0 0
0 0.05796621 0.0070787664 -0.64631355 0 0
0 0.055124544 0.0070760646 -0.64631355 0 0
0 0.052284993 0.0070734993 -0.64631355 0 0
0 0.049447447 0.0070710708 -0.64631355 0 0
0 0.046611793 0.0070687784 -0.64631355 0 0
0 0.043777928 0.0070666219 -0.64631355 0 0
0 0.040945731 0.0070646009 -0.64631355 0 0
0 0.038115103 0.0070627159 -0.64631355 0 0
0 0.035285931 0.0070609665 -0.64631355 0 0
0 0.032458104 0.007059352 -0.64631355 0 0
0 0.02963152 0.0070578726 -0.64631355 0 0
0 0.026806066 0.0070565282 -0.64631355 0 0
0 0.023981633 0.0070553184 -0.64631355 0 0
0 0.021158114 0.0070542432 -0.64631355 0 0
0 0.018335402 0.0070533031 -0.64631355 0 0
0 0.015513389 0.0070524975 -0.64631355 0 0
0 0.012691967 0.007051826 -0.64631355 0 0
0 0.0098710293 0.0070512886 -0.64631355 0 0
0 0.0070504667 0.0070508858 -0.64631355 0 0
0 0.0042301724 0.0070506176 -0.64631355 0 0
0 0.0014100396 0.0070504835 -0.64631355 0 0
0 0.077926405 0.0042608092 -0.64631355 0 0
0 0.07506682 0.0042586094 -0.64631355 0 0
0 0.072210133 0.0042564925 -0.64631355 0 0
0 0.069356233 0.0042544594 -0.64631355 0 0
0 0.066505 0.0042525083 -0.64631355 0 0
0 0.063656323 0.0042506405 -0.64631355 0 0
0 0.0608101 0.0042488552 -0.64631355 0 0
0 0.05796621 0.0042471518 -0.64631355 0 0
0 0.055124544 0.0042455308 -0.64631355 0 0
0 0.052284993 0.0042439918 -0.64631355 0 0
0 0.049447447 0.0042425347 -0.64631355 0 0
0 0.046611793 0.0042411592 -0.64631355 0 0
0 0.043777928 0.0042398656 -0.64631355 0 0
0 0.040945731 0.004238653 -0.64631355 0 0
0 0.038115103 0.0042375219 -0.64631355 0 0
0 0.035285931 0.0042364723 -0.64631355 0 0
0 0.032458104 0.0042355037 -0.64631355 0 0
0 0.02963152 0.0042346162 -0.64631355 0 0
0 0.026806066 0.0042338092 -0.64631355 0 0
0 0.023981633 0.0042330837 -0.64631355 0 0
0 0.021158114 0.0042324387 -0.64631355 0 0
0 0.018335402 0.0042318744 -0.64631355 0 0
0 0.015513389 0.004231391 -0.64631355 0 0
0 0.012691967 0.0042309882 -0.64631355 0 0
0 0.0098710293 0.004230666 -0.64631355 0 0
0 0.0070504667 0.0042304243 -0.64631355 0 0
0 0.0042301724 0.0042302632 -0.64631355 0 0
0 0.0014100396 0.0042301826 -0.64631355 0 0
0 0.077926405 0.0014202517 -0.64631355 0 0
0 0.07506682 0.0014195184 -0.64631355 0 0
0 0.072210133 0.0014188129 -0.64631355 0 0
0 0.069356233 0.001418135 -0.64631355 0 0
0 0.066505 0.0014174848 -0.64631355 0 0
0 0.063656323 0.0014168622 -0.64631355 0 0
0 0.0608101 0.001416267 -0.64631355 0 0
0 0.05796621 0.0014156994 -0.64631355 0 0
0 0.055124544 0.001415159 -0.64631355 0 0
0 0.052284993 0.001414646 -0.64631355 0 0
0 0.049447447 0.0014141602 -0.64631355 0 0
0 0.046611793 0.0014137018 -0.64631355 0 0
0 0.043777928 0.0014132706 -0.64631355 0 0
0 0.040945731 0.0014128664 -0.64631355 0 0
0 0.038115103 0.0014124895 -0.64631355 0 0
0 0.035285931 0.0014121395 -0.64631355 0 0
0 0.032458104 0.0014118166 -0.64631355 0 0
0 0.02963152 0.0014115208 -0.64631355 0 0
0 0.026806066 0.0014112518 -0.64631355 0 0
0 0.023981633 0.0014110099 -0.64631355 0 0
0 0.021158114 0.001410795 -0.64631355 0 0
0 0.018335402 0.0014106069 -0.64631355 0 0
0 0.015513389 0.0014104458 -0.64631355 0 0
0 0.012691967 0.0014103114 -0.64631355 0 0
0 0.0098710293 0.0014102041 -0.64631355 0 0
0 0.0070504667 0.0014101235 -0.64631355 0 0
0 0.0042301724 0.0014100698 -0.64631355 0 0
0 0.0014100396 0.001410043 -0.64631355 0 0
