# .PCD v0.7 - Point Cloud Data file format
VERSION 0.7
FIELDS x y z vp_x vp_y vp_z
SIZE 4 4 4 4 4 4
TYPE F F F F F F
COUNT 1 1 1 1 1 1
WIDTH 619
HEIGHT 1
VIEWPOINT 0 0 0 1 0 0 0
POINTS 619
DATA ascii
0.025124934 0.077002451 0.07 -0.52287865 -0.32315677 0.19972187
0.026582312 0.074366003 0.07 -0.52287865 -0.32315677 0.19972187
0.02804519 0.071737267 0.07 -0.52287865 -0.32315677 0.19972187
0.02951367 0.069116041 0.07 -0.52287865 -0.32315677 0.19972187
0.030987853 0.066502117 0.07 -0.52287865 -0.32315677 0.19972187
0.032467838 0.063895293 0.07 -0.52287865 -0.32315677 0.19972187
0.033953726 0.061295375 0.07 -0.52287865 -0.32315677 0.19972187
0.035445627 0.058702156 0.07 -0.52287865 -0.32315677 0.19972187
0.036943637 0.056115437 0.07 -0.52287865 -0.32315677 0.19972187
0.038447864 0.053535026 0.07 -0.52287865 -0.32315677 0.19972187
0.008143859 0.075574607 0.07 -0.52287865 -0.32315677 0.19972187
0.0095615899 0.072977476 0.07 -0.52287865 -0.32315677 0.19972187
0.010984058 0.070388146 0.07 -0.52287865 -0.32315677 0.19972187
0.012411355 0.067806415 0.07 -0.52287865 -0.32315677 0.19972187
0.013843578 0.065232091 0.07 -0.52287865 -0.32315677 0.19972187
0.015280822 0.062664978 0.07 -0.52287865 -0.32315677 0.19972187
0.016723184 0.060104873 0.07 -0.52287865 -0.32315677 0.19972187
0.018170757 0.057551589 0.07 -0.52287865 -0.32315677 0.19972187
0.019623641 0.055004932 0.07 -0.52287865 -0.32315677 0.19972187
0.021081934 0.052464709 0.07 -0.52287865 -0.32315677 0.19972187
0.022545734 0.049930733 0.07 -0.52287865 -0.32315677 0.19972187
0.024015142 0.047402818 0.07 -0.52287865 -0.32315677 0.19972187
0.025490258 0.044880774 0.07 -0.52287865 -0.32315677 0.19972187
0.02697118 0.042364415 0.07 -0.52287865 -0.32315677 0.19972187
0.0053014602 0.073543698 0.067688607 -0.52287865 -0.32315677 0.19972187
0.0012471522 0.066888511 0.069053285 -0.52287865 -0.32315677 0.19972187
0.00017436405 0.062510833 0.069670409 -0.52287865 -0.32315677 0.19972187
0.00025218437 0.059011396 0.07 -0.52287865 -0.32315677 0.19972187
0.0016600763 0.056496296 0.07 -0.52287865 -0.32315677 0.19972187
0.0030725445 0.053987931 0.07 -0.52287865 -0.32315677 0.19972187
0.0044896812 0.051486116 0.07 -0.52287865 -0.32315677 0.19972187
0.0059115794 0.048990671 0.07 -0.52287865 -0.32315677 0.19972187
0.0073383325 0.046501413 0.07 -0.52287865 -0.32315677 0.19972187
0.0087700346 0.044018161 0.07 -0.52287865 -0.32315677 0.19972187
0.011066324 0.042128764 0.06979084 -0.52287865 -0.32315677 0.19972187
0.014281366 0.040853012 0.069361083 -0.52287865 -0.32315677 0.19972187
0.018300787 0.040096357 0.068740234 -0.52287865 -0.32315677 0.19972187
0.024014171 0.04043486 0.067715153 -0.52287865 -0.32315677 0.19972187
0.0056203282 0.073886834 0.064595506 -0.52287865 -0.32315677 0.19972187
0.0013021751 0.067026608 0.066061117 -0.52287865 -0.32315677 0.19972187
0.00019140726 0.062614784 0.066704206 -0.52287865 -0.32315677 0.19972187
5.668704e-05 0.058954462 0.067097321 -0.52287865 -0.32315677 0.19972187
0.00046566597 0.055712331 0.067351855 -0.52287865 -0.32315677 0.19972187
0.0013578414 0.052833673 0.067484207 -0.52287865 -0.32315677 0.19972187
0.0025887701 0.050205886 0.067531712 -0.52287865 -0.32315677 0.19972187
0.0041477908 0.0478145 0.06749776 -0.52287865 -0.32315677 0.19972187
0.0060760262 0.045681518 0.067372747 -0.52287865 -0.32315677 0.19972187
0.0083409911 0.043777097 0.067165524 -0.52287865 -0.32315677 0.19972187
0.011022375 0.042149097 0.066856973 -0.52287865 -0.32315677 0.19972187
0.01423642 0.040868156 0.066419087 -0.52287865 -0.32315677 0.19972187
0.018248396 0.040102057 0.065787293 -0.52287865 -0.32315677 0.19972187
0.02393272 0.040416934 0.064747371 -0.52287865 -0.32315677 0.19972187
0.0061508194 0.074389324 0.061437506 -0.52287865 -0.32315677 0.19972187
0.0013573176 0.06716501 0.063062437 -0.52287865 -0.32315677 0.19972187
0.00020848491 0.062718958 0.063732006 -0.52287865 -0.32315677 0.19972187
5.2199408e-05 0.059037231 0.064141586 -0.52287865 -0.32315677 0.19972187
0.00045384152 0.055784456 0.064405687 -0.52287865 -0.32315677 0.19972187
0.0013344613 0.052892353 0.064545862 -0.52287865 -0.32315677 0.19972187
0.0025616933 0.05025696 0.064597182 -0.52287865 -0.32315677 0.19972187
0.0041131037 0.04785534 0.064566128 -0.52287865 -0.32315677 0.19972187
0.0060393759 0.045716234 0.064440452 -0.52287865 -0.32315677 0.19972187
0.0083028423 0.043806098 0.064230539 -0.52287865 -0.32315677 0.19972187
0.01097835 0.042169467 0.063918069 -0.52287865 -0.32315677 0.19972187
0.014191397 0.040883329 0.063472077 -0.52287865 -0.32315677 0.19972187
0.018195916 0.040107768 0.06282942 -0.52287865 -0.32315677 0.19972187
0.023851141 0.040398978 0.061774958 -0.52287865 -0.32315677 0.19972187
0.0066834479 0.07489384 0.058266781 -0.52287865 -0.32315677 0.19972187
0.0014125821 0.067303717 0.060057122 -0.52287865 -0.32315677 0.19972187
0.00022559775 0.06282334 0.060753688 -0.52287865 -0.32315677 0.19972187
4.7702939e-05 0.059120163 0.06118004 -0.52287865 -0.32315677 0.19972187
0.00044199426 0.05585672 0.061453834 -0.52287865 -0.32315677 0.19972187
0.0013110372 0.052951146 0.061602004 -0.52287865 -0.32315677 0.19972187
0.0025345664 0.050308127 0.061657201 -0.52287865 -0.32315677 0.19972187
0.0040783533 0.047896251 0.061629176 -0.52287865 -0.32315677 0.19972187
0.0060026594 0.045751013 0.061502878 -0.52287865 -0.32315677 0.19972187
0.0082646245 0.043835152 0.061290309 -0.52287865 -0.32315677 0.19972187
0.010934249 0.04218987 0.060974009 -0.52287865 -0.32315677 0.19972187
0.014146296 0.040898524 0.060519919 -0.52287865 -0.32315677 0.19972187
0.018143348 0.040113486 0.059866488 -0.52287865 -0.32315677 0.19972187
0.023769433 0.040380992 0.058797803 -0.52287865 -0.32315677 0.19972187
0.0014679714 0.067442738 0.057045028 -0.52287865 -0.32315677 0.19972187
0.00024274651 0.062927939 0.057769112 -0.52287865 -0.32315677 0.19972187
4.3197448e-05 0.059203263 0.058212541 -0.52287865 -0.32315677 0.19972187
0.00043012365 0.055929124 0.058496159 -0.52287865 -0.32315677 0.19972187
0.0012875682 0.05301005 0.058652502 -0.52287865 -0.32315677 0.19972187
0.0025073879 0.050359391 0.058711655 -0.52287865 -0.32315677 0.19972187
0.0040482637 0.047940563 0.058685504 -0.52287865 -0.32315677 0.19972187
0.0059658755 0.045785856 0.058559898 -0.52287865 -0.32315677 0.19972187
0.0082263378 0.043864258 0.058344711 -0.52287865 -0.32315677 0.19972187
0.010890068 0.042210311 0.058024656 -0.52287865 -0.32315677 0.19972187
0.014101115 0.040913749 0.057562493 -0.52287865 -0.32315677 0.19972187
0.018090688 0.040119216 0.05689837 -0.52287865 -0.32315677 0.19972187
0.02368759 0.04036298 0.055815771 -0.52287865 -0.32315677 0.19972187
0.0015234879 0.067582078 0.054026011 -0.52287865 -0.32315677 0.19972187
0.00025993199 0.063032761 0.054778147 -0.52287865 -0.32315677 0.19972187
3.8682723e-05 0.059286535 0.05523897 -0.52287865 -0.32315677 0.19972187
0.00041822917 0.056001678 0.055532541 -0.52287865 -0.32315677 0.19972187
0.0012640534 0.05306907 0.055697225 -0.52287865 -0.32315677 0.19972187
0.002480157 0.050410755 0.055760413 -0.52287865 -0.32315677 0.19972187
0.0040181456 0.047984984 0.055736188 -0.52287865 -0.32315677 0.19972187
0.0059290221 0.045820761 0.055611387 -0.52287865 -0.32315677 0.19972187
0.0081879795 0.043893419 0.055393614 -0.52287865 -0.32315677 0.19972187
0.010845806 0.042230789 0.05506989 -0.52287865 -0.32315677 0.19972187
0.014055851 0.040929001 0.054599669 -0.52287865 -0.32315677 0.19972187
0.018037934 0.040124953 0.053924941 -0.52287865 -0.32315677 0.19972187
0.023605609 0.040344939 0.052828744 -0.52287865 -0.32315677 0.19972187
0.0015791341 0.067721747 0.050999939 -0.52287865 -0.32315677 0.19972187
0.00027715496 0.063137814 0.05178066 -0.52287865 -0.32315677 0.19972187
3.4158573e-05 0.059369978 0.052259184 -0.52287865 -0.32315677 0.19972187
0.00040631031 0.056074377 0.052562844 -0.52287865 -0.32315677 0.19972187
0.0012404915 0.053128209 0.052736051 -0.52287865 -0.32315677 0.19972187
0.0024528725 0.050462216 0.052803349 -0.52287865 -0.32315677 0.19972187
0.0039879689 0.048029494 0.052781109 -0.52287865 -0.32315677 0.19972187
0.0058920979 0.045855738 0.052657217 -0.52287865 -0.32315677 0.19972187
0.0081495475 0.043922637 0.052436892 -0.52287865 -0.32315677 0.19972187
0.010801462 0.042251304 0.052109577 -0.52287865 -0.32315677 0.19972187
0.014010503 0.040944282 0.051631324 -0.52287865 -0.32315677 0.19972187
0.017985083 0.040130705 0.050946072 -0.52287865 -0.32315677 0.19972187
0.023523489 0.040326864 0.049836591 -0.52287865 -0.32315677 0.19972187
0.0016349127 0.067861743 0.047966674 -0.52287865 -0.32315677 0.19972187
0.00029441618 0.063243106 0.048776515 -0.52287865 -0.32315677 0.19972187
2.9624789e-05 0.059453599 0.049273055 -0.52287865 -0.32315677 0.19972187
0.00039436651 0.056147233 0.049586937 -0.52287865 -0.32315677 0.19972187
0.0012168817 0.053187467 0.049768839 -0.52287865 -0.32315677 0.19972187
0.0024255328 0.050513785 0.049840324 -0.52287865 -0.32315677 0.19972187
0.0039577321 0.048074089 0.049820136 -0.52287865 -0.32315677 0.19972187
0.0058551016 0.045890782 0.049697254 -0.52287865 -0.32315677 0.19972187
0.008111041 0.04395191 0.049474414 -0.52287865 -0.32315677 0.19972187
0.010757032 0.04227186 0.049143597 -0.52287865 -0.32315677 0.19972187
0.013965068 0.040959589 0.048657324 -0.52287865 -0.32315677 0.19972187
0.017932134 0.040136464 0.047961634 -0.52287865 -0.32315677 0.19972187
0.023441225 0.040308759 0.046839185 -0.52287865 -0.32315677 0.19972187
0.0016908263 0.068002082 0.044926066 -0.52287865 -0.32315677 0.19972187
0.00031171646 0.063348629 0.045765568 -0.52287865 -0.32315677 0.19972187
2.508117e-05 0.0595374 0.046280447 -0.52287865 -0.32315677 0.19972187
0.00038239727 0.056220241 0.046604685 -0.52287865 -0.32315677 0.19972187
0.0011932227 0.053246848 0.046795465 -0.52287865 -0.32315677 0.19972187
0.002398137 0.050565459 0.046871215 -0.52287865 -0.32315677 0.19972187
0.0039274339 0.048118774 0.04685314 -0.52287865 -0.32315677 0.19972187
0.0058180313 0.045925897 0.046731368 -0.52287865 -0.32315677 0.19972187
0.0080724582 0.043981239 0.046506055 -0.52287865 -0.32315677 0.19972187
0.010712516 0.042292457 0.046171814 -0.52287865 -0.32315677 0.19972187
0.013919544 0.04097493 0.045677539 -0.52287865 -0.32315677 0.19972187
0.017879082 0.040142234 0.0449715 -0.52287865 -0.32315677 0.19972187
0.023358813 0.04029062 0.0438364 -0.52287865 -0.32315677 0.19972187
0.038355645 0.046660345 0.039999999 -0.52287865 -0.32315677 0.19972187
0.039912675 0.044088852 0.039999999 -0.52287865 -0.32315677 0.19972187
0.0049971691 0.077966787 0.039999999 -0.52287865 -0.32315677 0.19972187
0.0064920154 0.075379975 0.039999999 -0.52287865 -0.32315677 0.19972187
0.0017468773 0.068142764 0.041877978 -0.52287865 -0.32315677 0.19972187
0.00032905661 0.063454397 0.042747691 -0.52287865 -0.32315677 0.19972187
2.0527512e-05 0.05962139 0.043281231 -0.52287865 -0.32315677 0.19972187
0.00037040203 0.056293406 0.04361596 -0.52287865 -0.32315677 0.19972187
0.0011695137 0.053306356 0.043815795 -0.52287865 -0.32315677 0.19972187
0.0023706837 0.05061724 0.043895885 -0.52287865 -0.32315677 0.19972187
0.0038970723 0.048163556 0.04387999 -0.52287865 -0.32315677 0.19972187
0.0057808855 0.045961082 0.043759432 -0.52287865 -0.32315677 0.19972187
0.0080337971 0.044010632 0.043531679 -0.52287865 -0.32315677 0.19972187
0.01066791 0.042313091 0.0431941 -0.52287865 -0.32315677 0.19972187
0.013873931 0.0409903 0.042691845 -0.52287865 -0.32315677 0.19972187
0.017825928 0.040148016 0.041975535 -0.52287865 -0.32315677 0.19972187
0.023276249 0.040272448 0.040828105 -0.52287865 -0.32315677 0.19972187
0.027650744 0.039638437 0.039999999 -0.52287865 -0.32315677 0.19972187
0.029181845 0.037113458 0.039999999 -0.52287865 -0.32315677 0.19972187
0.030716024 0.03459144 0.039999999 -0.52287865 -0.32315677 0.19972187
0.032253366 0.032072246 0.039999999 -0.52287865 -0.32315677 0.19972187
0.033793952 0.029555736 0.039999999 -0.52287865 -0.32315677 0.19972187
0.035337869 0.027041767 0.039999999 -0.52287865 -0.32315677 0.19972187
0.036885206 0.024530198 0.039999999 -0.52287865 -0.32315677 0.19972187
0.03843604 0.022020891 0.039999999 -0.52287865 -0.32315677 0.19972187
0.039990466 0.019513706 0.039999999 -0.52287865 -0.32315677 0.19972187
1.110223e-16 0.077987656 0.038002227 -0.52287865 -0.32315677 0.19972187
0 0.074279875 0.038462009 -0.52287865 -0.32315677 0.19972187
0 0.070596993 0.03891965 -0.52287865 -0.32315677 0.19972187
0 0.066938609 0.039375193 -0.52287865 -0.32315677 0.19972187
0 0.063304365 0.039828673 -0.52287865 -0.32315677 0.19972187
1.5963604e-05 0.059705567 0.040275261 -0.52287865 -0.32315677 0.19972187
0.00035838023 0.056366734 0.040620618 -0.52287865 -0.32315677 0.19972187
0.0011457535 0.053365991 0.040829692 -0.52287865 -0.32315677 0.19972187
0.002343172 0.050669134 0.040914204 -0.52287865 -0.32315677 0.19972187
0.0038666467 0.04820843 0.040900551 -0.52287865 -0.32315677 0.19972187
0.0057436624 0.045996338 0.040781312 -0.52287865 -0.32315677 0.19972187
0.0079950569 0.044040084 0.040551156 -0.52287865 -0.32315677 0.19972187
0.010624141 0.042334408 0.040210042 -0.52287865 -0.32315677 0.19972187
0.012822384 0.040323224 0.039999999 -0.52287865 -0.32315677 0.19972187
0.01432057 0.037834048 0.039999999 -0.52287865 -0.32315677 0.19972187
0.015821293 0.035348017 0.039999999 -0.52287865 -0.32315677 0.19972187
0.017324632 0.032864995 0.039999999 -0.52287865 -0.32315677 0.19972187
0.018830666 0.030384848 0.039999999 -0.52287865 -0.32315677 0.19972187
0.02033948 0.027907435 0.039999999 -0.52287865 -0.32315677 0.19972187
0.02185115 0.025432624 0.039999999 -0.52287865 -0.32315677 0.19972187
0.023365762 0.022960279 0.039999999 -0.52287865 -0.32315677 0.19972187
0.024883393 0.020490265 0.039999999 -0.52287865 -0.32315677 0.19972187
0.026404129 0.018022446 0.039999999 -0.52287865 -0.32315677 0.19972187
0.027928051 0.015556688 0.039999999 -0.52287865 -0.32315677 0.19972187
0.029455243 0.01309286 0.039999999 -0.52287865 -0.32315677 0.19972187
0.030985784 0.010630824 0.039999999 -0.52287865 -0.32315677 0.19972187
0.032519761 0.0081704482 0.039999999 -0.52287865 -0.32315677 0.19972187
0.03405726 0.0057115993 0.039999999 -0.52287865 -0.32315677 0.19972187
0.035598364 0.003254144 0.039999999 -0.52287865 -0.32315677 0.19972187
0.037143156 0.00079794874 0.039999999 -0.52287865 -0.32315677 0.19972187
0 0.078104183 0.034933981 -0.52287865 -0.32315677 0.19972187
0 0.074390486 0.035404839 -0.52287865 -0.32315677 0.19972187
1.110223e-16 0.070701763 0.035873424 -0.52287865 -0.32315677 0.19972187
0 0.06703762 0.036339778 -0.52287865 -0.32315677 0.19972187
0 0.063397691 0.036803938 -0.52287865 -0.32315677 0.19972187
0 0.059781592 0.037265942 -0.52287865 -0.32315677 0.19972187
0 0.056188967 0.037725829 -0.52287865 -0.32315677 0.19972187
0 0.052619454 0.038183637 -0.52287865 -0.32315677 0.19972187
0 0.049072698 0.0386394 -0.52287865 -0.32315677 0.19972187
0 0.045548357 0.039093159 -0.52287865 -0.32315677 0.19972187
0 0.042046085 0.039544944 -0.52287865 -0.32315677 0.19972187
1.110223e-16 0.03856555 0.039994795 -0.52287865 -0.32315677 0.19972187
0.0014534324 0.03610228 0.039999999 -0.52287865 -0.32315677 0.19972187
0.0029260111 0.033653975 0.039999999 -0.52287865 -0.32315677 0.19972187
0.0044007767 0.031208718 0.039999999 -0.52287865 -0.32315677 0.19972187
0.0058778063 0.028766375 0.039999999 -0.52287865 -0.32315677 0.19972187
0.0073571769 0.026326817 0.039999999 -0.52287865 -0.32315677 0.19972187
0.0088389656 0.02388991 0.039999999 -0.52287865 -0.32315677 0.19972187
0.010323251 0.021455526 0.039999999 -0.52287865 -0.32315677 0.19972187
0.01181011 0.019023536 0.039999999 -0.52287865 -0.32315677 0.19972187
0.013299622 0.016593806 0.039999999 -0.52287865 -0.32315677 0.19972187
0.014791864 0.014166209 0.039999999 -0.52287865 -0.32315677 0.19972187
0.016286915 0.011740616 0.039999999 -0.52287865 -0.32315677 0.19972187
0.017784856 0.009316897 0.039999999 -0.52287865 -0.32315677 0.19972187
0.019285765 0.0068949237 0.039999999 -0.52287865 -0.32315677 0.19972187
0.020789722 0.0044745672 0.039999999 -0.52287865 -0.32315677 0.19972187
0.022296809 0.0020556999 0.039999999 -0.52287865 -0.32315677 0.19972187
0.024419861 0 0.039820973 -0.52287865 -0.32315677 0.19972187
0.030074261 0 0.038615011 -0.52287865 -0.32315677 0.19972187
0.035816085 0 0.037391286 -0.52287865 -0.32315677 0.19972187
0 0.078220986 0.031858373 -0.52287865 -0.32315677 0.19972187
0 0.074501358 0.032340366 -0.52287865 -0.32315677 0.19972187
1.110223e-16 0.070806779 0.032819953 -0.52287865 -0.32315677 0.19972187
0 0.067136869 0.03329717 -0.52287865 -0.32315677 0.19972187
0 0.06349124 0.033772066 -0.52287865 -0.32315677 0.19972187
0 0.059869517 0.034244671 -0.52287865 -0.32315677 0.19972187
0 0.056271341 0.034715038 -0.52287865 -0.32315677 0.19972187
1.110223e-16 0.052696344 0.035183195 -0.52287865 -0.32315677 0.19972187
0 0.049144179 0.035649184 -0.52287865 -0.32315677 0.19972187
0 0.045614492 0.036113042 -0.52287865 -0.32315677 0.19972187
0 0.042106945 0.036574807 -0.52287865 -0.32315677 0.19972187
0 0.038621198 0.037034519 -0.52287865 -0.32315677 0.19972187
0 0.035156928 0.037492208 -0.52287865 -0.32315677 0.19972187
0 0.031713802 0.037947912 -0.52287865 -0.32315677 0.19972187
1.110223e-16 0.028291509 0.038401667 -0.52287865 -0.32315677 0.19972187
0 0.02488973 0.038853504 -0.52287865 -0.32315677 0.19972187
0 0.021508157 0.039303459 -0.52287865 -0.32315677 0.19972187
1.110223e-16 0.018146487 0.039751567 -0.52287865 -0.32315677 0.19972187
0.00064852933 0.015223599 0.039999999 -0.52287865 -0.32315677 0.19972187
0.0021113905 0.012832946 0.039999999 -0.52287865 -0.32315677 0.19972187
0.0035766342 0.010444365 0.039999999 -0.52287865 -0.32315677 0.19972187
0.005044336 0.0080577303 0.039999999 -0.52287865 -0.32315677 0.19972187
0.0065145711 0.0056729177 0.039999999 -0.52287865 -0.32315677 0.19972187
0.0079874163 0.0032898039 0.039999999 -0.52287865 -0.32315677 0.19972187
0.009462948 0.00090826466 0.039999999 -0.52287865 -0.32315677 0.19972187
0.01338366 0 0.039269216 -0.52287865 -0.32315677 0.19972187
0.018877691 0 0.038073879 -0.52287865 -0.32315677 0.19972187
0.024455089 0 0.036861219 -0.52287865 -0.32315677 0.19972187
0.030117979 0 0.035630789 -0.52287865 -0.32315677 0.19972187
0.035868552 0 0.034382135 -0.52287865 -0.32315677 0.19972187
1.110223e-16 0.078338079 0.028775262 -0.52287865 -0.32315677 0.19972187
0 0.074612506 0.029268447 -0.52287865 -0.32315677 0.19972187
0 0.070912056 0.02975909 -0.52287865 -0.32315677 0.19972187
0 0.067236356 0.030247232 -0.52287865 -0.32315677 0.19972187
0 0.063585013 0.030732915 -0.52287865 -0.32315677 0.19972187
0 0.05995765 0.031216182 -0.52287865 -0.32315677 0.19972187
0 0.056353908 0.031697076 -0.52287865 -0.32315677 0.19972187
0 0.052773416 0.032175634 -0.52287865 -0.32315677 0.19972187
0 0.049215827 0.032651901 -0.52287865 -0.32315677 0.19972187
0 0.045680784 0.033125911 -0.52287865 -0.32315677 0.19972187
0 0.042167947 0.033597708 -0.52287865 -0.32315677 0.19972187
0 0.038676977 0.034067329 -0.52287865 -0.32315677 0.19972187
0 0.035207547 0.034534808 -0.52287865 -0.32315677 0.19972187
0 0.031759325 0.035000183 -0.52287865 -0.32315677 0.19972187
0 0.028331997 0.035463493 -0.52287865 -0.32315677 0.19972187
0 0.024925241 0.035924774 -0.52287865 -0.32315677 0.19972187
1.110223e-16 0.021538753 0.036384057 -0.52287865 -0.32315677 0.19972187
0 0.018172227 0.036841381 -0.52287865 -0.32315677 0.19972187
0 0.014825361 0.037296776 -0.52287865 -0.32315677 0.19972187
0 0.011497864 0.037750281 -0.52287865 -0.32315677 0.19972187
1.110223e-16 0.0081894435 0.038201921 -0.52287865 -0.32315677 0.19972187
0 0.0048998161 0.038651735 -0.52287865 -0.32315677 0.19972187
0 0.0016287016 0.039099757 -0.52287865 -0.32315677 0.19972187
0.0026412478 0 0.038736902 -0.52287865 -0.32315677 0.19972187
0.0079821954 0 0.037552092 -0.52287865 -0.32315677 0.19972187
0.013402695 0 0.036350384 -0.52287865 -0.32315677 0.19972187
0.018904742 0 0.03513135 -0.52287865 -0.32315677 0.19972187
0.024490399 0 0.03389455 -0.52287865 -0.32315677 0.19972187
0.0301618 0 0.032639533 -0.52287865 -0.32315677 0.19972187
0.035921145 0 0.031365823 -0.52287865 -0.32315677 0.19972187
0 0.078455456 0.025684498 -0.52287865 -0.32315677 0.19972187
0 0.074723922 0.026188936 -0.52287865 -0.32315677 0.19972187
0 0.071017593 0.026690694 -0.52287865 -0.32315677 0.19972187
0 0.067336082 0.027189815 -0.52287865 -0.32315677 0.19972187
0 0.06367901 0.027686344 -0.52287865 -0.32315677 0.19972187
0 0.060045999 0.028180325 -0.52287865 -0.32315677 0.19972187
0 0.056436673 0.028671803 -0.52287865 -0.32315677 0.19972187
1.110223e-16 0.052850675 0.029160818 -0.52287865 -0.32315677 0.19972187
0 0.049287647 0.029647416 -0.52287865 -0.32315677 0.19972187
0 0.045747235 0.030131631 -0.52287865 -0.32315677 0.19972187
0 0.042229094 0.03061351 -0.52287865 -0.32315677 0.19972187
0 0.03873289 0.031093089 -0.52287865 -0.32315677 0.19972187
0 0.035258286 0.031570408 -0.52287865 -0.32315677 0.19972187
0 0.031804956 0.032045506 -0.52287865 -0.32315677 0.19972187
0 0.028372578 0.03251842 -0.52287865 -0.32315677 0.19972187
1.110223e-16 0.024960838 0.032989189 -0.52287865 -0.32315677 0.19972187
0 0.021569422 0.033457845 -0.52287865 -0.32315677 0.19972187
0 0.018198024 0.033924431 -0.52287865 -0.32315677 0.19972187
0 0.014846346 0.034388978 -0.52287865 -0.32315677 0.19972187
0 0.011514092 0.034851521 -0.52287865 -0.32315677 0.19972187
1.110223e-16 0.0082009695 0.035312094 -0.52287865 -0.32315677 0.19972187
1.110223e-16 0.0049066925 0.035770733 -0.52287865 -0.32315677 0.19972187
0 0.0016309809 0.036227472 -0.52287865 -0.32315677 0.19972187
0.0026449524 0 0.035857614 -0.52287865 -0.32315677 0.19972187
0.0079934737 0 0.034649841 -0.52287865 -0.32315677 0.19972187
0.013421774 0 0.03342475 -0.52287865 -0.32315677 0.19972187
0.018931856 0 0.0321819 -0.52287865 -0.32315677 0.19972187
0.024525793 0 0.030920839 -0.52287865 -0.32315677 0.19972187
0.030205725 0 0.029641105 -0.52287865 -0.32315677 0.19972187
0.035973866 0 0.028342212 -0.52287865 -0.32315677 0.19972187
0 0.078573138 0.022585938 -0.52287865 -0.32315677 0.19972187
0 0.074835621 0.023101687 -0.52287865 -0.32315677 0.19972187
0 0.071123391 0.023614619 -0.52287865 -0.32315677 0.19972187
1.110223e-16 0.067436062 0.024124777 -0.52287865 -0.32315677 0.19972187
0 0.063773245 0.02463221 -0.52287865 -0.32315677 0.19972187
1.110223e-16 0.060134564 0.025136963 -0.52287865 -0.32315677 0.19972187
1.110223e-16 0.056519646 0.02563908 -0.52287865 -0.32315677 0.19972187
0 0.052928124 0.026138606 -0.52287865 -0.32315677 0.19972187
1.110223e-16 0.049359642 0.026635585 -0.52287865 -0.32315677 0.19972187
0 0.045813847 0.027130058 -0.52287865 -0.32315677 0.19972187
0 0.04229039 0.02762207 -0.52287865 -0.32315677 0.19972187
0 0.038788937 0.028111661 -0.52287865 -0.32315677 0.19972187
0 0.035309147 0.028598869 -0.52287865 -0.32315677 0.19972187
0 0.031850696 0.029083738 -0.52287865 -0.32315677 0.19972187
0 0.028413258 0.029566307 -0.52287865 -0.32315677 0.19972187
1.110223e-16 0.024996517 0.03004661 -0.52287865 -0.32315677 0.19972187
0 0.021600163 0.030524692 -0.52287865 -0.32315677 0.19972187
0 0.018223884 0.031000584 -0.52287865 -0.32315677 0.19972187
0 0.014867382 0.031474326 -0.52287865 -0.32315677 0.19972187
0 0.011530358 0.031945955 -0.52287865 -0.32315677 0.19972187
0 0.0082125217 0.032415505 -0.52287865 -0.32315677 0.19972187
0 0.0049135853 0.032883015 -0.52287865 -0.32315677 0.19972187
0 0.0016332655 0.033348512 -0.52287865 -0.32315677 0.19972187
0.0026486658 0 0.032971613 -0.52287865 -0.32315677 0.19972187
0.008004779 0 0.031740766 -0.52287865 -0.32315677 0.19972187
0.013440899 0 0.030492172 -0.52287865 -0.32315677 0.19972187
0.018959036 0 0.029225385 -0.52287865 -0.32315677 0.19972187
0.024561273 0 0.027939942 -0.52287865 -0.32315677 0.19972187
0.030249758 0 0.026635366 -0.52287865 -0.32315677 0.19972187
0.036026716 0 0.025311161 -0.52287865 -0.32315677 0.19972187
1.110223e-16 0.07869111 0.019479431 -0.52287865 -0.32315677 0.19972187
0 0.074947603 0.020006554 -0.52287865 -0.32315677 0.19972187
0 0.071229458 0.020530719 -0.52287865 -0.32315677 0.19972187
0 0.067536294 0.021051975 -0.52287865 -0.32315677 0.19972187
0 0.063867718 0.021570368 -0.52287865 -0.32315677 0.19972187
0 0.060223352 0.022085948 -0.52287865 -0.32315677 0.19972187
1.110223e-16 0.056602824 0.02259876 -0.52287865 -0.32315677 0.19972187
0 0.053005766 0.023108853 -0.52287865 -0.32315677 0.19972187
0 0.049431816 0.023616269 -0.52287865 -0.32315677 0.19972187
0 0.045880623 0.024121054 -0.52287865 -0.32315677 0.19972187
0 0.042351838 0.024623251 -0.52287865 -0.32315677 0.19972187
1.110223e-16 0.038845122 0.025122903 -0.52287865 -0.32315677 0.19972187
0 0.035360131 0.025620054 -0.52287865 -0.32315677 0.19972187
0 0.031896546 0.026114743 -0.52287865 -0.32315677 0.19972187
0 0.028454037 0.026607012 -0.52287865 -0.32315677 0.19972187
0 0.025032286 0.027096903 -0.52287865 -0.32315677 0.19972187
1.110223e-16 0.021630976 0.027584452 -0.52287865 -0.32315677 0.19972187
0 0.018249806 0.028069701 -0.52287865 -0.32315677 0.19972187
0 0.014888467 0.028552687 -0.52287865 -0.32315677 0.19972187
1.110223e-16 0.011546664 0.029033447 -0.52287865 -0.32315677 0.19972187
1.110223e-16 0.0082241027 0.029512018 -0.52287865 -0.32315677 0.19972187
0 0.0049204938 0.029988438 -0.52287865 -0.32315677 0.19972187
0 0.0016355555 0.030462742 -0.52287865 -0.32315677 0.19972187
0.0026523878 0 0.030078767 -0.52287865 -0.32315677 0.19972187
0.0080161113 0 0.028824726 -0.52287865 -0.32315677 0.19972187
0.01346007 0 0.027552513 -0.52287865 -0.32315677 0.19972187
0.018986283 0 0.026261671 -0.52287865 -0.32315677 0.19972187
0.02459684 0 0.024951721 -0.52287865 -0.32315677 0.19972187
0.030293901 0 0.023622174 -0.52287865 -0.32315677 0.19972187
0.036079697 0 0.022272523 -0.52287865 -0.32315677 0.19972187
0 0.078809395 0.016364831 -0.52287865 -0.32315677 0.19972187
0 0.075059876 0.016903389 -0.52287865 -0.32315677 0.19972187
0 0.0713358 0.017438848 -0.52287865 -0.32315677 0.19972187
0 0.06763678 0.017971257 -0.52287865 -0.32315677 0.19972187
0 0.063962437 0.018500671 -0.52287865 -0.32315677 0.19972187
0 0.060312368 0.019027134 -0.52287865 -0.32315677 0.19972187
0 0.056686215 0.0195507 -0.52287865 -0.32315677 0.19972187
0 0.053083606 0.020071413 -0.52287865 -0.32315677 0.19972187
0 0.049504176 0.020589322 -0.52287865 -0.32315677 0.19972187
0 0.04594757 0.021104472 -0.52287865 -0.32315677 0.19972187
0 0.04241344 0.02161691 -0.52287865 -0.32315677 0.19972187
0 0.038901445 0.022126677 -0.52287865 -0.32315677 0.19972187
0 0.035411246 0.022633819 -0.52287865 -0.32315677 0.19972187
0 0.031942513 0.023138382 -0.52287865 -0.32315677 0.19972187
0 0.028494917 0.023640404 -0.52287865 -0.32315677 0.19972187
1.110223e-16 0.02506814 0.024139928 -0.52287865 -0.32315677 0.19972187
0 0.021661868 0.024636995 -0.52287865 -0.32315677 0.19972187
1.110223e-16 0.018275792 0.025131647 -0.52287865 -0.32315677 0.19972187
0 0.014909605 0.025623921 -0.52287865 -0.32315677 0.19972187
0 0.011563009 0.026113858 -0.52287865 -0.32315677 0.19972187
0 0.0082357107 0.026601497 -0.52287865 -0.32315677 0.19972187
0 0.0049274196 0.027086874 -0.52287865 -0.32315677 0.19972187
0 0.001637851 0.027570028 -0.52287865 -0.32315677 0.19972187
0.0026561189 0 0.027178941 -0.52287865 -0.32315677 0.19972187
0.0080274716 0 0.025901591 -0.52287865 -0.32315677 0.19972187
0.013479288 0 0.024605641 -0.52287865 -0.32315677 0.19972187
0.019013597 0 0.023290616 -0.52287865 -0.32315677 0.19972187
0.024632495 0 0.021956032 -0.52287865 -0.32315677 0.19972187
0.030338153 0 0.020601384 -0.52287865 -0.32315677 0.19972187
0.036132816 0 0.019226156 -0.52287865 -0.32315677 0.19972187
0 0.078927994 0.013241985 -0.52287865 -0.32315677 0.19972187
0 0.075172439 0.013792039 -0.52287865 -0.32315677 0.19972187
0 0.071442425 0.014338853 -0.52287865 -0.32315677 0.19972187
0 0.067737535 0.014882479 -0.52287865 -0.32315677 0.19972187
0 0.064057395 0.015422971 -0.52287865 -0.32315677 0.19972187
0 0.060401618 0.015960379 -0.52287865 -0.32315677 0.19972187
0 0.056769822 0.016494755 -0.52287865 -0.32315677 0.19972187
0 0.053161643 0.017026145 -0.52287865 -0.32315677 0.19972187
0 0.049576718 0.017554602 -0.52287865 -0.32315677 0.19972187
0 0.046014685 0.018080171 -0.52287865 -0.32315677 0.19972187
1.110223e-16 0.042475197 0.018602902 -0.52287865 -0.32315677 0.19972187
0 0.038957912 0.019122837 -0.52287865 -0.32315677 0.19972187
0 0.035462487 0.019640025 -0.52287865 -0.32315677 0.19972187
0 0.031988591 0.02015451 -0.52287865 -0.32315677 0.19972187
0 0.028535899 0.020666335 -0.52287865 -0.32315677 0.19972187
0 0.025104085 0.021175543 -0.52287865 -0.32315677 0.19972187
0 0.021692837 0.021682177 -0.52287865 -0.32315677 0.19972187
0 0.018301841 0.022186279 -0.52287865 -0.32315677 0.19972187
1.110223e-16 0.014930794 0.022687891 -0.52287865 -0.32315677 0.19972187
0 0.011579394 0.023187054 -0.52287865 -0.32315677 0.19972187
0 0.0082473475 0.023683805 -0.52287865 -0.32315677 0.19972187
0 0.0049343621 0.024178186 -0.52287865 -0.32315677 0.19972187
0 0.0016401522 0.024670234 -0.52287865 -0.32315677 0.19972187
0.0026598594 0 0.024271999 -0.52287865 -0.32315677 0.19972187
0.0080388598 0 0.022971222 -0.52287865 -0.32315677 0.19972187
0.013498553 0 0.021651411 -0.52287865 -0.32315677 0.19972187
0.019040978 0 0.02031208 -0.52287865 -0.32315677 0.19972187
0.024668241 0 0.018952735 -0.52287865 -0.32315677 0.19972187
0.030382521 0 0.017572856 -0.52287865 -0.32315677 0.19972187
0.036186069 0 0.016171914 -0.52287865 -0.32315677 0.19972187
0 0.079046912 0.010110741 -0.52287865 -0.32315677 0.19972187
0 0.075285316 0.010672355 -0.52287865 -0.32315677 0.19972187
0 0.071549326 0.011230586 -0.52287865 -0.32315677 0.19972187
0 0.067838557 0.01178549 -0.52287865 -0.32315677 0.19972187
0 0.064152606 0.01233712 -0.52287865 -0.32315677 0.19972187
0 0.0604911 0.01288553 -0.52287865 -0.32315677 0.19972187
1.110223e-16 0.056853648 0.013430774 -0.52287865 -0.32315677 0.19972187
0 0.053239889 0.013972901 -0.52287865 -0.32315677 0.19972187
1.110223e-16 0.049649451 0.014511961 -0.52287865 -0.32315677 0.19972187
0 0.046081979 0.015048007 -0.52287865 -0.32315677 0.19972187
0 0.042537119 0.015581083 -0.52287865 -0.32315677 0.19972187
1.110223e-16 0.039014526 0.016111242 -0.52287865 -0.32315677 0.19972187
0 0.035513863 0.016638527 -0.52287865 -0.32315677 0.19972187
0 0.032034792 0.017162986 -0.52287865 -0.32315677 0.19972187
0 0.028576985 0.017684665 -0.52287865 -0.32315677 0.19972187
0 0.025140122 0.018203609 -0.52287865 -0.32315677 0.19972187
1.110223e-16 0.021723883 0.018719859 -0.52287865 -0.32315677 0.19972187
0 0.018327957 0.019233463 -0.52287865 -0.32315677 0.19972187
0 0.014952037 0.01974446 -0.52287865 -0.32315677 0.19972187
0 0.011595821 0.020252895 -0.52287865 -0.32315677 0.19972187
0 0.0082590133 0.020758806 -0.52287865 -0.32315677 0.19972187
0 0.0049413219 0.021262234 -0.52287865 -0.32315677 0.19972187
1.110223e-16 0.0016424591 0.021763222 -0.52287865 -0.32315677 0.19972187
0.0026636089 0 0.021357803 -0.52287865 -0.32315677 0.19972187
0.0080502769 0 0.020033481 -0.52287865 -0.32315677 0.19972187
0.013517868 0 0.018689685 -0.52287865 -0.32315677 0.19972187
0.019068431 0 0.017325923 -0.52287865 -0.32315677 0.19972187
0.02470408 0 0.015941683 -0.52287865 -0.32315677 0.19972187
0.030427003 0 0.01453644 -0.52287865 -0.32315677 0.19972187
0.036239464 0 0.013109648 -0.52287865 -0.32315677 0.19972187
0 0.079166159 0.0069709467 -0.52287865 -0.32315677 0.19972187
0 0.07539849 0.0075441836 -0.52287865 -0.32315677 0.19972187
0 0.071656525 0.0081138946 -0.52287865 -0.32315677 0.19972187
0 0.067939848 0.0086801378 -0.52287865 -0.32315677 0.19972187
0 0.064248078 0.0092429677 -0.52287865 -0.32315677 0.19972187
0 0.06058082 0.0098024411 -0.52287865 -0.32315677 0.19972187
0 0.056937698 0.010358611 -0.52287865 -0.32315677 0.19972187
0 0.05331834 0.010911531 -0.52287865 -0.32315677 0.19972187
0 0.049722373 0.011461253 -0.52287865 -0.32315677 0.19972187
0 0.046149448 0.01200783 -0.52287865 -0.32315677 0.19972187
0 0.042599201 0.01255131 -0.52287865 -0.32315677 0.19972187
0 0.039071288 0.013091744 -0.52287865 -0.32315677 0.19972187
1.110223e-16 0.035565369 0.013629181 -0.52287865 -0.32315677 0.19972187
0 0.032081109 0.014163668 -0.52287865 -0.32315677 0.19972187
1.110223e-16 0.028618179 0.014695253 -0.52287865 -0.32315677 0.19972187
0 0.025176251 0.015223982 -0.52287865 -0.32315677 0.19972187
0 0.02175501 0.015749902 -0.52287865 -0.32315677 0.19972187
0 0.01835414 0.016273053 -0.52287865 -0.32315677 0.19972187
0 0.014973334 0.016793486 -0.52287865 -0.32315677 0.19972187
0 0.01161229 0.01731124 -0.52287865 -0.32315677 0.19972187
0 0.0082707098 0.017826358 -0.52287865 -0.32315677 0.19972187
0 0.0049482994 0.018338883 -0.52287865 -0.32315677 0.19972187
0 0.0016447718 0.018848855 -0.52287865 -0.32315677 0.19972187
0.0026673679 0 0.018436216 -0.52287865 -0.32315677 0.19972187
0.0080617229 0 0.017088225 -0.52287865 -0.32315677 0.19972187
0.013537233 0 0.015720321 -0.52287865 -0.32315677 0.19972187
0.019095954 0 0.014331998 -0.52287865 -0.32315677 0.19972187
0.024740012 0 0.012922736 -0.52287865 -0.32315677 0.19972187
0.030471604 0 0.011491993 -0.52287865 -0.32315677 0.19972187
0.036293 0 0.01003921 -0.52287865 -0.32315677 0.19972187
0 0.079285726 0.0038224456 -0.52287865 -0.32315677 0.19972187
0 0.075511985 0.0044073705 -0.52287865 -0.32315677 0.19972187
0 0.071764015 0.0049886256 -0.52287865 -0.32315677 0.19972187
1.110223e-16 0.068041421 0.0055662696 -0.52287865 -0.32315677 0.19972187
0 0.06434381 0.0061403615 -0.52287865 -0.32315677 0.19972187
0 0.060670789 0.0067109577 -0.52287865 -0.32315677 0.19972187
0 0.057021979 0.0072781146 -0.52287865 -0.32315677 0.19972187
0 0.053397004 0.007841887 -0.52287865 -0.32315677 0.19972187
0 0.049795497 0.0084023289 -0.52287865 -0.32315677 0.19972187
0 0.046217095 0.0089594936 -0.52287865 -0.32315677 0.19972187
0 0.042661447 0.0095134331 -0.52287865 -0.32315677 0.19972187
0 0.039128203 0.010064199 -0.52287865 -0.32315677 0.19972187
0 0.035617016 0.010611841 -0.52287865 -0.32315677 0.19972187
1.110223e-16 0.032127552 0.01115641 -0.52287865 -0.32315677 0.19972187
1.110223e-16 0.028659482 0.011697954 -0.52287865 -0.32315677 0.19972187
0 0.025212476 0.012236521 -0.52287865 -0.32315677 0.19972187
1.110223e-16 0.021786217 0.012772157 -0.52287865 -0.32315677 0.19972187
0 0.01838039 0.013304911 -0.52287865 -0.32315677 0.19972187
1.110223e-16 0.014994686 0.013834826 -0.52287865 -0.32315677 0.19972187
1.110223e-16 0.011628801 0.014361949 -0.52287865 -0.32315677 0.19972187
0 0.0082824351 0.014886321 -0.52287865 -0.32315677 0.19972187
1.110223e-16 0.004955295 0.01540799 -0.52287865 -0.32315677 0.19972187
1.110223e-16 0.0016470904 0.015926994 -0.52287865 -0.32315677 0.19972187
0.0026711368 0 0.015507097 -0.52287865 -0.32315677 0.19972187
0.0080731986 0 0.014135314 -0.52287865 -0.32315677 0.19972187
0.013556648 0 0.012743175 -0.52287865 -0.32315677 0.19972187
0.019123551 0 0.011330163 -0.52287865 -0.32315677 0.19972187
0.02477604 0 0.0098957429 -0.52287865 -0.32315677 0.19972187
0.030516323 0 0.008439363 -0.52287865 -0.32315677 0.19972187
0.036346681 0 0.0069604502 -0.52287865 -0.32315677 0.19972187
0 0.079405636 0.00066508149 -0.52287865 -0.32315677 0.19972187
0 0.075625792 0.0012617599 -0.52287865 -0.32315677 0.19972187
0 0.071871802 0.0018546233 -0.52287865 -0.32315677 0.19972187
0 0.068143278 0.0024437329 -0.52287865 -0.32315677 0.19972187
0 0.064439803 0.0030291486 -0.52287865 -0.32315677 0.19972187
0 0.060761005 0.0036109295 -0.52287865 -0.32315677 0.19972187
0 0.057106487 0.0041891336 -0.52287865 -0.32315677 0.19972187
0 0.053475883 0.0047638174 -0.52287865 -0.32315677 0.19972187
0 0.049868818 0.0053350371 -0.52287865 -0.32315677 0.19972187
0 0.046284933 0.0059028477 -0.52287865 -0.32315677 0.19972187
1.110223e-16 0.042723864 0.0064673033 -0.52287865 -0.32315677 0.19972187
0 0.039185271 0.0070284568 -0.52287865 -0.32315677 0.19972187
0 0.035668802 0.00758636 -0.52287865 -0.32315677 0.19972187
0 0.032174118 0.0081410641 -0.52287865 -0.32315677 0.19972187
0 0.028700894 0.0086926203 -0.52287865 -0.32315677 0.19972187
0 0.025248798 0.0092410771 -0.52287865 -0.32315677 0.19972187
1.110223e-16 0.021817509 0.0097864848 -0.52287865 -0.32315677 0.19972187
0 0.018406712 0.010328889 -0.52287865 -0.32315677 0.19972187
0 0.015016096 0.010868339 -0.52287865 -0.32315677 0.19972187
0 0.011645356 0.011404878 -0.52287865 -0.32315677 0.19972187
0 0.0082941921 0.011938556 -0.52287865 -0.32315677 0.19972187
1.110223e-16 0.0049623088 0.012469415 -0.52287865 -0.32315677 0.19972187
0 0.0016494151 0.012997499 -0.52287865 -0.32315677 0.19972187
0.0026749156 0 0.012570305 -0.52287865 -0.32315677 0.19972187
0.0080847042 0 0.011174605 -0.52287865 -0.32315677 0.19972187
0.013576115 0 0.0097581036 -0.52287865 -0.32315677 0.19972187
0.019151222 0 0.0083202701 -0.52287865 -0.32315677 0.19972187
0.024812166 0 0.0068605579 -0.52287865 -0.32315677 0.19972187
0.030561166 0 0.0053784023 -0.52287865 -0.32315677 0.19972187
0.036400512 0 0.0038732174 -0.52287865 -0.32315677 0.19972187
0 0.060851473 0.00050220167 -0.52287865 -0.32315677 0.19972187
0 0.057191234 0.0010915142 -0.52287865 -0.32315677 0.19972187
0 0.053554982 0.0016771703 -0.52287865 -0.32315677 0.19972187
0 0.049942344 0.0022592274 -0.52287865 -0.32315677 0.19972187
0 0.046352953 0.0028377427 -0.52287865 -0.32315677 0.19972187
0 0.042786453 0.0034127717 -0.52287865 -0.32315677 0.19972187
0 0.039242495 0.0039843693 -0.52287865 -0.32315677 0.19972187
0 0.035720728 0.0045525893 -0.52287865 -0.32315677 0.19972187
0 0.032220814 0.0051174839 -0.52287865 -0.32315677 0.19972187
1.110223e-16 0.02874242 0.0056791063 -0.52287865 -0.32315677 0.19972187
0 0.025285218 0.0062375073 -0.52287865 -0.32315677 0.19972187
0 0.021848885 0.0067927367 -0.52287865 -0.32315677 0.19972187
0 0.018433103 0.0073448438 -0.52287865 -0.32315677 0.19972187
1.110223e-16 0.015037563 0.007893878 -0.52287865 -0.32315677 0.19972187
0 0.011661955 0.0084398864 -0.52287865 -0.32315677 0.19972187
0 0.0083059808 0.0089829173 -0.52287865 -0.32315677 0.19972187
0 0.0049693412 0.0095230145 -0.52287865 -0.32315677 0.19972187
0 0.001651746 0.010060227 -0.52287865 -0.32315677 0.19972187
0.0026787042 0 0.0096256975 -0.52287865 -0.32315677 0.19972187
0.0080962414 0 0.0082059549 -0.52287865 -0.32315677 0.19972187
0.013595635 0 0.0067649605 -0.52287865 -0.32315677 0.19972187
0.019178968 0 0.0053021726 -0.52287865 -0.32315677 0.19972187
0.02484839 0 0.0038170316 -0.52287865 -0.32315677 0.19972187
0.030606132 0 0.0023089594 -0.52287865 -0.32315677 0.19972187
0.036454491 0 0.00077735767 -0.52287865 -0.32315677 0.19972187
0 0.04284922 0.00034968631 -0.52287865 -0.32315677 0.19972187
0 0.039299879 0.00093178544 -0.52287865 -0.32315677 0.19972187
0 0.035772797 0.0015103783 -0.52287865 -0.32315677 0.19972187
0 0.032267638 0.0020855197 -0.52287865 -0.32315677 0.19972187
0 0.028784059 0.0026572631 -0.52287865 -0.32315677 0.19972187
0 0.025321737 0.0032256613 -0.52287865 -0.32315677 0.19972187
0 0.021880347 0.0037907662 -0.52287865 -0.32315677 0.19972187
0 0.018459568 0.0043526287 -0.52287865 -0.32315677 0.19972187
0 0.015059088 0.0049112993 -0.52287865 -0.32315677 0.19972187
0 0.0116786 0.0054668267 -0.52287865 -0.32315677 0.19972187
0 0.0083178012 0.0060192598 -0.52287865 -0.32315677 0.19972187
0 0.0049763927 0.0065686465 -0.52287865 -0.32315677 0.19972187
0 0.0016540831 0.007115033 -0.52287865 -0.32315677 0.19972187
0.0026825033 0 0.0066731311 -0.52287865 -0.32315677 0.19972187
0.0081078093 0 0.0052292175 -0.52287865 -0.32315677 0.19972187
0.013615208 0 0.0037635986 -0.52287865 -0.32315677 0.19972187
0.01920679 0 0.0022757209 -0.52287865 -0.32315677 0.19972187
0.024884718 0 0.0007650124 -0.52287865 -0.32315677 0.19972187
0 0.02535836 0.00020539062 -0.52287865 -0.32315677 0.19972187
0 0.021911897 0.00078042492 -0.52287865 -0.32315677 0.19972187
1.110223e-16 0.018486105 0.0013520956 -0.52287865 -0.32315677 0.19972187
1.110223e-16 0.015080673 0.0019204546 -0.52287865 -0.32315677 0.19972187
0 0.011695291 0.0024855523 -0.52287865 -0.32315677 0.19972187
1.110223e-16 0.0083296541 0.003047439 -0.52287865 -0.32315677 0.19972187
0 0.0049834638 0.0036061637 -0.52287865 -0.32315677 0.19972187
0 0.0016564267 0.0041617751 -0.52287865 -0.32315677 0.19972187
0.0026863127 0 0.0037124599 -0.52287865 -0.32315677 0.19972187
0.0081194099 0 0.0022442457 -0.52287865 -0.32315677 0.19972187
0.013634836 0 0.0007538693 -0.52287865 -0.32315677 0.19972187
1.110223e-16 0.0083415397 6.7306777e-05 -0.52287865 -0.32315677 0.19972187
0 0.0049905544 0.00063542032 -0.52287865 -0.32315677 0.19972187
1.110223e-16 0.0016587768 0.0012003058 -0.52287865 -0.32315677 0.19972187
0.0026901327 0 0.00074353791 -0.52287865 -0.32315677 0.19972187
