# .PCD v0.7 - Point Cloud Data file format
VERSION 0.7
FIELDS x y z vp_x vp_y vp_z
SIZE 4 4 4 4 4 4
TYPE F F F F F F
COUNT 1 1 1 1 1 1
WIDTH 587
HEIGHT 1
VIEWPOINT 0 0 0 1 0 0 0
POINTS 587
DATA ascii
4.5657125e-05 0.059157897 0.069596253 -0.52287865 -0.32315677 -0.19972187
0.0004682545 0.055698205 0.068969071 -0.52287865 -0.32315677 -0.19972187
0.0014325884 0.052646067 0.068624631 -0.52287865 -0.32315677 -0.19972187
0.0027677438 0.049868308 0.068473063 -0.52287865 -0.32315677 -0.19972187
0.0045130672 0.047384467 0.068532556 -0.52287865 -0.32315677 -0.19972187
0.0066287215 0.045157995 0.068780944 -0.52287865 -0.32315677 -0.19972187
0.0091624185 0.043213867 0.069240592 -0.52287865 -0.32315677 -0.19972187
0.012202132 0.041603278 0.069953896 -0.52287865 -0.32315677 -0.19972187
0.0016270601 0.067842036 0.068759225 -0.52287865 -0.32315677 -0.19972187
0.00025570879 0.063007005 0.067211658 -0.52287865 -0.32315677 -0.19972187
5.040858e-05 0.059070259 0.066268504 -0.52287865 -0.32315677 -0.19972187
0.00048792633 0.055627353 0.065658726 -0.52287865 -0.32315677 -0.19972187
0.0014571414 0.052584443 0.06532301 -0.52287865 -0.32315677 -0.19972187
0.002796045 0.049814928 0.06517712 -0.52287865 -0.32315677 -0.19972187
0.0045491382 0.047341999 0.065241642 -0.52287865 -0.32315677 -0.19972187
0.006666603 0.045122113 0.065489665 -0.52287865 -0.32315677 -0.19972187
0.0092063854 0.043187413 0.065948419 -0.52287865 -0.32315677 -0.19972187
0.012246957 0.041582543 0.066655017 -0.52287865 -0.32315677 -0.19972187
0.015990797 0.040433764 0.067707695 -0.52287865 -0.32315677 -0.19972187
0.020890936 0.040029299 0.069327466 -0.52287865 -0.32315677 -0.19972187
0.0015684288 0.067694873 0.065376393 -0.52287865 -0.32315677 -0.19972187
0.00023762559 0.062896699 0.063870899 -0.52287865 -0.32315677 -0.19972187
5.5142347e-05 0.05898295 0.062953144 -0.52287865 -0.32315677 -0.19972187
0.00050752627 0.055556763 0.062360488 -0.52287865 -0.32315677 -0.19972187
0.0014816053 0.052523039 0.062033359 -0.52287865 -0.32315677 -0.19972187
0.0028242443 0.049761739 0.061893057 -0.52287865 -0.32315677 -0.19972187
0.0045850803 0.047299687 0.061962463 -0.52287865 -0.32315677 -0.19972187
0.0067043505 0.045086358 0.062210068 -0.52287865 -0.32315677 -0.19972187
0.0092501985 0.043161053 0.062667817 -0.52287865 -0.32315677 -0.19972187
0.012291624 0.041561875 0.063367702 -0.52287865 -0.32315677 -0.19972187
0.016041938 0.04042251 0.064412072 -0.52287865 -0.32315677 -0.19972187
0.020951565 0.040029299 0.066017896 -0.52287865 -0.32315677 -0.19972187
0.0015100285 0.067548297 0.062006894 -0.52287865 -0.32315677 -0.19972187
0.00021961067 0.062786818 0.060542747 -0.52287865 -0.32315677 -0.19972187
5.9858696e-05 0.058895964 0.059649982 -0.52287865 -0.32315677 -0.19972187
0.00052705541 0.055486426 0.059074156 -0.52287865 -0.32315677 -0.19972187
0.0015059815 0.052461859 0.058755495 -0.52287865 -0.32315677 -0.19972187
0.0028523433 0.049708739 0.058620684 -0.52287865 -0.32315677 -0.19972187
0.0046208957 0.04725752 0.058694828 -0.52287865 -0.32315677 -0.19972187
0.0067419657 0.045050725 0.05894196 -0.52287865 -0.32315677 -0.19972187
0.0092938589 0.043134782 0.059398606 -0.52287865 -0.32315677 -0.19972187
0.012336137 0.041541282 0.060091764 -0.52287865 -0.32315677 -0.19972187
0.016092906 0.040411294 0.061127741 -0.52287865 -0.32315677 -0.19972187
0.02101199 0.040029299 0.062719531 -0.52287865 -0.32315677 -0.19972187
0.0014518555 0.067402288 0.058650512 -0.52287865 -0.32315677 -0.19972187
0.00020166294 0.062677346 0.057227012 -0.52287865 -0.32315677 -0.19972187
6.4557913e-05 0.058809292 0.056358822 -0.52287865 -0.32315677 -0.19972187
0.00054651487 0.055416338 0.055799551 -0.52287865 -0.32315677 -0.19972187
0.0015302715 0.052400894 0.055489235 -0.52287865 -0.32315677 -0.19972187
0.0028836359 0.049658261 0.055361412 -0.52287865 -0.32315677 -0.19972187
0.0046565868 0.047215503 0.055438552 -0.52287865 -0.32315677 -0.19972187
0.0067794509 0.04501522 0.055685159 -0.52287865 -0.32315677 -0.19972187
0.0093373703 0.043108605 0.056140605 -0.52287865 -0.32315677 -0.19972187
0.012380497 0.041520759 0.05682702 -0.52287865 -0.32315677 -0.19972187
0.016143698 0.040400114 0.057854533 -0.52287865 -0.32315677 -0.19972187
0.021072211 0.040029299 0.059432194 -0.52287865 -0.32315677 -0.19972187
0.0013939064 0.067256846 0.055307049 -0.52287865 -0.32315677 -0.19972187
0.00018378138 0.06256827 0.053923503 -0.52287865 -0.32315677 -0.19972187
6.9240254e-05 0.058722928 0.053079471 -0.52287865 -0.32315677 -0.19972187
0.00056590582 0.0553465 0.05253648 -0.52287865 -0.32315677 -0.19972187
0.0015544766 0.052340142 0.052234389 -0.52287865 -0.32315677 -0.19972187
0.0029167943 0.049609356 0.052114356 -0.52287865 -0.32315677 -0.19972187
0.0046921554 0.047173627 0.052193452 -0.52287865 -0.32315677 -0.19972187
0.0068168077 0.044979833 0.052439488 -0.52287865 -0.32315677 -0.19972187
0.0093807336 0.043082513 0.052893635 -0.52287865 -0.32315677 -0.19972187
0.012424707 0.041500304 0.053573288 -0.52287865 -0.32315677 -0.19972187
0.016194323 0.040388972 0.054592259 -0.52287865 -0.32315677 -0.19972187
0.021141857 0.040035725 0.056160226 -0.52287865 -0.32315677 -0.19972187
0.0069582034 0.075154096 0.055474505 -0.52287865 -0.32315677 -0.19972187
0.0013361778 0.067111954 0.051976305 -0.52287865 -0.32315677 -0.19972187
0.00016596493 0.062459599 0.050632019 -0.52287865 -0.32315677 -0.19972187
7.3906005e-05 0.058636874 0.049811751 -0.52287865 -0.32315677 -0.19972187
0.00058522925 0.055276904 0.04928476 -0.52287865 -0.32315677 -0.19972187
0.0015785982 0.052279599 0.048990771 -0.52287865 -0.32315677 -0.19972187
0.0029498397 0.049560618 0.048878361 -0.52287865 -0.32315677 -0.19972187
0.0047276034 0.047131892 0.048959348 -0.52287865 -0.32315677 -0.19972187
0.0068540387 0.044944569 0.049204763 -0.52287865 -0.32315677 -0.19972187
0.0094239525 0.04305651 0.049657512 -0.52287865 -0.32315677 -0.19972187
0.012468771 0.041479919 0.050330389 -0.52287865 -0.32315677 -0.19972187
0.01624478 0.040377866 0.051340744 -0.52287865 -0.32315677 -0.19972187
0.021213334 0.040043499 0.052899756 -0.52287865 -0.32315677 -0.19972187
0 0.0084993523 0.039500613 -0.52287865 -0.32315677 -0.19972187
0.0026184116 0.0067284228 0.039999999 -0.52287865 -0.32315677 -0.19972187
0 0.0016899758 0.038115237 -0.52287865 -0.32315677 -0.19972187
0.0027408486 0 0.038672779 -0.52287865 -0.32315677 -0.19972187
0.0064015682 0.074626841 0.05187095 -0.52287865 -0.32315677 -0.19972187
0.0012786662 0.066967607 0.048658073 -0.52287865 -0.32315677 -0.19972187
0.00014821255 0.062351316 0.04735237 -0.52287865 -0.32315677 -0.19972187
7.8555415e-05 0.058551122 0.046555467 -0.52287865 -0.32315677 -0.19972187
0.00060448633 0.055207551 0.046044212 -0.52287865 -0.32315677 -0.19972187
0.0016026376 0.05221926 0.045758206 -0.52287865 -0.32315677 -0.19972187
0.0029827741 0.049512044 0.045653254 -0.52287865 -0.32315677 -0.19972187
0.0047629331 0.047090299 0.045736063 -0.52287865 -0.32315677 -0.19972187
0.0068911458 0.044909421 0.045980807 -0.52287865 -0.32315677 -0.19972187
0.0094670281 0.043030594 0.046432063 -0.52287865 -0.32315677 -0.19972187
0.01251269 0.041459601 0.047098149 -0.52287865 -0.32315677 -0.19972187
0.016295074 0.040366795 0.048099812 -0.52287865 -0.32315677 -0.19972187
0 0.025844609 0.039895616 -0.52287865 -0.32315677 -0.19972187
0 0.022330767 0.039186258 -0.52287865 -0.32315677 -0.19972187
0 0.018838411 0.038481925 -0.52287865 -0.32315677 -0.19972187
0 0.015367211 0.037782535 -0.52287865 -0.32315677 -0.19972187
0 0.01191684 0.037088018 -0.52287865 -0.32315677 -0.19972187
0 0.0084869796 0.03639831 -0.52287865 -0.32315677 -0.19972187
0.0095202606 0.011053601 0.039999999 -0.52287865 -0.32315677 -0.19972187
0 0.00168753 0.035033029 -0.52287865 -0.32315677 -0.19972187
0.0027368723 0 0.03558255 -0.52287865 -0.32315677 -0.19972187
0.0082733966 0 0.037379313 -0.52287865 -0.32315677 -0.19972187
0.013895423 0 0.039204512 -0.52287865 -0.32315677 -0.19972187
0.0058480464 0.074102536 0.048287552 -0.52287865 -0.32315677 -0.19972187
0.0012213681 0.066823795 0.045352168 -0.52287865 -0.32315677 -0.19972187
0.00013052324 0.062243417 0.044084378 -0.52287865 -0.32315677 -0.19972187
8.3188759e-05 0.058465663 0.043310441 -0.52287865 -0.32315677 -0.19972187
0.00062367809 0.055138428 0.042814653 -0.52287865 -0.32315677 -0.19972187
0.0016265961 0.052159131 0.042536516 -0.52287865 -0.32315677 -0.19972187
0.003015599 0.04946363 0.04243885 -0.52287865 -0.32315677 -0.19972187
0.004798146 0.047048844 0.042523418 -0.52287865 -0.32315677 -0.19972187
0 0.04006175 0.039596483 -0.52287865 -0.32315677 -0.19972187
0 0.036464084 0.038877536 -0.52287865 -0.32315677 -0.19972187
0 0.032889217 0.038163774 -0.52287865 -0.32315677 -0.19972187
0 0.029336801 0.037455123 -0.52287865 -0.32315677 -0.19972187
0 0.025806485 0.036751505 -0.52287865 -0.32315677 -0.19972187
0 0.022297926 0.036052849 -0.52287865 -0.32315677 -0.19972187
0 0.018810792 0.035359077 -0.52287865 -0.32315677 -0.19972187
0 0.015344748 0.034670122 -0.52287865 -0.32315677 -0.19972187
0 0.011899474 0.033985913 -0.52287865 -0.32315677 -0.19972187
0 0.0084746471 0.033306379 -0.52287865 -0.32315677 -0.19972187
0 0.0050699566 0.032631457 -0.52287865 -0.32315677 -0.19972187
0 0.0016850922 0.031961076 -0.52287865 -0.32315677 -0.19972187
0.0027329095 0 0.032502618 -0.52287865 -0.32315677 -0.19972187
0.0082613258 0 0.034273226 -0.52287865 -0.32315677 -0.19972187
0.013874994 0 0.036071762 -0.52287865 -0.32315677 -0.19972187
0.019576125 0 0.03789895 -0.52287865 -0.32315677 -0.19972187
0.025367005 0 0.039755534 -0.52287865 -0.32315677 -0.19972187
0.0053961203 0.073655143 0.044769604 -0.52287865 -0.32315677 -0.19972187
0.0011642801 0.066680513 0.04205839 -0.52287865 -0.32315677 -0.19972187
0.00011592505 0.062138129 0.040829238 -0.52287865 -0.32315677 -0.19972187
8.7806286e-05 0.058380496 0.04007649 -0.52287865 -0.32315677 -0.19972187
0 0.054605134 0.039302059 -0.52287865 -0.32315677 -0.19972187
0 0.050918419 0.038573332 -0.52287865 -0.32315677 -0.19972187
0.03560378 0.072478004 0.054026674 -0.52287865 -0.32315677 -0.19972187
0 0.043617237 0.037131879 -0.52287865 -0.32315677 -0.19972187
0 0.040002018 0.036418989 -0.52287865 -0.32315677 -0.19972187
0 0.036409888 0.035711225 -0.52287865 -0.32315677 -0.19972187
0.011118905 0.040410697 0.039999999 -0.52287865 -0.32315677 -0.19972187
0 0.029293472 0.034310758 -0.52287865 -0.32315677 -0.19972187
0 0.025768489 0.03361791 -0.52287865 -0.32315677 -0.19972187
0.01588989 0.032762311 0.039999999 -0.52287865 -0.32315677 -0.19972187
0 0.018783264 0.032246619 -0.52287865 -0.32315677 -0.19972187
0 0.015322361 0.031568035 -0.52287865 -0.32315677 -0.19972187
0 0.011882165 0.030894069 -0.52287865 -0.32315677 -0.19972187
0 0.0084623564 0.030224653 -0.52287865 -0.32315677 -0.19972187
0.023809144 0.020008011 0.039999999 -0.52287865 -0.32315677 -0.19972187
0 0.0016826624 0.028899206 -0.52287865 -0.32315677 -0.19972187
0.0027289598 0 0.02943282 -0.52287865 -0.32315677 -0.19972187
0.0082492949 0 0.031177428 -0.52287865 -0.32315677 -0.19972187
0.013854631 0 0.032949463 -0.52287865 -0.32315677 -0.19972187
0.019547172 0 0.034749627 -0.52287865 -0.32315677 -0.19972187
0.025329193 0 0.036578663 -0.52287865 -0.32315677 -0.19972187
0.03120305 0 0.038437322 -0.52287865 -0.32315677 -0.19972187
0 0.073302947 0.039755546 -0.52287865 -0.32315677 -0.19972187
0 0.069495492 0.03901121 -0.52287865 -0.32315677 -0.19972187
0.019178974 0.079977788 0.04700204 -0.52287865 -0.32315677 -0.19972187
0 0.061958537 0.037539341 -0.52287865 -0.32315677 -0.19972187
0 0.058228217 0.036811631 -0.52287865 -0.32315677 -0.19972187
0 0.054522801 0.036089297 -0.52287865 -0.32315677 -0.19972187
0 0.050841901 0.035372257 -0.52287865 -0.32315677 -0.19972187
0 0.04718513 0.034660432 -0.52287865 -0.32315677 -0.19972187
0.037412941 0.069790818 0.050673667 -0.52287865 -0.32315677 -0.19972187
0 0.039942484 0.033252105 -0.52287865 -0.32315677 -0.19972187
0 0.036355872 0.032555453 -0.52287865 -0.32315677 -0.19972187
0 0.032791924 0.031863712 -0.52287865 -0.32315677 -0.19972187
0 0.029250287 0.031176802 -0.52287865 -0.32315677 -0.19972187
0 0.025730617 0.030494656 -0.52287865 -0.32315677 -0.19972187
0 0.022232573 0.029817205 -0.52287865 -0.32315677 -0.19972187
0 0.018755827 0.029144377 -0.52287865 -0.32315677 -0.19972187
0 0.015300046 0.028476104 -0.52287865 -0.32315677 -0.19972187
0.028007554 0.029810065 0.039999999 -0.52287865 -0.32315677 -0.19972187
0.029608576 0.027227707 0.039999999 -0.52287865 -0.32315677 -0.19972187
0 0.0050553172 0.026497962 -0.52287865 -0.32315677 -0.19972187
0 0.0016802405 0.025847258 -0.52287865 -0.32315677 -0.19972187
0.0027250226 0 0.02637299 -0.52287865 -0.32315677 -0.19972187
0.0082373032 0 0.028091747 -0.52287865 -0.32315677 -0.19972187
0.013834337 0 0.029837433 -0.52287865 -0.32315677 -0.19972187
0.019518316 0 0.031610742 -0.52287865 -0.32315677 -0.19972187
0.025291506 0 0.033412393 -0.52287865 -0.32315677 -0.19972187
0.031156257 0 0.035243131 -0.52287865 -0.32315677 -0.19972187
0.037114993 0 0.037103724 -0.52287865 -0.32315677 -0.19972187
0 0.077018455 0.037230689 -0.52287865 -0.32315677 -0.19972187
0.0077626132 0.079074882 0.039999999 -0.52287865 -0.32315677 -0.19972187
0.011669669 0.078150377 0.041016746 -0.52287865 -0.32315677 -0.19972187
0 0.065614261 0.035034716 -0.52287865 -0.32315677 -0.19972187
0 0.061864663 0.034313615 -0.52287865 -0.32315677 -0.19972187
0 0.058140289 0.03359782 -0.52287865 -0.32315677 -0.19972187
0 0.054440744 0.032887246 -0.52287865 -0.32315677 -0.19972187
0 0.050765637 0.032181822 -0.52287865 -0.32315677 -0.19972187
0 0.047114581 0.031481467 -0.52287865 -0.32315677 -0.19972187
0 0.04348721 0.030786103 -0.52287865 -0.32315677 -0.19972187
0 0.039883148 0.030095654 -0.52287865 -0.32315677 -0.19972187
0 0.036302038 0.029410049 -0.52287865 -0.32315677 -0.19972187
0 0.032743517 0.028729215 -0.52287865 -0.32315677 -0.19972187
0.039559539 0.055866122 0.045285899 -0.52287865 -0.32315677 -0.19972187
0 0.025692869 0.027381577 -0.52287865 -0.32315677 -0.19972187
0 0.022200057 0.026714634 -0.52287865 -0.32315677 -0.19972187
0 0.018728478 0.026052184 -0.52287865 -0.32315677 -0.19972187
0 0.015277804 0.025394164 -0.52287865 -0.32315677 -0.19972187
0.035546552 0.034622129 0.039999999 -0.52287865 -0.32315677 -0.19972187
0 0.0084378934 0.024091143 -0.52287865 -0.32315677 -0.19972187
0.0387857 0.029393362 0.039999999 -0.52287865 -0.32315677 -0.19972187
0.039999999 0.026527539 0.039828286 -0.52287865 -0.32315677 -0.19972187
0.0027210983 0 0.02332296 -0.52287865 -0.32315677 -0.19972187
0.0082253497 0 0.025016021 -0.52287865 -0.32315677 -0.19972187
0.013814108 0 0.026735514 -0.52287865 -0.32315677 -0.19972187
0.019489553 0 0.028482122 -0.52287865 -0.32315677 -0.19972187
0.025253944 0 0.030256553 -0.52287865 -0.32315677 -0.19972187
0.031109618 0 0.032059532 -0.52287865 -0.32315677 -0.19972187
0.03705899 0 0.033891819 -0.52287865 -0.32315677 -0.19972187
0 0.076900363 0.033966761 -0.52287865 -0.32315677 -0.19972187
0 0.073078908 0.033241693 -0.52287865 -0.32315677 -0.19972187
0 0.069283821 0.032522026 -0.52287865 -0.32315677 -0.19972187
0 0.065514691 0.031807676 -0.52287865 -0.32315677 -0.19972187
0 0.061771099 0.031098565 -0.52287865 -0.32315677 -0.19972187
0 0.058052655 0.030394608 -0.52287865 -0.32315677 -0.19972187
0 0.054358955 0.029695731 -0.52287865 -0.32315677 -0.19972187
0 0.050689619 0.029001851 -0.52287865 -0.32315677 -0.19972187
0 0.047044262 0.028312897 -0.52287865 -0.32315677 -0.19972187
0 0.043422513 0.027628792 -0.52287865 -0.32315677 -0.19972187
0.038803555 0.066761315 0.043771062 -0.52287865 -0.32315677 -0.19972187
0 0.036248375 0.026274841 -0.52287865 -0.32315677 -0.19972187
0.039995372 0.059914652 0.042840261 -0.52287865 -0.32315677 -0.19972187
0 0.029164337 0.024939429 -0.52287865 -0.32315677 -0.19972187
0 0.025655242 0.024278505 -0.52287865 -0.32315677 -0.19972187
0 0.022167645 0.023622008 -0.52287865 -0.32315677 -0.19972187
0 0.018701218 0.022969877 -0.52287865 -0.32315677 -0.19972187
0 0.015255632 0.022322046 -0.52287865 -0.32315677 -0.19972187
0 0.011830571 0.021678451 -0.52287865 -0.32315677 -0.19972187
0 0.00842572 0.021039031 -0.52287865 -0.32315677 -0.19972187
0 0.0050407713 0.020403724 -0.52287865 -0.32315677 -0.19972187
0.039999999 0.026524948 0.036563698 -0.52287865 -0.32315677 -0.19972187
0.0027171862 0 0.020282572 -0.52287865 -0.32315677 -0.19972187
0.0082134353 0 0.021950081 -0.52287865 -0.32315677 -0.19972187
0.013793943 0 0.023643535 -0.52287865 -0.32315677 -0.19972187
0.019460885 0 0.0253636 -0.52287865 -0.32315677 -0.19972187
0.025216505 0 0.02711097 -0.52287865 -0.32315677 -0.19972187
0.031063132 0 0.028886359 -0.52287865 -0.32315677 -0.19972187
0.037003171 0 0.030690506 -0.52287865 -0.32315677 -0.19972187
0 0.076782666 0.030713629 -0.52287865 -0.32315677 -0.19972187
0 0.072967447 0.030000938 -0.52287865 -0.32315677 -0.19972187
0 0.069178507 0.029293494 -0.52287865 -0.32315677 -0.19972187
0 0.065415442 0.028591214 -0.52287865 -0.32315677 -0.19972187
0 0.061677843 0.027894018 -0.52287865 -0.32315677 -0.19972187
0 0.057965305 0.027201831 -0.52287865 -0.32315677 -0.19972187
0 0.054277435 0.026514573 -0.52287865 -0.32315677 -0.19972187
0 0.05061385 0.025832172 -0.52287865 -0.32315677 -0.19972187
0 0.046974171 0.025154551 -0.52287865 -0.32315677 -0.19972187
0 0.043358028 0.024481641 -0.52287865 -0.32315677 -0.19972187
0 0.039765049 0.023813367 -0.52287865 -0.32315677 -0.19972187
0 0.036194883 0.023149662 -0.52287865 -0.32315677 -0.19972187
0 0.03264717 0.022490455 -0.52287865 -0.32315677 -0.19972187
0 0.029121568 0.021835679 -0.52287865 -0.32315677 -0.19972187
0.039999999 0.05229884 0.038084578 -0.52287865 -0.32315677 -0.19972187
0 0.022135336 0.020539163 -0.52287865 -0.32315677 -0.19972187
0 0.018674042 0.01989729 -0.52287865 -0.32315677 -0.19972187
0.039999999 0.04112025 0.03601158 -0.52287865 -0.32315677 -0.19972187
0 0.011813482 0.018626003 -0.52287865 -0.32315677 -0.19972187
0 0.0084135858 0.017996466 -0.52287865 -0.32315677 -0.19972187
0.039999999 0.030139955 0.033978429 -0.52287865 -0.32315677 -0.19972187
0 0.0016730208 0.016749308 -0.52287865 -0.32315677 -0.19972187
0.0027132866 0 0.017251663 -0.52287865 -0.32315677 -0.19972187
0.0082015572 0 0.018893767 -0.52287865 -0.32315677 -0.19972187
0.013773843 0 0.02056133 -0.52287865 -0.32315677 -0.19972187
0.019432306 0 0.022255007 -0.52287865 -0.32315677 -0.19972187
0.025179185 0 0.023975475 -0.52287865 -0.32315677 -0.19972187
0.031016797 0 0.025723435 -0.52287865 -0.32315677 -0.19972187
0.036947533 0 0.027499611 -0.52287865 -0.32315677 -0.19972187
0 0.076665349 0.027471118 -0.52287865 -0.32315677 -0.19972187
0 0.072856344 0.02677073 -0.52287865 -0.32315677 -0.19972187
0.014565961 0.079999998 0.032365527 -0.52287865 -0.32315677 -0.19972187
0 0.065316521 0.025385151 -0.52287865 -0.32315677 -0.19972187
0 0.061584886 0.024699802 -0.52287865 -0.32315677 -0.19972187
0 0.057878233 0.024019312 -0.52287865 -0.32315677 -0.19972187
0 0.054196175 0.023343608 -0.52287865 -0.32315677 -0.19972187
0 0.050538324 0.022672616 -0.52287865 -0.32315677 -0.19972187
0 0.046904303 0.022006262 -0.52287865 -0.32315677 -0.19972187
0 0.043293744 0.021344479 -0.52287865 -0.32315677 -0.19972187
0 0.039706282 0.020687195 -0.52287865 -0.32315677 -0.19972187
0 0.036141559 0.020034343 -0.52287865 -0.32315677 -0.19972187
0 0.032599226 0.019385856 -0.52287865 -0.32315677 -0.19972187
0 0.029078932 0.018741667 -0.52287865 -0.32315677 -0.19972187
0 0.025580345 0.018101715 -0.52287865 -0.32315677 -0.19972187
0 0.022103127 0.017465932 -0.52287865 -0.32315677 -0.19972187
0 0.018646952 0.016834259 -0.52287865 -0.32315677 -0.19972187
0.039999999 0.041096531 0.032725077 -0.52287865 -0.32315677 -0.19972187
0 0.011796447 0.015582996 -0.52287865 -0.32315677 -0.19972187
0 0.008401488 0.014963287 -0.52287865 -0.32315677 -0.19972187
0 0.0050263158 0.014347448 -0.52287865 -0.32315677 -0.19972187
0 0.0016706291 0.013735422 -0.52287865 -0.32315677 -0.19972187
0.0027093987 0 0.014230072 -0.52287865 -0.32315677 -0.19972187
0.0081897164 0 0.015846917 -0.52287865 -0.32315677 -0.19972187
0.013753804 0 0.017488739 -0.52287865 -0.32315677 -0.19972187
0.019403817 0 0.019156178 -0.52287865 -0.32315677 -0.19972187
0.025141984 0 0.0208499 -0.52287865 -0.32315677 -0.19972187
0.030970609 0 0.022570591 -0.52287865 -0.32315677 -0.19972187
0.036892075 0 0.024318961 -0.52287865 -0.32315677 -0.19972187
0 0.076548412 0.024239052 -0.52287865 -0.32315677 -0.19972187
0 0.072745606 0.023550894 -0.52287865 -0.32315677 -0.19972187
0 0.068968907 0.022867674 -0.52287865 -0.32315677 -0.19972187
0 0.065217912 0.022189315 -0.52287865 -0.32315677 -0.19972187
0 0.061492227 0.021515744 -0.52287865 -0.32315677 -0.19972187
0 0.057791442 0.020846885 -0.52287865 -0.32315677 -0.19972187
0 0.054115172 0.020182664 -0.52287865 -0.32315677 -0.19972187
0 0.050463036 0.019523013 -0.52287865 -0.32315677 -0.19972187
0 0.046834655 0.018867861 -0.52287865 -0.32315677 -0.19972187
0 0.043229666 0.018217141 -0.52287865 -0.32315677 -0.19972187
0 0.039647698 0.017570782 -0.52287865 -0.32315677 -0.19972187
0 0.036088403 0.016928721 -0.52287865 -0.32315677 -0.19972187
0 0.03255143 0.01629089 -0.52287865 -0.32315677 -0.19972187
0 0.029036431 0.015657227 -0.52287865 -0.32315677 -0.19972187
0.039999999 0.052218463 0.031455923 -0.52287865 -0.32315677 -0.19972187
0 0.022071017 0.014402157 -0.52287865 -0.32315677 -0.19972187
0.039999999 0.044765722 0.030113479 -0.52287865 -0.32315677 -0.19972187
0 0.015189531 0.013163016 -0.52287865 -0.32315677 -0.19972187
0.039999999 0.037401944 0.028787928 -0.52287865 -0.32315677 -0.19972187
0 0.0083894273 0.011939335 -0.52287865 -0.32315677 -0.19972187
0 0.0050191213 0.011333147 -0.52287865 -0.32315677 -0.19972187
0 0.0016682447 0.010730655 -0.52287865 -0.32315677 -0.19972187
0.0027055228 0 0.011217644 -0.52287865 -0.32315677 -0.19972187
0.0081779119 0 0.012809372 -0.52287865 -0.32315677 -0.19972187
0.013733828 0 0.014425597 -0.52287865 -0.32315677 -0.19972187
0.019375417 0 0.016066952 -0.52287865 -0.32315677 -0.19972187
0.025104899 0 0.017734082 -0.52287865 -0.32315677 -0.19972187
0.030924566 0 0.019427663 -0.52287865 -0.32315677 -0.19972187
0.036836796 0 0.021148389 -0.52287865 -0.32315677 -0.19972187
0 0.076431848 0.021017261 -0.52287865 -0.32315677 -0.19972187
0 0.072635211 0.020341258 -0.52287865 -0.32315677 -0.19972187
0 0.068864606 0.019670043 -0.52287865 -0.32315677 -0.19972187
0 0.065119617 0.01900354 -0.52287865 -0.32315677 -0.19972187
0 0.061399855 0.018341675 -0.52287865 -0.32315677 -0.19972187
0 0.057704918 0.017684376 -0.52287865 -0.32315677 -0.19972187
0 0.054034419 0.017031575 -0.52287865 -0.32315677 -0.19972187
0 0.050387979 0.016383201 -0.52287865 -0.32315677 -0.19972187
0 0.046765223 0.015739184 -0.52287865 -0.32315677 -0.19972187
0 0.043165781 0.015099462 -0.52287865 -0.32315677 -0.19972187
0.039999999 0.067339219 0.030849095 -0.52287865 -0.32315677 -0.19972187
0 0.036035411 0.013832633 -0.52287865 -0.32315677 -0.19972187
0 0.03250378 0.013205399 -0.52287865 -0.32315677 -0.19972187
0 0.028994057 0.012582202 -0.52287865 -0.32315677 -0.19972187
0 0.02550591 0.011962982 -0.52287865 -0.32315677 -0.19972187
0.039999999 0.048446339 0.02749441 -0.52287865 -0.32315677 -0.19972187
0 0.018593019 0.01073623 -0.52287865 -0.32315677 -0.19972187
0 0.015167631 0.010128581 -0.52287865 -0.32315677 -0.19972187
0.039999999 0.037383717 0.025531949 -0.52287865 -0.32315677 -0.19972187
0.039999999 0.03373963 0.024885811 -0.52287865 -0.32315677 -0.19972187
0.039999999 0.03011672 0.024243584 -0.52287865 -0.32315677 -0.19972187
0 0.0016658674 0.007734851 -0.52287865 -0.32315677 -0.19972187
0.0027016583 0 0.0082142223 -0.52287865 -0.32315677 -0.19972187
0.0081661427 0 0.0097809732 -0.52287865 -0.32315677 -0.19972187
0.013713913 0 0.011371749 -0.52287865 -0.32315677 -0.19972187
0.019347105 0 0.012987163 -0.52287865 -0.32315677 -0.19972187
0.025067927 0 0.014627855 -0.52287865 -0.32315677 -0.19972187
0.030878665 0 0.016294481 -0.52287865 -0.32315677 -0.19972187
0.036781684 0 0.017987726 -0.52287865 -0.32315677 -0.19972187
0 0.076315649 0.017805573 -0.52287865 -0.32315677 -0.19972187
0.0098777106 0.079999998 0.021238428 -0.52287865 -0.32315677 -0.19972187
0 0.068760626 0.016482374 -0.52287865 -0.32315677 -0.19972187
0.020175954 0.079999998 0.024144914 -0.52287865 -0.32315677 -0.19972187
0.025421761 0.079999998 0.025625587 -0.52287865 -0.32315677 -0.19972187
0.030733919 0.079999998 0.027125081 -0.52287865 -0.32315677 -0.19972187
0 0.053953916 0.013890173 -0.52287865 -0.32315677 -0.19972187
0 0.050313152 0.01325301 -0.52287865 -0.32315677 -0.19972187
0 0.046696 0.012620066 -0.52287865 -0.32315677 -0.19972187
0 0.043102093 0.011991279 -0.52287865 -0.32315677 -0.19972187
0 0.039531071 0.011366584 -0.52287865 -0.32315677 -0.19972187
0 0.035982579 0.010745918 -0.52287865 -0.32315677 -0.19972187
0.039999999 0.059660524 0.026182743 -0.52287865 -0.32315677 -0.19972187
0 0.028951811 0.0095164301 -0.52287865 -0.32315677 -0.19972187
0 0.02546886 0.0089074876 -0.52287865 -0.32315677 -0.19972187
0.039999999 0.04841198 0.024216101 -0.52287865 -0.32315677 -0.19972187
0.039999999 0.044707838 0.023568671 -0.52287865 -0.32315677 -0.19972187
0 0.015145797 0.0071031698 -0.52287865 -0.32315677 -0.19972187
0.039999999 0.037365541 0.022285627 -0.52287865 -0.32315677 -0.19972187
0 0.0083654132 0.0059184884 -0.52287865 -0.32315677 -0.19972187
0 0.0050047962 0.0053314432 -0.52287865 -0.32315677 -0.19972187
0 0.0016634971 0.0047478573 -0.52287865 -0.32315677 -0.19972187
0.0026978054 0 0.0052196528 -0.52287865 -0.32315677 -0.19972187
0.008154409 0 0.0067615663 -0.52287865 -0.32315677 -0.19972187
0.013694057 0 0.0083270324 -0.52287865 -0.32315677 -0.19972187
0.019318877 0 0.0099166557 -0.52287865 -0.32315677 -0.19972187
0.025031069 0 0.011531058 -0.52287865 -0.32315677 -0.19972187
0.030832905 0 0.013170886 -0.52287865 -0.32315677 -0.19972187
0.036726743 0 0.014836805 -0.52287865 -0.32315677 -0.19972187
0 0.076199815 0.014603817 -0.52287865 -0.32315677 -0.19972187
0 0.072415456 0.013951913 -0.52287865 -0.32315677 -0.19972187
0.01513737 0.079999998 0.019471623 -0.52287865 -0.32315677 -0.19972187
0 0.064923935 0.012661493 -0.52287865 -0.32315677 -0.19972187
0 0.061215967 0.012022838 -0.52287865 -0.32315677 -0.19972187
0 0.057532672 0.011388462 -0.52287865 -0.32315677 -0.19972187
0 0.053873658 0.010758298 -0.52287865 -0.32315677 -0.19972187
0 0.050238553 0.01013228 -0.52287865 -0.32315677 -0.19972187
0.039999999 0.07491529 0.025516525 -0.52287865 -0.32315677 -0.19972187
0 0.043038595 0.0088924319 -0.52287865 -0.32315677 -0.19972187
0 0.039473016 0.0082784761 -0.52287865 -0.32315677 -0.19972187
0 0.035929903 0.0076684165 -0.52287865 -0.32315677 -0.19972187
0 0.032408908 0.0070621949 -0.52287865 -0.32315677 -0.19972187
0 0.028909691 0.0064597521 -0.52287865 -0.32315677 -0.19972187
0.039999999 0.052098811 0.021588039 -0.52287865 -0.32315677 -0.19972187
0.039999999 0.048377723 0.020947458 -0.52287865 -0.32315677 -0.19972187
0 0.018539406 0.0046745241 -0.52287865 -0.32315677 -0.19972187
0 0.015124027 0.004086629 -0.52287865 -0.32315677 -0.19972187
0.039999999 0.037347421 0.019048795 -0.52287865 -0.32315677 -0.19972187
0 0.0083534596 0.0029212856 -0.52287865 -0.32315677 -0.19972187
0 0.0049976651 0.0023437319 -0.52287865 -0.32315677 -0.19972187
0 0.0016611336 0.0017695221 -0.52287865 -0.32315677 -0.19972187
0.0026939635 0 0.0022337832 -0.52287865 -0.32315677 -0.19972187
0.0081427088 0 0.0037509955 -0.52287865 -0.32315677 -0.19972187
0.013674259 0 0.0052912938 -0.52287865 -0.32315677 -0.19972187
0.019290732 0 0.006855269 -0.52287865 -0.32315677 -0.19972187
0.024994319 0 0.0084435306 -0.52287865 -0.32315677 -0.19972187
0.030787285 0 0.010056711 -0.52287865 -0.32315677 -0.19972187
0.03667197 0 0.011695462 -0.52287865 -0.32315677 -0.19972187
0 0.079888761 0.012056192 -0.52287865 -0.32315677 -0.19972187
0 0.076084323 0.011411827 -0.52287865 -0.32315677 -0.19972187
0 0.072306082 0.010771867 -0.52287865 -0.32315677 -0.19972187
0 0.068553619 0.010136245 -0.52287865 -0.32315677 -0.19972187
0 0.064826541 0.0095048919 -0.52287865 -0.32315677 -0.19972187
0 0.06112444 0.0088777412 -0.52287865 -0.32315677 -0.19972187
0 0.057446934 0.0082547273 -0.52287865 -0.32315677 -0.19972187
0 0.053793639 0.0076357843 -0.52287865 -0.32315677 -0.19972187
0 0.050164178 0.0070208507 -0.52287865 -0.32315677 -0.19972187
0 0.046558183 0.0064098625 -0.52287865 -0.32315677 -0.19972187
0 0.042975284 0.0058027599 -0.52287865 -0.32315677 -0.19972187
0 0.039415136 0.0051994822 -0.52287865 -0.32315677 -0.19972187
0.039999999 0.063343346 0.020230507 -0.52287865 -0.32315677 -0.19972187
0.039999999 0.059558697 0.019589124 -0.52287865 -0.32315677 -0.19972187
0 0.028867694 0.0034120139 -0.52287865 -0.32315677 -0.19972187
0 0.025395086 0.002823456 -0.52287865 -0.32315677 -0.19972187
0 0.021943536 0.0022384375 -0.52287865 -0.32315677 -0.19972187
0 0.018512718 0.001656905 -0.52287865 -0.32315677 -0.19972187
0 0.015102318 0.0010788048 -0.52287865 -0.32315677 -0.19972187
0 0.011712028 0.00050408475 -0.52287865 -0.32315677 -0.19972187
0.00017627083 0.0084532928 0 -0.52287865 -0.32315677 -0.19972187
0.0016688615 0.0060378956 0 -0.52287865 -0.32315677 -0.19972187
0.0031614408 0.0036226842 2.7755576e-17 -0.52287865 -0.32315677 -0.19972187
0.0046540666 0.0012075651 0 -0.52287865 -0.32315677 -0.19972187
0.0081310431 0 0.00074910867 -0.52287865 -0.32315677 -0.19972187
0.01365452 0 0.0022643777 -0.52287865 -0.32315677 -0.19972187
0.019262671 0 0.0038028469 -0.52287865 -0.32315677 -0.19972187
0.024957679 0 0.0053651142 -0.52287865 -0.32315677 -0.19972187
0.030741798 0 0.0069517968 -0.52287865 -0.32315677 -0.19972187
0.036617361 0 0.0085635344 -0.52287865 -0.32315677 -0.19972187
0 0.079767443 0.0088617783 -0.52287865 -0.32315677 -0.19972187
0.0052806046 0.079999998 0.010329559 -0.52287865 -0.32315677 -0.19972187
0 0.072197035 0.0076013529 -0.52287865 -0.32315677 -0.19972187
0 0.068450585 0.0069774585 -0.52287865 -0.32315677 -0.19972187
0 0.064729437 0.006357688 -0.52287865 -0.32315677 -0.19972187
0 0.061033186 0.0057419757 -0.52287865 -0.32315677 -0.19972187
0 0.057361454 0.0051302589 -0.52287865 -0.32315677 -0.19972187
0 0.053713858 0.0045224745 -0.52287865 -0.32315677 -0.19972187
0 0.050090019 0.0039185607 -0.52287865 -0.32315677 -0.19972187
0 0.046489574 0.0033184579 -0.52287865 -0.32315677 -0.19972187
0.039999999 0.07091628 0.018208986 -0.52287865 -0.32315677 -0.19972187
0 0.039357424 0.0021294472 -0.52287865 -0.32315677 -0.19972187
0 0.035825014 0.0015404238 -0.52287865 -0.32315677 -0.19972187
0 0.032314591 0.00095497986 -0.52287865 -0.32315677 -0.19972187
0.039999999 0.055752341 0.01568024 -0.52287865 -0.32315677 -0.19972187
0.00053827319 0.025717136 0 -0.52287865 -0.32315677 -0.19972187
0.002051194 0.023265561 0 -0.52287865 -0.32315677 -0.19972187
0.0035639598 0.020814756 0 -0.52287865 -0.32315677 -0.19972187
0.00507663 0.018364621 0 -0.52287865 -0.32315677 -0.19972187
0.0065892637 0.015915062 0 -0.52287865 -0.32315677 -0.19972187
0.0081019206 0.013465983 0 -0.52287865 -0.32315677 -0.19972187
0.0096146604 0.011017286 0 -0.52287865 -0.32315677 -0.19972187
0.011127542 0.0085688764 0 -0.52287865 -0.32315677 -0.19972187
0.012640624 0.0061206575 0 -0.52287865 -0.32315677 -0.19972187
0.014153968 0.0036725334 0 -0.52287865 -0.32315677 -0.19972187
0.01566763 0.0012244077 0 -0.52287865 -0.32315677 -0.19972187
0.019234691 0 0.00075923488 -0.52287865 -0.32315677 -0.19972187
0.024921145 0 0.0022956515 -0.52287865 -0.32315677 -0.19972187
0.030696446 0 0.0038559851 -0.52287865 -0.32315677 -0.19972187
0.036562916 0 0.0054408615 -0.52287865 -0.32315677 -0.19972187
0 0.079646491 0.0056768698 -0.52287865 -0.32315677 -0.19972187
0 0.075854383 0.0050564841 -0.52287865 -0.32315677 -0.19972187
0 0.072088309 0.004440207 -0.52287865 -0.32315677 -0.19972187
0 0.068347849 0.0038279733 -0.52287865 -0.32315677 -0.19972187
0 0.064632609 0.003219719 -0.52287865 -0.32315677 -0.19972187
0 0.060942199 0.002615381 -0.52287865 -0.32315677 -0.19972187
0 0.057276223 0.0020148978 -0.52287865 -0.32315677 -0.19972187
0 0.053634305 0.0014182086 -0.52287865 -0.32315677 -0.19972187
0 0.050016075 0.00082525361 -0.52287865 -0.32315677 -0.19972187
0 0.046421167 0.00023597453 -0.52287865 -0.32315677 -0.19972187
0.00091709633 0.04349117 0 -0.52287865 -0.32315677 -0.19972187
0.0024508801 0.040998816 0 -0.52287865 -0.32315677 -0.19972187
0.003984353 0.038507853 0 -0.52287865 -0.32315677 -0.19972187
0.0055175764 0.036018185 0 -0.52287865 -0.32315677 -0.19972187
0.039999999 0.055707388 0.012418099 -0.52287865 -0.32315677 -0.19972187
0.0085835205 0.031042324 0 -0.52287865 -0.32315677 -0.19972187
0.010116365 0.028555933 0 -0.52287865 -0.32315677 -0.19972187
0.011649206 0.026070433 0 -0.52287865 -0.32315677 -0.19972187
0.013182105 0.023585726 2.7755576e-17 -0.52287865 -0.32315677 -0.19972187
0.014715123 0.021101711 0 -0.52287865 -0.32315677 -0.19972187
0.016248321 0.018618289 0 -0.52287865 -0.32315677 -0.19972187
0.017781762 0.016135361 0 -0.52287865 -0.32315677 -0.19972187
0.019315507 0.013652826 0 -0.52287865 -0.32315677 -0.19972187
0.020849615 0.011170585 0 -0.52287865 -0.32315677 -0.19972187
0.022384152 0.0086885393 0 -0.52287865 -0.32315677 -0.19972187
0.023919174 0.0062065884 0 -0.52287865 -0.32315677 -0.19972187
0.025454747 0.0037246337 0 -0.52287865 -0.32315677 -0.19972187
0.026990931 0.0012425756 0 -0.52287865 -0.32315677 -0.19972187
0.030651225 0 0.00076911831 -0.52287865 -0.32315677 -0.19972187
0.036508627 0 0.0023272831 -0.52287865 -0.32315677 -0.19972187
0 0.079525888 0.0025013038 -0.52287865 -0.32315677 -0.19972187
0 0.075739928 0.0018928052 -0.52287865 -0.32315677 -0.19972187
0 0.071979903 0.0012882681 -0.52287865 -0.32315677 -0.19972187
0 0.068245418 0.00068762904 -0.52287865 -0.32315677 -0.19972187
0 0.064536072 9.0826121e-05 -0.52287865 -0.32315677 -0.19972187
0.0013180954 0.061819497 0 -0.52287865 -0.32315677 -0.19972187
0.0028733243 0.059281323 0 -0.52287865 -0.32315677 -0.19972187
0.0044280733 0.05674522 0 -0.52287865 -0.32315677 -0.19972187
0.0059824064 0.05421108 2.7755576e-17 -0.52287865 -0.32315677 -0.19972187
0.0075363871 0.051678795 0 -0.52287865 -0.32315677 -0.19972187
0.0090900799 0.049148262 0 -0.52287865 -0.32315677 -0.19972187
0.010643548 0.046619374 0 -0.52287865 -0.32315677 -0.19972187
0.012196856 0.044092033 0 -0.52287865 -0.32315677 -0.19972187
0.013750065 0.041566126 0 -0.52287865 -0.32315677 -0.19972187
0.015303242 0.039041556 0 -0.52287865 -0.32315677 -0.19972187
0.016856449 0.036518216 0 -0.52287865 -0.32315677 -0.19972187
0.018409748 0.033996001 0 -0.52287865 -0.32315677 -0.19972187
0.019963205 0.031474806 0 -0.52287865 -0.32315677 -0.19972187
0.02151688 0.028954534 0 -0.52287865 -0.32315677 -0.19972187
0.023070842 0.026435077 0 -0.52287865 -0.32315677 -0.19972187
0.024625149 0.023916332 0 -0.52287865 -0.32315677 -0.19972187
0.039999999 0.030070852 0.0050271195 -0.52287865 -0.32315677 -0.19972187
0.02773506 0.01888057 0 -0.52287865 -0.32315677 -0.19972187
0.029290792 0.016363345 0 -0.52287865 -0.32315677 -0.19972187
0.039999999 0.019416954 0.0033013267 -0.52287865 -0.32315677 -0.19972187
0.032404121 0.011329694 0 -0.52287865 -0.32315677 -0.19972187
0.033961847 0.0088130618 0 -0.52287865 -0.32315677 -0.19972187
0.035520364 0.0062964219 0 -0.52287865 -0.32315677 -0.19972187
0.03707974 0.0037796709 0 -0.52287865 -0.32315677 -0.19972187
0.038640037 0.0012627058 0 -0.52287865 -0.32315677 -0.19972187
0.0033243319 0.07816115 0 -0.52287865 -0.32315677 -0.19972187
0.0049009775 0.075574435 0 -0.52287865 -0.32315677 -0.19972187
0.0064770263 0.072990403 0 -0.52287865 -0.32315677 -0.19972187
0.0080525456 0.070408948 0 -0.52287865 -0.32315677 -0.19972187
0.0096276002 0.067829959 0 -0.52287865 -0.32315677 -0.19972187
0.011202259 0.065253325 0 -0.52287865 -0.32315677 -0.19972187
0.012776585 0.062678933 0 -0.52287865 -0.32315677 -0.19972187
0.014350647 0.06010668 0 -0.52287865 -0.32315677 -0.19972187
0.01592451 0.057536449 0 -0.52287865 -0.32315677 -0.19972187
0.01749824 0.054968134 0 -0.52287865 -0.32315677 -0.19972187
0.019071901 0.052401628 0 -0.52287865 -0.32315677 -0.19972187
0.020645561 0.049836822 0 -0.52287865 -0.32315677 -0.19972187
0.022219285 0.047273606 0 -0.52287865 -0.32315677 -0.19972187
0.023793139 0.044711869 0 -0.52287865 -0.32315677 -0.19972187
0.025367187 0.042151514 0 -0.52287865 -0.32315677 -0.19972187
0.026941495 0.039592423 0 -0.52287865 -0.32315677 -0.19972187
0.028516132 0.037034493 0 -0.52287865 -0.32315677 -0.19972187
0.030091159 0.034477618 0 -0.52287865 -0.32315677 -0.19972187
0.031666644 0.031921688 0 -0.52287865 -0.32315677 -0.19972187
0.033242654 0.029366596 0 -0.52287865 -0.32315677 -0.19972187
0.034819253 0.026812237 0 -0.52287865 -0.32315677 -0.19972187
0.036396503 0.024258504 0 -0.52287865 -0.32315677 -0.19972187
0.037974477 0.02170529 0 -0.52287865 -0.32315677 -0.19972187
0.039553236 0.019152489 0 -0.52287865 -0.32315677 -0.19972187
0.014990469 0.079256728 0 -0.52287865 -0.32315677 -0.19972187
0.01658559 0.076635242 0 -0.52287865 -0.32315677 -0.19972187
0.018180404 0.074016407 0 -0.52287865 -0.32315677 -0.19972187
0.019774975 0.071400121 0 -0.52287865 -0.32315677 -0.19972187
0.021369373 0.068786271 0 -0.52287865 -0.32315677 -0.19972187
0.022963665 0.066174731 0 -0.52287865 -0.32315677 -0.19972187
0.02455792 0.063565396 0 -0.52287865 -0.32315677 -0.19972187
0.026152207 0.060958147 0 -0.52287865 -0.32315677 -0.19972187
0.027746594 0.05835288 0 -0.52287865 -0.32315677 -0.19972187
0.029341144 0.055749476 0 -0.52287865 -0.32315677 -0.19972187
0.03093593 0.053147826 0 -0.52287865 -0.32315677 -0.19972187
0.032531019 0.050547812 0 -0.52287865 -0.32315677 -0.19972187
0.034126479 0.047949329 2.7755576e-17 -0.52287865 -0.32315677 -0.19972187
0.035722375 0.045352265 0 -0.52287865 -0.32315677 -0.19972187
0.037318777 0.042756505 0 -0.52287865 -0.32315677 -0.19972187
0.038915753 0.040161941 0 -0.52287865 -0.32315677 -0.19972187
0.028602676 0.077729754 0 -0.52287865 -0.32315677 -0.19972187
0.030217657 0.075075194 0 -0.52287865 -0.32315677 -0.19972187
0.031832702 0.072423153 0 -0.52287865 -0.32315677 -0.19972187
0.033447884 0.069773495 0 -0.52287865 -0.32315677 -0.19972187
0.035063267 0.067126118 0 -0.52287865 -0.32315677 -0.19972187
0.036678929 0.064480886 0 -0.52287865 -0.32315677 -0.19972187
0.038294934 0.061837703 0 -0.52287865 -0.32315677 -0.19972187
0.039911356 0.059196439 0 -0.52287865 -0.32315677 -0.19972187
