# .PCD v0.7 - Point Cloud Data file format
VERSION 0.7
FIELDS x y z vp_x vp_y vp_z
SIZE 4 4 4 4 4 4
TYPE F F F F F F
COUNT 1 1 1 1 1 1
WIDTH 702
HEIGHT 1
VIEWPOINT 0 0 0 1 0 0 0
POINTS 702
DATA ascii
0.011928785 0.068601154 0.07 0.52287865 0.32315677 0.19972187
0.010501088 0.070732623 0.07 0.52287865 0.32315677 0.19972187
0.0090677617 0.072864503 0.07 0.52287865 0.32315677 0.19972187
0.0076287109 0.074996933 0.07 0.52287865 0.32315677 0.19972187
0.03471899 0.04648038 0.069016896 0.52287865 0.32315677 0.19972187
0.037050784 0.050659887 0.07 0.52287865 0.32315677 0.19972187
0.035706669 0.052757397 0.07 0.52287865 0.32315677 0.19972187
0.03435827 0.054854058 0.07 0.52287865 0.32315677 0.19972187
0.033005513 0.056949995 0.07 0.52287865 0.32315677 0.19972187
0.031648308 0.059045326 0.07 0.52287865 0.32315677 0.19972187
0.030286573 0.061140176 0.07 0.52287865 0.32315677 0.19972187
0.028920226 0.063234664 0.07 0.52287865 0.32315677 0.19972187
0.027549177 0.065328918 0.07 0.52287865 0.32315677 0.19972187
0.026173346 0.067423061 0.07 0.52287865 0.32315677 0.19972187
0.024792641 0.069517203 0.07 0.52287865 0.32315677 0.19972187
0.023406977 0.071611479 0.07 0.52287865 0.32315677 0.19972187
0.022016263 0.073706008 0.07 0.52287865 0.32315677 0.19972187
0.020620413 0.075800911 0.07 0.52287865 0.32315677 0.19972187
0.019219333 0.077896312 0.07 0.52287865 0.32315677 0.19972187
0.017432513 0.079809181 0.069902293 0.52287865 0.32315677 0.19972187
0.034774728 0.046545997 0.066452466 0.52287865 0.32315677 0.19972187
0.03793468 0.051193248 0.067680322 0.52287865 0.32315677 0.19972187
0.039276876 0.054780222 0.068408914 0.52287865 0.32315677 0.19972187
0.039888136 0.057936005 0.068936639 0.52287865 0.32315677 0.19972187
0.039957911 0.06077658 0.069316342 0.52287865 0.32315677 0.19972187
0.039677508 0.063414417 0.069600761 0.52287865 0.32315677 0.19972187
0.039093442 0.0658805 0.069803193 0.52287865 0.32315677 0.19972187
0.038232569 0.068194337 0.069931522 0.52287865 0.32315677 0.19972187
0.037101179 0.07036408 0.069988064 0.52287865 0.32315677 0.19972187
0.035682213 0.072385676 0.069968879 0.52287865 0.32315677 0.19972187
0.03397939 0.074265972 0.069875613 0.52287865 0.32315677 0.19972187
0.031960547 0.075993642 0.069700383 0.52287865 0.32315677 0.19972187
0.029572254 0.077547431 0.069429785 0.52287865 0.32315677 0.19972187
0.026626626 0.078841038 0.069015145 0.52287865 0.32315677 0.19972187
0.022896908 0.079773344 0.06839814 0.52287865 0.32315677 0.19972187
0.017189238 0.079782717 0.067267783 0.52287865 0.32315677 0.19972187
0.034830563 0.04661173 0.063883454 0.52287865 0.32315677 0.19972187
0.037963096 0.051246848 0.065127395 0.52287865 0.32315677 0.19972187
0.039290432 0.05482905 0.06586583 0.52287865 0.32315677 0.19972187
0.039890647 0.05798234 0.066400521 0.52287865 0.32315677 0.19972187
0.039955352 0.060823802 0.066785917 0.52287865 0.32315677 0.19972187
0.039669633 0.063462459 0.067074053 0.52287865 0.32315677 0.19972187
0.039079908 0.065929241 0.067278467 0.52287865 0.32315677 0.19972187
0.038212933 0.068243615 0.067407161 0.52287865 0.32315677 0.19972187
0.037069455 0.070410877 0.067460984 0.52287865 0.32315677 0.19972187
0.035642605 0.072432302 0.067438707 0.52287865 0.32315677 0.19972187
0.033930805 0.074311994 0.06734056 0.52287865 0.32315677 0.19972187
0.031901564 0.07603848 0.067158423 0.52287865 0.32315677 0.19972187
0.029500972 0.077590317 0.06687849 0.52287865 0.32315677 0.19972187
0.026527364 0.078874484 0.066447467 0.52287865 0.32315677 0.19972187
0.022751832 0.079789132 0.065805331 0.52287865 0.32315677 0.19972187
0.01694526 0.079756178 0.064625673 0.52287865 0.32315677 0.19972187
0.034886502 0.046677582 0.061309755 0.52287865 0.32315677 0.19972187
0.037991568 0.051300552 0.062569529 0.52287865 0.32315677 0.19972187
0.039304014 0.054877974 0.063317694 0.52287865 0.32315677 0.19972187
0.039893162 0.058028765 0.063859269 0.52287865 0.32315677 0.19972187
0.039952785 0.060871121 0.064250328 0.52287865 0.32315677 0.19972187
0.039661739 0.063510597 0.064542152 0.52287865 0.32315677 0.19972187
0.039066348 0.06597808 0.064748503 0.52287865 0.32315677 0.19972187
0.038193256 0.068293005 0.064877518 0.52287865 0.32315677 0.19972187
0.037037663 0.070457764 0.064928509 0.52287865 0.32315677 0.19972187
0.035602912 0.072479025 0.064903073 0.52287865 0.32315677 0.19972187
0.033882111 0.074358113 0.064799964 0.52287865 0.32315677 0.19972187
0.031842448 0.076083422 0.064610809 0.52287865 0.32315677 0.19972187
0.029429529 0.077633299 0.064321421 0.52287865 0.32315677 0.19972187
0.026427867 0.078908011 0.063873693 0.52287865 0.32315677 0.19972187
0.022606388 0.079804949 0.063205913 0.52287865 0.32315677 0.19972187
0.016673326 0.079716459 0.061968412 0.52287865 0.32315677 0.19972187
0.034942545 0.046743557 0.058731254 0.52287865 0.32315677 0.19972187
0.0380201 0.05135436 0.06000663 0.52287865 0.32315677 0.19972187
0.039317627 0.054926995 0.060764402 0.52287865 0.32315677 0.19972187
0.039895684 0.058075286 0.061312772 0.52287865 0.32315677 0.19972187
0.039950218 0.060918536 0.061709471 0.52287865 0.32315677 0.19972187
0.03965383 0.063558832 0.062004954 0.52287865 0.32315677 0.19972187
0.039052758 0.06602703 0.062213209 0.52287865 0.32315677 0.19972187
0.038173534 0.068342492 0.062342487 0.52287865 0.32315677 0.19972187
0.037005801 0.070504762 0.062390532 0.52287865 0.32315677 0.19972187
0.035563134 0.072525859 0.062361863 0.52287865 0.32315677 0.19972187
0.033833314 0.074404337 0.062253695 0.52287865 0.32315677 0.19972187
0.031783197 0.07612846 0.062057417 0.52287865 0.32315677 0.19972187
0.029356433 0.077675648 0.061758026 0.52287865 0.32315677 0.19972187
0.02632813 0.078941621 0.06129371 0.52287865 0.32315677 0.19972187
0.022460567 0.079820819 0.06059977 0.52287865 0.32315677 0.19972187
0.016323084 0.079639368 0.059281491 0.52287865 0.32315677 0.19972187
0.034998696 0.046809658 0.056147836 0.52287865 0.32315677 0.19972187
0.038048685 0.05140828 0.057438575 0.52287865 0.32315677 0.19972187
0.039331261 0.054976117 0.058205836 0.52287865 0.32315677 0.19972187
0.039898209 0.058121908 0.058760915 0.52287865 0.32315677 0.19972187
0.03994764 0.060966056 0.059163231 0.52287865 0.32315677 0.19972187
0.039645903 0.063607171 0.059462335 0.52287865 0.32315677 0.19972187
0.039039142 0.066076078 0.059672453 0.52287865 0.32315677 0.19972187
0.038153771 0.06839209 0.059801951 0.52287865 0.32315677 0.19972187
0.036973871 0.070551857 0.059846938 0.52287865 0.32315677 0.19972187
0.035523266 0.07257279 0.059814956 0.52287865 0.32315677 0.19972187
0.033784401 0.074450672 0.059701648 0.52287865 0.32315677 0.19972187
0.031723808 0.076173611 0.059498139 0.52287865 0.32315677 0.19972187
0.029274261 0.077713661 0.059186064 0.52287865 0.32315677 0.19972187
0.026228148 0.078975305 0.058707394 0.52287865 0.32315677 0.19972187
0.02231436 0.079836719 0.057986766 0.52287865 0.32315677 0.19972187
0.01597164 0.079562023 0.056585353 0.52287865 0.32315677 0.19972187
0.0029305946 0.00019163394 0.039999999 0.52287865 0.32315677 0.19972187
0.0014820044 0.0025355022 0.039999999 0.52287865 0.32315677 0.19972187
3.099276e-05 0.0048779561 0.039999999 0.52287865 0.32315677 0.19972187
0.035054952 0.04687589 0.053559396 0.52287865 0.32315677 0.19972187
0.038077328 0.051462308 0.054865249 0.52287865 0.32315677 0.19972187
0.039344929 0.055025343 0.055641882 0.52287865 0.32315677 0.19972187
0.039900742 0.058168627 0.056203581 0.52287865 0.32315677 0.19972187
0.039945059 0.061013673 0.05661149 0.52287865 0.32315677 0.19972187
0.03963796 0.063655622 0.056914184 0.52287865 0.32315677 0.19972187
0.039025493 0.066125236 0.057126127 0.52287865 0.32315677 0.19972187
0.038129434 0.068439417 0.057254471 0.52287865 0.32315677 0.19972187
0.036941867 0.070599064 0.057297602 0.52287865 0.32315677 0.19972187
0.035483304 0.072619833 0.057262242 0.52287865 0.32315677 0.19972187
0.033735376 0.074497104 0.057143699 0.52287865 0.32315677 0.19972187
0.031664282 0.076218866 0.056932855 0.52287865 0.32315677 0.19972187
0.029191889 0.077751771 0.056607842 0.52287865 0.32315677 0.19972187
0.026127916 0.079009078 0.056114618 0.52287865 0.32315677 0.19972187
0.022167765 0.07985267 0.055366777 0.52287865 0.32315677 0.19972187
0.015618975 0.079484403 0.05387985 0.52287865 0.32315677 0.19972187
0.014909117 0.0012472104 0.039999999 0.52287865 0.32315677 0.19972187
0.013488116 0.003555994 0.039999999 0.52287865 0.32315677 0.19972187
0.012065085 0.0058632852 0.039999999 0.52287865 0.32315677 0.19972187
0.010639952 0.0081691984 0.039999999 0.52287865 0.32315677 0.19972187
0.0092126466 0.010473849 0.039999999 0.52287865 0.32315677 0.19972187
0.0077830986 0.01277735 0.039999999 0.52287865 0.32315677 0.19972187
0.0063512367 0.015079816 0.039999999 0.52287865 0.32315677 0.19972187
0.0049169888 0.017381361 0.039999999 0.52287865 0.32315677 0.19972187
0.0034802831 0.0196821 0.039999999 0.52287865 0.32315677 0.19972187
0.0020410479 0.021982145 0.039999999 0.52287865 0.32315677 0.19972187
0.00059921038 0.024281612 0.039999999 0.52287865 0.32315677 0.19972187
0.035111323 0.046942253 0.050965816 0.52287865 0.32315677 0.19972187
0.038106035 0.051516447 0.052286543 0.52287865 0.32315677 0.19972187
0.039358627 0.055074677 0.053072423 0.52287865 0.32315677 0.19972187
0.039903279 0.05821545 0.05364066 0.52287865 0.32315677 0.19972187
0.039942473 0.061061397 0.054054134 0.52287865 0.32315677 0.19972187
0.03963 0.063704178 0.05436039 0.52287865 0.32315677 0.19972187
0.039011817 0.066174507 0.054574113 0.52287865 0.32315677 0.19972187
0.038104448 0.068486542 0.054701023 0.52287865 0.32315677 0.19972187
0.036909789 0.070646375 0.054742418 0.52287865 0.32315677 0.19972187
0.03544325 0.072666988 0.054703601 0.52287865 0.32315677 0.19972187
0.033686236 0.074543655 0.054579735 0.52287865 0.32315677 0.19972187
0.031604614 0.076264225 0.054361444 0.52287865 0.32315677 0.19972187
0.029109314 0.077789977 0.054023243 0.52287865 0.32315677 0.19972187
0.02602743 0.079042941 0.053515263 0.52287865 0.32315677 0.19972187
0.022020772 0.079868659 0.052739676 0.52287865 0.32315677 0.19972187
0.01526507 0.079406507 0.051164832 0.52287865 0.32315677 0.19972187
0.02649603 0.0022614459 0.039999999 0.52287865 0.32315677 0.19972187
0.025100667 0.0045362189 0.039999999 0.52287865 0.32315677 0.19972187
0.023703638 0.0068094297 0.039999999 0.52287865 0.32315677 0.19972187
0.022304874 0.0090811886 0.039999999 0.52287865 0.32315677 0.19972187
0.02090431 0.011351606 0.039999999 0.52287865 0.32315677 0.19972187
0.019501876 0.013620791 0.039999999 0.52287865 0.32315677 0.19972187
0.018097505 0.015888855 0.039999999 0.52287865 0.32315677 0.19972187
0.016691128 0.018155908 0.039999999 0.52287865 0.32315677 0.19972187
0.015282677 0.02042206 0.039999999 0.52287865 0.32315677 0.19972187
0.013872083 0.02268742 0.039999999 0.52287865 0.32315677 0.19972187
0.012459277 0.024952099 0.039999999 0.52287865 0.32315677 0.19972187
0.01104419 0.027216204 0.039999999 0.52287865 0.32315677 0.19972187
0.0096267527 0.029479848 0.039999999 0.52287865 0.32315677 0.19972187
0.03516781 0.047008749 0.048366979 0.52287865 0.32315677 0.19972187
0.038134802 0.051570706 0.049702343 0.52287865 0.32315677 0.19972187
0.039372351 0.055124115 0.050497342 0.52287865 0.32315677 0.19972187
0.039905824 0.058262374 0.051072031 0.52287865 0.32315677 0.19972187
0.03993988 0.06110923 0.051491044 0.52287865 0.32315677 0.19972187
0.03962202 0.063752837 0.051800828 0.52287865 0.32315677 0.19972187
0.038998105 0.06622389 0.052016299 0.52287865 0.32315677 0.19972187
0.038079407 0.068533771 0.05214167 0.52287865 0.32315677 0.19972187
0.036877636 0.070693798 0.052181263 0.52287865 0.32315677 0.19972187
0.035403103 0.072714254 0.052138913 0.52287865 0.32315677 0.19972187
0.033636976 0.07459031 0.052009635 0.52287865 0.32315677 0.19972187
0.031544801 0.076309696 0.051783789 0.52287865 0.32315677 0.19972187
0.029026531 0.077828273 0.051432144 0.52287865 0.32315677 0.19972187
0.025926685 0.079076886 0.050909199 0.52287865 0.32315677 0.19972187
0.021873372 0.0798847 0.050105333 0.52287865 0.32315677 0.19972187
0.014909904 0.079328336 0.04844014 0.52287865 0.32315677 0.19972187
0.039083298 0.00099359499 0.039999999 0.52287865 0.32315677 0.19972187
0.037713032 0.0032371089 0.039999999 0.52287865 0.32315677 0.19972187
0.036341503 0.0054788901 0.039999999 0.52287865 0.32315677 0.19972187
0.034968648 0.007719045 0.039999999 0.52287865 0.32315677 0.19972187
0.033594403 0.0099576814 0.039999999 0.52287865 0.32315677 0.19972187
0.032218706 0.012194905 0.039999999 0.52287865 0.32315677 0.19972187
0.030841487 0.014430823 0.039999999 0.52287865 0.32315677 0.19972187
0.02946268 0.016665541 0.039999999 0.52287865 0.32315677 0.19972187
0.028082224 0.018899165 0.039999999 0.52287865 0.32315677 0.19972187
0.026700052 0.021131802 0.039999999 0.52287865 0.32315677 0.19972187
0.025316099 0.023363559 0.039999999 0.52287865 0.32315677 0.19972187
0.023930296 0.025594538 0.039999999 0.52287865 0.32315677 0.19972187
0.022542579 0.027824849 0.039999999 0.52287865 0.32315677 0.19972187
0.021152882 0.030054593 0.039999999 0.52287865 0.32315677 0.19972187
0.019761138 0.03228388 0.039999999 0.52287865 0.32315677 0.19972187
0.018367281 0.034512814 0.039999999 0.52287865 0.32315677 0.19972187
0.035224408 0.04707538 0.045762774 0.52287865 0.32315677 0.19972187
0.03815975 0.051622905 0.047111303 0.52287865 0.32315677 0.19972187
0.039386109 0.055173665 0.047916528 0.52287865 0.32315677 0.19972187
0.039908372 0.058309406 0.048497576 0.52287865 0.32315677 0.19972187
0.039937284 0.061157171 0.04892211 0.52287865 0.32315677 0.19972187
0.039614022 0.063801616 0.049235392 0.52287865 0.32315677 0.19972187
0.038984366 0.066273384 0.049452562 0.52287865 0.32315677 0.19972187
0.038054306 0.068581112 0.04957629 0.52287865 0.32315677 0.19972187
0.036845408 0.070741341 0.049614016 0.52287865 0.32315677 0.19972187
0.035362862 0.072761625 0.049568061 0.52287865 0.32315677 0.19972187
0.033587601 0.074637078 0.04943328 0.52287865 0.32315677 0.19972187
0.031484839 0.076355278 0.049199764 0.52287865 0.32315677 0.19972187
0.028943537 0.077866673 0.048834421 0.52287865 0.32315677 0.19972187
0.025825676 0.07911092 0.04829631 0.52287865 0.32315677 0.19972187
0.021725561 0.079900779 0.047463618 0.52287865 0.32315677 0.19972187
0.014474976 0.079212233 0.045681838 0.52287865 0.32315677 0.19972187
0.037641175 0 0.036779784 0.52287865 0.32315677 0.19972187
0.039999999 0.0047166152 0.038030915 0.52287865 0.32315677 0.19972187
0.039999999 0.0078436583 0.038487725 0.52287865 0.32315677 0.19972187
0.039999999 0.010952333 0.038942341 0.52287865 0.32315677 0.19972187
0.039999999 0.014042916 0.0393948 0.52287865 0.32315677 0.19972187
0.039999999 0.017115677 0.039845135 0.52287865 0.32315677 0.19972187
0.039111402 0.019613329 0.039999999 0.52287865 0.32315677 0.19972187
0.037753683 0.021813467 0.039999999 0.52287865 0.32315677 0.19972187
0.036394518 0.024012642 0.039999999 0.52287865 0.32315677 0.19972187
0.035033844 0.026210954 0.039999999 0.52287865 0.32315677 0.19972187
0.033671603 0.028408509 0.039999999 0.52287865 0.32315677 0.19972187
0.032307722 0.030605406 0.039999999 0.52287865 0.32315677 0.19972187
0.030942146 0.032801747 0.039999999 0.52287865 0.32315677 0.19972187
0.029574806 0.034997635 0.039999999 0.52287865 0.32315677 0.19972187
0.028205641 0.037193168 0.039999999 0.52287865 0.32315677 0.19972187
0.026834585 0.039388455 0.039999999 0.52287865 0.32315677 0.19972187
0.035281129 0.047142155 0.043153085 0.52287865 0.32315677 0.19972187
0.038179401 0.051672224 0.044512779 0.52287865 0.32315677 0.19972187
0.039399896 0.055223327 0.045329861 0.52287865 0.32315677 0.19972187
0.039910927 0.05835655 0.045917183 0.52287865 0.32315677 0.19972187
0.03993468 0.061205223 0.046347208 0.52287865 0.32315677 0.19972187
0.039606005 0.0638505 0.046663951 0.52287865 0.32315677 0.19972187
0.038970593 0.066322997 0.04688279 0.52287865 0.32315677 0.19972187
0.038029145 0.068628572 0.047004763 0.52287865 0.32315677 0.19972187
0.036813103 0.070788987 0.047040563 0.52287865 0.32315677 0.19972187
0.035322517 0.072809123 0.046990924 0.52287865 0.32315677 0.19972187
0.033538099 0.074683964 0.046850547 0.52287865 0.32315677 0.19972187
0.031424727 0.076400973 0.046609245 0.52287865 0.32315677 0.19972187
0.028860327 0.077905171 0.046229947 0.52287865 0.32315677 0.19972187
0.025724396 0.079145052 0.045676462 0.52287865 0.32315677 0.19972187
0.021577328 0.079916902 0.044814397 0.52287865 0.32315677 0.19972187
0.013824116 0.078992918 0.042846598 0.52287865 0.32315677 0.19972187
0.0031736903 0.076769121 0.039999999 0.52287865 0.32315677 0.19972187
0.0017572719 0.078977436 0.039999999 0.52287865 0.32315677 0.19972187
0.037691258 0 0.034045901 0.52287865 0.32315677 0.19972187
0.039999999 0.0046880161 0.03530214 0.52287865 0.32315677 0.19972187
0.039999999 0.0078196013 0.035767678 0.52287865 0.32315677 0.19972187
0.039999999 0.010932765 0.036230918 0.52287865 0.32315677 0.19972187
0.039999999 0.014027784 0.036691893 0.52287865 0.32315677 0.19972187
0.039999999 0.017104929 0.037150644 0.52287865 0.32315677 0.19972187
0.039999999 0.020164473 0.037607204 0.52287865 0.32315677 0.19972187
0.039999999 0.023206677 0.038061611 0.52287865 0.32315677 0.19972187
0.039999999 0.026231803 0.038513899 0.52287865 0.32315677 0.19972187
0.039999999 0.029240103 0.038964104 0.52287865 0.32315677 0.19972187
0.039999999 0.03223183 0.039412256 0.52287865 0.32315677 0.19972187
0.039999999 0.035207234 0.039858393 0.52287865 0.32315677 0.19972187
0.039083593 0.037625704 0.039999999 0.52287865 0.32315677 0.19972187
0.037737895 0.039788757 0.039999999 0.52287865 0.32315677 0.19972187
0.03639058 0.041951559 0.039999999 0.52287865 0.32315677 0.19972187
0.035041586 0.04411421 0.039999999 0.52287865 0.32315677 0.19972187
0.035337973 0.047209073 0.040537789 0.52287865 0.32315677 0.19972187
0.038199097 0.051721659 0.041908294 0.52287865 0.32315677 0.19972187
0.039413717 0.055273104 0.042737223 0.52287865 0.32315677 0.19972187
0.039913487 0.058403801 0.043330729 0.52287865 0.32315677 0.19972187
0.039932068 0.061253387 0.043766223 0.52287865 0.32315677 0.19972187
0.03959797 0.06389951 0.044086397 0.52287865 0.32315677 0.19972187
0.038956784 0.066372722 0.044306859 0.52287865 0.32315677 0.19972187
0.038003925 0.068676144 0.04442697 0.52287865 0.32315677 0.19972187
0.036780719 0.07083676 0.044460777 0.52287865 0.32315677 0.19972187
0.035282075 0.072856732 0.044407379 0.52287865 0.32315677 0.19972187
0.033488475 0.07473097 0.04426131 0.52287865 0.32315677 0.19972187
0.031364463 0.076446787 0.044012118 0.52287865 0.32315677 0.19972187
0.028776897 0.077943772 0.043618601 0.52287865 0.32315677 0.19972187
0.025622845 0.079179272 0.043049529 0.52287865 0.32315677 0.19972187
0.021428671 0.079933077 0.042157538 0.52287865 0.32315677 0.19972187
0.013177788 0.078776233 0.039999999 0.52287865 0.32315677 0.19972187
0.0097829336 0.079999998 0.039372601 0.52287865 0.32315677 0.19972187
1.110223e-16 0.07825698 0.036758546 0.52287865 0.32315677 0.19972187
0.039999999 0.0015044467 0.03208968 0.52287865 0.32315677 0.19972187
0.039999999 0.0046593449 0.032566439 0.52287865 0.32315677 0.19972187
0.039999999 0.0077954838 0.033040751 0.52287865 0.32315677 0.19972187
0.039999999 0.010913147 0.033512659 0.52287865 0.32315677 0.19972187
0.039999999 0.014012613 0.033982199 0.52287865 0.32315677 0.19972187
0.039999999 0.017094156 0.034449406 0.52287865 0.32315677 0.19972187
0.0078748148 0 0.023949927 0.52287865 0.32315677 0.19972187
0.039999999 0.023204548 0.035376985 0.52287865 0.32315677 0.19972187
0.039999999 0.026233921 0.035837431 0.52287865 0.32315677 0.19972187
0.039999999 0.029246423 0.03629569 0.52287865 0.32315677 0.19972187
0.039999999 0.032242309 0.036751803 0.52287865 0.32315677 0.19972187
0.039999999 0.035221823 0.037205804 0.52287865 0.32315677 0.19972187
0 0.01457915 0.024232889 0.52287865 0.32315677 0.19972187
0.039999999 0.041132715 0.0381076 0.52287865 0.32315677 0.19972187
0.039999999 0.04406457 0.038555462 0.52287865 0.32315677 0.19972187
0.039999999 0.046981011 0.039001349 0.52287865 0.32315677 0.19972187
0.039999999 0.049882267 0.039445285 0.52287865 0.32315677 0.19972187
0.039999999 0.052768566 0.039887305 0.52287865 0.32315677 0.19972187
0.039427567 0.055323001 0.04013849 0.52287865 0.32315677 0.19972187
0.039916057 0.058451165 0.040738095 0.52287865 0.32315677 0.19972187
0.03992945 0.061301667 0.041179027 0.52287865 0.32315677 0.19972187
0.039589915 0.063948631 0.041502602 0.52287865 0.32315677 0.19972187
0.038939297 0.066420637 0.041723456 0.52287865 0.32315677 0.19972187
0.037978642 0.068723835 0.041842792 0.52287865 0.32315677 0.19972187
0.036748249 0.070884645 0.041874543 0.52287865 0.32315677 0.19972187
0.035241529 0.07290446 0.041817307 0.52287865 0.32315677 0.19972187
0.033438724 0.074778095 0.041665453 0.52287865 0.32315677 0.19972187
0.031304043 0.076492719 0.041408252 0.52287865 0.32315677 0.19972187
0.028693244 0.07798247 0.041000251 0.52287865 0.32315677 0.19972187
0.025521014 0.079213582 0.040415384 0.52287865 0.32315677 0.19972187
0 0.069631591 0.032695439 0.52287865 0.32315677 0.19972187
0.015536005 0.079999998 0.038097683 0.52287865 0.32315677 0.19972187
0.0095766522 0.079999998 0.036642272 0.52287865 0.32315677 0.19972187
0.0035026588 0.079999998 0.035159249 0.52287865 0.32315677 0.19972187
0.039999999 0.0014710808 0.029337995 0.52287865 0.32315677 0.19972187
0.039999999 0.0046305992 0.029823681 0.52287865 0.32315677 0.19972187
0.028101554 0 0.026132315 0.52287865 0.32315677 0.19972187
0.039999999 0.010893479 0.030787433 0.52287865 0.32315677 0.19972187
0.039999999 0.013997405 0.031265579 0.52287865 0.32315677 0.19972187
0.039999999 0.017083356 0.031741291 0.52287865 0.32315677 0.19972187
0.039999999 0.020151602 0.032214608 0.52287865 0.32315677 0.19972187
0.039999999 0.023202412 0.032685567 0.52287865 0.32315677 0.19972187
0.039999999 0.026236044 0.033154208 0.52287865 0.32315677 0.19972187
0.039999999 0.02925276 0.033620566 0.52287865 0.32315677 0.19972187
0.039999999 0.032252811 0.034084681 0.52287865 0.32315677 0.19972187
0.039999999 0.035236444 0.034546584 0.52287865 0.32315677 0.19972187
0.039999999 0.03820391 0.035006311 0.52287865 0.32315677 0.19972187
0.039999999 0.041155446 0.035463903 0.52287865 0.32315677 0.19972187
0 0.02097447 0.022350552 0.52287865 0.32315677 0.19972187
0.039999999 0.047011681 0.036372796 0.52287865 0.32315677 0.19972187
0.039999999 0.049916845 0.036824171 0.52287865 0.32315677 0.19972187
0.039999999 0.052807011 0.037273537 0.52287865 0.32315677 0.19972187
0.039999999 0.055682402 0.03772093 0.52287865 0.32315677 0.19972187
0.039999999 0.058543235 0.038166381 0.52287865 0.32315677 0.19972187
0.039999999 0.061389733 0.038609922 0.52287865 0.32315677 0.19972187
0.039999999 0.064222105 0.039051581 0.52287865 0.32315677 0.19972187
0.039999999 0.067040563 0.039491396 0.52287865 0.32315677 0.19972187
0.039999999 0.069845319 0.039929386 0.52287865 0.32315677 0.19972187
0.038892191 0.072061829 0.039999999 0.52287865 0.32315677 0.19972187
0.037569124 0.074167348 0.039999999 0.52287865 0.32315677 0.19972187
0.03624412 0.076273903 0.039999999 0.52287865 0.32315677 0.19972187
0.03491712 0.078381591 0.039999999 0.52287865 0.32315677 0.19972187
0 0.063832313 0.029035658 0.52287865 0.32315677 0.19972187
0.026952643 0.079999998 0.0382732 0.52287865 0.32315677 0.19972187
0.021201085 0.079999998 0.036843434 0.52287865 0.32315677 0.19972187
0.015341216 0.079999998 0.035387069 0.52287865 0.32315677 0.19972187
0 0.075563252 0.030877694 0.52287865 0.32315677 0.19972187
0.0032831409 0.079999998 0.032391265 0.52287865 0.32315677 0.19972187
0.039999999 0.0014376272 0.026579073 0.52287865 0.32315677 0.19972187
0.039999999 0.0046017785 0.027073734 0.52287865 0.32315677 0.19972187
0.039999999 0.0077470606 0.027565731 0.52287865 0.32315677 0.19972187
0.039999999 0.01087376 0.028055109 0.52287865 0.32315677 0.19972187
0.018162228 0 0.02080044 0.52287865 0.32315677 0.19972187
0.039999999 0.017072527 0.029026166 0.52287865 0.32315677 0.19972187
0.039999999 0.020145142 0.029507926 0.52287865 0.32315677 0.19972187
0.039999999 0.02320027 0.029987227 0.52287865 0.32315677 0.19972187
0.039999999 0.026238173 0.030464109 0.52287865 0.32315677 0.19972187
0.039999999 0.029259112 0.030938607 0.52287865 0.32315677 0.19972187
0.039999999 0.032263339 0.031410761 0.52287865 0.32315677 0.19972187
0.039999999 0.035251103 0.03188061 0.52287865 0.32315677 0.19972187
1.110223e-16 0.014619697 0.018483527 0.52287865 0.32315677 0.19972187
0 0.017820105 0.018987415 0.52287865 0.32315677 0.19972187
0.039999999 0.04411808 0.03327667 0.52287865 0.32315677 0.19972187
0.039999999 0.047042426 0.033737645 0.52287865 0.32315677 0.19972187
0.039999999 0.049951509 0.034196492 0.52287865 0.32315677 0.19972187
0.039999999 0.052845549 0.034653239 0.52287865 0.32315677 0.19972187
0.039999999 0.055724777 0.035107926 0.52287865 0.32315677 0.19972187
0.039999999 0.058589414 0.035560582 0.52287865 0.32315677 0.19972187
0.039999999 0.061439671 0.036011238 0.52287865 0.32315677 0.19972187
0.039999999 0.064275764 0.036459927 0.52287865 0.32315677 0.19972187
0.039999999 0.067097917 0.036906682 0.52287865 0.32315677 0.19972187
0.039999999 0.069906317 0.037351534 0.52287865 0.32315677 0.19972187
0.039999999 0.072701186 0.037794512 0.52287865 0.32315677 0.19972187
0.039999999 0.075482719 0.038235642 0.52287865 0.32315677 0.19972187
0.039999999 0.078251116 0.038674962 0.52287865 0.32315677 0.19972187
0.037992753 0.079999998 0.038444869 0.52287865 0.32315677 0.19972187
0.032437779 0.079999998 0.037039842 0.52287865 0.32315677 0.19972187
0.026780371 0.079999998 0.035609182 0.52287865 0.32315677 0.19972187
0.021017447 0.079999998 0.034152117 0.52287865 0.32315677 0.19972187
0.015145808 0.079999998 0.032667842 0.52287865 0.32315677 0.19972187
0.0091621196 0.079999998 0.031155529 0.52287865 0.32315677 0.19972187
1.110223e-16 0.078567244 0.028611977 0.52287865 0.32315677 0.19972187
0.039999999 0.0014040844 0.02381278 0.52287865 0.32315677 0.19972187
0.039999999 0.0045728809 0.024316464 0.52287865 0.32315677 0.19972187
0.039999999 0.0077227536 0.024817374 0.52287865 0.32315677 0.19972187
0.039999999 0.010853988 0.025315557 0.52287865 0.32315677 0.19972187
0.039999999 0.013966868 0.025811052 0.52287865 0.32315677 0.19972187
0.039999999 0.017061669 0.026303902 0.52287865 0.32315677 0.19972187
0.0079077547 0 0.015301327 0.52287865 0.32315677 0.19972187
0.039999999 0.023198124 0.027281838 0.52287865 0.32315677 0.19972187
0.039999999 0.02624031 0.027767001 0.52287865 0.32315677 0.19972187
0.039999999 0.02926548 0.028249683 0.52287865 0.32315677 0.19972187
0.039999999 0.032273896 0.028729919 0.52287865 0.32315677 0.19972187
0.039999999 0.0352658 0.029207751 0.52287865 0.32315677 0.19972187
0.039999999 0.03824145 0.029683216 0.52287865 0.32315677 0.19972187
0.039999999 0.041201081 0.03015635 0.52287865 0.32315677 0.19972187
0.039999999 0.044144936 0.030627187 0.52287865 0.32315677 0.19972187
1.110223e-16 0.024203446 0.017127363 0.52287865 0.32315677 0.19972187
0.039999999 0.049986258 0.031562127 0.52287865 0.32315677 0.19972187
0.039999999 0.052884188 0.032026295 0.52287865 0.32315677 0.19972187
0.039999999 0.055767264 0.032488309 0.52287865 0.32315677 0.19972187
0.039999999 0.058635704 0.032948203 0.52287865 0.32315677 0.19972187
0.039999999 0.061489735 0.033406012 0.52287865 0.32315677 0.19972187
0.039999999 0.064329565 0.033861768 0.52287865 0.32315677 0.19972187
0.039999999 0.067155406 0.0343155 0.52287865 0.32315677 0.19972187
0.039999999 0.069967471 0.03476724 0.52287865 0.32315677 0.19972187
0.039999999 0.072765969 0.035217024 0.52287865 0.32315677 0.19972187
0.039999999 0.075551093 0.035664883 0.52287865 0.32315677 0.19972187
0.039999999 0.078323051 0.036110844 0.52287865 0.32315677 0.19972187
0.037841603 0.079999998 0.035825606 0.52287865 0.32315677 0.19972187
0.032275982 0.079999998 0.034394287 0.52287865 0.32315677 0.19972187
0.026607554 0.079999998 0.032936756 0.52287865 0.32315677 0.19972187
0.020833224 0.079999998 0.03145222 0.52287865 0.32315677 0.19972187
0.014949772 0.079999998 0.02993986 0.52287865 0.32315677 0.19972187
0 0.075763606 0.025413947 0.52287865 0.32315677 0.19972187
0.0028419576 0.079999998 0.026828211 0.52287865 0.32315677 0.19972187
0.039999999 0.0013704504 0.021038981 0.52287865 0.32315677 0.19972187
0.039999999 0.0045439051 0.021551736 0.52287865 0.32315677 0.19972187
0.039999999 0.0076983804 0.022061607 0.52287865 0.32315677 0.19972187
0.023249414 0 0.016423369 0.52287865 0.32315677 0.19972187
0.039999999 0.013951538 0.02307288 0.52287865 0.32315677 0.19972187
0.039999999 0.017050782 0.023574369 0.52287865 0.32315677 0.19972187
0.039999999 0.020132171 0.02407315 0.52287865 0.32315677 0.19972187
0.039999999 0.023195971 0.024569264 0.52287865 0.32315677 0.19972187
0.039999999 0.02624245 0.025062755 0.52287865 0.32315677 0.19972187
0.039999999 0.029271867 0.02555366 0.52287865 0.32315677 0.19972187
0.039999999 0.03228448 0.026042024 0.52287865 0.32315677 0.19972187
0.039999999 0.035280537 0.026527882 0.52287865 0.32315677 0.19972187
0.039999999 0.038260292 0.027011275 0.52287865 0.32315677 0.19972187
0.039999999 0.041223988 0.02749224 0.52287865 0.32315677 0.19972187
0.039999999 0.044171862 0.027970817 0.52287865 0.32315677 0.19972187
0.039999999 0.047104158 0.028447039 0.52287865 0.32315677 0.19972187
0.039999999 0.050021101 0.028920947 0.52287865 0.32315677 0.19972187
0.039999999 0.052922927 0.029392572 0.52287865 0.32315677 0.19972187
0.039999999 0.055809855 0.029861953 0.52287865 0.32315677 0.19972187
0.039999999 0.058682118 0.030329125 0.52287865 0.32315677 0.19972187
0.039999999 0.061539926 0.030794121 0.52287865 0.32315677 0.19972187
0.039999999 0.064383499 0.031256974 0.52287865 0.32315677 0.19972187
0.039999999 0.067213044 0.031717721 0.52287865 0.32315677 0.19972187
1.110223e-16 0.049060535 0.018297499 0.52287865 0.32315677 0.19972187
0.039999999 0.072830915 0.032633014 0.52287865 0.32315677 0.19972187
0.039999999 0.075619638 0.03308763 0.52287865 0.32315677 0.19972187
0 0.05811996 0.019774353 0.52287865 0.32315677 0.19972187
0.03768998 0.079999998 0.033198118 0.52287865 0.32315677 0.19972187
0.032113675 0.079999998 0.031740345 0.52287865 0.32315677 0.19972187
0.026434187 0.079999998 0.030255776 0.52287865 0.32315677 0.19972187
0 0.070002988 0.021714095 0.52287865 0.32315677 0.19972187
0.014753095 0.079999998 0.027202973 0.52287865 0.32315677 0.19972187
0 0.075864151 0.022671953 0.52287865 0.32315677 0.19972187
0.0026202681 0.079999998 0.024032842 0.52287865 0.32315677 0.19972187
0.039999999 0.0013367238 0.01825754 0.52287865 0.32315677 0.19972187
0.039999999 0.0045148502 0.018779416 0.52287865 0.32315677 0.19972187
0.039999999 0.0076739406 0.019298296 0.52287865 0.32315677 0.19972187
0.039999999 0.010814285 0.019814229 0.52287865 0.32315677 0.19972187
0.039999999 0.013936167 0.020327257 0.52287865 0.32315677 0.19972187
0.039999999 0.017039867 0.02083743 0.52287865 0.32315677 0.19972187
0.039999999 0.020125657 0.021344788 0.52287865 0.32315677 0.19972187
0.039999999 0.023193812 0.021849377 0.52287865 0.32315677 0.19972187
0.039999999 0.026244596 0.022351237 0.52287865 0.32315677 0.19972187
0.039999999 0.029278269 0.022850413 0.52287865 0.32315677 0.19972187
0.039999999 0.032295089 0.023346944 0.52287865 0.32315677 0.19972187
0.039999999 0.035295311 0.023840871 0.52287865 0.32315677 0.19972187
0.039999999 0.038279187 0.024332233 0.52287865 0.32315677 0.19972187
0 0.017894519 0.010332893 0.52287865 0.32315677 0.19972187
0 0.021090951 0.010859533 0.52287865 0.32315677 0.19972187
0.039999999 0.047135144 0.02579133 0.52287865 0.32315677 0.19972187
0.039999999 0.050056033 0.026272826 0.52287865 0.32315677 0.19972187
0.039999999 0.052961763 0.026751949 0.52287865 0.32315677 0.19972187
0.039999999 0.055852562 0.027228734 0.52287865 0.32315677 0.19972187
0.039999999 0.05872865 0.027703218 0.52287865 0.32315677 0.19972187
0.039999999 0.061590247 0.02817544 0.52287865 0.32315677 0.19972187
0.039999999 0.064437568 0.028645428 0.52287865 0.32315677 0.19972187
0.039999999 0.067270838 0.029113222 0.52287865 0.32315677 0.19972187
0 0.049127094 0.015484792 0.52287865 0.32315677 0.19972187
0 0.052165292 0.01598669 0.52287865 0.32315677 0.19972187
0.039999999 0.075688362 0.030503761 0.52287865 0.32315677 0.19972187
0.039999999 0.078467466 0.030963104 0.52287865 0.32315677 0.19972187
1.110223e-16 0.06119344 0.017478902 0.52287865 0.32315677 0.19972187
0.031950846 0.079999998 0.02907788 0.52287865 0.32315677 0.19972187
0.026260257 0.079999998 0.0275661 0.52287865 0.32315677 0.19972187
0.020462982 0.079999998 0.026026106 0.52287865 0.32315677 0.19972187
0.014555768 0.079999998 0.024457034 0.52287865 0.32315677 0.19972187
0.0085352268 0.079999998 0.02285799 0.52287865 0.32315677 0.19972187
0.0023978306 0.079999998 0.021228041 0.52287865 0.32315677 0.19972187
0.039999999 0.0013029028 0.015468319 0.52287865 0.32315677 0.19972187
0.039999999 0.0044857138 0.015999364 0.52287865 0.32315677 0.19972187
0.039999999 0.0076494333 0.016527303 0.52287865 0.32315677 0.19972187
0.039999999 0.010794351 0.017052181 0.52287865 0.32315677 0.19972187
0.039999999 0.013920753 0.01757405 0.52287865 0.32315677 0.19972187
0.013138994 0 0.0079895118 0.52287865 0.32315677 0.19972187
0.039999999 0.020119129 0.018608935 0.52287865 0.32315677 0.19972187
0.039999999 0.023191648 0.019122042 0.52287865 0.32315677 0.19972187
0.039999999 0.026246747 0.019632317 0.52287865 0.32315677 0.19972187
0.039999999 0.02928469 0.020139804 0.52287865 0.32315677 0.19972187
0.039999999 0.032305732 0.020644547 0.52287865 0.32315677 0.19972187
0.039999999 0.035310127 0.021146584 0.52287865 0.32315677 0.19972187
0.039999999 0.03829813 0.021645959 0.52287865 0.32315677 0.19972187
0.039999999 0.041269984 0.022142712 0.52287865 0.32315677 0.19972187
0.039999999 0.044225931 0.022636883 0.52287865 0.32315677 0.19972187
0.039999999 0.047166213 0.023128511 0.52287865 0.32315677 0.19972187
0 0.027471239 0.0090297675 0.52287865 0.32315677 0.19972187
0.039999999 0.053000707 0.024104292 0.52287865 0.32315677 0.19972187
0.039999999 0.055895381 0.024588522 0.52287865 0.32315677 0.19972187
1.110223e-16 0.036874857 0.010602829 0.52287865 0.32315677 0.19972187
0.039999999 0.061640702 0.02554984 0.52287865 0.32315677 0.19972187
0.039999999 0.064491786 0.026027001 0.52287865 0.32315677 0.19972187
0 0.046136867 0.012152933 0.52287865 0.32315677 0.19972187
0.039999999 0.07015188 0.026974509 0.52287865 0.32315677 0.19972187
0.039999999 0.072961308 0.027444921 0.52287865 0.32315677 0.19972187
0.039999999 0.075757265 0.027913153 0.52287865 0.32315677 0.19972187
0 0.058276739 0.014185804 0.52287865 0.32315677 0.19972187
0.037385281 0.079999998 0.027917922 0.52287865 0.32315677 0.19972187
0 0.064260878 0.015188353 0.52287865 0.32315677 0.19972187
0 0.067232251 0.015686279 0.52287865 0.32315677 0.19972187
0.020276943 0.079999998 0.023299592 0.52287865 0.32315677 0.19972187
0 0.073134616 0.016675605 0.52287865 0.32315677 0.19972187
0.0083248587 0.079999998 0.020073563 0.52287865 0.32315677 0.19972187
0.0021746329 0.079999998 0.018413654 0.52287865 0.32315677 0.19972187
0.039999999 0.0012689858 0.012671178 0.52287865 0.32315677 0.19972187
0.039999999 0.0044564949 0.013211443 0.52287865 0.32315677 0.19972187
0.039999999 0.0076248562 0.013748488 0.52287865 0.32315677 0.19972187
0.039999999 0.010774361 0.014282364 0.52287865 0.32315677 0.19972187
0.039999999 0.013905296 0.014813119 0.52287865 0.32315677 0.19972187
0.039999999 0.017017944 0.015340799 0.52287865 0.32315677 0.19972187
0.039999999 0.02011258 0.015865453 0.52287865 0.32315677 0.19972187
0.0026702508 0 0.0022141212 0.52287865 0.32315677 0.19972187
0.039999999 0.026248906 0.016905859 0.52287865 0.32315677 0.19972187
0.039999999 0.029291127 0.017421704 0.52287865 0.32315677 0.19972187
0.039999999 0.032316402 0.0179347 0.52287865 0.32315677 0.19972187
0.039999999 0.035324983 0.018444892 0.52287865 0.32315677 0.19972187
0 0.014721994 0.0039779968 0.52287865 0.32315677 0.19972187
0.039999999 0.041293077 0.019457033 0.52287865 0.32315677 0.19972187
0.039999999 0.044253077 0.019959062 0.52287865 0.32315677 0.19972187
0.039999999 0.047197364 0.020458452 0.52287865 0.32315677 0.19972187
0.039999999 0.05012618 0.020955244 0.52287865 0.32315677 0.19972187
0.039999999 0.053039756 0.021449476 0.52287865 0.32315677 0.19972187
0.039999999 0.055938315 0.021941187 0.52287865 0.32315677 0.19972187
0 0.036925513 0.0077442005 0.52287865 0.32315677 0.19972187
0.039999999 0.061691292 0.022917194 0.52287865 0.32315677 0.19972187
0 0.043123737 0.0087957997 0.52287865 0.32315677 0.19972187
0.039999999 0.067386873 0.023883564 0.52287865 0.32315677 0.19972187
0.039999999 0.070213675 0.024363227 0.52287865 0.32315677 0.19972187
0.039999999 0.073026761 0.024840586 0.52287865 0.32315677 0.19972187
0.039999999 0.075826347 0.02531568 0.52287865 0.32315677 0.19972187
0.039999999 0.078612633 0.02578854 0.52287865 0.32315677 0.19972187
0.037232183 0.079999998 0.025264928 0.52287865 0.32315677 0.19972187
0.031623587 0.079999998 0.023726795 0.52287865 0.32315677 0.19972187
0 0.067322411 0.012902448 0.52287865 0.32315677 0.19972187
0.020090278 0.079999998 0.020563912 0.52287865 0.32315677 0.19972187
0.014159119 0.079999998 0.018937396 0.52287865 0.32315677 0.19972187
0.0081137689 0.079999998 0.01727959 0.52287865 0.32315677 0.19972187
0.001950662 0.079999998 0.015589519 0.52287865 0.32315677 0.19972187
0.039999999 0.0012349711 0.0098659769 0.52287865 0.32315677 0.19972187
0.039999999 0.0044271923 0.010415513 0.52287865 0.32315677 0.19972187
0.039999999 0.0076002092 0.010961716 0.52287865 0.32315677 0.19972187
0.039999999 0.010754314 0.011504637 0.52287865 0.32315677 0.19972187
0.039999999 0.013889796 0.012044326 0.52287865 0.32315677 0.19972187
0.013175597 0 0.0021849563 0.52287865 0.32315677 0.19972187
0.039999999 0.020106014 0.013114204 0.52287865 0.32315677 0.19972187
0.039999999 0.023187302 0.013644487 0.52287865 0.32315677 0.19972187
0.039999999 0.02625107 0.014171729 0.52287865 0.32315677 0.19972187
0.039999999 0.029297583 0.014695975 0.52287865 0.32315677 0.19972187
0.039999999 0.032327101 0.015217272 0.52287865 0.32315677 0.19972187
0.039999999 0.035339881 0.015735662 0.52287865 0.32315677 0.19972187
0.039999999 0.038336176 0.01625119 0.52287865 0.32315677 0.19972187
0.039999999 0.041316234 0.016763898 0.52287865 0.32315677 0.19972187
0.039999999 0.044280294 0.017273828 0.52287865 0.32315677 0.19972187
0.039999999 0.047228605 0.017781023 0.52287865 0.32315677 0.19972187
0.039999999 0.050161399 0.018285524 0.52287865 0.32315677 0.19972187
0.039999999 0.053078908 0.018787369 0.52287865 0.32315677 0.19972187
0.039999999 0.055981364 0.019286601 0.52287865 0.32315677 0.19972187
0.039999999 0.058868993 0.019783257 0.52287865 0.32315677 0.19972187
0.039999999 0.061742019 0.020277375 0.52287865 0.32315677 0.19972187
0.039999999 0.064600654 0.020768993 0.52287865 0.32315677 0.19972187
0.039999999 0.067445122 0.021258151 0.52287865 0.32315677 0.19972187
0.039999999 0.070275635 0.021744883 0.52287865 0.32315677 0.19972187
0 0.052377928 0.0075263456 0.52287865 0.32315677 0.19972187
0.039999999 0.075895622 0.022711214 0.52287865 0.32315677 0.19972187
0.039999999 0.078685507 0.023190884 0.52287865 0.32315677 0.19972187
0.037078582 0.079999998 0.022603147 0.52287865 0.32315677 0.19972187
0 0.064433865 0.0095990961 0.52287865 0.32315677 0.19972187
0.025734995 0.079999998 0.019443436 0.52287865 0.32315677 0.19972187
0.019902976 0.079999998 0.017818911 0.52287865 0.32315677 0.19972187
0 0.073330149 0.011128335 0.52287865 0.32315677 0.19972187
0.007901947 0.079999998 0.014475915 0.52287865 0.32315677 0.19972187
0.0017259059 0.079999998 0.012755482 0.52287865 0.32315677 0.19972187
0.039999999 0.0012008569 0.0070525729 0.52287865 0.32315677 0.19972187
0.039999999 0.0043978044 0.0076114316 0.52287865 0.32315677 0.19972187
0.039999999 0.0075754905 0.0081668431 0.52287865 0.32315677 0.19972187
0.039999999 0.01073421 0.0087188603 0.52287865 0.32315677 0.19972187
0.039999999 0.01387425 0.0092675341 0.52287865 0.32315677 0.19972187
0.039999999 0.016995896 0.0098129148 0.52287865 0.32315677 0.19972187
0.039999999 0.020099428 0.010355051 0.52287865 0.32315677 0.19972187
0.039999999 0.023185119 0.010893993 0.52287865 0.32315677 0.19972187
0.039999999 0.02625324 0.011429787 0.52287865 0.32315677 0.19972187
0.039999999 0.029304057 0.011962482 0.52287865 0.32315677 0.19972187
0.0077819424 0.012934156 0 0.52287865 0.32315677 0.19972187
0.039999999 0.035354823 0.013018754 0.52287865 0.32315677 0.19972187
0.039999999 0.03835528 0.013542424 0.52287865 0.32315677 0.19972187
0.0034231727 0.01999251 0 0.52287865 0.32315677 0.19972187
0.039999999 0.04430759 0.014581048 0.52287865 0.32315677 0.19972187
0.039999999 0.047259934 0.015096089 0.52287865 0.32315677 0.19972187
0.039999999 0.050196715 0.01560834 0.52287865 0.32315677 0.19972187
0.039999999 0.053118173 0.016117841 0.52287865 0.32315677 0.19972187
0 0.033896226 0.0014574886 0.52287865 0.32315677 0.19972187
0.039999999 0.058916032 0.017128756 0.52287865 0.32315677 0.19972187
0.039999999 0.061792888 0.017630249 0.52287865 0.32315677 0.19972187
0.039999999 0.064655319 0.018129155 0.52287865 0.32315677 0.19972187
0.039999999 0.067503534 0.018625507 0.52287865 0.32315677 0.19972187
0.039999999 0.070337765 0.019119345 0.52287865 0.32315677 0.19972187
0.039999999 0.073158212 0.019610707 0.52287865 0.32315677 0.19972187
0 0.055488572 0.005220341 0.52287865 0.32315677 0.19972187
0.039999999 0.078758575 0.020586146 0.52287865 0.32315677 0.19972187
0.036924466 0.079999998 0.019932432 0.52287865 0.32315677 0.19972187
0.031294134 0.079999998 0.01833987 0.52287865 0.32315677 0.19972187
0.025558721 0.079999998 0.016717508 0.52287865 0.32315677 0.19972187
0.01971503 0.079999998 0.01506444 0.52287865 0.32315677 0.19972187
0.013759737 0.079999998 0.013379724 0.52287865 0.32315677 0.19972187
0.0076893796 0.079999998 0.011662379 0.52287865 0.32315677 0.19972187
0.0015003516 0.079999998 0.0099113807 0.52287865 0.32315677 0.19972187
0.038250424 0 0.0035225151 0.52287865 0.32315677 0.19972187
0.039999999 0.004368329 0.0047990563 0.52287865 0.32315677 0.19972187
0.039999999 0.0075506987 0.0053637289 0.52287865 0.32315677 0.19972187
0.039999999 0.010714045 0.0059248921 0.52287865 0.32315677 0.19972187
0.039999999 0.013858658 0.0064826002 0.52287865 0.32315677 0.19972187
0.039999999 0.016984824 0.0070369043 0.52287865 0.32315677 0.19972187
0.020929908 0.0081240665 0 0.52287865 0.32315677 0.19972187
0.039999999 0.02318293 0.0081355032 0.52287865 0.32315677 0.19972187
0.018060649 0.012765852 0 0.52287865 0.32315677 0.19972187
0.039999999 0.029310551 0.0092210853 0.52287865 0.32315677 0.19972187
0.039999999 0.032348592 0.009759116 0.52287865 0.32315677 0.19972187
0.039999999 0.035369806 0.010294036 0.52287865 0.32315677 0.19972187
0.039999999 0.038374439 0.010825891 0.52287865 0.32315677 0.19972187
0.039999999 0.04136274 0.011354727 0.52287865 0.32315677 0.19972187
0.039999999 0.044334967 0.011880587 0.52287865 0.32315677 0.19972187
0.039999999 0.04729135 0.012403517 0.52287865 0.32315677 0.19972187
0.039999999 0.050232131 0.012923558 0.52287865 0.32315677 0.19972187
0.039999999 0.053157549 0.013440755 0.52287865 0.32315677 0.19972187
0.039999999 0.056067832 0.013955149 0.52287865 0.32315677 0.19972187
0.039999999 0.058963206 0.014466779 0.52287865 0.32315677 0.19972187
0.00085743028 0.040661644 2.7755576e-17 0.52287865 0.32315677 0.19972187
0.039999999 0.064710125 0.015481917 0.52287865 0.32315677 0.19972187
0.039999999 0.067562111 0.015985504 0.52287865 0.32315677 0.19972187
0.039999999 0.070400067 0.016486486 0.52287865 0.32315677 0.19972187
0.039999999 0.073224209 0.016984904 0.52287865 0.32315677 0.19972187
0.039999999 0.076034732 0.017480794 0.52287865 0.32315677 0.19972187
0.039999999 0.078831851 0.017974192 0.52287865 0.32315677 0.19972187
0 0.061607342 0.0034504561 0.52287865 0.32315677 0.19972187
0.031128563 0.079999998 0.015632596 0.52287865 0.32315677 0.19972187
0 0.067594364 0.0045058676 0.52287865 0.32315677 0.19972187
0.019526426 0.079999998 0.012300341 0.52287865 0.32315677 0.19972187
0.013558993 0.079999998 0.010586237 0.52287865 0.32315677 0.19972187
0.0074760551 0.079999998 0.0088388221 0.52287865 0.32315677 0.19972187
0.0012739863 0.079999998 0.0070570526 0.52287865 0.32315677 0.19972187
0.039999999 0.0011323232 0.0014005806 0.52287865 0.32315677 0.19972187
0.039999999 0.0043387655 0.0019782432 0.52287865 0.32315677 0.19972187
0.033749461 0.0034402036 0 0.52287865 0.32315677 0.19972187
0.039999999 0.010693821 0.0031225898 0.52287865 0.32315677 0.19972187
0.039999999 0.013843021 0.0036893827 0.52287865 0.32315677 0.19972187
0.039999999 0.016973719 0.0042526601 0.52287865 0.32315677 0.19972187
0.039999999 0.020086199 0.0048124748 0.52287865 0.32315677 0.19972187
0.039999999 0.023180734 0.0053688772 0.52287865 0.32315677 0.19972187
0.025244744 0.017185293 0 0.52287865 0.32315677 0.19972187
0.039999999 0.029317062 0.0064716483 0.52287865 0.32315677 0.19972187
0.039999999 0.032359388 0.0070181154 0.52287865 0.32315677 0.19972187
0.039999999 0.03538483 0.0075613679 0.52287865 0.32315677 0.19972187
0.039999999 0.03839365 0.008101454 0.52287865 0.32315677 0.19972187
0.039999999 0.041386098 0.0086384192 0.52287865 0.32315677 0.19972187
0.039999999 0.044362418 0.0091723092 0.52287865 0.32315677 0.19972187
0.039999999 0.047322854 0.0097031696 0.52287865 0.32315677 0.19972187
0.039999999 0.050267652 0.010231045 0.52287865 0.32315677 0.19972187
0.012514443 0.037830871 0 0.52287865 0.32315677 0.19972187
0.039999999 0.056111246 0.011278015 0.52287865 0.32315677 0.19972187
0.0096867215 0.042428419 0 0.52287865 0.32315677 0.19972187
0.008272727 0.044728998 0 0.52287865 0.32315677 0.19972187
0.039999999 0.064765096 0.012827151 0.52287865 0.32315677 0.19972187
0.0054442221 0.049334187 0 0.52287865 0.32315677 0.19972187
0.039999999 0.070462547 0.013846174 0.52287865 0.32315677 0.19972187
0.039999999 0.073290385 0.014351685 0.52287865 0.32315677 0.19972187
0.039999999 0.076104581 0.01485458 0.52287865 0.32315677 0.19972187
0 0.058672387 8.2573744e-05 0.52287865 0.32315677 0.19972187
1.110223e-16 0.061690807 0.00062158593 0.52287865 0.32315677 0.19972187
0.030962417 0.079999998 0.012915915 0.52287865 0.32315677 0.19972187
0.025204329 0.079999998 0.01123718 0.52287865 0.32315677 0.19972187
0.019337155 0.079999998 0.0095264604 0.52287865 0.32315677 0.19972187
0 0.073625438 0.002750922 0.52287865 0.32315677 0.19972187
0.0072619612 0.079999998 0.0060050841 0.52287865 0.32315677 0.19972187
0.0010467969 0.079999998 0.0041923332 0.52287865 0.32315677 0.19972187
0.039999999 0.010673535 0.00031180808 0.52287865 0.32315677 0.19972187
0.039999999 0.013827336 0.00088773767 0.52287865 0.32315677 0.19972187
0.039999999 0.016962582 0.0014600394 0.52287865 0.32315677 0.19972187
0.035044599 0.016969314 0 0.52287865 0.32315677 0.19972187
0.039999999 0.023178533 0.0025939732 0.52287865 0.32315677 0.19972187
0.039999999 0.026259789 0.0031557099 0.52287865 0.32315677 0.19972187
0.039999999 0.029323595 0.0037140285 0.52287865 0.32315677 0.19972187
0.039999999 0.03237021 0.0042689792 0.52287865 0.32315677 0.19972187
0.039999999 0.035399903 0.0048206109 0.52287865 0.32315677 0.19972187
0.026660543 0.030546911 0 0.52287865 0.32315677 0.19972187
0.039999999 0.041409522 0.0059141121 0.52287865 0.32315677 0.19972187
0.039999999 0.044389952 0.0064560766 0.52287865 0.32315677 0.19972187
0.039999999 0.047354456 0.0069949119 0.52287865 0.32315677 0.19972187
0.039999999 0.050303273 0.0075306641 0.52287865 0.32315677 0.19972187
0.039999999 0.053236641 0.0080633778 0.52287865 0.32315677 0.19972187
0.039999999 0.056154791 0.0085930973 0.52287865 0.32315677 0.19972187
0.039999999 0.059057955 0.0091198655 0.52287865 0.32315677 0.19972187
0.039999999 0.061946359 0.0096437251 0.52287865 0.32315677 0.19972187
0.039999999 0.064820223 0.01016472 0.52287865 0.32315677 0.19972187
