# .PCD v0.7 - Point Cloud Data file format
VERSION 0.7
FIELDS x y z vp_x vp_y vp_z
SIZE 4 4 4 4 4 4
TYPE F F F F F F
COUNT 1 1 1 1 1 1
WIDTH 701
HEIGHT 1
VIEWPOINT 0 0 0 1 0 0 0
POINTS 701
DATA ascii
0.039697621 0.063291766 0.06900087 0.52287865 0.32315677 -0.19972187
0.039074574 0.065948449 0.068599135 0.52287865 0.32315677 -0.19972187
0.038134132 0.068430558 0.068376705 0.52287865 0.32315677 -0.19972187
0.036852069 0.070731513 0.068345428 0.52287865 0.32315677 -0.19972187
0.035265192 0.07287661 0.068483472 0.52287865 0.32315677 -0.19972187
0.033351764 0.074860461 0.068801358 0.52287865 0.32315677 -0.19972187
0.031050181 0.076658204 0.069331318 0.52287865 0.32315677 -0.19972187
0.039005838 0.053803965 0.068685889 0.52287865 0.32315677 -0.19972187
0.039789945 0.057271287 0.067495458 0.52287865 0.32315677 -0.19972187
0.039978925 0.060388815 0.066641517 0.52287865 0.32315677 -0.19972187
0.039706156 0.063239701 0.066047847 0.52287865 0.32315677 -0.19972187
0.039089318 0.065895349 0.065647706 0.52287865 0.32315677 -0.19972187
0.038159192 0.068378493 0.065422617 0.52287865 0.32315677 -0.19972187
0.036886945 0.070680074 0.065386847 0.52287865 0.32315677 -0.19972187
0.035308905 0.072825141 0.06551905 0.52287865 0.32315677 -0.19972187
0.033405591 0.074809477 0.06582842 0.52287865 0.32315677 -0.19972187
0.03112519 0.076613069 0.066341534 0.52287865 0.32315677 -0.19972187
0.028304938 0.078162126 0.067144543 0.52287865 0.32315677 -0.19972187
0.024795419 0.079393193 0.068315521 0.52287865 0.32315677 -0.19972187
0.03710575 0.049642663 0.06751734 0.52287865 0.32315677 -0.19972187
0.038991507 0.053752344 0.065726511 0.52287865 0.32315677 -0.19972187
0.03978131 0.057218637 0.064546801 0.52287865 0.32315677 -0.19972187
0.039981671 0.060338151 0.063696735 0.52287865 0.32315677 -0.19972187
0.03971466 0.063187853 0.063107103 0.52287865 0.32315677 -0.19972187
0.039104 0.065842465 0.062708594 0.52287865 0.32315677 -0.19972187
0.038180597 0.068324775 0.062482882 0.52287865 0.32315677 -0.19972187
0.036921673 0.070628852 0.062440809 0.52287865 0.32315677 -0.19972187
0.035352435 0.072773904 0.062567286 0.52287865 0.32315677 -0.19972187
0.033459183 0.074758716 0.062868275 0.52287865 0.32315677 -0.19972187
0.031199869 0.076568134 0.063364834 0.52287865 0.32315677 -0.19972187
0.028395629 0.078120165 0.064150825 0.52287865 0.32315677 -0.19972187
0.02492442 0.079364806 0.065288857 0.52287865 0.32315677 -0.19972187
0.020082427 0.079973489 0.067149661 0.52287865 0.32315677 -0.19972187
0.037062701 0.049579166 0.064564914 0.52287865 0.32315677 -0.19972187
0.038977232 0.053700928 0.062779084 0.52287865 0.32315677 -0.19972187
0.039772712 0.057166204 0.061610103 0.52287865 0.32315677 -0.19972187
0.039984405 0.060287699 0.060764 0.52287865 0.32315677 -0.19972187
0.039723124 0.06313622 0.060178433 0.52287865 0.32315677 -0.19972187
0.039118621 0.065789804 0.059781607 0.52287865 0.32315677 -0.19972187
0.03820191 0.068271279 0.059555337 0.52287865 0.32315677 -0.19972187
0.036956258 0.070577838 0.059507128 0.52287865 0.32315677 -0.19972187
0.035395782 0.072722875 0.059627984 0.52287865 0.32315677 -0.19972187
0.033512551 0.074708164 0.059920721 0.52287865 0.32315677 -0.19972187
0.031267878 0.076520212 0.060404394 0.52287865 0.32315677 -0.19972187
0.028485924 0.078078389 0.061170243 0.52287865 0.32315677 -0.19972187
0.025052834 0.079336539 0.062275898 0.52287865 0.32315677 -0.19972187
0.020287162 0.079976484 0.064076312 0.52287865 0.32315677 -0.19972187
0.037019819 0.049515914 0.061623953 0.52287865 0.32315677 -0.19972187
0.038963016 0.05364972 0.059843428 0.52287865 0.32315677 -0.19972187
0.039764151 0.057113975 0.058685172 0.52287865 0.32315677 -0.19972187
0.039987128 0.060237449 0.057843134 0.52287865 0.32315677 -0.19972187
0.039731558 0.063084796 0.057261664 0.52287865 0.32315677 -0.19972187
0.039133184 0.065737352 0.056866564 0.52287865 0.32315677 -0.19972187
0.038223136 0.068218 0.056639798 0.52287865 0.32315677 -0.19972187
0.036990695 0.070527039 0.056585614 0.52287865 0.32315677 -0.19972187
0.035438944 0.072672054 0.056700952 0.52287865 0.32315677 -0.19972187
0.033565693 0.074657828 0.056985572 0.52287865 0.32315677 -0.19972187
0.031332616 0.076471001 0.057458121 0.52287865 0.32315677 -0.19972187
0.028575825 0.078036793 0.058202595 0.52287865 0.32315677 -0.19972187
0.025180673 0.079308406 0.059276454 0.52287865 0.32315677 -0.19972187
0.020490916 0.079979472 0.061017636 0.52287865 0.32315677 -0.19972187
0.036977097 0.049452905 0.058694281 0.52287865 0.32315677 -0.19972187
0.038946483 0.053597394 0.056920614 0.52287865 0.32315677 -0.19972187
0.03975562 0.057061955 0.055771828 0.52287865 0.32315677 -0.19972187
0.039989844 0.060187396 0.054933954 0.52287865 0.32315677 -0.19972187
0.039739955 0.063033581 0.054356612 0.52287865 0.32315677 -0.19972187
0.039147686 0.065685116 0.053963285 0.52287865 0.32315677 -0.19972187
0.038244277 0.068164945 0.053736076 0.52287865 0.32315677 -0.19972187
0.037024993 0.07047645 0.05367608 0.52287865 0.32315677 -0.19972187
0.03548193 0.07262145 0.05378601 0.52287865 0.32315677 -0.19972187
0.03361861 0.074607708 0.054062635 0.52287865 0.32315677 -0.19972187
0.031397082 0.076421991 0.054524224 0.52287865 0.32315677 -0.19972187
0.028665341 0.077995382 0.055247691 0.52287865 0.32315677 -0.19972187
0.025307946 0.079280391 0.05629031 0.52287865 0.32315677 -0.19972187
0.02069133 0.079981297 0.057974629 0.52287865 0.32315677 -0.19972187
0.03693454 0.049390133 0.055775713 0.52287865 0.32315677 -0.19972187
0.038924485 0.053542189 0.054012071 0.52287865 0.32315677 -0.19972187
0.039747123 0.05701014 0.052869894 0.52287865 0.32315677 -0.19972187
0.039992545 0.060137544 0.052036282 0.52287865 0.32315677 -0.19972187
0.039748318 0.062982559 0.051463097 0.52287865 0.32315677 -0.19972187
0.039162129 0.065633088 0.05107158 0.52287865 0.32315677 -0.19972187
0.038265336 0.068112098 0.050843995 0.52287865 0.32315677 -0.19972187
0.037059154 0.070426069 0.050778341 0.52287865 0.32315677 -0.19972187
0.035524741 0.072571054 0.050882962 0.52287865 0.32315677 -0.19972187
0.033671316 0.074557781 0.051151726 0.52287865 0.32315677 -0.19972187
0.03146128 0.07637319 0.051602516 0.52287865 0.32315677 -0.19972187
0.028754476 0.077954143 0.05230533 0.52287865 0.32315677 -0.19972187
0.025422785 0.079246677 0.053323306 0.52287865 0.32315677 -0.19972187
0.020876715 0.079976276 0.054952968 0.52287865 0.32315677 -0.19972187
0.036892146 0.049327597 0.052868087 0.52287865 0.32315677 -0.19972187
0.038902573 0.053487197 0.051114649 0.52287865 0.32315677 -0.19972187
0.039738663 0.056958526 0.049979195 0.52287865 0.32315677 -0.19972187
0.039995234 0.060087889 0.049149938 0.52287865 0.32315677 -0.19972187
0.039756652 0.062931746 0.048580937 0.52287865 0.32315677 -0.19972187
0.039176516 0.065581262 0.048191283 0.52287865 0.32315677 -0.19972187
0.03828631 0.068059459 0.047963373 0.52287865 0.32315677 -0.19972187
0.037093177 0.070375882 0.04789222 0.52287865 0.32315677 -0.19972187
0.03556738 0.07252086 0.047991633 0.52287865 0.32315677 -0.19972187
0.033723801 0.074508071 0.048252661 0.52287865 0.32315677 -0.19972187
0.031525213 0.076324582 0.048692804 0.52287865 0.32315677 -0.19972187
0.028843239 0.077913076 0.049375325 0.52287865 0.32315677 -0.19972187
0.025531134 0.07921017 0.050372057 0.52287865 0.32315677 -0.19972187
0.021061253 0.079971284 0.05194509 0.52287865 0.32315677 -0.19972187
0.036849905 0.049265292 0.049971223 0.52287865 0.32315677 -0.19972187
0.038880747 0.053432412 0.048228174 0.52287865 0.32315677 -0.19972187
0.039730228 0.05690711 0.047099553 0.52287865 0.32315677 -0.19972187
0.039997917 0.060038425 0.046274744 0.52287865 0.32315677 -0.19972187
0.039764952 0.062881134 0.04570996 0.52287865 0.32315677 -0.19972187
0.039190847 0.065529644 0.045322206 0.52287865 0.32315677 -0.19972187
0.038307201 0.06800703 0.045094032 0.52287865 0.32315677 -0.19972187
0.037127066 0.070325896 0.045017533 0.52287865 0.32315677 -0.19972187
0.035609845 0.072470866 0.045111842 0.52287865 0.32315677 -0.19972187
0.033776078 0.074458547 0.045365259 0.52287865 0.32315677 -0.19972187
0.03158889 0.076276176 0.045794908 0.52287865 0.32315677 -0.19972187
0.028931631 0.077872179 0.046457488 0.52287865 0.32315677 -0.19972187
0.025639024 0.079173818 0.047433268 0.52287865 0.32315677 -0.19972187
0.021222631 0.079955488 0.048961852 0.52287865 0.32315677 -0.19972187
0.036807816 0.049203217 0.047084957 0.52287865 0.32315677 -0.19972187
0.038858999 0.053377833 0.045352474 0.52287865 0.32315677 -0.19972187
0.039721832 0.056855887 0.044230796 0.52287865 0.32315677 -0.19972187
0.039999377 0.059988488 0.043411139 0.52287865 0.32315677 -0.19972187
0.039773218 0.062830709 0.042849991 0.52287865 0.32315677 -0.19972187
0.039205126 0.065478221 0.042464178 0.52287865 0.32315677 -0.19972187
0.038328011 0.067954801 0.042235803 0.52287865 0.32315677 -0.19972187
0.037156768 0.070274003 0.042156126 0.52287865 0.32315677 -0.19972187
0.035652146 0.072421066 0.042243406 0.52287865 0.32315677 -0.19972187
0.039999999 0.077548444 0.039432615 0.52287865 0.32315677 -0.19972187
0.039156176 0.079999998 0.039202277 0.52287865 0.32315677 -0.19972187
0.029019661 0.077831455 0.043551631 0.52287865 0.32315677 -0.19972187
0.025746465 0.079137616 0.044506747 0.52287865 0.32315677 -0.19972187
0.02138035 0.07993833 0.045993119 0.52287865 0.32315677 -0.19972187
0.036765885 0.049141366 0.044209119 0.52287865 0.32315677 -0.19972187
0.038837332 0.053323455 0.042487379 0.52287865 0.32315677 -0.19972187
0.039713465 0.056804854 0.041372757 0.52287865 0.32315677 -0.19972187
0.039996553 0.059936408 0.040560454 0.52287865 0.32315677 -0.19972187
0.039999999 0.062898263 0.039892413 0.52287865 0.32315677 -0.19972187
0.039999999 0.065842979 0.039230727 0.52287865 0.32315677 -0.19972187
0.039999999 0.068772674 0.038573626 0.52287865 0.32315677 -0.19972187
0.039999999 0.071687564 0.037921045 0.52287865 0.32315677 -0.19972187
0.039999999 0.074587896 0.03727293 0.52287865 0.32315677 -0.19972187
0.039999999 0.077473879 0.036629219 0.52287865 0.32315677 -0.19972187
0.039312419 0.079999998 0.036325485 0.52287865 0.32315677 -0.19972187
0.030458082 0.078462109 0.039999999 0.52287865 0.32315677 -0.19972187
0.025853461 0.079101562 0.041592307 0.52287865 0.32315677 -0.19972187
0.021537388 0.079921246 0.043037202 0.52287865 0.32315677 -0.19972187
0.012726133 0.078622945 0.04664607 0.52287865 0.32315677 -0.19972187
0.039999999 0.05092657 0.039719149 0.52287865 0.32315677 -0.19972187
0.039999999 0.053929552 0.039047144 0.52287865 0.32315677 -0.19972187
0.039999999 0.056916591 0.038379867 0.52287865 0.32315677 -0.19972187
0.039999999 0.059887934 0.037717257 0.52287865 0.32315677 -0.19972187
0.039999999 0.062843822 0.037059251 0.52287865 0.32315677 -0.19972187
0.039999999 0.065784492 0.036405783 0.52287865 0.32315677 -0.19972187
0.039999999 0.068710171 0.035756797 0.52287865 0.32315677 -0.19972187
0.039999999 0.071621098 0.035112228 0.52287865 0.32315677 -0.19972187
0.039999999 0.074517496 0.034472022 0.52287865 0.32315677 -0.19972187
0.039999999 0.077399597 0.033836119 0.52287865 0.32315677 -0.19972187
0.039467987 0.079999998 0.033461086 0.52287865 0.32315677 -0.19972187
0.033719987 0.079999998 0.035598125 0.52287865 0.32315677 -0.19972187
0.0012659522 0.066935696 0.050537486 0.52287865 0.32315677 -0.19972187
0.021891056 0.079999998 0.0399995 0.52287865 0.32315677 -0.19972187
0.013416727 0.078855649 0.043405354 0.52287865 0.32315677 -0.19972187
0.039999999 0.038729802 0.039563805 0.52287865 0.32315677 -0.19972187
0.039999999 0.041794684 0.038881261 0.52287865 0.32315677 -0.19972187
0.039999999 0.044842653 0.038203597 0.52287865 0.32315677 -0.19972187
0.034974352 0.045008913 0.039999999 0.52287865 0.32315677 -0.19972187
0.020740053 0.040029299 0.046298988 0.52287865 0.32315677 -0.19972187
0.039999999 0.053887665 0.036199238 0.52287865 0.32315677 -0.19972187
0.039999999 0.056870542 0.035540447 0.52287865 0.32315677 -0.19972187
0.039999999 0.059837766 0.034886211 0.52287865 0.32315677 -0.19972187
0.039999999 0.062789574 0.034236476 0.52287865 0.32315677 -0.19972187
0.0048503689 0.046987362 0.050574463 0.52287865 0.32315677 -0.19972187
0.003169921 0.049236022 0.0506966 0.52287865 0.32315677 -0.19972187
0.039999999 0.071554877 0.032313645 0.52287865 0.32315677 -0.19972187
0.039999999 0.074447356 0.031681299 0.52287865 0.32315677 -0.19972187
0.039999999 0.077325575 0.031053158 0.52287865 0.32315677 -0.19972187
0.039622895 0.079999998 0.030608902 0.52287865 0.32315677 -0.19972187
0.00030386567 0.063300744 0.048678394 0.52287865 0.32315677 -0.19972187
0.028040372 0.079999998 0.034863029 0.52287865 0.32315677 -0.19972187
0.022081574 0.079999998 0.037053298 0.52287865 0.32315677 -0.19972187
0.016006412 0.079999998 0.039287467 0.52287865 0.32315677 -0.19972187
0.038840603 0.025580721 0.039999999 0.52287865 0.32315677 -0.19972187
0.039999999 0.029424129 0.038732477 0.52287865 0.32315677 -0.19972187
0.039999999 0.032536823 0.038044196 0.52287865 0.32315677 -0.19972187
0.039999999 0.03563185 0.037360892 0.52287865 0.32315677 -0.19972187
0.033223663 0.034717772 0.039999999 0.52287865 0.32315677 -0.19972187
0.039999999 0.041769985 0.036008921 0.52287865 0.32315677 -0.19972187
0.030427404 0.039295748 0.039999999 0.52287865 0.32315677 -0.19972187
0.039999999 0.047840662 0.034676034 0.52287865 0.32315677 -0.19972187
0.039999999 0.050851345 0.034016583 0.52287865 0.32315677 -0.19972187
0.039999999 0.053845931 0.033361707 0.52287865 0.32315677 -0.19972187
0.039999999 0.056824662 0.032711346 0.52287865 0.32315677 -0.19972187
0.039999999 0.05978778 0.032065436 0.52287865 0.32315677 -0.19972187
0.0069112079 0.044890419 0.047262959 0.52287865 0.32315677 -0.19972187
0.039999999 0.065668143 0.030786736 0.52287865 0.32315677 -0.19972187
0.039999999 0.06858585 0.030153826 0.52287865 0.32315677 -0.19972187
0.039999999 0.071488887 0.029525133 0.52287865 0.32315677 -0.19972187
0.039999999 0.07437747 0.028900603 0.52287865 0.32315677 -0.19972187
0.039999999 0.077251822 0.028280176 0.52287865 0.32315677 -0.19972187
0.039777149 0.079999998 0.02776874 0.52287865 0.32315677 -0.19972187
0.034051996 0.079999998 0.02984477 0.52287865 0.32315677 -0.19972187
0.02821783 0.079999998 0.031961374 0.52287865 0.32315677 -0.19972187
0.022271272 0.079999998 0.034119811 0.52287865 0.32315677 -0.19972187
0.016208798 0.079999998 0.03632139 0.52287865 0.32315677 -0.19972187
0.010026738 0.079999998 0.038567472 0.52287865 0.32315677 -0.19972187
0.039999999 0.013602322 0.039304562 0.52287865 0.32315677 -0.19972187
0.039999999 0.016802805 0.038600203 0.52287865 0.32315677 -0.19972187
0.039999999 0.019984249 0.037901059 0.52287865 0.32315677 -0.19972187
0.039999999 0.023146948 0.037207056 0.52287865 0.32315677 -0.19972187
0.039999999 0.026291192 0.036518119 0.52287865 0.32315677 -0.19972187
0.031460274 0.024222471 0.039999999 0.52287865 0.32315677 -0.19972187
0.039999999 0.032525446 0.03515517 0.52287865 0.32315677 -0.19972187
0.039999999 0.035616014 0.034481015 0.52287865 0.32315677 -0.19972187
0.039999999 0.038689237 0.033811651 0.52287865 0.32315677 -0.19972187
0.039999999 0.04174538 0.033147007 0.52287865 0.32315677 -0.19972187
0.039999999 0.044784706 0.032487024 0.52287865 0.32315677 -0.19972187
0.039999999 0.047807474 0.031831633 0.52287865 0.32315677 -0.19972187
0.039999999 0.050813936 0.031180777 0.52287865 0.32315677 -0.19972187
0.039999999 0.053804345 0.030534387 0.52287865 0.32315677 -0.19972187
0.039999999 0.056778945 0.029892404 0.52287865 0.32315677 -0.19972187
0.039999999 0.059737973 0.029254768 0.52287865 0.32315677 -0.19972187
0.0069499156 0.044853751 0.044250123 0.52287865 0.32315677 -0.19972187
0.0049230698 0.046901774 0.044533759 0.52287865 0.32315677 -0.19972187
0.039999999 0.068524025 0.027367363 0.52287865 0.32315677 -0.19972187
0.039999999 0.071423136 0.026746536 0.52287865 0.32315677 -0.19972187
0.00089644658 0.05415602 0.044419255 0.52287865 0.32315677 -0.19972187
0.039999999 0.077178329 0.025517013 0.52287865 0.32315677 -0.19972187
0.039930757 0.079999998 0.02494042 0.52287865 0.32315677 -0.19972187
0.034216948 0.079999998 0.026986275 0.52287865 0.32315677 -0.19972187
0.028394537 0.079999998 0.029072005 0.52287865 0.32315677 -0.19972187
0.022460159 0.079999998 0.031198844 0.52287865 0.32315677 -0.19972187
0.016410314 0.079999998 0.033368073 0.52287865 0.32315677 -0.19972187
0.010241347 0.079999998 0.03558103 0.52287865 0.32315677 -0.19972187
0.0039494587 0.079999998 0.037839115 0.52287865 0.32315677 -0.19972187
0.039999999 0.00064002303 0.039199509 0.52287865 0.32315677 -0.19972187
0.039999999 0.0039147036 0.038483847 0.52287865 0.32315677 -0.19972187
0.039999999 0.0071691778 0.037773579 0.52287865 0.32315677 -0.19972187
0.039999999 0.01040376 0.037068628 0.52287865 0.32315677 -0.19972187
0.039999999 0.013618757 0.036368914 0.52287865 0.32315677 -0.19972187
0.039999999 0.016814474 0.035674367 0.52287865 0.32315677 -0.19972187
0.039999999 0.01999121 0.034984909 0.52287865 0.32315677 -0.19972187
0.039999999 0.023149254 0.034300473 0.52287865 0.32315677 -0.19972187
0.026799291 0.018173266 0.039999999 0.52287865 0.32315677 -0.19972187
0.039999999 0.029410426 0.032946371 0.52287865 0.32315677 -0.19972187
0.02392455 0.022838367 0.039999999 0.52287865 0.32315677 -0.19972187
0.039999999 0.035600234 0.03161151 0.52287865 0.32315677 -0.19972187
0.039999999 0.038669061 0.030951127 0.52287865 0.32315677 -0.19972187
0.039999999 0.04172086 0.030295355 0.52287865 0.32315677 -0.19972187
0.039999999 0.044755887 0.02964413 0.52287865 0.32315677 -0.19972187
0.039999999 0.047774404 0.02899739 0.52287865 0.32315677 -0.19972187
0.039999999 0.05077666 0.028355071 0.52287865 0.32315677 -0.19972187
0.039999999 0.053762909 0.027717115 0.52287865 0.32315677 -0.19972187
0.012406277 0.041508831 0.040044077 0.52287865 0.32315677 -0.19972187
0.039999999 0.059688345 0.02645405 0.52287865 0.32315677 -0.19972187
0.0069884802 0.044817224 0.041248374 0.52287865 0.32315677 -0.19972187
0.039999999 0.06555263 0.025207726 0.52287865 0.32315677 -0.19972187
0.039999999 0.068462417 0.024590701 0.52287865 0.32315677 -0.19972187
0.039999999 0.071357615 0.023977693 0.52287865 0.32315677 -0.19972187
0.039999999 0.074238434 0.023368647 0.52287865 0.32315677 -0.19972187
0.039999999 0.077105097 0.022763511 0.52287865 0.32315677 -0.19972187
0.039999999 0.079957828 0.022162234 0.52287865 0.32315677 -0.19972187
0.034381215 0.079999998 0.024139656 0.52287865 0.32315677 -0.19972187
0.028570503 0.079999998 0.026194734 0.52287865 0.32315677 -0.19972187
0.022648249 0.079999998 0.028290205 0.52287865 0.32315677 -0.19972187
0.016610971 0.079999998 0.030427322 0.52287865 0.32315677 -0.19972187
0.010455037 0.079999998 0.032607403 0.52287865 0.32315677 -0.19972187
0.039999999 0.00067597878 0.036234234 0.52287865 0.32315677 -0.19972187
0.039999999 0.0039456738 0.035528824 0.52287865 0.32315677 -0.19972187
0.039999999 0.0071952236 0.034828681 0.52287865 0.32315677 -0.19972187
0.039999999 0.010424941 0.034133725 0.52287865 0.32315677 -0.19972187
0.026422502 0.004932058 0.039999999 0.52287865 0.32315677 -0.19972187
0.039999999 0.016826103 0.032759085 0.52287865 0.32315677 -0.19972187
0.039999999 0.019998144 0.032079257 0.52287865 0.32315677 -0.19972187
0.039999999 0.023151552 0.031404324 0.52287865 0.32315677 -0.19972187
0.039999999 0.026286613 0.030734221 0.52287865 0.32315677 -0.19972187
0.039999999 0.02940361 0.03006888 0.52287865 0.32315677 -0.19972187
0.039999999 0.032502819 0.029408231 0.52287865 0.32315677 -0.19972187
0.016227869 0.021427322 0.039999999 0.52287865 0.32315677 -0.19972187
0.039999999 0.038648959 0.028100757 0.52287865 0.32315677 -0.19972187
0.039999999 0.041696426 0.027453801 0.52287865 0.32315677 -0.19972187
0.039999999 0.044727173 0.026811279 0.52287865 0.32315677 -0.19972187
0.010443363 0.030883489 0.039999999 0.52287865 0.32315677 -0.19972187
0.039999999 0.050739516 0.025539307 0.52287865 0.32315677 -0.19972187
0.039999999 0.053721618 0.024909735 0.52287865 0.32315677 -0.19972187
0.039999999 0.056687992 0.024284357 0.52287865 0.32315677 -0.19972187
0.039999999 0.059638888 0.02366312 0.52287865 0.32315677 -0.19972187
0.039999999 0.062574536 0.023045966 0.52287865 0.32315677 -0.19972187
0.039999999 0.065495171 0.022432839 0.52287865 0.32315677 -0.19972187
0.039999999 0.068401024 0.021823684 0.52287865 0.32315677 -0.19972187
0.039999999 0.071292318 0.021218447 0.52287865 0.32315677 -0.19972187
0.039999999 0.074169278 0.020617077 0.52287865 0.32315677 -0.19972187
0.039999999 0.077032119 0.020019518 0.52287865 0.32315677 -0.19972187
0.039999999 0.079881057 0.019425722 0.52287865 0.32315677 -0.19972187
0.034544811 0.079999998 0.021304732 0.52287865 0.32315677 -0.19972187
0.028745743 0.079999998 0.023329379 0.52287865 0.32315677 -0.19972187
0.022835555 0.079999998 0.025393706 0.52287865 0.32315677 -0.19972187
0.016810784 0.079999998 0.027498947 0.52287865 0.32315677 -0.19972187
0 0.074935772 0.034423444 0.52287865 0.32315677 -0.19972187
0.0044028996 0.079999998 0.031837378 0.52287865 0.32315677 -0.19972187
0.039999999 0.00071180478 0.033279657 0.52287865 0.32315677 -0.19972187
0.039999999 0.0039765323 0.032584436 0.52287865 0.32315677 -0.19972187
0.039999999 0.0072211754 0.031894352 0.52287865 0.32315677 -0.19972187
0.039999999 0.010446046 0.031209333 0.52287865 0.32315677 -0.19972187
0.039999999 0.01365145 0.030529303 0.52287865 0.32315677 -0.19972187
0.018659825 0.0033003262 0.039999999 0.52287865 0.32315677 -0.19972187
0.039999999 0.020005055 0.02918393 0.52287865 0.32315677 -0.19972187
0.039999999 0.023153843 0.028518444 0.52287865 0.32315677 -0.19972187
0.039999999 0.026284337 0.027857672 0.52287865 0.32315677 -0.19972187
0.039999999 0.029396819 0.027201543 0.52287865 0.32315677 -0.19972187
0.039999999 0.032491565 0.026549993 0.52287865 0.32315677 -0.19972187
0.039999999 0.035568845 0.025902959 0.52287865 0.32315677 -0.19972187
0.039999999 0.038628928 0.025260376 0.52287865 0.32315677 -0.19972187
0.039999999 0.041672081 0.024622181 0.52287865 0.32315677 -0.19972187
0.039999999 0.044698559 0.023988314 0.52287865 0.32315677 -0.19972187
0.039999999 0.047708612 0.023358714 0.52287865 0.32315677 -0.19972187
0.039999999 0.050702501 0.022733323 0.52287865 0.32315677 -0.19972187
0.039999999 0.053680468 0.022112083 0.52287865 0.32315677 -0.19972187
0 0.034565654 0.039819773 0.52287865 0.32315677 -0.19972187
0.039999999 0.059589602 0.020881822 0.52287865 0.32315677 -0.19972187
0.039999999 0.062521242 0.020272693 0.52287865 0.32315677 -0.19972187
0.039999999 0.065437913 0.019667489 0.52287865 0.32315677 -0.19972187
0 0.047231685 0.037189804 0.52287865 0.32315677 -0.19972187
0.039999999 0.071227245 0.018468648 0.52287865 0.32315677 -0.19972187
0.039999999 0.074100353 0.017874906 0.52287865 0.32315677 -0.19972187
0.039999999 0.076959386 0.017284879 0.52287865 0.32315677 -0.19972187
0.039999999 0.079804547 0.016698522 0.52287865 0.32315677 -0.19972187
0.03470774 0.079999998 0.018481322 0.52287865 0.32315677 -0.19972187
0 0.06576366 0.03336788 0.52287865 0.32315677 -0.19972187
0.023022087 0.079999998 0.022509161 0.52287865 0.32315677 -0.19972187
0.017009765 0.079999998 0.024582759 0.52287865 0.32315677 -0.19972187
0.010879708 0.079999998 0.026697803 0.52287865 0.32315677 -0.19972187
0.0046281768 0.079999998 0.028855614 0.52287865 0.32315677 -0.19972187
0.039999999 0.00074750307 0.030335609 0.52287865 0.32315677 -0.19972187
0.039999999 0.0040072813 0.029650515 0.52287865 0.32315677 -0.19972187
0.039999999 0.0072470359 0.02897043 0.52287865 0.32315677 -0.19972187
0.039999999 0.010467077 0.028295284 0.52287865 0.32315677 -0.19972187
0.039999999 0.013667709 0.027625004 0.52287865 0.32315677 -0.19972187
0.039999999 0.016849233 0.02695952 0.52287865 0.32315677 -0.19972187
0.039999999 0.020011941 0.026298765 0.52287865 0.32315677 -0.19972187
0.039999999 0.023156125 0.025642671 0.52287865 0.32315677 -0.19972187
0.039999999 0.026282068 0.024991171 0.52287865 0.32315677 -0.19972187
0.039999999 0.02939005 0.0243442 0.52287865 0.32315677 -0.19972187
0.039999999 0.032480348 0.023701694 0.52287865 0.32315677 -0.19972187
0.039999999 0.035553232 0.023063589 0.52287865 0.32315677 -0.19972187
0.039999999 0.038608968 0.022429824 0.52287865 0.32315677 -0.19972187
0.039999999 0.041647818 0.021800339 0.52287865 0.32315677 -0.19972187
0.039999999 0.044670042 0.021175073 0.52287865 0.32315677 -0.19972187
0.039999999 0.047675889 0.020553967 0.52287865 0.32315677 -0.19972187
0 0.028093386 0.038132742 0.52287865 0.32315677 -0.19972187
0.039999999 0.05363946 0.019324005 0.52287865 0.32315677 -0.19972187
0.039999999 0.056597669 0.018715037 0.52287865 0.32315677 -0.19972187
0.039999999 0.059540484 0.018110003 0.52287865 0.32315677 -0.19972187
0.039999999 0.062468134 0.01750885 0.52287865 0.32315677 -0.19972187
0.039999999 0.065380849 0.016911522 0.52287865 0.32315677 -0.19972187
0.039999999 0.068278864 0.016317969 0.52287865 0.32315677 -0.19972187
0 0.050288051 0.033575274 0.52287865 0.32315677 -0.19972187
0.039999999 0.074031666 0.015141981 0.52287865 0.32315677 -0.19972187
0 0.056486752 0.032309771 0.52287865 0.32315677 -0.19972187
0.034870014 0.079999998 0.015669251 0.52287865 0.32315677 -0.19972187
0.029094078 0.079999998 0.01763368 0.52287865 0.32315677 -0.19972187
0.023207858 0.079999998 0.019636391 0.52287865 0.32315677 -0.19972187
0.017207928 0.079999998 0.021678569 0.52287865 0.32315677 -0.19972187
0.011090719 0.079999998 0.023761451 0.52287865 0.32315677 -0.19972187
0.0048525115 0.079999998 0.025886327 0.52287865 0.32315677 -0.19972187
0.038827043 0 0.027953628 0.52287865 0.32315677 -0.19972187
0.039999999 0.0040379222 0.026726892 0.52287865 0.32315677 -0.19972187
0.028882366 0 0.031254996 0.52287865 0.32315677 -0.19972187
0.039999999 0.010488034 0.025391411 0.52287865 0.32315677 -0.19972187
0.039999999 0.013683912 0.024730822 0.52287865 0.32315677 -0.19972187
0.039999999 0.016860738 0.024074908 0.52287865 0.32315677 -0.19972187
0.039999999 0.020018805 0.023423603 0.52287865 0.32315677 -0.19972187
0.039999999 0.023158399 0.022776842 0.52287865 0.32315677 -0.19972187
0.039999999 0.026279807 0.022134557 0.52287865 0.32315677 -0.19972187
0.039999999 0.029383307 0.021496689 0.52287865 0.32315677 -0.19972187
0.039999999 0.032469172 0.020863172 0.52287865 0.32315677 -0.19972187
0.039999999 0.038589075 0.019608945 0.52287865 0.32315677 -0.19972187
0 0.018302405 0.0371053 0.52287865 0.32315677 -0.19972187
0.039999999 0.044641621 0.018371399 0.52287865 0.32315677 -0.19972187
0.039999999 0.047643274 0.017758738 0.52287865 0.32315677 -0.19972187
0 0.028053578 0.035114996 0.52287865 0.32315677 -0.19972187
0.039999999 0.05359859 0.016545348 0.52287865 0.32315677 -0.19972187
0.039999999 0.056552738 0.015944511 0.52287865 0.32315677 -0.19972187
0.039999999 0.05949153 0.015347506 0.52287865 0.32315677 -0.19972187
0 0.04081627 0.032520745 0.52287865 0.32315677 -0.19972187
0.039999999 0.065323979 0.014164785 0.52287865 0.32315677 -0.19972187
0.039999999 0.06821809 0.013578965 0.52287865 0.32315677 -0.19972187
0.039999999 0.071097761 0.012996771 0.52287865 0.32315677 -0.19972187
0.039999999 0.07396321 0.012418153 0.52287865 0.32315677 -0.19972187
0.039999999 0.076814651 0.011843062 0.52287865 0.32315677 -0.19972187
0.039999999 0.079652302 0.011271451 0.52287865 0.32315677 -0.19972187
0.035031646 0.079999998 0.012868343 0.52287865 0.32315677 -0.19972187
0.029267196 0.079999998 0.014802982 0.52287865 0.32315677 -0.19972187
0.023392878 0.079999998 0.016775211 0.52287865 0.32315677 -0.19972187
0.017405285 0.079999998 0.018786194 0.52287865 0.32315677 -0.19972187
0 0.074628614 0.025709342 0.52287865 0.32315677 -0.19972187
0.005075918 0.079999998 0.022929328 0.52287865 0.32315677 -0.19972187
0.039999999 0.0008185248 0.024478434 0.52287865 0.32315677 -0.19972187
0.039999999 0.0040684571 0.023813402 0.52287865 0.32315677 -0.19972187
0.039999999 0.0072984858 0.023153132 0.52287865 0.32315677 -0.19972187
0.039999999 0.010508919 0.022497552 0.52287865 0.32315677 -0.19972187
0.039999999 0.01370006 0.021846594 0.52287865 0.32315677 -0.19972187
0.039999999 0.016872203 0.021200191 0.52287865 0.32315677 -0.19972187
0.039999999 0.020025643 0.020558281 0.52287865 0.32315677 -0.19972187
0.0027202128 0 0.036877919 0.52287865 0.32315677 -0.19972187
0.039999999 0.026277553 0.019287674 0.52287865 0.32315677 -0.19972187
0.039999999 0.029376585 0.018658852 0.52287865 0.32315677 -0.19972187
0.039999999 0.032458033 0.018034268 0.52287865 0.32315677 -0.19972187
0.039999999 0.035522167 0.017413866 0.52287865 0.32315677 -0.19972187
0 0.014994999 0.034733307 0.52287865 0.32315677 -0.19972187
0.039999999 0.041599538 0.016185358 0.52287865 0.32315677 -0.19972187
0.039999999 0.044613294 0.015577141 0.52287865 0.32315677 -0.19972187
0.039999999 0.047610771 0.014972872 0.52287865 0.32315677 -0.19972187
0.039999999 0.05059221 0.014372495 0.52287865 0.32315677 -0.19972187
0 0.031225216 0.03146138 0.52287865 0.32315677 -0.19972187
0.039999999 0.056507956 0.013183204 0.52287865 0.32315677 -0.19972187
0 0.037597582 0.030181712 0.52287865 0.32315677 -0.19972187
0.039999999 0.062362444 0.012008841 0.52287865 0.32315677 -0.19972187
0.039999999 0.065267295 0.01142713 0.52287865 0.32315677 -0.19972187
0.039999999 0.068157516 0.010848997 0.52287865 0.32315677 -0.19972187
0.039999999 0.071033336 0.010274395 0.52287865 0.32315677 -0.19972187
0.039999999 0.07389497 0.0097032739 0.52287865 0.32315677 -0.19972187
0.039999999 0.076742642 0.0091355862 0.52287865 0.32315677 -0.19972187
0.039999999 0.079576552 0.0085712839 0.52287865 0.32315677 -0.19972187
0.035192642 0.079999998 0.010078426 0.52287865 0.32315677 -0.19972187
0.02943963 0.079999998 0.011983482 0.52287865 0.32315677 -0.19972187
0.023577161 0.079999998 0.013925444 0.52287865 0.32315677 -0.19972187
0.017601848 0.079999998 0.015905455 0.52287865 0.32315677 -0.19972187
0 0.074526899 0.022823609 0.52287865 0.32315677 -0.19972187
0.0052984101 0.079999998 0.019984426 0.52287865 0.32315677 -0.19972187
0.039999999 0.00085385219 0.021564977 0.52287865 0.32315677 -0.19972187
0.039999999 0.0040988871 0.020909885 0.52287865 0.32315677 -0.19972187
0.039999999 0.0073240786 0.020259431 0.52287865 0.32315677 -0.19972187
0.023735944 0 0.027001081 0.52287865 0.32315677 -0.19972187
0.039999999 0.013716152 0.01897216 0.52287865 0.32315677 -0.19972187
0.013380805 0 0.030355841 0.52287865 0.32315677 -0.19972187
0.039999999 0.02003246 0.017702639 0.52287865 0.32315677 -0.19972187
0.0027162964 0 0.033813503 0.52287865 0.32315677 -0.19972187
0.039999999 0.026275309 0.01645036 0.52287865 0.32315677 -0.19972187
0.039999999 0.029369885 0.015830532 0.52287865 0.32315677 -0.19972187
0.039999999 0.03550671 0.014603199 0.52287865 0.32315677 -0.19972187
0.039999999 0.038549487 0.013995578 0.52287865 0.32315677 -0.19972187
0.039999999 0.041575521 0.013391911 0.52287865 0.32315677 -0.19972187
0.039999999 0.044585064 0.012792142 0.52287865 0.32315677 -0.19972187
0.039999999 0.047578372 0.012196217 0.52287865 0.32315677 -0.19972187
0.039999999 0.050555691 0.011604081 0.52287865 0.32315677 -0.19972187
0.039999999 0.05351726 0.011015681 0.52287865 0.32315677 -0.19972187
0.039999999 0.05646332 0.010430965 0.52287865 0.32315677 -0.19972187
0.039999999 0.05939411 0.0098498799 0.52287865 0.32315677 -0.19972187
0.039999999 0.062309857 0.009272377 0.52287865 0.32315677 -0.19972187
0.039999999 0.065210797 0.0086984057 0.52287865 0.32315677 -0.19972187
0 0.046968885 0.025345476 0.52287865 0.32315677 -0.19972187
0.039999999 0.070969127 0.0075608632 0.52287865 0.32315677 -0.19972187
0.039999999 0.073826961 0.006997196 0.52287865 0.32315677 -0.19972187
0.039999999 0.079501048 0.0058798352 0.52287865 0.32315677 -0.19972187
0.02961139 0.079999998 0.0091750082 0.52287865 0.32315677 -0.19972187
0.023760717 0.079999998 0.011086916 0.52287865 0.32315677 -0.19972187
0.017797628 0.079999998 0.013036171 0.52287865 0.32315677 -0.19972187
0.011718609 0.079999998 0.015023941 0.52287865 0.32315677 -0.19972187
0.0055200025 0.079999998 0.017051438 0.52287865 0.32315677 -0.19972187
0.039999999 0.00088905991 0.018661389 0.52287865 0.32315677 -0.19972187
0.039999999 0.0041292147 0.018016178 0.52287865 0.32315677 -0.19972187
0.039999999 0.0073495856 0.01737548 0.52287865 0.32315677 -0.19972187
0.039999999 0.010550478 0.016739231 0.52287865 0.32315677 -0.19972187
0.039999999 0.01373219 0.016107364 0.52287865 0.32315677 -0.19972187
0.039999999 0.016895019 0.015479814 0.52287865 0.32315677 -0.19972187
0.039999999 0.020039253 0.014856522 0.52287865 0.32315677 -0.19972187
0.039999999 0.023165176 0.014237424 0.52287865 0.32315677 -0.19972187
0.039999999 0.02627307 0.013622462 0.52287865 0.32315677 -0.19972187
0.039999999 0.029363209 0.013011574 0.52287865 0.32315677 -0.19972187
0.039999999 0.032435864 0.012404704 0.52287865 0.32315677 -0.19972187
0.039999999 0.035491306 0.011801791 0.52287865 0.32315677 -0.19972187
0.039999999 0.038529791 0.011202782 0.52287865 0.32315677 -0.19972187
0.039999999 0.041551579 0.010607622 0.52287865 0.32315677 -0.19972187
0.039999999 0.044556927 0.010016252 0.52287865 0.32315677 -0.19972187
0.039999999 0.047546081 0.0094286231 0.52287865 0.32315677 -0.19972187
0.039999999 0.050519288 0.0088446802 0.52287865 0.32315677 -0.19972187
0 0.031137435 0.025493234 0.52287865 0.32315677 -0.19972187
0.039999999 0.056418829 0.0076876446 0.52287865 0.32315677 -0.19972187
0.039999999 0.059345637 0.0071144518 0.52287865 0.32315677 -0.19972187
0.039999999 0.062257443 0.0065447423 0.52287865 0.32315677 -0.19972187
0.039999999 0.065154478 0.0059784669 0.52287865 0.32315677 -0.19972187
0.039999999 0.068036959 0.0054155788 0.52287865 0.32315677 -0.19972187
0.039999999 0.070905119 0.00485603 0.52287865 0.32315677 -0.19972187
0.039999999 0.073759161 0.0042997743 0.52287865 0.32315677 -0.19972187
0.039999999 0.079425782 0.0031969596 0.52287865 0.32315677 -0.19972187
0.035512771 0.079999998 0.0045308881 0.52287865 0.32315677 -0.19972187
0.029782485 0.079999998 0.0063773892 0.52287865 0.32315677 -0.19972187
0.023943558 0.079999998 0.0082594501 0.52287865 0.32315677 -0.19972187
0 0.071334615 0.017658381 0.52287865 0.32315677 -0.19972187
0.011926236 0.079999998 0.01213468 0.52287865 0.32315677 -0.19972187
0.0057407082 0.079999998 0.014130181 0.52287865 0.32315677 -0.19972187
0.039999999 0.00092414988 0.015767513 0.52287865 0.32315677 -0.19972187
0.039999999 0.0041594408 0.015132123 0.52287865 0.32315677 -0.19972187
0.039999999 0.007375007 0.014501124 0.52287865 0.32315677 -0.19972187
0.023669805 0 0.021097943 0.52287865 0.32315677 -0.19972187
0.039999999 0.013748175 0.013252044 0.52287865 0.32315677 -0.19972187
0.039999999 0.016906369 0.012633839 0.52287865 0.32315677 -0.19972187
0.039999999 0.020046024 0.012019773 0.52287865 0.32315677 -0.19972187
0.039999999 0.02316742 0.011409788 0.52287865 0.32315677 -0.19972187
0.039999999 0.026270838 0.010803825 0.52287865 0.32315677 -0.19972187
0.039999999 0.029356554 0.010201826 0.52287865 0.32315677 -0.19972187
0.039999999 0.032424837 0.0096037323 0.52287865 0.32315677 -0.19972187
0.039999999 0.035475951 0.0090094907 0.52287865 0.32315677 -0.19972187
0.039999999 0.038510159 0.0084190443 0.52287865 0.32315677 -0.19972187
0.039999999 0.041527718 0.007832339 0.52287865 0.32315677 -0.19972187
0.039999999 0.044528879 0.0072493218 0.52287865 0.32315677 -0.19972187
0.039999999 0.047513895 0.0066699404 0.52287865 0.32315677 -0.19972187
0.039999999 0.050483003 0.0060941428 0.52287865 0.32315677 -0.19972187
0.039999999 0.053436454 0.0055218786 0.52287865 0.32315677 -0.19972187
0.039999999 0.056374483 0.0049530976 0.52287865 0.32315677 -0.19972187
0.039999999 0.05929732 0.0043877508 0.52287865 0.32315677 -0.19972187
0.039999999 0.062205195 0.00382579 0.52287865 0.32315677 -0.19972187
0.039999999 0.065098338 0.0032671676 0.52287865 0.32315677 -0.19972187
0.039999999 0.067976967 0.0027118365 0.52287865 0.32315677 -0.19972187
0.039999999 0.070841312 0.0021597508 0.52287865 0.32315677 -0.19972187
0.039999999 0.073691584 0.0016108649 0.52287865 0.32315677 -0.19972187
0.039999999 0.07652799 0.0010651343 0.52287865 0.32315677 -0.19972187
0.039999999 0.079350755 0.00052251504 0.52287865 0.32315677 -0.19972187
0 0.062196735 0.016525824 0.52287865 0.32315677 -0.19972187
0.029952927 0.079999998 0.0035904569 0.52287865 0.32315677 -0.19972187
0.024125695 0.079999998 0.0054428764 0.52287865 0.32315677 -0.19972187
0 0.071237683 0.01479256 0.52287865 0.32315677 -0.19972187
0.012133048 0.079999998 0.009256742 0.52287865 0.32315677 -0.19972187
0.0059605418 0.079999998 0.011220472 0.52287865 0.32315677 -0.19972187
0.039999999 0.00095912401 0.012883187 0.52287865 0.32315677 -0.19972187
0.039999999 0.0041895676 0.01225756 0.52287865 0.32315677 -0.19972187
0.039999999 0.0074003455 0.011636202 0.52287865 0.32315677 -0.19972187
0.023636892 0 0.018160343 0.52287865 0.32315677 -0.19972187
0.039999999 0.013764109 0.01040605 0.52287865 0.32315677 -0.19972187
0.013324149 0 0.02137167 0.52287865 0.32315677 -0.19972187
0.0080536865 0 0.02301359 0.52287865 0.32315677 -0.19972187
0.039999999 0.023169655 0.0085913129 0.52287865 0.32315677 -0.19972187
0.039999999 0.026268614 0.007994297 0.52287865 0.32315677 -0.19972187
0.039999999 0.029349921 0.0074011344 0.52287865 0.32315677 -0.19972187
0.039999999 0.032413844 0.0068117687 0.52287865 0.32315677 -0.19972187
0.039999999 0.035460647 0.0062261461 0.52287865 0.32315677 -0.19972187
0.039999999 0.03849059 0.0056442129 0.52287865 0.32315677 -0.19972187
0.039999999 0.041503932 0.0050659152 0.52287865 0.32315677 -0.19972187
0.039999999 0.044500921 0.0044912016 0.52287865 0.32315677 -0.19972187
0.039999999 0.047481809 0.003920021 0.52287865 0.32315677 -0.19972187
0.039999999 0.053396244 0.002788058 0.52287865 0.32315677 -0.19972187
0.039999999 0.056330271 0.0022271771 0.52287865 0.32315677 -0.19972187
0.039999999 0.059249151 0.0016696324 0.52287865 0.32315677 -0.19972187
0.039999999 0.062153108 0.0011153768 0.52287865 0.32315677 -0.19972187
0.039999999 0.065042377 0.00056436373 0.52287865 0.32315677 -0.19972187
0.039999999 0.067917168 1.6547438e-05 0.52287865 0.32315677 -0.19972187
0.038719755 0.070108585 0 0.52287865 0.32315677 -0.19972187
0.037399862 0.072280563 0 0.52287865 0.32315677 -0.19972187
0.036080282 0.07445433 0 0.52287865 0.32315677 -0.19972187
0.034760971 0.076629952 0 0.52287865 0.32315677 -0.19972187
0.03344189 0.078807503 0 0.52287865 0.32315677 -0.19972187
0.030122725 0.079999998 0.00081404409 0.52287865 0.32315677 -0.19972187
0.024307139 0.079999998 0.0026370252 0.52287865 0.32315677 -0.19972187
0.018380402 0.079999998 0.0044952957 0.52287865 0.32315677 -0.19972187
0.01233906 0.079999998 0.0063899518 0.52287865 0.32315677 -0.19972187
0 0.07709194 0.010810258 0.52287865 0.32315677 -0.19972187
0.039999999 0.00099398429 0.010008257 0.52287865 0.32315677 -0.19972187
0.039999999 0.0042195967 0.0093923351 0.52287865 0.32315677 -0.19972187
0.039999999 0.0074256016 0.0087805623 0.52287865 0.32315677 -0.19972187
0.039999999 0.010612302 0.008172879 0.52287865 0.32315677 -0.19972187
0.039999999 0.01377999 0.0075692246 0.52287865 0.32315677 -0.19972187
0.013305384 0 0.018395906 0.52287865 0.32315677 -0.19972187
0.039999999 0.0200595 0.0063737668 0.52287865 0.32315677 -0.19972187
0.0027007577 0 0.021655677 0.52287865 0.32315677 -0.19972187
0 0.0016730247 0.022168228 0.52287865 0.32315677 -0.19972187
0.039999999 0.029343309 0.0046093506 0.52287865 0.32315677 -0.19972187
0.039999999 0.032402884 0.0040286626 0.52287865 0.32315677 -0.19972187
0.039999999 0.035445388 0.0034516102 0.52287865 0.32315677 -0.19972187
0.039999999 0.038471084 0.0028781409 0.52287865 0.32315677 -0.19972187
0.039999999 0.041480221 0.0023082031 0.52287865 0.32315677 -0.19972187
0.039999999 0.044473052 0.0017417462 0.52287865 0.32315677 -0.19972187
0 0.02461121 0.017820632 0.52287865 0.32315677 -0.19972187
0.039999999 0.050410781 0.00061907561 0.52287865 0.32315677 -0.19972187
0.039999999 0.053356159 6.2764477e-05 0.52287865 0.32315677 -0.19972187
0.038811751 0.055629499 0 0.52287865 0.32315677 -0.19972187
0.037472256 0.057819396 0 0.52287865 0.32315677 -0.19972187
0.03613317 0.060010687 0 0.52287865 0.32315677 -0.19972187
0.03479445 0.062203448 0 0.52287865 0.32315677 -0.19972187
0.033456054 0.064397745 0 0.52287865 0.32315677 -0.19972187
0.032117937 0.066593662 0 0.52287865 0.32315677 -0.19972187
0.030780055 0.068791263 0 0.52287865 0.32315677 -0.19972187
0.029442362 0.070990622 0 0.52287865 0.32315677 -0.19972187
0.028104819 0.073191822 0 0.52287865 0.32315677 -0.19972187
0.026767379 0.075394921 0 0.52287865 0.32315677 -0.19972187
0.025429998 0.07760001 0 0.52287865 0.32315677 -0.19972187
0.024092633 0.079807155 0 0.52287865 0.32315677 -0.19972187
0.018573176 0.079999998 0.0016700879 0.52287865 0.32315677 -0.19972187
0.012544283 0.079999998 0.0035341361 0.52287865 0.32315677 -0.19972187
0.0063976445 0.079999998 0.0054349913 0.52287865 0.32315677 -0.19972187
0.00012953182 0.079999998 0.0073738177 0.52287865 0.32315677 -0.19972187
0.039999999 0.0010287324 0.0071425675 0.52287865 0.32315677 -0.19972187
0.039999999 0.0042495294 0.0065362933 0.52287865 0.32315677 -0.19972187
0.039999999 0.0074507771 0.0059340503 0.52287865 0.32315677 -0.19972187
0.039999999 0.010632777 0.005335778 0.52287865 0.32315677 -0.19972187
0.039999999 0.013795822 0.0047414182 0.52287865 0.32315677 -0.19972187
0.039999999 0.016940203 0.0041509136 0.52287865 0.32315677 -0.19972187
0.039999999 0.020066205 0.0035642073 0.52287865 0.32315677 -0.19972187
0.039999999 0.023174109 0.0029812437 0.52287865 0.32315677 -0.19972187
0.039999999 0.026264189 0.002401968 0.52287865 0.32315677 -0.19972187
0.039999999 0.029336717 0.0018263265 0.52287865 0.32315677 -0.19972187
0.039999999 0.032391958 0.0012542662 0.52287865 0.32315677 -0.19972187
0.039999999 0.035430182 0.0006857352 0.52287865 0.32315677 -0.19972187
0.039999999 0.038451634 0.00012068221 0.52287865 0.32315677 -0.19972187
0.038931549 0.040833272 0 0.52287865 0.32315677 -0.19972187
0.037572056 0.043043889 0 0.52287865 0.32315677 -0.19972187
0.036213081 0.045255486 0 0.52287865 0.32315677 -0.19972187
0.034854576 0.047468144 0 0.52287865 0.32315677 -0.19972187
0.033496499 0.049681935 0 0.52287865 0.32315677 -0.19972187
0.032138802 0.051896937 0 0.52287865 0.32315677 -0.19972187
0.030781444 0.054113217 0 0.52287865 0.32315677 -0.19972187
0.029424375 0.056330856 0 0.52287865 0.32315677 -0.19972187
0.02806755 0.058549929 0 0.52287865 0.32315677 -0.19972187
0.026710927 0.060770508 0 0.52287865 0.32315677 -0.19972187
0 0.04973438 0.010178078 0.52287865 0.32315677 -0.19972187
0.023998098 0.065216489 0 0.52287865 0.32315677 -0.19972187
0.022641804 0.067442052 0 0.52287865 0.32315677 -0.19972187
0.021285528 0.069669418 0 0.52287865 0.32315677 -0.19972187
0.019929225 0.071898676 0 0.52287865 0.32315677 -0.19972187
0.01857285 0.074129894 0 0.52287865 0.32315677 -0.19972187
0.017216358 0.076363154 0 0.52287865 0.32315677 -0.19972187
0.015859703 0.078598529 0 0.52287865 0.32315677 -0.19972187
0.012748729 0.079999998 0.00068912399 0.52287865 0.32315677 -0.19972187
0.0066149402 0.079999998 0.0025588686 0.52287865 0.32315677 -0.19972187
0.00036015129 0.079999998 0.0044658477 0.52287865 0.32315677 -0.19972187
0.039999999 0.0010633704 0.0042859651 0.52287865 0.32315677 -0.19972187
0.039999999 0.0042793672 0.0036892835 0.52287865 0.32315677 -0.19972187
0.039999999 0.0074758735 0.0030965139 0.52287865 0.32315677 -0.19972187
0.039999999 0.010653188 0.0025075986 0.52287865 0.32315677 -0.19972187
0.039999999 0.013811603 0.0019224804 0.52287865 0.32315677 -0.19972187
0.039999999 0.01695141 0.0013411032 0.52287865 0.32315677 -0.19972187
0.039999999 0.02007289 0.00076341187 0.52287865 0.32315677 -0.19972187
0.039999999 0.023176324 0.00018935214 0.52287865 0.32315677 -0.19972187
0.03907676 0.025694339 0 0.52287865 0.32315677 -0.19972187
0.037696827 0.027928689 0 0.52287865 0.32315677 -0.19972187
0.036317531 0.030163592 0 0.52287865 0.32315677 -0.19972187
0.034938823 0.032399122 0 0.52287865 0.32315677 -0.19972187
0.033560652 0.034635354 0 0.52287865 0.32315677 -0.19972187
0 0.018095993 0.013099045 0.52287865 0.32315677 -0.19972187
0.030805748 0.039110232 0 0.52287865 0.32315677 -0.19972187
0.029428918 0.041349035 0 0.52287865 0.32315677 -0.19972187
0.028052442 0.043588843 0 0.52287865 0.32315677 -0.19972187
0.026676269 0.045829739 0 0.52287865 0.32315677 -0.19972187
0.025300357 0.048071802 0 0.52287865 0.32315677 -0.19972187
0.023924658 0.050315104 0 0.52287865 0.32315677 -0.19972187
0.022549123 0.052559722 0 0.52287865 0.32315677 -0.19972187
0 0.043480385 0.0084289629 0.52287865 0.32315677 -0.19972187
0.019798361 0.057053227 0 0.52287865 0.32315677 -0.19972187
0.018423041 0.059302267 0 0.52287865 0.32315677 -0.19972187
0.017047698 0.061552934 0 0.52287865 0.32315677 -0.19972187
0.015672287 0.063805312 0 0.52287865 0.32315677 -0.19972187
0.014296758 0.066059478 0 0.52287865 0.32315677 -0.19972187
0.012921066 0.068315506 0 0.52287865 0.32315677 -0.19972187
0.011545164 0.070573471 2.7755576e-17 0.52287865 0.32315677 -0.19972187
0.010169003 0.072833471 2.7755576e-17 0.52287865 0.32315677 -0.19972187
0.0087925373 0.075095564 0 0.52287865 0.32315677 -0.19972187
0.0074157193 0.07735984 0 0.52287865 0.32315677 -0.19972187
0.0060385014 0.079626381 0 0.52287865 0.32315677 -0.19972187
0.00058989285 0.079999998 0.0015689472 0.52287865 0.32315677 -0.19972187
0.038353864 0 0.0021240551 0.52287865 0.32315677 -0.19972187
0.039999999 0.0043091122 0.00085115427 0.52287865 0.32315677 -0.19972187
0.028525414 0 0.0050201342 0.52287865 0.32315677 -0.19972187
0.039244946 0.01018492 0 0.52287865 0.32315677 -0.19972187
0.037844084 0.012446268 2.7755576e-17 0.52287865 0.32315677 -0.19972187
0.036443986 0.014707707 0 0.52287865 0.32315677 -0.19972187
0.035044599 0.016969314 0 0.52287865 0.32315677 -0.19972187
0.033645879 0.019231169 0 0.52287865 0.32315677 -0.19972187
0.032247774 0.021493349 0 0.52287865 0.32315677 -0.19972187
0.030850237 0.023755936 0 0.52287865 0.32315677 -0.19972187
0.029453218 0.026019005 0 0.52287865 0.32315677 -0.19972187
0.02805667 0.028282637 2.7755576e-17 0.52287865 0.32315677 -0.19972187
0.026660543 0.030546911 0 0.52287865 0.32315677 -0.19972187
0.025264788 0.032811906 0 0.52287865 0.32315677 -0.19972187
0.023869358 0.035077699 0 0.52287865 0.32315677 -0.19972187
0.021079276 0.039612003 0 0.52287865 0.32315677 -0.19972187
0.019684527 0.041880671 0 0.52287865 0.32315677 -0.19972187
0.018289909 0.044150457 0 0.52287865 0.32315677 -0.19972187
0.016895374 0.046421438 0 0.52287865 0.32315677 -0.19972187
0.015500871 0.048693698 0 0.52287865 0.32315677 -0.19972187
0.014106353 0.050967313 2.7755576e-17 0.52287865 0.32315677 -0.19972187
0.012711772 0.053242363 0 0.52287865 0.32315677 -0.19972187
0.011317077 0.055518933 0 0.52287865 0.32315677 -0.19972187
0 0.052664191 0.0038632618 0.52287865 0.32315677 -0.19972187
0.0085271578 0.060076941 0 0.52287865 0.32315677 -0.19972187
0.0071318345 0.062358543 0 0.52287865 0.32315677 -0.19972187
0.0057362039 0.06464199 0 0.52287865 0.32315677 -0.19972187
0.004340217 0.066927351 0 0.52287865 0.32315677 -0.19972187
0.0029438245 0.069214717 0 0.52287865 0.32315677 -0.19972187
0.0015469776 0.071504176 0 0.52287865 0.32315677 -0.19972187
0.00014962719 0.073795795 0 0.52287865 0.32315677 -0.19972187
0.035169244 0.0011492848 0 0.52287865 0.32315677 -0.19972187
0.033749461 0.0034402036 0 0.52287865 0.32315677 -0.19972187
0.032330431 0.0057309666 0 0.52287865 0.32315677 -0.19972187
0.030912098 0.0080216555 0 0.52287865 0.32315677 -0.19972187
0.029494412 0.010312351 0 0.52287865 0.32315677 -0.19972187
0.028077325 0.012603135 0 0.52287865 0.32315677 -0.19972187
0.026660787 0.014894089 0 0.52287865 0.32315677 -0.19972187
0.025244744 0.017185293 0 0.52287865 0.32315677 -0.19972187
0.023829149 0.019476831 0 0.52287865 0.32315677 -0.19972187
0.022413949 0.02176878 0 0.52287865 0.32315677 -0.19972187
0.020999096 0.024061227 0 0.52287865 0.32315677 -0.19972187
0.01958454 0.02635425 0 0.52287865 0.32315677 -0.19972187
0.01817023 0.028647929 0 0.52287865 0.32315677 -0.19972187
