# .PCD v0.7 - Point Cloud Data file format
VERSION 0.7
FIELDS x y z vp_x vp_y vp_z
SIZE 4 4 4 4 4 4
TYPE F F F F F F
COUNT 1 1 1 1 1 1
WIDTH 604
HEIGHT 1
VIEWPOINT 0 0 0 1 0 0 0
POINTS 604
DATA ascii
0.02834796 0.041857783 0.069201127 0.64631355 0 0
0.032321531 0.044280782 0.068777144 0.64631355 0 0
0.034966908 0.046772238 0.068503022 0.64631355 0 0
0.036874741 0.04930193 0.068312705 0.64631355 0 0
0.03825492 0.051861756 0.068182714 0.64631355 0 0
0.03918568 0.054451745 0.068104342 0.64631355 0 0
0.039756853 0.057069473 0.068067551 0.64631355 0 0
0.039984725 0.059718173 0.068070576 0.64631355 0 0
0.039842989 0.062405195 0.068116404 0.64631355 0 0
0.039299302 0.065139003 0.068208747 0.64631355 0 0
0.038339231 0.067926638 0.068349279 0.64631355 0 0
0.036811531 0.070791304 0.068555102 0.64631355 0 0
0.034507409 0.073765829 0.068849809 0.64631355 0 0
0.030526679 0.076973177 0.069334917 0.64631355 0 0
0.02834796 0.041857783 0.066466145 0.64631355 0 0
0.032321531 0.044280782 0.066058919 0.64631355 0 0
0.034966908 0.046772238 0.065795638 0.64631355 0 0
0.036874741 0.04930193 0.06561283 0.64631355 0 0
0.03825492 0.051861756 0.065487981 0.64631355 0 0
0.03918568 0.054451745 0.065412708 0.64631355 0 0
0.039756853 0.057069473 0.06537737 0.64631355 0 0
0.039984725 0.059718173 0.065380275 0.64631355 0 0
0.039842989 0.062405195 0.065424293 0.64631355 0 0
0.039299302 0.065139003 0.065512985 0.64631355 0 0
0.038339231 0.067926638 0.065647967 0.64631355 0 0
0.036811531 0.070791304 0.065845653 0.64631355 0 0
0.034507409 0.073765829 0.066128708 0.64631355 0 0
0.030526679 0.076973177 0.066594645 0.64631355 0 0
0.02834796 0.041857783 0.063733727 0.64631355 0 0
0.032321531 0.044280782 0.063343234 0.64631355 0 0
0.034966908 0.046772238 0.063090779 0.64631355 0 0
0.036874741 0.04930193 0.062915489 0.64631355 0 0
0.03825492 0.051861756 0.062795773 0.64631355 0 0
0.03918568 0.054451745 0.062723592 0.64631355 0 0
0.039756853 0.057069473 0.062689714 0.64631355 0 0
0.039984725 0.059718173 0.062692493 0.64631355 0 0
0.039842989 0.062405195 0.062734708 0.64631355 0 0
0.039299302 0.065139003 0.062819749 0.64631355 0 0
0.038339231 0.067926638 0.062949181 0.64631355 0 0
0.036811531 0.070791304 0.063138738 0.64631355 0 0
0.034507409 0.073765829 0.063410163 0.64631355 0 0
0.030526679 0.076973177 0.063856944 0.64631355 0 0
0.02834796 0.041857783 0.06100376 0.64631355 0 0
0.032321531 0.044280782 0.060629994 0.64631355 0 0
0.034966908 0.046772238 0.060388349 0.64631355 0 0
0.036874741 0.04930193 0.060220573 0.64631355 0 0
0.03825492 0.051861756 0.060105979 0.64631355 0 0
0.03918568 0.054451745 0.06003689 0.64631355 0 0
0.039756853 0.057069473 0.060004462 0.64631355 0 0
0.039984725 0.059718173 0.060007125 0.64631355 0 0
0.039842989 0.062405195 0.06004753 0.64631355 0 0
0.039299302 0.065139003 0.060128931 0.64631355 0 0
0.038339231 0.067926638 0.060252815 0.64631355 0 0
0.036811531 0.070791304 0.060434256 0.64631355 0 0
0.034507409 0.073765829 0.060694054 0.64631355 0 0
0.030526679 0.076973177 0.061121698 0.64631355 0 0
0.02834796 0.041857783 0.058276135 0.64631355 0 0
0.032321531 0.044280782 0.057919085 0.64631355 0 0
0.034966908 0.046772238 0.057688244 0.64631355 0 0
0.036874741 0.04930193 0.057527967 0.64631355 0 0
0.03825492 0.051861756 0.057418499 0.64631355 0 0
0.03918568 0.054451745 0.057352498 0.64631355 0 0
0.039756853 0.057069473 0.057321519 0.64631355 0 0
0.039984725 0.059718173 0.057324063 0.64631355 0 0
0.039842989 0.062405195 0.057362661 0.64631355 0 0
0.039299302 0.065139003 0.057440422 0.64631355 0 0
0.038339231 0.067926638 0.057558771 0.64631355 0 0
0.036811531 0.070791304 0.057732094 0.64631355 0 0
0.034507409 0.073765829 0.057980277 0.64631355 0 0
0.030526679 0.076973177 0.058388799 0.64631355 0 0
0.02834796 0.041857783 0.05555075 0.64631355 0 0
0.032321531 0.044280782 0.055210397 0.64631355 0 0
0.034966908 0.046772238 0.054990351 0.64631355 0 0
0.036874741 0.04930193 0.05483757 0.64631355 0 0
0.03825492 0.051861756 0.054733224 0.64631355 0 0
0.03918568 0.054451745 0.054670308 0.64631355 0 0
0.039756853 0.057069473 0.054640777 0.64631355 0 0
0.039984725 0.059718173 0.054643203 0.64631355 0 0
0.039842989 0.062405195 0.054679997 0.64631355 0 0
0.039299302 0.065139003 0.054754119 0.64631355 0 0
0.038339231 0.067926638 0.054866932 0.64631355 0 0
0.036811531 0.070791304 0.055032153 0.64631355 0 0
0.034507409 0.073765829 0.055268731 0.64631355 0 0
0.030526679 0.076973177 0.055658147 0.64631355 0 0
0.02834796 0.041857783 0.0528275 0.64631355 0 0
0.032321531 0.044280782 0.052503832 0.64631355 0 0
0.034966908 0.046772238 0.052294571 0.64631355 0 0
0.036874741 0.04930193 0.052149281 0.64631355 0 0
0.03825492 0.051861756 0.052050047 0.64631355 0 0
0.03918568 0.054451745 0.051990218 0.64631355 0 0
0.039756853 0.057069473 0.051962137 0.64631355 0 0
0.039984725 0.059718173 0.051964443 0.64631355 0 0
0.039842989 0.062405195 0.051999431 0.64631355 0 0
0.039299302 0.065139003 0.052069921 0.64631355 0 0
0.038339231 0.067926638 0.052177206 0.64631355 0 0
0.036811531 0.070791304 0.052334324 0.64631355 0 0
0.034507409 0.073765829 0.052559301 0.64631355 0 0
0.030526679 0.076973177 0.052929629 0.64631355 0 0
0.02834796 0.041857783 0.050106272 0.64631355 0 0
0.032321531 0.044280782 0.049799275 0.64631355 0 0
0.034966908 0.046772238 0.049600799 0.64631355 0 0
0.036874741 0.04930193 0.049462989 0.64631355 0 0
0.03825492 0.051861756 0.04936887 0.64631355 0 0
0.03918568 0.054451745 0.049312122 0.64631355 0 0
0.039756853 0.057069473 0.049285486 0.64631355 0 0
0.039984725 0.059718173 0.049287673 0.64631355 0 0
0.039842989 0.062405195 0.049320858 0.64631355 0 0
0.039299302 0.065139003 0.049387719 0.64631355 0 0
0.038339231 0.067926638 0.049489476 0.64631355 0 0
0.036811531 0.070791304 0.049638502 0.64631355 0 0
0.034507409 0.073765829 0.049851891 0.64631355 0 0
0.030526679 0.076973177 0.050203145 0.64631355 0 0
0.02834796 0.041857783 0.047386967 0.64631355 0 0
0.032321531 0.044280782 0.047096632 0.64631355 0 0
0.034966908 0.046772238 0.046908922 0.64631355 0 0
0.036874741 0.04930193 0.046778597 0.64631355 0 0
0.03825492 0.051861756 0.046689585 0.64631355 0 0
0.03918568 0.054451745 0.046635915 0.64631355 0 0
0.039756853 0.057069473 0.046610724 0.64631355 0 0
0.039984725 0.059718173 0.046612792 0.64631355 0 0
0.039842989 0.062405195 0.046644177 0.64631355 0 0
0.039299302 0.065139003 0.04670741 0.64631355 0 0
0.038339231 0.067926638 0.046803642 0.64631355 0 0
0.036811531 0.070791304 0.046944581 0.64631355 0 0
0.034507409 0.073765829 0.047146391 0.64631355 0 0
0.030526679 0.076973177 0.047478579 0.64631355 0 0
0.02834796 0.041857783 0.044669475 0.64631355 0 0
0.032321531 0.044280782 0.04439579 0.64631355 0 0
0.034966908 0.046772238 0.044218849 0.64631355 0 0
0.036874741 0.04930193 0.044095993 0.64631355 0 0
0.03825492 0.051861756 0.044012085 0.64631355 0 0
0.03918568 0.054451745 0.043961495 0.64631355 0 0
0.039756853 0.057069473 0.04393775 0.64631355 0 0
0.039984725 0.059718173 0.043939698 0.64631355 0 0
0.039842989 0.062405195 0.043969285 0.64631355 0 0
0.039299302 0.065139003 0.044028889 0.64631355 0 0
0.038339231 0.067926638 0.044119604 0.64631355 0 0
0.036811531 0.070791304 0.044252463 0.64631355 0 0
0.034507409 0.073765829 0.044442695 0.64631355 0 0
0.030526679 0.076973177 0.044755835 0.64631355 0 0
0.02834796 0.041857783 0.041953694 0.64631355 0 0
0.032321531 0.044280782 0.041696649 0.64631355 0 0
0.034966908 0.046772238 0.041530464 0.64631355 0 0
0.036874741 0.04930193 0.041415077 0.64631355 0 0
0.03825492 0.051861756 0.041336272 0.64631355 0 0
0.03918568 0.054451745 0.041288756 0.64631355 0 0
0.039756853 0.057069473 0.041266456 0.64631355 0 0
0.039984725 0.059718173 0.041268285 0.64631355 0 0
0.039842989 0.062405195 0.041296072 0.64631355 0 0
0.039299302 0.065139003 0.041352052 0.64631355 0 0
0.038339231 0.067926638 0.041437253 0.64631355 0 0
0.036811531 0.070791304 0.041562032 0.64631355 0 0
0.034507409 0.073765829 0.041740704 0.64631355 0 0
0.030526679 0.076973177 0.042034805 0.64631355 0 0
0.039999999 0.0013227731 0.038411714 0.64631355 0 0
0.039999999 0.0039683692 0.038412444 0.64631355 0 0
0.039999999 0.006614117 0.038413908 0.64631355 0 0
0.039999999 0.0092601161 0.038416103 0.64631355 0 0
0.039999999 0.011906468 0.038419027 0.64631355 0 0
0.039999999 0.014553274 0.038422685 0.64631355 0 0
0.039999999 0.017200634 0.038427077 0.64631355 0 0
0.039999999 0.01984865 0.0384322 0.64631355 0 0
0.039999999 0.022497421 0.038438056 0.64631355 0 0
0.039999999 0.025147052 0.038444646 0.64631355 0 0
0.039999999 0.027797641 0.03845197 0.64631355 0 0
0.039999999 0.030449292 0.038460031 0.64631355 0 0
0.039999999 0.033102103 0.038468827 0.64631355 0 0
0.039999999 0.035756178 0.03847836 0.64631355 0 0
0.039999999 0.038411621 0.03848863 0.64631355 0 0
0.039999999 0.041068535 0.038499638 0.64631355 0 0
0.039999999 0.043727014 0.038511388 0.64631355 0 0
0.039999999 0.046387173 0.038523875 0.64631355 0 0
0.039999999 0.049049105 0.038537107 0.64631355 0 0
0.039999999 0.051712915 0.038551081 0.64631355 0 0
0.039999999 0.054378711 0.0385658 0.64631355 0 0
0.039999999 0.057046596 0.038581267 0.64631355 0 0
0.039999999 0.059716672 0.038597479 0.64631355 0 0
0.039999999 0.062389042 0.038614441 0.64631355 0 0
0.039999999 0.065063812 0.038632154 0.64631355 0 0
0.039999999 0.067741089 0.038650621 0.64631355 0 0
0.039999999 0.07042098 0.03866984 0.64631355 0 0
0.039999999 0.073103584 0.038689815 0.64631355 0 0
0.039999999 0.075789012 0.038710549 0.64631355 0 0
0.039999999 0.078477375 0.038732041 0.64631355 0 0
0.039999999 0.0013227731 0.035756264 0.64631355 0 0
0.039999999 0.0039683692 0.035756946 0.64631355 0 0
0.039999999 0.006614117 0.035758305 0.64631355 0 0
0.039999999 0.0092601161 0.035760351 0.64631355 0 0
0.039999999 0.011906468 0.035763074 0.64631355 0 0
0.039999999 0.014553274 0.035766479 0.64631355 0 0
0.039999999 0.017200634 0.035770565 0.64631355 0 0
0.039999999 0.01984865 0.035775334 0.64631355 0 0
0.039999999 0.022497421 0.035780787 0.64631355 0 0
0.039999999 0.025147052 0.035786919 0.64631355 0 0
0.039999999 0.027797641 0.03579374 0.64631355 0 0
0.039999999 0.030449292 0.035801243 0.64631355 0 0
0.039999999 0.033102103 0.035809427 0.64631355 0 0
0.039999999 0.035756178 0.035818301 0.64631355 0 0
0.039999999 0.038411621 0.035827864 0.64631355 0 0
0.039999999 0.041068535 0.035838112 0.64631355 0 0
0.039999999 0.043727014 0.035849046 0.64631355 0 0
0.039999999 0.046387173 0.035860673 0.64631355 0 0
0.039999999 0.049049105 0.035872988 0.64631355 0 0
0.039999999 0.051712915 0.035885997 0.64631355 0 0
0.039999999 0.054378711 0.035899699 0.64631355 0 0
0.039999999 0.057046596 0.035914097 0.64631355 0 0
0.039999999 0.059716672 0.035929188 0.64631355 0 0
0.039999999 0.062389042 0.03594498 0.64631355 0 0
0.039999999 0.065063812 0.035961468 0.64631355 0 0
0.039999999 0.067741089 0.035978656 0.64631355 0 0
0.039999999 0.07042098 0.035996545 0.64631355 0 0
0.039999999 0.073103584 0.036015142 0.64631355 0 0
0.039999999 0.075789012 0.036034442 0.64631355 0 0
0.039999999 0.078477375 0.036054447 0.64631355 0 0
0.039999999 0.0013227731 0.033102181 0.64631355 0 0
0.039999999 0.0039683692 0.03310281 0.64631355 0 0
0.039999999 0.006614117 0.033104073 0.64631355 0 0
0.039999999 0.0092601161 0.033105962 0.64631355 0 0
0.039999999 0.011906468 0.033108484 0.64631355 0 0
0.039999999 0.014553274 0.033111639 0.64631355 0 0
0.039999999 0.017200634 0.03311542 0.64631355 0 0
0.039999999 0.01984865 0.033119835 0.64631355 0 0
0.039999999 0.022497421 0.033124883 0.64631355 0 0
0.039999999 0.025147052 0.033130564 0.64631355 0 0
0.039999999 0.027797641 0.033136874 0.64631355 0 0
0.039999999 0.030449292 0.033143818 0.64631355 0 0
0.039999999 0.033102103 0.033151399 0.64631355 0 0
0.039999999 0.035756178 0.033159614 0.64631355 0 0
0.039999999 0.038411621 0.033168465 0.64631355 0 0
0.039999999 0.041068535 0.033177953 0.64631355 0 0
0.039999999 0.043727014 0.033188079 0.64631355 0 0
0.039999999 0.046387173 0.033198841 0.64631355 0 0
0.039999999 0.049049105 0.033210244 0.64631355 0 0
0.039999999 0.051712915 0.033222284 0.64631355 0 0
0.039999999 0.054378711 0.033234969 0.64631355 0 0
0.039999999 0.057046596 0.033248298 0.64631355 0 0
0.039999999 0.059716672 0.033262271 0.64631355 0 0
0.039999999 0.062389042 0.033276886 0.64631355 0 0
0.039999999 0.065063812 0.033292152 0.64631355 0 0
0.039999999 0.067741089 0.033308066 0.64631355 0 0
0.039999999 0.07042098 0.033324629 0.64631355 0 0
0.039999999 0.073103584 0.033341844 0.64631355 0 0
0.039999999 0.075789012 0.03335971 0.64631355 0 0
0.039999999 0.078477375 0.033378232 0.64631355 0 0
0.039999999 0.0013227731 0.030449362 0.64631355 0 0
0.039999999 0.0039683692 0.030449944 0.64631355 0 0
0.039999999 0.006614117 0.030451102 0.64631355 0 0
0.039999999 0.0092601161 0.030452842 0.64631355 0 0
0.039999999 0.011906468 0.030455161 0.64631355 0 0
0.039999999 0.014553274 0.030458061 0.64631355 0 0
0.039999999 0.017200634 0.030461542 0.64631355 0 0
0.039999999 0.01984865 0.030465603 0.64631355 0 0
0.039999999 0.022497421 0.030470245 0.64631355 0 0
0.039999999 0.025147052 0.030475469 0.64631355 0 0
0.039999999 0.027797641 0.030481275 0.64631355 0 0
0.039999999 0.030449292 0.030487664 0.64631355 0 0
0.039999999 0.033102103 0.030494638 0.64631355 0 0
0.039999999 0.035756178 0.030502195 0.64631355 0 0
0.039999999 0.038411621 0.030510334 0.64631355 0 0
0.039999999 0.041068535 0.030519063 0.64631355 0 0
0.039999999 0.043727014 0.030528376 0.64631355 0 0
0.039999999 0.046387173 0.030538276 0.64631355 0 0
0.039999999 0.049049105 0.030548764 0.64631355 0 0
0.039999999 0.051712915 0.030559842 0.64631355 0 0
0.039999999 0.054378711 0.030571511 0.64631355 0 0
0.039999999 0.057046596 0.030583769 0.64631355 0 0
0.039999999 0.059716672 0.030596621 0.64631355 0 0
0.039999999 0.062389042 0.030610068 0.64631355 0 0
0.039999999 0.065063812 0.030624108 0.64631355 0 0
0.039999999 0.067741089 0.030638747 0.64631355 0 0
0.039999999 0.07042098 0.030653981 0.64631355 0 0
0.039999999 0.073103584 0.030669818 0.64631355 0 0
0.039999999 0.075789012 0.030686254 0.64631355 0 0
0.039999999 0.078477375 0.030703291 0.64631355 0 0
0.039999999 0.0013227731 0.027797706 0.64631355 0 0
0.039999999 0.0039683692 0.027798237 0.64631355 0 0
0.039999999 0.006614117 0.027799295 0.64631355 0 0
0.039999999 0.0092601161 0.027800882 0.64631355 0 0
0.039999999 0.011906468 0.027803 0.64631355 0 0
0.039999999 0.014553274 0.027805647 0.64631355 0 0
0.039999999 0.017200634 0.027808825 0.64631355 0 0
0.039999999 0.01984865 0.027812533 0.64631355 0 0
0.039999999 0.022497421 0.027816771 0.64631355 0 0
0.039999999 0.025147052 0.027821539 0.64631355 0 0
0.039999999 0.027797641 0.02782684 0.64631355 0 0
0.039999999 0.030449292 0.027832674 0.64631355 0 0
0.039999999 0.033102103 0.027839039 0.64631355 0 0
0.039999999 0.035756178 0.027845936 0.64631355 0 0
0.039999999 0.038411621 0.02785337 0.64631355 0 0
0.039999999 0.041068535 0.027861336 0.64631355 0 0
0.039999999 0.043727014 0.027869837 0.64631355 0 0
0.039999999 0.046387173 0.027878877 0.64631355 0 0
0.039999999 0.049049105 0.027888451 0.64631355 0 0
0.039999999 0.051712915 0.027898565 0.64631355 0 0
0.039999999 0.054378711 0.027909217 0.64631355 0 0
0.039999999 0.057046596 0.027920408 0.64631355 0 0
0.039999999 0.059716672 0.027932143 0.64631355 0 0
0.039999999 0.062389042 0.027944418 0.64631355 0 0
0.039999999 0.065063812 0.027957235 0.64631355 0 0
0.039999999 0.067741089 0.027970599 0.64631355 0 0
0.039999999 0.07042098 0.027984507 0.64631355 0 0
0.039999999 0.073103584 0.027998963 0.64631355 0 0
0.039999999 0.075789012 0.028013967 0.64631355 0 0
0.039999999 0.078477375 0.028029522 0.64631355 0 0
0.039999999 0.0013227731 0.025147112 0.64631355 0 0
0.039999999 0.0039683692 0.025147591 0.64631355 0 0
0.039999999 0.006614117 0.025148548 0.64631355 0 0
0.039999999 0.0092601161 0.025149984 0.64631355 0 0
0.039999999 0.011906468 0.025151901 0.64631355 0 0
0.039999999 0.014553274 0.025154294 0.64631355 0 0
0.039999999 0.017200634 0.025157169 0.64631355 0 0
0.039999999 0.01984865 0.025160523 0.64631355 0 0
0.039999999 0.022497421 0.025164356 0.64631355 0 0
0.039999999 0.025147052 0.025168672 0.64631355 0 0
0.039999999 0.027797641 0.025173467 0.64631355 0 0
0.039999999 0.030449292 0.025178744 0.64631355 0 0
0.039999999 0.033102103 0.025184501 0.64631355 0 0
0.039999999 0.035756178 0.025190743 0.64631355 0 0
0.039999999 0.038411621 0.025197467 0.64631355 0 0
0.039999999 0.041068535 0.025204673 0.64631355 0 0
0.039999999 0.043727014 0.025212364 0.64631355 0 0
0.039999999 0.046387173 0.025220541 0.64631355 0 0
0.039999999 0.049049105 0.025229203 0.64631355 0 0
0.039999999 0.051712915 0.025238352 0.64631355 0 0
0.039999999 0.054378711 0.025247989 0.64631355 0 0
0.039999999 0.057046596 0.025258113 0.64631355 0 0
0.039999999 0.059716672 0.025268728 0.64631355 0 0
0.039999999 0.062389042 0.025279833 0.64631355 0 0
0.039999999 0.065063812 0.025291428 0.64631355 0 0
0.039999999 0.067741089 0.025303517 0.64631355 0 0
0.039999999 0.07042098 0.025316099 0.64631355 0 0
0.039999999 0.073103584 0.025329176 0.64631355 0 0
0.039999999 0.075789012 0.025342751 0.64631355 0 0
0.039999999 0.078477375 0.025356822 0.64631355 0 0
0.039999999 0.0013227731 0.022497475 0.64631355 0 0
0.039999999 0.0039683692 0.022497904 0.64631355 0 0
0.039999999 0.006614117 0.02249876 0.64631355 0 0
0.039999999 0.0092601161 0.022500046 0.64631355 0 0
0.039999999 0.011906468 0.022501759 0.64631355 0 0
0.039999999 0.014553274 0.022503901 0.64631355 0 0
0.039999999 0.017200634 0.022506474 0.64631355 0 0
0.039999999 0.01984865 0.022509474 0.64631355 0 0
0.039999999 0.022497421 0.022512903 0.64631355 0 0
0.039999999 0.025147052 0.022516763 0.64631355 0 0
0.039999999 0.027797641 0.022521054 0.64631355 0 0
0.039999999 0.030449292 0.022525774 0.64631355 0 0
0.039999999 0.033102103 0.022530926 0.64631355 0 0
0.039999999 0.035756178 0.022536509 0.64631355 0 0
0.039999999 0.038411621 0.022542523 0.64631355 0 0
0.039999999 0.041068535 0.022548972 0.64631355 0 0
0.039999999 0.043727014 0.022555852 0.64631355 0 0
0.039999999 0.046387173 0.022563169 0.64631355 0 0
0.039999999 0.049049105 0.022570917 0.64631355 0 0
0.039999999 0.051712915 0.022579102 0.64631355 0 0
0.039999999 0.054378711 0.022587724 0.64631355 0 0
0.039999999 0.057046596 0.022596782 0.64631355 0 0
0.039999999 0.059716672 0.022606278 0.64631355 0 0
0.039999999 0.062389042 0.022616211 0.64631355 0 0
0.039999999 0.065063812 0.022626586 0.64631355 0 0
0.039999999 0.067741089 0.022637401 0.64631355 0 0
0.039999999 0.07042098 0.022648659 0.64631355 0 0
0.039999999 0.073103584 0.022660358 0.64631355 0 0
0.039999999 0.075789012 0.0226725 0.64631355 0 0
0.039999999 0.078477375 0.02268509 0.64631355 0 0
0.039999999 0.0013227731 0.019848697 0.64631355 0 0
0.039999999 0.0039683692 0.019849075 0.64631355 0 0
0.039999999 0.006614117 0.019849831 0.64631355 0 0
0.039999999 0.0092601161 0.019850964 0.64631355 0 0
0.039999999 0.011906468 0.019852476 0.64631355 0 0
0.039999999 0.014553274 0.019854367 0.64631355 0 0
0.039999999 0.017200634 0.019856635 0.64631355 0 0
0.039999999 0.01984865 0.019859282 0.64631355 0 0
0.039999999 0.022497421 0.019862309 0.64631355 0 0
0.039999999 0.025147052 0.019865714 0.64631355 0 0
0.039999999 0.027797641 0.019869499 0.64631355 0 0
0.039999999 0.030449292 0.019873664 0.64631355 0 0
0.039999999 0.033102103 0.019878209 0.64631355 0 0
0.039999999 0.035756178 0.019883135 0.64631355 0 0
0.039999999 0.038411621 0.019888442 0.64631355 0 0
0.039999999 0.041068535 0.019894131 0.64631355 0 0
0.039999999 0.043727014 0.019900201 0.64631355 0 0
0.039999999 0.046387173 0.019906655 0.64631355 0 0
0.039999999 0.049049105 0.019913493 0.64631355 0 0
0.039999999 0.051712915 0.019920714 0.64631355 0 0
0.039999999 0.054378711 0.019928319 0.64631355 0 0
0.039999999 0.057046596 0.01993631 0.64631355 0 0
0.039999999 0.059716672 0.019944688 0.64631355 0 0
0.039999999 0.062389042 0.019953454 0.64631355 0 0
0.039999999 0.065063812 0.019962607 0.64631355 0 0
0.039999999 0.067741089 0.019972147 0.64631355 0 0
0.039999999 0.07042098 0.019982079 0.64631355 0 0
0.039999999 0.073103584 0.019992402 0.64631355 0 0
0.039999999 0.075789012 0.020003116 0.64631355 0 0
0.039999999 0.078477375 0.020014223 0.64631355 0 0
0.039999999 0.0013227731 0.017200675 0.64631355 0 0
0.039999999 0.0039683692 0.017201003 0.64631355 0 0
0.039999999 0.006614117 0.017201658 0.64631355 0 0
0.039999999 0.0092601161 0.01720264 0.64631355 0 0
0.039999999 0.011906468 0.017203949 0.64631355 0 0
0.039999999 0.014553274 0.017205589 0.64631355 0 0
0.039999999 0.017200634 0.017207554 0.64631355 0 0
0.039999999 0.01984865 0.017209848 0.64631355 0 0
0.039999999 0.022497421 0.017212471 0.64631355 0 0
0.039999999 0.025147052 0.017215421 0.64631355 0 0
0.039999999 0.027797641 0.017218702 0.64631355 0 0
0.039999999 0.030449292 0.017222311 0.64631355 0 0
0.039999999 0.033102103 0.017226249 0.64631355 0 0
0.039999999 0.035756178 0.017230518 0.64631355 0 0
0.039999999 0.038411621 0.017235117 0.64631355 0 0
0.039999999 0.041068535 0.017240047 0.64631355 0 0
0.039999999 0.043727014 0.017245308 0.64631355 0 0
0.039999999 0.046387173 0.017250901 0.64631355 0 0
0.039999999 0.049049105 0.017256826 0.64631355 0 0
0.039999999 0.051712915 0.017263085 0.64631355 0 0
0.039999999 0.054378711 0.017269675 0.64631355 0 0
0.039999999 0.057046596 0.0172766 0.64631355 0 0
0.039999999 0.059716672 0.017283861 0.64631355 0 0
0.039999999 0.062389042 0.017291456 0.64631355 0 0
0.039999999 0.065063812 0.017299388 0.64631355 0 0
0.039999999 0.067741089 0.017307656 0.64631355 0 0
0.039999999 0.07042098 0.017316263 0.64631355 0 0
0.039999999 0.073103584 0.017325208 0.64631355 0 0
0.039999999 0.075789012 0.017334493 0.64631355 0 0
0.039999999 0.078477375 0.017344117 0.64631355 0 0
0.039999999 0.0013227731 0.014553308 0.64631355 0 0
0.039999999 0.0039683692 0.014553586 0.64631355 0 0
0.039999999 0.006614117 0.01455414 0.64631355 0 0
0.039999999 0.0092601161 0.014554971 0.64631355 0 0
0.039999999 0.011906468 0.01455608 0.64631355 0 0
0.039999999 0.014553274 0.014557466 0.64631355 0 0
0.039999999 0.017200634 0.014559129 0.64631355 0 0
0.039999999 0.01984865 0.01456107 0.64631355 0 0
0.039999999 0.022497421 0.014563289 0.64631355 0 0
0.039999999 0.025147052 0.014565786 0.64631355 0 0
0.039999999 0.027797641 0.014568561 0.64631355 0 0
0.039999999 0.030449292 0.014571615 0.64631355 0 0
0.039999999 0.033102103 0.014574947 0.64631355 0 0
0.039999999 0.035756178 0.014578559 0.64631355 0 0
0.039999999 0.038411621 0.01458245 0.64631355 0 0
0.039999999 0.041068535 0.014586621 0.64631355 0 0
0.039999999 0.043727014 0.014591073 0.64631355 0 0
0.039999999 0.046387173 0.014595804 0.64631355 0 0
0.039999999 0.049049105 0.014600817 0.64631355 0 0
0.039999999 0.051712915 0.014606112 0.64631355 0 0
0.039999999 0.054378711 0.014611688 0.64631355 0 0
0.039999999 0.057046596 0.014617548 0.64631355 0 0
0.039999999 0.059716672 0.014623691 0.64631355 0 0
0.039999999 0.062389042 0.014630117 0.64631355 0 0
0.039999999 0.065063812 0.014636829 0.64631355 0 0
0.039999999 0.067741089 0.014643825 0.64631355 0 0
0.039999999 0.07042098 0.014651107 0.64631355 0 0
0.039999999 0.073103584 0.014658675 0.64631355 0 0
0.039999999 0.075789012 0.01466653 0.64631355 0 0
0.039999999 0.078477375 0.014674674 0.64631355 0 0
0.039999999 0.0013227731 0.011906496 0.64631355 0 0
0.039999999 0.0039683692 0.011906723 0.64631355 0 0
0.039999999 0.006614117 0.011907177 0.64631355 0 0
0.039999999 0.0092601161 0.011907857 0.64631355 0 0
0.039999999 0.011906468 0.011908764 0.64631355 0 0
0.039999999 0.014553274 0.011909897 0.64631355 0 0
0.039999999 0.017200634 0.011911259 0.64631355 0 0
0.039999999 0.01984865 0.011912847 0.64631355 0 0
0.039999999 0.022497421 0.011914662 0.64631355 0 0
0.039999999 0.025147052 0.011916704 0.64631355 0 0
0.039999999 0.027797641 0.011918975 0.64631355 0 0
0.039999999 0.030449292 0.011921474 0.64631355 0 0
0.039999999 0.033102103 0.0119242 0.64631355 0 0
0.039999999 0.035756178 0.011927155 0.64631355 0 0
0.039999999 0.038411621 0.011930338 0.64631355 0 0
0.039999999 0.041068535 0.01193375 0.64631355 0 0
0.039999999 0.043727014 0.011937392 0.64631355 0 0
0.039999999 0.046387173 0.011941263 0.64631355 0 0
0.039999999 0.049049105 0.011945365 0.64631355 0 0
0.039999999 0.051712915 0.011949697 0.64631355 0 0
0.039999999 0.054378711 0.011954259 0.64631355 0 0
0.039999999 0.057046596 0.011959054 0.64631355 0 0
0.039999999 0.059716672 0.011964079 0.64631355 0 0
0.039999999 0.062389042 0.011969336 0.64631355 0 0
0.039999999 0.065063812 0.011974826 0.64631355 0 0
0.039999999 0.067741089 0.01198055 0.64631355 0 0
0.039999999 0.07042098 0.011986508 0.64631355 0 0
0.039999999 0.073103584 0.011992699 0.64631355 0 0
0.039999999 0.075789012 0.011999127 0.64631355 0 0
0.039999999 0.078477375 0.012005789 0.64631355 0 0
0.039999999 0.0013227731 0.0092601385 0.64631355 0 0
0.039999999 0.0039683692 0.0092603145 0.64631355 0 0
0.039999999 0.006614117 0.0092606675 0.64631355 0 0
0.039999999 0.0092601161 0.0092611965 0.64631355 0 0
0.039999999 0.011906468 0.0092619015 0.64631355 0 0
0.039999999 0.014553274 0.0092627835 0.64631355 0 0
0.039999999 0.017200634 0.0092638414 0.64631355 0 0
0.039999999 0.01984865 0.0092650773 0.64631355 0 0
0.039999999 0.022497421 0.0092664892 0.64631355 0 0
0.039999999 0.025147052 0.0092680771 0.64631355 0 0
0.039999999 0.027797641 0.0092698429 0.64631355 0 0
0.039999999 0.030449292 0.0092717865 0.64631355 0 0
0.039999999 0.033102103 0.0092739072 0.64631355 0 0
0.039999999 0.035756178 0.0092762047 0.64631355 0 0
0.039999999 0.038411621 0.0092786811 0.64631355 0 0
0.039999999 0.041068535 0.0092813345 0.64631355 0 0
0.039999999 0.043727014 0.0092841666 0.64631355 0 0
0.039999999 0.046387173 0.0092871776 0.64631355 0 0
0.039999999 0.049049105 0.0092903674 0.64631355 0 0
0.039999999 0.051712915 0.0092937369 0.64631355 0 0
0.039999999 0.054378711 0.0092972852 0.64631355 0 0
0.039999999 0.057046596 0.0093010133 0.64631355 0 0
0.039999999 0.059716672 0.0093049221 0.64631355 0 0
0.039999999 0.062389042 0.0093090115 0.64631355 0 0
0.039999999 0.065063812 0.0093132816 0.64631355 0 0
0.039999999 0.067741089 0.0093177324 0.64631355 0 0
0.039999999 0.07042098 0.0093223667 0.64631355 0 0
0.039999999 0.073103584 0.0093271816 0.64631355 0 0
0.039999999 0.075789012 0.00933218 0.64631355 0 0
0.039999999 0.078477375 0.0093373619 0.64631355 0 0
0.039999999 0.0013227731 0.0066141328 0.64631355 0 0
0.039999999 0.0039683692 0.0066142585 0.64631355 0 0
0.039999999 0.006614117 0.0066145104 0.64631355 0 0
0.039999999 0.0092601161 0.0066148881 0.64631355 0 0
0.039999999 0.011906468 0.0066153919 0.64631355 0 0
0.039999999 0.014553274 0.006616022 0.64631355 0 0
0.039999999 0.017200634 0.0066167777 0.64631355 0 0
0.039999999 0.01984865 0.0066176602 0.64631355 0 0
0.039999999 0.022497421 0.0066186683 0.64631355 0 0
0.039999999 0.025147052 0.0066198031 0.64631355 0 0
0.039999999 0.027797641 0.0066210646 0.64631355 0 0
0.039999999 0.030449292 0.0066224523 0.64631355 0 0
0.039999999 0.033102103 0.0066239671 0.64631355 0 0
0.039999999 0.035756178 0.0066256081 0.64631355 0 0
0.039999999 0.038411621 0.0066273767 0.64631355 0 0
0.039999999 0.041068535 0.0066292724 0.64631355 0 0
0.039999999 0.043727014 0.0066312952 0.64631355 0 0
0.039999999 0.046387173 0.0066334461 0.64631355 0 0
0.039999999 0.049049105 0.0066357241 0.64631355 0 0
0.039999999 0.051712915 0.0066381306 0.64631355 0 0
0.039999999 0.054378711 0.0066406652 0.64631355 0 0
0.039999999 0.057046596 0.0066433279 0.64631355 0 0
0.039999999 0.059716672 0.00664612 0.64631355 0 0
0.039999999 0.062389042 0.0066490406 0.64631355 0 0
0.039999999 0.065063812 0.0066520907 0.64631355 0 0
0.039999999 0.067741089 0.0066552702 0.64631355 0 0
0.039999999 0.07042098 0.0066585792 0.64631355 0 0
0.039999999 0.073103584 0.0066620191 0.64631355 0 0
0.039999999 0.075789012 0.0066655893 0.64631355 0 0
0.039999999 0.078477375 0.0066692904 0.64631355 0 0
0.039999999 0.0013227731 0.003968379 0.64631355 0 0
0.039999999 0.0039683692 0.0039684544 0.64631355 0 0
0.039999999 0.006614117 0.0039686053 0.64631355 0 0
0.039999999 0.0092601161 0.0039688321 0.64631355 0 0
0.039999999 0.011906468 0.0039691343 0.64631355 0 0
0.039999999 0.014553274 0.0039695124 0.64631355 0 0
0.039999999 0.017200634 0.003969966 0.64631355 0 0
0.039999999 0.01984865 0.0039704954 0.64631355 0 0
0.039999999 0.022497421 0.0039711003 0.64631355 0 0
0.039999999 0.025147052 0.0039717811 0.64631355 0 0
0.039999999 0.027797641 0.0039725378 0.64631355 0 0
0.039999999 0.030449292 0.0039733704 0.64631355 0 0
0.039999999 0.033102103 0.0039742794 0.64631355 0 0
0.039999999 0.035756178 0.0039752643 0.64631355 0 0
0.039999999 0.038411621 0.003976325 0.64631355 0 0
0.039999999 0.041068535 0.0039774626 0.64631355 0 0
0.039999999 0.043727014 0.0039786762 0.64631355 0 0
0.039999999 0.046387173 0.0039799665 0.64631355 0 0
0.039999999 0.049049105 0.0039813337 0.64631355 0 0
0.039999999 0.051712915 0.0039827772 0.64631355 0 0
0.039999999 0.054378711 0.0039842981 0.64631355 0 0
0.039999999 0.057046596 0.0039858958 0.64631355 0 0
0.039999999 0.059716672 0.0039875708 0.64631355 0 0
0.039999999 0.062389042 0.003989323 0.64631355 0 0
0.039999999 0.065063812 0.0039911531 0.64631355 0 0
0.039999999 0.067741089 0.0039930604 0.64631355 0 0
0.039999999 0.07042098 0.003995046 0.64631355 0 0
0.039999999 0.073103584 0.0039971098 0.64631355 0 0
0.039999999 0.075789012 0.0039992519 0.64631355 0 0
0.039999999 0.078477375 0.0040014726 0.64631355 0 0
0.039999999 0.0013227731 0.0013227762 0.64631355 0 0
0.039999999 0.0039683692 0.0013228013 0.64631355 0 0
0.039999999 0.006614117 0.0013228517 0.64631355 0 0
0.039999999 0.0092601161 0.0013229273 0.64631355 0 0
0.039999999 0.011906468 0.001323028 0.64631355 0 0
0.039999999 0.014553274 0.001323154 0.64631355 0 0
0.039999999 0.017200634 0.0013233052 0.64631355 0 0
0.039999999 0.01984865 0.0013234817 0.64631355 0 0
0.039999999 0.022497421 0.0013236833 0.64631355 0 0
0.039999999 0.025147052 0.0013239102 0.64631355 0 0
0.039999999 0.027797641 0.0013241625 0.64631355 0 0
0.039999999 0.030449292 0.00132444 0.64631355 0 0
0.039999999 0.033102103 0.0013247429 0.64631355 0 0
0.039999999 0.035756178 0.0013250712 0.64631355 0 0
0.039999999 0.038411621 0.0013254249 0.64631355 0 0
0.039999999 0.041068535 0.001325804 0.64631355 0 0
0.039999999 0.043727014 0.0013262086 0.64631355 0 0
0.039999999 0.046387173 0.0013266386 0.64631355 0 0
0.039999999 0.049049105 0.0013270943 0.64631355 0 0
0.039999999 0.051712915 0.0013275755 0.64631355 0 0
0.039999999 0.054378711 0.0013280824 0.64631355 0 0
0.039999999 0.057046596 0.001328615 0.64631355 0 0
0.039999999 0.059716672 0.0013291733 0.64631355 0 0
0.039999999 0.062389042 0.0013297575 0.64631355 0 0
0.039999999 0.065063812 0.0013303674 0.64631355 0 0
0.039999999 0.067741089 0.0013310033 0.64631355 0 0
0.039999999 0.07042098 0.0013316652 0.64631355 0 0
0.039999999 0.073103584 0.0013323531 0.64631355 0 0
0.039999999 0.075789012 0.0013330671 0.64631355 0 0
0.039999999 0.078477375 0.0013338072 0.64631355 0 0
