# .PCD v0.7 - Point Cloud Data file format
VERSION 0.7
FIELDS x y z vp_x vp_y vp_z
SIZE 4 4 4 4 4 4
TYPE F F F F F F
COUNT 1 1 1 1 1 1
WIDTH 478
HEIGHT 1
VIEWPOINT 0 0 0 1 0 0 0
POINTS 478
DATA ascii
4.3991215e-05 0.060811374 0.06867259 -0.33897066 -0.54846609 0
0.00053154019 0.055470273 0.06823691 -0.33897066 -0.54846609 0
0.0018331577 0.051640682 0.06797158 -0.33897066 -0.54846609 0
0.0035790403 0.048632618 0.067799523 -0.33897066 -0.54846609 0
0.0056010848 0.046131391 0.067685582 -0.33897066 -0.54846609 0
0.007895669 0.044115636 0.067627765 -0.33897066 -0.54846609 0
0.01040203 0.042468041 0.067613065 -0.33897066 -0.54846609 0
0.013153349 0.041233104 0.067646921 -0.33897066 -0.54846609 0
0.016149823 0.040398765 0.067728318 -0.33897066 -0.54846609 0
0.019437926 0.040029299 0.067865044 -0.33897066 -0.54846609 0
0.023102697 0.040249042 0.068071924 -0.33897066 -0.54846609 0
0.027374191 0.04141086 0.068390444 -0.33897066 -0.54846609 0
0.033196624 0.044992581 0.06899333 -0.33897066 -0.54846609 0
4.3991215e-05 0.060811374 0.065602079 -0.33897066 -0.54846609 0
0.00053154019 0.055470273 0.065185875 -0.33897066 -0.54846609 0
0.0018331577 0.051640682 0.064932413 -0.33897066 -0.54846609 0
0.0035790403 0.048632618 0.064768046 -0.33897066 -0.54846609 0
0.0056010848 0.046131391 0.064659201 -0.33897066 -0.54846609 0
0.007895669 0.044115636 0.064603969 -0.33897066 -0.54846609 0
0.01040203 0.042468041 0.064589925 -0.33897066 -0.54846609 0
0.013153349 0.041233104 0.064622268 -0.33897066 -0.54846609 0
0.016149823 0.040398765 0.064700022 -0.33897066 -0.54846609 0
0.019437926 0.040029299 0.064830638 -0.33897066 -0.54846609 0
0.023102697 0.040249042 0.065028265 -0.33897066 -0.54846609 0
0.027374191 0.04141086 0.065332547 -0.33897066 -0.54846609 0
0.033196624 0.044992581 0.065908469 -0.33897066 -0.54846609 0
4.3991215e-05 0.060811374 0.062534079 -0.33897066 -0.54846609 0
0.00053154019 0.055470273 0.062137343 -0.33897066 -0.54846609 0
0.0018331577 0.051640682 0.061895736 -0.33897066 -0.54846609 0
0.0035790403 0.048632618 0.061739054 -0.33897066 -0.54846609 0
0.0056010848 0.046131391 0.061635301 -0.33897066 -0.54846609 0
0.007895669 0.044115636 0.061582651 -0.33897066 -0.54846609 0
0.01040203 0.042468041 0.061569266 -0.33897066 -0.54846609 0
0.013153349 0.041233104 0.061600093 -0.33897066 -0.54846609 0
0.016149823 0.040398765 0.061674215 -0.33897066 -0.54846609 0
0.019437926 0.040029299 0.061798722 -0.33897066 -0.54846609 0
0.023102697 0.040249042 0.061987109 -0.33897066 -0.54846609 0
0.027374191 0.04141086 0.062277153 -0.33897066 -0.54846609 0
0.033196624 0.044992581 0.062826149 -0.33897066 -0.54846609 0
4.3991215e-05 0.060811374 0.059468489 -0.33897066 -0.54846609 0
0.00053154019 0.055470273 0.059091195 -0.33897066 -0.54846609 0
0.0018331577 0.051640682 0.058861434 -0.33897066 -0.54846609 0
0.0035790403 0.048632618 0.058712434 -0.33897066 -0.54846609 0
0.0056010848 0.046131391 0.058613766 -0.33897066 -0.54846609 0
0.007895669 0.044115636 0.058563698 -0.33897066 -0.54846609 0
0.01040203 0.042468041 0.058550969 -0.33897066 -0.54846609 0
0.013153349 0.041233104 0.058580287 -0.33897066 -0.54846609 0
0.016149823 0.040398765 0.058650773 -0.33897066 -0.54846609 0
0.019437926 0.040029299 0.058769174 -0.33897066 -0.54846609 0
0.023102697 0.040249042 0.058948327 -0.33897066 -0.54846609 0
0.027374191 0.04141086 0.059224155 -0.33897066 -0.54846609 0
0.033196624 0.044992581 0.059746236 -0.33897066 -0.54846609 0
4.3991215e-05 0.060811374 0.056405175 -0.33897066 -0.54846609 0
0.00053154019 0.055470273 0.056047317 -0.33897066 -0.54846609 0
0.0018331577 0.051640682 0.055829391 -0.33897066 -0.54846609 0
0.0035790403 0.048632618 0.055688065 -0.33897066 -0.54846609 0
0.0056010848 0.046131391 0.055594482 -0.33897066 -0.54846609 0
0.007895669 0.044115636 0.055546992 -0.33897066 -0.54846609 0
0.01040203 0.042468041 0.055534918 -0.33897066 -0.54846609 0
0.013153349 0.041233104 0.055562723 -0.33897066 -0.54846609 0
0.016149823 0.040398765 0.055629581 -0.33897066 -0.54846609 0
0.019437926 0.040029299 0.055741884 -0.33897066 -0.54846609 0
0.023102697 0.040249042 0.055911809 -0.33897066 -0.54846609 0
0.027374191 0.04141086 0.056173425 -0.33897066 -0.54846609 0
0.033196624 0.044992581 0.056668613 -0.33897066 -0.54846609 0
4.3991215e-05 0.060811374 0.053344022 -0.33897066 -0.54846609 0
0.00053154019 0.055470273 0.053005587 -0.33897066 -0.54846609 0
0.0018331577 0.051640682 0.052799486 -0.33897066 -0.54846609 0
0.0035790403 0.048632618 0.05266583 -0.33897066 -0.54846609 0
0.0056010848 0.046131391 0.052577328 -0.33897066 -0.54846609 0
0.007895669 0.044115636 0.052532416 -0.33897066 -0.54846609 0
0.01040203 0.042468041 0.052520998 -0.33897066 -0.54846609 0
0.013153349 0.041233104 0.052547295 -0.33897066 -0.54846609 0
0.016149823 0.040398765 0.05261052 -0.33897066 -0.54846609 0
0.019437926 0.040029299 0.052716728 -0.33897066 -0.54846609 0
0.023102697 0.040249042 0.05287743 -0.33897066 -0.54846609 0
0.027374191 0.04141086 0.053124852 -0.33897066 -0.54846609 0
0.033196624 0.044992581 0.053593166 -0.33897066 -0.54846609 0
4.3991215e-05 0.060811374 0.050284915 -0.33897066 -0.54846609 0
0.00053154019 0.055470273 0.049965885 -0.33897066 -0.54846609 0
0.0018331577 0.051640682 0.049771603 -0.33897066 -0.54846609 0
0.0035790403 0.048632618 0.049645614 -0.33897066 -0.54846609 0
0.0056010848 0.046131391 0.049562186 -0.33897066 -0.54846609 0
0.007895669 0.044115636 0.049519848 -0.33897066 -0.54846609 0
0.01040203 0.042468041 0.049509086 -0.33897066 -0.54846609 0
0.013153349 0.041233104 0.049533874 -0.33897066 -0.54846609 0
0.016149823 0.040398765 0.049593475 -0.33897066 -0.54846609 0
0.019437926 0.040029299 0.049693592 -0.33897066 -0.54846609 0
0.023102697 0.040249042 0.049845081 -0.33897066 -0.54846609 0
0.027374191 0.04141086 0.05007831 -0.33897066 -0.54846609 0
0.033196624 0.044992581 0.050519768 -0.33897066 -0.54846609 0
4.3991215e-05 0.060811374 0.047227729 -0.33897066 -0.54846609 0
0.00053154019 0.055470273 0.046928097 -0.33897066 -0.54846609 0
0.0018331577 0.051640682 0.046745628 -0.33897066 -0.54846609 0
0.0035790403 0.048632618 0.046627298 -0.33897066 -0.54846609 0
0.0056010848 0.046131391 0.04654894 -0.33897066 -0.54846609 0
0.007895669 0.044115636 0.046509176 -0.33897066 -0.54846609 0
0.01040203 0.042468041 0.04649907 -0.33897066 -0.54846609 0
0.013153349 0.041233104 0.046522349 -0.33897066 -0.54846609 0
0.016149823 0.040398765 0.046578329 -0.33897066 -0.54846609 0
0.019437926 0.040029299 0.046672359 -0.33897066 -0.54846609 0
0.023102697 0.040249042 0.046814635 -0.33897066 -0.54846609 0
0.027374191 0.04141086 0.04703369 -0.33897066 -0.54846609 0
0.033196624 0.044992581 0.047448304 -0.33897066 -0.54846609 0
4.3991215e-05 0.060811374 0.04417235 -0.33897066 -0.54846609 0
0.00053154019 0.055470273 0.043892104 -0.33897066 -0.54846609 0
0.0018331577 0.051640682 0.043721441 -0.33897066 -0.54846609 0
0.0035790403 0.048632618 0.043610763 -0.33897066 -0.54846609 0
0.0056010848 0.046131391 0.043537475 -0.33897066 -0.54846609 0
0.007895669 0.044115636 0.043500286 -0.33897066 -0.54846609 0
0.01040203 0.042468041 0.043490831 -0.33897066 -0.54846609 0
0.013153349 0.041233104 0.043512609 -0.33897066 -0.54846609 0
0.016149823 0.040398765 0.043564964 -0.33897066 -0.54846609 0
0.019437926 0.040029299 0.043652911 -0.33897066 -0.54846609 0
0.023102697 0.040249042 0.043785982 -0.33897066 -0.54846609 0
0.027374191 0.04141086 0.043990865 -0.33897066 -0.54846609 0
0.033196624 0.044992581 0.044378657 -0.33897066 -0.54846609 0
4.3991215e-05 0.060811374 0.041118663 -0.33897066 -0.54846609 0
0.00053154019 0.055470273 0.040857788 -0.33897066 -0.54846609 0
0.0018331577 0.051640682 0.040698923 -0.33897066 -0.54846609 0
0.0035790403 0.048632618 0.040595897 -0.33897066 -0.54846609 0
0 0.036466084 0.039868891 -0.33897066 -0.54846609 0
0 0.030626785 0.039571323 -0.33897066 -0.54846609 0
0 0.024873896 0.039278902 -0.33897066 -0.54846609 0
0 0.019205298 0.038991507 -0.33897066 -0.54846609 0
0 0.013618945 0.038709022 -0.33897066 -0.54846609 0
0 0.0081128487 0.038431328 -0.33897066 -0.54846609 0
0 0.0026850887 0.038158309 -0.33897066 -0.54846609 0
0.0016558507 0 0.038074948 -0.33897066 -0.54846609 0
0.0049810656 0 0.038178768 -0.33897066 -0.54846609 0
0.0083245281 0 0.038283888 -0.33897066 -0.54846609 0
0.011686518 0 0.038390324 -0.33897066 -0.54846609 0
0.015067318 0 0.038498085 -0.33897066 -0.54846609 0
0.018467216 0 0.038607191 -0.33897066 -0.54846609 0
0.021886505 0 0.038717657 -0.33897066 -0.54846609 0
0.025325483 0 0.038829498 -0.33897066 -0.54846609 0
0.028784452 0 0.038942732 -0.33897066 -0.54846609 0
0.032263719 0 0.039057374 -0.33897066 -0.54846609 0
0.035763603 0 0.039173439 -0.33897066 -0.54846609 0
0.039284412 0 0.039290946 -0.33897066 -0.54846609 0
0 0.079954311 0.038981982 -0.33897066 -0.54846609 0
0 0.073444471 0.038669545 -0.33897066 -0.54846609 0
0 0.067038037 0.038362801 -0.33897066 -0.54846609 0
0 0.060732316 0.038061604 -0.33897066 -0.54846609 0
0 0.054524723 0.037765816 -0.33897066 -0.54846609 0
0 0.048412755 0.037475295 -0.33897066 -0.54846609 0
0 0.04239399 0.037189912 -0.33897066 -0.54846609 0
0 0.036466084 0.036909539 -0.33897066 -0.54846609 0
0 0.030626785 0.036634058 -0.33897066 -0.54846609 0
0 0.024873896 0.036363345 -0.33897066 -0.54846609 0
0 0.019205298 0.036097284 -0.33897066 -0.54846609 0
0 0.013618945 0.035835765 -0.33897066 -0.54846609 0
0 0.0081128487 0.035578683 -0.33897066 -0.54846609 0
0 0.0026850887 0.03532593 -0.33897066 -0.54846609 0
0.0016558507 0 0.035248756 -0.33897066 -0.54846609 0
0.0049810656 0 0.035344869 -0.33897066 -0.54846609 0
0.0083245281 0 0.035442188 -0.33897066 -0.54846609 0
0.011686518 0 0.035540722 -0.33897066 -0.54846609 0
0.015067318 0 0.035640486 -0.33897066 -0.54846609 0
0.018467216 0 0.035741493 -0.33897066 -0.54846609 0
0.021886505 0 0.03584376 -0.33897066 -0.54846609 0
0.025325483 0 0.0359473 -0.33897066 -0.54846609 0
0.028784452 0 0.036052126 -0.33897066 -0.54846609 0
0.032263719 0 0.036158256 -0.33897066 -0.54846609 0
0.035763603 0 0.036265709 -0.33897066 -0.54846609 0
0.039284412 0 0.036374494 -0.33897066 -0.54846609 0
0 0.079954311 0.035857953 -0.33897066 -0.54846609 0
0 0.073444471 0.035570554 -0.33897066 -0.54846609 0
0 0.067038037 0.035288393 -0.33897066 -0.54846609 0
0 0.060732316 0.035011336 -0.33897066 -0.54846609 0
0 0.054524723 0.034739252 -0.33897066 -0.54846609 0
0 0.048412755 0.034472011 -0.33897066 -0.54846609 0
0 0.04239399 0.034209501 -0.33897066 -0.54846609 0
0 0.036466084 0.033951599 -0.33897066 -0.54846609 0
0 0.030626785 0.033698194 -0.33897066 -0.54846609 0
0 0.024873896 0.033449173 -0.33897066 -0.54846609 0
0 0.019205298 0.033204436 -0.33897066 -0.54846609 0
0 0.013618945 0.032963876 -0.33897066 -0.54846609 0
0 0.0081128487 0.032727394 -0.33897066 -0.54846609 0
0 0.0026850887 0.032494899 -0.33897066 -0.54846609 0
0.0016558507 0 0.03242391 -0.33897066 -0.54846609 0
0.0049810656 0 0.032512322 -0.33897066 -0.54846609 0
0.0083245281 0 0.032601841 -0.33897066 -0.54846609 0
0.011686518 0 0.032692477 -0.33897066 -0.54846609 0
0.015067318 0 0.032784246 -0.33897066 -0.54846609 0
0.018467216 0 0.032877158 -0.33897066 -0.54846609 0
0.021886505 0 0.032971229 -0.33897066 -0.54846609 0
0.025325483 0 0.03306647 -0.33897066 -0.54846609 0
0.028784452 0 0.033162899 -0.33897066 -0.54846609 0
0.032263719 0 0.033260524 -0.33897066 -0.54846609 0
0.035763603 0 0.033359364 -0.33897066 -0.54846609 0
0.039284412 0 0.033459432 -0.33897066 -0.54846609 0
0 0.079954311 0.032735296 -0.33897066 -0.54846609 0
0 0.073444471 0.032472923 -0.33897066 -0.54846609 0
0 0.067038037 0.032215334 -0.33897066 -0.54846609 0
0 0.060732316 0.031962406 -0.33897066 -0.54846609 0
0 0.054524723 0.031714015 -0.33897066 -0.54846609 0
0 0.048412755 0.031470049 -0.33897066 -0.54846609 0
0 0.04239399 0.031230398 -0.33897066 -0.54846609 0
0 0.036466084 0.030994954 -0.33897066 -0.54846609 0
0 0.030626785 0.030763615 -0.33897066 -0.54846609 0
0 0.024873896 0.030536283 -0.33897066 -0.54846609 0
0 0.019205298 0.030312857 -0.33897066 -0.54846609 0
0 0.013618945 0.030093245 -0.33897066 -0.54846609 0
0 0.0081128487 0.029877359 -0.33897066 -0.54846609 0
0 0.0026850887 0.029665109 -0.33897066 -0.54846609 0
0.0016558507 0 0.029600302 -0.33897066 -0.54846609 0
0.0049810656 0 0.029681016 -0.33897066 -0.54846609 0
0.0083245281 0 0.029762737 -0.33897066 -0.54846609 0
0.011686518 0 0.029845482 -0.33897066 -0.54846609 0
0.015067318 0 0.02992926 -0.33897066 -0.54846609 0
0.018467216 0 0.030014081 -0.33897066 -0.54846609 0
0.021886505 0 0.03009996 -0.33897066 -0.54846609 0
0.025325483 0 0.030186906 -0.33897066 -0.54846609 0
0.028784452 0 0.030274937 -0.33897066 -0.54846609 0
0.032263719 0 0.030364061 -0.33897066 -0.54846609 0
0.035763603 0 0.030454293 -0.33897066 -0.54846609 0
0.039284412 0 0.030545646 -0.33897066 -0.54846609 0
0 0.079954311 0.029613886 -0.33897066 -0.54846609 0
0 0.073444471 0.029376533 -0.33897066 -0.54846609 0
0 0.067038037 0.029143507 -0.33897066 -0.54846609 0
0 0.060732316 0.028914692 -0.33897066 -0.54846609 0
0 0.054524723 0.028689986 -0.33897066 -0.54846609 0
0 0.048412755 0.028469283 -0.33897066 -0.54846609 0
0 0.04239399 0.028252484 -0.33897066 -0.54846609 0
0 0.036466084 0.028039491 -0.33897066 -0.54846609 0
0 0.030626785 0.027830211 -0.33897066 -0.54846609 0
0 0.024873896 0.027624555 -0.33897066 -0.54846609 0
0 0.019205298 0.027422434 -0.33897066 -0.54846609 0
0 0.013618945 0.027223764 -0.33897066 -0.54846609 0
0 0.0081128487 0.027028462 -0.33897066 -0.54846609 0
0 0.0026850887 0.026836451 -0.33897066 -0.54846609 0
0.0016558507 0 0.026777823 -0.33897066 -0.54846609 0
0.0049810656 0 0.02685084 -0.33897066 -0.54846609 0
0.0083245281 0 0.02692477 -0.33897066 -0.54846609 0
0.011686518 0 0.026999626 -0.33897066 -0.54846609 0
0.015067318 0 0.027075414 -0.33897066 -0.54846609 0
0.018467216 0 0.027152147 -0.33897066 -0.54846609 0
0.021886505 0 0.027229838 -0.33897066 -0.54846609 0
0.025325483 0 0.027308494 -0.33897066 -0.54846609 0
0.028784452 0 0.027388129 -0.33897066 -0.54846609 0
0.032263719 0 0.027468756 -0.33897066 -0.54846609 0
0.035763603 0 0.027550384 -0.33897066 -0.54846609 0
0.039284412 0 0.027633026 -0.33897066 -0.54846609 0
0 0.079954311 0.026493605 -0.33897066 -0.54846609 0
0 0.073444471 0.026281262 -0.33897066 -0.54846609 0
0 0.067038037 0.026072787 -0.33897066 -0.54846609 0
0 0.060732316 0.025868084 -0.33897066 -0.54846609 0
0 0.054524723 0.025667053 -0.33897066 -0.54846609 0
0 0.048412755 0.025469605 -0.33897066 -0.54846609 0
0 0.04239399 0.02527565 -0.33897066 -0.54846609 0
0 0.036466084 0.025085097 -0.33897066 -0.54846609 0
0 0.030626785 0.02489787 -0.33897066 -0.54846609 0
0 0.024873896 0.024713881 -0.33897066 -0.54846609 0
0 0.019205298 0.024533058 -0.33897066 -0.54846609 0
0 0.013618945 0.02435532 -0.33897066 -0.54846609 0
0 0.0081128487 0.024180597 -0.33897066 -0.54846609 0
0 0.0026850887 0.024008816 -0.33897066 -0.54846609 0
0.0016558507 0 0.023956366 -0.33897066 -0.54846609 0
0.0049810656 0 0.024021691 -0.33897066 -0.54846609 0
0.0083245281 0 0.024087831 -0.33897066 -0.54846609 0
0.011686518 0 0.024154799 -0.33897066 -0.54846609 0
0.015067318 0 0.024222601 -0.33897066 -0.54846609 0
0.018467216 0 0.024291249 -0.33897066 -0.54846609 0
0.021886505 0 0.024360754 -0.33897066 -0.54846609 0
0.025325483 0 0.024431122 -0.33897066 -0.54846609 0
0.028784452 0 0.024502367 -0.33897066 -0.54846609 0
0.032263719 0 0.024574498 -0.33897066 -0.54846609 0
0.035763603 0 0.024647526 -0.33897066 -0.54846609 0
0.039284412 0 0.02472146 -0.33897066 -0.54846609 0
0 0.079954311 0.023374336 -0.33897066 -0.54846609 0
0 0.073444471 0.023186993 -0.33897066 -0.54846609 0
0 0.067038037 0.023003064 -0.33897066 -0.54846609 0
0 0.060732316 0.02282246 -0.33897066 -0.54846609 0
0 0.054524723 0.022645099 -0.33897066 -0.54846609 0
0 0.048412755 0.022470897 -0.33897066 -0.54846609 0
0 0.04239399 0.022299778 -0.33897066 -0.54846609 0
0 0.036466084 0.022131661 -0.33897066 -0.54846609 0
0 0.030626785 0.021966476 -0.33897066 -0.54846609 0
0 0.024873896 0.021804152 -0.33897066 -0.54846609 0
0 0.019205298 0.021644616 -0.33897066 -0.54846609 0
0 0.013618945 0.021487806 -0.33897066 -0.54846609 0
0 0.0081128487 0.021333653 -0.33897066 -0.54846609 0
0 0.0026850887 0.021182097 -0.33897066 -0.54846609 0
0.0016558507 0 0.021135824 -0.33897066 -0.54846609 0
0.0049810656 0 0.021193456 -0.33897066 -0.54846609 0
0.0083245281 0 0.021251809 -0.33897066 -0.54846609 0
0.011686518 0 0.021310892 -0.33897066 -0.54846609 0
0.015067318 0 0.021370713 -0.33897066 -0.54846609 0
0.018467216 0 0.021431278 -0.33897066 -0.54846609 0
0.021886505 0 0.021492599 -0.33897066 -0.54846609 0
0.025325483 0 0.021554682 -0.33897066 -0.54846609 0
0.028784452 0 0.021617539 -0.33897066 -0.54846609 0
0.032263719 0 0.021681178 -0.33897066 -0.54846609 0
0.035763603 0 0.021745607 -0.33897066 -0.54846609 0
0.039284412 0 0.021810837 -0.33897066 -0.54846609 0
0 0.079954311 0.020255957 -0.33897066 -0.54846609 0
0 0.073444471 0.020093609 -0.33897066 -0.54846609 0
0 0.067038037 0.019934217 -0.33897066 -0.54846609 0
0 0.060732316 0.019777708 -0.33897066 -0.54846609 0
0 0.054524723 0.019624008 -0.33897066 -0.54846609 0
0 0.048412755 0.019473048 -0.33897066 -0.54846609 0
0 0.04239399 0.019324755 -0.33897066 -0.54846609 0
0 0.036466084 0.019179069 -0.33897066 -0.54846609 0
0 0.030626785 0.019035921 -0.33897066 -0.54846609 0
0 0.024873896 0.018895252 -0.33897066 -0.54846609 0
0 0.019205298 0.018757001 -0.33897066 -0.54846609 0
0 0.013618945 0.018621109 -0.33897066 -0.54846609 0
0 0.0081128487 0.018487522 -0.33897066 -0.54846609 0
0 0.0026850887 0.018356185 -0.33897066 -0.54846609 0
0.0016558507 0 0.018316085 -0.33897066 -0.54846609 0
0.0049810656 0 0.018366029 -0.33897066 -0.54846609 0
0.0083245281 0 0.018416598 -0.33897066 -0.54846609 0
0.011686518 0 0.018467799 -0.33897066 -0.54846609 0
0.015067318 0 0.018519638 -0.33897066 -0.54846609 0
0.018467216 0 0.018572124 -0.33897066 -0.54846609 0
0.021886505 0 0.018625263 -0.33897066 -0.54846609 0
0.025325483 0 0.018679066 -0.33897066 -0.54846609 0
0.028784452 0 0.018733535 -0.33897066 -0.54846609 0
0.032263719 0 0.018788684 -0.33897066 -0.54846609 0
0.035763603 0 0.018844519 -0.33897066 -0.54846609 0
0.039284412 0 0.018901046 -0.33897066 -0.54846609 0
0 0.079954311 0.017138351 -0.33897066 -0.54846609 0
0 0.073444471 0.017000988 -0.33897066 -0.54846609 0
0 0.067038037 0.016866129 -0.33897066 -0.54846609 0
0 0.060732316 0.01673371 -0.33897066 -0.54846609 0
0 0.054524723 0.016603665 -0.33897066 -0.54846609 0
0 0.048412755 0.016475938 -0.33897066 -0.54846609 0
0 0.04239399 0.01635047 -0.33897066 -0.54846609 0
0 0.036466084 0.016227206 -0.33897066 -0.54846609 0
0 0.030626785 0.016106091 -0.33897066 -0.54846609 0
0 0.024873896 0.015987072 -0.33897066 -0.54846609 0
0 0.019205298 0.015870098 -0.33897066 -0.54846609 0
0 0.013618945 0.015755123 -0.33897066 -0.54846609 0
0 0.0081128487 0.015642097 -0.33897066 -0.54846609 0
0 0.0026850887 0.015530975 -0.33897066 -0.54846609 0
0.0016558507 0 0.015497046 -0.33897066 -0.54846609 0
0.0049810656 0 0.015539302 -0.33897066 -0.54846609 0
0.0083245281 0 0.015582087 -0.33897066 -0.54846609 0
0.011686518 0 0.015625408 -0.33897066 -0.54846609 0
0.015067318 0 0.015669269 -0.33897066 -0.54846609 0
0.018467216 0 0.015713677 -0.33897066 -0.54846609 0
0.021886505 0 0.015758637 -0.33897066 -0.54846609 0
0.025325483 0 0.015804159 -0.33897066 -0.54846609 0
0.028784452 0 0.015850246 -0.33897066 -0.54846609 0
0.032263719 0 0.015896907 -0.33897066 -0.54846609 0
0.035763603 0 0.015944147 -0.33897066 -0.54846609 0
0.039284412 0 0.015991975 -0.33897066 -0.54846609 0
0 0.079954311 0.014021397 -0.33897066 -0.54846609 0
0 0.073444471 0.013909017 -0.33897066 -0.54846609 0
0 0.067038037 0.013798685 -0.33897066 -0.54846609 0
0 0.060732316 0.013690348 -0.33897066 -0.54846609 0
0 0.054524723 0.013583954 -0.33897066 -0.54846609 0
0 0.048412755 0.013479458 -0.33897066 -0.54846609 0
0 0.04239399 0.013376809 -0.33897066 -0.54846609 0
0 0.036466084 0.013275962 -0.33897066 -0.54846609 0
0 0.030626785 0.013176874 -0.33897066 -0.54846609 0
0 0.024873896 0.013079501 -0.33897066 -0.54846609 0
0 0.019205298 0.012983802 -0.33897066 -0.54846609 0
0 0.013618945 0.012889737 -0.33897066 -0.54846609 0
0 0.0081128487 0.012797267 -0.33897066 -0.54846609 0
0 0.0026850887 0.012706354 -0.33897066 -0.54846609 0
0.0016558507 0 0.012678596 -0.33897066 -0.54846609 0
0.0049810656 0 0.012713168 -0.33897066 -0.54846609 0
0.0083245281 0 0.012748172 -0.33897066 -0.54846609 0
0.011686518 0 0.012783613 -0.33897066 -0.54846609 0
0.015067318 0 0.012819497 -0.33897066 -0.54846609 0
0.018467216 0 0.012855829 -0.33897066 -0.54846609 0
0.021886505 0 0.012892612 -0.33897066 -0.54846609 0
0.025325483 0 0.012929855 -0.33897066 -0.54846609 0
0.028784452 0 0.01296756 -0.33897066 -0.54846609 0
0.032263719 0 0.013005734 -0.33897066 -0.54846609 0
0.035763603 0 0.013044382 -0.33897066 -0.54846609 0
0.039284412 0 0.013083512 -0.33897066 -0.54846609 0
0 0.079954311 0.010904977 -0.33897066 -0.54846609 0
0 0.073444471 0.010817575 -0.33897066 -0.54846609 0
0 0.067038037 0.010731765 -0.33897066 -0.54846609 0
0 0.060732316 0.010647507 -0.33897066 -0.54846609 0
0 0.054524723 0.010564762 -0.33897066 -0.54846609 0
0 0.048412755 0.01048349 -0.33897066 -0.54846609 0
0 0.04239399 0.010403656 -0.33897066 -0.54846609 0
0 0.036466084 0.010325224 -0.33897066 -0.54846609 0
0 0.030626785 0.010248159 -0.33897066 -0.54846609 0
0 0.024873896 0.010172429 -0.33897066 -0.54846609 0
0 0.019205298 0.010098 -0.33897066 -0.54846609 0
0 0.013618945 0.010024842 -0.33897066 -0.54846609 0
0 0.0081128487 0.0099529242 -0.33897066 -0.54846609 0
0 0.0026850887 0.0098822182 -0.33897066 -0.54846609 0
0.0016558507 0 0.0098606292 -0.33897066 -0.54846609 0
0.0049810656 0 0.0098875174 -0.33897066 -0.54846609 0
0.0083245281 0 0.0099147409 -0.33897066 -0.54846609 0
0.011686518 0 0.0099423053 -0.33897066 -0.54846609 0
0.015067318 0 0.0099702133 -0.33897066 -0.54846609 0
0.018467216 0 0.0099984696 -0.33897066 -0.54846609 0
0.021886505 0 0.010027078 -0.33897066 -0.54846609 0
0.025325483 0 0.010056043 -0.33897066 -0.54846609 0
0.028784452 0 0.010085368 -0.33897066 -0.54846609 0
0.032263719 0 0.010115057 -0.33897066 -0.54846609 0
0.035763603 0 0.010145116 -0.33897066 -0.54846609 0
0.039284412 0 0.010175548 -0.33897066 -0.54846609 0
0 0.079954311 0.0077889729 -0.33897066 -0.54846609 0
0 0.073444471 0.007726545 -0.33897066 -0.54846609 0
0 0.067038037 0.0076652546 -0.33897066 -0.54846609 0
0 0.060732316 0.0076050726 -0.33897066 -0.54846609 0
0 0.054524723 0.0075459708 -0.33897066 -0.54846609 0
0 0.048412755 0.0074879224 -0.33897066 -0.54846609 0
0 0.04239399 0.0074309004 -0.33897066 -0.54846609 0
0 0.036466084 0.0073748794 -0.33897066 -0.54846609 0
0 0.030626785 0.007319835 -0.33897066 -0.54846609 0
0 0.024873896 0.0072657438 -0.33897066 -0.54846609 0
0 0.019205298 0.0072125825 -0.33897066 -0.54846609 0
0 0.013618945 0.0071603288 -0.33897066 -0.54846609 0
0 0.0081128487 0.0071089612 -0.33897066 -0.54846609 0
0 0.0026850887 0.0070584584 -0.33897066 -0.54846609 0
0.0016558507 0 0.0070430385 -0.33897066 -0.54846609 0
0.0049810656 0 0.0070622433 -0.33897066 -0.54846609 0
0.0083245281 0 0.0070816884 -0.33897066 -0.54846609 0
0.011686518 0 0.0071013765 -0.33897066 -0.54846609 0
0.015067318 0 0.0071213101 -0.33897066 -0.54846609 0
0.018467216 0 0.0071414923 -0.33897066 -0.54846609 0
0.021886505 0 0.007161926 -0.33897066 -0.54846609 0
0.025325483 0 0.0071826144 -0.33897066 -0.54846609 0
0.028784452 0 0.0072035599 -0.33897066 -0.54846609 0
0.032263719 0 0.0072247661 -0.33897066 -0.54846609 0
0.035763603 0 0.0072462354 -0.33897066 -0.54846609 0
0.039284412 0 0.007267972 -0.33897066 -0.54846609 0
0 0.079954311 0.0046732649 -0.33897066 -0.54846609 0
0 0.073444471 0.0046358095 -0.33897066 -0.54846609 0
0 0.067038037 0.0045990362 -0.33897066 -0.54846609 0
0 0.060732316 0.0045629279 -0.33897066 -0.54846609 0
0 0.054524723 0.0045274678 -0.33897066 -0.54846609 0
0 0.048412755 0.0044926391 -0.33897066 -0.54846609 0
0 0.04239399 0.004458427 -0.33897066 -0.54846609 0
0 0.036466084 0.0044248151 -0.33897066 -0.54846609 0
0 0.030626785 0.0043917894 -0.33897066 -0.54846609 0
0 0.024873896 0.0043593356 -0.33897066 -0.54846609 0
0 0.019205298 0.0043274397 -0.33897066 -0.54846609 0
0 0.013618945 0.0042960881 -0.33897066 -0.54846609 0
0 0.0081128487 0.0042652683 -0.33897066 -0.54846609 0
0 0.0026850887 0.0042349678 -0.33897066 -0.54846609 0
0.0016558507 0 0.004225716 -0.33897066 -0.54846609 0
0.0049810656 0 0.0042372383 -0.33897066 -0.54846609 0
0.0083245281 0 0.004248905 -0.33897066 -0.54846609 0
0.011686518 0 0.0042607174 -0.33897066 -0.54846609 0
0.015067318 0 0.0042726775 -0.33897066 -0.54846609 0
0.018467216 0 0.0042847865 -0.33897066 -0.54846609 0
0.021886505 0 0.0042970465 -0.33897066 -0.54846609 0
0.025325483 0 0.0043094591 -0.33897066 -0.54846609 0
0.028784452 0 0.0043220264 -0.33897066 -0.54846609 0
0.032263719 0 0.0043347497 -0.33897066 -0.54846609 0
0.035763603 0 0.0043476308 -0.33897066 -0.54846609 0
0.039284412 0 0.0043606726 -0.33897066 -0.54846609 0
0 0.079954311 0.0015577353 -0.33897066 -0.54846609 0
0 0.073444471 0.0015452502 -0.33897066 -0.54846609 0
0 0.067038037 0.0015329926 -0.33897066 -0.54846609 0
0 0.060732316 0.0015209566 -0.33897066 -0.54846609 0
0 0.054524723 0.0015091368 -0.33897066 -0.54846609 0
0 0.048412755 0.0014975275 -0.33897066 -0.54846609 0
0 0.04239399 0.0014861234 -0.33897066 -0.54846609 0
0 0.036466084 0.0014749197 -0.33897066 -0.54846609 0
0 0.030626785 0.0014639113 -0.33897066 -0.54846609 0
0 0.024873896 0.0014530935 -0.33897066 -0.54846609 0
0 0.019205298 0.0014424616 -0.33897066 -0.54846609 0
0 0.013618945 0.0014320113 -0.33897066 -0.54846609 0
0 0.0081128487 0.0014217381 -0.33897066 -0.54846609 0
0 0.0026850887 0.001411638 -0.33897066 -0.54846609 0
0.0016558507 0 0.001408554 -0.33897066 -0.54846609 0
0.0049810656 0 0.0014123949 -0.33897066 -0.54846609 0
0.0083245281 0 0.0014162838 -0.33897066 -0.54846609 0
0.011686518 0 0.0014202212 -0.33897066 -0.54846609 0
0.015067318 0 0.0014242078 -0.33897066 -0.54846609 0
0.018467216 0 0.0014282441 -0.33897066 -0.54846609 0
0.021886505 0 0.0014323307 -0.33897066 -0.54846609 0
0.025325483 0 0.0014364681 -0.33897066 -0.54846609 0
0.028784452 0 0.0014406571 -0.33897066 -0.54846609 0
0.032263719 0 0.0014448982 -0.33897066 -0.54846609 0
0.035763603 0 0.0014491919 -0.33897066 -0.54846609 0
0.039284412 0 0.001453539 -0.33897066 -0.54846609 0
