# .PCD v0.7 - Point Cloud Data file format
VERSION 0.7
FIELDS x y z vp_x vp_y vp_z
SIZE 4 4 4 4 4 4
TYPE F F F F F F
COUNT 1 1 1 1 1 1
WIDTH 642
HEIGHT 1
VIEWPOINT 0 0 0 1 0 0 0
POINTS 642
DATA ascii
0.025548536 0.040795695 0.069205642 0.52287865 -0.32315677 -0.19972187
0.028762616 0.042049624 0.068320602 0.52287865 -0.32315677 -0.19972187
0.031487446 0.043646704 0.067697965 0.52287865 -0.32315677 -0.19972187
0.033785641 0.045550503 0.067306072 0.52287865 -0.32315677 -0.19972187
0.035752978 0.047697637 0.067094721 0.52287865 -0.32315677 -0.19972187
0.037363365 0.050115671 0.067080043 0.52287865 -0.32315677 -0.19972187
0.038629834 0.052802689 0.067256801 0.52287865 -0.32315677 -0.19972187
0.039544284 0.055773064 0.067631386 0.52287865 -0.32315677 -0.19972187
0.039954249 0.059155833 0.06829042 0.52287865 -0.32315677 -0.19972187
0.039735209 0.063062511 0.069306113 0.52287865 -0.32315677 -0.19972187
0.01590131 0.040453464 0.069439873 0.52287865 -0.32315677 -0.19972187
0.021460328 0.04007037 0.067327447 0.52287865 -0.32315677 -0.19972187
0.025466185 0.040767949 0.066033162 0.52287865 -0.32315677 -0.19972187
0.02868492 0.042013679 0.065154247 0.52287865 -0.32315677 -0.19972187
0.031421848 0.043596838 0.064530514 0.52287865 -0.32315677 -0.19972187
0.033724267 0.04549237 0.064138934 0.52287865 -0.32315677 -0.19972187
0.035696197 0.047630794 0.06392546 0.52287865 -0.32315677 -0.19972187
0.037319724 0.050033357 0.063901588 0.52287865 -0.32315677 -0.19972187
0.038592771 0.052709673 0.064070314 0.52287865 -0.32315677 -0.19972187
0.039521892 0.055662751 0.064429991 0.52287865 -0.32315677 -0.19972187
0.039947275 0.059027206 0.06507016 0.52287865 -0.32315677 -0.19972187
0.039761759 0.062900603 0.066052601 0.52287865 -0.32315677 -0.19972187
0.038411979 0.067744061 0.067686222 0.52287865 -0.32315677 -0.19972187
0.015745396 0.040487777 0.066280268 0.52287865 -0.32315677 -0.19972187
0.021361334 0.0400596 0.064161591 0.52287865 -0.32315677 -0.19972187
0.025384132 0.0407403 0.062872082 0.52287865 -0.32315677 -0.19972187
0.028607506 0.041977864 0.061999351 0.52287865 -0.32315677 -0.19972187
0.031356495 0.043547153 0.061374724 0.52287865 -0.32315677 -0.19972187
0.03366312 0.045434453 0.060983531 0.52287865 -0.32315677 -0.19972187
0.035639629 0.047564197 0.060768034 0.52287865 -0.32315677 -0.19972187
0.037276249 0.04995136 0.060735203 0.52287865 -0.32315677 -0.19972187
0.038555849 0.052617013 0.060896054 0.52287865 -0.32315677 -0.19972187
0.039492853 0.055558152 0.061244737 0.52287865 -0.32315677 -0.19972187
0.039940331 0.05889909 0.061862715 0.52287865 -0.32315677 -0.19972187
0.039788198 0.062739357 0.06281253 0.52287865 -0.32315677 -0.19972187
0.038498342 0.067527309 0.064390942 0.52287865 -0.32315677 -0.19972187
0.015589989 0.040521983 0.063130908 0.52287865 -0.32315677 -0.19972187
0.021262685 0.040048867 0.061006729 0.52287865 -0.32315677 -0.19972187
0.025296444 0.04071708 0.059725311 0.52287865 -0.32315677 -0.19972187
0.028530369 0.041942175 0.058855735 0.52287865 -0.32315677 -0.19972187
0.031291377 0.043497648 0.058230396 0.52287865 -0.32315677 -0.19972187
0.033602197 0.045376744 0.05783968 0.52287865 -0.32315677 -0.19972187
0.035583269 0.047497846 0.057622258 0.52287865 -0.32315677 -0.19972187
0.037232935 0.049869664 0.057580702 0.52287865 -0.32315677 -0.19972187
0.03851907 0.052524704 0.05773383 0.52287865 -0.32315677 -0.19972187
0.039463922 0.055453949 0.058071699 0.52287865 -0.32315677 -0.19972187
0.039933417 0.058771476 0.058667902 0.52287865 -0.32315677 -0.19972187
0.039814528 0.062578775 0.059585698 0.52287865 -0.32315677 -0.19972187
0.038584333 0.067311503 0.061109971 0.52287865 -0.32315677 -0.19972187
0.015435079 0.040556077 0.059991632 0.52287865 -0.32315677 -0.19972187
0.021164373 0.040038172 0.057862692 0.52287865 -0.32315677 -0.19972187
0.025204957 0.040696945 0.056591604 0.52287865 -0.32315677 -0.19972187
0.028453503 0.04190661 0.055723224 0.52287865 -0.32315677 -0.19972187
0.031226492 0.043448325 0.055097356 0.52287865 -0.32315677 -0.19972187
0.033541493 0.045319248 0.054707196 0.52287865 -0.32315677 -0.19972187
0.035527114 0.047431737 0.054487944 0.52287865 -0.32315677 -0.19972187
0.037189785 0.049788278 0.054437898 0.52287865 -0.32315677 -0.19972187
0.038482428 0.052432742 0.054583445 0.52287865 -0.32315677 -0.19972187
0.039435104 0.055350143 0.054910686 0.52287865 -0.32315677 -0.19972187
0.039926525 0.058644362 0.055485524 0.52287865 -0.32315677 -0.19972187
0.039840754 0.062418841 0.056371905 0.52287865 -0.32315677 -0.19972187
0.038669951 0.067096621 0.0578431 0.52287865 -0.32315677 -0.19972187
0.039041743 0 0.039673638 0.52287865 -0.32315677 -0.19972187
0.039840091 0.0027630769 0.039999999 0.52287865 -0.32315677 -0.19972187
0.015280657 0.040590063 0.056862269 0.52287865 -0.32315677 -0.19972187
0.021063928 0.040029299 0.054730549 0.52287865 -0.32315677 -0.19972187
0.025113782 0.040676877 0.053468619 0.52287865 -0.32315677 -0.19972187
0.028376905 0.041871175 0.052601639 0.52287865 -0.32315677 -0.19972187
0.031154556 0.043404602 0.051979151 0.52287865 -0.32315677 -0.19972187
0.033481009 0.045261953 0.051585902 0.52287865 -0.32315677 -0.19972187
0.03547116 0.04736587 0.051364914 0.52287865 -0.32315677 -0.19972187
0.037146792 0.049707185 0.051306609 0.52287865 -0.32315677 -0.19972187
0.03844592 0.052341118 0.051444724 0.52287865 -0.32315677 -0.19972187
0.039406393 0.055246726 0.051761508 0.52287865 -0.32315677 -0.19972187
0.039919663 0.058517735 0.05231538 0.52287865 -0.32315677 -0.19972187
0.039866872 0.062259544 0.053170949 0.52287865 -0.32315677 -0.19972187
0.038755205 0.066882655 0.05459011 0.52287865 -0.32315677 -0.19972187
0.034031279 0 0.038436688 0.52287865 -0.32315677 -0.19972187
0.038987797 0 0.03672884 0.52287865 -0.32315677 -0.19972187
0.039999999 0.0026141792 0.036944982 0.52287865 -0.32315677 -0.19972187
0.039999999 0.005925124 0.037661154 0.52287865 -0.32315677 -0.19972187
0.039999999 0.0092571853 0.038382825 0.52287865 -0.32315677 -0.19972187
0.039999999 0.012610698 0.039110076 0.52287865 -0.32315677 -0.19972187
0.039999999 0.015986005 0.039842997 0.52287865 -0.32315677 -0.19972187
0.015126718 0.040623944 0.053742655 0.52287865 -0.32315677 -0.19972187
0.020951593 0.040029299 0.051614966 0.52287865 -0.32315677 -0.19972187
0.025022915 0.04065688 0.050356179 0.52287865 -0.32315677 -0.19972187
0.028300572 0.041835859 0.049490802 0.52287865 -0.32315677 -0.19972187
0.031082544 0.043361273 0.048871934 0.52287865 -0.32315677 -0.19972187
0.033420738 0.045204863 0.048475616 0.52287865 -0.32315677 -0.19972187
0.035415407 0.047300234 0.048252989 0.52287865 -0.32315677 -0.19972187
0.037097879 0.049631052 0.048189756 0.52287865 -0.32315677 -0.19972187
0.038409546 0.05224983 0.048317477 0.52287865 -0.32315677 -0.19972187
0.039377786 0.055143692 0.048623979 0.52287865 -0.32315677 -0.19972187
0.039912827 0.05839159 0.049157288 0.52287865 -0.32315677 -0.19972187
0.03988583 0.062106505 0.049986277 0.52287865 -0.32315677 -0.19972187
0.038840104 0.066669591 0.051350787 0.52287865 -0.32315677 -0.19972187
0.033138573 0.075062402 0.055148989 0.52287865 -0.32315677 -0.19972187
0.023869524 0 0.03892355 0.52287865 -0.32315677 -0.19972187
0.028963093 0 0.037188284 0.52287865 -0.32315677 -0.19972187
0.033984017 0 0.035478644 0.52287865 -0.32315677 -0.19972187
0.038934033 0 0.033794012 0.52287865 -0.32315677 -0.19972187
0.027561566 0.01096378 0.039999999 0.52287865 -0.32315677 -0.19972187
0.039999999 0.0058791749 0.034685809 0.52287865 -0.32315677 -0.19972187
0.039999999 0.009206078 0.0353969 0.52287865 -0.32315677 -0.19972187
0.039999999 0.012554366 0.036113437 0.52287865 -0.32315677 -0.19972187
0.039999999 0.015924379 0.036835503 0.52287865 -0.32315677 -0.19972187
0.039999999 0.019316463 0.037563179 0.52287865 -0.32315677 -0.19972187
0.036544133 0.025206421 0.039999999 0.52287865 -0.32315677 -0.19972187
0.039999999 0.026168263 0.039035704 0.52287865 -0.32315677 -0.19972187
0.039999999 0.0296287 0.039780725 0.52287865 -0.32315677 -0.19972187
0.028224498 0.041800663 0.046390541 0.52287865 -0.32315677 -0.19972187
0.031010779 0.043318093 0.045775361 0.52287865 -0.32315677 -0.19972187
0.033360675 0.04514797 0.045376163 0.52287865 -0.32315677 -0.19972187
0.035359848 0.047234826 0.04515199 0.52287865 -0.32315677 -0.19972187
0.037047364 0.049556546 0.045084856 0.52287865 -0.32315677 -0.19972187
0.038373303 0.052158874 0.045201525 0.52287865 -0.32315677 -0.19972187
0.039349284 0.055041034 0.045497917 0.52287865 -0.32315677 -0.19972187
0.039906014 0.058265921 0.046011057 0.52287865 -0.32315677 -0.19972187
0.039893612 0.061962914 0.046819609 0.52287865 -0.32315677 -0.19972187
0.038924649 0.066457406 0.048124928 0.52287865 -0.32315677 -0.19972187
0.034272719 0.073988125 0.05133285 0.52287865 -0.32315677 -0.19972187
0.013438019 0 0.039428715 0.52287865 -0.32315677 -0.19972187
0.018675029 0 0.037665136 0.52287865 -0.32315677 -0.19972187
0.023835963 0 0.035928003 0.52287865 -0.32315677 -0.19972187
0.028922662 0 0.03421668 0.52287865 -0.32315677 -0.19972187
0.033936914 0 0.032530542 0.52287865 -0.32315677 -0.19972187
0.038880449 0 0.030868996 0.52287865 -0.32315677 -0.19972187
0.021219941 0.015199287 0.039999999 0.52287865 -0.32315677 -0.19972187
0.039999999 0.0058333906 0.031721126 0.52287865 -0.32315677 -0.19972187
0.039999999 0.0091551542 0.032421701 0.52287865 -0.32315677 -0.19972187
0.039999999 0.012498236 0.033127587 0.52287865 -0.32315677 -0.19972187
0.039999999 0.015862977 0.033838868 0.52287865 -0.32315677 -0.19972187
0.028778378 0.027206905 0.039999999 0.52287865 -0.32315677 -0.19972187
0.039999999 0.022658814 0.035277933 0.52287865 -0.32315677 -0.19972187
0.031818215 0.032008186 0.039999999 0.52287865 -0.32315677 -0.19972187
0.033341844 0.034408722 0.039999999 0.52287865 -0.32315677 -0.19972187
0.039999999 0.033023823 0.037479047 0.52287865 -0.32315677 -0.19972187
0.036396742 0.039209932 0.039999999 0.52287865 -0.32315677 -0.19972187
0.039999999 0.040052321 0.038975816 0.52287865 -0.32315677 -0.19972187
0.039999999 0.043603271 0.039733279 0.52287865 -0.32315677 -0.19972187
0.036997028 0.049482301 0.041990817 0.52287865 -0.32315677 -0.19972187
0.038337193 0.052068237 0.042096689 0.52287865 -0.32315677 -0.19972187
0.039320886 0.054938745 0.042383138 0.52287865 -0.32315677 -0.19972187
0.03989923 0.058140714 0.042876501 0.52287865 -0.32315677 -0.19972187
0.039901365 0.061819866 0.043664917 0.52287865 -0.32315677 -0.19972187
0.038987078 0.066263609 0.044923332 0.52287865 -0.32315677 -0.19972187
0.034843966 0.073372491 0.04782936 0.52287865 -0.32315677 -0.19972187
0.0027241425 0 0.039952651 0.52287865 -0.32315677 -0.19972187
0.0081113745 0 0.038159817 0.52287865 -0.32315677 -0.19972187
0.013418884 0 0.036394294 0.52287865 -0.32315677 -0.19972187
0.01864863 0 0.034655411 0.52287865 -0.32315677 -0.19972187
0.023802511 0 0.032942519 0.52287865 -0.32315677 -0.19972187
0.028882366 0 0.031254996 0.52287865 -0.32315677 -0.19972187
0.033889968 0 0.029592227 0.52287865 -0.32315677 -0.19972187
0.038827043 0 0.027953628 0.52287865 -0.32315677 -0.19972187
0.014737078 0.019529125 0.039999999 0.52287865 -0.32315677 -0.19972187
0.039999999 0.0057877684 0.028766932 0.52287865 -0.32315677 -0.19972187
0.039999999 0.0091044111 0.029457055 0.52287865 -0.32315677 -0.19972187
0.039999999 0.012442307 0.03015236 0.52287865 -0.32315677 -0.19972187
0.039999999 0.015801793 0.030852923 0.52287865 -0.32315677 -0.19972187
0.022376122 0.031677775 0.039999999 0.52287865 -0.32315677 -0.19972187
0.039999999 0.022586914 0.032270145 0.52287865 -0.32315677 -0.19972187
0.039999999 0.026013255 0.032986961 0.52287865 -0.32315677 -0.19972187
0.039999999 0.029462596 0.033709362 0.52287865 -0.32315677 -0.19972187
0.039999999 0.032935306 0.034437433 0.52287865 -0.32315677 -0.19972187
0.039999999 0.036431763 0.035171255 0.52287865 -0.32315677 -0.19972187
0.0019406944 0.068571717 0.054482922 0.52287865 -0.32315677 -0.19972187
0.039999999 0.043497451 0.036656525 0.52287865 -0.32315677 -0.19972187
0.039999999 0.047067467 0.037408151 0.52287865 -0.32315677 -0.19972187
0.039999999 0.050662808 0.038165893 0.52287865 -0.32315677 -0.19972187
0.039999999 0.05428388 0.03892985 0.52287865 -0.32315677 -0.19972187
0.039999999 0.057931107 0.039700117 0.52287865 -0.32315677 -0.19972187
0.039909091 0.061677352 0.040522017 0.52287865 -0.32315677 -0.19972187
0.039038196 0.06607949 0.041739974 0.52287865 -0.32315677 -0.19972187
0.035256941 0.072886318 0.044424582 0.52287865 -0.32315677 -0.19972187
0.0027202128 0 0.036877919 0.52287865 -0.32315677 -0.19972187
0.0080997609 0 0.03511057 0.52287865 -0.32315677 -0.19972187
0.013399812 0 0.033370059 0.52287865 -0.32315677 -0.19972187
0.01862232 0 0.031655725 0.52287865 -0.32315677 -0.19972187
0.023769174 0 0.029966934 0.52287865 -0.32315677 -0.19972187
0.028842201 0 0.028303068 0.52287865 -0.32315677 -0.19972187
0.033843175 0 0.026663534 0.52287865 -0.32315677 -0.19972187
0.038773809 0 0.025047755 0.52287865 -0.32315677 -0.19972187
0.039999999 0.0024516231 0.025148297 0.52287865 -0.32315677 -0.19972187
0.039999999 0.005742305 0.025823059 0.52287865 -0.32315677 -0.19972187
0.039999999 0.009053845 0.026502797 0.52287865 -0.32315677 -0.19972187
0.039999999 0.012386573 0.027187586 0.52287865 -0.32315677 -0.19972187
0.0142807 0.033791341 0.039999999 0.52287865 -0.32315677 -0.19972187
0.039999999 0.01911694 0.028572613 0.52287865 -0.32315677 -0.19972187
0.039999999 0.022515269 0.029273009 0.52287865 -0.32315677 -0.19972187
0.039999999 0.025936166 0.029978765 0.52287865 -0.32315677 -0.19972187
0.039999999 0.029379988 0.030689962 0.52287865 -0.32315677 -0.19972187
0.039999999 0.032847106 0.031406686 0.52287865 -0.32315677 -0.19972187
0.039999999 0.036337893 0.032129019 0.52287865 -0.32315677 -0.19972187
0.039999999 0.039852735 0.032857046 0.52287865 -0.32315677 -0.19972187
0.039999999 0.04339201 0.033590857 0.52287865 -0.32315677 -0.19972187
0.039999999 0.046956118 0.034330543 0.52287865 -0.32315677 -0.19972187
0.039999999 0.050545469 0.035076194 0.52287865 -0.32315677 -0.19972187
0.039999999 0.054160465 0.035827897 0.52287865 -0.32315677 -0.19972187
0.039999999 0.057801526 0.036585759 0.52287865 -0.32315677 -0.19972187
0.039999999 0.061469082 0.037349865 0.52287865 -0.32315677 -0.19972187
0.039999999 0.065163568 0.038120322 0.52287865 -0.32315677 -0.19972187
0.039999999 0.068885423 0.038897227 0.52287865 -0.32315677 -0.19972187
0.039999999 0.072635107 0.039680682 0.52287865 -0.32315677 -0.19972187
0.0027162964 0 0.033813503 0.52287865 -0.32315677 -0.19972187
0.0080881855 0 0.03207149 0.52287865 -0.32315677 -0.19972187
0.013380805 0 0.030355841 0.52287865 -0.32315677 -0.19972187
0.018596098 0 0.028665913 0.52287865 -0.32315677 -0.19972187
0.023735944 0 0.027001081 0.52287865 -0.32315677 -0.19972187
0.028802168 0 0.025360741 0.52287865 -0.32315677 -0.19972187
0.033796534 0 0.023744307 0.52287865 -0.32315677 -0.19972187
0.038720746 0 0.022151215 0.52287865 -0.32315677 -0.19972187
0.039999999 0.0024113376 0.022224773 0.52287865 -0.32315677 -0.19972187
0.039999999 0.0056969989 0.022889344 0.52287865 -0.32315677 -0.19972187
0.0044432986 0.033462025 0.039999999 0.52287865 -0.32315677 -0.19972187
0.039999999 0.012331033 0.024233095 0.52287865 -0.32315677 -0.19972187
0.039999999 0.015680067 0.024912424 0.52287865 -0.32315677 -0.19972187
0.039999999 0.0190509 0.02559682 0.52287865 -0.32315677 -0.19972187
0.039999999 0.022443876 0.02628636 0.52287865 -0.32315677 -0.19972187
0.039999999 0.025859347 0.026981123 0.52287865 -0.32315677 -0.19972187
0.039999999 0.029297672 0.027681187 0.52287865 -0.32315677 -0.19972187
0.039999999 0.032759219 0.028386636 0.52287865 -0.32315677 -0.19972187
0.039999999 0.036244359 0.029097548 0.52287865 -0.32315677 -0.19972187
0.039999999 0.039753471 0.02981401 0.52287865 -0.32315677 -0.19972187
0.039999999 0.043286946 0.030536108 0.52287865 -0.32315677 -0.19972187
0.0052443226 0.073476434 0.047889367 0.52287865 -0.32315677 -0.19972187
0.039999999 0.050428547 0.031997561 0.52287865 -0.32315677 -0.19972187
0.039999999 0.054037489 0.032737095 0.52287865 -0.32315677 -0.19972187
0.013223099 0.078790404 0.046414435 0.52287865 -0.32315677 -0.19972187
0.039999999 0.061333742 0.034234244 0.52287865 -0.32315677 -0.19972187
0.039999999 0.06502191 0.03499205 0.52287865 -0.32315677 -0.19972187
0.039999999 0.06873735 0.035756137 0.52287865 -0.32315677 -0.19972187
0.039999999 0.07248053 0.036526609 0.52287865 -0.32315677 -0.19972187
0.039999999 0.076251894 0.037303571 0.52287865 -0.32315677 -0.19972187
0.0027123927 0 0.030759238 0.52287865 -0.32315677 -0.19972187
0.0080766482 0 0.029042408 0.52287865 -0.32315677 -0.19972187
0.013361859 0 0.027351478 0.52287865 -0.32315677 -0.19972187
0.018569959 0 0.025685815 0.52287865 -0.32315677 -0.19972187
0.023702823 0 0.024044804 0.52287865 -0.32315677 -0.19972187
0.028762262 0 0.022427853 0.52287865 -0.32315677 -0.19972187
0.033750039 0 0.02083439 0.52287865 -0.32315677 -0.19972187
0.03866785 0 0.019263858 0.52287865 -0.32315677 -0.19972187
0 0.029336801 0.037455123 0.52287865 -0.32315677 -0.19972187
0.039999999 0.005651847 0.019965621 0.52287865 -0.32315677 -0.19972187
0.039999999 0.008953236 0.020624779 0.52287865 -0.32315677 -0.19972187
0.039999999 0.012275683 0.021288726 0.52287865 -0.32315677 -0.19972187
0.039999999 0.015619521 0.021957533 0.52287865 -0.32315677 -0.19972187
0.039999999 0.018985087 0.022631276 0.52287865 -0.32315677 -0.19972187
0.039999999 0.022372728 0.023310028 0.52287865 -0.32315677 -0.19972187
0.039999999 0.025782794 0.023993867 0.52287865 -0.32315677 -0.19972187
0.039999999 0.029215643 0.024682866 0.52287865 -0.32315677 -0.19972187
0.039999999 0.032671638 0.025377108 0.52287865 -0.32315677 -0.19972187
0.039999999 0.036151152 0.026076673 0.52287865 -0.32315677 -0.19972187
0.039999999 0.03965456 0.026781643 0.52287865 -0.32315677 -0.19972187
0.039999999 0.04318225 0.0274921 0.52287865 -0.32315677 -0.19972187
0.039999999 0.046734609 0.028208131 0.52287865 -0.32315677 -0.19972187
0.0074117645 0.075516492 0.044360936 0.52287865 -0.32315677 -0.19972187
0.039999999 0.053914953 0.029657261 0.52287865 -0.32315677 -0.19972187
0.039999999 0.057543758 0.03039054 0.52287865 -0.32315677 -0.19972187
0.039999999 0.061198883 0.031129749 0.52287865 -0.32315677 -0.19972187
0.039999999 0.064880751 0.031874985 0.52287865 -0.32315677 -0.19972187
0.02593546 0.079999998 0.03939382 0.52287865 -0.32315677 -0.19972187
0.039999999 0.072326504 0.033383913 0.52287865 -0.32315677 -0.19972187
0.039999999 0.076091297 0.034147806 0.52287865 -0.32315677 -0.19972187
0.039999999 0.079884641 0.034918118 0.52287865 -0.32315677 -0.19972187
0.0027085019 0 0.027714953 0.52287865 -0.32315677 -0.19972187
0.0080651492 0 0.026023163 0.52287865 -0.32315677 -0.19972187
0.013342974 0 0.024356809 0.52287865 -0.32315677 -0.19972187
0.018543905 0 0.022715269 0.52287865 -0.32315677 -0.19972187
0.023669805 0 0.021097943 0.52287865 -0.32315677 -0.19972187
0.028722484 0 0.019504251 0.52287865 -0.32315677 -0.19972187
0.033703692 0 0.017933628 0.52287865 -0.32315677 -0.19972187
0.038615122 0 0.016385527 0.52287865 -0.32315677 -0.19972187
0.039999999 0.0023311747 0.016407359 0.52287865 -0.32315677 -0.19972187
0.039999999 0.0056068469 0.017051728 0.52287865 -0.32315677 -0.19972187
0.039999999 0.0089031868 0.017700691 0.52287865 -0.32315677 -0.19972187
0.039999999 0.012220521 0.018354312 0.52287865 -0.32315677 -0.19972187
0.039999999 0.015559179 0.019012664 0.52287865 -0.32315677 -0.19972187
0 0.047255915 0.037849966 0.52287865 -0.32315677 -0.19972187
0.039999999 0.022301823 0.020343848 0.52287865 -0.32315677 -0.19972187
0.039999999 0.025706504 0.021016827 0.52287865 -0.32315677 -0.19972187
0.039999999 0.029133894 0.021694832 0.52287865 -0.32315677 -0.19972187
0.039999999 0.032584358 0.022377938 0.52287865 -0.32315677 -0.19972187
0.039999999 0.036058266 0.023066225 0.52287865 -0.32315677 -0.19972187
0.039999999 0.039555989 0.023759771 0.52287865 -0.32315677 -0.19972187
0.039999999 0.043077916 0.024458662 0.52287865 -0.32315677 -0.19972187
0.039999999 0.046624433 0.025162976 0.52287865 -0.32315677 -0.19972187
0.039999999 0.050195944 0.0258728 0.52287865 -0.32315677 -0.19972187
0.039999999 0.053792849 0.026588222 0.52287865 -0.32315677 -0.19972187
0.039999999 0.05741556 0.027309328 0.52287865 -0.32315677 -0.19972187
0.039999999 0.0610645 0.028036207 0.52287865 -0.32315677 -0.19972187
0.039999999 0.064740099 0.028768953 0.52287865 -0.32315677 -0.19972187
0.039999999 0.068442799 0.029507656 0.52287865 -0.32315677 -0.19972187
0.039999999 0.072173037 0.030252414 0.52287865 -0.32315677 -0.19972187
0.039999999 0.075931266 0.031003322 0.52287865 -0.32315677 -0.19972187
0.039661959 0.079999998 0.031922534 0.52287865 -0.32315677 -0.19972187
0.0027046236 0 0.024680488 0.52287865 -0.32315677 -0.19972187
0.0080536865 0 0.02301359 0.52287865 -0.32315677 -0.19972187
0.013324149 0 0.02137167 0.52287865 -0.32315677 -0.19972187
0.018517932 0 0.019754117 0.52287865 -0.32315677 -0.19972187
0.023636892 0 0.018160343 0.52287865 -0.32315677 -0.19972187
0.02868283 0 0.016589778 0.52287865 -0.32315677 -0.19972187
0.033657487 0 0.015041865 0.52287865 -0.32315677 -0.19972187
0.038562559 0 0.013516074 0.52287865 -0.32315677 -0.19972187
0.039999999 0.0022912929 0.013513149 0.52287865 -0.32315677 -0.19972187
0.039999999 0.0055619963 0.014147509 0.52287865 -0.32315677 -0.19972187
0.039999999 0.0088533042 0.014786335 0.52287865 -0.32315677 -0.19972187
0.039999999 0.012165542 0.015429692 0.52287865 -0.32315677 -0.19972187
0.039999999 0.015499039 0.016077653 0.52287865 -0.32315677 -0.19972187
0.039999999 0.01885413 0.016730282 0.52287865 -0.32315677 -0.19972187
0.039999999 0.022231158 0.017387655 0.52287865 -0.32315677 -0.19972187
0.039999999 0.02563047 0.018049842 0.52287865 -0.32315677 -0.19972187
0.039999999 0.029052421 0.018716916 0.52287865 -0.32315677 -0.19972187
0 0.061958537 0.037539341 0.52287865 -0.32315677 -0.19972187
0.039999999 0.035965692 0.020066034 0.52287865 -0.32315677 -0.19972187
0.039999999 0.039457757 0.02074823 0.52287865 -0.32315677 -0.19972187
0 0.073302947 0.039755546 0.52287865 -0.32315677 -0.19972187
0.039999999 0.046514641 0.022128295 0.52287865 -0.32315677 -0.19972187
0.0027370651 0.078882322 0.039999999 0.52287865 -0.32315677 -0.19972187
0.039999999 0.053671163 0.023529805 0.52287865 -0.32315677 -0.19972187
0.039999999 0.057287805 0.024238814 0.52287865 -0.32315677 -0.19972187
0.039999999 0.060930587 0.02495344 0.52287865 -0.32315677 -0.19972187
0.039999999 0.064599939 0.025673775 0.52287865 -0.32315677 -0.19972187
0.039999999 0.068296291 0.026399907 0.52287865 -0.32315677 -0.19972187
0.039999999 0.072020099 0.02713193 0.52287865 -0.32315677 -0.19972187
0.039999999 0.075771809 0.02786994 0.52287865 -0.32315677 -0.19972187
0.039999999 0.079551876 0.028614029 0.52287865 -0.32315677 -0.19972187
0.0027007577 0 0.021655677 0.52287865 -0.32315677 -0.19972187
0.0080422601 0 0.020013532 0.52287865 -0.32315677 -0.19972187
0.013305384 0 0.018395906 0.52287865 -0.32315677 -0.19972187
0.018492041 0 0.016802205 0.52287865 -0.32315677 -0.19972187
0.023604082 0 0.015231849 0.52287865 -0.32315677 -0.19972187
0.028643299 0 0.013684279 0.52287865 -0.32315677 -0.19972187
0.033611428 0 0.012158954 0.52287865 -0.32315677 -0.19972187
0.038510151 0 0.010655347 0.52287865 -0.32315677 -0.19972187
0.039999999 0.0022515415 0.010628391 0.52287865 -0.32315677 -0.19972187
0.039999999 0.0055172928 0.011252802 0.52287865 -0.32315677 -0.19972187
0.039999999 0.0088035855 0.011881552 0.52287865 -0.32315677 -0.19972187
0.039999999 0.012110745 0.012514708 0.52287865 -0.32315677 -0.19972187
0.039999999 0.015439097 0.013152337 0.52287865 -0.32315677 -0.19972187
0.039999999 0.018788977 0.013794506 0.52287865 -0.32315677 -0.19972187
0.039999999 0.022160726 0.014441285 0.52287865 -0.32315677 -0.19972187
0.039999999 0.025554691 0.015092745 0.52287865 -0.32315677 -0.19972187
0.039999999 0.028971223 0.015748957 0.52287865 -0.32315677 -0.19972187
0.039999999 0.032410681 0.016409995 0.52287865 -0.32315677 -0.19972187
0.039999999 0.035873435 0.017075934 0.52287865 -0.32315677 -0.19972187
0.039999999 0.039359853 0.017746849 0.52287865 -0.32315677 -0.19972187
0.039999999 0.04287032 0.018422816 0.52287865 -0.32315677 -0.19972187
0.039999999 0.049964942 0.01979023 0.52287865 -0.32315677 -0.19972187
0.039999999 0.053549893 0.02048184 0.52287865 -0.32315677 -0.19972187
0.039999999 0.057160486 0.021178827 0.52287865 -0.32315677 -0.19972187
0.039999999 0.060797133 0.021881277 0.52287865 -0.32315677 -0.19972187
0.039999999 0.064460263 0.022589277 0.52287865 -0.32315677 -0.19972187
0.039999999 0.068150297 0.023302916 0.52287865 -0.32315677 -0.19972187
0.039999999 0.071867697 0.024022287 0.52287865 -0.32315677 -0.19972187
0.039999999 0.075612903 0.024747478 0.52287865 -0.32315677 -0.19972187
0.039999999 0.079386368 0.025478583 0.52287865 -0.32315677 -0.19972187
0.0026969041 0 0.018640362 0.52287865 -0.32315677 -0.19972187
0.0080308691 0 0.017022826 0.52287865 -0.32315677 -0.19972187
0.013286676 0 0.015429358 0.52287865 -0.32315677 -0.19972187
0.018466229 0 0.013859374 0.52287865 -0.32315677 -0.19972187
0.02357137 0 0.012312305 0.52287865 -0.32315677 -0.19972187
0.028603885 0 0.010787605 0.52287865 -0.32315677 -0.19972187
0.033565506 0 0.0092847422 0.52287865 -0.32315677 -0.19972187
0.0384579 0 0.0078031993 0.52287865 -0.32315677 -0.19972187
0.039999999 0.0054727332 0.0083674509 0.52287865 -0.32315677 -0.19972187
0.039999999 0.0087540289 0.0089861853 0.52287865 -0.32315677 -0.19972187
0.039999999 0.012056125 0.0096092001 0.52287865 -0.32315677 -0.19972187
0.039999999 0.015379351 0.010236559 0.52287865 -0.32315677 -0.19972187
0.039999999 0.022090526 0.01150458 0.52287865 -0.32315677 -0.19972187
0.039999999 0.02547916 0.012145378 0.52287865 -0.32315677 -0.19972187
0.039999999 0.028890291 0.012790793 0.52287865 -0.32315677 -0.19972187
0 0.061771099 0.031098565 0.52287865 -0.32315677 -0.19972187
0.039999999 0.035781484 0.014095763 0.52287865 -0.32315677 -0.19972187
0 0.069283821 0.032522026 0.52287865 -0.32315677 -0.19972187
0.039999999 0.042767044 0.015420076 0.52287865 -0.32315677 -0.19972187
0.039999999 0.046296161 0.016089676 0.52287865 -0.32315677 -0.19972187
0.039999999 0.049850024 0.016764343 0.52287865 -0.32315677 -0.19972187
0.039999999 0.053429037 0.017444154 0.52287865 -0.32315677 -0.19972187
0.039999999 0.057033598 0.018129194 0.52287865 -0.32315677 -0.19972187
0.039999999 0.060664132 0.018819544 0.52287865 -0.32315677 -0.19972187
0.039999999 0.064321056 0.019515289 0.52287865 -0.32315677 -0.19972187
0.039999999 0.068004802 0.020216515 0.52287865 -0.32315677 -0.19972187
0.039999999 0.071715817 0.020923309 0.52287865 -0.32315677 -0.19972187
0.039999999 0.075454541 0.021635761 0.52287865 -0.32315677 -0.19972187
0.039999999 0.079221435 0.022353966 0.52287865 -0.32315677 -0.19972187
0.0026930622 0 0.015634384 0.52287865 -0.32315677 -0.19972187
0.0080195135 0 0.014041318 0.52287865 -0.32315677 -0.19972187
0.013268026 0 0.012471871 0.52287865 -0.32315677 -0.19972187
0.018440496 0 0.010925472 0.52287865 -0.32315677 -0.19972187
0.023538759 0 0.0094015626 0.52287865 -0.32315677 -0.19972187
0.028564593 0 0.0078996066 0.52287865 -0.32315677 -0.19972187
0.033519719 0 0.0064190822 0.52287865 -0.32315677 -0.19972187
0.038405806 0 0.0049594841 0.52287865 -0.32315677 -0.19972187
0.039999999 0.002172421 0.0048866183 0.52287865 -0.32315677 -0.19972187
0.039999999 0.0054283161 0.0054913033 0.52287865 -0.32315677 -0.19972187
0.039999999 0.0087046297 0.0061000804 0.52287865 -0.32315677 -0.19972187
0.039999999 0.012001681 0.0067130132 0.52287865 -0.32315677 -0.19972187
0.039999999 0.015319797 0.0073301638 0.52287865 -0.32315677 -0.19972187
0.039999999 0.018659309 0.0079515977 0.52287865 -0.32315677 -0.19972187
0.039999999 0.022020554 0.0085773803 0.52287865 -0.32315677 -0.19972187
0.039999999 0.025403874 0.0092075793 0.52287865 -0.32315677 -0.19972187
0.039999999 0.028809624 0.0098422617 0.52287865 -0.32315677 -0.19972187
0.039999999 0.032238156 0.010481497 0.52287865 -0.32315677 -0.19972187
0.039999999 0.035689831 0.011125357 0.52287865 -0.32315677 -0.19972187
0.039999999 0.039165024 0.011773912 0.52287865 -0.32315677 -0.19972187
0.039999999 0.042664107 0.012427238 0.52287865 -0.32315677 -0.19972187
0.039999999 0.046187468 0.013085407 0.52287865 -0.32315677 -0.19972187
0.039999999 0.04973549 0.013748498 0.52287865 -0.32315677 -0.19972187
0.039999999 0.05330858 0.014416586 0.52287865 -0.32315677 -0.19972187
0.010660066 0.079999998 0.028141808 0.52287865 -0.32315677 -0.19972187
0.039999999 0.060531579 0.015768075 0.52287865 -0.32315677 -0.19972187
0.039999999 0.064182319 0.01645164 0.52287865 -0.32315677 -0.19972187
0.039999999 0.067859799 0.017140528 0.52287865 -0.32315677 -0.19972187
0.039999999 0.071564451 0.017834825 0.52287865 -0.32315677 -0.19972187
0.039999999 0.075296722 0.018534621 0.52287865 -0.32315677 -0.19972187
0.039999999 0.07905706 0.019240001 0.52287865 -0.32315677 -0.19972187
0.0026892321 0 0.012637584 0.52287865 -0.32315677 -0.19972187
0.0080081923 0 0.011068851 0.52287865 -0.32315677 -0.19972187
0.013249432 0 0.009523293 0.52287865 -0.32315677 -0.19972187
0.01841484 0 0.0080003478 0.52287865 -0.32315677 -0.19972187
0.023506243 0 0.0064994707 0.52287865 -0.32315677 -0.19972187
0.028525414 0 0.0050201342 0.52287865 -0.32315677 -0.19972187
0.033474065 0 0.0035618271 0.52287865 -0.32315677 -0.19972187
0.038353864 0 0.0021240551 0.52287865 -0.32315677 -0.19972187
0.039999999 0.0021330477 0.0020292962 0.52287865 -0.32315677 -0.19972187
0.039999999 0.0053840387 0.0026242041 0.52287865 -0.32315677 -0.19972187
0.039999999 0.008655386 0.0032230825 0.52287865 -0.32315677 -0.19972187
0.039999999 0.011947409 0.0038259916 0.52287865 -0.32315677 -0.19972187
0.039999999 0.015260432 0.0044329939 0.52287865 -0.32315677 -0.19972187
0.039999999 0.018594785 0.0050441516 0.52287865 -0.32315677 -0.19972187
0.039999999 0.021950804 0.005659529 0.52287865 -0.32315677 -0.19972187
0.039999999 0.025328832 0.006279191 0.52287865 -0.32315677 -0.19972187
0.039999999 0.028729215 0.0069032041 0.52287865 -0.32315677 -0.19972187
0.039999999 0.03215231 0.0075316364 0.52287865 -0.32315677 -0.19972187
0.039999999 0.035598475 0.0081645558 0.52287865 -0.32315677 -0.19972187
0 0.069073543 0.026075434 0.52287865 -0.32315677 -0.19972187
0 0.072856344 0.02677073 0.52287865 -0.32315677 -0.19972187
0.039999999 0.046079125 0.010090947 0.52287865 -0.32315677 -0.19972187
0.00064894994 0.079999998 0.027893828 0.52287865 -0.32315677 -0.19972187
0.039999999 0.053188518 0.011398966 0.52287865 -0.32315677 -0.19972187
0.010490136 0.079999998 0.025002846 0.52287865 -0.32315677 -0.19972187
0.039999999 0.060399462 0.012726702 0.52287865 -0.32315677 -0.19972187
0.039999999 0.064044051 0.01339816 0.52287865 -0.32315677 -0.19972187
0.039999999 0.06771528 0.014074787 0.52287865 -0.32315677 -0.19972187
0.039999999 0.071413592 0.014756666 0.52287865 -0.32315677 -0.19972187
0.039999999 0.075139426 0.015443882 0.52287865 -0.32315677 -0.19972187
0.039999999 0.078893244 0.016136521 0.52287865 -0.32315677 -0.19972187
0.0026854137 0 0.0096498067 0.52287865 -0.32315677 -0.19972187
0.0079969047 0 0.0081052724 0.52287865 -0.32315677 -0.19972187
0.013230893 0 0.0065834709 0.52287865 -0.32315677 -0.19972187
0.018389259 0 0.0050838515 0.52287865 -0.32315677 -0.19972187
0.023473823 0 0.0036058803 0.52287865 -0.32315677 -0.19972187
0.028486351 0 0.0021490408 0.52287865 -0.32315677 -0.19972187
0.033428546 0 0.0007128322 0.52287865 -0.32315677 -0.19972187
0.036589824 0.0011418713 0 0.52287865 -0.32315677 -0.19972187
0.038011257 0.003433346 0 0.52287865 -0.32315677 -0.19972187
0.039433587 0.0057252212 0 0.52287865 -0.32315677 -0.19972187
0.039999999 0.008606297 0.00035503955 0.52287865 -0.32315677 -0.19972187
0.039999999 0.011893307 0.00094798376 0.52287865 -0.32315677 -0.19972187
0.039999999 0.015201254 0.001544896 0.52287865 -0.32315677 -0.19972187
0.039999999 0.018530464 0.0021458375 0.52287865 -0.32315677 -0.19972187
0.039999999 0.021881275 0.0027508703 0.52287865 -0.32315677 -0.19972187
0.039999999 0.025254024 0.0033600579 0.52287865 -0.32315677 -0.19972187
0.039999999 0.02864906 0.0039734649 0.52287865 -0.32315677 -0.19972187
0.039999999 0.032066736 0.0045911567 0.52287865 -0.32315677 -0.19972187
0 0.065217912 0.022189315 0.52287865 -0.32315677 -0.19972187
0.039999999 0.038971454 0.0058396654 0.52287865 -0.32315677 -0.19972187
0.039999999 0.042459235 0.0064706192 0.52287865 -0.32315677 -0.19972187
0.039999999 0.045971133 0.0071061337 0.52287865 -0.32315677 -0.19972187
0.039999999 0.04950754 0.0077462811 0.52287865 -0.32315677 -0.19972187
0.039999999 0.053068846 0.0083911344 0.52287865 -0.32315677 -0.19972187
0.039999999 0.056655455 0.0090407683 0.52287865 -0.32315677 -0.19972187
0.039999999 0.060267776 0.0096952599 0.52287865 -0.32315677 -0.19972187
0.039999999 0.06390623 0.010354686 0.52287865 -0.32315677 -0.19972187
0.039999999 0.06757123 0.011019127 0.52287865 -0.32315677 -0.19972187
0.039999999 0.071263231 0.011688663 0.52287865 -0.32315677 -0.19972187
0.039999999 0.074982658 0.012363376 0.52287865 -0.32315677 -0.19972187
0.039999999 0.078729965 0.013043351 0.52287865 -0.32315677 -0.19972187
0.0026816064 0 0.0066708997 0.52287865 -0.32315677 -0.19972187
0.0079856506 0 0.0051504299 0.52287865 -0.32315677 -0.19972187
0.013212408 0 0.0036522541 0.52287865 -0.32315677 -0.19972187
0.018363753 0 0.0021758333 0.52287865 -0.32315677 -0.19972187
0.023441497 0 0.00072064454 0.52287865 -0.32315677 -0.19972187
0.026673932 0.0011591255 0 0.52287865 -0.32315677 -0.19972187
0.028111387 0.0034803348 0 0.52287865 -0.32315677 -0.19972187
0.029549528 0.005801877 0 0.52287865 -0.32315677 -0.19972187
0.030988405 0.0081238365 0 0.52287865 -0.32315677 -0.19972187
0.032428071 0.010446297 0 0.52287865 -0.32315677 -0.19972187
0.033868581 0.012769343 0 0.52287865 -0.32315677 -0.19972187
0.035309985 0.01509306 2.7755576e-17 0.52287865 -0.32315677 -0.19972187
0.036752336 0.017417531 0 0.52287865 -0.32315677 -0.19972187
0 0.046765223 0.015739184 0.52287865 -0.32315677 -0.19972187
0.039640091 0.022069078 0 0.52287865 -0.32315677 -0.19972187
0 0.054034419 0.017031575 0.52287865 -0.32315677 -0.19972187
0.039999999 0.028569158 0.0010528878 0.52287865 -0.32315677 -0.19972187
0.039999999 0.035416637 0.0022711358 0.52287865 -0.32315677 -0.19972187
0.039999999 0.038875129 0.0028866522 0.52287865 -0.32315677 -0.19972187
0.039999999 0.042357288 0.0035065203 0.52287865 -0.32315677 -0.19972187
0.039999999 0.045863487 0.0041308082 0.52287865 -0.32315677 -0.19972187
0.039999999 0.049394112 0.0047595864 0.52287865 -0.32315677 -0.19972187
0.039999999 0.052949559 0.0053929267 0.52287865 -0.32315677 -0.19972187
0.010151589 0.079999998 0.018749196 0.52287865 -0.32315677 -0.19972187
0.039999999 0.060136516 0.0066735838 0.52287865 -0.32315677 -0.19972187
0.01974372 0.079999998 0.016006297 0.52287865 -0.32315677 -0.19972187
0.039999999 0.067427658 0.0079733795 0.52287865 -0.32315677 -0.19972187
0.039999999 0.071113355 0.0086306473 0.52287865 -0.32315677 -0.19972187
0.039999999 0.074826397 0.009292936 0.52287865 -0.32315677 -0.19972187
0.039999999 0.078567229 0.0099603264 0.52287865 -0.32315677 -0.19972187
0.0026778104 0 0.0037007097 0.52287865 -0.32315677 -0.19972187
0.0079744291 0 0.0022041723 0.52287865 -0.32315677 -0.19972187
0.013193977 0 0.0007294942 0.52287865 -0.32315677 -0.19972187
0.01650306 0.0011754793 0 0.52287865 -0.32315677 -0.19972187
0.017957669 0.0035271817 0 0.52287865 -0.32315677 -0.19972187
0.019412734 0.0058791437 0 0.52287865 -0.32315677 -0.19972187
0.020868309 0.0082314517 0 0.52287865 -0.32315677 -0.19972187
0.022324445 0.010584193 0 0.52287865 -0.32315677 -0.19972187
0.023781199 0.012937456 0 0.52287865 -0.32315677 -0.19972187
0.025238624 0.015291326 2.7755576e-17 0.52287865 -0.32315677 -0.19972187
0.026696773 0.017645892 0 0.52287865 -0.32315677 -0.19972187
0.028155703 0.020001238 0 0.52287865 -0.32315677 -0.19972187
0.029615466 0.022357456 0 0.52287865 -0.32315677 -0.19972187
0.031076118 0.024714632 0 0.52287865 -0.32315677 -0.19972187
0.032537714 0.027072852 0 0.52287865 -0.32315677 -0.19972187
0.034000304 0.029432207 0 0.52287865 -0.32315677 -0.19972187
0.035463952 0.031792782 0 0.52287865 -0.32315677 -0.19972187
0 0.061307773 0.015177428 0.52287865 -0.32315677 -0.19972187
0 0.065021627 0.015827654 0.52287865 -0.32315677 -0.19972187
0.039861754 0.038882725 0 0.52287865 -0.32315677 -0.19972187
0.039999999 0.042255659 0.00055168435 0.52287865 -0.32315677 -0.19972187
0.039999999 0.045756176 0.0011648122 0.52287865 -0.32315677 -0.19972187
0.039999999 0.049281042 0.0017822891 0.52287865 -0.32315677 -0.19972187
0.039999999 0.052830648 0.0024041843 0.52287865 -0.32315677 -0.19972187
0.0099829566 0.079999998 0.015634209 0.52287865 -0.32315677 -0.19972187
0.039999999 0.060005672 0.0036615138 0.52287865 -0.32315677 -0.19972187
0.039999999 0.063631915 0.0042970935 0.52287865 -0.32315677 -0.19972187
0.039999999 0.067284539 0.0049373829 0.52287865 -0.32315677 -0.19972187
0.039999999 0.070963964 0.0055824574 0.52287865 -0.32315677 -0.19972187
0.033531286 0.079999998 0.0089913895 0.52287865 -0.32315677 -0.19972187
0.039999999 0.078405015 0.0068872767 0.52287865 -0.32315677 -0.19972187
0.0026740253 0 0.00073908584 0.52287865 -0.32315677 -0.19972187
0.0060647996 0.0011914456 0 0.52287865 -0.32315677 -0.19972187
0.0075377715 0.0035744379 0 0.52287865 -0.32315677 -0.19972187
0.0090109548 0.0059576095 0 0.52287865 -0.32315677 -0.19972187
0.010484406 0.0083410507 0 0.52287865 -0.32315677 -0.19972187
0.011958179 0.010724851 0 0.52287865 -0.32315677 -0.19972187
0.013432331 0.013109101 0 0.52287865 -0.32315677 -0.19972187
0 0.02543192 0.0058610304 0.52287865 -0.32315677 -0.19972187
0.016381996 0.017879309 0 0.52287865 -0.32315677 -0.19972187
0.017857619 0.020265447 0 0.52287865 -0.32315677 -0.19972187
0.019333841 0.022652395 0 0.52287865 -0.32315677 -0.19972187
0.020810725 0.025040245 0 0.52287865 -0.32315677 -0.19972187
0.022288321 0.027429083 0 0.52287865 -0.32315677 -0.19972187
0.023766687 0.029819006 0 0.52287865 -0.32315677 -0.19972187
0.025245881 0.0322101 0 0.52287865 -0.32315677 -0.19972187
0.026725955 0.03460246 0 0.52287865 -0.32315677 -0.19972187
0.028206971 0.036996175 0 0.52287865 -0.32315677 -0.19972187
0.029688982 0.039391335 0 0.52287865 -0.32315677 -0.19972187
0.031172046 0.04178803 0 0.52287865 -0.32315677 -0.19972187
0.032656223 0.044186361 0 0.52287865 -0.32315677 -0.19972187
0.034141563 0.046586413 0 0.52287865 -0.32315677 -0.19972187
0.035628129 0.048988279 0 0.52287865 -0.32315677 -0.19972187
0.037115976 0.051392056 0 0.52287865 -0.32315677 -0.19972187
0.038605165 0.05379783 0 0.52287865 -0.32315677 -0.19972187
0.039999999 0.056280941 3.9612005e-05 0.52287865 -0.32315677 -0.19972187
0.039999999 0.059875239 0.00065888936 0.52287865 -0.32315677 -0.19972187
0.039999999 0.063495412 0.0012826527 0.52287865 -0.32315677 -0.19972187
0.039999999 0.067141868 0.0019109745 0.52287865 -0.32315677 -0.19972187
0.039999999 0.070815049 0.002543929 0.52287865 -0.32315677 -0.19972187
0.039999999 0.074515387 0.0031815916 0.52287865 -0.32315677 -0.19972187
0.039999999 0.078243323 0.0038240396 0.52287865 -0.32315677 -0.19972187
0.0013163885 0.010868969 0 0.52287865 -0.32315677 -0.19972187
0.0028091737 0.013285017 0 0.52287865 -0.32315677 -0.19972187
0.0043021427 0.015701529 0 0.52287865 -0.32315677 -0.19972187
0.0057953526 0.018118598 0 0.52287865 -0.32315677 -0.19972187
0.0072888606 0.020536318 0 0.52287865 -0.32315677 -0.19972187
0.0087827248 0.022954784 0 0.52287865 -0.32315677 -0.19972187
0.010277003 0.025374087 0 0.52287865 -0.32315677 -0.19972187
0.011771753 0.027794318 0 0.52287865 -0.32315677 -0.19972187
0.013267032 0.030215576 2.7755576e-17 0.52287865 -0.32315677 -0.19972187
0.014762898 0.032637954 2.7755576e-17 0.52287865 -0.32315677 -0.19972187
0.016259409 0.035061542 0 0.52287865 -0.32315677 -0.19972187
0.017756624 0.037486438 0 0.52287865 -0.32315677 -0.19972187
0.019254599 0.039912734 0 0.52287865 -0.32315677 -0.19972187
0.020753393 0.042340528 0 0.52287865 -0.32315677 -0.19972187
0.022253066 0.044769909 0 0.52287865 -0.32315677 -0.19972187
0.023753677 0.047200978 0 0.52287865 -0.32315677 -0.19972187
0.025255281 0.049633827 0 0.52287865 -0.32315677 -0.19972187
0.026757941 0.05206855 2.7755576e-17 0.52287865 -0.32315677 -0.19972187
0.028261714 0.054505248 0 0.52287865 -0.32315677 -0.19972187
0.029766658 0.056944013 0 0.52287865 -0.32315677 -0.19972187
0.031272836 0.059384946 0 0.52287865 -0.32315677 -0.19972187
0.032780305 0.061828136 0 0.52287865 -0.32315677 -0.19972187
0.034289125 0.064273685 0 0.52287865 -0.32315677 -0.19972187
0.035799354 0.066721693 0 0.52287865 -0.32315677 -0.19972187
0.023910062 0.079999998 0.0055120485 0.52287865 -0.32315677 -0.19972187
0.038824294 0.071625471 0 0.52287865 -0.32315677 -0.19972187
0.039999999 0.074360609 0.00014036194 0.52287865 -0.32315677 -0.19972187
0.039999999 0.078082137 0.00077045121 0.52287865 -0.32315677 -0.19972187
0.00097486225 0.028169576 0 0.52287865 -0.32315677 -0.19972187
0.0024882718 0.030622978 0 0.52287865 -0.32315677 -0.19972187
0.0040020146 0.033077437 0 0.52287865 -0.32315677 -0.19972187
0.005516151 0.035533052 0 0.52287865 -0.32315677 -0.19972187
0 0.042912163 0.0027221062 0.52287865 -0.32315677 -0.19972187
0.008545843 0.040448137 0 0.52287865 -0.32315677 -0.19972187
0.010061517 0.042907801 0 0.52287865 -0.32315677 -0.19972187
0.011577824 0.04536901 0 0.52287865 -0.32315677 -0.19972187
0.013094825 0.047831863 0 0.52287865 -0.32315677 -0.19972187
0.014612578 0.050296459 0 0.52287865 -0.32315677 -0.19972187
0.016131144 0.052762892 0 0.52287865 -0.32315677 -0.19972187
0.017650584 0.055231266 0 0.52287865 -0.32315677 -0.19972187
0.019170959 0.057701681 0 0.52287865 -0.32315677 -0.19972187
0.020692328 0.060174227 0 0.52287865 -0.32315677 -0.19972187
0.022214754 0.062649012 0 0.52287865 -0.32315677 -0.19972187
0.023738299 0.065126136 0 0.52287865 -0.32315677 -0.19972187
0.025263021 0.067605697 0 0.52287865 -0.32315677 -0.19972187
0.026788983 0.070087798 0 0.52287865 -0.32315677 -0.19972187
0.028316248 0.072572537 0 0.52287865 -0.32315677 -0.19972187
0.029844876 0.075060017 0 0.52287865 -0.32315677 -0.19972187
0.031374931 0.077550344 0 0.52287865 -0.32315677 -0.19972187
0.00061706023 0.045985021 2.7755576e-17 0.52287865 -0.32315677 -0.19972187
0 0.050016075 0.00082525361 0.52287865 -0.32315677 -0.19972187
0.0036867387 0.05097761 0 0.52287865 -0.32315677 -0.19972187
0.0052223844 0.05347655 0 0.52287865 -0.32315677 -0.19972187
0.0067586508 0.055977393 0 0.52287865 -0.32315677 -0.19972187
0.0082955994 0.058480237 0 0.52287865 -0.32315677 -0.19972187
0.009833294 0.060985189 0 0.52287865 -0.32315677 -0.19972187
0 0.072088309 0.004440207 0.52287865 -0.32315677 -0.19972187
0.012911166 0.066001818 2.7755576e-17 0.52287865 -0.32315677 -0.19972187
0.014451471 0.068513699 0 0.52287865 -0.32315677 -0.19972187
0.015992772 0.071028098 0 0.52287865 -0.32315677 -0.19972187
0.017535131 0.073545128 0 0.52287865 -0.32315677 -0.19972187
0.019078612 0.076064877 0 0.52287865 -0.32315677 -0.19972187
0.02062328 0.078587465 0 0.52287865 -0.32315677 -0.19972187
0.00023767777 0.064359844 0 0.52287865 -0.32315677 -0.19972187
0.0017940593 0.066902466 0 0.52287865 -0.32315677 -0.19972187
0.0033511138 0.06944748 0 0.52287865 -0.32315677 -0.19972187
0.0049089054 0.07199499 0 0.52287865 -0.32315677 -0.19972187
0.0064674993 0.0745451 0 0.52287865 -0.32315677 -0.19972187
0.0080269603 0.077097915 0 0.52287865 -0.32315677 -0.19972187
0.0095873531 0.079653554 0 0.52287865 -0.32315677 -0.19972187
