# .PCD v0.7 - Point Cloud Data file format
VERSION 0.7
FIELDS x y z vp_x vp_y vp_z
SIZE 4 4 4 4 4 4
TYPE F F F F F F
COUNT 1 1 1 1 1 1
WIDTH 676
HEIGHT 1
VIEWPOINT 0 0 0 1 0 0 0
POINTS 676
DATA ascii
0.0011512229 0.061533421 0.07 0.52287865 -0.32315677 0.19972187
0.0025502366 0.064062558 0.07 0.52287865 -0.32315677 0.19972187
0.0039449474 0.066598997 0.07 0.52287865 -0.32315677 0.19972187
0.0053354451 0.069142923 0.07 0.52287865 -0.32315677 0.19972187
0.0067218198 0.071694538 0.07 0.52287865 -0.32315677 0.19972187
0.0081041604 0.074254028 0.07 0.52287865 -0.32315677 0.19972187
0.009482556 0.076821588 0.07 0.52287865 -0.32315677 0.19972187
0.0086156446 0.045680538 0.07 0.52287865 -0.32315677 0.19972187
0.010004156 0.048132822 0.07 0.52287865 -0.32315677 0.19972187
0.011388503 0.050591409 0.07 0.52287865 -0.32315677 0.19972187
0.012768773 0.053056471 0.07 0.52287865 -0.32315677 0.19972187
0.014145055 0.055528186 0.07 0.52287865 -0.32315677 0.19972187
0.015517434 0.058006741 0.07 0.52287865 -0.32315677 0.19972187
0.016885998 0.060492307 0.07 0.52287865 -0.32315677 0.19972187
0.018250834 0.06298507 0.07 0.52287865 -0.32315677 0.19972187
0.019612027 0.065485224 0.07 0.52287865 -0.32315677 0.19972187
0.020969665 0.067992941 0.07 0.52287865 -0.32315677 0.19972187
0.02232383 0.070508413 0.07 0.52287865 -0.32315677 0.19972187
0.023674607 0.073031828 0.07 0.52287865 -0.32315677 0.19972187
0.025022084 0.075563379 0.07 0.52287865 -0.32315677 0.19972187
0.026366344 0.078103259 0.07 0.52287865 -0.32315677 0.19972187
0.016051438 0.04042042 0.06902907 0.52287865 -0.32315677 0.19972187
0.02118204 0.040118072 0.07 0.52287865 -0.32315677 0.19972187
0.022543594 0.042522661 0.07 0.52287865 -0.32315677 0.19972187
0.02390145 0.044933315 0.07 0.52287865 -0.32315677 0.19972187
0.025255691 0.047350198 0.07 0.52287865 -0.32315677 0.19972187
0.026606401 0.049773484 0.07 0.52287865 -0.32315677 0.19972187
0.027953666 0.052203342 0.07 0.52287865 -0.32315677 0.19972187
0.029297568 0.054639947 0.07 0.52287865 -0.32315677 0.19972187
0.03063819 0.057083469 0.07 0.52287865 -0.32315677 0.19972187
0.031975616 0.059534092 0.07 0.52287865 -0.32315677 0.19972187
0.033309925 0.06199199 0.07 0.52287865 -0.32315677 0.19972187
0.034641199 0.064457342 0.07 0.52287865 -0.32315677 0.19972187
0.035969526 0.066930331 0.07 0.52287865 -0.32315677 0.19972187
0.037294984 0.069411136 0.07 0.52287865 -0.32315677 0.19972187
0.016198382 0.040388077 0.066215597 0.52287865 -0.32315677 0.19972187
0.021368681 0.040060401 0.067216493 0.52287865 -0.32315677 0.19972187
0.025165703 0.040688306 0.06785997 0.52287865 -0.32315677 0.19972187
0.028249783 0.04181236 0.068318471 0.52287865 -0.32315677 0.19972187
0.030890951 0.043245997 0.06866239 0.52287865 -0.32315677 0.19972187
0.03315248 0.044950768 0.068907641 0.52287865 -0.32315677 0.19972187
0.035077214 0.046902098 0.069064863 0.52287865 -0.32315677 0.19972187
0.036716171 0.049068041 0.069147013 0.52287865 -0.32315677 0.19972187
0.038072161 0.051452558 0.069154203 0.52287865 -0.32315677 0.19972187
0.039089482 0.054105248 0.069070749 0.52287865 -0.32315677 0.19972187
0.039752923 0.057045516 0.068891771 0.52287865 -0.32315677 0.19972187
0.039981261 0.060345743 0.068594396 0.52287865 -0.32315677 0.19972187
0.039549336 0.064196125 0.068116322 0.52287865 -0.32315677 0.19972187
0.037723735 0.069204614 0.067255795 0.52287865 -0.32315677 0.19972187
0.016345534 0.04035569 0.063398115 0.52287865 -0.32315677 0.19972187
0.021461852 0.040070534 0.06440416 0.52287865 -0.32315677 0.19972187
0.025252143 0.040707331 0.065057784 0.52287865 -0.32315677 0.19972187
0.028322192 0.041845862 0.065520413 0.52287865 -0.32315677 0.19972187
0.030959075 0.043286983 0.065868556 0.52287865 -0.32315677 0.19972187
0.033209346 0.045004632 0.066113941 0.52287865 -0.32315677 0.19972187
0.035129689 0.046963874 0.066271186 0.52287865 -0.32315677 0.19972187
0.036763772 0.049138248 0.066351533 0.52287865 -0.32315677 0.19972187
0.038114216 0.051531881 0.066355027 0.52287865 -0.32315677 0.19972187
0.039116211 0.054201521 0.066263139 0.52287865 -0.32315677 0.19972187
0.039770722 0.057154063 0.066075325 0.52287865 -0.32315677 0.19972187
0.039974 0.060479682 0.065761976 0.52287865 -0.32315677 0.19972187
0.039516564 0.064356439 0.065263771 0.52287865 -0.32315677 0.19972187
0.037593383 0.069450483 0.064354591 0.52287865 -0.32315677 0.19972187
0.016492905 0.040323254 0.06057651 0.52287865 -0.32315677 0.19972187
0.02155518 0.040080689 0.061587099 0.52287865 -0.32315677 0.19972187
0.02533873 0.04072639 0.062250789 0.52287865 -0.32315677 0.19972187
0.028394729 0.041879419 0.062717371 0.52287865 -0.32315677 0.19972187
0.031027323 0.043328047 0.063069679 0.52287865 -0.32315677 0.19972187
0.033266321 0.045058601 0.063315034 0.52287865 -0.32315677 0.19972187
0.035182264 0.047025766 0.063472234 0.52287865 -0.32315677 0.19972187
0.03681146 0.049208589 0.063550688 0.52287865 -0.32315677 0.19972187
0.038155433 0.051612075 0.063550137 0.52287865 -0.32315677 0.19972187
0.039142996 0.054297991 0.063449852 0.52287865 -0.32315677 0.19972187
0.039788559 0.057262838 0.063253045 0.52287865 -0.32315677 0.19972187
0.039966725 0.060613915 0.062923372 0.52287865 -0.32315677 0.19972187
0.039468583 0.064529255 0.062400352 0.52287865 -0.32315677 0.19972187
0.037462678 0.069697015 0.061445497 0.52287865 -0.32315677 0.19972187
0.016640496 0.040290769 0.057750657 0.52287865 -0.32315677 0.19972187
0.02164867 0.040090859 0.05876518 0.52287865 -0.32315677 0.19972187
0.025417279 0.040751468 0.059436552 0.52287865 -0.32315677 0.19972187
0.028467398 0.04191304 0.059909225 0.52287865 -0.32315677 0.19972187
0.031095697 0.043369185 0.06026563 0.52287865 -0.32315677 0.19972187
0.0333234 0.045112666 0.060510814 0.52287865 -0.32315677 0.19972187
0.035234939 0.047087777 0.060667887 0.52287865 -0.32315677 0.19972187
0.036859244 0.049279071 0.06074436 0.52287865 -0.32315677 0.19972187
0.038189635 0.051697914 0.060737617 0.52287865 -0.32315677 0.19972187
0.039169833 0.054394659 0.060630754 0.52287865 -0.32315677 0.19972187
0.039806433 0.05737184 0.060424808 0.52287865 -0.32315677 0.19972187
0.039959434 0.060748447 0.060078446 0.52287865 -0.32315677 0.19972187
0.039420489 0.064702496 0.059530046 0.52287865 -0.32315677 0.19972187
0.037331611 0.069944225 0.058528386 0.52287865 -0.32315677 0.19972187
0.016783945 0.040261373 0.054919198 0.52287865 -0.32315677 0.19972187
0.021742323 0.040101048 0.055938289 0.52287865 -0.32315677 0.19972187
0.025494674 0.040777549 0.056616791 0.52287865 -0.32315677 0.19972187
0.028540201 0.041946724 0.057095848 0.52287865 -0.32315677 0.19972187
0.031164199 0.043410402 0.057456296 0.52287865 -0.32315677 0.19972187
0.033380594 0.045166839 0.057701148 0.52287865 -0.32315677 0.19972187
0.035287719 0.047149912 0.057858016 0.52287865 -0.32315677 0.19972187
0.036907125 0.049349692 0.057932425 0.52287865 -0.32315677 0.19972187
0.038223907 0.051783931 0.057919294 0.52287865 -0.32315677 0.19972187
0.039196726 0.054491531 0.057805724 0.52287865 -0.32315677 0.19972187
0.039824344 0.057481077 0.057590485 0.52287865 -0.32315677 0.19972187
0.039952125 0.06088328 0.057227071 0.52287865 -0.32315677 0.19972187
0.039372277 0.064876154 0.056652714 0.52287865 -0.32315677 0.19972187
0.037200175 0.070192128 0.055603106 0.52287865 -0.32315677 0.19972187
0.016904959 0.040248208 0.052076593 0.52287865 -0.32315677 0.19972187
0.021836147 0.040111255 0.053106301 0.52287865 -0.32315677 0.19972187
0.025572212 0.040803675 0.053791746 0.52287865 -0.32315677 0.19972187
0.028613145 0.041980471 0.054277126 0.52287865 -0.32315677 0.19972187
0.031231871 0.043452416 0.054641262 0.52287865 -0.32315677 0.19972187
0.033437897 0.04522112 0.054885916 0.52287865 -0.32315677 0.19972187
0.035340603 0.047212169 0.055042505 0.52287865 -0.32315677 0.19972187
0.0369551 0.049420457 0.055114761 0.52287865 -0.32315677 0.19972187
0.038258255 0.051870126 0.055095039 0.52287865 -0.32315677 0.19972187
0.039223678 0.054588608 0.054974634 0.52287865 -0.32315677 0.19972187
0.039842293 0.057590555 0.054749951 0.52287865 -0.32315677 0.19972187
0.039944801 0.06101843 0.054369118 0.52287865 -0.32315677 0.19972187
0.039323945 0.065050244 0.053768225 0.52287865 -0.32315677 0.19972187
0.037025858 0.070475176 0.052656643 0.52287865 -0.32315677 0.19972187
0.017026182 0.04023502 0.049229074 0.52287865 -0.32315677 0.19972187
0.021930141 0.040121481 0.050269093 0.52287865 -0.32315677 0.19972187
0.0256499 0.040829852 0.050961293 0.52287865 -0.32315677 0.19972187
0.028686229 0.042014282 0.051452935 0.52287865 -0.32315677 0.19972187
0.031293403 0.04349919 0.051818796 0.52287865 -0.32315677 0.19972187
0.033495318 0.045275509 0.052064989 0.52287865 -0.32315677 0.19972187
0.035393596 0.047274556 0.052221224 0.52287865 -0.32315677 0.19972187
0.037003178 0.049491368 0.052291241 0.52287865 -0.32315677 0.19972187
0.038292672 0.051956508 0.052264728 0.52287865 -0.32315677 0.19972187
0.03925069 0.054685898 0.05213736 0.52287865 -0.32315677 0.19972187
0.039860286 0.057700273 0.051903073 0.52287865 -0.32315677 0.19972187
0.039937459 0.061153892 0.051504452 0.52287865 -0.32315677 0.19972187
0.03927549 0.065224774 0.050876439 0.52287865 -0.32315677 0.19972187
0.036811862 0.07079082 0.049689081 0.52287865 -0.32315677 0.19972187
0.017147619 0.04022181 0.046376523 0.52287865 -0.32315677 0.19972187
0.022024313 0.040131725 0.047426548 0.52287865 -0.32315677 0.19972187
0.02572774 0.040856078 0.048125304 0.52287865 -0.32315677 0.19972187
0.028759457 0.042048164 0.048623148 0.52287865 -0.32315677 0.19972187
0.031355057 0.043546062 0.048990581 0.52287865 -0.32315677 0.19972187
0.033552859 0.04533001 0.04923825 0.52287865 -0.32315677 0.19972187
0.0354467 0.04733707 0.049394049 0.52287865 -0.32315677 0.19972187
0.037051354 0.049562432 0.049461737 0.52287865 -0.32315677 0.19972187
0.038327165 0.05204308 0.049428232 0.52287865 -0.32315677 0.19972187
0.039277762 0.054783408 0.049293771 0.52287865 -0.32315677 0.19972187
0.039878316 0.057810243 0.04904972 0.52287865 -0.32315677 0.19972187
0.039930101 0.061289679 0.048632938 0.52287865 -0.32315677 0.19972187
0.039226908 0.065399759 0.04797722 0.52287865 -0.32315677 0.19972187
0.03659717 0.071107492 0.046711832 0.52287865 -0.32315677 0.19972187
1.7036116e-05 0.038553767 0.039999999 0.52287865 -0.32315677 0.19972187
0.0014854708 0.041008562 0.039999999 0.52287865 -0.32315677 0.19972187
0.002951948 0.043466806 0.039999999 0.52287865 -0.32315677 0.19972187
0.004416544 0.045928627 0.039999999 0.52287865 -0.32315677 0.19972187
0.017269276 0.040208574 0.043518811 0.52287865 -0.32315677 0.19972187
0.022118667 0.040141989 0.044578541 0.52287865 -0.32315677 0.19972187
0.025805734 0.04088236 0.04528366 0.52287865 -0.32315677 0.19972187
0.028832834 0.042082112 0.04578764 0.52287865 -0.32315677 0.19972187
0.031416845 0.04359303 0.046156492 0.52287865 -0.32315677 0.19972187
0.033610519 0.045384627 0.046405565 0.52287865 -0.32315677 0.19972187
0.035499915 0.047399722 0.046560854 0.52287865 -0.32315677 0.19972187
0.037099637 0.049633648 0.046626125 0.52287865 -0.32315677 0.19972187
0.038361739 0.052129842 0.046585426 0.52287865 -0.32315677 0.19972187
0.039304893 0.054881137 0.046443738 0.52287865 -0.32315677 0.19972187
0.039887667 0.057927351 0.046186991 0.52287865 -0.32315677 0.19972187
0.039922725 0.061425798 0.045754451 0.52287865 -0.32315677 0.19972187
0.039178204 0.065575197 0.045070425 0.52287865 -0.32315677 0.19972187
0.036381762 0.071425207 0.043724731 0.52287865 -0.32315677 0.19972187
0.00081202475 0.017616447 0.039999999 0.52287865 -0.32315677 0.19972187
0.0022703467 0.020011617 0.039999999 0.52287865 -0.32315677 0.19972187
0.0037265113 0.022409232 0.039999999 0.52287865 -0.32315677 0.19972187
0.0051805931 0.024809418 0.039999999 0.52287865 -0.32315677 0.19972187
0.0066326666 0.027212303 0.039999999 0.52287865 -0.32315677 0.19972187
0.0080828052 0.029618014 0.039999999 0.52287865 -0.32315677 0.19972187
0.0095310844 0.032026675 0.039999999 0.52287865 -0.32315677 0.19972187
0.010977576 0.034438416 0.039999999 0.52287865 -0.32315677 0.19972187
0.012422355 0.036853362 0.039999999 0.52287865 -0.32315677 0.19972187
0.013865495 0.039271645 0.039999999 0.52287865 -0.32315677 0.19972187
0.017391158 0.040195316 0.040655818 0.52287865 -0.32315677 0.19972187
0.022213206 0.040152274 0.041724943 0.52287865 -0.32315677 0.19972187
0.025883887 0.040908694 0.042436235 0.52287865 -0.32315677 0.19972187
0.028906362 0.042116128 0.042946286 0.52287865 -0.32315677 0.19972187
0.031478759 0.043640099 0.043316405 0.52287865 -0.32315677 0.19972187
0.033668302 0.045439359 0.043566816 0.52287865 -0.32315677 0.19972187
0.03555325 0.047462508 0.043721512 0.52287865 -0.32315677 0.19972187
0.037146334 0.049706317 0.043783728 0.52287865 -0.32315677 0.19972187
0.038396388 0.052216802 0.043736175 0.52287865 -0.32315677 0.19972187
0.039332088 0.05497909 0.043587126 0.52287865 -0.32315677 0.19972187
0.039894152 0.058047019 0.043316483 0.52287865 -0.32315677 0.19972187
0.039915327 0.061562251 0.042868845 0.52287865 -0.32315677 0.19972187
0.039129365 0.065751098 0.042155918 0.52287865 -0.32315677 0.19972187
0.036165636 0.071743995 0.040727615 0.52287865 -0.32315677 0.19972187
0.035365574 0.076035373 0.039999999 0.52287865 -0.32315677 0.19972187
0.03679242 0.078525014 0.039999999 0.52287865 -0.32315677 0.19972187
0.0026220793 0 0.039905228 0.52287865 -0.32315677 0.19972187
0.0043768371 0.0021537675 0.039999999 0.52287865 -0.32315677 0.19972187
0.0058208047 0.0045008212 0.039999999 0.52287865 -0.32315677 0.19972187
0.0072625708 0.006849647 0.039999999 0.52287865 -0.32315677 0.19972187
0.0087022083 0.0092003634 0.039999999 0.52287865 -0.32315677 0.19972187
0.010139789 0.011553092 0.039999999 0.52287865 -0.32315677 0.19972187
0.011575386 0.01390795 0.039999999 0.52287865 -0.32315677 0.19972187
0.013009069 0.016265061 0.039999999 0.52287865 -0.32315677 0.19972187
0.014440914 0.018624544 0.039999999 0.52287865 -0.32315677 0.19972187
0.015870988 0.020986522 0.039999999 0.52287865 -0.32315677 0.19972187
0.017299367 0.023351112 0.039999999 0.52287865 -0.32315677 0.19972187
0.01872612 0.025718441 0.039999999 0.52287865 -0.32315677 0.19972187
0.020151317 0.028088629 0.039999999 0.52287865 -0.32315677 0.19972187
0.021575032 0.030461799 0.039999999 0.52287865 -0.32315677 0.19972187
0.022997333 0.032838073 0.039999999 0.52287865 -0.32315677 0.19972187
0.024418293 0.035217579 0.039999999 0.52287865 -0.32315677 0.19972187
0.025837982 0.037600435 0.039999999 0.52287865 -0.32315677 0.19972187
0.02725647 0.039986771 0.039999999 0.52287865 -0.32315677 0.19972187
0.028980047 0.042150218 0.040098965 0.52287865 -0.32315677 0.19972187
0.031540807 0.043687269 0.04047019 0.52287865 -0.32315677 0.19972187
0.033726212 0.045494214 0.040721864 0.52287865 -0.32315677 0.19972187
0.035606701 0.047525432 0.040875893 0.52287865 -0.32315677 0.19972187
0.037187316 0.049783621 0.040933046 0.52287865 -0.32315677 0.19972187
0.038431115 0.052303962 0.040880349 0.52287865 -0.32315677 0.19972187
0.039359346 0.055077277 0.040723808 0.52287865 -0.32315677 0.19972187
0.039900653 0.058166977 0.040438958 0.52287865 -0.32315677 0.19972187
0.039980508 0.061641201 0.039999999 0.52287865 -0.32315677 0.19972187
0.039999999 0.065187909 0.039538611 0.52287865 -0.32315677 0.19972187
0.039999999 0.068775654 0.039068166 0.52287865 -0.32315677 0.19972187
0.039999999 0.07238932 0.038595069 0.52287865 -0.32315677 0.19972187
0.039999999 0.076029316 0.038119271 0.52287865 -0.32315677 0.19972187
0.039999999 0.079696074 0.037640728 0.52287865 -0.32315677 0.19972187
0.0026257304 0 0.037048489 0.52287865 -0.32315677 0.19972187
0.0078204526 0 0.038222875 0.52287865 -0.32315677 0.19972187
0.012941034 0 0.039381173 0.52287865 -0.32315677 0.19972187
0.016328158 0.0010631802 0.039999999 0.52287865 -0.32315677 0.19972187
0.017745307 0.003375293 0.039999999 0.52287865 -0.32315677 0.19972187
0.019160636 0.0056892429 0.039999999 0.52287865 -0.32315677 0.19972187
0.020574212 0.0080051459 0.039999999 0.52287865 -0.32315677 0.19972187
0.021986108 0.010323117 0.039999999 0.52287865 -0.32315677 0.19972187
0.023396391 0.012643272 0.039999999 0.52287865 -0.32315677 0.19972187
0.024805132 0.014965729 0.039999999 0.52287865 -0.32315677 0.19972187
0.026212396 0.017290603 0.039999999 0.52287865 -0.32315677 0.19972187
0.027618257 0.019618012 0.039999999 0.52287865 -0.32315677 0.19972187
0.029022779 0.021948071 0.039999999 0.52287865 -0.32315677 0.19972187
0.030426035 0.024280902 0.039999999 0.52287865 -0.32315677 0.19972187
0.031828091 0.026616622 0.039999999 0.52287865 -0.32315677 0.19972187
0.033229012 0.028955348 0.039999999 0.52287865 -0.32315677 0.19972187
0.034628876 0.031297199 0.039999999 0.52287865 -0.32315677 0.19972187
0.036027741 0.033642299 0.039999999 0.52287865 -0.32315677 0.19972187
0.037425682 0.035990763 0.039999999 0.52287865 -0.32315677 0.19972187
0.038822766 0.038342718 0.039999999 0.52287865 -0.32315677 0.19972187
0.039999999 0.040863417 0.039927509 0.52287865 -0.32315677 0.19972187
0.039999999 0.044286214 0.039464135 0.52287865 -0.32315677 0.19972187
0.039999999 0.04773229 0.038998287 0.52287865 -0.32315677 0.19972187
0.039999999 0.051202014 0.038529918 0.52287865 -0.32315677 0.19972187
0.039999999 0.054695766 0.038058985 0.52287865 -0.32315677 0.19972187
0.039999999 0.058213919 0.037585448 0.52287865 -0.32315677 0.19972187
0.039999999 0.061756868 0.037109256 0.52287865 -0.32315677 0.19972187
0.021759141 0.079999998 0.030469544 0.52287865 -0.32315677 0.19972187
0.039999999 0.068918735 0.036148731 0.52287865 -0.32315677 0.19972187
0.039999999 0.072538465 0.035664305 0.52287865 -0.32315677 0.19972187
0.039999999 0.076184623 0.035177037 0.52287865 -0.32315677 0.19972187
0.039999999 0.079857625 0.034686878 0.52287865 -0.32315677 0.19972187
0.00262939 0 0.034185153 0.52287865 -0.32315677 0.19972187
0.0078312736 0 0.035381798 0.52287865 -0.32315677 0.19972187
0.012958812 0 0.036561958 0.52287865 -0.32315677 0.19972187
0.018013773 0 0.03772603 0.52287865 -0.32315677 0.19972187
0.022997873 0 0.038874391 0.52287865 -0.32315677 0.19972187
0.027889794 1.5000932e-05 0.039999999 0.52287865 -0.32315677 0.19972187
0.029282026 0.0022932321 0.039999999 0.52287865 -0.32315677 0.19972187
0.030672792 0.0045733592 0.039999999 0.52287865 -0.32315677 0.19972187
0.032062162 0.0068554939 0.039999999 0.52287865 -0.32315677 0.19972187
0.033450197 0.0091397474 0.039999999 0.52287865 -0.32315677 0.19972187
0.03483697 0.011426233 0.039999999 0.52287865 -0.32315677 0.19972187
0.036222544 0.013715061 0.039999999 0.52287865 -0.32315677 0.19972187
0.037606984 0.016006347 0.039999999 0.52287865 -0.32315677 0.19972187
0.038990356 0.018300204 0.039999999 0.52287865 -0.32315677 0.19972187
0.039999999 0.020862291 0.039876614 0.52287865 -0.32315677 0.19972187
0.039999999 0.024157785 0.039417654 0.52287865 -0.32315677 0.19972187
0.039999999 0.027474558 0.03895634 0.52287865 -0.32315677 0.19972187
0.039999999 0.030812936 0.038492635 0.52287865 -0.32315677 0.19972187
0.039999999 0.034173261 0.038026497 0.52287865 -0.32315677 0.19972187
0.039999999 0.037555873 0.037557881 0.52287865 -0.32315677 0.19972187
0.039999999 0.04096112 0.037086751 0.52287865 -0.32315677 0.19972187
0.039999999 0.044389363 0.036613058 0.52287865 -0.32315677 0.19972187
0 0.078573138 0.022585938 0.52287865 -0.32315677 0.19972187
0.039999999 0.051316287 0.035657819 0.52287865 -0.32315677 0.19972187
0.039999999 0.05481571 0.03517618 0.52287865 -0.32315677 0.19972187
0.039999999 0.058339618 0.034691799 0.52287865 -0.32315677 0.19972187
0.039999999 0.0618884 0.034204636 0.52287865 -0.32315677 0.19972187
0.039999999 0.065462455 0.033714633 0.52287865 -0.32315677 0.19972187
0.039999999 0.069062181 0.033221748 0.52287865 -0.32315677 0.19972187
0.039999999 0.072688006 0.032725926 0.52287865 -0.32315677 0.19972187
0.039999999 0.076340333 0.032227125 0.52287865 -0.32315677 0.19972187
0.002633058 0 0.031315081 0.52287865 -0.32315677 0.19972187
0.0078421198 0 0.032534096 0.52287865 -0.32315677 0.19972187
0.012976632 0 0.033736229 0.52287865 -0.32315677 0.19972187
0.018038368 0 0.034921888 0.52287865 -0.32315677 0.19972187
0.023029052 0 0.036091462 0.52287865 -0.32315677 0.19972187
0.02795035 0 0.037245326 0.52287865 -0.32315677 0.19972187
0.032803878 0 0.038383853 0.52287865 -0.32315677 0.19972187
0.037591208 0 0.039507397 0.52287865 -0.32315677 0.19972187
0 0.028454037 0.026607012 0.52287865 -0.32315677 0.19972187
0.039999999 0.004735115 0.039395619 0.52287865 -0.32315677 0.19972187
0.039999999 0.0079337386 0.038938772 0.52287865 -0.32315677 0.19972187
0.039999999 0.011152126 0.038479652 0.52287865 -0.32315677 0.19972187
0.039999999 0.014390581 0.038018223 0.52287865 -0.32315677 0.19972187
0.039999999 0.017649416 0.037554443 0.52287865 -0.32315677 0.19972187
0 0.049431816 0.023616269 0.52287865 -0.32315677 0.19972187
0 0.053005766 0.023108853 0.52287865 -0.32315677 0.19972187
0.039999999 0.027551373 0.036148604 0.52287865 -0.32315677 0.19972187
0.039999999 0.030894933 0.035675023 0.52287865 -0.32315677 0.19972187
0.039999999 0.034260504 0.035198886 0.52287865 -0.32315677 0.19972187
0.039999999 0.037648436 0.034720149 0.52287865 -0.32315677 0.19972187
0.039999999 0.041059077 0.034238771 0.52287865 -0.32315677 0.19972187
0.039999999 0.044492781 0.033754703 0.52287865 -0.32315677 0.19972187
0.039999999 0.047949918 0.033267904 0.52287865 -0.32315677 0.19972187
0.039999999 0.051430851 0.032778326 0.52287865 -0.32315677 0.19972187
0.039999999 0.054935966 0.032285921 0.52287865 -0.32315677 0.19972187
0.012751915 0.079999998 0.022314548 0.52287865 -0.32315677 0.19972187
0.039999999 0.062020276 0.031292442 0.52287865 -0.32315677 0.19972187
0.039999999 0.065600261 0.030791268 0.52287865 -0.32315677 0.19972187
0.039999999 0.069206014 0.03028707 0.52287865 -0.32315677 0.19972187
0.039999999 0.072837934 0.029779796 0.52287865 -0.32315677 0.19972187
0.039999999 0.07649646 0.029269394 0.52287865 -0.32315677 0.19972187
0.0026367349 0 0.028438143 0.52287865 -0.32315677 0.19972187
0.007852992 0 0.029679639 0.52287865 -0.32315677 0.19972187
0.012994492 0 0.030903855 0.52287865 -0.32315677 0.19972187
0.018063022 0 0.032111205 0.52287865 -0.32315677 0.19972187
0.023060305 0 0.033302091 0.52287865 -0.32315677 0.19972187
0.027988018 0 0.034476902 0.52287865 -0.32315677 0.19972187
0.032847784 0 0.035636012 0.52287865 -0.32315677 0.19972187
0.037641175 0 0.036779784 0.52287865 -0.32315677 0.19972187
0.039999999 0.0015937077 0.037110563 0.52287865 -0.32315677 0.19972187
0.039999999 0.0047775633 0.036646944 0.52287865 -0.32315677 0.19972187
0.039999999 0.0079809409 0.036180984 0.52287865 -0.32315677 0.19972187
0.039999999 0.011204141 0.035712637 0.52287865 -0.32315677 0.19972187
0.039999999 0.01444747 0.035241865 0.52287865 -0.32315677 0.19972187
0.039999999 0.017711241 0.03476863 0.52287865 -0.32315677 0.19972187
0.039999999 0.020995766 0.034292888 0.52287865 -0.32315677 0.19972187
0.039999999 0.024301372 0.033814602 0.52287865 -0.32315677 0.19972187
0.039999999 0.027628385 0.033333723 0.52287865 -0.32315677 0.19972187
0.039999999 0.030977139 0.03285021 0.52287865 -0.32315677 0.19972187
0.039999999 0.034347974 0.032364018 0.52287865 -0.32315677 0.19972187
0 0.06763678 0.017971257 0.52287865 -0.32315677 0.19972187
0.039999999 0.041157283 0.031383425 0.52287865 -0.32315677 0.19972187
0.039999999 0.044596463 0.030888928 0.52287865 -0.32315677 0.19972187
0.039999999 0.048059154 0.030391568 0.52287865 -0.32315677 0.19972187
0.039999999 0.051545717 0.029891301 0.52287865 -0.32315677 0.19972187
0.039999999 0.055056538 0.029388072 0.52287865 -0.32315677 0.19972187
0.039999999 0.058592003 0.028881837 0.52287865 -0.32315677 0.19972187
0.039999999 0.062152501 0.028372539 0.52287865 -0.32315677 0.19972187
0.022291882 0.079999998 0.021557618 0.52287865 -0.32315677 0.19972187
0.039999999 0.06935022 0.027344555 0.52287865 -0.32315677 0.19972187
0.039999999 0.072988272 0.026825763 0.52287865 -0.32315677 0.19972187
0.039999999 0.076653004 0.026303697 0.52287865 -0.32315677 0.19972187
0.0026404208 0 0.025554206 0.52287865 -0.32315677 0.19972187
0.0078638894 0 0.026818294 0.52287865 -0.32315677 0.19972187
0.013012397 0 0.028064702 0.52287865 -0.32315677 0.19972187
0.018087732 0 0.029293852 0.52287865 -0.32315677 0.19972187
0.023091631 0 0.030506156 0.52287865 -0.32315677 0.19972187
0.028025772 0 0.031702012 0.52287865 -0.32315677 0.19972187
0.032891788 0 0.0328818 0.52287865 -0.32315677 0.19972187
0.037691258 0 0.034045901 0.52287865 -0.32315677 0.19972187
0.039999999 0.0016315547 0.034364007 0.52287865 -0.32315677 0.19972187
0.039999999 0.0048201191 0.033891339 0.52287865 -0.32315677 0.19972187
0.039999999 0.0080282632 0.033416212 0.52287865 -0.32315677 0.19972187
0 0.038957912 0.019122837 0.52287865 -0.32315677 0.19972187
0.039999999 0.014504505 0.032458428 0.52287865 -0.32315677 0.19972187
0.039999999 0.017773222 0.031975687 0.52287865 -0.32315677 0.19972187
0.039999999 0.02106276 0.031490322 0.52287865 -0.32315677 0.19972187
0.039999999 0.024373442 0.031002294 0.52287865 -0.32315677 0.19972187
0.039999999 0.027705595 0.030511552 0.52287865 -0.32315677 0.19972187
0.039999999 0.031059559 0.030018058 0.52287865 -0.32315677 0.19972187
0.039999999 0.034435671 0.029521761 0.52287865 -0.32315677 0.19972187
0.039999999 0.037834283 0.029022617 0.52287865 -0.32315677 0.19972187
0.039999999 0.041255746 0.028520577 0.52287865 -0.32315677 0.19972187
0.039999999 0.044700421 0.028015595 0.52287865 -0.32315677 0.19972187
0.039999999 0.048168678 0.02750762 0.52287865 -0.32315677 0.19972187
0.039999999 0.051660888 0.026996601 0.52287865 -0.32315677 0.19972187
0.039999999 0.055177432 0.026482491 0.52287865 -0.32315677 0.19972187
0.039999999 0.058718696 0.025965234 0.52287865 -0.32315677 0.19972187
0.039999999 0.062285081 0.025444781 0.52287865 -0.32315677 0.19972187
0.039999999 0.065876991 0.024921075 0.52287865 -0.32315677 0.19972187
0.027080854 0.079999998 0.019703265 0.52287865 -0.32315677 0.19972187
0.031640027 0.079999998 0.020819092 0.52287865 -0.32315677 0.19972187
0.039999999 0.07680998 0.023329891 0.52287865 -0.32315677 0.19972187
0.0026441158 0 0.022663131 0.52287865 -0.32315677 0.19972187
0.0078748148 0 0.023949927 0.52287865 -0.32315677 0.19972187
0.013030345 0 0.025218636 0.52287865 -0.32315677 0.19972187
0.018112503 0 0.026469694 0.52287865 -0.32315677 0.19972187
0.023123031 0 0.027703522 0.52287865 -0.32315677 0.19972187
0.028063618 0 0.028920526 0.52287865 -0.32315677 0.19972187
0.032935899 0 0.030121097 0.52287865 -0.32315677 0.19972187
0.037741456 0 0.031305622 0.52287865 -0.32315677 0.19972187
0.039999999 0.0016694984 0.031610437 0.52287865 -0.32315677 0.19972187
0.039999999 0.0048627835 0.031128665 0.52287865 -0.32315677 0.19972187
0.039999999 0.0080757076 0.030644327 0.52287865 -0.32315677 0.19972187
0.039999999 0.011308572 0.03015738 0.52287865 -0.32315677 0.19972187
0.039999999 0.014561687 0.029667778 0.52287865 -0.32315677 0.19972187
0.039999999 0.017835366 0.029175481 0.52287865 -0.32315677 0.19972187
0.039999999 0.021129929 0.028680444 0.52287865 -0.32315677 0.19972187
0.039999999 0.0244457 0.02818262 0.52287865 -0.32315677 0.19972187
0.039999999 0.02778301 0.027681965 0.52287865 -0.32315677 0.19972187
0.039999999 0.031142196 0.027178435 0.52287865 -0.32315677 0.19972187
0.039999999 0.034523603 0.026671976 0.52287865 -0.32315677 0.19972187
0.039999999 0.037927575 0.026162546 0.52287865 -0.32315677 0.19972187
0.039999999 0.041354474 0.025650091 0.52287865 -0.32315677 0.19972187
0 0.075285316 0.010672355 0.52287865 -0.32315677 0.19972187
0 0.079046912 0.010110741 0.52287865 -0.32315677 0.19972187
0.039999999 0.051776368 0.02409409 0.52287865 -0.32315677 0.19972187
0.039999999 0.055298652 0.023569034 0.52287865 -0.32315677 0.19972187
0.039999999 0.05884574 0.023040699 0.52287865 -0.32315677 0.19972187
0.039999999 0.062418025 0.022509025 0.52287865 -0.32315677 0.19972187
0.039999999 0.066015914 0.021973958 0.52287865 -0.32315677 0.19972187
0.039999999 0.069639824 0.021435443 0.52287865 -0.32315677 0.19972187
0.039999999 0.073290177 0.020893421 0.52287865 -0.32315677 0.19972187
0.039999999 0.076967388 0.02034783 0.52287865 -0.32315677 0.19972187
0.0026478199 0 0.019764783 0.52287865 -0.32315677 0.19972187
0.0078857671 0 0.021074401 0.52287865 -0.32315677 0.19972187
0.013048337 0 0.022365525 0.52287865 -0.32315677 0.19972187
0.018137334 0 0.023638602 0.52287865 -0.32315677 0.19972187
0.023154508 0 0.024894059 0.52287865 -0.32315677 0.19972187
0.028101554 0 0.026132315 0.52287865 -0.32315677 0.19972187
0.032980114 0 0.027353773 0.52287865 -0.32315677 0.19972187
0.037791777 0 0.028558822 0.52287865 -0.32315677 0.19972187
0.039999999 0.0017075407 0.028849714 0.52287865 -0.32315677 0.19972187
0.039999999 0.0049055596 0.028358795 0.52287865 -0.32315677 0.19972187
0 0.035565369 0.013629181 0.52287865 -0.32315677 0.19972187
0.039999999 0.011360992 0.027368871 0.52287865 -0.32315677 0.19972187
0.039999999 0.01461902 0.026869781 0.52287865 -0.32315677 0.19972187
0.039999999 0.017897673 0.026367877 0.52287865 -0.32315677 0.19972187
0.039999999 0.021197274 0.025863113 0.52287865 -0.32315677 0.19972187
0.039999999 0.024518149 0.025355445 0.52287865 -0.32315677 0.19972187
0.039999999 0.02786063 0.024844822 0.52287865 -0.32315677 0.19972187
0 0.06058082 0.0098024411 0.52287865 -0.32315677 0.19972187
0.039999999 0.034611769 0.023814525 0.52287865 -0.32315677 0.19972187
0.039999999 0.038021121 0.023294751 0.52287865 -0.32315677 0.19972187
0.039999999 0.04145347 0.022771826 0.52287865 -0.32315677 0.19972187
0 0.07539849 0.0075441836 0.52287865 -0.32315677 0.19972187
0.039999999 0.048388619 0.021716313 0.52287865 -0.32315677 0.19972187
0.039999999 0.051892165 0.021183619 0.52287865 -0.32315677 0.19972187
0.039999999 0.055420205 0.020647561 0.52287865 -0.32315677 0.19972187
0.039999999 0.05897313 0.020108081 0.52287865 -0.32315677 0.19972187
0.039999999 0.062551335 0.019565126 0.52287865 -0.32315677 0.19972187
0.039999999 0.066155232 0.019018637 0.52287865 -0.32315677 0.19972187
0.039999999 0.069785237 0.018468553 0.52287865 -0.32315677 0.19972187
0.032015014 0.079999998 0.014908415 0.52287865 -0.32315677 0.19972187
0.039999999 0.077125244 0.017357362 0.52287865 -0.32315677 0.19972187
0.0026515338 0 0.016859025 0.52287865 -0.32315677 0.19972187
0.0078967465 0 0.01819158 0.52287865 -0.32315677 0.19972187
0.013066374 0 0.019505234 0.52287865 -0.32315677 0.19972187
0.018162228 0 0.02080044 0.52287865 -0.32315677 0.19972187
0.023186063 0 0.022077635 0.52287865 -0.32315677 0.19972187
0.028139584 0 0.023337251 0.52287865 -0.32315677 0.19972187
0.033024434 0 0.024579694 0.52287865 -0.32315677 0.19972187
0.037842218 0 0.025805371 0.52287865 -0.32315677 0.19972187
0.039999999 0.0017456833 0.026081705 0.52287865 -0.32315677 0.19972187
0 0.032127552 0.01115641 0.52287865 -0.32315677 0.19972187
0.039999999 0.0081709698 0.02507868 0.52287865 -0.32315677 0.19972187
0 0.039128203 0.010064199 0.52287865 -0.32315677 0.19972187
0.039999999 0.014676506 0.024064301 0.52287865 -0.32315677 0.19972187
0.039999999 0.017960148 0.023552736 0.52287865 -0.32315677 0.19972187
0.039999999 0.021264803 0.023038195 0.52287865 -0.32315677 0.19972187
0.039999999 0.024590796 0.022520626 0.52287865 -0.32315677 0.19972187
0.039999999 0.027938461 0.021999983 0.52287865 -0.32315677 0.19972187
0.039999999 0.031308141 0.021476213 0.52287865 -0.32315677 0.19972187
0.039999999 0.034700174 0.020949267 0.52287865 -0.32315677 0.19972187
0.039999999 0.03811492 0.020419093 0.52287865 -0.32315677 0.19972187
0.039999999 0.041552737 0.019885639 0.52287865 -0.32315677 0.19972187
0.039999999 0.045013987 0.019348849 0.52287865 -0.32315677 0.19972187
1.110223e-16 0.079285726 0.0038224456 0.52287865 -0.32315677 0.19972187
0.039999999 0.052008286 0.018265048 0.52287865 -0.32315677 0.19972187
0.039999999 0.0555421 0.017717924 0.52287865 -0.32315677 0.19972187
0.039999999 0.059100877 0.01716724 0.52287865 -0.32315677 0.19972187
0.039999999 0.06268502 0.01661294 0.52287865 -0.32315677 0.19972187
0.02300719 0.079999998 0.0095916037 0.52287865 -0.32315677 0.19972187
0.039999999 0.069931053 0.015493243 0.52287865 -0.32315677 0.19972187
0.039999999 0.07359378 0.014927724 0.52287865 -0.32315677 0.19972187
0.039999999 0.077283554 0.014358341 0.52287865 -0.32315677 0.19972187
0.002655257 0 0.013945714 0.52287865 -0.32315677 0.19972187
0.0079077547 0 0.015301327 0.52287865 -0.32315677 0.19972187
0.013084457 0 0.016637625 0.52287865 -0.32315677 0.19972187
0.018187184 0 0.017955072 0.52287865 -0.32315677 0.19972187
0.023217699 0 0.019254116 0.52287865 -0.32315677 0.19972187
0.028177708 0 0.020535197 0.52287865 -0.32315677 0.19972187
0.033068869 0 0.021798734 0.52287865 -0.32315677 0.19972187
0.037892785 0 0.023045138 0.52287865 -0.32315677 0.19972187
0.039999999 0.0017839281 0.02330628 0.52287865 -0.32315677 0.19972187
0.039999999 0.0049914531 0.022796918 0.52287865 -0.32315677 0.19972187
0.039999999 0.0082187923 0.022284647 0.52287865 -0.32315677 0.19972187
0.039999999 0.011466254 0.021769423 0.52287865 -0.32315677 0.19972187
0.039999999 0.014734148 0.021251198 0.52287865 -0.32315677 0.19972187
0.039999999 0.018022794 0.020729924 0.52287865 -0.32315677 0.19972187
0.039999999 0.021332515 0.02020555 0.52287865 -0.32315677 0.19972187
0.039999999 0.02466364 0.019678028 0.52287865 -0.32315677 0.19972187
0.039999999 0.028016506 0.019147307 0.52287865 -0.32315677 0.19972187
0.039999999 0.031391453 0.018613337 0.52287865 -0.32315677 0.19972187
0.039999999 0.034788828 0.01807606 0.52287865 -0.32315677 0.19972187
0.039999999 0.038208984 0.017535429 0.52287865 -0.32315677 0.19972187
0 0.071871802 0.0018546233 0.52287865 -0.32315677 0.19972187
0.039999999 0.045119092 0.016443877 0.52287865 -0.32315677 0.19972187
0.039999999 0.048609782 0.015892845 0.52287865 -0.32315677 0.19972187
0.039999999 0.052124735 0.015338231 0.52287865 -0.32315677 0.19972187
0.039999999 0.055664342 0.014779978 0.52287865 -0.32315677 0.19972187
0.039999999 0.05922899 0.014218026 0.52287865 -0.32315677 0.19972187
0.039999999 0.062819093 0.013652314 0.52287865 -0.32315677 0.19972187
0.039999999 0.066435054 0.013082781 0.52287865 -0.32315677 0.19972187
0.039999999 0.070077293 0.012509363 0.52287865 -0.32315677 0.19972187
0.039999999 0.073746234 0.011931995 0.52287865 -0.32315677 0.19972187
0.039999999 0.077442318 0.011350612 0.52287865 -0.32315677 0.19972187
0.0026589902 0 0.011024711 0.52287865 -0.32315677 0.19972187
0.0079187918 0 0.012403502 0.52287865 -0.32315677 0.19972187
0.013102588 0 0.013762562 0.52287865 -0.32315677 0.19972187
0.018212205 0 0.015102364 0.52287865 -0.32315677 0.19972187
0.023249414 0 0.016423369 0.52287865 -0.32315677 0.19972187
0.02821593 0 0.017726023 0.52287865 -0.32315677 0.19972187
0.033113413 0 0.019010758 0.52287865 -0.32315677 0.19972187
0.037943475 0 0.020277992 0.52287865 -0.32315677 0.19972187
0 0.02874242 0.0056791063 0.52287865 -0.32315677 0.19972187
0.039999999 0.0050345752 0.020004639 0.52287865 -0.32315677 0.19972187
0.039999999 0.008266747 0.019482959 0.52287865 -0.32315677 0.19972187
0.039999999 0.0115191 0.018958207 0.52287865 -0.32315677 0.19972187
0.039999999 0.014791949 0.018430337 0.52287865 -0.32315677 0.19972187
0.039999999 0.018085612 0.017899297 0.52287865 -0.32315677 0.19972187
0.039999999 0.021400416 0.017365038 0.52287865 -0.32315677 0.19972187
0.039999999 0.024736689 0.016827509 0.52287865 -0.32315677 0.19972187
0.039999999 0.02809477 0.016286654 0.52287865 -0.32315677 0.19972187
0.039999999 0.031475 0.015742425 0.52287865 -0.32315677 0.19972187
0.039999999 0.034877729 0.015194763 0.52287865 -0.32315677 0.19972187
0.039999999 0.038303312 0.014643615 0.52287865 -0.32315677 0.19972187
0.039999999 0.041752111 0.014088925 0.52287865 -0.32315677 0.19972187
0.039999999 0.045224492 0.013530634 0.52287865 -0.32315677 0.19972187
0.039999999 0.048720833 0.012968686 0.52287865 -0.32315677 0.19972187
0.039999999 0.052241515 0.01240302 0.52287865 -0.32315677 0.19972187
0.039999999 0.05578693 0.011833575 0.52287865 -0.32315677 0.19972187
0.039999999 0.059357475 0.011260291 0.52287865 -0.32315677 0.19972187
0.018681312 0.079999998 0.0023371992 0.52287865 -0.32315677 0.19972187
0.039999999 0.066575572 0.010101948 0.52287865 -0.32315677 0.19972187
0.027999816 0.079999998 0.0047899089 0.52287865 -0.32315677 0.19972187
0.039999999 0.073899135 0.0089274766 0.52287865 -0.32315677 0.19972187
0.039999999 0.077601552 0.0083340239 0.52287865 -0.32315677 0.19972187
0.0026627334 0 0.0080958735 0.52287865 -0.32315677 0.19972187
0.0079298588 0 0.0094979648 0.52287865 -0.32315677 0.19972187
0.013120767 0 0.010879904 0.52287865 -0.32315677 0.19972187
0.018237293 0 0.012242178 0.52287865 -0.32315677 0.19972187
0.023281213 0 0.013585255 0.52287865 -0.32315677 0.19972187
0.02825425 0 0.014909594 0.52287865 -0.32315677 0.19972187
0.033158071 0 0.016215634 0.52287865 -0.32315677 0.19972187
0.037994295 0 0.017503804 0.52287865 -0.32315677 0.19972187
0.039999999 0.0018607321 0.017732624 0.52287865 -0.32315677 0.19972187
0.039999999 0.0050778165 0.01720462 0.52287865 -0.32315677 0.19972187
0.039999999 0.008314834 0.016673476 0.52287865 -0.32315677 0.19972187
0.039999999 0.011572095 0.016139146 0.52287865 -0.32315677 0.19972187
0.039999999 0.014849912 0.015601576 0.52287865 -0.32315677 0.19972187
0.039999999 0.021468507 0.014516518 0.52287865 -0.32315677 0.19972187
0.039999999 0.024809945 0.013968925 0.52287865 -0.32315677 0.19972187
0.039999999 0.028173257 0.013417882 0.52287865 -0.32315677 0.19972187
0.039999999 0.031558786 0.012863335 0.52287865 -0.32315677 0.19972187
0.0082955994 0.058480237 0 0.52287865 -0.32315677 0.19972187
0.039999999 0.038397908 0.011743506 0.52287865 -0.32315677 0.19972187
0.039999999 0.041852225 0.011178108 0.52287865 -0.32315677 0.19972187
0.039999999 0.045330197 0.010608976 0.52287865 -0.32315677 0.19972187
0.039999999 0.048832208 0.010036049 0.52287865 -0.32315677 0.19972187
0.039999999 0.052358638 0.0094592664 0.52287865 -0.32315677 0.19972187
0.039999999 0.055909883 0.0088785663 0.52287865 -0.32315677 0.19972187
0.019078612 0.076064877 0 0.52287865 -0.32315677 0.19972187
0.02062328 0.078587465 0 0.52287865 -0.32315677 0.19972187
0.023547692 0.079999998 0.00054985075 0.52287865 -0.32315677 0.19972187
0.039999999 0.070371062 0.0065152873 0.52287865 -0.32315677 0.19972187
0.039999999 0.074052498 0.0059140143 0.52287865 -0.32315677 0.19972187
0.039999999 0.077761255 0.0053084223 0.52287865 -0.32315677 0.19972187
0.0026664869 0 0.0051590586 0.52287865 -0.32315677 0.19972187
0.0079409545 0 0.0065845721 0.52287865 -0.32315677 0.19972187
0.013138994 0 0.0079895118 0.52287865 -0.32315677 0.19972187
0.018262446 0 0.0093743736 0.52287865 -0.32315677 0.19972187
0.023313096 0 0.010739639 0.52287865 -0.32315677 0.19972187
0.028292671 0 0.012085774 0.52287865 -0.32315677 0.19972187
0.033202849 0 0.013413228 0.52287865 -0.32315677 0.19972187
0.03804525 0 0.014722439 0.52287865 -0.32315677 0.19972187
0.039999999 0.0018992949 0.01493412 0.52287865 -0.32315677 0.19972187
0.039999999 0.0051211799 0.014396717 0.52287865 -0.32315677 0.19972187
0.039999999 0.0083630579 0.013856059 0.52287865 -0.32315677 0.19972187
0.005516151 0.035533052 0 0.52287865 -0.32315677 0.19972187
0.039999999 0.01490804 0.012764775 0.52287865 -0.32315677 0.19972187
0.039999999 0.018211782 0.012214044 0.52287865 -0.32315677 0.19972187
0.039999999 0.021536795 0.011659849 0.52287865 -0.32315677 0.19972187
0.039999999 0.02488341 0.011102134 0.52287865 -0.32315677 0.19972187
0.039999999 0.028251968 0.010540845 0.52287865 -0.32315677 0.19972187
0.039999999 0.031642813 0.0099759242 0.52287865 -0.32315677 0.19972187
0.016131144 0.052762892 0 0.52287865 -0.32315677 0.19972187
0.039999999 0.038492784 0.0088349553 0.52287865 -0.32315677 0.19972187
0.039999999 0.041952632 0.0082587888 0.52287865 -0.32315677 0.19972187
0.039999999 0.045436215 0.0076787523 0.52287865 -0.32315677 0.19972187
0.039999999 0.048943911 0.0070947846 0.52287865 -0.32315677 0.19972187
0.039999999 0.052476108 0.0065068225 0.52287865 -0.32315677 0.19972187
0.039999999 0.056033194 0.0059148008 0.52287865 -0.32315677 0.19972187
0.039999999 0.059615579 0.0053186538 0.52287865 -0.32315677 0.19972187
0.039999999 0.06322366 0.0047183144 0.52287865 -0.32315677 0.19972187
0.039999999 0.066857859 0.0041137147 0.52287865 -0.32315677 0.19972187
0.039999999 0.070518605 0.0035047848 0.52287865 -0.32315677 0.19972187
0.039999999 0.074206322 0.0028914539 0.52287865 -0.32315677 0.19972187
0.039999999 0.07792145 0.0022736494 0.52287865 -0.32315677 0.19972187
0.0026702508 0 0.0022141212 0.52287865 -0.32315677 0.19972187
0.007952082 0 0.0036631818 0.52287865 -0.32315677 0.19972187
0.013157271 0 0.0050912434 0.52287865 -0.32315677 0.19972187
0.018287668 0 0.0064988132 0.52287865 -0.32315677 0.19972187
0.023345063 0 0.0078863818 0.52287865 -0.32315677 0.19972187
0.028331194 0 0.0092544248 0.52287865 -0.32315677 0.19972187
0.033247743 0 0.010603404 0.52287865 -0.32315677 0.19972187
0.038096335 0 0.011933764 0.52287865 -0.32315677 0.19972187
0.039999999 0.0019379676 0.012127644 0.52287865 -0.32315677 0.19972187
0.010277003 0.025374087 0 0.52287865 -0.32315677 0.19972187
0.039999999 0.0084114186 0.011030566 0.52287865 -0.32315677 0.19972187
0.039999999 0.011678535 0.010476917 0.52287865 -0.32315677 0.19972187
0.039999999 0.01827514 0.0093591297 0.52287865 -0.32315677 0.19972187
0.039999999 0.021605279 0.0087948823 0.52287865 -0.32315677 0.19972187
0.019254599 0.039912734 0 0.52287865 -0.32315677 0.19972187
0.039999999 0.028330911 0.0076553971 0.52287865 -0.32315677 0.19972187
0.039999999 0.031727087 0.0070800432 0.52287865 -0.32315677 0.19972187
0.039999999 0.035145976 0.0065008691 0.52287865 -0.32315677 0.19972187
0.039999999 0.038587939 0.0059178146 0.52287865 -0.32315677 0.19972187
0.039999999 0.042053334 0.0053308173 0.52287865 -0.32315677 0.19972187
0.039999999 0.045542546 0.0047398144 0.52287865 -0.32315677 0.19972187
0.039999999 0.049055945 0.0041447422 0.52287865 -0.32315677 0.19972187
0.039999999 0.052593928 0.0035455346 0.52287865 -0.32315677 0.19972187
0.039999999 0.056156881 0.0029421258 0.52287865 -0.32315677 0.19972187
0.039999999 0.059745211 0.0023344476 0.52287865 -0.32315677 0.19972187
0.035799354 0.066721693 0 0.52287865 -0.32315677 0.19972187
0.039999999 0.066999644 0.0011060052 0.52287865 -0.32315677 0.19972187
0.039999999 0.070666596 0.00048509863 0.52287865 -0.32315677 0.19972187
0.0079632392 0 0.00073364907 0.52287865 -0.32315677 0.19972187
0.013175597 0 0.0021849563 0.52287865 -0.32315677 0.19972187
0.018312957 0 0.003615354 0.52287865 -0.32315677 0.19972187
0.023377119 0 0.005025343 0.52287865 -0.32315677 0.19972187
0.028369822 0 0.00641541 0.52287865 -0.32315677 0.19972187
0.033292755 0 0.0077860244 0.52287865 -0.32315677 0.19972187
0.038147558 0 0.0091376426 0.52287865 -0.32315677 0.19972187
0.039999999 0.0019767522 0.0093130572 0.52287865 -0.32315677 0.19972187
0.039999999 0.0052082804 0.0087567009 0.52287865 -0.32315677 0.19972187
0.039999999 0.008459921 0.008196855 0.52287865 -0.32315677 0.19972187
0.039999999 0.011731989 0.0076334653 0.52287865 -0.32315677 0.19972187
0.039999999 0.015024802 0.0070664766 0.52287865 -0.32315677 0.19972187
0.023766687 0.029819006 0 0.52287865 -0.32315677 0.19972187
0.039999999 0.021673968 0.0059214761 0.52287865 -0.32315677 0.19972187
0.039999999 0.025030987 0.0053433487 0.52287865 -0.32315677 0.19972187
0.039999999 0.028410086 0.0047613923 0.52287865 -0.32315677 0.19972187
0.029688982 0.039391335 0 0.52287865 -0.32315677 0.19972187
0.039999999 0.035235923 0.0035857465 0.52287865 -0.32315677 0.19972187
0.039999999 0.038683377 0.0029919338 0.52287865 -0.32315677 0.19972187
0.039999999 0.042154342 0.0023940436 0.52287865 -0.32315677 0.19972187
0.039999999 0.045649197 0.0017920105 0.52287865 -0.32315677 0.19972187
0.039999999 0.049168322 0.0011857686 0.52287865 -0.32315677 0.19972187
0.038605165 0.05379783 0 0.52287865 -0.32315677 0.19972187
0.018338319 0 0.00072385318 0.52287865 -0.32315677 0.19972187
0.023409262 0 0.002156382 0.52287865 -0.32315677 0.19972187
0.028408555 0 0.0035685881 0.52287865 -0.32315677 0.19972187
0.033337895 0 0.0049609519 0.52287865 -0.32315677 0.19972187
0.038198918 0 0.0063339393 0.52287865 -0.32315677 0.19972187
0.039999999 0.0020156503 0.0064902143 0.52287865 -0.32315677 0.19972187
0.039999999 0.0052520218 0.0059243022 0.52287865 -0.32315677 0.19972187
0.026696773 0.017645892 0 0.52287865 -0.32315677 0.19972187
0.039999999 0.011785599 0.0047815959 0.52287865 -0.32315677 0.19972187
0.039999999 0.015083441 0.0042046895 0.52287865 -0.32315677 0.19972187
0.039999999 0.018402416 0.0036240041 0.52287865 -0.32315677 0.19972187
0.039999999 0.02174286 0.0030394809 0.52287865 -0.32315677 0.19972187
0.039999999 0.025105106 0.0024510601 0.52287865 -0.32315677 0.19972187
0.039999999 0.0284895 0.0018586805 0.52287865 -0.32315677 0.19972187
0.039999999 0.031896394 0.00126228 0.52287865 -0.32315677 0.19972187
0.039999999 0.035326142 0.00066179561 0.52287865 -0.32315677 0.19972187
0.039999999 0.038779106 5.7162659e-05 0.52287865 -0.32315677 0.19972187
0.028447397 0 0.00071381865 0.52287865 -0.32315677 0.19972187
0.033383157 0 0.0021280467 0.52287865 -0.32315677 0.19972187
0.038250424 0 0.0035225151 0.52287865 -0.32315677 0.19972187
0.039999999 0.0020546643 0.003658972 0.52287865 -0.32315677 0.19972187
0.039999999 0.0052958936 0.0030834496 0.52287865 -0.32315677 0.19972187
0.033868581 0.012769343 0 0.52287865 -0.32315677 0.19972187
0.039999999 0.011839371 0.0019211622 0.52287865 -0.32315677 0.19972187
0.039999999 0.015142257 0.0013342816 0.52287865 -0.32315677 0.19972187
0.039999999 0.018466342 0.00074349745 0.52287865 -0.32315677 0.19972187
0.039999999 0.02181196 0.00014874907 0.52287865 -0.32315677 0.19972187
0.038302071 0 0.0007032305 0.52287865 -0.32315677 0.19972187
0.039999999 0.0020937962 0.00081918418 0.52287865 -0.32315677 0.19972187
0.039999999 0.0053398986 0.00023399678 0.52287865 -0.32315677 0.19972187
