# .PCD v0.7 - Point Cloud Data file format
VERSION 0.7
FIELDS x y z vp_x vp_y vp_z
SIZE 4 4 4 4 4 4
TYPE F F F F F F
COUNT 1 1 1 1 1 1
WIDTH 648
HEIGHT 1
VIEWPOINT 0 0 0 1 0 0 0
POINTS 648
DATA ascii
0.03977865 0.057202417 0.069352292 0.33897066 0.54846609 0
0.039882779 0.06216253 0.068835646 0.33897066 0.54846609 0
0.039144721 0.065695792 0.068520039 0.33897066 0.54846609 0
0.038041905 0.068604507 0.068292916 0.33897066 0.54846609 0
0.036651153 0.071027867 0.06813512 0.33897066 0.54846609 0
0.035060551 0.073117517 0.0680255 0.33897066 0.54846609 0
0.033292051 0.074917026 0.067958206 0.33897066 0.54846609 0
0.031357139 0.07645236 0.067929849 0.33897066 0.54846609 0
0.02925132 0.077724278 0.067940637 0.33897066 0.54846609 0
0.026965586 0.078726821 0.067991786 0.33897066 0.54846609 0
0.024494361 0.079459459 0.068083704 0.33897066 0.54846609 0
0.021811536 0.079891421 0.068221241 0.33897066 0.54846609 0
0.018872287 0.079965815 0.068413109 0.33897066 0.54846609 0
0.015517372 0.079462036 0.06869211 0.33897066 0.54846609 0
0.011530632 0.078086048 0.069102243 0.33897066 0.54846609 0
0.03977865 0.057202417 0.066807345 0.33897066 0.54846609 0
0.039882779 0.06216253 0.066309653 0.33897066 0.54846609 0
0.039144721 0.065695792 0.066005632 0.33897066 0.54846609 0
0.038041905 0.068604507 0.065786846 0.33897066 0.54846609 0
0.036651153 0.071027867 0.065634832 0.33897066 0.54846609 0
0.035060551 0.073117517 0.065529242 0.33897066 0.54846609 0
0.033292051 0.074917026 0.065464415 0.33897066 0.54846609 0
0.031357139 0.07645236 0.065437093 0.33897066 0.54846609 0
0.02925132 0.077724278 0.065447494 0.33897066 0.54846609 0
0.026965586 0.078726821 0.065496758 0.33897066 0.54846609 0
0.024494361 0.079459459 0.065585308 0.33897066 0.54846609 0
0.021811536 0.079891421 0.065717794 0.33897066 0.54846609 0
0.018872287 0.079965815 0.065902621 0.33897066 0.54846609 0
0.015517372 0.079462036 0.066171385 0.33897066 0.54846609 0
0.011530632 0.078086048 0.066566467 0.33897066 0.54846609 0
0.0051936088 0.073416725 0.067432716 0.33897066 0.54846609 0
0.03977865 0.057202417 0.064264968 0.33897066 0.54846609 0
0.039882779 0.06216253 0.063786224 0.33897066 0.54846609 0
0.039144721 0.065695792 0.063493773 0.33897066 0.54846609 0
0.038041905 0.068604507 0.063283309 0.33897066 0.54846609 0
0.036651153 0.071027867 0.063137084 0.33897066 0.54846609 0
0.035060551 0.073117517 0.063035503 0.33897066 0.54846609 0
0.033292051 0.074917026 0.062973149 0.33897066 0.54846609 0
0.031357139 0.07645236 0.062946871 0.33897066 0.54846609 0
0.02925132 0.077724278 0.06295687 0.33897066 0.54846609 0
0.026965586 0.078726821 0.063004263 0.33897066 0.54846609 0
0.024494361 0.079459459 0.063089438 0.33897066 0.54846609 0
0.021811536 0.079891421 0.063216887 0.33897066 0.54846609 0
0.018872287 0.079965815 0.063394681 0.33897066 0.54846609 0
0.015517372 0.079462036 0.063653216 0.33897066 0.54846609 0
0.011530632 0.078086048 0.064033262 0.33897066 0.54846609 0
0.0051936088 0.073416725 0.064866543 0.33897066 0.54846609 0
0.03977865 0.057202417 0.061725076 0.33897066 0.54846609 0
0.039882779 0.06216253 0.061265249 0.33897066 0.54846609 0
0.039144721 0.065695792 0.060984358 0.33897066 0.54846609 0
0.038041905 0.068604507 0.060782213 0.33897066 0.54846609 0
0.036651153 0.071027867 0.060641766 0.33897066 0.54846609 0
0.035060551 0.073117517 0.060544204 0.33897066 0.54846609 0
0.033292051 0.074917026 0.060484309 0.33897066 0.54846609 0
0.031357139 0.07645236 0.06045907 0.33897066 0.54846609 0
0.02925132 0.077724278 0.060468677 0.33897066 0.54846609 0
0.026965586 0.078726821 0.060514197 0.33897066 0.54846609 0
0.024494361 0.079459459 0.060596008 0.33897066 0.54846609 0
0.021811536 0.079891421 0.060718417 0.33897066 0.54846609 0
0.018872287 0.079965815 0.060889181 0.33897066 0.54846609 0
0.015517372 0.079462036 0.061137501 0.33897066 0.54846609 0
0.011530632 0.078086048 0.061502527 0.33897066 0.54846609 0
0.0051936088 0.073416725 0.062302876 0.33897066 0.54846609 0
0.03977865 0.057202417 0.059187561 0.33897066 0.54846609 0
0.039882779 0.06216253 0.058746636 0.33897066 0.54846609 0
0.039144721 0.065695792 0.058477294 0.33897066 0.54846609 0
0.038041905 0.068604507 0.058283459 0.33897066 0.54846609 0
0.036651153 0.071027867 0.058148786 0.33897066 0.54846609 0
0.035060551 0.073117517 0.058055233 0.33897066 0.54846609 0
0.033292051 0.074917026 0.0579978 0.33897066 0.54846609 0
0.031357139 0.07645236 0.057973601 0.33897066 0.54846609 0
0.02925132 0.077724278 0.05798281 0.33897066 0.54846609 0
0.026965586 0.078726821 0.058026459 0.33897066 0.54846609 0
0.024494361 0.079459459 0.058104906 0.33897066 0.54846609 0
0.021811536 0.079891421 0.058222283 0.33897066 0.54846609 0
0.018872287 0.079965815 0.058386032 0.33897066 0.54846609 0
0.015517372 0.079462036 0.058624141 0.33897066 0.54846609 0
0.011530632 0.078086048 0.058974162 0.33897066 0.54846609 0
0.0051936088 0.073416725 0.059741605 0.33897066 0.54846609 0
0.03977865 0.057202417 0.056652322 0.33897066 0.54846609 0
0.039882779 0.06216253 0.056230284 0.33897066 0.54846609 0
0.039144721 0.065695792 0.055972479 0.33897066 0.54846609 0
0.038041905 0.068604507 0.055786945 0.33897066 0.54846609 0
0.036651153 0.071027867 0.055658042 0.33897066 0.54846609 0
0.035060551 0.073117517 0.055568498 0.33897066 0.54846609 0
0.033292051 0.074917026 0.055513524 0.33897066 0.54846609 0
0.031357139 0.07645236 0.05549036 0.33897066 0.54846609 0
0.02925132 0.077724278 0.055499177 0.33897066 0.54846609 0
0.026965586 0.078726821 0.055540953 0.33897066 0.54846609 0
0.024494361 0.079459459 0.055616044 0.33897066 0.54846609 0
0.021811536 0.079891421 0.055728391 0.33897066 0.54846609 0
0.018872287 0.079965815 0.055885125 0.33897066 0.54846609 0
0.015517372 0.079462036 0.056113034 0.33897066 0.54846609 0
0.011530632 0.078086048 0.056448065 0.33897066 0.54846609 0
0.0051936088 0.073416725 0.057182636 0.33897066 0.54846609 0
0.03977865 0.057202417 0.054119263 0.33897066 0.54846609 0
0.039882779 0.06216253 0.053716093 0.33897066 0.54846609 0
0.039144721 0.065695792 0.053469814 0.33897066 0.54846609 0
0.038041905 0.068604507 0.05329258 0.33897066 0.54846609 0
0.036651153 0.071027867 0.05316944 0.33897066 0.54846609 0
0.035060551 0.073117517 0.053083897 0.33897066 0.54846609 0
0.033292051 0.074917026 0.053031385 0.33897066 0.54846609 0
0.031357139 0.07645236 0.053009253 0.33897066 0.54846609 0
0.02925132 0.077724278 0.053017676 0.33897066 0.54846609 0
0.026965586 0.078726821 0.053057585 0.33897066 0.54846609 0
0.024494361 0.079459459 0.053129315 0.33897066 0.54846609 0
0.021811536 0.079891421 0.053236641 0.33897066 0.54846609 0
0.018872287 0.079965815 0.053386368 0.33897066 0.54846609 0
0.015517372 0.079462036 0.053604089 0.33897066 0.54846609 0
0.011530632 0.078086048 0.053924136 0.33897066 0.54846609 0
0.0051936088 0.073416725 0.054625865 0.33897066 0.54846609 0
0.03977865 0.057202417 0.051588282 0.33897066 0.54846609 0
0.039882779 0.06216253 0.05120397 0.33897066 0.54846609 0
0.039144721 0.065695792 0.050969206 0.33897066 0.54846609 0
0.038041905 0.068604507 0.05080026 0.33897066 0.54846609 0
0.036651153 0.071027867 0.050682876 0.33897066 0.54846609 0
0.035060551 0.073117517 0.050601337 0.33897066 0.54846609 0
0.033292051 0.074917026 0.05055128 0.33897066 0.54846609 0
0.031357139 0.07645236 0.050530184 0.33897066 0.54846609 0
0.02925132 0.077724278 0.050538212 0.33897066 0.54846609 0
0.026965586 0.078726821 0.050576255 0.33897066 0.54846609 0
0.024494361 0.079459459 0.050644632 0.33897066 0.54846609 0
0.021811536 0.079891421 0.05074694 0.33897066 0.54846609 0
0.018872287 0.079965815 0.05088966 0.33897066 0.54846609 0
0.015517372 0.079462036 0.051097199 0.33897066 0.54846609 0
0.011530632 0.078086048 0.051402282 0.33897066 0.54846609 0
0.0051936088 0.073416725 0.052071191 0.33897066 0.54846609 0
0.03977865 0.057202417 0.049059279 0.33897066 0.54846609 0
0.039882779 0.06216253 0.048693806 0.33897066 0.54846609 0
0.039144721 0.065695792 0.048470553 0.33897066 0.54846609 0
0.038041905 0.068604507 0.048309889 0.33897066 0.54846609 0
0.036651153 0.071027867 0.04819826 0.33897066 0.54846609 0
0.035060551 0.073117517 0.048120718 0.33897066 0.54846609 0
0.033292051 0.074917026 0.048073113 0.33897066 0.54846609 0
0.031357139 0.07645236 0.048053052 0.33897066 0.54846609 0
0.02925132 0.077724278 0.048060689 0.33897066 0.54846609 0
0.026965586 0.078726821 0.048096865 0.33897066 0.54846609 0
0.024494361 0.079459459 0.04816189 0.33897066 0.54846609 0
0.021811536 0.079891421 0.048259184 0.33897066 0.54846609 0
0.018872287 0.079965815 0.048394907 0.33897066 0.54846609 0
0.015517372 0.079462036 0.048592273 0.33897066 0.54846609 0
0.011530632 0.078086048 0.048882399 0.33897066 0.54846609 0
0.0051936088 0.073416725 0.049518518 0.33897066 0.54846609 0
0.03977865 0.057202417 0.046532162 0.33897066 0.54846609 0
0.039882779 0.06216253 0.046185516 0.33897066 0.54846609 0
0.039144721 0.065695792 0.045973759 0.33897066 0.54846609 0
0.038041905 0.068604507 0.045821372 0.33897066 0.54846609 0
0.036651153 0.071027867 0.045715496 0.33897066 0.54846609 0
0.035060551 0.073117517 0.045641948 0.33897066 0.54846609 0
0.033292051 0.074917026 0.045596793 0.33897066 0.54846609 0
0.031357139 0.07645236 0.045577765 0.33897066 0.54846609 0
0.02925132 0.077724278 0.04558501 0.33897066 0.54846609 0
0.026965586 0.078726821 0.045619324 0.33897066 0.54846609 0
0.024494361 0.079459459 0.045680996 0.33897066 0.54846609 0
0.021811536 0.079891421 0.045773279 0.33897066 0.54846609 0
0.018872287 0.079965815 0.04590201 0.33897066 0.54846609 0
0.015517372 0.079462036 0.04608921 0.33897066 0.54846609 0
0.011530632 0.078086048 0.046364389 0.33897066 0.54846609 0
0.0051936088 0.073416725 0.046967741 0.33897066 0.54846609 0
0.03977865 0.057202417 0.044006824 0.33897066 0.54846609 0
0.039882779 0.06216253 0.043678991 0.33897066 0.54846609 0
0.039144721 0.065695792 0.043478731 0.33897066 0.54846609 0
0.038041905 0.068604507 0.043334611 0.33897066 0.54846609 0
0.036651153 0.071027867 0.043234479 0.33897066 0.54846609 0
0.035060551 0.073117517 0.043164924 0.33897066 0.54846609 0
0.033292051 0.074917026 0.043122221 0.33897066 0.54846609 0
0.031357139 0.07645236 0.043104228 0.33897066 0.54846609 0
0.02925132 0.077724278 0.043111075 0.33897066 0.54846609 0
0.026965586 0.078726821 0.043143526 0.33897066 0.54846609 0
0.024494361 0.079459459 0.043201856 0.33897066 0.54846609 0
0.021811536 0.079891421 0.043289125 0.33897066 0.54846609 0
0.018872287 0.079965815 0.043410875 0.33897066 0.54846609 0
0.015517372 0.079462036 0.043587912 0.33897066 0.54846609 0
0.011530632 0.078086048 0.043848157 0.33897066 0.54846609 0
0.0051936088 0.073416725 0.044418767 0.33897066 0.54846609 0
0.03977865 0.057202417 0.041483175 0.33897066 0.54846609 0
0.039882779 0.06216253 0.04117414 0.33897066 0.54846609 0
0.039144721 0.065695792 0.040985364 0.33897066 0.54846609 0
0.038041905 0.068604507 0.040849511 0.33897066 0.54846609 0
0.036651153 0.071027867 0.040755119 0.33897066 0.54846609 0
0.035060551 0.073117517 0.040689554 0.33897066 0.54846609 0
0.033292051 0.074917026 0.040649299 0.33897066 0.54846609 0
0.031357139 0.07645236 0.040632337 0.33897066 0.54846609 0
0.02925132 0.077724278 0.040638793 0.33897066 0.54846609 0
0.026965586 0.078726821 0.040669385 0.33897066 0.54846609 0
0.024494361 0.079459459 0.040724367 0.33897066 0.54846609 0
0.021811536 0.079891421 0.040806632 0.33897066 0.54846609 0
0.018872287 0.079965815 0.040921401 0.33897066 0.54846609 0
0.015517372 0.079462036 0.041088287 0.33897066 0.54846609 0
0.011530632 0.078086048 0.041333608 0.33897066 0.54846609 0
0.0051936088 0.073416725 0.041871492 0.33897066 0.54846609 0
0.039999999 0.042782694 0.03979091 0.33897066 0.54846609 0
0.039999999 0.047782373 0.039499771 0.33897066 0.54846609 0
0.039999999 0.052709512 0.039213601 0.33897066 0.54846609 0
0.039999999 0.057565864 0.038932286 0.33897066 0.54846609 0
0.039999999 0.062353123 0.038655709 0.33897066 0.54846609 0
0.039999999 0.067072935 0.03838376 0.33897066 0.54846609 0
0.039999999 0.071726888 0.038116332 0.33897066 0.54846609 0
0.039999999 0.076316528 0.037853315 0.33897066 0.54846609 0
0.039460808 0.079999998 0.03766242 0.33897066 0.54846609 0
0.036573138 0.079999998 0.03776814 0.33897066 0.54846609 0
0.033669151 0.079999998 0.037875179 0.33897066 0.54846609 0
0.030748606 0.079999998 0.037983548 0.33897066 0.54846609 0
0.027811242 0.079999998 0.038093269 0.33897066 0.54846609 0
0.024856802 0.079999998 0.038204353 0.33897066 0.54846609 0
0.021885024 0.079999998 0.038316824 0.33897066 0.54846609 0
0.018895641 0.079999998 0.038430687 0.33897066 0.54846609 0
0.0002107022 0.057267521 0.040416423 0.33897066 0.54846609 0
0.012862966 0.079999998 0.038662679 0.33897066 0.54846609 0
0.0098191174 0.079999998 0.038780838 0.33897066 0.54846609 0
0.0067565474 0.079999998 0.038900468 0.33897066 0.54846609 0
0.0036749658 0.079999998 0.039021581 0.33897066 0.54846609 0
0.00057407637 0.079999998 0.039144199 0.33897066 0.54846609 0
0.039999999 0.0055941045 0.039263032 0.33897066 0.54846609 0
0.039999999 0.011155722 0.038954768 0.33897066 0.54846609 0
0.039999999 0.016630791 0.038652036 0.33897066 0.54846609 0
0.039999999 0.022021521 0.038354699 0.33897066 0.54846609 0
0.039999999 0.027330047 0.038062621 0.33897066 0.54846609 0
0.039999999 0.03255843 0.037775669 0.33897066 0.54846609 0
0.039999999 0.03770867 0.037493721 0.33897066 0.54846609 0
0.039999999 0.042782694 0.037216656 0.33897066 0.54846609 0
0.039999999 0.047782373 0.036944352 0.33897066 0.54846609 0
0.039999999 0.052709512 0.036676697 0.33897066 0.54846609 0
0.039999999 0.057565864 0.03641358 0.33897066 0.54846609 0
0.039999999 0.062353123 0.036154896 0.33897066 0.54846609 0
0.039999999 0.067072935 0.035900541 0.33897066 0.54846609 0
0.039999999 0.071726888 0.03565041 0.33897066 0.54846609 0
0.039999999 0.076316528 0.035404414 0.33897066 0.54846609 0
0.039460808 0.079999998 0.035225868 0.33897066 0.54846609 0
0.036573138 0.079999998 0.035324745 0.33897066 0.54846609 0
0.033669151 0.079999998 0.035424858 0.33897066 0.54846609 0
0.030748606 0.079999998 0.03552622 0.33897066 0.54846609 0
0.027811242 0.079999998 0.03562884 0.33897066 0.54846609 0
0.024856802 0.079999998 0.035732742 0.33897066 0.54846609 0
0.021885024 0.079999998 0.035837933 0.33897066 0.54846609 0
0.018895641 0.079999998 0.035944432 0.33897066 0.54846609 0
0 0.056962006 0.037825212 0.33897066 0.54846609 0
0.012862966 0.079999998 0.036161412 0.33897066 0.54846609 0
0 0.066024907 0.037353981 0.33897066 0.54846609 0
0.0067565474 0.079999998 0.036383819 0.33897066 0.54846609 0
0.0036749658 0.079999998 0.036497097 0.33897066 0.54846609 0
0.00057407637 0.079999998 0.036611784 0.33897066 0.54846609 0
0.039999999 0.0055941045 0.03654873 0.33897066 0.54846609 0
0.039999999 0.011155722 0.036261778 0.33897066 0.54846609 0
0.039999999 0.016630791 0.035979975 0.33897066 0.54846609 0
0.039999999 0.022021521 0.03570319 0.33897066 0.54846609 0
0.039999999 0.027330047 0.035431303 0.33897066 0.54846609 0
0.039999999 0.03255843 0.035164192 0.33897066 0.54846609 0
0.039999999 0.03770867 0.034901734 0.33897066 0.54846609 0
0.039999999 0.042782694 0.034643821 0.33897066 0.54846609 0
0.039999999 0.047782373 0.034390341 0.33897066 0.54846609 0
0.039999999 0.052709512 0.03414119 0.33897066 0.54846609 0
0.039999999 0.057565864 0.033896264 0.33897066 0.54846609 0
0.039999999 0.062353123 0.033655465 0.33897066 0.54846609 0
0.039999999 0.067072935 0.033418689 0.33897066 0.54846609 0
0.039999999 0.071726888 0.033185855 0.33897066 0.54846609 0
0.039999999 0.076316528 0.032956861 0.33897066 0.54846609 0
0 0.018278988 0.037110873 0.33897066 0.54846609 0
0 0.023341881 0.036859665 0.33897066 0.54846609 0
0.033669151 0.079999998 0.032975893 0.33897066 0.54846609 0
0.030748606 0.079999998 0.033070248 0.33897066 0.54846609 0
0.027811242 0.079999998 0.033165775 0.33897066 0.54846609 0
0.024856802 0.079999998 0.033262491 0.33897066 0.54846609 0
0.021885024 0.079999998 0.03336041 0.33897066 0.54846609 0
0.018895641 0.079999998 0.033459548 0.33897066 0.54846609 0
0.015888382 0.079999998 0.033559915 0.33897066 0.54846609 0
0.012862966 0.079999998 0.033661529 0.33897066 0.54846609 0
0.0098191174 0.079999998 0.033764407 0.33897066 0.54846609 0
0.0067565474 0.079999998 0.033868562 0.33897066 0.54846609 0
0.0036749658 0.079999998 0.03397401 0.33897066 0.54846609 0
0.00057407637 0.079999998 0.034080766 0.33897066 0.54846609 0
0.039999999 0.0055941045 0.033835825 0.33897066 0.54846609 0
0.039999999 0.011155722 0.03357017 0.33897066 0.54846609 0
0.039999999 0.016630791 0.033309285 0.33897066 0.54846609 0
0.039999999 0.022021521 0.033053048 0.33897066 0.54846609 0
0.039999999 0.027330047 0.032801341 0.33897066 0.54846609 0
0.039999999 0.03255843 0.032554056 0.33897066 0.54846609 0
0.039999999 0.03770867 0.032311082 0.33897066 0.54846609 0
0.039999999 0.042782694 0.032072313 0.33897066 0.54846609 0
0.039999999 0.047782373 0.03183765 0.33897066 0.54846609 0
0.039999999 0.052709512 0.031606991 0.33897066 0.54846609 0
0.039999999 0.057565864 0.031380244 0.33897066 0.54846609 0
0.039999999 0.062353123 0.031157317 0.33897066 0.54846609 0
0.039999999 0.067072935 0.030938119 0.33897066 0.54846609 0
0.039999999 0.071726888 0.030722566 0.33897066 0.54846609 0
0.039999999 0.076316528 0.030510571 0.33897066 0.54846609 0
0.039460808 0.079999998 0.030356705 0.33897066 0.54846609 0
0.036573138 0.079999998 0.030441917 0.33897066 0.54846609 0
0.033669151 0.079999998 0.030528191 0.33897066 0.54846609 0
0.030748606 0.079999998 0.03061554 0.33897066 0.54846609 0
0.027811242 0.079999998 0.030703977 0.33897066 0.54846609 0
0.024856802 0.079999998 0.030793514 0.33897066 0.54846609 0
0.021885024 0.079999998 0.030884165 0.33897066 0.54846609 0
0.018895641 0.079999998 0.030975943 0.33897066 0.54846609 0
0 0.056962006 0.032596752 0.33897066 0.54846609 0
0.012862966 0.079999998 0.031162933 0.33897066 0.54846609 0
0.0098191174 0.079999998 0.031258173 0.33897066 0.54846609 0
0.0067565474 0.079999998 0.031354599 0.33897066 0.54846609 0
0.0036749658 0.079999998 0.031452216 0.33897066 0.54846609 0
0.00057407637 0.079999998 0.031551052 0.33897066 0.54846609 0
0.039999999 0.0055941045 0.031124212 0.33897066 0.54846609 0
0.039999999 0.011155722 0.030879848 0.33897066 0.54846609 0
0.039999999 0.016630791 0.03063987 0.33897066 0.54846609 0
0.039999999 0.022021521 0.030404167 0.33897066 0.54846609 0
0.039999999 0.027330047 0.030172633 0.33897066 0.54846609 0
0.039999999 0.03255843 0.029945165 0.33897066 0.54846609 0
0.039999999 0.03770867 0.029721661 0.33897066 0.54846609 0
0.039999999 0.042782694 0.029502027 0.33897066 0.54846609 0
0.039999999 0.047782373 0.02928617 0.33897066 0.54846609 0
0.039999999 0.052709512 0.029073996 0.33897066 0.54846609 0
0.039999999 0.057565864 0.028865421 0.33897066 0.54846609 0
0.039999999 0.062353123 0.028660361 0.33897066 0.54846609 0
0.039999999 0.067072935 0.028458729 0.33897066 0.54846609 0
0.039999999 0.071726888 0.028260449 0.33897066 0.54846609 0
0.039999999 0.076316528 0.028065445 0.33897066 0.54846609 0
0.039460808 0.079999998 0.02792391 0.33897066 0.54846609 0
0.036573138 0.079999998 0.028002292 0.33897066 0.54846609 0
0.033669151 0.079999998 0.028081654 0.33897066 0.54846609 0
0.030748606 0.079999998 0.028162003 0.33897066 0.54846609 0
0.027811242 0.079999998 0.028243352 0.33897066 0.54846609 0
0.024856802 0.079999998 0.028325714 0.33897066 0.54846609 0
0.021885024 0.079999998 0.028409099 0.33897066 0.54846609 0
0.018895641 0.079999998 0.028493522 0.33897066 0.54846609 0
0.015888382 0.079999998 0.028578993 0.33897066 0.54846609 0
0.012862966 0.079999998 0.028665528 0.33897066 0.54846609 0
0.0098191174 0.079999998 0.028753135 0.33897066 0.54846609 0
0.0067565474 0.079999998 0.028841831 0.33897066 0.54846609 0
0 0.074865438 0.029248729 0.33897066 0.54846609 0
0.00057407637 0.079999998 0.029022541 0.33897066 0.54846609 0
0.039999999 0.0055941045 0.028413787 0.33897066 0.54846609 0
0.039999999 0.011155722 0.028190704 0.33897066 0.54846609 0
0.039999999 0.016630791 0.027971623 0.33897066 0.54846609 0
0.039999999 0.022021521 0.027756447 0.33897066 0.54846609 0
0.039999999 0.027330047 0.027545076 0.33897066 0.54846609 0
0.039999999 0.03255843 0.027337415 0.33897066 0.54846609 0
0.039999999 0.03770867 0.027133377 0.33897066 0.54846609 0
0.039999999 0.042782694 0.026932869 0.33897066 0.54846609 0
0.039999999 0.047782373 0.026735809 0.33897066 0.54846609 0
0.039999999 0.052709512 0.026542114 0.33897066 0.54846609 0
0.039999999 0.057565864 0.026351701 0.33897066 0.54846609 0
0.039999999 0.062353123 0.026164498 0.33897066 0.54846609 0
0.039999999 0.067072935 0.025980426 0.33897066 0.54846609 0
0.039999999 0.071726888 0.025799414 0.33897066 0.54846609 0
0.039999999 0.076316528 0.02562139 0.33897066 0.54846609 0
0.039460808 0.079999998 0.02549218 0.33897066 0.54846609 0
0.036573138 0.079999998 0.025563737 0.33897066 0.54846609 0
0.033669151 0.079999998 0.025636187 0.33897066 0.54846609 0
0 0.033265255 0.028274354 0.33897066 0.54846609 0
0.027811242 0.079999998 0.025783805 0.33897066 0.54846609 0
0.024856802 0.079999998 0.025858995 0.33897066 0.54846609 0
0.021885024 0.079999998 0.025935117 0.33897066 0.54846609 0
0.018895641 0.079999998 0.026012188 0.33897066 0.54846609 0
0 0.056962006 0.027373269 0.33897066 0.54846609 0
0.012862966 0.079999998 0.026169214 0.33897066 0.54846609 0
0.0098191174 0.079999998 0.026249193 0.33897066 0.54846609 0
0 0.070472367 0.026865667 0.33897066 0.54846609 0
0.0036749658 0.079999998 0.026412142 0.33897066 0.54846609 0
0.00057407637 0.079999998 0.026495138 0.33897066 0.54846609 0
0.039999999 0.0055941045 0.025704447 0.33897066 0.54846609 0
0.039999999 0.011155722 0.025502635 0.33897066 0.54846609 0
0.039999999 0.016630791 0.025304444 0.33897066 0.54846609 0
0.039999999 0.022021521 0.025109785 0.33897066 0.54846609 0
0.039999999 0.027330047 0.024918569 0.33897066 0.54846609 0
0.039999999 0.03255843 0.02473071 0.33897066 0.54846609 0
0.039999999 0.03770867 0.024546126 0.33897066 0.54846609 0
0.039999999 0.042782694 0.024364738 0.33897066 0.54846609 0
0.039999999 0.047782373 0.02418647 0.33897066 0.54846609 0
0.039999999 0.052709512 0.024011243 0.33897066 0.54846609 0
0.039999999 0.057565864 0.023838988 0.33897066 0.54846609 0
0.039999999 0.062353123 0.023669634 0.33897066 0.54846609 0
0.039999999 0.067072935 0.023503114 0.33897066 0.54846609 0
0.039999999 0.071726888 0.023339361 0.33897066 0.54846609 0
0.039999999 0.076316528 0.023178313 0.33897066 0.54846609 0
0.039460808 0.079999998 0.023061424 0.33897066 0.54846609 0
0.036573138 0.079999998 0.023126157 0.33897066 0.54846609 0
0.033669151 0.079999998 0.0231917 0.33897066 0.54846609 0
0.030748606 0.079999998 0.023258056 0.33897066 0.54846609 0
0.027811242 0.079999998 0.02332524 0.33897066 0.54846609 0
0 0.042928826 0.025244441 0.33897066 0.54846609 0
0.021885024 0.079999998 0.023462126 0.33897066 0.54846609 0
0 0.052344084 0.024921052 0.33897066 0.54846609 0
0.015888382 0.079999998 0.023602435 0.33897066 0.54846609 0
0.012862966 0.079999998 0.023673901 0.33897066 0.54846609 0
0.0098191174 0.079999998 0.023746254 0.33897066 0.54846609 0
0.0067565474 0.079999998 0.023819504 0.33897066 0.54846609 0
0.0036749658 0.079999998 0.023893664 0.33897066 0.54846609 0
0.00057407637 0.079999998 0.023968747 0.33897066 0.54846609 0
0.039999999 0.0055941045 0.022996087 0.33897066 0.54846609 0
0.039999999 0.011155722 0.022815539 0.33897066 0.54846609 0
0.039999999 0.016630791 0.02263823 0.33897066 0.54846609 0
0.039999999 0.022021521 0.022464082 0.33897066 0.54846609 0
0.039999999 0.027330047 0.022293013 0.33897066 0.54846609 0
0.039999999 0.03255843 0.022124948 0.33897066 0.54846609 0
0.039999999 0.03770867 0.021959813 0.33897066 0.54846609 0
0.039999999 0.042782694 0.021797538 0.33897066 0.54846609 0
0.039999999 0.047782373 0.021638051 0.33897066 0.54846609 0
0.039999999 0.052709512 0.021481287 0.33897066 0.54846609 0
0.039999999 0.057565864 0.021327183 0.33897066 0.54846609 0
0.039999999 0.062353123 0.021175673 0.33897066 0.54846609 0
0.039999999 0.067072935 0.021026697 0.33897066 0.54846609 0
0.039999999 0.071726888 0.0208802 0.33897066 0.54846609 0
0.039999999 0.076316528 0.020736121 0.33897066 0.54846609 0
0.039460808 0.079999998 0.020631546 0.33897066 0.54846609 0
0.036573138 0.079999998 0.02068946 0.33897066 0.54846609 0
0.033669151 0.079999998 0.020748096 0.33897066 0.54846609 0
0.030748606 0.079999998 0.020807462 0.33897066 0.54846609 0
0.027811242 0.079999998 0.020867566 0.33897066 0.54846609 0
0.024856802 0.079999998 0.02092842 0.33897066 0.54846609 0
0.021885024 0.079999998 0.020990029 0.33897066 0.54846609 0
0.018895641 0.079999998 0.021052405 0.33897066 0.54846609 0
0.015888382 0.079999998 0.021115554 0.33897066 0.54846609 0
0.012862966 0.079999998 0.02117949 0.33897066 0.54846609 0
0.0098191174 0.079999998 0.021244219 0.33897066 0.54846609 0
0.0067565474 0.079999998 0.021309752 0.33897066 0.54846609 0
0.0036749658 0.079999998 0.021376098 0.33897066 0.54846609 0
0 0.079205267 0.021479646 0.33897066 0.54846609 0
0.039999999 0.0055941045 0.020288603 0.33897066 0.54846609 0
0.039999999 0.011155722 0.020129312 0.33897066 0.54846609 0
0.039999999 0.016630791 0.019972879 0.33897066 0.54846609 0
0.039999999 0.022021521 0.019819235 0.33897066 0.54846609 0
0.039999999 0.027330047 0.019668307 0.33897066 0.54846609 0
0.039999999 0.03255843 0.019520029 0.33897066 0.54846609 0
0.039999999 0.03770867 0.019374337 0.33897066 0.54846609 0
0.039999999 0.042782694 0.019231167 0.33897066 0.54846609 0
0.039999999 0.047782373 0.019090459 0.33897066 0.54846609 0
0.039999999 0.052709512 0.018952152 0.33897066 0.54846609 0
0.039999999 0.057565864 0.01881619 0.33897066 0.54846609 0
0.039999999 0.062353123 0.018682519 0.33897066 0.54846609 0
0.039999999 0.067072935 0.018551083 0.33897066 0.54846609 0
0.039999999 0.071726888 0.018421834 0.33897066 0.54846609 0
0.039999999 0.076316528 0.018294718 0.33897066 0.54846609 0
0.039460808 0.079999998 0.018202458 0.33897066 0.54846609 0
0.036573138 0.079999998 0.018253552 0.33897066 0.54846609 0
0.033669151 0.079999998 0.018305283 0.33897066 0.54846609 0
0.030748606 0.079999998 0.018357659 0.33897066 0.54846609 0
0.027811242 0.079999998 0.018410688 0.33897066 0.54846609 0
0.024856802 0.079999998 0.018464377 0.33897066 0.54846609 0
0.021885024 0.079999998 0.018518733 0.33897066 0.54846609 0
0.018895641 0.079999998 0.018573765 0.33897066 0.54846609 0
0.015888382 0.079999998 0.018629478 0.33897066 0.54846609 0
0.012862966 0.079999998 0.018685887 0.33897066 0.54846609 0
0.0098191174 0.079999998 0.018742995 0.33897066 0.54846609 0
0.0067565474 0.079999998 0.018800812 0.33897066 0.54846609 0
0.0036749658 0.079999998 0.018859347 0.33897066 0.54846609 0
0.00057407637 0.079999998 0.018918609 0.33897066 0.54846609 0
0.039999999 0.0055941045 0.017581893 0.33897066 0.54846609 0
0.039999999 0.011155722 0.017443852 0.33897066 0.54846609 0
0.039999999 0.016630791 0.017308291 0.33897066 0.54846609 0
0.039999999 0.022021521 0.017175144 0.33897066 0.54846609 0
0.039999999 0.027330047 0.017044351 0.33897066 0.54846609 0
0.039999999 0.03255843 0.016915856 0.33897066 0.54846609 0
0.039999999 0.03770867 0.0167896 0.33897066 0.54846609 0
0.039999999 0.042782694 0.016665529 0.33897066 0.54846609 0
0.039999999 0.047782373 0.016543593 0.33897066 0.54846609 0
0.039999999 0.052709512 0.016423738 0.33897066 0.54846609 0
0.039999999 0.057565864 0.016305916 0.33897066 0.54846609 0
0.039999999 0.062353123 0.016190076 0.33897066 0.54846609 0
0.039999999 0.067072935 0.016076177 0.33897066 0.54846609 0
0.039999999 0.071726888 0.015964171 0.33897066 0.54846609 0
0.039999999 0.076316528 0.015854012 0.33897066 0.54846609 0
0.039460808 0.079999998 0.01577406 0.33897066 0.54846609 0
0.036573138 0.079999998 0.015818339 0.33897066 0.54846609 0
0.033669151 0.079999998 0.015863169 0.33897066 0.54846609 0
0.030748606 0.079999998 0.015908558 0.33897066 0.54846609 0
0.027811242 0.079999998 0.015954511 0.33897066 0.54846609 0
0.024856802 0.079999998 0.016001036 0.33897066 0.54846609 0
0.021885024 0.079999998 0.016048141 0.33897066 0.54846609 0
0.018895641 0.079999998 0.016095832 0.33897066 0.54846609 0
0.015888382 0.079999998 0.016144114 0.33897066 0.54846609 0
0.012862966 0.079999998 0.016192995 0.33897066 0.54846609 0
0.0098191174 0.079999998 0.016242485 0.33897066 0.54846609 0
0.0067565474 0.079999998 0.016292589 0.33897066 0.54846609 0
0.0036749658 0.079999998 0.016343314 0.33897066 0.54846609 0
0.00057407637 0.079999998 0.016394671 0.33897066 0.54846609 0
0.039999999 0.0055941045 0.014875853 0.33897066 0.54846609 0
0.039999999 0.011155722 0.014759059 0.33897066 0.54846609 0
0.039999999 0.016630791 0.014644361 0.33897066 0.54846609 0
0.039999999 0.022021521 0.014531706 0.33897066 0.54846609 0
0.039999999 0.027330047 0.014421045 0.33897066 0.54846609 0
0.039999999 0.03255843 0.014312326 0.33897066 0.54846609 0
0.039999999 0.03770867 0.014205502 0.33897066 0.54846609 0
0.039999999 0.042782694 0.014100528 0.33897066 0.54846609 0
0.039999999 0.047782373 0.013997359 0.33897066 0.54846609 0
0.039999999 0.052709512 0.01389595 0.33897066 0.54846609 0
0.039999999 0.057565864 0.013796262 0.33897066 0.54846609 0
0.039999999 0.062353123 0.013698253 0.33897066 0.54846609 0
0.039999999 0.067072935 0.013601882 0.33897066 0.54846609 0
0.039999999 0.071726888 0.013507115 0.33897066 0.54846609 0
0.039999999 0.076316528 0.013413912 0.33897066 0.54846609 0
0.039460808 0.079999998 0.013346265 0.33897066 0.54846609 0
0.036573138 0.079999998 0.013383728 0.33897066 0.54846609 0
0.033669151 0.079999998 0.013421658 0.33897066 0.54846609 0
0.030748606 0.079999998 0.013460062 0.33897066 0.54846609 0
0.027811242 0.079999998 0.013498943 0.33897066 0.54846609 0
0.024856802 0.079999998 0.013538308 0.33897066 0.54846609 0
0.021885024 0.079999998 0.013578163 0.33897066 0.54846609 0
0 0.052344084 0.014422482 0.33897066 0.54846609 0
0.015888382 0.079999998 0.013659364 0.33897066 0.54846609 0
0.012862966 0.079999998 0.013700722 0.33897066 0.54846609 0
0.0098191174 0.079999998 0.013742594 0.33897066 0.54846609 0
0.0067565474 0.079999998 0.013784986 0.33897066 0.54846609 0
0.0036749658 0.079999998 0.013827905 0.33897066 0.54846609 0
0.00057407637 0.079999998 0.013871357 0.33897066 0.54846609 0
0.039999999 0.0055941045 0.01217038 0.33897066 0.54846609 0
0.039999999 0.011155722 0.012074827 0.33897066 0.54846609 0
0.039999999 0.016630791 0.01198099 0.33897066 0.54846609 0
0.039999999 0.022021521 0.011888823 0.33897066 0.54846609 0
0.039999999 0.027330047 0.011798288 0.33897066 0.54846609 0
0.039999999 0.03255843 0.011709342 0.33897066 0.54846609 0
0.039999999 0.03770867 0.011621946 0.33897066 0.54846609 0
0.039999999 0.042782694 0.011536064 0.33897066 0.54846609 0
0.039999999 0.047782373 0.011451658 0.33897066 0.54846609 0
0.039999999 0.052709512 0.011368693 0.33897066 0.54846609 0
0.039999999 0.057565864 0.011287134 0.33897066 0.54846609 0
0.039999999 0.062353123 0.01120695 0.33897066 0.54846609 0
0.039999999 0.067072935 0.011128107 0.33897066 0.54846609 0
0.039999999 0.071726888 0.011050574 0.33897066 0.54846609 0
0.039999999 0.076316528 0.010974322 0.33897066 0.54846609 0
0 0.018278988 0.012357567 0.33897066 0.54846609 0
0.036573138 0.079999998 0.010949628 0.33897066 0.54846609 0
0.033669151 0.079999998 0.01098066 0.33897066 0.54846609 0
0.030748606 0.079999998 0.011012079 0.33897066 0.54846609 0
0.027811242 0.079999998 0.011043889 0.33897066 0.54846609 0
0.024856802 0.079999998 0.011076095 0.33897066 0.54846609 0
0.021885024 0.079999998 0.0111087 0.33897066 0.54846609 0
0 0.052344084 0.011799463 0.33897066 0.54846609 0
0.015888382 0.079999998 0.011175133 0.33897066 0.54846609 0
0.012862966 0.079999998 0.01120897 0.33897066 0.54846609 0
0.0098191174 0.079999998 0.011243227 0.33897066 0.54846609 0
0.0067565474 0.079999998 0.011277909 0.33897066 0.54846609 0
0.0036749658 0.079999998 0.011313022 0.33897066 0.54846609 0
0.00057407637 0.079999998 0.011348572 0.33897066 0.54846609 0
0.039999999 0.0055941045 0.0094653703 0.33897066 0.54846609 0
0.039999999 0.011155722 0.0093910554 0.33897066 0.54846609 0
0.039999999 0.016630791 0.0093180742 0.33897066 0.54846609 0
0.039999999 0.022021521 0.0092463931 0.33897066 0.54846609 0
0.039999999 0.027330047 0.0091759805 0.33897066 0.54846609 0
0.039999999 0.03255843 0.0091068037 0.33897066 0.54846609 0
0.039999999 0.03770867 0.009038832 0.33897066 0.54846609 0
0.039999999 0.042782694 0.0089720385 0.33897066 0.54846609 0
0.039999999 0.047782373 0.0089063924 0.33897066 0.54846609 0
0.039999999 0.052709512 0.0088418676 0.33897066 0.54846609 0
0.039999999 0.057565864 0.0087784361 0.33897066 0.54846609 0
0.039999999 0.062353123 0.0087160738 0.33897066 0.54846609 0
0.039999999 0.067072935 0.0086547546 0.33897066 0.54846609 0
0.039999999 0.071726888 0.0085944552 0.33897066 0.54846609 0
0.039999999 0.076316528 0.0085351504 0.33897066 0.54846609 0
0.039460808 0.079999998 0.0084921075 0.33897066 0.54846609 0
0.036573138 0.079999998 0.0085159447 0.33897066 0.54846609 0
0.033669151 0.079999998 0.0085400799 0.33897066 0.54846609 0
0.030748606 0.079999998 0.008564515 0.33897066 0.54846609 0
0 0.038128782 0.0093569579 0.33897066 0.54846609 0
0.024856802 0.079999998 0.0086143026 0.33897066 0.54846609 0
0.021885024 0.079999998 0.0086396616 0.33897066 0.54846609 0
0.018895641 0.079999998 0.0086653354 0.33897066 0.54846609 0
0.015888382 0.079999998 0.0086913286 0.33897066 0.54846609 0
0.012862966 0.079999998 0.008717645 0.33897066 0.54846609 0
0.0098191174 0.079999998 0.0087442882 0.33897066 0.54846609 0
0.0067565474 0.079999998 0.0087712621 0.33897066 0.54846609 0
0.0036749658 0.079999998 0.0087985704 0.33897066 0.54846609 0
0.00057407637 0.079999998 0.0088262185 0.33897066 0.54846609 0
0.039999999 0.0055941045 0.0067607216 0.33897066 0.54846609 0
0.039999999 0.011155722 0.0067076413 0.33897066 0.54846609 0
0.039999999 0.016630791 0.0066555138 0.33897066 0.54846609 0
0.039999999 0.022021521 0.0066043152 0.33897066 0.54846609 0
0.039999999 0.027330047 0.006554022 0.33897066 0.54846609 0
0.039999999 0.03255843 0.0065046116 0.33897066 0.54846609 0
0.039999999 0.03770867 0.0064560631 0.33897066 0.54846609 0
0.039999999 0.042782694 0.0064083547 0.33897066 0.54846609 0
0.039999999 0.047782373 0.0063614668 0.33897066 0.54846609 0
0.039999999 0.052709512 0.0063153789 0.33897066 0.54846609 0
0.039999999 0.057565864 0.0062700729 0.33897066 0.54846609 0
0.039999999 0.062353123 0.0062255301 0.33897066 0.54846609 0
0.039999999 0.067072935 0.0061817323 0.33897066 0.54846609 0
0.039999999 0.071726888 0.0061386623 0.33897066 0.54846609 0
0.039999999 0.076316528 0.0060963039 0.33897066 0.54846609 0
0.039460808 0.079999998 0.00606556 0.33897066 0.54846609 0
0.036573138 0.079999998 0.006082586 0.33897066 0.54846609 0
0.033669151 0.079999998 0.0060998248 0.33897066 0.54846609 0
0.030748606 0.079999998 0.0061172778 0.33897066 0.54846609 0
0.027811242 0.079999998 0.0061349487 0.33897066 0.54846609 0
0 0.042928826 0.006639732 0.33897066 0.54846609 0
0.021885024 0.079999998 0.0061709518 0.33897066 0.54846609 0
0 0.052344084 0.0065546748 0.33897066 0.54846609 0
0.015888382 0.079999998 0.0062078559 0.33897066 0.54846609 0
0.012862966 0.079999998 0.0062266523 0.33897066 0.54846609 0
0.0098191174 0.079999998 0.006245682 0.33897066 0.54846609 0
0 0.070472367 0.0063923644 0.33897066 0.54846609 0
0.0036749658 0.079999998 0.0062844539 0.33897066 0.54846609 0
0.00057407637 0.079999998 0.0063042017 0.33897066 0.54846609 0
0.039999999 0.0055941045 0.0040563298 0.33897066 0.54846609 0
0.039999999 0.011155722 0.0040244828 0.33897066 0.54846609 0
0.039999999 0.016630791 0.0039932071 0.33897066 0.54846609 0
0.039999999 0.022021521 0.0039624884 0.33897066 0.54846609 0
0.039999999 0.027330047 0.0039323135 0.33897066 0.54846609 0
0.039999999 0.03255843 0.0039026679 0.33897066 0.54846609 0
0.039999999 0.03770867 0.0038735394 0.33897066 0.54846609 0
0.039999999 0.042782694 0.0038449152 0.33897066 0.54846609 0
0.039999999 0.047782373 0.0038167832 0.33897066 0.54846609 0
0.039999999 0.052709512 0.0037891313 0.33897066 0.54846609 0
0.039999999 0.057565864 0.0037619483 0.33897066 0.54846609 0
0.039999999 0.062353123 0.0037352231 0.33897066 0.54846609 0
0.039999999 0.067072935 0.0037089451 0.33897066 0.54846609 0
0.039999999 0.071726888 0.0036831039 0.33897066 0.54846609 0
0.039999999 0.076316528 0.0036576896 0.33897066 0.54846609 0
0.039460808 0.079999998 0.0036392435 0.33897066 0.54846609 0
0.036573138 0.079999998 0.003649459 0.33897066 0.54846609 0
0 0.028336788 0.0040634107 0.33897066 0.54846609 0
0.030748606 0.079999998 0.0036702736 0.33897066 0.54846609 0
0.027811242 0.079999998 0.0036808758 0.33897066 0.54846609 0
0.024856802 0.079999998 0.0036916097 0.33897066 0.54846609 0
0.021885024 0.079999998 0.0037024771 0.33897066 0.54846609 0
0.018895641 0.079999998 0.0037134797 0.33897066 0.54846609 0
0.015888382 0.079999998 0.0037246188 0.33897066 0.54846609 0
0.012862966 0.079999998 0.0037358964 0.33897066 0.54846609 0
0 0.066024907 0.0038591025 0.33897066 0.54846609 0
0.0067565474 0.079999998 0.0037588736 0.33897066 0.54846609 0
0.0036749658 0.079999998 0.0037705766 0.33897066 0.54846609 0
0.00057407637 0.079999998 0.0037824251 0.33897066 0.54846609 0
0.039999999 0.0055941045 0.0013520928 0.33897066 0.54846609 0
0.039999999 0.011155722 0.0013414772 0.33897066 0.54846609 0
0.039999999 0.016630791 0.001331052 0.33897066 0.54846609 0
0.039999999 0.022021521 0.0013208127 0.33897066 0.54846609 0
0.039999999 0.027330047 0.0013107545 0.33897066 0.54846609 0
0.039999999 0.03255843 0.0013008728 0.33897066 0.54846609 0
0.039999999 0.03770867 0.0012911635 0.33897066 0.54846609 0
0.039999999 0.042782694 0.0012816221 0.33897066 0.54846609 0
0.039999999 0.047782373 0.0012722448 0.33897066 0.54846609 0
0.039999999 0.052709512 0.0012630277 0.33897066 0.54846609 0
0.039999999 0.057565864 0.0012539668 0.33897066 0.54846609 0
0.039999999 0.062353123 0.0012450586 0.33897066 0.54846609 0
0.039999999 0.067072935 0.0012362994 0.33897066 0.54846609 0
0.039999999 0.071726888 0.0012276857 0.33897066 0.54846609 0
0.039999999 0.076316528 0.0012192144 0.33897066 0.54846609 0
0.039460808 0.079999998 0.0012130658 0.33897066 0.54846609 0
0.036573138 0.079999998 0.001216471 0.33897066 0.54846609 0
0.033669151 0.079999998 0.0012199185 0.33897066 0.54846609 0
0 0.033265255 0.0013454577 0.33897066 0.54846609 0
0.027811242 0.079999998 0.001226943 0.33897066 0.54846609 0
0.024856802 0.079999998 0.0012305209 0.33897066 0.54846609 0
0 0.047666803 0.0013193231 0.33897066 0.54846609 0
0.018895641 0.079999998 0.0012378108 0.33897066 0.54846609 0
0.015888382 0.079999998 0.0012415239 0.33897066 0.54846609 0
0.012862966 0.079999998 0.0012452831 0.33897066 0.54846609 0
0 0.066024907 0.0012863512 0.33897066 0.54846609 0
0.0067565474 0.079999998 0.001252942 0.33897066 0.54846609 0
0 0.074865438 0.0012706184 0.33897066 0.54846609 0
0 0.079205267 0.0012629313 0.33897066 0.54846609 0
