# .PCD v0.7 - Point Cloud Data file format
VERSION 0.7
FIELDS x y z vp_x vp_y vp_z
SIZE 4 4 4 4 4 4
TYPE F F F F F F
COUNT 1 1 1 1 1 1
WIDTH 480
HEIGHT 1
VIEWPOINT 0 0 0 1 0 0 0
POINTS 480
DATA ascii
0.010042137 0.042684574 0.069611222 0.33897066 -0.54846609 0
0.014452355 0.040795397 0.069221355 0.33897066 -0.54846609 0
0.018168451 0.040110756 0.068975843 0.33897066 -0.54846609 0
0.021510499 0.040075827 0.068808764 0.33897066 -0.54846609 0
0.024561906 0.040555414 0.068703786 0.33897066 -0.54846609 0
0.027400164 0.041419614 0.068645366 0.33897066 -0.54846609 0
0.030007752 0.0427146 0.068638526 0.33897066 -0.54846609 0
0.032431353 0.04436427 0.06867411 0.33897066 -0.54846609 0
0.03465708 0.046407495 0.068756334 0.33897066 -0.54846609 0
0.036637213 0.048951577 0.068897247 0.33897066 -0.54846609 0
0.038340274 0.052075971 0.069105633 0.33897066 -0.54846609 0
0.039602809 0.056129992 0.069421165 0.33897066 -0.54846609 0
0.039860897 0.062295984 0.069978639 0.33897066 -0.54846609 0
0.010042137 0.042684574 0.066629492 0.33897066 -0.54846609 0
0.014452355 0.040795397 0.066256329 0.33897066 -0.54846609 0
0.018168451 0.040110756 0.066021331 0.33897066 -0.54846609 0
0.021510499 0.040075827 0.065861411 0.33897066 -0.54846609 0
0.024561906 0.040555414 0.065760933 0.33897066 -0.54846609 0
0.027400164 0.041419614 0.065705009 0.33897066 -0.54846609 0
0.030007752 0.0427146 0.065698467 0.33897066 -0.54846609 0
0.032431353 0.04436427 0.065732531 0.33897066 -0.54846609 0
0.03465708 0.046407495 0.065811224 0.33897066 -0.54846609 0
0.036637213 0.048951577 0.06594611 0.33897066 -0.54846609 0
0.038340274 0.052075971 0.066145569 0.33897066 -0.54846609 0
0.039602809 0.056129992 0.066447586 0.33897066 -0.54846609 0
0.039860897 0.062295984 0.066981174 0.33897066 -0.54846609 0
0.010042137 0.042684574 0.063650332 0.33897066 -0.54846609 0
0.014452355 0.040795397 0.063293852 0.33897066 -0.54846609 0
0.018168451 0.040110756 0.063069358 0.33897066 -0.54846609 0
0.021510499 0.040075827 0.062916592 0.33897066 -0.54846609 0
0.024561906 0.040555414 0.062820606 0.33897066 -0.54846609 0
0.027400164 0.041419614 0.062767185 0.33897066 -0.54846609 0
0.030007752 0.0427146 0.062760934 0.33897066 -0.54846609 0
0.032431353 0.04436427 0.062793471 0.33897066 -0.54846609 0
0.03465708 0.046407495 0.062868647 0.33897066 -0.54846609 0
0.036637213 0.048951577 0.062997498 0.33897066 -0.54846609 0
0.038340274 0.052075971 0.063188039 0.33897066 -0.54846609 0
0.039602809 0.056129992 0.063476555 0.33897066 -0.54846609 0
0.039860897 0.062295984 0.063986287 0.33897066 -0.54846609 0
0.010042137 0.042684574 0.060673613 0.33897066 -0.54846609 0
0.014452355 0.040795397 0.060333807 0.33897066 -0.54846609 0
0.018168451 0.040110756 0.060119815 0.33897066 -0.54846609 0
0.021510499 0.040075827 0.059974186 0.33897066 -0.54846609 0
0.024561906 0.040555414 0.059882689 0.33897066 -0.54846609 0
0.027400164 0.041419614 0.059831765 0.33897066 -0.54846609 0
0.030007752 0.0427146 0.059825808 0.33897066 -0.54846609 0
0.032431353 0.04436427 0.059856825 0.33897066 -0.54846609 0
0.03465708 0.046407495 0.059928488 0.33897066 -0.54846609 0
0.036637213 0.048951577 0.060051315 0.33897066 -0.54846609 0
0.038340274 0.052075971 0.060232941 0.33897066 -0.54846609 0
0.039602809 0.056129992 0.060507961 0.33897066 -0.54846609 0
0.039860897 0.062295984 0.060993858 0.33897066 -0.54846609 0
0.010042137 0.042684574 0.057699222 0.33897066 -0.54846609 0
0.014452355 0.040795397 0.057376076 0.33897066 -0.54846609 0
0.018168451 0.040110756 0.057172574 0.33897066 -0.54846609 0
0.021510499 0.040075827 0.057034083 0.33897066 -0.54846609 0
0.024561906 0.040555414 0.056947071 0.33897066 -0.54846609 0
0.027400164 0.041419614 0.056898646 0.33897066 -0.54846609 0
0.030007752 0.0427146 0.05689298 0.33897066 -0.54846609 0
0.032431353 0.04436427 0.056922477 0.33897066 -0.54846609 0
0.03465708 0.046407495 0.056990623 0.33897066 -0.54846609 0
0.036637213 0.048951577 0.05710743 0.33897066 -0.54846609 0
0.038340274 0.052075971 0.057280157 0.33897066 -0.54846609 0
0.039602809 0.056129992 0.057541694 0.33897066 -0.54846609 0
0.039860897 0.062295984 0.058003768 0.33897066 -0.54846609 0
0.010042137 0.042684574 0.054727048 0.33897066 -0.54846609 0
0.014452355 0.040795397 0.054420546 0.33897066 -0.54846609 0
0.018168451 0.040110756 0.054227527 0.33897066 -0.54846609 0
0.021510499 0.040075827 0.05409617 0.33897066 -0.54846609 0
0.024561906 0.040555414 0.05401364 0.33897066 -0.54846609 0
0.027400164 0.041419614 0.053967707 0.33897066 -0.54846609 0
0.030007752 0.0427146 0.053962335 0.33897066 -0.54846609 0
0.032431353 0.04436427 0.053990312 0.33897066 -0.54846609 0
0.03465708 0.046407495 0.054054949 0.33897066 -0.54846609 0
0.036637213 0.048951577 0.05416574 0.33897066 -0.54846609 0
0.038340274 0.052075971 0.054329567 0.33897066 -0.54846609 0
0.039602809 0.056129992 0.05457763 0.33897066 -0.54846609 0
0.039860897 0.062295984 0.055015903 0.33897066 -0.54846609 0
0.010042137 0.042684574 0.051756967 0.33897066 -0.54846609 0
0.014452355 0.040795397 0.051467102 0.33897066 -0.54846609 0
0.018168451 0.040110756 0.051284555 0.33897066 -0.54846609 0
0.021510499 0.040075827 0.051160328 0.33897066 -0.54846609 0
0.024561906 0.040555414 0.05108228 0.33897066 -0.54846609 0
0.027400164 0.041419614 0.051038839 0.33897066 -0.54846609 0
0.030007752 0.0427146 0.051033758 0.33897066 -0.54846609 0
0.032431353 0.04436427 0.051060215 0.33897066 -0.54846609 0
0.03465708 0.046407495 0.051121347 0.33897066 -0.54846609 0
0.036637213 0.048951577 0.05122612 0.33897066 -0.54846609 0
0.038340274 0.052075971 0.051381059 0.33897066 -0.54846609 0
0.039602809 0.056129992 0.051615663 0.33897066 -0.54846609 0
0.039860897 0.062295984 0.05203015 0.33897066 -0.54846609 0
0.010042137 0.042684574 0.048788872 0.33897066 -0.54846609 0
0.014452355 0.040795397 0.048515625 0.33897066 -0.54846609 0
0.018168451 0.040110756 0.04834355 0.33897066 -0.54846609 0
0.021510499 0.040075827 0.04822645 0.33897066 -0.54846609 0
0.024561906 0.040555414 0.048152875 0.33897066 -0.54846609 0
0.027400164 0.041419614 0.048111927 0.33897066 -0.54846609 0
0.030007752 0.0427146 0.048107136 0.33897066 -0.54846609 0
0.032431353 0.04436427 0.048132077 0.33897066 -0.54846609 0
0.03465708 0.046407495 0.0481897 0.33897066 -0.54846609 0
0.036637213 0.048951577 0.048288468 0.33897066 -0.54846609 0
0.038340274 0.052075971 0.048434518 0.33897066 -0.54846609 0
0.039602809 0.056129992 0.048655666 0.33897066 -0.54846609 0
0.039860897 0.062295984 0.049046386 0.33897066 -0.54846609 0
0.010042137 0.042684574 0.045822643 0.33897066 -0.54846609 0
0.014452355 0.040795397 0.045566011 0.33897066 -0.54846609 0
0.018168451 0.040110756 0.045404397 0.33897066 -0.54846609 0
0.021510499 0.040075827 0.045294411 0.33897066 -0.54846609 0
0.024561906 0.040555414 0.045225311 0.33897066 -0.54846609 0
0.027400164 0.041419614 0.045186851 0.33897066 -0.54846609 0
0.030007752 0.0427146 0.045182355 0.33897066 -0.54846609 0
0.032431353 0.04436427 0.045205779 0.33897066 -0.54846609 0
0.03465708 0.046407495 0.0452599 0.33897066 -0.54846609 0
0.036637213 0.048951577 0.04535266 0.33897066 -0.54846609 0
0.038340274 0.052075971 0.045489833 0.33897066 -0.54846609 0
0.039602809 0.056129992 0.045697536 0.33897066 -0.54846609 0
0.039860897 0.062295984 0.0460645 0.33897066 -0.54846609 0
0.027493861 0 0.039959099 0.33897066 -0.54846609 0
0.030651016 0 0.039860707 0.33897066 -0.54846609 0
0.033792723 0 0.039763551 0.33897066 -0.54846609 0
0.03691921 0 0.039667625 0.33897066 -0.54846609 0
0.039999999 5.6345623e-05 0.039576974 0.33897066 -0.54846609 0
0.039999999 0.0057979948 0.039896742 0.33897066 -0.54846609 0
0.024561906 0.040555414 0.042299479 0.33897066 -0.54846609 0
0.027400164 0.041419614 0.042263508 0.33897066 -0.54846609 0
0.030007752 0.0427146 0.042259302 0.33897066 -0.54846609 0
0.032431353 0.04436427 0.04228121 0.33897066 -0.54846609 0
0.03465708 0.046407495 0.04233183 0.33897066 -0.54846609 0
0.036637213 0.048951577 0.042418592 0.33897066 -0.54846609 0
0.038340274 0.052075971 0.042546891 0.33897066 -0.54846609 0
0.039602809 0.056129992 0.042741153 0.33897066 -0.54846609 0
0.039860897 0.062295984 0.043084379 0.33897066 -0.54846609 0
0.0016513914 0 0.037972409 0.33897066 -0.54846609 0
0.0049409303 0 0.037871141 0.33897066 -0.54846609 0
0.008213033 0 0.037771128 0.33897066 -0.54846609 0
0.01146796 0 0.037672359 0.33897066 -0.54846609 0
0.01470597 0 0.037574816 0.33897066 -0.54846609 0
0.017927317 0 0.037478492 0.33897066 -0.54846609 0
0.021132251 0 0.03738337 0.33897066 -0.54846609 0
0.024321018 0 0.037289433 0.33897066 -0.54846609 0
0.027493861 0 0.037196677 0.33897066 -0.54846609 0
0.030651016 0 0.037105087 0.33897066 -0.54846609 0
0.033792723 0 0.037014648 0.33897066 -0.54846609 0
0.03691921 0 0.036925353 0.33897066 -0.54846609 0
0.039999999 5.6345623e-05 0.036840968 0.33897066 -0.54846609 0
0.039999999 0.0057979948 0.03713863 0.33897066 -0.54846609 0
0.039999999 0.011633293 0.037441861 0.33897066 -0.54846609 0
0.039999999 0.017564777 0.037750807 0.33897066 -0.54846609 0
0.039999999 0.023595078 0.038065627 0.33897066 -0.54846609 0
0.039999999 0.029726921 0.038386479 0.33897066 -0.54846609 0
0.039999999 0.035963129 0.038713526 0.33897066 -0.54846609 0
0.039999999 0.042306639 0.039046947 0.33897066 -0.54846609 0
0.039999999 0.048760489 0.039386913 0.33897066 -0.54846609 0
0.039999999 0.055327833 0.039733618 0.33897066 -0.54846609 0
0.039860897 0.062295984 0.040105902 0.33897066 -0.54846609 0
0.0016513914 0 0.035153829 0.33897066 -0.54846609 0
0.0049409303 0 0.035060078 0.33897066 -0.54846609 0
0.008213033 0 0.03496749 0.33897066 -0.54846609 0
0.01146796 0 0.034876049 0.33897066 -0.54846609 0
0.01470597 0 0.034785748 0.33897066 -0.54846609 0
0.017927317 0 0.034696572 0.33897066 -0.54846609 0
0.021132251 0 0.034608509 0.33897066 -0.54846609 0
0.024321018 0 0.03452155 0.33897066 -0.54846609 0
0.027493861 0 0.034435678 0.33897066 -0.54846609 0
0.030651016 0 0.034350887 0.33897066 -0.54846609 0
0.033792723 0 0.034267161 0.33897066 -0.54846609 0
0.03691921 0 0.034184493 0.33897066 -0.54846609 0
0.039999999 5.6345623e-05 0.03410637 0.33897066 -0.54846609 0
0.039999999 0.0057979948 0.034381941 0.33897066 -0.54846609 0
0.039999999 0.011633293 0.03466266 0.33897066 -0.54846609 0
0.039999999 0.017564777 0.034948677 0.33897066 -0.54846609 0
0.039999999 0.023595078 0.035240129 0.33897066 -0.54846609 0
0.039999999 0.029726921 0.035537161 0.33897066 -0.54846609 0
0.039999999 0.035963129 0.035839934 0.33897066 -0.54846609 0
0.039999999 0.042306639 0.036148604 0.33897066 -0.54846609 0
0.039999999 0.048760489 0.036463339 0.33897066 -0.54846609 0
0.039999999 0.055327833 0.03678431 0.33897066 -0.54846609 0
0.039999999 0.06201195 0.037111692 0.33897066 -0.54846609 0
0.039999999 0.068816245 0.037445672 0.33897066 -0.54846609 0
0.039999999 0.075744256 0.037786447 0.33897066 -0.54846609 0
0.0016513914 0 0.032336589 0.33897066 -0.54846609 0
0.0049409303 0 0.032250352 0.33897066 -0.54846609 0
0.008213033 0 0.032165185 0.33897066 -0.54846609 0
0.01146796 0 0.032081071 0.33897066 -0.54846609 0
0.01470597 0 0.031998008 0.33897066 -0.54846609 0
0.017927317 0 0.031915981 0.33897066 -0.54846609 0
0.021132251 0 0.031834975 0.33897066 -0.54846609 0
0.024321018 0 0.031754982 0.33897066 -0.54846609 0
0.027493861 0 0.031675994 0.33897066 -0.54846609 0
0.030651016 0 0.031597994 0.33897066 -0.54846609 0
0.033792723 0 0.031520981 0.33897066 -0.54846609 0
0.03691921 0 0.031444937 0.33897066 -0.54846609 0
0.039999999 5.6345623e-05 0.031373076 0.33897066 -0.54846609 0
0.039999999 0.0057979948 0.03162656 0.33897066 -0.54846609 0
0.039999999 0.011633293 0.031884786 0.33897066 -0.54846609 0
0.039999999 0.017564777 0.032147881 0.33897066 -0.54846609 0
0.039999999 0.023595078 0.032415975 0.33897066 -0.54846609 0
0.039999999 0.029726921 0.032689203 0.33897066 -0.54846609 0
0.039999999 0.035963129 0.032967713 0.33897066 -0.54846609 0
0.039999999 0.042306639 0.033251647 0.33897066 -0.54846609 0
0.039999999 0.048760489 0.033541158 0.33897066 -0.54846609 0
0.039999999 0.055327833 0.033836402 0.33897066 -0.54846609 0
0.039999999 0.06201195 0.034137551 0.33897066 -0.54846609 0
0.039999999 0.068816245 0.034444764 0.33897066 -0.54846609 0
0.039999999 0.075744256 0.034758229 0.33897066 -0.54846609 0
0.0016513914 0 0.029520586 0.33897066 -0.54846609 0
0.0049409303 0 0.029441858 0.33897066 -0.54846609 0
0.008213033 0 0.029364107 0.33897066 -0.54846609 0
0.01146796 0 0.029287321 0.33897066 -0.54846609 0
0.01470597 0 0.029211489 0.33897066 -0.54846609 0
0.017927317 0 0.029136604 0.33897066 -0.54846609 0
0.021132251 0 0.029062653 0.33897066 -0.54846609 0
0.024321018 0 0.028989628 0.33897066 -0.54846609 0
0.027493861 0 0.028917518 0.33897066 -0.54846609 0
0.030651016 0 0.028846312 0.33897066 -0.54846609 0
0.033792723 0 0.028776003 0.33897066 -0.54846609 0
0.03691921 0 0.028706582 0.33897066 -0.54846609 0
0.039999999 5.6345623e-05 0.02864098 0.33897066 -0.54846609 0
0.039999999 0.0057979948 0.028872389 0.33897066 -0.54846609 0
0.039999999 0.011633293 0.029108128 0.33897066 -0.54846609 0
0.039999999 0.017564777 0.02934831 0.33897066 -0.54846609 0
0.039999999 0.023595078 0.029593056 0.33897066 -0.54846609 0
0.039999999 0.029726921 0.029842492 0.33897066 -0.54846609 0
0.039999999 0.035963129 0.030096747 0.33897066 -0.54846609 0
0.039999999 0.042306639 0.030355955 0.33897066 -0.54846609 0
0.039999999 0.048760489 0.030620255 0.33897066 -0.54846609 0
0.039999999 0.055327833 0.030889791 0.33897066 -0.54846609 0
0.039999999 0.06201195 0.031164711 0.33897066 -0.54846609 0
0.039999999 0.068816245 0.031445175 0.33897066 -0.54846609 0
0.039999999 0.075744256 0.031731341 0.33897066 -0.54846609 0
0.0016513914 0 0.026705708 0.33897066 -0.54846609 0
0.0049409303 0 0.026634488 0.33897066 -0.54846609 0
0.008213033 0 0.026564151 0.33897066 -0.54846609 0
0.01146796 0 0.026494686 0.33897066 -0.54846609 0
0.01470597 0 0.026426086 0.33897066 -0.54846609 0
0.017927317 0 0.026358342 0.33897066 -0.54846609 0
0.021132251 0 0.026291441 0.33897066 -0.54846609 0
0.024321018 0 0.026225379 0.33897066 -0.54846609 0
0.027493861 0 0.026160143 0.33897066 -0.54846609 0
0.030651016 0 0.026095729 0.33897066 -0.54846609 0
0.033792723 0 0.026032124 0.33897066 -0.54846609 0
0.03691921 0 0.025969323 0.33897066 -0.54846609 0
0.039999999 5.6345623e-05 0.025909975 0.33897066 -0.54846609 0
0.039999999 0.0057979948 0.02611932 0.33897066 -0.54846609 0
0.039999999 0.011633293 0.02633258 0.33897066 -0.54846609 0
0.039999999 0.017564777 0.026549859 0.33897066 -0.54846609 0
0.039999999 0.023595078 0.02677127 0.33897066 -0.54846609 0
0.039999999 0.029726921 0.02699692 0.33897066 -0.54846609 0
0.039999999 0.035963129 0.027226932 0.33897066 -0.54846609 0
0.039999999 0.042306639 0.027461423 0.33897066 -0.54846609 0
0.039999999 0.048760489 0.027700521 0.33897066 -0.54846609 0
0.039999999 0.055327833 0.027944354 0.33897066 -0.54846609 0
0.039999999 0.06201195 0.028193062 0.33897066 -0.54846609 0
0.039999999 0.068816245 0.028446781 0.33897066 -0.54846609 0
0.039999999 0.075744256 0.02870566 0.33897066 -0.54846609 0
0.0016513914 0 0.023891851 0.33897066 -0.54846609 0
0.0049409303 0 0.023828134 0.33897066 -0.54846609 0
0.008213033 0 0.023765206 0.33897066 -0.54846609 0
0.01146796 0 0.023703063 0.33897066 -0.54846609 0
0.01470597 0 0.023641691 0.33897066 -0.54846609 0
0.017927317 0 0.023581082 0.33897066 -0.54846609 0
0.021132251 0 0.023521231 0.33897066 -0.54846609 0
0.024321018 0 0.02346213 0.33897066 -0.54846609 0
0.027493861 0 0.023403769 0.33897066 -0.54846609 0
0.030651016 0 0.023346141 0.33897066 -0.54846609 0
0.033792723 0 0.023289237 0.33897066 -0.54846609 0
0.03691921 0 0.023233052 0.33897066 -0.54846609 0
0.039999999 5.6345623e-05 0.02317996 0.33897066 -0.54846609 0
0.039999999 0.0057979948 0.023367247 0.33897066 -0.54846609 0
0.039999999 0.011633293 0.023558035 0.33897066 -0.54846609 0
0.039999999 0.017564777 0.023752421 0.33897066 -0.54846609 0
0.039999999 0.023595078 0.023950502 0.33897066 -0.54846609 0
0.039999999 0.029726921 0.024152379 0.33897066 -0.54846609 0
0.039999999 0.035963129 0.024358155 0.33897066 -0.54846609 0
0.039999999 0.042306639 0.024567937 0.33897066 -0.54846609 0
0.039999999 0.048760489 0.024781844 0.33897066 -0.54846609 0
0.039999999 0.055327833 0.024999985 0.33897066 -0.54846609 0
0.039999999 0.06201195 0.025222488 0.33897066 -0.54846609 0
0.039999999 0.068816245 0.025449473 0.33897066 -0.54846609 0
0.039999999 0.075744256 0.025681077 0.33897066 -0.54846609 0
0.0016513914 0 0.021078903 0.33897066 -0.54846609 0
0.0049409303 0 0.021022689 0.33897066 -0.54846609 0
0.008213033 0 0.020967171 0.33897066 -0.54846609 0
0.01146796 0 0.020912342 0.33897066 -0.54846609 0
0.01470597 0 0.020858195 0.33897066 -0.54846609 0
0.017927317 0 0.020804724 0.33897066 -0.54846609 0
0.021132251 0 0.02075192 0.33897066 -0.54846609 0
0.024321018 0 0.020699777 0.33897066 -0.54846609 0
0.027493861 0 0.020648286 0.33897066 -0.54846609 0
0.030651016 0 0.020597443 0.33897066 -0.54846609 0
0.033792723 0 0.020547241 0.33897066 -0.54846609 0
0.03691921 0 0.02049767 0.33897066 -0.54846609 0
0.039999999 5.6345623e-05 0.020450829 0.33897066 -0.54846609 0
0.039999999 0.0057979948 0.020616064 0.33897066 -0.54846609 0
0.039999999 0.011633293 0.020784389 0.33897066 -0.54846609 0
0.039999999 0.017564777 0.02095589 0.33897066 -0.54846609 0
0.039999999 0.023595078 0.021130649 0.33897066 -0.54846609 0
0.039999999 0.029726921 0.021308757 0.33897066 -0.54846609 0
0.039999999 0.035963129 0.021490306 0.33897066 -0.54846609 0
0.039999999 0.042306639 0.021675391 0.33897066 -0.54846609 0
0.039999999 0.048760489 0.021864111 0.33897066 -0.54846609 0
0.039999999 0.055327833 0.02205657 0.33897066 -0.54846609 0
0.039999999 0.06201195 0.022252874 0.33897066 -0.54846609 0
0.039999999 0.068816245 0.022453137 0.33897066 -0.54846609 0
0.039999999 0.075744256 0.022657471 0.33897066 -0.54846609 0
0.0016513914 0 0.018266758 0.33897066 -0.54846609 0
0.0049409303 0 0.018218044 0.33897066 -0.54846609 0
0.008213033 0 0.018169932 0.33897066 -0.54846609 0
0.01146796 0 0.018122418 0.33897066 -0.54846609 0
0.01470597 0 0.018075496 0.33897066 -0.54846609 0
0.017927317 0 0.018029159 0.33897066 -0.54846609 0
0.021132251 0 0.017983399 0.33897066 -0.54846609 0
0.024321018 0 0.017938212 0.33897066 -0.54846609 0
0.027493861 0 0.017893592 0.33897066 -0.54846609 0
0.030651016 0 0.017849531 0.33897066 -0.54846609 0
0.033792723 0 0.017806025 0.33897066 -0.54846609 0
0.03691921 0 0.017763069 0.33897066 -0.54846609 0
0.039999999 5.6345623e-05 0.017722476 0.33897066 -0.54846609 0
0.039999999 0.0057979948 0.017865667 0.33897066 -0.54846609 0
0.039999999 0.011633293 0.018011536 0.33897066 -0.54846609 0
0.039999999 0.017564777 0.018160157 0.33897066 -0.54846609 0
0.039999999 0.023595078 0.018311601 0.33897066 -0.54846609 0
0.039999999 0.029726921 0.018465947 0.33897066 -0.54846609 0
0.039999999 0.035963129 0.018623276 0.33897066 -0.54846609 0
0.039999999 0.042306639 0.018783668 0.33897066 -0.54846609 0
0.039999999 0.048760489 0.018947212 0.33897066 -0.54846609 0
0.039999999 0.055327833 0.019113995 0.33897066 -0.54846609 0
0.039999999 0.06201195 0.019284111 0.33897066 -0.54846609 0
0.039999999 0.068816245 0.019457655 0.33897066 -0.54846609 0
0.039999999 0.075744256 0.019634729 0.33897066 -0.54846609 0
0.0016513914 0 0.015455311 0.33897066 -0.54846609 0
0.0049409303 0 0.015414094 0.33897066 -0.54846609 0
0.008213033 0 0.015373387 0.33897066 -0.54846609 0
0.01146796 0 0.015333186 0.33897066 -0.54846609 0
0.01470597 0 0.015293485 0.33897066 -0.54846609 0
0.017927317 0 0.01525428 0.33897066 -0.54846609 0
0.021132251 0 0.015215563 0.33897066 -0.54846609 0
0.024321018 0 0.015177331 0.33897066 -0.54846609 0
0.027493861 0 0.015139578 0.33897066 -0.54846609 0
0.030651016 0 0.015102299 0.33897066 -0.54846609 0
0.033792723 0 0.015065489 0.33897066 -0.54846609 0
0.03691921 0 0.015029144 0.33897066 -0.54846609 0
0.039999999 5.6345623e-05 0.014994798 0.33897066 -0.54846609 0
0.039999999 0.0057979948 0.015115951 0.33897066 -0.54846609 0
0.039999999 0.011633293 0.01523937 0.33897066 -0.54846609 0
0.039999999 0.017564777 0.015365116 0.33897066 -0.54846609 0
0.039999999 0.023595078 0.015493252 0.33897066 -0.54846609 0
0.039999999 0.029726921 0.015623842 0.33897066 -0.54846609 0
0.039999999 0.035963129 0.015756957 0.33897066 -0.54846609 0
0.039999999 0.042306639 0.015892662 0.33897066 -0.54846609 0
0.039999999 0.048760489 0.016031034 0.33897066 -0.54846609 0
0.039999999 0.055327833 0.016172148 0.33897066 -0.54846609 0
0.039999999 0.06201195 0.016316082 0.33897066 -0.54846609 0
0.039999999 0.068816245 0.016462917 0.33897066 -0.54846609 0
0.039999999 0.075744256 0.016612737 0.33897066 -0.54846609 0
0.0016513914 0 0.012644452 0.33897066 -0.54846609 0
0.0049409303 0 0.012610731 0.33897066 -0.54846609 0
0.008213033 0 0.012577428 0.33897066 -0.54846609 0
0.01146796 0 0.012544538 0.33897066 -0.54846609 0
0.01470597 0 0.012512057 0.33897066 -0.54846609 0
0.017927317 0 0.012479982 0.33897066 -0.54846609 0
0.021132251 0 0.012448307 0.33897066 -0.54846609 0
0.024321018 0 0.012417028 0.33897066 -0.54846609 0
0.027493861 0 0.012386141 0.33897066 -0.54846609 0
0.030651016 0 0.012355641 0.33897066 -0.54846609 0
0.033792723 0 0.012325527 0.33897066 -0.54846609 0
0.03691921 0 0.012295792 0.33897066 -0.54846609 0
0.039999999 5.6345623e-05 0.012267693 0.33897066 -0.54846609 0
0.039999999 0.0057979948 0.012366812 0.33897066 -0.54846609 0
0.039999999 0.011633293 0.012467784 0.33897066 -0.54846609 0
0.039999999 0.017564777 0.012570661 0.33897066 -0.54846609 0
0.039999999 0.023595078 0.012675492 0.33897066 -0.54846609 0
0.039999999 0.029726921 0.012782332 0.33897066 -0.54846609 0
0.039999999 0.035963129 0.012891237 0.33897066 -0.54846609 0
0.039999999 0.042306639 0.013002262 0.33897066 -0.54846609 0
0.039999999 0.048760489 0.013115468 0.33897066 -0.54846609 0
0.039999999 0.055327833 0.013230918 0.33897066 -0.54846609 0
0.039999999 0.06201195 0.013348673 0.33897066 -0.54846609 0
0.039999999 0.068816245 0.013468804 0.33897066 -0.54846609 0
0.039999999 0.075744256 0.013591376 0.33897066 -0.54846609 0
0.0016513914 0 0.0098340744 0.33897066 -0.54846609 0
0.0049409303 0 0.0098078474 0.33897066 -0.54846609 0
0.008213033 0 0.0097819464 0.33897066 -0.54846609 0
0.01146796 0 0.0097563677 0.33897066 -0.54846609 0
0.01470597 0 0.0097311065 0.33897066 -0.54846609 0
0.017927317 0 0.0097061601 0.33897066 -0.54846609 0
0.021132251 0 0.0096815247 0.33897066 -0.54846609 0
0.024321018 0 0.0096571976 0.33897066 -0.54846609 0
0.027493861 0 0.009633176 0.33897066 -0.54846609 0
0.030651016 0 0.0096094562 0.33897066 -0.54846609 0
0.033792723 0 0.0095860343 0.33897066 -0.54846609 0
0.03691921 0 0.0095629077 0.33897066 -0.54846609 0
0.039999999 5.6345623e-05 0.0095410543 0.33897066 -0.54846609 0
0.039999999 0.0057979948 0.0096181426 0.33897066 -0.54846609 0
0.039999999 0.011633293 0.0096966736 0.33897066 -0.54846609 0
0.039999999 0.017564777 0.0097766845 0.33897066 -0.54846609 0
0.039999999 0.023595078 0.0098582162 0.33897066 -0.54846609 0
0.039999999 0.029726921 0.0099413097 0.33897066 -0.54846609 0
0.039999999 0.035963129 0.010026009 0.33897066 -0.54846609 0
0.039999999 0.042306639 0.010112357 0.33897066 -0.54846609 0
0.039999999 0.048760489 0.010200402 0.33897066 -0.54846609 0
0.039999999 0.055327833 0.010290192 0.33897066 -0.54846609 0
0.039999999 0.06201195 0.010381775 0.33897066 -0.54846609 0
0.039999999 0.068816245 0.010475204 0.33897066 -0.54846609 0
0.039999999 0.075744256 0.010570534 0.33897066 -0.54846609 0
0.0016513914 0 0.0070240712 0.33897066 -0.54846609 0
0.0049409303 0 0.007005339 0.33897066 -0.54846609 0
0.008213033 0 0.0069868388 0.33897066 -0.54846609 0
0.01146796 0 0.0069685685 0.33897066 -0.54846609 0
0.01470597 0 0.0069505256 0.33897066 -0.54846609 0
0.017927317 0 0.006932707 0.33897066 -0.54846609 0
0.021132251 0 0.0069151116 0.33897066 -0.54846609 0
0.024321018 0 0.0068977359 0.33897066 -0.54846609 0
0.027493861 0 0.0068805781 0.33897066 -0.54846609 0
0.030651016 0 0.0068636355 0.33897066 -0.54846609 0
0.033792723 0 0.0068469066 0.33897066 -0.54846609 0
0.03691921 0 0.0068303882 0.33897066 -0.54846609 0
0.039999999 5.6345623e-05 0.0068147792 0.33897066 -0.54846609 0
0.039999999 0.0057979948 0.0068698404 0.33897066 -0.54846609 0
0.039999999 0.011633293 0.0069259312 0.33897066 -0.54846609 0
0.039999999 0.017564777 0.0069830799 0.33897066 -0.54846609 0
0.039999999 0.023595078 0.0070413146 0.33897066 -0.54846609 0
0.039999999 0.029726921 0.007100665 0.33897066 -0.54846609 0
0.039999999 0.035963129 0.0071611619 0.33897066 -0.54846609 0
0.039999999 0.042306639 0.0072228373 0.33897066 -0.54846609 0
0.039999999 0.048760489 0.0072857239 0.33897066 -0.54846609 0
0.039999999 0.055327833 0.0073498567 0.33897066 -0.54846609 0
0.039999999 0.06201195 0.0074152709 0.33897066 -0.54846609 0
0.039999999 0.068816245 0.0074820039 0.33897066 -0.54846609 0
0.039999999 0.075744256 0.0075500938 0.33897066 -0.54846609 0
0.0016513914 0 0.0042143357 0.33897066 -0.54846609 0
0.0049409303 0 0.0042030965 0.33897066 -0.54846609 0
0.008213033 0 0.004191997 0.33897066 -0.54846609 0
0.01146796 0 0.0041810349 0.33897066 -0.54846609 0
0.01470597 0 0.0041702092 0.33897066 -0.54846609 0
0.017927317 0 0.004159519 0.33897066 -0.54846609 0
0.021132251 0 0.0041489615 0.33897066 -0.54846609 0
0.024321018 0 0.0041385363 0.33897066 -0.54846609 0
0.027493861 0 0.0041282419 0.33897066 -0.54846609 0
0.030651016 0 0.004118077 0.33897066 -0.54846609 0
0.033792723 0 0.0041080397 0.33897066 -0.54846609 0
0.03691921 0 0.004098129 0.33897066 -0.54846609 0
0.039999999 5.6345623e-05 0.0040887636 0.33897066 -0.54846609 0
0.039999999 0.0057979948 0.0041217995 0.33897066 -0.54846609 0
0.039999999 0.011633293 0.0041554533 0.33897066 -0.54846609 0
0.039999999 0.017564777 0.0041897418 0.33897066 -0.54846609 0
0.039999999 0.023595078 0.0042246813 0.33897066 -0.54846609 0
0.039999999 0.029726921 0.0042602909 0.33897066 -0.54846609 0
0.039999999 0.035963129 0.0042965882 0.33897066 -0.54846609 0
0.039999999 0.042306639 0.0043335925 0.33897066 -0.54846609 0
0.039999999 0.048760489 0.0043713236 0.33897066 -0.54846609 0
0.039999999 0.055327833 0.0044098021 0.33897066 -0.54846609 0
0.039999999 0.06201195 0.0044490495 0.33897066 -0.54846609 0
0.039999999 0.068816245 0.0044890884 0.33897066 -0.54846609 0
0.039999999 0.075744256 0.0045299414 0.33897066 -0.54846609 0
0.0016513914 0 0.0014047608 0.33897066 -0.54846609 0
0.0049409303 0 0.0014010144 0.33897066 -0.54846609 0
0.008213033 0 0.0013973145 0.33897066 -0.54846609 0
0.01146796 0 0.0013936607 0.33897066 -0.54846609 0
0.01470597 0 0.0013900521 0.33897066 -0.54846609 0
0.017927317 0 0.0013864887 0.33897066 -0.54846609 0
0.021132251 0 0.0013829697 0.33897066 -0.54846609 0
0.024321018 0 0.0013794947 0.33897066 -0.54846609 0
0.027493861 0 0.0013760632 0.33897066 -0.54846609 0
0.030651016 0 0.0013726748 0.33897066 -0.54846609 0
0.033792723 0 0.0013693292 0.33897066 -0.54846609 0
0.03691921 0 0.0013660257 0.33897066 -0.54846609 0
0.039999999 5.6345623e-05 0.001362904 0.33897066 -0.54846609 0
0.039999999 0.0057979948 0.0013739158 0.33897066 -0.54846609 0
0.039999999 0.011633293 0.0013851335 0.33897066 -0.54846609 0
0.039999999 0.017564777 0.0013965628 0.33897066 -0.54846609 0
0.039999999 0.023595078 0.0014082093 0.33897066 -0.54846609 0
0.039999999 0.029726921 0.0014200789 0.33897066 -0.54846609 0
0.039999999 0.035963129 0.0014321778 0.33897066 -0.54846609 0
0.039999999 0.042306639 0.0014445124 0.33897066 -0.54846609 0
0.039999999 0.048760489 0.0014570893 0.33897066 -0.54846609 0
0.039999999 0.055327833 0.0014699154 0.33897066 -0.54846609 0
0.039999999 0.06201195 0.0014829978 0.33897066 -0.54846609 0
0.039999999 0.068816245 0.0014963438 0.33897066 -0.54846609 0
0.039999999 0.075744256 0.0015099612 0.33897066 -0.54846609 0
