# .PCD v0.7 - Point Cloud Data file format
VERSION 0.7
FIELDS x y z vp_x vp_y vp_z
SIZE 4 4 4 4 4 4
TYPE F F F F F F
COUNT 1 1 1 1 1 1
WIDTH 415
HEIGHT 1
VIEWPOINT 0 0 0 1 0 0 0
POINTS 415
DATA ascii
0.0014743267 0 0.036466178 0 -0.33897066 -0.54846609
0.0044230404 0 0.036466904 0 -0.33897066 -0.54846609
0.0073719346 0 0.036468361 0 -0.33897066 -0.54846609
0.01032113 0 0.036470544 0 -0.33897066 -0.54846609
0.013270746 0 0.036473457 0 -0.33897066 -0.54846609
0.016220905 0 0.036477096 0 -0.33897066 -0.54846609
0.019171726 0 0.036481462 0 -0.33897066 -0.54846609
0.022123331 0 0.036486562 0 -0.33897066 -0.54846609
0.02507584 0 0.036492389 0 -0.33897066 -0.54846609
0.028029375 0 0.036498945 0 -0.33897066 -0.54846609
0.030984055 0 0.036506236 0 -0.33897066 -0.54846609
0.033940002 0 0.036514256 0 -0.33897066 -0.54846609
0.036897339 0 0.036523011 0 -0.33897066 -0.54846609
0.039856188 0 0.036532495 0 -0.33897066 -0.54846609
0.00146349 0 0.030626861 0 -0.33897066 -0.54846609
0.0043905289 0 0.030627467 0 -0.33897066 -0.54846609
0.0073177451 0 0.030628681 0 -0.33897066 -0.54846609
0.010245257 0 0.030630501 0 -0.33897066 -0.54846609
0.013173182 0 0.030632928 0 -0.33897066 -0.54846609
0.01610164 0 0.030635962 0 -0.33897066 -0.54846609
0.01903075 0 0.030639606 0 -0.33897066 -0.54846609
0.021960627 0 0.030643854 0 -0.33897066 -0.54846609
0.024891393 0 0.030648714 0 -0.33897066 -0.54846609
0.027823165 0 0.030654181 0 -0.33897066 -0.54846609
0.030756064 0 0.030660257 0 -0.33897066 -0.54846609
0.033690207 0 0.030666944 0 -0.33897066 -0.54846609
0.036625713 0 0.030674241 0 -0.33897066 -0.54846609
0.039562702 0 0.03068215 0 -0.33897066 -0.54846609
0.0014528135 0 0.024873955 0 -0.33897066 -0.54846609
0.0043584984 0 0.024874445 0 -0.33897066 -0.54846609
0.0072643575 0 0.024875423 0 -0.33897066 -0.54846609
0.010170507 0 0.024876891 0 -0.33897066 -0.54846609
0.013077063 0 0.024878848 0 -0.33897066 -0.54846609
0.01598414 0 0.024881294 0 -0.33897066 -0.54846609
0.018891858 0 0.024884231 0 -0.33897066 -0.54846609
0.021800332 0 0.024887657 0 -0.33897066 -0.54846609
0.024709675 0 0.024891574 0 -0.33897066 -0.54846609
0.02762001 0 0.024895983 0 -0.33897066 -0.54846609
0.030531449 0 0.024900882 0 -0.33897066 -0.54846609
0.03344411 0 0.024906272 0 -0.33897066 -0.54846609
0.036358111 0 0.024912156 0 -0.33897066 -0.54846609
0.039273567 0 0.024918532 0 -0.33897066 -0.54846609
0.0014422934 0 0.019205345 0 -0.33897066 -0.54846609
0.0043269373 0 0.019205719 0 -0.33897066 -0.54846609
0.0072117522 0 0.01920647 0 -0.33897066 -0.54846609
0.010096853 0 0.019207595 0 -0.33897066 -0.54846609
0.012982352 0 0.019209094 0 -0.33897066 -0.54846609
0.015868364 0 0.01921097 0 -0.33897066 -0.54846609
0.018755004 0 0.01921322 0 -0.33897066 -0.54846609
0.021642387 0 0.019215848 0 -0.33897066 -0.54846609
0.024530625 0 0.019218849 0 -0.33897066 -0.54846609
0.027419833 0 0.019222228 0 -0.33897066 -0.54846609
0.03031013 0 0.019225983 0 -0.33897066 -0.54846609
0.033201624 0 0.019230116 0 -0.33897066 -0.54846609
0.036094435 0 0.019234626 0 -0.33897066 -0.54846609
0.03898868 0 0.019239513 0 -0.33897066 -0.54846609
0.001431926 0 0.013618978 0 -0.33897066 -0.54846609
0.0042958343 0 0.013619241 0 -0.33897066 -0.54846609
0.0071599102 0 0.013619769 0 -0.33897066 -0.54846609
0.010024266 0 0.013620562 0 -0.33897066 -0.54846609
0.012889015 0 0.013621618 0 -0.33897066 -0.54846609
0.015754268 0 0.013622938 0 -0.33897066 -0.54846609
0.018620135 0 0.013624523 0 -0.33897066 -0.54846609
0.021486733 0 0.013626372 0 -0.33897066 -0.54846609
0.024354173 0 0.013628486 0 -0.33897066 -0.54846609
0.027222564 0 0.013630864 0 -0.33897066 -0.54846609
0.030092023 0 0.013633507 0 -0.33897066 -0.54846609
0.032962661 0 0.013636417 0 -0.33897066 -0.54846609
0.035834592 0 0.013639592 0 -0.33897066 -0.54846609
0.038707927 0 0.013643032 0 -0.33897066 -0.54846609
0.0014217077 0 0.0081128683 0 -0.33897066 -0.54846609
0.004265178 0 0.0081130248 0 -0.33897066 -0.54846609
0.0071088132 0 0.0081133367 0 -0.33897066 -0.54846609
0.009952724 0 0.0081138052 0 -0.33897066 -0.54846609
0.012797019 0 0.0081144301 0 -0.33897066 -0.54846609
0.01564181 0 0.0081152106 0 -0.33897066 -0.54846609
0.018487206 0 0.0081161475 0 -0.33897066 -0.54846609
0.021333318 0 0.0081172418 0 -0.33897066 -0.54846609
0.024180258 0 0.0081184916 0 -0.33897066 -0.54846609
0.027028132 0 0.0081198988 0 -0.33897066 -0.54846609
0.029877055 0 0.0081214625 0 -0.33897066 -0.54846609
0.032727137 0 0.0081231827 0 -0.33897066 -0.54846609
0.035578486 0 0.0081250602 0 -0.33897066 -0.54846609
0.03843122 0 0.0081270952 0 -0.33897066 -0.54846609
0.0014116346 0 0.002685095 0 -0.33897066 -0.54846609
0.004234958 0 0.0026851464 0 -0.33897066 -0.54846609
0.007058443 0 0.0026852489 0 -0.33897066 -0.54846609
0.0098821986 0 0.002685403 0 -0.33897066 -0.54846609
0.012706333 0 0.0026856081 0 -0.33897066 -0.54846609
0.015530953 0 0.0026858647 0 -0.33897066 -0.54846609
0.018356169 0 0.0026861727 0 -0.33897066 -0.54846609
0.021182088 0 0.0026865322 0 -0.33897066 -0.54846609
0.024008818 0 0.0026869429 0 -0.33897066 -0.54846609
0.026836468 0 0.0026874053 0 -0.33897066 -0.54846609
0.029665148 0 0.0026879192 0 -0.33897066 -0.54846609
0.032494966 0 0.0026884845 0 -0.33897066 -0.54846609
0.03532603 0 0.0026891015 0 -0.33897066 -0.54846609
0.03815845 0 0.0026897702 0 -0.33897066 -0.54846609
0.0014085508 0.0016558546 0 0 -0.33897066 -0.54846609
0.0042257058 0.0016558862 0 0 -0.33897066 -0.54846609
0.0070430222 0.0016559493 0 0 -0.33897066 -0.54846609
0.0098606078 0.001656044 0 0 -0.33897066 -0.54846609
0.012678569 0.0016561704 0 0 -0.33897066 -0.54846609
0.015497014 0.0016563282 0 0 -0.33897066 -0.54846609
0.018316051 0.0016565177 0 0 -0.33897066 -0.54846609
0.021135788 0.0016567389 0 0 -0.33897066 -0.54846609
0.023956332 0.0016569917 0 0 -0.33897066 -0.54846609
0.026777791 0.0016572762 0 0 -0.33897066 -0.54846609
0.029600274 0.0016575924 0 0 -0.33897066 -0.54846609
0.032423887 0.0016579402 0 0 -0.33897066 -0.54846609
0.035248742 0.00165832 0 0 -0.33897066 -0.54846609
0.038074944 0.0016587314 0 0 -0.33897066 -0.54846609
0.0014123647 0.0049810777 0 0 -0.33897066 -0.54846609
0.004237148 0.0049811727 0 0 -0.33897066 -0.54846609
0.0070620938 0.0049813632 0 0 -0.33897066 -0.54846609
0.0098873097 0.0049816491 0 0 -0.33897066 -0.54846609
0.012712905 0.00498203 0 0 -0.33897066 -0.54846609
0.015538988 0.0049825064 0 0 -0.33897066 -0.54846609
0.018365666 0.0049830778 0 0 -0.33897066 -0.54846609
0.021193048 0.004983745 0 0 -0.33897066 -0.54846609
0.024021244 0.0049845073 0 0 -0.33897066 -0.54846609
0.02685036 0.0049853656 0 0 -0.33897066 -0.54846609
0.029680505 0.0049863192 0 0 -0.33897066 -0.54846609
0.032511793 0.0049873688 0 0 -0.33897066 -0.54846609
0.035344329 0.0049885139 0 0 -0.33897066 -0.54846609
0.03817822 0.0049897549 0 0 -0.33897066 -0.54846609
0.0014161995 0.0083245486 0 0 -0.33897066 -0.54846609
0.0042486531 0.0083247079 0 0 -0.33897066 -0.54846609
0.0070812698 0.0083250273 0 0 -0.33897066 -0.54846609
0.0099141588 0.008325506 0 0 -0.33897066 -0.54846609
0.01274743 0.008326144 0 0 -0.33897066 -0.54846609
0.015581192 0.0083269421 0 0 -0.33897066 -0.54846609
0.018415552 0.0083279004 0 0 -0.33897066 -0.54846609
0.021250622 0.008329018 0 0 -0.33897066 -0.54846609
0.024086511 0.0083302958 0 0 -0.33897066 -0.54846609
0.026923327 0.0083317338 0 0 -0.33897066 -0.54846609
0.02976118 0.0083333319 0 0 -0.33897066 -0.54846609
0.032600179 0.0083350912 0 0 -0.33897066 -0.54846609
0.035440437 0.0083370097 0 0 -0.33897066 -0.54846609
0.038282063 0.0083390903 0 0 -0.33897066 -0.54846609
0.0014200556 0.011686546 0 0 -0.33897066 -0.54846609
0.0042602215 0.01168677 0 0 -0.33897066 -0.54846609
0.0071005523 0.01168722 0 0 -0.33897066 -0.54846609
0.009941157 0.011687894 0 0 -0.33897066 -0.54846609
0.012782146 0.011688792 0 0 -0.33897066 -0.54846609
0.015623629 0.011689916 0 0 -0.33897066 -0.54846609
0.018465715 0.011691265 0 0 -0.33897066 -0.54846609
0.021308515 0.011692838 0 0 -0.33897066 -0.54846609
0.024152139 0.011694637 0 0 -0.33897066 -0.54846609
0.026996698 0.011696661 0 0 -0.33897066 -0.54846609
0.0298423 0.011698911 0 0 -0.33897066 -0.54846609
0.032689057 0.011701386 0 0 -0.33897066 -0.54846609
0.035537083 0.011704088 0 0 -0.33897066 -0.54846609
0.038386483 0.011707016 0 0 -0.33897066 -0.54846609
0.0014239333 0.015067354 0 0 -0.33897066 -0.54846609
0.0042718551 0.015067644 0 0 -0.33897066 -0.54846609
0.0071199425 0.015068226 0 0 -0.33897066 -0.54846609
0.0099683059 0.015069096 0 0 -0.33897066 -0.54846609
0.012817057 0.015070259 0 0 -0.33897066 -0.54846609
0.015666304 0.015071711 0 0 -0.33897066 -0.54846609
0.018516159 0.015073454 0 0 -0.33897066 -0.54846609
0.021366734 0.015075488 0 0 -0.33897066 -0.54846609
0.024218136 0.015077814 0 0 -0.33897066 -0.54846609
0.027070481 0.015080431 0 0 -0.33897066 -0.54846609
0.029923877 0.015083339 0 0 -0.33897066 -0.54846609
0.032778434 0.01508654 0 0 -0.33897066 -0.54846609
0.035634268 0.015090032 0 0 -0.33897066 -0.54846609
0.038491488 0.015093817 0 0 -0.33897066 -0.54846609
0.0014278329 0.018467261 0 0 -0.33897066 -0.54846609
0.0042835544 0.018467616 0 0 -0.33897066 -0.54846609
0.0071394425 0.018468332 0 0 -0.33897066 -0.54846609
0.0099956086 0.018469403 0 0 -0.33897066 -0.54846609
0.012852164 0.018470829 0 0 -0.33897066 -0.54846609
0.01570922 0.018472616 0 0 -0.33897066 -0.54846609
0.018566888 0.018474758 0 0 -0.33897066 -0.54846609
0.021425281 0.018477257 0 0 -0.33897066 -0.54846609
0.024284506 0.018480115 0 0 -0.33897066 -0.54846609
0.02714468 0.018483331 0 0 -0.33897066 -0.54846609
0.030005913 0.018486906 0 0 -0.33897066 -0.54846609
0.032868318 0.01849084 0 0 -0.33897066 -0.54846609
0.035732005 0.018495133 0 0 -0.33897066 -0.54846609
0.038597085 0.018499784 0 0 -0.33897066 -0.54846609
0.0014317547 0.021886557 0 0 -0.33897066 -0.54846609
0.0042953203 0.021886982 0 0 -0.33897066 -0.54846609
0.0071590533 0.02188783 0 0 -0.33897066 -0.54846609
0.010023067 0.021889102 0 0 -0.33897066 -0.54846609
0.012887472 0.0218908 0 0 -0.33897066 -0.54846609
0.015752381 0.02189292 0 0 -0.33897066 -0.54846609
0.018617908 0.021895466 0 0 -0.33897066 -0.54846609
0.021484161 0.021898439 0 0 -0.33897066 -0.54846609
0.024351256 0.021901835 0 0 -0.33897066 -0.54846609
0.027219305 0.021905657 0 0 -0.33897066 -0.54846609
0.030088419 0.021909906 0 0 -0.33897066 -0.54846609
0.032958712 0.021914579 0 0 -0.33897066 -0.54846609
0.035830297 0.021919681 0 0 -0.33897066 -0.54846609
0.038703289 0.021925211 0 0 -0.33897066 -0.54846609
0.0014356992 0.025325544 0 0 -0.33897066 -0.54846609
0.0043071536 0.025326036 0 0 -0.33897066 -0.54846609
0.0071787774 0.025327021 0 0 -0.33897066 -0.54846609
0.010050683 0.025328496 0 0 -0.33897066 -0.54846609
0.012922984 0.025330465 0 0 -0.33897066 -0.54846609
0.015795792 0.025332928 0 0 -0.33897066 -0.54846609
0.01866922 0.025335882 0 0 -0.33897066 -0.54846609
0.02154338 0.02533933 0 0 -0.33897066 -0.54846609
0.024418389 0.025343271 0 0 -0.33897066 -0.54846609
0.027294358 0.025347706 0 0 -0.33897066 -0.54846609
0.0301714 0.025352634 0 0 -0.33897066 -0.54846609
0.033049628 0.025358059 0 0 -0.33897066 -0.54846609
0.035929158 0.025363978 0 0 -0.33897066 -0.54846609
0.0388101 0.025370393 0 0 -0.33897066 -0.54846609
0.0014396665 0.028784523 0 0 -0.33897066 -0.54846609
0.0043190559 0.028785083 0 0 -0.33897066 -0.54846609
0.0071986159 0.028786205 0 0 -0.33897066 -0.54846609
0.01007846 0.028787887 0 0 -0.33897066 -0.54846609
0.012958701 0.028790131 0 0 -0.33897066 -0.54846609
0.015839454 0.028792936 0 0 -0.33897066 -0.54846609
0.01872083 0.028796304 0 0 -0.33897066 -0.54846609
0.021602945 0.028800234 0 0 -0.33897066 -0.54846609
0.024485912 0.028804725 0 0 -0.33897066 -0.54846609
0.027369848 0.02880978 0 0 -0.33897066 -0.54846609
0.030254863 0.028815398 0 0 -0.33897066 -0.54846609
0.033141073 0.02882158 0 0 -0.33897066 -0.54846609
0.036028594 0.028828327 0 0 -0.33897066 -0.54846609
0.038917538 0.028835637 0 0 -0.33897066 -0.54846609
0.0014436571 0.032263801 0 0 -0.33897066 -0.54846609
0.0043310286 0.03226443 0 0 -0.33897066 -0.54846609
0.0072185709 0.032265689 0 0 -0.33897066 -0.54846609
0.0101064 0.032267582 0 0 -0.33897066 -0.54846609
0.012994628 0.032270104 0 0 -0.33897066 -0.54846609
0.015883371 0.032273259 0 0 -0.33897066 -0.54846609
0.018772744 0.032277044 0 0 -0.33897066 -0.54846609
0.021662859 0.032281458 0 0 -0.33897066 -0.54846609
0.024553834 0.032286506 0 0 -0.33897066 -0.54846609
0.02744578 0.032292187 0 0 -0.33897066 -0.54846609
0.030338816 0.032298502 0 0 -0.33897066 -0.54846609
0.033233054 0.032305453 0 0 -0.33897066 -0.54846609
0.036128614 0.032313034 0 0 -0.33897066 -0.54846609
0.039025605 0.032321252 0 0 -0.33897066 -0.54846609
0.0014476713 0.035763688 0 0 -0.33897066 -0.54846609
0.0043430715 0.035764389 0 0 -0.33897066 -0.54846609
0.0072386446 0.035765789 0 0 -0.33897066 -0.54846609
0.010134505 0.035767894 0 0 -0.33897066 -0.54846609
0.013030768 0.035770696 0 0 -0.33897066 -0.54846609
0.015927549 0.035774201 0 0 -0.33897066 -0.54846609
0.018824965 0.035778411 0 0 -0.33897066 -0.54846609
0.021723129 0.035783317 0 0 -0.33897066 -0.54846609
0.024622157 0.035788931 0 0 -0.33897066 -0.54846609
0.027522165 0.035795245 0 0 -0.33897066 -0.54846609
0.030423269 0.035802264 0 0 -0.33897066 -0.54846609
0.033325583 0.035809986 0 0 -0.33897066 -0.54846609
0.036229227 0.035818417 0 0 -0.33897066 -0.54846609
0.039134316 0.035827551 0 0 -0.33897066 -0.54846609
0.0014517097 0.039284509 0 0 -0.33897066 -0.54846609
0.0043551866 0.03928528 0 0 -0.33897066 -0.54846609
0.0072588376 0.039286826 0 0 -0.33897066 -0.54846609
0.010162778 0.039289139 0 0 -0.33897066 -0.54846609
0.013067124 0.039292227 0 0 -0.33897066 -0.54846609
0.015971992 0.039296091 0 0 -0.33897066 -0.54846609
0.018877499 0.039300725 0 0 -0.33897066 -0.54846609
0.021783758 0.03930613 0 0 -0.33897066 -0.54846609
0.024690889 0.039312314 0 0 -0.33897066 -0.54846609
0.027599005 0.039319269 0 0 -0.33897066 -0.54846609
0.030508226 0.039326999 0 0 -0.33897066 -0.54846609
0.033418667 0.039335508 0 0 -0.33897066 -0.54846609
0.036330443 0.039344791 0 0 -0.33897066 -0.54846609
0.039243676 0.039354853 0 0 -0.33897066 -0.54846609
0.0014557723 0.042826582 0 0 -0.33897066 -0.54846609
0.0043673753 0.042827427 0 0 -0.33897066 -0.54846609
0.007279153 0.042829115 0 0 -0.33897066 -0.54846609
0.010191223 0.042831644 0 0 -0.33897066 -0.54846609
0.013103701 0.042835023 0 0 -0.33897066 -0.54846609
0.016016705 0.042839244 0 0 -0.33897066 -0.54846609
0.018930349 0.042844307 0 0 -0.33897066 -0.54846609
0.021844754 0.042850219 0 0 -0.33897066 -0.54846609
0.024760036 0.042856976 0 0 -0.33897066 -0.54846609
0.02767631 0.042864583 0 0 -0.33897066 -0.54846609
0.030593697 0.042873036 0 0 -0.33897066 -0.54846609
0.033512309 0.042882334 0 0 -0.33897066 -0.54846609
0.036432274 0.042892486 0 0 -0.33897066 -0.54846609
0.039353698 0.042903487 0 0 -0.33897066 -0.54846609
0.0014598597 0.046390239 0 0 -0.33897066 -0.54846609
0.0043796375 0.046391156 0 0 -0.33897066 -0.54846609
0.0072995923 0.046392988 0 0 -0.33897066 -0.54846609
0.01021984 0.046395738 0 0 -0.33897066 -0.54846609
0.0131405 0.046399407 0 0 -0.33897066 -0.54846609
0.016061688 0.046403993 0 0 -0.33897066 -0.54846609
0.018983522 0.046409495 0 0 -0.33897066 -0.54846609
0.021906123 0.046415914 0 0 -0.33897066 -0.54846609
0.024829604 0.046423256 0 0 -0.33897066 -0.54846609
0.027754087 0.046431515 0 0 -0.33897066 -0.54846609
0.030679688 0.046440698 0 0 -0.33897066 -0.54846609
0.033606526 0.046450801 0 0 -0.33897066 -0.54846609
0.036534723 0.046461828 0 0 -0.33897066 -0.54846609
0.039464392 0.046473775 0 0 -0.33897066 -0.54846609
0.0014639723 0.049975812 0 0 -0.33897066 -0.54846609
0.0043919757 0.049976803 0 0 -0.33897066 -0.54846609
0.0073201568 0.049978785 0 0 -0.33897066 -0.54846609
0.010248634 0.049981754 0 0 -0.33897066 -0.54846609
0.013177524 0.049985718 0 0 -0.33897066 -0.54846609
0.016106948 0.049990669 0 0 -0.33897066 -0.54846609
0.019037023 0.049996614 0 0 -0.33897066 -0.54846609
0.021967867 0.050003551 0 0 -0.33897066 -0.54846609
0.024899602 0.050011482 0 0 -0.33897066 -0.54846609
0.027832342 0.050020408 0 0 -0.33897066 -0.54846609
0.03076621 0.050030325 0 0 -0.33897066 -0.54846609
0.033701323 0.05004124 0 0 -0.33897066 -0.54846609
0.036637802 0.050053153 0 0 -0.33897066 -0.54846609
0.039575767 0.050066061 0 0 -0.33897066 -0.54846609
0.0014681102 0.053583644 0 0 -0.33897066 -0.54846609
0.0044043902 0.05358471 0 0 -0.33897066 -0.54846609
0.0073408494 0.053586841 0 0 -0.33897066 -0.54846609
0.010277606 0.053590033 0 0 -0.33897066 -0.54846609
0.01321478 0.053594295 0 0 -0.33897066 -0.54846609
0.01615249 0.053599622 0 0 -0.33897066 -0.54846609
0.019090855 0.053606015 0 0 -0.33897066 -0.54846609
0.022029998 0.053613473 0 0 -0.33897066 -0.54846609
0.024970034 0.053622 0 0 -0.33897066 -0.54846609
0.027911084 0.053631596 0 0 -0.33897066 -0.54846609
0.03085327 0.053642262 0 0 -0.33897066 -0.54846609
0.033796709 0.053653996 0 0 -0.33897066 -0.54846609
0.036741525 0.053666804 0 0 -0.33897066 -0.54846609
0.039687835 0.053680684 0 0 -0.33897066 -0.54846609
0.0014722743 0.057214085 0 0 -0.33897066 -0.54846609
0.004416883 0.057215225 0 0 -0.33897066 -0.54846609
0.0073616714 0.057217505 0 0 -0.33897066 -0.54846609
0.01030676 0.057220925 0 0 -0.33897066 -0.54846609
0.013252269 0.057225488 0 0 -0.33897066 -0.54846609
0.016198317 0.057231192 0 0 -0.33897066 -0.54846609
0.019145027 0.057238035 0 0 -0.33897066 -0.54846609
0.022092516 0.057246022 0 0 -0.33897066 -0.54846609
0.025040906 0.057255153 0 0 -0.33897066 -0.54846609
0.027990319 0.057265427 0 0 -0.33897066 -0.54846609
0.030940874 0.057276849 0 0 -0.33897066 -0.54846609
0.033892691 0.057289414 0 0 -0.33897066 -0.54846609
0.036845896 0.057303127 0 0 -0.33897066 -0.54846609
0.039800603 0.057317991 0 0 -0.33897066 -0.54846609
0.0014764647 0.060867481 0 0 -0.33897066 -0.54846609
0.0044294544 0.060868695 0 0 -0.33897066 -0.54846609
0.0073826252 0.060871128 0 0 -0.33897066 -0.54846609
0.010336098 0.060874779 0 0 -0.33897066 -0.54846609
0.013289994 0.060879644 0 0 -0.33897066 -0.54846609
0.016244434 0.060885731 0 0 -0.33897066 -0.54846609
0.019199539 0.060893033 0 0 -0.33897066 -0.54846609
0.02215543 0.060901552 0 0 -0.33897066 -0.54846609
0.025112228 0.060911294 0 0 -0.33897066 -0.54846609
0.028070055 0.060922258 0 0 -0.33897066 -0.54846609
0.031029034 0.060934439 0 0 -0.33897066 -0.54846609
0.033989284 0.060947847 0 0 -0.33897066 -0.54846609
0.036950927 0.06096248 0 0 -0.33897066 -0.54846609
0.03991409 0.060978338 0 0 -0.33897066 -0.54846609
0.0014806817 0.064544193 0 0 -0.33897066 -0.54846609
0.004442106 0.064545482 0 0 -0.33897066 -0.54846609
0.0074037127 0.064548075 0 0 -0.33897066 -0.54846609
0.010365624 0.064551957 0 0 -0.33897066 -0.54846609
0.013327961 0.064557128 0 0 -0.33897066 -0.54846609
0.016290845 0.064563602 0 0 -0.33897066 -0.54846609
0.019254399 0.064571366 0 0 -0.33897066 -0.54846609
0.022218745 0.064580426 0 0 -0.33897066 -0.54846609
0.025184005 0.064590789 0 0 -0.33897066 -0.54846609
0.028150301 0.064602442 0 0 -0.33897066 -0.54846609
0.031117756 0.064615399 0 0 -0.33897066 -0.54846609
0.034086492 0.064629659 0 0 -0.33897066 -0.54846609
0.037056632 0.064645216 0 0 -0.33897066 -0.54846609
0.001484926 0.068244584 0 0 -0.33897066 -0.54846609
0.004454839 0.068245955 0 0 -0.33897066 -0.54846609
0.0074249362 0.068248704 0 0 -0.33897066 -0.54846609
0.01039534 0.068252817 0 0 -0.33897066 -0.54846609
0.013366171 0.068258308 0 0 -0.33897066 -0.54846609
0.016337555 0.068265162 0 0 -0.33897066 -0.54846609
0.019309614 0.068273403 0 0 -0.33897066 -0.54846609
0.02228247 0.068283007 0 0 -0.33897066 -0.54846609
0.025256246 0.068293996 0 0 -0.33897066 -0.54846609
0.028231066 0.068306357 0 0 -0.33897066 -0.54846609
0.031207051 0.068320096 0 0 -0.33897066 -0.54846609
0.034184329 0.068335213 0 0 -0.33897066 -0.54846609
0.037163019 0.068351708 0 0 -0.33897066 -0.54846609
0.0014891977 0.071969032 0 0 -0.33897066 -0.54846609
0.004467655 0.071970485 0 0 -0.33897066 -0.54846609
0.0074462974 0.071973383 0 0 -0.33897066 -0.54846609
0.010425248 0.071977742 0 0 -0.33897066 -0.54846609
0.013404631 0.071983546 0 0 -0.33897066 -0.54846609
0.01638457 0.071990795 0 0 -0.33897066 -0.54846609
0.019365188 0.071999505 0 0 -0.33897066 -0.54846609
0.022346608 0.072009668 0 0 -0.33897066 -0.54846609
0.025328955 0.072021291 0 0 -0.33897066 -0.54846609
0.028312353 0.072034359 0 0 -0.33897066 -0.54846609
0.031296927 0.072048895 0 0 -0.33897066 -0.54846609
0.0342828 0.072064884 0 0 -0.33897066 -0.54846609
0.037270099 0.072082333 0 0 -0.33897066 -0.54846609
0.0014934976 0.075717919 0 0 -0.33897066 -0.54846609
0.0044805552 0.075719446 0 0 -0.33897066 -0.54846609
0.0074677989 0.075722508 0 0 -0.33897066 -0.54846609
0.010455353 0.075727098 0 0 -0.33897066 -0.54846609
0.013443342 0.075733222 0 0 -0.33897066 -0.54846609
0.016431892 0.075740881 0 0 -0.33897066 -0.54846609
0.019421125 0.075750068 0 0 -0.33897066 -0.54846609
0.022411168 0.075760789 0 0 -0.33897066 -0.54846609
0.025402142 0.075773045 0 0 -0.33897066 -0.54846609
0.028394176 0.075786844 0 0 -0.33897066 -0.54846609
0.031387392 0.075802177 0 0 -0.33897066 -0.54846609
0.034381919 0.075819045 0 0 -0.33897066 -0.54846609
0.037377879 0.075837456 0 0 -0.33897066 -0.54846609
0.001497826 0.079491615 0 0 -0.33897066 -0.54846609
0.0044935402 0.079493225 0 0 -0.33897066 -0.54846609
0.0074894424 0.079496451 0 0 -0.33897066 -0.54846609
0.010485657 0.079501286 0 0 -0.33897066 -0.54846609
0.013482311 0.079507731 0 0 -0.33897066 -0.54846609
0.016479528 0.079515792 0 0 -0.33897066 -0.54846609
0.019477434 0.079525463 0 0 -0.33897066 -0.54846609
0.022476153 0.079536758 0 0 -0.33897066 -0.54846609
0.025475815 0.079549663 0 0 -0.33897066 -0.54846609
0.02847654 0.079564184 0 0 -0.33897066 -0.54846609
0.031478457 0.079580329 0 0 -0.33897066 -0.54846609
0.034481697 0.079598092 0 0 -0.33897066 -0.54846609
0.037486378 0.079617478 0 0 -0.33897066 -0.54846609
