# .PCD v0.7 - Point Cloud Data file format
VERSION 0.7
FIELDS x y z vp_x vp_y vp_z
SIZE 4 4 4 4 4 4
TYPE F F F F F F
COUNT 1 1 1 1 1 1
WIDTH 754
HEIGHT 1
VIEWPOINT 0 0 0 1 0 0 0
POINTS 754
DATA ascii
0.0048430115 0.048848975 0.07 0.54846609 0 0.33897066
0.0047966051 0.051505283 0.07 0.54846609 0 0.33897066
0.004747719 0.054164108 0.07 0.54846609 0 0.33897066
0.0046963482 0.056825571 0.07 0.54846609 0 0.33897066
0.0046424861 0.059489813 0.07 0.54846609 0 0.33897066
0.0045861267 0.062156964 0.07 0.54846609 0 0.33897066
0.0045272629 0.064827159 0.07 0.54846609 0 0.33897066
0.0044658887 0.067500532 0.07 0.54846609 0 0.33897066
0.0044019958 0.07017722 0.07 0.54846609 0 0.33897066
0.010857481 0.043179624 0.07 0.54846609 0 0.33897066
0.010818614 0.045809008 0.07 0.54846609 0 0.33897066
0.010777432 0.048440594 0.07 0.54846609 0 0.33897066
0.010733933 0.051074516 0.07 0.54846609 0 0.33897066
0.01068811 0.053710897 0.07 0.54846609 0 0.33897066
0.010639957 0.05634987 0.07 0.54846609 0 0.33897066
0.01058947 0.058991566 0.07 0.54846609 0 0.33897066
0.010536644 0.061636109 0.07 0.54846609 0 0.33897066
0.010481469 0.064283639 0.07 0.54846609 0 0.33897066
0.010423942 0.06693428 0.07 0.54846609 0 0.33897066
0.010364056 0.069588169 0.07 0.54846609 0 0.33897066
0.010301802 0.072245434 0.07 0.54846609 0 0.33897066
0.010237175 0.074906215 0.07 0.54846609 0 0.33897066
0.016683793 0.042822186 0.07 0.54846609 0 0.33897066
0.016647441 0.045429662 0.07 0.54846609 0 0.33897066
0.016608924 0.048039299 0.07 0.54846609 0 0.33897066
0.01656824 0.050651222 0.07 0.54846609 0 0.33897066
0.016525382 0.053265557 0.07 0.54846609 0 0.33897066
0.016480347 0.055882432 0.07 0.54846609 0 0.33897066
0.016433129 0.058501974 0.07 0.54846609 0 0.33897066
0.016383722 0.06112431 0.07 0.54846609 0 0.33897066
0.01633212 0.063749567 0.07 0.54846609 0 0.33897066
0.016278319 0.066377878 0.07 0.54846609 0 0.33897066
0.016222311 0.069009371 0.07 0.54846609 0 0.33897066
0.01616409 0.07164418 0.07 0.54846609 0 0.33897066
0.016103651 0.074282423 0.07 0.54846609 0 0.33897066
0.016040985 0.076924242 0.07 0.54846609 0 0.33897066
0.020564556 0.040029299 0.069039956 0.54846609 0 0.33897066
0.022410208 0.04247088 0.07 0.54846609 0 0.33897066
0.022376293 0.045056824 0.07 0.54846609 0 0.33897066
0.022340357 0.047644887 0.07 0.54846609 0 0.33897066
0.0223024 0.050235193 0.07 0.54846609 0 0.33897066
0.022262415 0.052827861 0.07 0.54846609 0 0.33897066
0.022220399 0.055423021 0.07 0.54846609 0 0.33897066
0.022176348 0.058020797 0.07 0.54846609 0 0.33897066
0.022130253 0.06062131 0.07 0.54846609 0 0.33897066
0.022082113 0.063224688 0.07 0.54846609 0 0.33897066
0.02203192 0.065831058 0.07 0.54846609 0 0.33897066
0.021979669 0.068440549 0.07 0.54846609 0 0.33897066
0.021925354 0.071053281 0.07 0.54846609 0 0.33897066
0.021868968 0.073669389 0.07 0.54846609 0 0.33897066
0.021810507 0.076289006 0.07 0.54846609 0 0.33897066
0.021749962 0.078912251 0.07 0.54846609 0 0.33897066
0.021432012 0.040067289 0.066569537 0.54846609 0 0.33897066
0.028039489 0.042125531 0.07 0.54846609 0 0.33897066
0.028007934 0.044690315 0.07 0.54846609 0 0.33897066
0.027974499 0.047257174 0.07 0.54846609 0 0.33897066
0.027939184 0.049826231 0.07 0.54846609 0 0.33897066
0.027901983 0.052397605 0.07 0.54846609 0 0.33897066
0.027862892 0.054971423 0.07 0.54846609 0 0.33897066
0.027821906 0.0575478 0.07 0.54846609 0 0.33897066
0.02777902 0.060126867 0.07 0.54846609 0 0.33897066
0.027734233 0.062708743 0.07 0.54846609 0 0.33897066
0.027687537 0.06529355 0.07 0.54846609 0 0.33897066
0.027638925 0.067881413 0.07 0.54846609 0 0.33897066
0.027588394 0.070472464 0.07 0.54846609 0 0.33897066
0.027535938 0.073066816 0.07 0.54846609 0 0.33897066
0.02748155 0.075664602 0.07 0.54846609 0 0.33897066
0.027425226 0.078265958 0.07 0.54846609 0 0.33897066
0.021995425 0.040128581 0.063936695 0.54846609 0 0.33897066
0.028995872 0.042157542 0.067608312 0.54846609 0 0.33897066
0.0325041 0.044419572 0.069456272 0.54846609 0 0.33897066
0.033514015 0.046875969 0.07 0.54846609 0 0.33897066
0.033481259 0.049424138 0.07 0.54846609 0 0.33897066
0.033446755 0.05197458 0.07 0.54846609 0 0.33897066
0.033410497 0.054527413 0.07 0.54846609 0 0.33897066
0.033372484 0.057082765 0.07 0.54846609 0 0.33897066
0.033332709 0.059640747 0.07 0.54846609 0 0.33897066
0.033291172 0.062201481 0.07 0.54846609 0 0.33897066
0.033247862 0.064765096 0.07 0.54846609 0 0.33897066
0.033202775 0.067331709 0.07 0.54846609 0 0.33897066
0.033155911 0.069901437 0.07 0.54846609 0 0.33897066
0.033107262 0.072474413 0.07 0.54846609 0 0.33897066
0.033056822 0.075050749 0.07 0.54846609 0 0.33897066
0.027740134 0.078423433 0.067252979 0.54846609 0 0.33897066
0.022560209 0.040190026 0.061297443 0.54846609 0 0.33897066
0.029197931 0.042251024 0.064815789 0.54846609 0 0.33897066
0.032640964 0.044523615 0.066648044 0.54846609 0 0.33897066
0.035040565 0.046858951 0.067930132 0.54846609 0 0.33897066
0.036826804 0.04923122 0.068889141 0.54846609 0 0.33897066
0.038163777 0.051633012 0.069611758 0.54846609 0 0.33897066
0.038865801 0.054090794 0.07 0.54846609 0 0.33897066
0.038830668 0.056625467 0.07 0.54846609 0 0.33897066
0.038793907 0.059162721 0.07 0.54846609 0 0.33897066
0.038755517 0.061702676 0.07 0.54846609 0 0.33897066
0.038715489 0.064245455 0.07 0.54846609 0 0.33897066
0.038673822 0.066791169 0.07 0.54846609 0 0.33897066
0.037575949 0.06948337 0.069443651 0.54846609 0 0.33897066
0.03576367 0.07228978 0.068511412 0.54846609 0 0.33897066
0.032914724 0.075268269 0.067033403 0.54846609 0 0.33897066
0.026861858 0.078761771 0.063866749 0.54846609 0 0.33897066
0.02312639 0.04025162 0.058651663 0.54846609 0 0.33897066
0.029394142 0.042345408 0.062008977 0.54846609 0 0.33897066
0.03277839 0.044628087 0.063828304 0.54846609 0 0.33897066
0.035137124 0.046972625 0.065101132 0.54846609 0 0.33897066
0.036908738 0.049352072 0.0660614 0.54846609 0 0.33897066
0.038215511 0.051762849 0.066774398 0.54846609 0 0.33897066
0.039117344 0.054205596 0.067272104 0.54846609 0 0.33897066
0.039692614 0.05667771 0.067596376 0.54846609 0 0.33897066
0.039955691 0.059182484 0.067754894 0.54846609 0 0.33897066
0.039906524 0.061724678 0.067747675 0.54846609 0 0.33897066
0.03952916 0.064311072 0.067566246 0.54846609 0 0.33897066
0.038724504 0.066959709 0.067157812 0.54846609 0 0.33897066
0.037471734 0.069679931 0.066511326 0.54846609 0 0.33897066
0.03558043 0.072505496 0.065525323 0.54846609 0 0.33897066
0.032592583 0.075513162 0.063955747 0.54846609 0 0.33897066
0.025746146 0.07913772 0.06033041 0.54846609 0 0.33897066
0.023522155 0.040326569 0.055906571 0.54846609 0 0.33897066
0.029556355 0.042443007 0.059172414 0.54846609 0 0.33897066
0.032916386 0.044732992 0.060996871 0.54846609 0 0.33897066
0.035234097 0.047086786 0.062259946 0.54846609 0 0.33897066
0.03699103 0.04947345 0.063221313 0.54846609 0 0.33897066
0.038267475 0.051893272 0.063924305 0.54846609 0 0.33897066
0.039155677 0.054343674 0.064418688 0.54846609 0 0.33897066
0.03971656 0.056823745 0.064737327 0.54846609 0 0.33897066
0.039964058 0.059336856 0.06488777 0.54846609 0 0.33897066
0.03989768 0.061887845 0.064869776 0.54846609 0 0.33897066
0.039480541 0.064486198 0.064663507 0.54846609 0 0.33897066
0.03865049 0.067145459 0.064235516 0.54846609 0 0.33897066
0.037366986 0.069877498 0.063563995 0.54846609 0 0.33897066
0.035396196 0.072722383 0.06252303 0.54846609 0 0.33897066
0.032268517 0.075759515 0.060859706 0.54846609 0 0.33897066
0.02337086 0.079706728 0.056088999 0.54846609 0 0.33897066
0.023878148 0.040404923 0.053130291 0.54846609 0 0.33897066
0.029719232 0.042541005 0.056324214 0.54846609 0 0.33897066
0.033035565 0.044840027 0.058142994 0.54846609 0 0.33897066
0.035331495 0.047201447 0.059406389 0.54846609 0 0.33897066
0.037073683 0.049595363 0.060368694 0.54846609 0 0.33897066
0.038319677 0.052024283 0.0610613 0.54846609 0 0.33897066
0.039194189 0.054482382 0.061552174 0.54846609 0 0.33897066
0.039740618 0.056970462 0.061864991 0.54846609 0 0.33897066
0.039972465 0.059491951 0.062007129 0.54846609 0 0.33897066
0.039888795 0.062051792 0.061978109 0.54846609 0 0.33897066
0.03943168 0.064662181 0.061746415 0.54846609 0 0.33897066
0.038576104 0.067332156 0.061298467 0.54846609 0 0.33897066
0.037261698 0.070076086 0.060601439 0.54846609 0 0.33897066
0.035210952 0.072940461 0.059504282 0.54846609 0 0.33897066
0.031942498 0.076007359 0.057745013 0.54846609 0 0.33897066
0.0055939513 0.0013503913 0.039999999 0.54846609 0 0.33897066
0.0055927262 0.0040512322 0.039999999 0.54846609 0 0.33897066
0.0055902754 0.0067522475 0.039999999 0.54846609 0 0.33897066
0.005586599 0.0094535546 0.039999999 0.54846609 0 0.33897066
0.0055816965 0.012155269 0.039999999 0.54846609 0 0.33897066
0.0055755675 0.014857508 0.039999999 0.54846609 0 0.33897066
0.0055682114 0.017560389 0.039999999 0.54846609 0 0.33897066
0.005559627 0.020264028 0.039999999 0.54846609 0 0.33897066
0.0055498141 0.02296854 0.039999999 0.54846609 0 0.33897066
0.0055387709 0.025674045 0.039999999 0.54846609 0 0.33897066
0.0055264966 0.02838066 0.039999999 0.54846609 0 0.33897066
0.0055129901 0.031088503 0.039999999 0.54846609 0 0.33897066
0.0054982495 0.033797689 0.039999999 0.54846609 0 0.33897066
0.0054822736 0.036508337 0.039999999 0.54846609 0 0.33897066
0.0054650609 0.039220568 0.039999999 0.54846609 0 0.33897066
0.024235357 0.040483542 0.050344534 0.54846609 0 0.33897066
0.029882785 0.042639412 0.053464197 0.54846609 0 0.33897066
0.033149574 0.044948015 0.055273667 0.54846609 0 0.33897066
0.035429321 0.047316611 0.056540273 0.54846609 0 0.33897066
0.037152641 0.04971822 0.057501115 0.54846609 0 0.33897066
0.038372118 0.052155897 0.058185175 0.54846609 0 0.33897066
0.039232876 0.054621734 0.058672369 0.54846609 0 0.33897066
0.039764788 0.057117864 0.058979165 0.54846609 0 0.33897066
0.039980911 0.059647791 0.059112776 0.54846609 0 0.33897066
0.039873805 0.062217277 0.059069131 0.54846609 0 0.33897066
0.039382577 0.06483905 0.05881476 0.54846609 0 0.33897066
0.038501341 0.067519791 0.058346454 0.54846609 0 0.33897066
0.037155859 0.070275709 0.057623416 0.54846609 0 0.33897066
0.03502468 0.073159747 0.056468822 0.54846609 0 0.33897066
0.031614497 0.076256707 0.05461137 0.54846609 0 0.33897066
0.011155584 0.0013400698 0.039999999 0.54846609 0 0.33897066
0.011154482 0.0040202667 0.039999999 0.54846609 0 0.33897066
0.01115228 0.006700635 0.039999999 0.54846609 0 0.33897066
0.011148974 0.0093812887 0.039999999 0.54846609 0 0.33897066
0.011144567 0.012062344 0.039999999 0.54846609 0 0.33897066
0.011139057 0.014743912 0.039999999 0.54846609 0 0.33897066
0.011132443 0.017426111 0.039999999 0.54846609 0 0.33897066
0.011124726 0.020109054 0.039999999 0.54846609 0 0.33897066
0.011115904 0.022792853 0.039999999 0.54846609 0 0.33897066
0.011105976 0.025477629 0.039999999 0.54846609 0 0.33897066
0.011094942 0.028163493 0.039999999 0.54846609 0 0.33897066
0.011082799 0.030850559 0.039999999 0.54846609 0 0.33897066
0.011069548 0.033538949 0.039999999 0.54846609 0 0.33897066
0.011055185 0.036228769 0.039999999 0.54846609 0 0.33897066
0.011039712 0.038920142 0.039999999 0.54846609 0 0.33897066
0.0245938 0.040562432 0.047549143 0.54846609 0 0.33897066
0.030047024 0.042738229 0.05059218 0.54846609 0 0.33897066
0.033264082 0.045056481 0.052391753 0.54846609 0 0.33897066
0.035527583 0.047432289 0.053661399 0.54846609 0 0.33897066
0.037218753 0.049842916 0.054613214 0.54846609 0 0.33897066
0.038424801 0.052288119 0.055295732 0.54846609 0 0.33897066
0.039271746 0.054761741 0.055779066 0.54846609 0 0.33897066
0.039789073 0.057265967 0.056079637 0.54846609 0 0.33897066
0.039989397 0.059804376 0.056204494 0.54846609 0 0.33897066
0.039846286 0.062385097 0.056138959 0.54846609 0 0.33897066
0.039333228 0.065016806 0.05586832 0.54846609 0 0.33897066
0.038426187 0.067708403 0.055379245 0.54846609 0 0.33897066
0.03702252 0.070480101 0.054614712 0.54846609 0 0.33897066
0.034837369 0.073380262 0.053416401 0.54846609 0 0.33897066
0.031284481 0.076507591 0.051458489 0.54846609 0 0.33897066
0.016630668 0.001329909 0.039999999 0.54846609 0 0.33897066
0.016629687 0.0039897831 0.039999999 0.54846609 0 0.33897066
0.016627723 0.0066498253 0.039999999 0.54846609 0 0.33897066
0.016624779 0.0093101487 0.039999999 0.54846609 0 0.33897066
0.016620852 0.011970864 0.039999999 0.54846609 0 0.33897066
0.016615944 0.014632085 0.039999999 0.54846609 0 0.33897066
0.016610051 0.017293924 0.039999999 0.54846609 0 0.33897066
0.016603176 0.019956492 0.039999999 0.54846609 0 0.33897066
0.016595315 0.022619905 0.039999999 0.54846609 0 0.33897066
0.016586469 0.025284272 0.039999999 0.54846609 0 0.33897066
0.016576638 0.027949708 0.039999999 0.54846609 0 0.33897066
0.01656582 0.030616326 0.039999999 0.54846609 0 0.33897066
0.016554013 0.033284239 0.039999999 0.54846609 0 0.33897066
0.016541217 0.035953559 0.039999999 0.54846609 0 0.33897066
0.016527431 0.038624406 0.039999999 0.54846609 0 0.33897066
0.024953499 0.040641602 0.044743959 0.54846609 0 0.33897066
0.030211959 0.042837467 0.047707975 0.54846609 0 0.33897066
0.0333791 0.045165427 0.049497057 0.54846609 0 0.33897066
0.035626285 0.047548488 0.050769575 0.54846609 0 0.33897066
0.037285171 0.04996819 0.051711954 0.54846609 0 0.33897066
0.038477734 0.052420959 0.052392762 0.54846609 0 0.33897066
0.039310798 0.054902408 0.052872054 0.54846609 0 0.33897066
0.039813474 0.057414781 0.053166207 0.54846609 0 0.33897066
0.039997924 0.059961725 0.053282078 0.54846609 0 0.33897066
0.03981863 0.062553763 0.053194117 0.54846609 0 0.33897066
0.039283626 0.065195471 0.052906867 0.54846609 0 0.33897066
0.038350649 0.06789799 0.052396614 0.54846609 0 0.33897066
0.03688265 0.070686407 0.051586408 0.54846609 0 0.33897066
0.034649 0.073602013 0.050346754 0.54846609 0 0.33897066
0.030857556 0.076774098 0.048232779 0.54846609 0 0.33897066
0.022021413 0.0013199046 0.039999999 0.54846609 0 0.33897066
0.022020549 0.0039597689 0.039999999 0.54846609 0 0.33897066
0.022018818 0.0065997983 0.039999999 0.54846609 0 0.33897066
0.022016224 0.0092401039 0.039999999 0.54846609 0 0.33897066
0.022012763 0.011880795 0.039999999 0.54846609 0 0.33897066
0.022008438 0.014521981 0.039999999 0.54846609 0 0.33897066
0.022003245 0.017163774 0.039999999 0.54846609 0 0.33897066
0.021997185 0.019806283 0.039999999 0.54846609 0 0.33897066
0.021990258 0.02244962 0.039999999 0.54846609 0 0.33897066
0.021982465 0.025093896 0.039999999 0.54846609 0 0.33897066
0.0219738 0.027739219 0.039999999 0.54846609 0 0.33897066
0.021964267 0.030385705 0.039999999 0.54846609 0 0.33897066
0.021953864 0.03303346 0.039999999 0.54846609 0 0.33897066
0.021942588 0.035682596 0.039999999 0.54846609 0 0.33897066
0.021930439 0.03833323 0.039999999 0.54846609 0 0.33897066
0.025314474 0.040721051 0.041928824 0.54846609 0 0.33897066
0.030377602 0.04293713 0.044811398 0.54846609 0 0.33897066
0.033494633 0.045274857 0.046589386 0.54846609 0 0.33897066
0.035725437 0.047665212 0.047864605 0.54846609 0 0.33897066
0.037351903 0.050094049 0.048797134 0.54846609 0 0.33897066
0.038530912 0.052554429 0.049476065 0.54846609 0 0.33897066
0.03935004 0.055043753 0.049951132 0.54846609 0 0.33897066
0.03983799 0.057564314 0.050238658 0.54846609 0 0.33897066
0.03999342 0.060121391 0.050337888 0.54846609 0 0.33897066
0.039790835 0.062723272 0.050234385 0.54846609 0 0.33897066
0.039233766 0.065375052 0.049930174 0.54846609 0 0.33897066
0.038274709 0.068088576 0.049398318 0.54846609 0 0.33897066
0.036742013 0.070893846 0.048541434 0.54846609 0 0.33897066
0.034442287 0.073827513 0.047249813 0.54846609 0 0.33897066
0.030406384 0.077045552 0.044973541 0.54846609 0 0.33897066
0.027329953 0.0013100528 0.039999999 0.54846609 0 0.33897066
0.027329201 0.0039302125 0.039999999 0.54846609 0 0.33897066
0.027327698 0.0065505346 0.039999999 0.54846609 0 0.33897066
0.027325442 0.0091711273 0.039999999 0.54846609 0 0.33897066
0.027322434 0.011792098 0.039999999 0.54846609 0 0.33897066
0.027318675 0.014413556 0.039999999 0.54846609 0 0.33897066
0.027314162 0.017035609 0.039999999 0.54846609 0 0.33897066
0.027308894 0.019658366 0.039999999 0.54846609 0 0.33897066
0.027302874 0.022281935 0.039999999 0.54846609 0 0.33897066
0.0272961 0.024906425 0.039999999 0.54846609 0 0.33897066
0.027288571 0.027531944 0.039999999 0.54846609 0 0.33897066
0.027280286 0.030158604 0.039999999 0.54846609 0 0.33897066
0.027271243 0.032786511 0.039999999 0.54846609 0 0.33897066
0.027261443 0.035415776 0.039999999 0.54846609 0 0.33897066
0.027250884 0.038046505 0.039999999 0.54846609 0 0.33897066
0.027239565 0.040678814 0.039999999 0.54846609 0 0.33897066
0.030543964 0.043037225 0.041902255 0.54846609 0 0.33897066
0.03361069 0.045384787 0.043668535 0.54846609 0 0.33897066
0.035825044 0.047782473 0.044946283 0.54846609 0 0.33897066
0.037418943 0.050220501 0.045868542 0.54846609 0 0.33897066
0.038584348 0.052688535 0.046545431 0.54846609 0 0.33897066
0.039389472 0.055185776 0.047016088 0.54846609 0 0.33897066
0.039862629 0.057714581 0.04729677 0.54846609 0 0.33897066
0.039984696 0.060282357 0.047376532 0.54846609 0 0.33897066
0.039762899 0.062893659 0.047259532 0.54846609 0 0.33897066
0.03918365 0.065555573 0.046938006 0.54846609 0 0.33897066
0.03819837 0.068280168 0.046384122 0.54846609 0 0.33897066
0.036600593 0.071102433 0.045479529 0.54846609 0 0.33897066
0.034197181 0.07405968 0.044113528 0.54846609 0 0.33897066
0.029952157 0.077318847 0.041692242 0.54846609 0 0.33897066
0.032558352 0.0013003498 0.039999999 0.54846609 0 0.33897066
0.032557707 0.0039011026 0.039999999 0.54846609 0 0.33897066
0.032556426 0.0065020146 0.039999999 0.54846609 0 0.33897066
0.0325545 0.009103192 0.039999999 0.54846609 0 0.33897066
0.032551933 0.011704741 0.039999999 0.54846609 0 0.33897066
0.032548722 0.014306769 0.039999999 0.54846609 0 0.33897066
0.032544866 0.01690938 0.039999999 0.54846609 0 0.33897066
0.03254037 0.019512683 0.039999999 0.54846609 0 0.33897066
0.032535233 0.022116782 0.039999999 0.54846609 0 0.33897066
0.032529447 0.024721786 0.039999999 0.54846609 0 0.33897066
0.032523017 0.027327802 0.039999999 0.54846609 0 0.33897066
0.032515943 0.029934937 0.039999999 0.54846609 0 0.33897066
0.032508224 0.032543294 0.039999999 0.54846609 0 0.33897066
0.032499857 0.035152987 0.039999999 0.54846609 0 0.33897066
0.032490842 0.037764121 0.039999999 0.54846609 0 0.33897066
0.032481179 0.040376801 0.039999999 0.54846609 0 0.33897066
0.032470867 0.042991135 0.039999999 0.54846609 0 0.33897066
0.033727277 0.045495223 0.04073431 0.54846609 0 0.33897066
0.035924505 0.047900338 0.042014051 0.54846609 0 0.33897066
0.037486307 0.050347559 0.042925969 0.54846609 0 0.33897066
0.03863804 0.05282329 0.043600641 0.54846609 0 0.33897066
0.039429095 0.055328496 0.044066701 0.54846609 0 0.33897066
0.039884336 0.057865936 0.044338565 0.54846609 0 0.33897066
0.039975926 0.060444139 0.044400126 0.54846609 0 0.33897066
0.039734818 0.063064918 0.044269331 0.54846609 0 0.33897066
0.039133269 0.065737039 0.043930132 0.54846609 0 0.33897066
0.038110983 0.068474211 0.043347623 0.54846609 0 0.33897066
0.036458381 0.071312197 0.042400435 0.54846609 0 0.33897066
0.033950597 0.074293248 0.040958364 0.54846609 0 0.33897066
0.032277115 0.077178016 0.039999999 0.54846609 0 0.33897066
0.032257568 0.079827085 0.039999999 0.54846609 0 0.33897066
0.037708603 0.0012907918 0.039999999 0.54846609 0 0.33897066
0.037708066 0.0038724274 0.039999999 0.54846609 0 0.33897066
0.037706997 0.0064542196 0.039999999 0.54846609 0 0.33897066
0.037705392 0.0090362728 0.039999999 0.54846609 0 0.33897066
0.03770325 0.011618691 0.039999999 0.54846609 0 0.33897066
0.037700575 0.014201578 0.039999999 0.54846609 0 0.33897066
0.037697364 0.016785039 0.039999999 0.54846609 0 0.33897066
0.037693612 0.019369178 0.039999999 0.54846609 0 0.33897066
0.037689328 0.021954101 0.039999999 0.54846609 0 0.33897066
0.037684508 0.024539912 0.039999999 0.54846609 0 0.33897066
0.037679147 0.027126715 0.039999999 0.54846609 0 0.33897066
0.03767325 0.029714616 0.039999999 0.54846609 0 0.33897066
0.037666813 0.032303721 0.039999999 0.54846609 0 0.33897066
0.037659839 0.034894135 0.039999999 0.54846609 0 0.33897066
0.037652321 0.037485961 0.039999999 0.54846609 0 0.33897066
0.037644267 0.040079311 0.039999999 0.54846609 0 0.33897066
0.037635669 0.042674284 0.039999999 0.54846609 0 0.33897066
0.037626527 0.045270991 0.039999999 0.54846609 0 0.33897066
0.037616845 0.047869537 0.039999999 0.54846609 0 0.33897066
0.037606619 0.050470032 0.039999999 0.54846609 0 0.33897066
0.038691998 0.052958705 0.040641487 0.54846609 0 0.33897066
0.039468914 0.055471919 0.041102752 0.54846609 0 0.33897066
0.039892666 0.058019593 0.041357648 0.54846609 0 0.33897066
0.039967116 0.060606752 0.041408446 0.54846609 0 0.33897066
0.039706588 0.063237071 0.041263547 0.54846609 0 0.33897066
0.039082624 0.065919466 0.040906314 0.54846609 0 0.33897066
0.038006347 0.068671577 0.040284757 0.54846609 0 0.33897066
0.037505068 0.071357004 0.039999999 0.54846609 0 0.33897066
0.037489887 0.073979892 0.039999999 0.54846609 0 0.33897066
0.037474152 0.076605812 0.039999999 0.54846609 0 0.33897066
0.037457857 0.079234883 0.039999999 0.54846609 0 0.33897066
0.039999999 0.0012884262 0.038354844 0.54846609 0 0.33897066
0.039999999 0.003865327 0.038355101 0.54846609 0 0.33897066
0.039999999 0.0064423722 0.038355615 0.54846609 0 0.33897066
0.039999999 0.0090196589 0.038356382 0.54846609 0 0.33897066
0.039999999 0.011597282 0.038357407 0.54846609 0 0.33897066
0.039999999 0.01417534 0.038358692 0.54846609 0 0.33897066
0.039999999 0.016753927 0.038360231 0.54846609 0 0.33897066
0.039999999 0.019333141 0.038362026 0.54846609 0 0.33897066
0.039999999 0.02191308 0.038364083 0.54846609 0 0.33897066
0.039999999 0.02449384 0.038366392 0.54846609 0 0.33897066
0.039999999 0.027075516 0.038368959 0.54846609 0 0.33897066
0.039999999 0.029658206 0.038371786 0.54846609 0 0.33897066
0.039999999 0.032242008 0.038374871 0.54846609 0 0.33897066
0.039999999 0.03482702 0.038378213 0.54846609 0 0.33897066
0.039999999 0.03741334 0.038381815 0.54846609 0 0.33897066
0.039999999 0.040001061 0.038385674 0.54846609 0 0.33897066
0.039999999 0.042590287 0.038389795 0.54846609 0 0.33897066
0.039999999 0.045181114 0.038394175 0.54846609 0 0.33897066
0.039999999 0.047773641 0.038398813 0.54846609 0 0.33897066
0.039999999 0.050367963 0.038403716 0.54846609 0 0.33897066
0.039999999 0.052964184 0.038408875 0.54846609 0 0.33897066
0.039999999 0.055562399 0.038414299 0.54846609 0 0.33897066
0.039999999 0.058162712 0.038419984 0.54846609 0 0.33897066
0.039999999 0.060765218 0.03842593 0.54846609 0 0.33897066
0.039999999 0.063370019 0.03843214 0.54846609 0 0.33897066
0.039999999 0.065977223 0.038438614 0.54846609 0 0.33897066
0.039999999 0.068586923 0.038445354 0.54846609 0 0.33897066
0.039999999 0.071199216 0.038452357 0.54846609 0 0.33897066
0.039999999 0.073814213 0.038459629 0.54846609 0 0.33897066
0.039999999 0.076432012 0.038467165 0.54846609 0 0.33897066
0.039999999 0.079052716 0.038474966 0.54846609 0 0.33897066
0.039999999 0.0012918693 0.035352975 0.54846609 0 0.33897066
0.039999999 0.0038756565 0.035353176 0.54846609 0 0.33897066
0.039999999 0.0064595891 0.035353579 0.54846609 0 0.33897066
0.039999999 0.0090437643 0.035354178 0.54846609 0 0.33897066
0.039999999 0.011628279 0.035354983 0.54846609 0 0.33897066
0.039999999 0.01421323 0.035355985 0.54846609 0 0.33897066
0.039999999 0.016798716 0.035357188 0.54846609 0 0.33897066
0.039999999 0.019384833 0.035358593 0.54846609 0 0.33897066
0.039999999 0.021971678 0.035360198 0.54846609 0 0.33897066
0.039999999 0.024559349 0.035362005 0.54846609 0 0.33897066
0.039999999 0.027147945 0.035364013 0.54846609 0 0.33897066
0.039999999 0.02973756 0.035366226 0.54846609 0 0.33897066
0.039999999 0.032328296 0.035368636 0.54846609 0 0.33897066
0.039999999 0.034920249 0.035371251 0.54846609 0 0.33897066
0.039999999 0.037513517 0.035374068 0.54846609 0 0.33897066
0.039999999 0.0401082 0.035377085 0.54846609 0 0.33897066
0.039999999 0.042704392 0.035380304 0.54846609 0 0.33897066
0.039999999 0.045302201 0.035383731 0.54846609 0 0.33897066
0.039999999 0.047901716 0.03538736 0.54846609 0 0.33897066
0.039999999 0.050503045 0.035391189 0.54846609 0 0.33897066
0.039999999 0.053106282 0.035395224 0.54846609 0 0.33897066
0.039999999 0.055711526 0.035399467 0.54846609 0 0.33897066
0.039999999 0.058318883 0.035403911 0.54846609 0 0.33897066
0.039999999 0.060928449 0.03540856 0.54846609 0 0.33897066
0.039999999 0.063540332 0.035413418 0.54846609 0 0.33897066
0.039999999 0.066154622 0.035418481 0.54846609 0 0.33897066
0.039999999 0.068771422 0.035423748 0.54846609 0 0.33897066
0.039999999 0.071390845 0.035429224 0.54846609 0 0.33897066
0.039999999 0.074012987 0.035434909 0.54846609 0 0.33897066
0.039999999 0.076637946 0.035440803 0.54846609 0 0.33897066
0.039999999 0.079265833 0.035446905 0.54846609 0 0.33897066
0.039999999 0.0012953304 0.032335427 0.54846609 0 0.33897066
0.039999999 0.0038860398 0.032335572 0.54846609 0 0.33897066
0.039999999 0.0064768959 0.032335859 0.54846609 0 0.33897066
0.039999999 0.0090679964 0.032336291 0.54846609 0 0.33897066
0.039999999 0.011659439 0.032336868 0.54846609 0 0.33897066
0.039999999 0.01425132 0.032337587 0.54846609 0 0.33897066
0.039999999 0.01684374 0.032338452 0.54846609 0 0.33897066
0.039999999 0.019436793 0.032339461 0.54846609 0 0.33897066
0.039999999 0.022030583 0.032340612 0.54846609 0 0.33897066
0.039999999 0.024625203 0.032341912 0.54846609 0 0.33897066
0.039999999 0.027220752 0.032343354 0.54846609 0 0.33897066
0.039999999 0.02981733 0.032344941 0.54846609 0 0.33897066
0.039999999 0.032415032 0.032346673 0.54846609 0 0.33897066
0.039999999 0.035013963 0.032348547 0.54846609 0 0.33897066
0.039999999 0.037614219 0.03235057 0.54846609 0 0.33897066
0.039999999 0.040215898 0.032352738 0.54846609 0 0.33897066
0.039999999 0.042819098 0.032355051 0.54846609 0 0.33897066
0.039999999 0.045423921 0.03235751 0.54846609 0 0.33897066
0.039999999 0.048030466 0.032360114 0.54846609 0 0.33897066
0.039999999 0.050638836 0.032362867 0.54846609 0 0.33897066
0.039999999 0.053249124 0.032365765 0.54846609 0 0.33897066
0.039999999 0.05586144 0.032368809 0.54846609 0 0.33897066
0.039999999 0.058475874 0.032372002 0.54846609 0 0.33897066
0.039999999 0.061092541 0.032375343 0.54846609 0 0.33897066
0.039999999 0.063711531 0.03237883 0.54846609 0 0.33897066
0.039999999 0.066332951 0.032382462 0.54846609 0 0.33897066
0.039999999 0.068956897 0.032386247 0.54846609 0 0.33897066
0.039999999 0.071583487 0.032390181 0.54846609 0 0.33897066
0.039999999 0.074212804 0.032394264 0.54846609 0 0.33897066
0.039999999 0.076844968 0.032398496 0.54846609 0 0.33897066
0.039999999 0.079480074 0.032402877 0.54846609 0 0.33897066
0.039999999 0.0012988097 0.029301954 0.54846609 0 0.33897066
0.039999999 0.0038964781 0.02930204 0.54846609 0 0.33897066
0.039999999 0.0064942939 0.029302215 0.54846609 0 0.33897066
0.039999999 0.0090923561 0.029302474 0.54846609 0 0.33897066
0.039999999 0.011690762 0.029302822 0.54846609 0 0.33897066
0.039999999 0.01428961 0.029303256 0.54846609 0 0.33897066
0.039999999 0.016889 0.029303778 0.54846609 0 0.33897066
0.039999999 0.019489029 0.029304387 0.54846609 0 0.33897066
0.039999999 0.022089798 0.029305082 0.54846609 0 0.33897066
0.039999999 0.024691403 0.029305866 0.54846609 0 0.33897066
0.039999999 0.027293945 0.029306736 0.54846609 0 0.33897066
0.039999999 0.02989752 0.029307691 0.54846609 0 0.33897066
0.039999999 0.03250223 0.029308736 0.54846609 0 0.33897066
0.039999999 0.035108175 0.029309869 0.54846609 0 0.33897066
0.039999999 0.037715454 0.029311089 0.54846609 0 0.33897066
0.039999999 0.040324163 0.029312396 0.54846609 0 0.33897066
0.039999999 0.042934407 0.029313792 0.54846609 0 0.33897066
0.039999999 0.045546286 0.029315274 0.54846609 0 0.33897066
0.039999999 0.048159897 0.029316846 0.54846609 0 0.33897066
0.039999999 0.050775342 0.029318506 0.54846609 0 0.33897066
0.039999999 0.053392723 0.029320255 0.54846609 0 0.33897066
0.039999999 0.056012142 0.029322091 0.54846609 0 0.33897066
0.039999999 0.0586337 0.029324017 0.54846609 0 0.33897066
0.039999999 0.061257496 0.029326031 0.54846609 0 0.33897066
0.039999999 0.06388364 0.029328134 0.54846609 0 0.33897066
0.039999999 0.066512227 0.029330328 0.54846609 0 0.33897066
0.039999999 0.069143362 0.02933261 0.54846609 0 0.33897066
0.039999999 0.07177715 0.029334983 0.54846609 0 0.33897066
0.039999999 0.074413687 0.029337445 0.54846609 0 0.33897066
0.039999999 0.077053092 0.029339997 0.54846609 0 0.33897066
0.039999999 0.079695456 0.02934264 0.54846609 0 0.33897066
0.039999999 0.0013023075 0.026252316 0.54846609 0 0.33897066
0.039999999 0.0039069718 0.026252344 0.54846609 0 0.33897066
0.039999999 0.0065117851 0.026252404 0.54846609 0 0.33897066
0.039999999 0.0091168452 0.02625249 0.54846609 0 0.33897066
0.039999999 0.011722253 0.026252607 0.54846609 0 0.33897066
0.039999999 0.014328105 0.026252752 0.54846609 0 0.33897066
0.039999999 0.016934503 0.026252927 0.54846609 0 0.33897066
0.039999999 0.019541543 0.02625313 0.54846609 0 0.33897066
0.039999999 0.022149328 0.026253365 0.54846609 0 0.33897066
0.039999999 0.024757957 0.026253626 0.54846609 0 0.33897066
0.039999999 0.027367527 0.026253918 0.54846609 0 0.33897066
0.039999999 0.029978139 0.026254239 0.54846609 0 0.33897066
0.039999999 0.032589894 0.026254589 0.54846609 0 0.33897066
0.039999999 0.035202891 0.026254969 0.54846609 0 0.33897066
0.039999999 0.037817229 0.026255377 0.54846609 0 0.33897066
0.039999999 0.040433008 0.026255816 0.54846609 0 0.33897066
0.039999999 0.043050334 0.026256284 0.54846609 0 0.33897066
0.039999999 0.045669306 0.026256779 0.54846609 0 0.33897066
0.039999999 0.048290022 0.026257306 0.54846609 0 0.33897066
0.039999999 0.050912581 0.026257863 0.54846609 0 0.33897066
0.039999999 0.053537093 0.026258448 0.54846609 0 0.33897066
0.039999999 0.056163654 0.026259065 0.54846609 0 0.33897066
0.039999999 0.058792371 0.026259709 0.54846609 0 0.33897066
0.039999999 0.061423343 0.026260385 0.54846609 0 0.33897066
0.039999999 0.064056672 0.026261089 0.54846609 0 0.33897066
0.039999999 0.066692464 0.026261825 0.54846609 0 0.33897066
0.039999999 0.069330819 0.026262589 0.54846609 0 0.33897066
0.039999999 0.071971849 0.026263384 0.54846609 0 0.33897066
0.039999999 0.07461565 0.026264209 0.54846609 0 0.33897066
0.039999999 0.077262335 0.026265066 0.54846609 0 0.33897066
0.039999999 0.079911999 0.026265951 0.54846609 0 0.33897066
0.039999999 0.0013058241 0.023186266 0.54846609 0 0.33897066
0.039999999 0.0039175223 0.023186237 0.54846609 0 0.33897066
0.039999999 0.0065293699 0.023186179 0.54846609 0 0.33897066
0.039999999 0.0091414666 0.023186089 0.54846609 0 0.33897066
0.039999999 0.011753912 0.023185974 0.54846609 0 0.33897066
0.039999999 0.014366806 0.023185827 0.54846609 0 0.33897066
0.039999999 0.016980249 0.023185652 0.54846609 0 0.33897066
0.039999999 0.019594342 0.023185447 0.54846609 0 0.33897066
0.039999999 0.022209181 0.023185212 0.54846609 0 0.33897066
0.039999999 0.024824869 0.023184948 0.54846609 0 0.33897066
0.039999999 0.027441505 0.023184655 0.54846609 0 0.33897066
0.039999999 0.030059192 0.023184333 0.54846609 0 0.33897066
0.039999999 0.032678027 0.023183981 0.54846609 0 0.33897066
0.039999999 0.035298113 0.023183599 0.54846609 0 0.33897066
0.039999999 0.037919551 0.023183187 0.54846609 0 0.33897066
0.039999999 0.040542442 0.023182748 0.54846609 0 0.33897066
0.039999999 0.043166887 0.023182277 0.54846609 0 0.33897066
0.039999999 0.045792989 0.023181777 0.54846609 0 0.33897066
0.039999999 0.048420846 0.023181248 0.54846609 0 0.33897066
0.039999999 0.051050562 0.023180688 0.54846609 0 0.33897066
0.039999999 0.053682242 0.023180099 0.54846609 0 0.33897066
0.039999999 0.056315985 0.023179481 0.54846609 0 0.33897066
0.039999999 0.058951899 0.023178833 0.54846609 0 0.33897066
0.039999999 0.061590083 0.023178153 0.54846609 0 0.33897066
0.039999999 0.064230636 0.023177445 0.54846609 0 0.33897066
0.039999999 0.066873677 0.023176705 0.54846609 0 0.33897066
0.039999999 0.069519296 0.023175936 0.54846609 0 0.33897066
0.039999999 0.072167605 0.023175137 0.54846609 0 0.33897066
0.039999999 0.074818708 0.023174306 0.54846609 0 0.33897066
0.039999999 0.077472709 0.023173446 0.54846609 0 0.33897066
0.039999999 0.0013093599 0.020103553 0.54846609 0 0.33897066
0.039999999 0.00392813 0.020103466 0.54846609 0 0.33897066
0.039999999 0.0065470506 0.020103289 0.54846609 0 0.33897066
0.039999999 0.0091662221 0.020103024 0.54846609 0 0.33897066
0.039999999 0.011785745 0.02010267 0.54846609 0 0.33897066
0.039999999 0.014405719 0.020102229 0.54846609 0 0.33897066
0.039999999 0.017026246 0.0201017 0.54846609 0 0.33897066
0.039999999 0.019647425 0.020101082 0.54846609 0 0.33897066
0.039999999 0.022269357 0.020100374 0.54846609 0 0.33897066
0.039999999 0.024892144 0.020099578 0.54846609 0 0.33897066
0.039999999 0.027515886 0.020098694 0.54846609 0 0.33897066
0.039999999 0.030140685 0.020097721 0.54846609 0 0.33897066
0.039999999 0.03276664 0.02009666 0.54846609 0 0.33897066
0.039999999 0.035393856 0.020095509 0.54846609 0 0.33897066
0.039999999 0.038022432 0.02009427 0.54846609 0 0.33897066
0.039999999 0.040652473 0.02009294 0.54846609 0 0.33897066
0.039999999 0.043284073 0.020091522 0.54846609 0 0.33897066
0.039999999 0.045917343 0.020090014 0.54846609 0 0.33897066
0.039999999 0.048552383 0.020088417 0.54846609 0 0.33897066
0.039999999 0.051189296 0.02008673 0.54846609 0 0.33897066
0.039999999 0.053828184 0.020084953 0.54846609 0 0.33897066
0.039999999 0.05646915 0.020083087 0.54846609 0 0.33897066
0.039999999 0.059112296 0.020081129 0.54846609 0 0.33897066
0.039999999 0.061757732 0.020079082 0.54846609 0 0.33897066
0.039999999 0.06440556 0.020076944 0.54846609 0 0.33897066
0.039999999 0.067055881 0.020074716 0.54846609 0 0.33897066
0.039999999 0.069708802 0.020072395 0.54846609 0 0.33897066
0.039999999 0.072364435 0.020069983 0.54846609 0 0.33897066
0.039999999 0.075022876 0.020067481 0.54846609 0 0.33897066
0.039999999 0.077684239 0.020064887 0.54846609 0 0.33897066
0.039999999 0.0013129151 0.017003924 0.54846609 0 0.33897066
0.039999999 0.003938796 0.017003777 0.54846609 0 0.33897066
0.039999999 0.0065648281 0.01700348 0.54846609 0 0.33897066
0.039999999 0.0091911126 0.017003037 0.54846609 0 0.33897066
0.039999999 0.011817751 0.017002445 0.54846609 0 0.33897066
0.039999999 0.014444845 0.017001705 0.54846609 0 0.33897066
0.039999999 0.017072493 0.017000817 0.54846609 0 0.33897066
0.039999999 0.019700799 0.016999781 0.54846609 0 0.33897066
0.039999999 0.022329865 0.016998596 0.54846609 0 0.33897066
0.039999999 0.02495979 0.016997263 0.54846609 0 0.33897066
0.039999999 0.027590677 0.01699578 0.54846609 0 0.33897066
0.039999999 0.030222626 0.01699415 0.54846609 0 0.33897066
0.039999999 0.032855742 0.016992372 0.54846609 0 0.33897066
0.039999999 0.035490125 0.016990444 0.54846609 0 0.33897066
0.039999999 0.03812588 0.016988365 0.54846609 0 0.33897066
0.039999999 0.040763106 0.016986139 0.54846609 0 0.33897066
0.039999999 0.043401908 0.016983762 0.54846609 0 0.33897066
0.039999999 0.046042386 0.016981237 0.54846609 0 0.33897066
0.039999999 0.048684645 0.01697856 0.54846609 0 0.33897066
0.039999999 0.051328793 0.016975733 0.54846609 0 0.33897066
0.039999999 0.053974926 0.016972754 0.54846609 0 0.33897066
0.039999999 0.056623157 0.016969627 0.54846609 0 0.33897066
0.039999999 0.059273582 0.016966347 0.54846609 0 0.33897066
0.039999999 0.061926309 0.016962916 0.54846609 0 0.33897066
0.039999999 0.064581446 0.016959332 0.54846609 0 0.33897066
0.039999999 0.067239091 0.016955597 0.54846609 0 0.33897066
0.039999999 0.069899358 0.016951708 0.54846609 0 0.33897066
0.039999999 0.072562352 0.016947668 0.54846609 0 0.33897066
0.039999999 0.075228177 0.016943473 0.54846609 0 0.33897066
0.039999999 0.077896938 0.016939126 0.54846609 0 0.33897066
0.039999999 0.00131649 0.013887119 0.54846609 0 0.33897066
0.039999999 0.0039495206 0.013886911 0.54846609 0 0.33897066
0.039999999 0.0065827044 0.013886495 0.54846609 0 0.33897066
0.039999999 0.0092161419 0.01388587 0.54846609 0 0.33897066
0.039999999 0.011849935 0.013885037 0.54846609 0 0.33897066
0.039999999 0.014484187 0.013883995 0.54846609 0 0.33897066
0.039999999 0.017118998 0.013882745 0.54846609 0 0.33897066
0.039999999 0.019754471 0.013881287 0.54846609 0 0.33897066
0.039999999 0.022390708 0.013879619 0.54846609 0 0.33897066
0.039999999 0.025027812 0.013877742 0.54846609 0 0.33897066
0.039999999 0.027665881 0.013875657 0.54846609 0 0.33897066
0.039999999 0.030305024 0.013873361 0.54846609 0 0.33897066
0.039999999 0.032945339 0.013870857 0.54846609 0 0.33897066
0.039999999 0.035586931 0.013868142 0.54846609 0 0.33897066
0.039999999 0.038229901 0.013865218 0.54846609 0 0.33897066
0.039999999 0.040874355 0.013862083 0.54846609 0 0.33897066
0.039999999 0.043520395 0.013858737 0.54846609 0 0.33897066
0.039999999 0.046168122 0.013855181 0.54846609 0 0.33897066
0.039999999 0.048817646 0.013851414 0.54846609 0 0.33897066
0.039999999 0.051469065 0.013847434 0.54846609 0 0.33897066
0.039999999 0.054122489 0.013843242 0.54846609 0 0.33897066
0.039999999 0.056778017 0.013838838 0.54846609 0 0.33897066
0.039999999 0.059435762 0.013834221 0.54846609 0 0.33897066
0.039999999 0.062095825 0.013829391 0.54846609 0 0.33897066
0.039999999 0.064758308 0.013824346 0.54846609 0 0.33897066
0.039999999 0.067423321 0.013819088 0.54846609 0 0.33897066
0.039999999 0.070090972 0.013813615 0.54846609 0 0.33897066
0.039999999 0.072761372 0.013807926 0.54846609 0 0.33897066
0.039999999 0.075434618 0.013802022 0.54846609 0 0.33897066
0.039999999 0.078110829 0.013795901 0.54846609 0 0.33897066
0.039999999 0.0013200849 0.010752876 0.54846609 0 0.33897066
0.039999999 0.0039603058 0.010752607 0.54846609 0 0.33897066
0.039999999 0.0066006803 0.010752069 0.54846609 0 0.33897066
0.039999999 0.0092413109 0.01075126 0.54846609 0 0.33897066
0.039999999 0.0118823 0.010750184 0.54846609 0 0.33897066
0.039999999 0.01452375 0.010748837 0.54846609 0 0.33897066
0.039999999 0.017165763 0.01074722 0.54846609 0 0.33897066
0.039999999 0.019808443 0.010745334 0.54846609 0 0.33897066
0.039999999 0.022451892 0.010743179 0.54846609 0 0.33897066
0.039999999 0.025096212 0.010740753 0.54846609 0 0.33897066
0.039999999 0.027741509 0.010738056 0.54846609 0 0.33897066
0.039999999 0.030387882 0.01073509 0.54846609 0 0.33897066
0.039999999 0.033035439 0.010731852 0.54846609 0 0.33897066
0.039999999 0.035684276 0.010728342 0.54846609 0 0.33897066
0.039999999 0.038334504 0.010724561 0.54846609 0 0.33897066
0.039999999 0.040986229 0.010720508 0.54846609 0 0.33897066
0.039999999 0.043639544 0.010716183 0.54846609 0 0.33897066
0.039999999 0.046294566 0.010711585 0.54846609 0 0.33897066
0.039999999 0.048951391 0.010706714 0.54846609 0 0.33897066
0.039999999 0.051610127 0.01070157 0.54846609 0 0.33897066
0.039999999 0.054270878 0.01069615 0.54846609 0 0.33897066
0.039999999 0.056933753 0.010690457 0.54846609 0 0.33897066
0.039999999 0.059598856 0.010684488 0.54846609 0 0.33897066
0.039999999 0.06226629 0.010678243 0.54846609 0 0.33897066
0.039999999 0.064936168 0.010671722 0.54846609 0 0.33897066
0.039999999 0.067608595 0.010664923 0.54846609 0 0.33897066
0.039999999 0.070283674 0.010657847 0.54846609 0 0.33897066
0.039999999 0.072961517 0.010650492 0.54846609 0 0.33897066
0.039999999 0.075642228 0.010642859 0.54846609 0 0.33897066
0.039999999 0.07832592 0.010634945 0.54846609 0 0.33897066
0.039999999 0.0013237001 0.0076009273 0.54846609 0 0.33897066
0.039999999 0.0039711515 0.0076005966 0.54846609 0 0.33897066
0.039999999 0.0066187582 0.0075999345 0.54846609 0 0.33897066
0.039999999 0.0092666224 0.0075989421 0.54846609 0 0.33897066
0.039999999 0.011914847 0.0075976183 0.54846609 0 0.33897066
0.039999999 0.014563536 0.0075959633 0.54846609 0 0.33897066
0.039999999 0.017212793 0.0075939768 0.54846609 0 0.33897066
0.039999999 0.019862721 0.0075916592 0.54846609 0 0.33897066
0.039999999 0.022513421 0.0075890096 0.54846609 0 0.33897066
0.039999999 0.025165001 0.007586028 0.54846609 0 0.33897066
0.039999999 0.027817562 0.0075827138 0.54846609 0 0.33897066
0.039999999 0.030471208 0.0075790673 0.54846609 0 0.33897066
0.039999999 0.033126045 0.0075750877 0.54846609 0 0.33897066
0.039999999 0.035782173 0.0075707748 0.54846609 0 0.33897066
0.039999999 0.038439702 0.0075661284 0.54846609 0 0.33897066
0.039999999 0.041098733 0.0075611472 0.54846609 0 0.33897066
0.039999999 0.043759372 0.0075558317 0.54846609 0 0.33897066
0.039999999 0.046421722 0.0075501809 0.54846609 0 0.33897066
0.039999999 0.049085893 0.0075441939 0.54846609 0 0.33897066
0.039999999 0.051751986 0.0075378707 0.54846609 0 0.33897066
0.039999999 0.05442011 0.0075312108 0.54846609 0 0.33897066
0.039999999 0.057090372 0.0075242128 0.54846609 0 0.33897066
0.039999999 0.059762873 0.0075168768 0.54846609 0 0.33897066
0.039999999 0.062437728 0.0075092018 0.54846609 0 0.33897066
0.039999999 0.065115035 0.0075011868 0.54846609 0 0.33897066
0.039999999 0.067794912 0.0074928314 0.54846609 0 0.33897066
0.039999999 0.070477463 0.0074841343 0.54846609 0 0.33897066
0.039999999 0.073162794 0.0074750949 0.54846609 0 0.33897066
0.039999999 0.075851016 0.0074657127 0.54846609 0 0.33897066
0.039999999 0.07854224 0.007455986 0.54846609 0 0.33897066
0.039999999 0.0013273358 0.0044310014 0.54846609 0 0.33897066
0.039999999 0.0039820597 0.0044306084 0.54846609 0 0.33897066
0.039999999 0.006636939 0.0044298219 0.54846609 0 0.33897066
0.039999999 0.0092920773 0.0044286423 0.54846609 0 0.33897066
0.039999999 0.01194758 0.0044270689 0.54846609 0 0.33897066
0.039999999 0.01460355 0.0044251024 0.54846609 0 0.33897066
0.039999999 0.01726009 0.0044227415 0.54846609 0 0.33897066
0.039999999 0.019917307 0.0044199871 0.54846609 0 0.33897066
0.039999999 0.022575302 0.0044168383 0.54846609 0 0.33897066
0.039999999 0.025234181 0.0044132951 0.54846609 0 0.33897066
0.039999999 0.02789405 0.0044093565 0.54846609 0 0.33897066
0.039999999 0.03055501 0.0044050231 0.54846609 0 0.33897066
0.039999999 0.033217169 0.0044002933 0.54846609 0 0.33897066
0.039999999 0.035880629 0.0043951678 0.54846609 0 0.33897066
0.039999999 0.0385455 0.0043896455 0.54846609 0 0.33897066
0.039999999 0.041211881 0.004383726 0.54846609 0 0.33897066
0.039999999 0.043879882 0.0043774089 0.54846609 0 0.33897066
0.039999999 0.046549607 0.0043706931 0.54846609 0 0.33897066
0.039999999 0.049221165 0.0043635783 0.54846609 0 0.33897066
0.039999999 0.051894657 0.0043560639 0.54846609 0 0.33897066
0.039999999 0.054570198 0.0043481486 0.54846609 0 0.33897066
0.039999999 0.057247885 0.0043398323 0.54846609 0 0.33897066
0.039999999 0.059927832 0.0043311138 0.54846609 0 0.33897066
0.039999999 0.062610149 0.0043219924 0.54846609 0 0.33897066
0.039999999 0.065294936 0.0043124668 0.54846609 0 0.33897066
0.039999999 0.067982309 0.0043025371 0.54846609 0 0.33897066
0.039999999 0.07067237 0.0042922008 0.54846609 0 0.33897066
0.039999999 0.073365234 0.004281458 0.54846609 0 0.33897066
0.039999999 0.07606101 0.0042703077 0.54846609 0 0.33897066
0.039999999 0.078759804 0.0042587481 0.54846609 0 0.33897066
0.039999999 0.0013309927 0.0012428227 0.54846609 0 0.33897066
0.039999999 0.0039930302 0.0012423665 0.54846609 0 0.33897066
0.039999999 0.0066552241 0.0012414539 0.54846609 0 0.33897066
0.039999999 0.0093176803 0.0012400851 0.54846609 0 0.33897066
0.039999999 0.011980501 0.0012382597 0.54846609 0 0.33897066
0.039999999 0.014643793 0.0012359776 0.54846609 0 0.33897066
0.039999999 0.01730766 0.0012332386 0.54846609 0 0.33897066
0.039999999 0.019972207 0.0012300424 0.54846609 0 0.33897066
0.039999999 0.02263754 0.0012263888 0.54846609 0 0.33897066
0.039999999 0.025303762 0.0012222774 0.54846609 0 0.33897066
0.039999999 0.027970979 0.0012177076 0.54846609 0 0.33897066
0.039999999 0.030639296 0.0012126792 0.54846609 0 0.33897066
0.039999999 0.033308819 0.0012071916 0.54846609 0 0.33897066
0.039999999 0.035979655 0.0012012443 0.54846609 0 0.33897066
0.039999999 0.038651906 0.0011948367 0.54846609 0 0.33897066
0.039999999 0.041325685 0.0011879682 0.54846609 0 0.33897066
0.039999999 0.044001091 0.001180638 0.54846609 0 0.33897066
0.039999999 0.046678234 0.0011728455 0.54846609 0 0.33897066
0.039999999 0.049357217 0.00116459 0.54846609 0 0.33897066
0.039999999 0.052038155 0.0011558705 0.54846609 0 0.33897066
0.039999999 0.054721151 0.0011466863 0.54846609 0 0.33897066
0.039999999 0.05740631 0.0011370365 0.54846609 0 0.33897066
0.039999999 0.060093746 0.00112692 0.54846609 0 0.33897066
0.039999999 0.062783562 0.0011163359 0.54846609 0 0.33897066
0.039999999 0.065475874 0.001105283 0.54846609 0 0.33897066
0.039999999 0.068170786 0.0010937606 0.54846609 0 0.33897066
0.039999999 0.070868403 0.0010817671 0.54846609 0 0.33897066
0.039999999 0.073568843 0.0010693017 0.54846609 0 0.33897066
0.039999999 0.076272212 0.0010563629 0.54846609 0 0.33897066
0.039999999 0.078978628 0.0010429495 0.54846609 0 0.33897066
