# .PCD v0.7 - Point Cloud Data file format
VERSION 0.7
FIELDS x y z vp_x vp_y vp_z
SIZE 4 4 4 4 4 4
TYPE F F F F F F
COUNT 1 1 1 1 1 1
WIDTH 673
HEIGHT 1
VIEWPOINT 0 0 0 1 0 0 0
POINTS 673
DATA ascii
0.033727728 0.073944427 0.07 -0.54846609 0 0.33897066
0.033636831 0.071121812 0.07 -0.54846609 0 0.33897066
0.033549517 0.068302952 0.07 -0.54846609 0 0.33897066
0.03346578 0.06548769 0.07 -0.54846609 0 0.33897066
0.033385612 0.062675878 0.07 -0.54846609 0 0.33897066
0.033309001 0.059867356 0.07 -0.54846609 0 0.33897066
0.033235937 0.057061981 0.07 -0.54846609 0 0.33897066
0.033166409 0.054259602 0.07 -0.54846609 0 0.33897066
0.033100411 0.051460061 0.07 -0.54846609 0 0.33897066
0.033037934 0.048663221 0.07 -0.54846609 0 0.33897066
0.032978971 0.045868922 0.07 -0.54846609 0 0.33897066
0.027164597 0.076088116 0.07 -0.54846609 0 0.33897066
0.027075177 0.073287159 0.07 -0.54846609 0 0.33897066
0.026989162 0.070490018 0.07 -0.54846609 0 0.33897066
0.026906541 0.067696556 0.07 -0.54846609 0 0.33897066
0.026827304 0.064906619 0.07 -0.54846609 0 0.33897066
0.026751442 0.062120054 0.07 -0.54846609 0 0.33897066
0.026678944 0.059336714 0.07 -0.54846609 0 0.33897066
0.026609803 0.056556456 0.07 -0.54846609 0 0.33897066
0.026544008 0.053779129 0.07 -0.54846609 0 0.33897066
0.026481552 0.051004585 0.07 -0.54846609 0 0.33897066
0.02642243 0.048232678 0.07 -0.54846609 0 0.33897066
0.026366631 0.045463264 0.07 -0.54846609 0 0.33897066
0.026314149 0.0426962 0.07 -0.54846609 0 0.33897066
0.020718656 0.078197777 0.07 -0.54846609 0 0.33897066
0.02063092 0.075418003 0.07 -0.54846609 0 0.33897066
0.02054641 0.072642118 0.07 -0.54846609 0 0.33897066
0.020465119 0.069869973 0.07 -0.54846609 0 0.33897066
0.020387033 0.067101434 0.07 -0.54846609 0 0.33897066
0.020312147 0.064336337 0.07 -0.54846609 0 0.33897066
0.020240447 0.061574552 0.07 -0.54846609 0 0.33897066
0.020171927 0.058815923 0.07 -0.54846609 0 0.33897066
0.020106578 0.056060307 0.07 -0.54846609 0 0.33897066
0.020044394 0.053307563 0.07 -0.54846609 0 0.33897066
0.019985365 0.050557546 0.07 -0.54846609 0 0.33897066
0.019929484 0.047810111 0.07 -0.54846609 0 0.33897066
0.019876743 0.04506512 0.07 -0.54846609 0 0.33897066
0.019827139 0.042322427 0.07 -0.54846609 0 0.33897066
0.014300331 0.077515312 0.07 -0.54846609 0 0.33897066
0.014217526 0.074760221 0.07 -0.54846609 0 0.33897066
0.014137765 0.072008945 0.07 -0.54846609 0 0.33897066
0.014061041 0.069261335 0.07 -0.54846609 0 0.33897066
0.013987343 0.066517241 0.07 -0.54846609 0 0.33897066
0.013916662 0.063776538 0.07 -0.54846609 0 0.33897066
0.013848989 0.061039064 0.07 -0.54846609 0 0.33897066
0.013784316 0.058304686 0.07 -0.54846609 0 0.33897066
0.013722637 0.055573259 0.07 -0.54846609 0 0.33897066
0.013663943 0.052844644 0.07 -0.54846609 0 0.33897066
0.013608227 0.050118703 0.07 -0.54846609 0 0.33897066
0.013555481 0.047395289 0.07 -0.54846609 0 0.33897066
0.013505701 0.044674266 0.07 -0.54846609 0 0.33897066
0.01345888 0.041955497 0.07 -0.54846609 0 0.33897066
0.0096366052 0.077071436 0.069208413 -0.54846609 0 0.33897066
0.0079208845 0.07411442 0.07 -0.54846609 0 0.33897066
0.0078457193 0.071387291 0.07 -0.54846609 0 0.33897066
0.0077734129 0.068663754 0.07 -0.54846609 0 0.33897066
0.0077039581 0.065943673 0.07 -0.54846609 0 0.33897066
0.0076373462 0.063226901 0.07 -0.54846609 0 0.33897066
0.0075735687 0.060513299 0.07 -0.54846609 0 0.33897066
0.0075126188 0.057802726 0.07 -0.54846609 0 0.33897066
0.0074544884 0.055095047 0.07 -0.54846609 0 0.33897066
0.0073991711 0.052390121 0.07 -0.54846609 0 0.33897066
0.0073466599 0.04968781 0.07 -0.54846609 0 0.33897066
0.0072969492 0.046987981 0.07 -0.54846609 0 0.33897066
0.0076262243 0.044320472 0.069817923 -0.54846609 0 0.33897066
0.011521354 0.041918244 0.067911126 -0.54846609 0 0.33897066
0.010066974 0.077330366 0.065964565 -0.54846609 0 0.33897066
0.0057579093 0.074017152 0.068034649 -0.54846609 0 0.33897066
0.0033230998 0.070989899 0.069190241 -0.54846609 0 0.33897066
0.0017269639 0.068092778 0.069937356 -0.54846609 0 0.33897066
0.0015335049 0.065380409 0.07 -0.54846609 0 0.33897066
0.0014708304 0.062687136 0.07 -0.54846609 0 0.33897066
0.0014108225 0.05999697 0.07 -0.54846609 0 0.33897066
0.0013534742 0.057309773 0.07 -0.54846609 0 0.33897066
0.0012987787 0.054625411 0.07 -0.54846609 0 0.33897066
0.0016955147 0.05198615 0.069780409 -0.54846609 0 0.33897066
0.0030386229 0.04942967 0.069098979 -0.54846609 0 0.33897066
0.0049183397 0.046907343 0.068156123 -0.54846609 0 0.33897066
0.0074904319 0.044423703 0.06687554 -0.54846609 0 0.33897066
0.011320747 0.042011056 0.064980216 -0.54846609 0 0.33897066
0.010499871 0.077590823 0.062701657 -0.54846609 0 0.33897066
0.0059935888 0.074240394 0.064894162 -0.54846609 0 0.33897066
0.0034596287 0.071191266 0.066113427 -0.54846609 0 0.33897066
0.0018008059 0.068278119 0.06690155 -0.54846609 0 0.33897066
0.00079007994 0.065460891 0.067370646 -0.54846609 0 0.33897066
0.00020613924 0.062704645 0.06763003 -0.54846609 0 0.33897066
1.2584188e-07 0.059997678 0.067703806 -0.54846609 0 0.33897066
0.00019928199 0.05733718 0.06757842 -0.54846609 0 0.33897066
0.00074235041 0.054711014 0.06728413 -0.54846609 0 0.33897066
0.0016440012 0.052115444 0.066813625 -0.54846609 0 0.33897066
0.0029571196 0.049549878 0.066140696 -0.54846609 0 0.33897066
0.0048224931 0.047020182 0.065195635 -0.54846609 0 0.33897066
0.0073541231 0.04452733 0.063921966 -0.54846609 0 0.33897066
0.011119422 0.0421042 0.062038831 -0.54846609 0 0.33897066
0.020332789 0.040029299 0.057460323 -0.54846609 0 0.33897066
0.01106577 0.07787098 0.05935422 -0.54846609 0 0.33897066
0.0062304991 0.074464798 0.061737273 -0.54846609 0 0.33897066
0.0035968213 0.071393609 0.063021645 -0.54846609 0 0.33897066
0.001884371 0.068465479 0.063846998 -0.54846609 0 0.33897066
0.00083878171 0.065636292 0.064340331 -0.54846609 0 0.33897066
0.00023326927 0.06287013 0.064614922 -0.54846609 0 0.33897066
8.3431014e-06 0.060153879 0.064700454 -0.54846609 0 0.33897066
0.00017537085 0.057483029 0.064591177 -0.54846609 0 0.33897066
0.0007041209 0.054848704 0.064302154 -0.54846609 0 0.33897066
0.0015922734 0.052245274 0.063834503 -0.54846609 0 0.33897066
0.0028752866 0.049670573 0.063170433 -0.54846609 0 0.33897066
0.0047262637 0.047133472 0.062223315 -0.54846609 0 0.33897066
0.0072172889 0.044631351 0.060957022 -0.54846609 0 0.33897066
0.010917369 0.042197678 0.059086803 -0.54846609 0 0.33897066
0.018897923 0.040031396 0.055075698 -0.54846609 0 0.33897066
0.011692445 0.078160912 0.055956308 -0.54846609 0 0.33897066
0.0064686593 0.074690387 0.058563735 -0.54846609 0 0.33897066
0.0037346878 0.07159695 0.059914682 -0.54846609 0 0.33897066
0.0019852933 0.068655834 0.060769469 -0.54846609 0 0.33897066
0.00088770676 0.065812498 0.061296124 -0.54846609 0 0.33897066
0.00026052148 0.06303636 0.061586242 -0.54846609 0 0.33897066
1.6851094e-05 0.0603108 0.06168367 -0.54846609 0 0.33897066
0.00015135661 0.057629507 0.061591052 -0.54846609 0 0.33897066
0.00066572858 0.054986976 0.061307482 -0.54846609 0 0.33897066
0.001540328 0.052375652 0.060842842 -0.54846609 0 0.33897066
0.0028076314 0.049793072 0.060180664 -0.54846609 0 0.33897066
0.004629645 0.04724722 0.059238978 -0.54846609 0 0.33897066
0.0070799226 0.044735778 0.05798053 -0.54846609 0 0.33897066
0.010714576 0.042291503 0.056123968 -0.54846609 0 0.33897066
0.018321255 0.04009413 0.052259058 -0.54846609 0 0.33897066
0.012323332 0.078452796 0.052535556 -0.54846609 0 0.33897066
0.0067080879 0.074917182 0.055373296 -0.54846609 0 0.33897066
0.0038732383 0.07180129 0.056792304 -0.54846609 0 0.33897066
0.0020867025 0.068847112 0.05767709 -0.54846609 0 0.33897066
0.00093685847 0.065989524 0.05823781 -0.54846609 0 0.33897066
0.00028789774 0.063203342 0.058543768 -0.54846609 0 0.33897066
2.5397214e-05 0.060468428 0.058653366 -0.54846609 0 0.33897066
0.00012723767 0.057776626 0.058577847 -0.54846609 0 0.33897066
0.00062717102 0.055125847 0.058299914 -0.54846609 0 0.33897066
0.0014881617 0.052506585 0.057838455 -0.54846609 0 0.33897066
0.0027422889 0.049916323 0.057177026 -0.54846609 0 0.33897066
0.0045326315 0.047361434 0.05624244 -0.54846609 0 0.33897066
0.0069620721 0.044842236 0.054982048 -0.54846609 0 0.33897066
0.01053581 0.042387553 0.053137474 -0.54846609 0 0.33897066
0.017743209 0.040157016 0.049435679 -0.54846609 0 0.33897066
0.036164459 0.038597569 0.039999999 -0.54846609 0 0.33897066
0.036135696 0.035731249 0.039999999 -0.54846609 0 0.33897066
0.036109157 0.032866601 0.039999999 -0.54846609 0 0.33897066
0.036084838 0.030003494 0.039999999 -0.54846609 0 0.33897066
0.03606274 0.027141789 0.039999999 -0.54846609 0 0.33897066
0.036042862 0.024281356 0.039999999 -0.54846609 0 0.33897066
0.036025196 0.021422056 0.039999999 -0.54846609 0 0.33897066
0.03600974 0.01856376 0.039999999 -0.54846609 0 0.33897066
0.0359965 0.015706331 0.039999999 -0.54846609 0 0.33897066
0.035985466 0.012849634 0.039999999 -0.54846609 0 0.33897066
0.035976641 0.0099935373 0.039999999 -0.54846609 0 0.33897066
0.035970025 0.0071379077 0.039999999 -0.54846609 0 0.33897066
0.03596561 0.0042826114 0.039999999 -0.54846609 0 0.33897066
0.035963405 0.0014275149 0.039999999 -0.54846609 0 0.33897066
0.013189382 0.078779042 0.048972391 -0.54846609 0 0.33897066
0.0069488045 0.075145192 0.052165691 -0.54846609 0 0.33897066
0.0040124832 0.072006665 0.053654268 -0.54846609 0 0.33897066
0.0021886064 0.069039322 0.054569632 -0.54846609 0 0.33897066
0.00098624045 0.066167384 0.055165179 -0.54846609 0 0.33897066
0.00031539996 0.0633711 0.055487301 -0.54846609 0 0.33897066
3.3982044e-05 0.060626764 0.055609334 -0.54846609 0 0.33897066
0.00011248124 0.057925392 0.05554647 -0.54846609 0 0.33897066
0.00058844563 0.055265322 0.055279259 -0.54846609 0 0.33897066
0.001435771 0.05263808 0.054821149 -0.54846609 0 0.33897066
0.0026766683 0.050040096 0.054160617 -0.54846609 0 0.33897066
0.0044352165 0.047476117 0.053233512 -0.54846609 0 0.33897066
0.0068487935 0.044949535 0.051968783 -0.54846609 0 0.33897066
0.010373401 0.042485267 0.050130695 -0.54846609 0 0.33897066
0.017163755 0.040220056 0.046605431 -0.54846609 0 0.33897066
0.029914245 0.038284022 0.039999999 -0.54846609 0 0.33897066
0.029887483 0.035441067 0.039999999 -0.54846609 0 0.33897066
0.029862789 0.032599755 0.039999999 -0.54846609 0 0.33897066
0.029840164 0.029759953 0.039999999 -0.54846609 0 0.33897066
0.029819604 0.026921526 0.039999999 -0.54846609 0 0.33897066
0.029801106 0.024084343 0.039999999 -0.54846609 0 0.33897066
0.029784668 0.021248275 0.039999999 -0.54846609 0 0.33897066
0.02977029 0.018413188 0.039999999 -0.54846609 0 0.33897066
0.029757969 0.015578951 0.039999999 -0.54846609 0 0.33897066
0.029747702 0.012745433 0.039999999 -0.54846609 0 0.33897066
0.029739492 0.0099125048 0.039999999 -0.54846609 0 0.33897066
0.029733334 0.0070800339 0.039999999 -0.54846609 0 0.33897066
0.029729228 0.0042478899 0.039999999 -0.54846609 0 0.33897066
0.029727178 0.0014159415 0.039999999 -0.54846609 0 0.33897066
0.014238765 0.079132639 0.045289658 -0.54846609 0 0.33897066
0.0072323149 0.075380072 0.048919011 -0.54846609 0 0.33897066
0.0041735587 0.072215833 0.050489321 -0.54846609 0 0.33897066
0.0022910121 0.069232479 0.051446863 -0.54846609 0 0.33897066
0.001035856 0.066346079 0.052078005 -0.54846609 0 0.33897066
0.00034303003 0.063539632 0.052416619 -0.54846609 0 0.33897066
4.2606174e-05 0.06078583 0.052551366 -0.54846609 0 0.33897066
0.00010434088 0.058075532 0.05249799 -0.54846609 0 0.33897066
0.00054954976 0.055405408 0.052245311 -0.54846609 0 0.33897066
0.0013831524 0.052770145 0.051790718 -0.54846609 0 0.33897066
0.0026107659 0.050164402 0.051131241 -0.54846609 0 0.33897066
0.0043373941 0.047591284 0.050211996 -0.54846609 0 0.33897066
0.0067350478 0.045057278 0.048943091 -0.54846609 0 0.33897066
0.010210352 0.042583369 0.047112044 -0.54846609 0 0.33897066
0.016652212 0.040288191 0.043731958 -0.54846609 0 0.33897066
0.023768829 0.037975736 0.039999999 -0.54846609 0 0.33897066
0.023744006 0.035155755 0.039999999 -0.54846609 0 0.33897066
0.023721103 0.032337382 0.039999999 -0.54846609 0 0.33897066
0.023700118 0.029520491 0.039999999 -0.54846609 0 0.33897066
0.023681046 0.02670495 0.039999999 -0.54846609 0 0.33897066
0.02366389 0.023890631 0.039999999 -0.54846609 0 0.33897066
0.023648644 0.021077402 0.039999999 -0.54846609 0 0.33897066
0.023635305 0.018265136 0.039999999 -0.54846609 0 0.33897066
0.023623876 0.015453705 0.039999999 -0.54846609 0 0.33897066
0.023614354 0.012642979 0.039999999 -0.54846609 0 0.33897066
0.023606738 0.0098328292 0.039999999 -0.54846609 0 0.33897066
0.023601027 0.0070231291 0.039999999 -0.54846609 0 0.33897066
0.02359722 0.0042137494 0.039999999 -0.54846609 0 0.33897066
0.023595316 0.0014045618 0.039999999 -0.54846609 0 0.33897066
0.016253687 0.079624094 0.04107137 -0.54846609 0 0.33897066
0.0075485948 0.07562051 0.045637585 -0.54846609 0 0.33897066
0.0043542427 0.072428554 0.047298033 -0.54846609 0 0.33897066
0.0023939277 0.069426604 0.048308555 -0.54846609 0 0.33897066
0.0011034269 0.066527776 0.048966717 -0.54846609 0 0.33897066
0.00037078996 0.063708961 0.049331509 -0.54846609 0 0.33897066
5.127021e-05 0.06094563 0.04947925 -0.54846609 0 0.33897066
9.6163392e-05 0.058226358 0.049435597 -0.54846609 0 0.33897066
0.00051048095 0.05554612 0.049197864 -0.54846609 0 0.33897066
0.0013303024 0.052902792 0.048746966 -0.54846609 0 0.33897066
0.0025445768 0.050289243 0.0480887 -0.54846609 0 0.33897066
0.0042391582 0.047706936 0.047177702 -0.54846609 0 0.33897066
0.0066208271 0.045165472 0.045904774 -0.54846609 0 0.33897066
0.010046651 0.042681858 0.044081334 -0.54846609 0 0.33897066
0.016292127 0.040367447 0.040769827 -0.54846609 0 0.33897066
0.017725373 0.037672561 0.039999999 -0.54846609 0 0.33897066
0.01770243 0.034875173 0.039999999 -0.54846609 0 0.33897066
0.017681262 0.032079361 0.039999999 -0.54846609 0 0.33897066
0.017661864 0.029285001 0.039999999 -0.54846609 0 0.33897066
0.017644238 0.026491966 0.039999999 -0.54846609 0 0.33897066
0.017628379 0.023700127 0.039999999 -0.54846609 0 0.33897066
0.017614286 0.020909362 0.039999999 -0.54846609 0 0.33897066
0.017601959 0.018119538 0.039999999 -0.54846609 0 0.33897066
0.017591396 0.015330533 0.039999999 -0.54846609 0 0.33897066
0.017582595 0.01254222 0.039999999 -0.54846609 0 0.33897066
0.017575555 0.0097544733 0.039999999 -0.54846609 0 0.33897066
0.017570276 0.0069671664 0.039999999 -0.54846609 0 0.33897066
0.017566757 0.0041801743 0.039999999 -0.54846609 0 0.33897066
0.017564997 0.0013933704 0.039999999 -0.54846609 0 0.33897066
0.012295955 0.079273671 0.039999999 -0.54846609 0 0.33897066
0.0078667104 0.075862348 0.04233712 -0.54846609 0 0.33897066
0.0045358865 0.072642401 0.044089794 -0.54846609 0 0.33897066
0.0024973603 0.069621697 0.045154467 -0.54846609 0 0.33897066
0.0011764197 0.066710979 0.045837484 -0.54846609 0 0.33897066
0.0003986817 0.063879088 0.04623175 -0.54846609 0 0.33897066
5.9974758e-05 0.061106175 0.046392769 -0.54846609 0 0.33897066
8.7948181e-05 0.058377881 0.046359085 -0.54846609 0 0.33897066
0.00047123639 0.055687465 0.046136715 -0.54846609 0 0.33897066
0.0012772176 0.05303603 0.045689683 -0.54846609 0 0.33897066
0.0024780971 0.05041464 0.045032784 -0.54846609 0 0.33897066
0.0041405018 0.047823083 0.044130433 -0.54846609 0 0.33897066
0.006506125 0.04527412 0.042853639 -0.54846609 0 0.33897066
0.0098822881 0.042780749 0.041038375 -0.54846609 0 0.33897066
0.011803889 0.040151209 0.039999999 -0.54846609 0 0.33897066
0.011781133 0.037374366 0.039999999 -0.54846609 0 0.33897066
0.011760012 0.034599196 0.039999999 -0.54846609 0 0.33897066
0.011740524 0.031825572 0.039999999 -0.54846609 0 0.33897066
0.011722669 0.029053373 0.039999999 -0.54846609 0 0.33897066
0.011706442 0.026282474 0.039999999 -0.54846609 0 0.33897066
0.011691843 0.023512749 0.039999999 -0.54846609 0 0.33897066
0.011678871 0.020744074 0.039999999 -0.54846609 0 0.33897066
0.011667523 0.017976327 0.039999999 -0.54846609 0 0.33897066
0.011657798 0.015209381 0.039999999 -0.54846609 0 0.33897066
0.011649695 0.012443113 0.039999999 -0.54846609 0 0.33897066
0.011643215 0.0096774017 0.039999999 -0.54846609 0 0.33897066
0.011638355 0.0069121211 0.039999999 -0.54846609 0 0.33897066
0.011635115 0.0041471496 0.039999999 -0.54846609 0 0.33897066
0.011633495 0.0013823626 0.039999999 -0.54846609 0 0.33897066
0.006405178 0.078647301 0.039999999 -0.54846609 0 0.33897066
0.0063630315 0.075856268 0.039999999 -0.54846609 0 0.33897066
0.0047185044 0.072857395 0.040864341 -0.54846609 0 0.33897066
0.0026013185 0.069817781 0.041984364 -0.54846609 0 0.33897066
0.0012497748 0.06689509 0.04269271 -0.54846609 0 0.33897066
0.00042670727 0.064050034 0.043117121 -0.54846609 0 0.33897066
6.8720437e-05 0.061267484 0.043291703 -0.54846609 0 0.33897066
7.9694677e-05 0.058530107 0.04326823 -0.54846609 0 0.33897066
0.00044622461 0.055830915 0.043053884 -0.54846609 0 0.33897066
0.0012238944 0.053169865 0.042618666 -0.54846609 0 0.33897066
0.0024113217 0.050540589 0.041963294 -0.54846609 0 0.33897066
0.0040484169 0.04794034 0.041066211 -0.54846609 0 0.33897066
0.0060005262 0.0453513 0.039999999 -0.54846609 0 0.33897066
0.0059766695 0.042592689 0.039999999 -0.54846609 0 0.33897066
0.0059543164 0.039835971 0.039999999 -0.54846609 0 0.33897066
0.0059334645 0.037081014 0.039999999 -0.54846609 0 0.33897066
0.0059141112 0.034327701 0.039999999 -0.54846609 0 0.33897066
0.0058962544 0.031575907 0.039999999 -0.54846609 0 0.33897066
0.005879893 0.028825507 0.039999999 -0.54846609 0 0.33897066
0.0058650239 0.026076384 0.039999999 -0.54846609 0 0.33897066
0.0058516464 0.023328412 0.039999999 -0.54846609 0 0.33897066
0.0058397595 0.020581471 0.039999999 -0.54846609 0 0.33897066
0.0058293608 0.017835438 0.039999999 -0.54846609 0 0.33897066
0.0058204494 0.015090193 0.039999999 -0.54846609 0 0.33897066
0.0058130254 0.012345614 0.039999999 -0.54846609 0 0.33897066
0.0058070868 0.009601579 0.039999999 -0.54846609 0 0.33897066
0.0058026332 0.0068579684 0.039999999 -0.54846609 0 0.33897066
0.0057996647 0.00411466 0.039999999 -0.54846609 0 0.33897066
0.0057981801 0.0013715333 0.039999999 -0.54846609 0 0.33897066
0.00060972199 0.078031063 0.039999999 -0.54846609 0 0.33897066
0.00057131267 0.075262249 0.039999999 -0.54846609 0 0.33897066
0.00053431146 0.072496772 0.039999999 -0.54846609 0 0.33897066
0.00049871427 0.069734506 0.039999999 -0.54846609 0 0.33897066
0.00046451724 0.066975325 0.039999999 -0.54846609 0 0.33897066
0.00043171676 0.064219102 0.039999999 -0.54846609 0 0.33897066
7.7507881e-05 0.06142956 0.040175829 -0.54846609 0 0.33897066
7.1402297e-05 0.058683053 0.040162813 -0.54846609 0 0.33897066
0.00034165964 0.055966932 0.039999999 -0.54846609 0 0.33897066
0.0003144113 0.0532213 0.039999999 -0.54846609 0 0.33897066
0.00028854332 0.050478011 0.039999999 -0.54846609 0 0.33897066
0.00026405291 0.047736935 0.039999999 -0.54846609 0 0.33897066
0.00024093743 0.044997957 0.039999999 -0.54846609 0 0.33897066
0.00021919444 0.042260952 0.039999999 -0.54846609 0 0.33897066
0.0001988216 0.039525799 0.039999999 -0.54846609 0 0.33897066
0.00017981672 0.036792379 0.039999999 -0.54846609 0 0.33897066
0.00016217778 0.034060571 0.039999999 -0.54846609 0 0.33897066
0.0001459029 0.03133025 0.039999999 -0.54846609 0 0.33897066
0.00013099035 0.028601302 0.039999999 -0.54846609 0 0.33897066
0.00011743853 0.025873603 0.039999999 -0.54846609 0 0.33897066
0.00010524599 0.023147034 0.039999999 -0.54846609 0 0.33897066
9.4411444e-05 0.020421477 0.039999999 -0.54846609 0 0.33897066
8.4933738e-05 0.017696813 0.039999999 -0.54846609 0 0.33897066
7.6811863e-05 0.014972919 0.039999999 -0.54846609 0 0.33897066
7.0044953e-05 0.012249679 0.039999999 -0.54846609 0 0.33897066
6.4632281e-05 0.0095269745 0.039999999 -0.54846609 0 0.33897066
6.0573286e-05 0.0068046846 0.039999999 -0.54846609 0 0.33897066
5.7867528e-05 0.0040826923 0.039999999 -0.54846609 0 0.33897066
5.651472e-05 0.0013608776 0.039999999 -0.54846609 0 0.33897066
0 0.078150377 0.03719781 -0.54846609 0 0.33897066
0 0.075382501 0.03717849 -0.54846609 0 0.33897066
1.110223e-16 0.072617404 0.037159875 -0.54846609 0 0.33897066
0 0.069854982 0.037141968 -0.54846609 0 0.33897066
0 0.067095131 0.03712476 -0.54846609 0 0.33897066
0 0.064337745 0.037108254 -0.54846609 0 0.33897066
0 0.061582722 0.037092444 -0.54846609 0 0.33897066
1.110223e-16 0.058829959 0.037077334 -0.54846609 0 0.33897066
0 0.056079354 0.037062921 -0.54846609 0 0.33897066
1.110223e-16 0.053330805 0.037049204 -0.54846609 0 0.33897066
0 0.050584204 0.03703618 -0.54846609 0 0.33897066
1.110223e-16 0.047839459 0.037023846 -0.54846609 0 0.33897066
1.110223e-16 0.045096461 0.037012205 -0.54846609 0 0.33897066
0 0.042355109 0.037001256 -0.54846609 0 0.33897066
1.110223e-16 0.039615303 0.036990993 -0.54846609 0 0.33897066
0 0.036876947 0.036981422 -0.54846609 0 0.33897066
0 0.034139935 0.036972534 -0.54846609 0 0.33897066
0 0.031404167 0.036964338 -0.54846609 0 0.33897066
1.110223e-16 0.028669544 0.036956824 -0.54846609 0 0.33897066
0 0.025935965 0.036949996 -0.54846609 0 0.33897066
1.110223e-16 0.02320333 0.036943853 -0.54846609 0 0.33897066
0 0.020471541 0.036938395 -0.54846609 0 0.33897066
0 0.017740496 0.03693362 -0.54846609 0 0.33897066
0 0.015010097 0.036929525 -0.54846609 0 0.33897066
0 0.012280244 0.036926117 -0.54846609 0 0.33897066
0 0.0095508378 0.036923386 -0.54846609 0 0.33897066
1.110223e-16 0.0068217791 0.036921341 -0.54846609 0 0.33897066
0 0.0040929681 0.036919978 -0.54846609 0 0.33897066
0 0.0013643062 0.036919296 -0.54846609 0 0.33897066
0 0.078357346 0.034048405 -0.54846609 0 0.33897066
0 0.075582035 0.034030672 -0.54846609 0 0.33897066
0 0.072809525 0.034013592 -0.54846609 0 0.33897066
0 0.070039704 0.033997152 -0.54846609 0 0.33897066
1.110223e-16 0.067272469 0.03398136 -0.54846609 0 0.33897066
0 0.064507723 0.033966213 -0.54846609 0 0.33897066
0 0.061745349 0.033951707 -0.54846609 0 0.33897066
1.110223e-16 0.058985256 0.033937838 -0.54846609 0 0.33897066
0 0.05622733 0.033924609 -0.54846609 0 0.33897066
0 0.053471476 0.033912022 -0.54846609 0 0.33897066
0 0.050717585 0.033900067 -0.54846609 0 0.33897066
0 0.047965556 0.03388875 -0.54846609 0 0.33897066
0 0.04521529 0.033878066 -0.54846609 0 0.33897066
0 0.042466685 0.033868019 -0.54846609 0 0.33897066
0 0.039719634 0.033858601 -0.54846609 0 0.33897066
0 0.036974039 0.033849813 -0.54846609 0 0.33897066
0 0.0342298 0.033841658 -0.54846609 0 0.33897066
0 0.031486809 0.033834137 -0.54846609 0 0.33897066
0 0.028744975 0.033827242 -0.54846609 0 0.33897066
1.110223e-16 0.026004191 0.033820976 -0.54846609 0 0.33897066
0 0.02326436 0.033815335 -0.54846609 0 0.33897066
1.110223e-16 0.020525377 0.033810329 -0.54846609 0 0.33897066
0 0.017787144 0.033805944 -0.54846609 0 0.33897066
0 0.015049561 0.033802189 -0.54846609 0 0.33897066
1.110223e-16 0.012312528 0.03379906 -0.54846609 0 0.33897066
0 0.0095759444 0.033796556 -0.54846609 0 0.33897066
1.110223e-16 0.0068397108 0.033794679 -0.54846609 0 0.33897066
0 0.0041037267 0.033793427 -0.54846609 0 0.33897066
1.110223e-16 0.0013678923 0.033792801 -0.54846609 0 0.33897066
0 0.078565329 0.030883541 -0.54846609 0 0.33897066
0 0.075782545 0.030867416 -0.54846609 0 0.33897066
0 0.073002584 0.03085188 -0.54846609 0 0.33897066
0 0.070225328 0.030836932 -0.54846609 0 0.33897066
0 0.06745068 0.030822571 -0.54846609 0 0.33897066
0 0.064678527 0.030808793 -0.54846609 0 0.33897066
0 0.061908774 0.0307956 -0.54846609 0 0.33897066
0 0.059141308 0.030782988 -0.54846609 0 0.33897066
1.110223e-16 0.056376029 0.030770959 -0.54846609 0 0.33897066
0 0.053612832 0.03075951 -0.54846609 0 0.33897066
1.110223e-16 0.050851617 0.030748639 -0.54846609 0 0.33897066
0 0.048092272 0.030738346 -0.54846609 0 0.33897066
0 0.045334704 0.030728631 -0.54846609 0 0.33897066
0 0.042578805 0.030719491 -0.54846609 0 0.33897066
0 0.039824471 0.030710926 -0.54846609 0 0.33897066
0 0.037071604 0.030702937 -0.54846609 0 0.33897066
0 0.034320101 0.03069552 -0.54846609 0 0.33897066
0 0.031569857 0.030688679 -0.54846609 0 0.33897066
0 0.028820775 0.030682407 -0.54846609 0 0.33897066
0 0.026072752 0.030676709 -0.54846609 0 0.33897066
0 0.023325685 0.030671582 -0.54846609 0 0.33897066
0 0.020579474 0.030667026 -0.54846609 0 0.33897066
1.110223e-16 0.017834019 0.03066304 -0.54846609 0 0.33897066
0 0.015089218 0.030659625 -0.54846609 0 0.33897066
0 0.012344969 0.030656779 -0.54846609 0 0.33897066
1.110223e-16 0.009601173 0.030654501 -0.54846609 0 0.33897066
0 0.0068577295 0.030652795 -0.54846609 0 0.33897066
0 0.004114537 0.030651657 -0.54846609 0 0.33897066
0 0.0013714957 0.030651089 -0.54846609 0 0.33897066
0 0.07877434 0.027702989 -0.54846609 0 0.33897066
0 0.075984053 0.027688487 -0.54846609 0 0.33897066
0 0.073196597 0.027674513 -0.54846609 0 0.33897066
0 0.070411868 0.027661068 -0.54846609 0 0.33897066
0 0.067629769 0.027648151 -0.54846609 0 0.33897066
0 0.064850181 0.027635761 -0.54846609 0 0.33897066
1.110223e-16 0.062073004 0.027623896 -0.54846609 0 0.33897066
1.110223e-16 0.059298135 0.027612552 -0.54846609 0 0.33897066
0 0.056525465 0.027601734 -0.54846609 0 0.33897066
0 0.053754888 0.027591435 -0.54846609 0 0.33897066
1.110223e-16 0.050986309 0.027581658 -0.54846609 0 0.33897066
0 0.048219614 0.027572401 -0.54846609 0 0.33897066
0 0.045454703 0.027563663 -0.54846609 0 0.33897066
0 0.042691477 0.027555443 -0.54846609 0 0.33897066
0 0.039929826 0.027547741 -0.54846609 0 0.33897066
0 0.03716965 0.027540555 -0.54846609 0 0.33897066
0 0.034410849 0.027533885 -0.54846609 0 0.33897066
0 0.031653315 0.027527731 -0.54846609 0 0.33897066
0 0.02889695 0.027522093 -0.54846609 0 0.33897066
0 0.026141651 0.027516967 -0.54846609 0 0.33897066
0 0.023387313 0.027512357 -0.54846609 0 0.33897066
0 0.020633839 0.027508259 -0.54846609 0 0.33897066
0 0.017881125 0.027504673 -0.54846609 0 0.33897066
0 0.015129069 0.027501602 -0.54846609 0 0.33897066
0 0.012377569 0.027499042 -0.54846609 0 0.33897066
0 0.0096265264 0.027496995 -0.54846609 0 0.33897066
0 0.0068758372 0.027495459 -0.54846609 0 0.33897066
1.110223e-16 0.0041254009 0.027494436 -0.54846609 0 0.33897066
0 0.0013751169 0.027493924 -0.54846609 0 0.33897066
0 0.078984402 0.024506506 -0.54846609 0 0.33897066
0 0.076186568 0.024493642 -0.54846609 0 0.33897066
0 0.073391587 0.024481248 -0.54846609 0 0.33897066
0 0.070599347 0.024469323 -0.54846609 0 0.33897066
0 0.067809753 0.024457866 -0.54846609 0 0.33897066
0 0.065022692 0.024446877 -0.54846609 0 0.33897066
0 0.062238056 0.024436353 -0.54846609 0 0.33897066
0 0.059455741 0.024426293 -0.54846609 0 0.33897066
0 0.056675643 0.024416696 -0.54846609 0 0.33897066
1.110223e-16 0.053897653 0.024407562 -0.54846609 0 0.33897066
0 0.051121671 0.024398889 -0.54846609 0 0.33897066
1.110223e-16 0.048347589 0.024390679 -0.54846609 0 0.33897066
0 0.045575306 0.02438293 -0.54846609 0 0.33897066
0 0.042804711 0.024375638 -0.54846609 0 0.33897066
0 0.040035706 0.024368808 -0.54846609 0 0.33897066
0 0.037268184 0.024362434 -0.54846609 0 0.33897066
0 0.034502048 0.024356518 -0.54846609 0 0.33897066
0 0.031737186 0.02435106 -0.54846609 0 0.33897066
1.110223e-16 0.028973503 0.024346057 -0.54846609 0 0.33897066
0 0.026210891 0.024341512 -0.54846609 0 0.33897066
1.110223e-16 0.023449248 0.024337422 -0.54846609 0 0.33897066
0 0.020688474 0.024333788 -0.54846609 0 0.33897066
0 0.017928464 0.024330609 -0.54846609 0 0.33897066
1.110223e-16 0.015169118 0.024327883 -0.54846609 0 0.33897066
0 0.012410332 0.024325613 -0.54846609 0 0.33897066
0 0.0096520046 0.024323799 -0.54846609 0 0.33897066
1.110223e-16 0.0068940348 0.024322435 -0.54846609 0 0.33897066
0 0.0041363188 0.024321528 -0.54846609 0 0.33897066
0 0.001378756 0.024321074 -0.54846609 0 0.33897066
0 0.079195529 0.021293851 -0.54846609 0 0.33897066
0 0.076390103 0.021282643 -0.54846609 0 0.33897066
1.110223e-16 0.073587559 0.021271845 -0.54846609 0 0.33897066
0 0.070787773 0.021261457 -0.54846609 0 0.33897066
0 0.067990646 0.021251475 -0.54846609 0 0.33897066
1.110223e-16 0.065196075 0.0212419 -0.54846609 0 0.33897066
0 0.06240394 0.02123273 -0.54846609 0 0.33897066
1.110223e-16 0.059614144 0.021223966 -0.54846609 0 0.33897066
0 0.05682658 0.021215606 -0.54846609 0 0.33897066
0 0.05404114 0.021207647 -0.54846609 0 0.33897066
0 0.051257718 0.021200094 -0.54846609 0 0.33897066
0 0.048476208 0.02119294 -0.54846609 0 0.33897066
1.110223e-16 0.045696508 0.021186188 -0.54846609 0 0.33897066
0 0.042918514 0.021179836 -0.54846609 0 0.33897066
1.110223e-16 0.040142119 0.021173885 -0.54846609 0 0.33897066
0 0.037367217 0.021168333 -0.54846609 0 0.33897066
0 0.034593705 0.021163179 -0.54846609 0 0.33897066
0 0.031821482 0.021158423 -0.54846609 0 0.33897066
0 0.02905044 0.021154067 -0.54846609 0 0.33897066
0 0.02628048 0.021150107 -0.54846609 0 0.33897066
0 0.023511494 0.021146543 -0.54846609 0 0.33897066
0 0.020743383 0.021143377 -0.54846609 0 0.33897066
0 0.017976042 0.021140607 -0.54846609 0 0.33897066
1.110223e-16 0.015209368 0.021138232 -0.54846609 0 0.33897066
0 0.012443259 0.021136254 -0.54846609 0 0.33897066
0 0.0096776122 0.021134673 -0.54846609 0 0.33897066
0 0.0069123236 0.021133486 -0.54846609 0 0.33897066
0 0.0041472916 0.021132696 -0.54846609 0 0.33897066
0 0.0013824134 0.0211323 -0.54846609 0 0.33897066
0 0.079407729 0.018064776 -0.54846609 0 0.33897066
1.110223e-16 0.076594681 0.018055243 -0.54846609 0 0.33897066
0 0.07378453 0.018046059 -0.54846609 0 0.33897066
0 0.070977159 0.01803722 -0.54846609 0 0.33897066
0 0.068172462 0.018028731 -0.54846609 0 0.33897066
0 0.065370336 0.018020585 -0.54846609 0 0.33897066
0 0.062570669 0.018012786 -0.54846609 0 0.33897066
0 0.059773352 0.01800533 -0.54846609 0 0.33897066
0 0.056978285 0.017998219 -0.54846609 0 0.33897066
0 0.054185353 0.01799145 -0.54846609 0 0.33897066
0 0.051394455 0.017985024 -0.54846609 0 0.33897066
0 0.048605483 0.01797894 -0.54846609 0 0.33897066
0 0.045818333 0.017973196 -0.54846609 0 0.33897066
1.110223e-16 0.043032896 0.017967794 -0.54846609 0 0.33897066
0 0.040249068 0.017962731 -0.54846609 0 0.33897066
0 0.03746675 0.017958008 -0.54846609 0 0.33897066
0 0.034685828 0.017953625 -0.54846609 0 0.33897066
0 0.031906202 0.017949579 -0.54846609 0 0.33897066
0 0.029127767 0.017945873 -0.54846609 0 0.33897066
0 0.02635042 0.017942505 -0.54846609 0 0.33897066
0 0.023574056 0.017939474 -0.54846609 0 0.33897066
0 0.020798571 0.017936781 -0.54846609 0 0.33897066
0 0.018023862 0.017934425 -0.54846609 0 0.33897066
0 0.015249823 0.017932406 -0.54846609 0 0.33897066
1.110223e-16 0.012476353 0.017930724 -0.54846609 0 0.33897066
0 0.0097033484 0.017929377 -0.54846609 0 0.33897066
0 0.0069307052 0.017928367 -0.54846609 0 0.33897066
0 0.0041583199 0.017927695 -0.54846609 0 0.33897066
0 0.0013860894 0.01792736 -0.54846609 0 0.33897066
0 0.079621032 0.014819032 -0.54846609 0 0.33897066
0 0.076800317 0.014811191 -0.54846609 0 0.33897066
0 0.073982514 0.014803636 -0.54846609 0 0.33897066
0 0.071167521 0.014796367 -0.54846609 0 0.33897066
0 0.068355218 0.014789383 -0.54846609 0 0.33897066
0 0.065545499 0.014782684 -0.54846609 0 0.33897066
0 0.062738255 0.014776269 -0.54846609 0 0.33897066
0 0.059933379 0.014770137 -0.54846609 0 0.33897066
0 0.057130769 0.014764288 -0.54846609 0 0.33897066
0 0.054330308 0.01475872 -0.54846609 0 0.33897066
1.110223e-16 0.051531896 0.014753435 -0.54846609 0 0.33897066
0 0.048735421 0.01474843 -0.54846609 0 0.33897066
0 0.045940779 0.014743706 -0.54846609 0 0.33897066
0 0.043147866 0.014739262 -0.54846609 0 0.33897066
0 0.040356569 0.014735098 -0.54846609 0 0.33897066
0 0.037566792 0.014731213 -0.54846609 0 0.33897066
0 0.034778424 0.014727608 -0.54846609 0 0.33897066
0 0.031991359 0.014724281 -0.54846609 0 0.33897066
0 0.029205492 0.014721232 -0.54846609 0 0.33897066
1.110223e-16 0.02642072 0.014718462 -0.54846609 0 0.33897066
0 0.023636937 0.014715969 -0.54846609 0 0.33897066
0 0.020854041 0.014713754 -0.54846609 0 0.33897066
0 0.018071925 0.014711816 -0.54846609 0 0.33897066
1.110223e-16 0.015290485 0.014710155 -0.54846609 0 0.33897066
0 0.012509617 0.014708771 -0.54846609 0 0.33897066
0 0.0097292168 0.014707665 -0.54846609 0 0.33897066
0 0.0069491807 0.014706835 -0.54846609 0 0.33897066
0 0.0041694045 0.014706282 -0.54846609 0 0.33897066
0 0.0013897842 0.014706004 -0.54846609 0 0.33897066
0 0.079835437 0.011556365 -0.54846609 0 0.33897066
0 0.077007018 0.011550234 -0.54846609 0 0.33897066
1.110223e-16 0.074181534 0.011544326 -0.54846609 0 0.33897066
0 0.071358867 0.011538642 -0.54846609 0 0.33897066
0 0.068538919 0.011533182 -0.54846609 0 0.33897066
0 0.065721571 0.011527943 -0.54846609 0 0.33897066
1.110223e-16 0.062906712 0.011522927 -0.54846609 0 0.33897066
1.110223e-16 0.060094241 0.011518133 -0.54846609 0 0.33897066
1.110223e-16 0.057284046 0.011513559 -0.54846609 0 0.33897066
0 0.054476015 0.011509205 -0.54846609 0 0.33897066
0 0.051670048 0.011505073 -0.54846609 0 0.33897066
0 0.048866034 0.01150116 -0.54846609 0 0.33897066
0 0.046063863 0.011497466 -0.54846609 0 0.33897066
0 0.043263432 0.011493991 -0.54846609 0 0.33897066
1.110223e-16 0.040464628 0.011490735 -0.54846609 0 0.33897066
0 0.037667353 0.011487698 -0.54846609 0 0.33897066
0 0.034871496 0.011484879 -0.54846609 0 0.33897066
0 0.032076955 0.011482277 -0.54846609 0 0.33897066
0 0.029283619 0.011479894 -0.54846609 0 0.33897066
0 0.026491383 0.011477727 -0.54846609 0 0.33897066
0 0.023700146 0.011475778 -0.54846609 0 0.33897066
0 0.020909799 0.011474046 -0.54846609 0 0.33897066
1.110223e-16 0.018120237 0.011472531 -0.54846609 0 0.33897066
0 0.015331357 0.011471232 -0.54846609 0 0.33897066
0 0.012543052 0.01147015 -0.54846609 0 0.33897066
1.110223e-16 0.0097552193 0.011469285 -0.54846609 0 0.33897066
1.110223e-16 0.0069677518 0.011468636 -0.54846609 0 0.33897066
0 0.0041805464 0.011468204 -0.54846609 0 0.33897066
0 0.001393498 0.011467987 -0.54846609 0 0.33897066
0 0.077214815 0.0082721133 -0.54846609 0 0.33897066
1.110223e-16 0.074381597 0.008267872 -0.54846609 0 0.33897066
0 0.071551226 0.00826379 -0.54846609 0 0.33897066
0 0.068723589 0.0082598682 -0.54846609 0 0.33897066
1.110223e-16 0.065898567 0.0082561066 -0.54846609 0 0.33897066
1.110223e-16 0.063076057 0.0082525043 -0.54846609 0 0.33897066
1.110223e-16 0.060255945 0.0082490612 -0.54846609 0 0.33897066
0 0.057438124 0.0082457773 -0.54846609 0 0.33897066
0 0.05462249 0.0082426509 -0.54846609 0 0.33897066
0 0.051808927 0.0082396828 -0.54846609 0 0.33897066
0 0.048997328 0.008236873 -0.54846609 0 0.33897066
1.110223e-16 0.046187591 0.0082342206 -0.54846609 0 0.33897066
0 0.043379601 0.0082317255 -0.54846609 0 0.33897066
1.110223e-16 0.040573254 0.0082293879 -0.54846609 0 0.33897066
0 0.037768442 0.0082272068 -0.54846609 0 0.33897066
0 0.034965061 0.0082251821 -0.54846609 0 0.33897066
0 0.032162998 0.0082233138 -0.54846609 0 0.33897066
0 0.029362153 0.0082216021 -0.54846609 0 0.33897066
0 0.026562417 0.0082200468 -0.54846609 0 0.33897066
0 0.023763685 0.008218647 -0.54846609 0 0.33897066
1.110223e-16 0.020965848 0.0082174027 -0.54846609 0 0.33897066
0 0.018168801 0.0082163149 -0.54846609 0 0.33897066
0 0.015372443 0.0082153827 -0.54846609 0 0.33897066
0 0.012576663 0.008214606 -0.54846609 0 0.33897066
1.110223e-16 0.0097813569 0.0082139838 -0.54846609 0 0.33897066
0 0.0069864201 0.0082135182 -0.54846609 0 0.33897066
0 0.0041917469 0.0082132071 -0.54846609 0 0.33897066
0 0.0013972314 0.0082130525 -0.54846609 0 0.33897066
0 0.077423707 0.0049765697 -0.54846609 0 0.33897066
0 0.074582726 0.0049740104 -0.54846609 0 0.33897066
0 0.071744606 0.0049715484 -0.54846609 0 0.33897066
1.110223e-16 0.068909235 0.0049691829 -0.54846609 0 0.33897066
1.110223e-16 0.066076502 0.0049669137 -0.54846609 0 0.33897066
0 0.063246295 0.0049647409 -0.54846609 0 0.33897066
0 0.060418505 0.0049626636 -0.54846609 0 0.33897066
1.110223e-16 0.057593022 0.0049606827 -0.54846609 0 0.33897066
0 0.054769736 0.0049587968 -0.54846609 0 0.33897066
0 0.05194854 0.0049570063 -0.54846609 0 0.33897066
0 0.049129318 0.0049553113 -0.54846609 0 0.33897066
1.110223e-16 0.046311971 0.0049537113 -0.54846609 0 0.33897066
0 0.043496385 0.0049522063 -0.54846609 0 0.33897066
0 0.04068245 0.0049507958 -0.54846609 0 0.33897066
0 0.037870064 0.0049494803 -0.54846609 0 0.33897066
1.110223e-16 0.035059117 0.0049482589 -0.54846609 0 0.33897066
0 0.032249499 0.004947132 -0.54846609 0 0.33897066
0 0.029441103 0.0049460996 -0.54846609 0 0.33897066
0 0.026633825 0.0049451613 -0.54846609 0 0.33897066
0 0.023827557 0.004944317 -0.54846609 0 0.33897066
0 0.021022193 0.0049435669 -0.54846609 0 0.33897066
1.110223e-16 0.018217623 0.0049429103 -0.54846609 0 0.33897066
0 0.015413745 0.0049423478 -0.54846609 0 0.33897066
1.110223e-16 0.01261045 0.0049418793 -0.54846609 0 0.33897066
0 0.0098076332 0.0049415044 -0.54846609 0 0.33897066
0 0.0070051872 0.0049412232 -0.54846609 0 0.33897066
0 0.0042030062 0.004941036 -0.54846609 0 0.33897066
0 0.0014009844 0.0049409424 -0.54846609 0 0.33897066
1.110223e-16 0.077633731 0.0016633351 -0.54846609 0 0.33897066
1.110223e-16 0.074784935 0.0016624776 -0.54846609 0 0.33897066
0 0.071939021 0.0016616523 -0.54846609 0 0.33897066
0 0.06909588 0.0016608597 -0.54846609 0 0.33897066
1.110223e-16 0.066255391 0.0016600991 -0.54846609 0 0.33897066
1.110223e-16 0.06341745 0.001659371 -0.54846609 0 0.33897066
0 0.060581937 0.0016586748 -0.54846609 0 0.33897066
0 0.05774875 0.0016580109 -0.54846609 0 0.33897066
0 0.054917771 0.0016573789 -0.54846609 0 0.33897066
0 0.052088898 0.0016567789 -0.54846609 0 0.33897066
0 0.049262017 0.0016562109 -0.54846609 0 0.33897066
0 0.046437018 0.0016556747 -0.54846609 0 0.33897066
1.110223e-16 0.043613791 0.0016551702 -0.54846609 0 0.33897066
0 0.040792234 0.0016546976 -0.54846609 0 0.33897066
1.110223e-16 0.03797223 0.0016542566 -0.54846609 0 0.33897066
0 0.035153676 0.0016538474 -0.54846609 0 0.33897066
0 0.032336459 0.0016534697 -0.54846609 0 0.33897066
0 0.029520474 0.0016531236 -0.54846609 0 0.33897066
0 0.026705615 0.0016528092 -0.54846609 0 0.33897066
0 0.023891771 0.0016525262 -0.54846609 0 0.33897066
1.110223e-16 0.021078838 0.0016522749 -0.54846609 0 0.33897066
0 0.018266706 0.0016520548 -0.54846609 0 0.33897066
0 0.015455268 0.0016518664 -0.54846609 0 0.33897066
1.110223e-16 0.012644419 0.0016517093 -0.54846609 0 0.33897066
0 0.0098340493 0.0016515837 -0.54846609 0 0.33897066
1.110223e-16 0.0070240539 0.0016514895 -0.54846609 0 0.33897066
1.110223e-16 0.0042143255 0.0016514267 -0.54846609 0 0.33897066
1.110223e-16 0.0014047574 0.0016513952 -0.54846609 0 0.33897066
