# .PCD v0.7 - Point Cloud Data file format
VERSION 0.7
FIELDS x y z vp_x vp_y vp_z
SIZE 4 4 4 4 4 4
TYPE F F F F F F
COUNT 1 1 1 1 1 1
WIDTH 694
HEIGHT 1
VIEWPOINT 0 0 0 1 0 0 0
POINTS 694
DATA ascii
0.017379642 0.07980343 0.066426374 0.14741376 0.38593423 0.23852047
0.016235976 0.079620197 0.066128179 0.14741376 0.38593423 0.23852047
0.015055324 0.079360344 0.065786228 0.14741376 0.38593423 0.23852047
0.013823254 0.078992628 0.065382749 0.14741376 0.38593423 0.23852047
0.012558057 0.078561388 0.064942576 0.14741376 0.38593423 0.23852047
0.011199956 0.077933058 0.064390056 0.14741376 0.38593423 0.23852047
0.0097651752 0.077148788 0.063748099 0.14741376 0.38593423 0.23852047
0.0082156425 0.076127611 0.062970512 0.14741376 0.38593423 0.23852047
0.0064669349 0.074688755 0.061954297 0.14741376 0.38593423 0.23852047
0.0043025245 0.072367668 0.060434785 0.14741376 0.38593423 0.23852047
0.039999999 0.00085077737 0.031156208 0.14741376 0.38593423 0.23852047
0.039999999 0.005184826 0.033260725 0.14741376 0.38593423 0.23852047
0.039999999 0.0094299009 0.035322186 0.14741376 0.38593423 0.23852047
0.039999999 0.013588769 0.037341926 0.14741376 0.38593423 0.23852047
0.039999999 0.017664082 0.039321236 0.14741376 0.38593423 0.23852047
0.03931316 0.019329084 0.039999999 0.14741376 0.38593423 0.23852047
0.038260642 0.019738792 0.039999999 0.14741376 0.38593423 0.23852047
0.037208438 0.020148082 0.039999999 0.14741376 0.38593423 0.23852047
0.036156535 0.02055696 0.039999999 0.14741376 0.38593423 0.23852047
0.035104912 0.020965435 0.039999999 0.14741376 0.38593423 0.23852047
0.034053557 0.02137351 0.039999999 0.14741376 0.38593423 0.23852047
0.033002451 0.021781193 0.039999999 0.14741376 0.38593423 0.23852047
0.031951576 0.02218849 0.039999999 0.14741376 0.38593423 0.23852047
0.03090092 0.022595407 0.039999999 0.14741376 0.38593423 0.23852047
0.029850464 0.023001954 0.039999999 0.14741376 0.38593423 0.23852047
0.039699722 0.056721039 0.058242254 0.14741376 0.38593423 0.23852047
0.039958838 0.060759455 0.060254149 0.14741376 0.38593423 0.23852047
0.039711449 0.063207425 0.061397843 0.14741376 0.38593423 0.23852047
0.039301395 0.065131463 0.062256403 0.14741376 0.38593423 0.23852047
0.03880256 0.066763818 0.062956609 0.14741376 0.38593423 0.23852047
0.038238145 0.068180338 0.063539699 0.14741376 0.38593423 0.23852047
0.037615594 0.069408588 0.064020462 0.14741376 0.38593423 0.23852047
0.036970794 0.070556395 0.064458057 0.14741376 0.38593423 0.23852047
0.036283836 0.071569651 0.06482245 0.14741376 0.38593423 0.23852047
0.03557574 0.072511017 0.065148048 0.14741376 0.38593423 0.23852047
0.034843218 0.07337337 0.065430768 0.14741376 0.38593423 0.23852047
0.034087852 0.074163236 0.065674074 0.14741376 0.38593423 0.23852047
0.033314478 0.074895784 0.065886259 0.14741376 0.38593423 0.23852047
0.032521192 0.075567432 0.066065222 0.14741376 0.38593423 0.23852047
0.031709678 0.076184355 0.066214271 0.14741376 0.38593423 0.23852047
0.030883813 0.076758303 0.066339865 0.14741376 0.38593423 0.23852047
0.03003536 0.077268787 0.066430487 0.14741376 0.38593423 0.23852047
0.029179635 0.077757441 0.066509254 0.14741376 0.38593423 0.23852047
0.028294269 0.078167059 0.066544153 0.14741376 0.38593423 0.23852047
0.027409242 0.07857652 0.066579163 0.14741376 0.38593423 0.23852047
0.026486162 0.078888364 0.06655971 0.14741376 0.38593423 0.23852047
0.025562543 0.07919959 0.066539966 0.14741376 0.38593423 0.23852047
0.024608016 0.07943444 0.066477425 0.14741376 0.38593423 0.23852047
0.02364352 0.079646721 0.066402167 0.14741376 0.38593423 0.23852047
0.022653872 0.079799786 0.06629353 0.14741376 0.38593423 0.23852047
0.02164498 0.079909541 0.066160358 0.14741376 0.38593423 0.23852047
0.020615805 0.079974607 0.066001788 0.14741376 0.38593423 0.23852047
0.019557428 0.0799748 0.065806329 0.14741376 0.38593423 0.23852047
0.018474381 0.079922527 0.065580875 0.14741376 0.38593423 0.23852047
0.017359041 0.079801194 0.065315925 0.14741376 0.38593423 0.23852047
0.016212476 0.079615027 0.065013744 0.14741376 0.38593423 0.23852047
0.015029979 0.079354763 0.064668939 0.14741376 0.38593423 0.23852047
0.013794417 0.078982912 0.064260088 0.14741376 0.38593423 0.23852047
0.012525061 0.078546122 0.063813478 0.14741376 0.38593423 0.23852047
0.011164729 0.077916764 0.063256346 0.14741376 0.38593423 0.23852047
0.0097244941 0.077124313 0.06260512 0.14741376 0.38593423 0.23852047
0.0081677046 0.07609117 0.061815213 0.14741376 0.38593423 0.23852047
0.006408406 0.074633315 0.06078108 0.14741376 0.38593423 0.23852047
0.0042259963 0.072277568 0.059231408 0.14741376 0.38593423 0.23852047
0.039999999 0.00064679392 0.029725049 0.14741376 0.38593423 0.23852047
0.039999999 0.0049913861 0.031848535 0.14741376 0.38593423 0.23852047
0.039999999 0.0092466157 0.03392848 0.14741376 0.38593423 0.23852047
0.039999999 0.013415266 0.035966247 0.14741376 0.38593423 0.23852047
0.039999999 0.017500006 0.03796313 0.14741376 0.38593423 0.23852047
0.039999999 0.021503398 0.039920378 0.14741376 0.38593423 0.23852047
0.03899556 0.022056758 0.039999999 0.14741376 0.38593423 0.23852047
0.037948374 0.022463618 0.039999999 0.14741376 0.38593423 0.23852047
0.036901489 0.022870084 0.039999999 0.14741376 0.38593423 0.23852047
0.035854887 0.023276165 0.039999999 0.14741376 0.38593423 0.23852047
0.034808557 0.023681868 0.039999999 0.14741376 0.38593423 0.23852047
0.033762477 0.024087198 0.039999999 0.14741376 0.38593423 0.23852047
0.032716632 0.024492163 0.039999999 0.14741376 0.38593423 0.23852047
0.03167101 0.024896767 0.039999999 0.14741376 0.38593423 0.23852047
0.030625589 0.025301019 0.039999999 0.14741376 0.38593423 0.23852047
0.039673369 0.056560334 0.057004254 0.14741376 0.38593423 0.23852047
0.039962273 0.060696073 0.059082415 0.14741376 0.38593423 0.23852047
0.039718922 0.06316185 0.060243033 0.14741376 0.38593423 0.23852047
0.039310895 0.065097243 0.061113145 0.14741376 0.38593423 0.23852047
0.038813032 0.066737533 0.061822008 0.14741376 0.38593423 0.23852047
0.038247716 0.068156317 0.062409867 0.14741376 0.38593423 0.23852047
0.03762541 0.069390073 0.062896535 0.14741376 0.38593423 0.23852047
0.036980473 0.070542119 0.063339069 0.14741376 0.38593423 0.23852047
0.036292456 0.071556933 0.063706428 0.14741376 0.38593423 0.23852047
0.03558388 0.072501436 0.064035617 0.14741376 0.38593423 0.23852047
0.034850251 0.073365092 0.064320631 0.14741376 0.38593423 0.23852047
0.034094151 0.074157268 0.064566545 0.14741376 0.38593423 0.23852047
0.033319619 0.074890912 0.064780444 0.14741376 0.38593423 0.23852047
0.032525398 0.075564235 0.064961232 0.14741376 0.38593423 0.23852047
0.031712677 0.076182075 0.065111488 0.14741376 0.38593423 0.23852047
0.030885696 0.076757163 0.065238245 0.14741376 0.38593423 0.23852047
0.030035987 0.077268414 0.065329596 0.14741376 0.38593423 0.23852047
0.029178979 0.077757746 0.065408953 0.14741376 0.38593423 0.23852047
0.028292304 0.078167967 0.065444127 0.14741376 0.38593423 0.23852047
0.02740597 0.078578033 0.065479398 0.14741376 0.38593423 0.23852047
0.026481381 0.078889981 0.065459557 0.14741376 0.38593423 0.23852047
0.025556393 0.079201661 0.065439627 0.14741376 0.38593423 0.23852047
0.024600171 0.079436168 0.065376155 0.14741376 0.38593423 0.23852047
0.02363424 0.079648763 0.065300256 0.14741376 0.38593423 0.23852047
0.022642687 0.079801001 0.065190107 0.14741376 0.38593423 0.23852047
0.021632284 0.079910927 0.065055817 0.14741376 0.38593423 0.23852047
0.020601394 0.079975687 0.064895689 0.14741376 0.38593423 0.23852047
0.019541418 0.079975881 0.064698607 0.14741376 0.38593423 0.23852047
0.018455438 0.079920471 0.064469531 0.14741376 0.38593423 0.23852047
0.017338384 0.079798944 0.064202376 0.14741376 0.38593423 0.23852047
0.016188912 0.079609841 0.063896172 0.14741376 0.38593423 0.23852047
0.015004563 0.079349175 0.063548505 0.14741376 0.38593423 0.23852047
0.013765497 0.078973167 0.063134216 0.14741376 0.38593423 0.23852047
0.01249197 0.078530818 0.062681116 0.14741376 0.38593423 0.23852047
0.011129401 0.077900417 0.062119354 0.14741376 0.38593423 0.23852047
0.0096836919 0.077099763 0.06145877 0.14741376 0.38593423 0.23852047
0.0081196204 0.07605461 0.060656402 0.14741376 0.38593423 0.23852047
0.0063496921 0.074577704 0.059604153 0.14741376 0.38593423 0.23852047
0.0041492088 0.07218717 0.058023956 0.14741376 0.38593423 0.23852047
0.039999999 0.00044205133 0.028288564 0.14741376 0.38593423 0.23852047
0.039999999 0.0047972342 0.030431148 0.14741376 0.38593423 0.23852047
0.039999999 0.0090626627 0.032529704 0.14741376 0.38593423 0.23852047
0.039999999 0.013241137 0.034585614 0.14741376 0.38593423 0.23852047
0.039999999 0.017335344 0.036600184 0.14741376 0.38593423 0.23852047
0.039999999 0.021347862 0.038574688 0.14741376 0.38593423 0.23852047
0.039723162 0.024351645 0.039999999 0.14741376 0.38593423 0.23852047
0.038680945 0.0247561 0.039999999 0.14741376 0.38593423 0.23852047
0.037639029 0.025160182 0.039999999 0.14741376 0.38593423 0.23852047
0.036597401 0.025563899 0.039999999 0.14741376 0.38593423 0.23852047
0.035556044 0.025967257 0.039999999 0.14741376 0.38593423 0.23852047
0.034514941 0.026370261 0.039999999 0.14741376 0.38593423 0.23852047
0.03347408 0.026772918 0.039999999 0.14741376 0.38593423 0.23852047
0.032433439 0.027175235 0.039999999 0.14741376 0.38593423 0.23852047
0.031393006 0.027577218 0.039999999 0.14741376 0.38593423 0.23852047
0.039646924 0.05639904 0.055761699 0.14741376 0.38593423 0.23852047
0.039965719 0.060632493 0.057907052 0.14741376 0.38593423 0.23852047
0.039726418 0.063116141 0.059084773 0.14741376 0.38593423 0.23852047
0.039320424 0.065062925 0.059966546 0.14741376 0.38593423 0.23852047
0.038823534 0.066711172 0.060684144 0.14741376 0.38593423 0.23852047
0.038257312 0.068132237 0.061276801 0.14741376 0.38593423 0.23852047
0.037635259 0.069371499 0.06176943 0.14741376 0.38593423 0.23852047
0.036990173 0.070527814 0.062216938 0.14741376 0.38593423 0.23852047
0.036301102 0.071544185 0.062587284 0.14741376 0.38593423 0.23852047
0.035592046 0.072491825 0.062920094 0.14741376 0.38593423 0.23852047
0.034857303 0.073356792 0.063207418 0.14741376 0.38593423 0.23852047
0.034100469 0.074151285 0.063455947 0.14741376 0.38593423 0.23852047
0.033324778 0.074886024 0.063671574 0.14741376 0.38593423 0.23852047
0.032529615 0.075561032 0.063854195 0.14741376 0.38593423 0.23852047
0.031715687 0.076179788 0.064005658 0.14741376 0.38593423 0.23852047
0.030887585 0.07675603 0.064133599 0.14741376 0.38593423 0.23852047
0.030036615 0.077268034 0.064225674 0.14741376 0.38593423 0.23852047
0.029178321 0.077758051 0.064305633 0.14741376 0.38593423 0.23852047
0.028290335 0.078168876 0.064341068 0.14741376 0.38593423 0.23852047
0.027402684 0.078579538 0.064376593 0.14741376 0.38593423 0.23852047
0.026476586 0.078891598 0.064356372 0.14741376 0.38593423 0.23852047
0.025550226 0.07920374 0.064336255 0.14741376 0.38593423 0.23852047
0.024592306 0.079437897 0.064271852 0.14741376 0.38593423 0.23852047
0.023624934 0.079650812 0.064195305 0.14741376 0.38593423 0.23852047
0.02263147 0.079802223 0.064083628 0.14741376 0.38593423 0.23852047
0.021619551 0.079912312 0.063948214 0.14741376 0.38593423 0.23852047
0.020586945 0.079976767 0.063786522 0.14741376 0.38593423 0.23852047
0.019525364 0.079976961 0.0635878 0.14741376 0.38593423 0.23852047
0.018436441 0.079918399 0.063355066 0.14741376 0.38593423 0.23852047
0.017317669 0.079796694 0.063085698 0.14741376 0.38593423 0.23852047
0.016165281 0.079604641 0.062775433 0.14741376 0.38593423 0.23852047
0.014979076 0.079343565 0.062424883 0.14741376 0.38593423 0.23852047
0.013736495 0.078963391 0.062005121 0.14741376 0.38593423 0.23852047
0.012458783 0.078515463 0.061545458 0.14741376 0.38593423 0.23852047
0.011093969 0.077884026 0.060979042 0.14741376 0.38593423 0.23852047
0.0096427696 0.077075146 0.060309004 0.14741376 0.38593423 0.23852047
0.00807139 0.076017946 0.059494045 0.14741376 0.38593423 0.23852047
0.0062907911 0.074521907 0.058423478 0.14741376 0.38593423 0.23852047
0.0040696687 0.072091006 0.056809232 0.14741376 0.38593423 0.23852047
0.039999999 0.00023654252 0.026846703 0.14741376 0.38593423 0.23852047
0.039999999 0.0046023638 0.029008513 0.14741376 0.38593423 0.23852047
0.039999999 0.0088780364 0.031125808 0.14741376 0.38593423 0.23852047
0.039999999 0.013066379 0.033199977 0.14741376 0.38593423 0.23852047
0.039999999 0.017170094 0.035232358 0.14741376 0.38593423 0.23852047
0.039999999 0.021191774 0.037224226 0.14741376 0.38593423 0.23852047
0.039999999 0.025133906 0.039176811 0.14741376 0.38593423 0.23852047
0.039406266 0.027025905 0.039999999 0.14741376 0.38593423 0.23852047
0.038369272 0.02742763 0.039999999 0.14741376 0.38593423 0.23852047
0.037332568 0.027829008 0.039999999 0.14741376 0.38593423 0.23852047
0.03629614 0.028230049 0.039999999 0.14741376 0.38593423 0.23852047
0.03525997 0.028630752 0.039999999 0.14741376 0.38593423 0.23852047
0.034224037 0.02903113 0.039999999 0.14741376 0.38593423 0.23852047
0.033188332 0.029431185 0.039999999 0.14741376 0.38593423 0.23852047
0.032152839 0.029830923 0.039999999 0.14741376 0.38593423 0.23852047
0.039620377 0.056237146 0.054514546 0.14741376 0.38593423 0.23852047
0.039969176 0.060568716 0.056728035 0.14741376 0.38593423 0.23852047
0.039733935 0.063070297 0.05792303 0.14741376 0.38593423 0.23852047
0.03932998 0.065028496 0.058816578 0.14741376 0.38593423 0.23852047
0.038834069 0.066684738 0.059542991 0.14741376 0.38593423 0.23852047
0.038266938 0.068108082 0.060140468 0.14741376 0.38593423 0.23852047
0.037645131 0.06935288 0.060639106 0.14741376 0.38593423 0.23852047
0.036999904 0.070513457 0.061091632 0.14741376 0.38593423 0.23852047
0.036309771 0.0715314 0.06146498 0.14741376 0.38593423 0.23852047
0.035600234 0.072482184 0.061801434 0.14741376 0.38593423 0.23852047
0.034864374 0.07334847 0.062091082 0.14741376 0.38593423 0.23852047
0.034106806 0.07414528 0.062342249 0.14741376 0.38593423 0.23852047
0.033329949 0.074881129 0.06255962 0.14741376 0.38593423 0.23852047
0.032533847 0.075557813 0.062744081 0.14741376 0.38593423 0.23852047
0.031718701 0.076177493 0.062896758 0.14741376 0.38593423 0.23852047
0.030889479 0.07675489 0.063025892 0.14741376 0.38593423 0.23852047
0.030037247 0.077267654 0.063118696 0.14741376 0.38593423 0.23852047
0.029177664 0.077758357 0.063199259 0.14741376 0.38593423 0.23852047
0.028288359 0.078169793 0.063234963 0.14741376 0.38593423 0.23852047
0.027399249 0.0785807 0.063270546 0.14741376 0.38593423 0.23852047
0.026471777 0.078893214 0.063250139 0.14741376 0.38593423 0.23852047
0.025544042 0.079205818 0.063229829 0.14741376 0.38593423 0.23852047
0.024584418 0.079439633 0.063164487 0.14741376 0.38593423 0.23852047
0.023615604 0.079652868 0.063087285 0.14741376 0.38593423 0.23852047
0.022620223 0.079803444 0.062974073 0.14741376 0.38593423 0.23852047
0.021606782 0.079913698 0.062837526 0.14741376 0.38593423 0.23852047
0.020572454 0.079977855 0.062674254 0.14741376 0.38593423 0.23852047
0.019509267 0.079978049 0.062473886 0.14741376 0.38593423 0.23852047
0.01841739 0.079916328 0.062237464 0.14741376 0.38593423 0.23852047
0.017296895 0.079794429 0.061965864 0.14741376 0.38593423 0.23852047
0.01614158 0.079599425 0.061651502 0.14741376 0.38593423 0.23852047
0.014953515 0.07933794 0.061298057 0.14741376 0.38593423 0.23852047
0.013707409 0.078953594 0.060872767 0.14741376 0.38593423 0.23852047
0.012425499 0.078500062 0.060406476 0.14741376 0.38593423 0.23852047
0.011058434 0.077867582 0.059835382 0.14741376 0.38593423 0.23852047
0.0096017243 0.077050447 0.059155796 0.14741376 0.38593423 0.23852047
0.0080230115 0.07598117 0.058328114 0.14741376 0.38593423 0.23852047
0.0062317015 0.074465938 0.057239026 0.14741376 0.38593423 0.23852047
0.0039601289 0.071929447 0.055552389 0.14741376 0.38593423 0.23852047
0.039999999 3.0260366e-05 0.025399415 0.14741376 0.38593423 0.23852047
0.039999999 0.0044067684 0.027580587 0.14741376 0.38593423 0.23852047
0.039999999 0.0086927302 0.029716743 0.14741376 0.38593423 0.23852047
0.039999999 0.012890983 0.031809296 0.14741376 0.38593423 0.23852047
0.039999999 0.017004248 0.033859599 0.14741376 0.38593423 0.23852047
0.039999999 0.021035129 0.03586895 0.14741376 0.38593423 0.23852047
0.039999999 0.024986133 0.037838589 0.14741376 0.38593423 0.23852047
0.039999999 0.02885966 0.039769709 0.14741376 0.38593423 0.23852047
0.03909234 0.02967279 0.039999999 0.14741376 0.38593423 0.23852047
0.038060516 0.030071858 0.039999999 0.14741376 0.38593423 0.23852047
0.037028965 0.030470606 0.039999999 0.14741376 0.38593423 0.23852047
0.035997674 0.030869037 0.039999999 0.14741376 0.38593423 0.23852047
0.034966629 0.031267159 0.039999999 0.14741376 0.38593423 0.23852047
0.033935815 0.031664975 0.039999999 0.14741376 0.38593423 0.23852047
0.03290521 0.032062497 0.039999999 0.14741376 0.38593423 0.23852047
0.039593734 0.056074649 0.053262755 0.14741376 0.38593423 0.23852047
0.039972644 0.060504738 0.05554533 0.14741376 0.38593423 0.23852047
0.039741475 0.063024312 0.056757774 0.14741376 0.38593423 0.23852047
0.039339565 0.064993978 0.057663206 0.14741376 0.38593423 0.23852047
0.03884463 0.066658229 0.058398515 0.14741376 0.38593423 0.23852047
0.03827659 0.068083853 0.059000839 0.14741376 0.38593423 0.23852047
0.037655033 0.069334202 0.059505541 0.14741376 0.38593423 0.23852047
0.037009664 0.07049907 0.059963122 0.14741376 0.38593423 0.23852047
0.036318462 0.071518578 0.060339488 0.14741376 0.38593423 0.23852047
0.035608441 0.07247252 0.060679622 0.14741376 0.38593423 0.23852047
0.034871466 0.073340118 0.060971603 0.14741376 0.38593423 0.23852047
0.034113161 0.074139267 0.061225433 0.14741376 0.38593423 0.23852047
0.033335134 0.074876219 0.061444543 0.14741376 0.38593423 0.23852047
0.032538086 0.075554587 0.061630871 0.14741376 0.38593423 0.23852047
0.031721726 0.076175198 0.061784767 0.14741376 0.38593423 0.23852047
0.030891379 0.076753743 0.061915096 0.14741376 0.38593423 0.23852047
0.030037878 0.077267274 0.062008634 0.14741376 0.38593423 0.23852047
0.029177003 0.077758662 0.062089805 0.14741376 0.38593423 0.23852047
0.028286379 0.078170709 0.06212578 0.14741376 0.38593423 0.23852047
0.027395807 0.078581855 0.062161412 0.14741376 0.38593423 0.23852047
0.026466956 0.078894839 0.062140822 0.14741376 0.38593423 0.23852047
0.025537841 0.079207912 0.062120322 0.14741376 0.38593423 0.23852047
0.024576508 0.079441376 0.062054023 0.14741376 0.38593423 0.23852047
0.023606248 0.079654925 0.061976172 0.14741376 0.38593423 0.23852047
0.022608945 0.079804674 0.061861403 0.14741376 0.38593423 0.23852047
0.02159398 0.079915091 0.06172372 0.14741376 0.38593423 0.23852047
0.020557923 0.079978943 0.061558865 0.14741376 0.38593423 0.23852047
0.019493124 0.079979144 0.061356839 0.14741376 0.38593423 0.23852047
0.018398287 0.079914249 0.061116684 0.14741376 0.38593423 0.23852047
0.017276064 0.079792164 0.060842849 0.14741376 0.38593423 0.23852047
0.016117813 0.079594195 0.060524348 0.14741376 0.38593423 0.23852047
0.01492788 0.079332292 0.060167994 0.14741376 0.38593423 0.23852047
0.013678238 0.078943767 0.059737124 0.14741376 0.38593423 0.23852047
0.012392116 0.078484617 0.059264142 0.14741376 0.38593423 0.23852047
0.011022793 0.077851094 0.058688339 0.14741376 0.38593423 0.23852047
0.0095605552 0.077025674 0.057999112 0.14741376 0.38593423 0.23852047
0.0079744821 0.075944275 0.057158574 0.14741376 0.38593423 0.23852047
0.0061724219 0.07440979 0.056050755 0.14741376 0.38593423 0.23852047
0.0038501623 0.071767256 0.054290649 0.14741376 0.38593423 0.23852047
0.039999999 0.0042104404 0.026147315 0.14741376 0.38593423 0.23852047
0.039999999 0.0085067386 0.028302463 0.14741376 0.38593423 0.23852047
0.039999999 0.012714947 0.030413525 0.14741376 0.38593423 0.23852047
0.039999999 0.0168378 0.032481872 0.14741376 0.38593423 0.23852047
0.039999999 0.020877924 0.034508813 0.14741376 0.38593423 0.23852047
0.039999999 0.024837837 0.036495615 0.14741376 0.38593423 0.23852047
0.039999999 0.028719952 0.038443483 0.14741376 0.38593423 0.23852047
0.039808344 0.031896021 0.039999999 0.14741376 0.38593423 0.23852047
0.038781349 0.032292806 0.039999999 0.14741376 0.38593423 0.23852047
0.037754633 0.032689285 0.039999999 0.14741376 0.38593423 0.23852047
0.036728181 0.033085469 0.039999999 0.14741376 0.38593423 0.23852047
0.035701972 0.033481359 0.039999999 0.14741376 0.38593423 0.23852047
0.034675997 0.033876967 0.039999999 0.14741376 0.38593423 0.23852047
0.033650242 0.034272294 0.039999999 0.14741376 0.38593423 0.23852047
0.03956699 0.055911548 0.052006278 0.14741376 0.38593423 0.23852047
0.03997612 0.060440559 0.0543589 0.14741376 0.38593423 0.23852047
0.039749037 0.062978186 0.055588976 0.14741376 0.38593423 0.23852047
0.03934918 0.064959347 0.056506407 0.14741376 0.38593423 0.23852047
0.038855225 0.066631638 0.057250682 0.14741376 0.38593423 0.23852047
0.038286269 0.068059556 0.057857882 0.14741376 0.38593423 0.23852047
0.037664965 0.069315463 0.058368701 0.14741376 0.38593423 0.23852047
0.037019446 0.070484631 0.058831383 0.14741376 0.38593423 0.23852047
0.03632718 0.071505718 0.059210781 0.14741376 0.38593423 0.23852047
0.035616677 0.072462827 0.059554622 0.14741376 0.38593423 0.23852047
0.034878578 0.073331751 0.059848949 0.14741376 0.38593423 0.23852047
0.034119532 0.074133232 0.060105458 0.14741376 0.38593423 0.23852047
0.033340331 0.074871294 0.060326323 0.14741376 0.38593423 0.23852047
0.03254234 0.075551353 0.060514528 0.14741376 0.38593423 0.23852047
0.031724758 0.076172888 0.060669653 0.14741376 0.38593423 0.23852047
0.030893285 0.076752603 0.060801182 0.14741376 0.38593423 0.23852047
0.030038513 0.077266894 0.060895458 0.14741376 0.38593423 0.23852047
0.029176341 0.077758968 0.060977239 0.14741376 0.38593423 0.23852047
0.028284391 0.078171626 0.06101349 0.14741376 0.38593423 0.23852047
0.027392354 0.078583017 0.061049171 0.14741376 0.38593423 0.23852047
0.026462121 0.07889647 0.061028395 0.14741376 0.38593423 0.23852047
0.025531622 0.079210006 0.061007701 0.14741376 0.38593423 0.23852047
0.024568576 0.079443119 0.060940441 0.14741376 0.38593423 0.23852047
0.023596864 0.079656988 0.060861934 0.14741376 0.38593423 0.23852047
0.022597635 0.079805903 0.060745593 0.14741376 0.38593423 0.23852047
0.021581139 0.079916492 0.060606774 0.14741376 0.38593423 0.23852047
0.020543352 0.079980038 0.060440321 0.14741376 0.38593423 0.23852047
0.019476933 0.079980239 0.060236629 0.14741376 0.38593423 0.23852047
0.018379128 0.079912163 0.059992705 0.14741376 0.38593423 0.23852047
0.01725517 0.079789892 0.059716616 0.14741376 0.38593423 0.23852047
0.016093979 0.079588942 0.059393946 0.14741376 0.38593423 0.23852047
0.014902172 0.079326637 0.05903466 0.14741376 0.38593423 0.23852047
0.013648982 0.078933902 0.058598161 0.14741376 0.38593423 0.23852047
0.012358635 0.078469127 0.058118425 0.14741376 0.38593423 0.23852047
0.010987046 0.077834554 0.057537884 0.14741376 0.38593423 0.23852047
0.0095192613 0.077000834 0.056838922 0.14741376 0.38593423 0.23852047
0.0079258028 0.075907268 0.055985395 0.14741376 0.38593423 0.23852047
0.0061129499 0.074353456 0.054858632 0.14741376 0.38593423 0.23852047
0.0037397647 0.071604438 0.05302396 0.14741376 0.38593423 0.23852047
0.039999999 0.004013374 0.024708649 0.14741376 0.38593423 0.23852047
0.039999999 0.008320054 0.026882917 0.14741376 0.38593423 0.23852047
0.039999999 0.012538261 0.029012611 0.14741376 0.38593423 0.23852047
0.039999999 0.016670747 0.03109912 0.14741376 0.38593423 0.23852047
0.039999999 0.020720152 0.033143777 0.14741376 0.38593423 0.23852047
0.039999999 0.024689009 0.035147853 0.14741376 0.38593423 0.23852047
0.039999999 0.028579751 0.037112575 0.14741376 0.38593423 0.23852047
0.039999999 0.032394711 0.03903912 0.14741376 0.38593423 0.23852047
0.039495189 0.034492198 0.039999999 0.14741376 0.38593423 0.23852047
0.03847326 0.034886438 0.039999999 0.14741376 0.38593423 0.23852047
0.037451599 0.035280399 0.039999999 0.14741376 0.38593423 0.23852047
0.036430184 0.035674084 0.039999999 0.14741376 0.38593423 0.23852047
0.035409003 0.036067504 0.039999999 0.14741376 0.38593423 0.23852047
0.034388043 0.03646066 0.039999999 0.14741376 0.38593423 0.23852047
0.039540146 0.055747829 0.050745077 0.14741376 0.38593423 0.23852047
0.039979611 0.060376178 0.05316871 0.14741376 0.38593423 0.23852047
0.039756626 0.062931918 0.054416597 0.14741376 0.38593423 0.23852047
0.039358821 0.06492462 0.055346139 0.14741376 0.38593423 0.23852047
0.038865853 0.066604964 0.056099471 0.14741376 0.38593423 0.23852047
0.038295977 0.068035193 0.056711573 0.14741376 0.38593423 0.23852047
0.037674926 0.06929668 0.057228561 0.14741376 0.38593423 0.23852047
0.037029263 0.070470154 0.057696383 0.14741376 0.38593423 0.23852047
0.036335923 0.071492821 0.058078829 0.14741376 0.38593423 0.23852047
0.035624932 0.072453104 0.05842641 0.14741376 0.38593423 0.23852047
0.034885708 0.073323354 0.058723092 0.14741376 0.38593423 0.23852047
0.03412592 0.074127175 0.058982305 0.14741376 0.38593423 0.23852047
0.033345547 0.074866354 0.059204936 0.14741376 0.38593423 0.23852047
0.032546602 0.075548112 0.05939503 0.14741376 0.38593423 0.23852047
0.031727798 0.076170579 0.059551384 0.14741376 0.38593423 0.23852047
0.030895194 0.076751448 0.059684128 0.14741376 0.38593423 0.23852047
0.030039148 0.077266507 0.059779145 0.14741376 0.38593423 0.23852047
0.029175676 0.077759273 0.059861537 0.14741376 0.38593423 0.23852047
0.0282824 0.07817255 0.05989806 0.14741376 0.38593423 0.23852047
0.027388891 0.078584187 0.059933789 0.14741376 0.38593423 0.23852047
0.026457271 0.078898102 0.059912831 0.14741376 0.38593423 0.23852047
0.025525387 0.079212107 0.059891943 0.14741376 0.38593423 0.23852047
0.024560621 0.07944487 0.05982371 0.14741376 0.38593423 0.23852047
0.023587454 0.07965906 0.059744541 0.14741376 0.38593423 0.23852047
0.022586292 0.07980714 0.05962662 0.14741376 0.38593423 0.23852047
0.021568263 0.079917893 0.05948665 0.14741376 0.38593423 0.23852047
0.020528737 0.079981133 0.059318587 0.14741376 0.38593423 0.23852047
0.019460699 0.079981335 0.059113227 0.14741376 0.38593423 0.23852047
0.018359914 0.079910077 0.058865491 0.14741376 0.38593423 0.23852047
0.017234217 0.079787612 0.058587141 0.14741376 0.38593423 0.23852047
0.016070073 0.079583682 0.058260258 0.14741376 0.38593423 0.23852047
0.014876389 0.07932096 0.05789803 0.14741376 0.38593423 0.23852047
0.01361964 0.078924015 0.057455845 0.14741376 0.38593423 0.23852047
0.012325054 0.078453593 0.056969289 0.14741376 0.38593423 0.23852047
0.010951193 0.077817969 0.05638399 0.14741376 0.38593423 0.23852047
0.0094778407 0.076975912 0.055675197 0.14741376 0.38593423 0.23852047
0.0078769708 0.075870149 0.054808542 0.14741376 0.38593423 0.23852047
0.0060532843 0.074296936 0.053662628 0.14741376 0.38593423 0.23852047
0.0036289317 0.071440972 0.051752284 0.14741376 0.38593423 0.23852047
0.039999999 0.0038155618 0.023264538 0.14741376 0.38593423 0.23852047
0.039999999 0.008132671 0.025458056 0.14741376 0.38593423 0.23852047
0.039999999 0.01236092 0.02760651 0.14741376 0.38593423 0.23852047
0.039999999 0.016503081 0.029711304 0.14741376 0.38593423 0.23852047
0.039999999 0.020561807 0.031773787 0.14741376 0.38593423 0.23852047
0.039999999 0.024539649 0.033795252 0.14741376 0.38593423 0.23852047
0.039999999 0.028439052 0.035776939 0.14741376 0.38593423 0.23852047
0.039999999 0.032262366 0.037720036 0.14741376 0.38593423 0.23852047
0.039999999 0.036011845 0.039625689 0.14741376 0.38593423 0.23852047
0.039184958 0.037062403 0.039999999 0.14741376 0.38593423 0.23852047
0.038168039 0.037454166 0.039999999 0.14741376 0.38593423 0.23852047
0.037151374 0.037845671 0.039999999 0.14741376 0.38593423 0.23852047
0.036134943 0.038236924 0.039999999 0.14741376 0.38593423 0.23852047
0.035118736 0.038627937 0.039999999 0.14741376 0.38593423 0.23852047
0.039424464 0.055311821 0.049323644 0.14741376 0.38593423 0.23852047
0.039983112 0.060311589 0.051974729 0.14741376 0.38593423 0.23852047
0.039764233 0.062885508 0.053240608 0.14741376 0.38593423 0.23852047
0.039368492 0.064889781 0.05418238 0.14741376 0.38593423 0.23852047
0.038876507 0.066578217 0.054944843 0.14741376 0.38593423 0.23852047
0.038305715 0.068010755 0.055561874 0.14741376 0.38593423 0.23852047
0.037684914 0.069277838 0.056085087 0.14741376 0.38593423 0.23852047
0.037039105 0.070455641 0.056558091 0.14741376 0.38593423 0.23852047
0.036344692 0.071479887 0.056943603 0.14741376 0.38593423 0.23852047
0.035633214 0.072443359 0.05729495 0.14741376 0.38593423 0.23852047
0.034892861 0.073314935 0.057594005 0.14741376 0.38593423 0.23852047
0.034132332 0.07412111 0.057855941 0.14741376 0.38593423 0.23852047
0.033350777 0.0748614 0.058080342 0.14741376 0.38593423 0.23852047
0.032550883 0.075544864 0.058272339 0.14741376 0.38593423 0.23852047
0.031730849 0.076168261 0.058429934 0.14741376 0.38593423 0.23852047
0.030897111 0.076750301 0.058563899 0.14741376 0.38593423 0.23852047
0.030039787 0.077266127 0.058659662 0.14741376 0.38593423 0.23852047
0.02917501 0.077759579 0.058742668 0.14741376 0.38593423 0.23852047
0.028280402 0.078173473 0.058779467 0.14741376 0.38593423 0.23852047
0.027385419 0.078585356 0.058815245 0.14741376 0.38593423 0.23852047
0.026452409 0.078899741 0.058794096 0.14741376 0.38593423 0.23852047
0.025519133 0.079214215 0.058773015 0.14741376 0.38593423 0.23852047
0.024552645 0.079446629 0.058703803 0.14741376 0.38593423 0.23852047
0.023578018 0.079661138 0.05862397 0.14741376 0.38593423 0.23852047
0.022574918 0.079808377 0.058504451 0.14741376 0.38593423 0.23852047
0.021555351 0.079919294 0.058363326 0.14741376 0.38593423 0.23852047
0.020514082 0.079982229 0.058193643 0.14741376 0.38593423 0.23852047
0.019444417 0.079982437 0.057986602 0.14741376 0.38593423 0.23852047
0.018340643 0.079907976 0.057735018 0.14741376 0.38593423 0.23852047
0.017213205 0.079785325 0.057454392 0.14741376 0.38593423 0.23852047
0.016046098 0.079578407 0.057123262 0.14741376 0.38593423 0.23852047
0.01485053 0.079315268 0.056758072 0.14741376 0.38593423 0.23852047
0.013590212 0.078914106 0.056310154 0.14741376 0.38593423 0.23852047
0.012291372 0.078438006 0.055816706 0.14741376 0.38593423 0.23852047
0.010915232 0.077801332 0.05522662 0.14741376 0.38593423 0.23852047
0.0094362944 0.076950915 0.0545079 0.14741376 0.38593423 0.23852047
0.0078279842 0.075832903 0.053627983 0.14741376 0.38593423 0.23852047
0.0059934231 0.074240237 0.052462701 0.14741376 0.38593423 0.23852047
0.0035176596 0.071276858 0.050475564 0.14741376 0.38593423 0.23852047
0.039999999 0.0036169968 0.021814933 0.14741376 0.38593423 0.23852047
0.039999999 0.007944583 0.024027832 0.14741376 0.38593423 0.23852047
0.039999999 0.01218292 0.026195172 0.14741376 0.38593423 0.23852047
0.039999999 0.016334796 0.028318373 0.14741376 0.38593423 0.23852047
0.039999999 0.020402886 0.030398805 0.14741376 0.38593423 0.23852047
0.039999999 0.024389751 0.032437772 0.14741376 0.38593423 0.23852047
0.039999999 0.028297853 0.034436531 0.14741376 0.38593423 0.23852047
0.039999999 0.032129552 0.036396287 0.14741376 0.38593423 0.23852047
0.039999999 0.035887122 0.038318206 0.14741376 0.38593423 0.23852047
0.039889839 0.039217517 0.039999999 0.14741376 0.38593423 0.23852047
0.038877618 0.039607104 0.039999999 0.14741376 0.38593423 0.23852047
0.037865654 0.039996453 0.039999999 0.14741376 0.38593423 0.23852047
0.036853932 0.040385567 0.039999999 0.14741376 0.38593423 0.23852047
0.035842434 0.040774453 0.039999999 0.14741376 0.38593423 0.23852047
0.039272118 0.05476309 0.047830909 0.14741376 0.38593423 0.23852047
0.039986622 0.060246795 0.050776921 0.14741376 0.38593423 0.23852047
0.039771866 0.062838957 0.052060973 0.14741376 0.38593423 0.23852047
0.039378192 0.064854838 0.053015094 0.14741376 0.38593423 0.23852047
0.038887199 0.066551395 0.053786773 0.14741376 0.38593423 0.23852047
0.038315482 0.067986242 0.054408755 0.14741376 0.38593423 0.23852047
0.037694935 0.069258943 0.054938249 0.14741376 0.38593423 0.23852047
0.037048977 0.070441082 0.05541648 0.14741376 0.38593423 0.23852047
0.036353484 0.071466923 0.055805076 0.14741376 0.38593423 0.23852047
0.035641517 0.072433583 0.056160219 0.14741376 0.38593423 0.23852047
0.034900036 0.073306486 0.056461658 0.14741376 0.38593423 0.23852047
0.034138758 0.074115023 0.056726336 0.14741376 0.38593423 0.23852047
0.033356022 0.07485643 0.056952521 0.14741376 0.38593423 0.23852047
0.03255517 0.075541601 0.057146434 0.14741376 0.38593423 0.23852047
0.031733908 0.076165937 0.057305276 0.14741376 0.38593423 0.23852047
0.030899031 0.076749146 0.057440467 0.14741376 0.38593423 0.23852047
0.030040426 0.077265739 0.057536982 0.14741376 0.38593423 0.23852047
0.029174343 0.077759892 0.057620604 0.14741376 0.38593423 0.23852047
0.028278399 0.078174405 0.057657681 0.14741376 0.38593423 0.23852047
0.027381936 0.078586534 0.0576935 0.14741376 0.38593423 0.23852047
0.026447533 0.078901388 0.057672165 0.14741376 0.38593423 0.23852047
0.025512861 0.079216331 0.05765089 0.14741376 0.38593423 0.23852047
0.024544645 0.079448387 0.057580683 0.14741376 0.38593423 0.23852047
0.023568556 0.079663217 0.057500184 0.14741376 0.38593423 0.23852047
0.02256351 0.079809614 0.057379052 0.14741376 0.38593423 0.23852047
0.0215424 0.079920702 0.057236768 0.14741376 0.38593423 0.23852047
0.020499384 0.079983331 0.057065457 0.14741376 0.38593423 0.23852047
0.019428087 0.07998354 0.056856722 0.14741376 0.38593423 0.23852047
0.018321319 0.079905875 0.056601256 0.14741376 0.38593423 0.23852047
0.017192131 0.07978303 0.056318343 0.14741376 0.38593423 0.23852047
0.016022053 0.079573117 0.055982921 0.14741376 0.38593423 0.23852047
0.014824595 0.07930956 0.055614758 0.14741376 0.38593423 0.23852047
0.013560696 0.078904159 0.055161051 0.14741376 0.38593423 0.23852047
0.012257588 0.078422375 0.054660648 0.14741376 0.38593423 0.23852047
0.010879161 0.077784643 0.054065749 0.14741376 0.38593423 0.23852047
0.0093946196 0.076925844 0.053337 0.14741376 0.38593423 0.23852047
0.0077788434 0.075795546 0.052443679 0.14741376 0.38593423 0.23852047
0.0059333644 0.074183345 0.051258817 0.14741376 0.38593423 0.23852047
0.0034059442 0.071112089 0.049193759 0.14741376 0.38593423 0.23852047
0.039999999 0.0034176719 0.020359783 0.14741376 0.38593423 0.23852047
0.039999999 0.0077557825 0.022592196 0.14741376 0.38593423 0.23852047
0.039999999 0.012004253 0.024778549 0.14741376 0.38593423 0.23852047
0.039999999 0.01616589 0.026920283 0.14741376 0.38593423 0.23852047
0.039999999 0.02024338 0.029018778 0.14741376 0.38593423 0.23852047
0.039999999 0.024239307 0.031075364 0.14741376 0.38593423 0.23852047
0.039999999 0.028156145 0.03309131 0.14741376 0.38593423 0.23852047
0.039999999 0.031996269 0.035067838 0.14741376 0.38593423 0.23852047
0.039999999 0.03576196 0.037006117 0.14741376 0.38593423 0.23852047
0.039999999 0.039455414 0.038907278 0.14741376 0.38593423 0.23852047
0.039580438 0.041739542 0.039999999 0.14741376 0.38593423 0.23852047
0.038573135 0.042126756 0.039999999 0.14741376 0.38593423 0.23852047
0.037566073 0.042513754 0.039999999 0.14741376 0.38593423 0.23852047
0.036559239 0.04290054 0.039999999 0.14741376 0.38593423 0.23852047
0.039118838 0.054210976 0.046328984 0.14741376 0.38593423 0.23852047
0.039990146 0.060181793 0.049575251 0.14741376 0.38593423 0.23852047
0.039779525 0.062792264 0.050877668 0.14741376 0.38593423 0.23852047
0.039387923 0.06481979 0.051844247 0.14741376 0.38593423 0.23852047
0.03889792 0.066524483 0.052625224 0.14741376 0.38593423 0.23852047
0.03832528 0.067961656 0.05325219 0.14741376 0.38593423 0.23852047
0.037704982 0.069239989 0.053788021 0.14741376 0.38593423 0.23852047
0.037058875 0.070426479 0.054271519 0.14741376 0.38593423 0.23852047
0.036362305 0.071453914 0.054663211 0.14741376 0.38593423 0.23852047
0.035649847 0.072423771 0.05502218 0.14741376 0.38593423 0.23852047
0.034907229 0.073298015 0.055326018 0.14741376 0.38593423 0.23852047
0.034145202 0.074108914 0.055593461 0.14741376 0.38593423 0.23852047
0.033361282 0.074851453 0.055821437 0.14741376 0.38593423 0.23852047
0.032559473 0.07553833 0.056017283 0.14741376 0.38593423 0.23852047
0.031736974 0.076163605 0.056177378 0.14741376 0.38593423 0.23852047
0.030900959 0.076747984 0.056313805 0.14741376 0.38593423 0.23852047
0.030041069 0.077265352 0.056411073 0.14741376 0.38593423 0.23852047
0.029173672 0.077760197 0.056495316 0.14741376 0.38593423 0.23852047
0.028276389 0.078175329 0.05653267 0.14741376 0.38593423 0.23852047
0.027378444 0.078587703 0.056568533 0.14741376 0.38593423 0.23852047
0.026442641 0.078903034 0.056547008 0.14741376 0.38593423 0.23852047
0.025506571 0.079218447 0.056525536 0.14741376 0.38593423 0.23852047
0.024536623 0.079450153 0.056454334 0.14741376 0.38593423 0.23852047
0.023559064 0.079665311 0.056373164 0.14741376 0.38593423 0.23852047
0.022552069 0.079810865 0.056250401 0.14741376 0.38593423 0.23852047
0.021529414 0.079922117 0.056106951 0.14741376 0.38593423 0.23852047
0.020484645 0.079984441 0.055934001 0.14741376 0.38593423 0.23852047
0.019411474 0.079984076 0.055723224 0.14741376 0.38593423 0.23852047
0.018301936 0.079903767 0.055464175 0.14741376 0.38593423 0.23852047
0.017170994 0.079780735 0.055178959 0.14741376 0.38593423 0.23852047
0.015997937 0.079567805 0.054839209 0.14741376 0.38593423 0.23852047
0.014798583 0.079303838 0.054468054 0.14741376 0.38593423 0.23852047
0.013531091 0.078894183 0.054008503 0.14741376 0.38593423 0.23852047
0.012223703 0.078406699 0.053501077 0.14741376 0.38593423 0.23852047
0.010842981 0.077767909 0.052901339 0.14741376 0.38593423 0.23852047
0.0093528144 0.076900691 0.052162465 0.14741376 0.38593423 0.23852047
0.0077295452 0.07575807 0.051255602 0.14741376 0.38593423 0.23852047
0.0058731064 0.074126273 0.050050944 0.14741376 0.38593423 0.23852047
0.0032937813 0.070946656 0.047906816 0.14741376 0.38593423 0.23852047
0.039999999 0.0032175805 0.018899033 0.14741376 0.38593423 0.23852047
0.039999999 0.0075662634 0.021151096 0.14741376 0.38593423 0.23852047
0.039999999 0.011824913 0.023356592 0.14741376 0.38593423 0.23852047
0.039999999 0.015996352 0.025516981 0.14741376 0.38593423 0.23852047
0.039999999 0.020083288 0.027633665 0.14741376 0.38593423 0.23852047
0.039999999 0.024088316 0.029707985 0.14741376 0.38593423 0.23852047
0.039999999 0.028013924 0.031741228 0.14741376 0.38593423 0.23852047
0.039999999 0.031862505 0.033734635 0.14741376 0.38593423 0.23852047
0.039999999 0.035636358 0.035689387 0.14741376 0.38593423 0.23852047
0.039999999 0.03933768 0.037606627 0.14741376 0.38593423 0.23852047
0.039999999 0.042968597 0.039487451 0.14741376 0.38593423 0.23852047
0.039273921 0.044236902 0.039999999 0.14741376 0.38593423 0.23852047
0.038271476 0.044621803 0.039999999 0.14741376 0.38593423 0.23852047
0.037269264 0.045006514 0.039999999 0.14741376 0.38593423 0.23852047
0.038964603 0.053655442 0.044817753 0.14741376 0.38593423 0.23852047
0.039993681 0.060116582 0.048369687 0.14741376 0.38593423 0.23852047
0.039787203 0.062745415 0.049690649 0.14741376 0.38593423 0.23852047
0.039397683 0.064784639 0.050669812 0.14741376 0.38593423 0.23852047
0.038908672 0.066497497 0.051460166 0.14741376 0.38593423 0.23852047
0.038335104 0.067937002 0.052092146 0.14741376 0.38593423 0.23852047
0.037715062 0.069220982 0.052634366 0.14741376 0.38593423 0.23852047
0.037068803 0.070411831 0.053123172 0.14741376 0.38593423 0.23852047
0.036371149 0.071440861 0.053517982 0.14741376 0.38593423 0.23852047
0.035658199 0.072413944 0.053880811 0.14741376 0.38593423 0.23852047
0.034914441 0.073289521 0.054187056 0.14741376 0.38593423 0.23852047
0.034151666 0.074102789 0.054457285 0.14741376 0.38593423 0.23852047
0.033366557 0.074846454 0.054687064 0.14741376 0.38593423 0.23852047
0.032563787 0.075535052 0.054884858 0.14741376 0.38593423 0.23852047
0.031740051 0.076161265 0.055046212 0.14741376 0.38593423 0.23852047
0.03090289 0.076746821 0.055183884 0.14741376 0.38593423 0.23852047
0.030041711 0.077264965 0.055281907 0.14741376 0.38593423 0.23852047
0.029173 0.07776051 0.055366773 0.14741376 0.38593423 0.23852047
0.028274376 0.07817626 0.05540441 0.14741376 0.38593423 0.23852047
0.027374942 0.078588888 0.055440314 0.14741376 0.38593423 0.23852047
0.026437737 0.078904688 0.055418599 0.14741376 0.38593423 0.23852047
0.025500264 0.079220571 0.055396929 0.14741376 0.38593423 0.23852047
0.024528576 0.079451926 0.055324715 0.14741376 0.38593423 0.23852047
0.023549546 0.079667404 0.05524287 0.14741376 0.38593423 0.23852047
0.022540595 0.079812109 0.055118468 0.14741376 0.38593423 0.23852047
0.021516388 0.079923533 0.054973844 0.14741376 0.38593423 0.23852047
0.020469861 0.079985544 0.05479924 0.14741376 0.38593423 0.23852047
0.019394392 0.079983614 0.054585811 0.14741376 0.38593423 0.23852047
0.018282497 0.079901651 0.05432374 0.14741376 0.38593423 0.23852047
0.017149795 0.079778425 0.054036211 0.14741376 0.38593423 0.23852047
0.015973749 0.079562485 0.053692095 0.14741376 0.38593423 0.23852047
0.014772494 0.079298094 0.053317931 0.14741376 0.38593423 0.23852047
0.013501396 0.078884177 0.052852485 0.14741376 0.38593423 0.23852047
0.012189713 0.078390978 0.052337967 0.14741376 0.38593423 0.23852047
0.01080669 0.077751115 0.05173336 0.14741376 0.38593423 0.23852047
0.0093108797 0.076875456 0.05098426 0.14741376 0.38593423 0.23852047
0.0076800892 0.075720474 0.050063714 0.14741376 0.38593423 0.23852047
0.0058126473 0.074069001 0.04883904 0.14741376 0.38593423 0.23852047
0.0031811665 0.070780568 0.046614692 0.14741376 0.38593423 0.23852047
0.039999999 0.0030167147 0.017432632 0.14741376 0.38593423 0.23852047
0.039999999 0.0073760194 0.01970448 0.14741376 0.38593423 0.23852047
0.039999999 0.011644894 0.021929251 0.14741376 0.38593423 0.23852047
0.039999999 0.015826181 0.024108423 0.14741376 0.38593423 0.23852047
0.039999999 0.019922601 0.026243417 0.14741376 0.38593423 0.23852047
0.039999999 0.023936769 0.028335588 0.14741376 0.38593423 0.23852047
0.039999999 0.027871188 0.030386245 0.14741376 0.38593423 0.23852047
0.039999999 0.031728264 0.032396637 0.14741376 0.38593423 0.23852047
0.039999999 0.035510305 0.034367967 0.14741376 0.38593423 0.23852047
0.039999999 0.039219528 0.036301389 0.14741376 0.38593423 0.23852047
0.039999999 0.042858072 0.038198013 0.14741376 0.38593423 0.23852047
0.039968114 0.0463272 0.039999999 0.14741376 0.38593423 0.23852047
0.038970247 0.046710033 0.039999999 0.14741376 0.38593423 0.23852047
0.037972614 0.047092687 0.039999999 0.14741376 0.38593423 0.23852047
0.036975197 0.047475167 0.039999999 0.14741376 0.38593423 0.23852047
0.039997227 0.060051154 0.04716019 0.14741376 0.38593423 0.23852047
0.039794911 0.062698424 0.048499886 0.14741376 0.38593423 0.23852047
0.039407473 0.064749375 0.049491748 0.14741376 0.38593423 0.23852047
0.03891946 0.066470429 0.050291568 0.14741376 0.38593423 0.23852047
0.038344961 0.067912266 0.050928585 0.14741376 0.38593423 0.23852047
0.037725169 0.069201916 0.051477253 0.14741376 0.38593423 0.23852047
0.037078764 0.070397146 0.051971417 0.14741376 0.38593423 0.23852047
0.036380023 0.071427777 0.05236936 0.14741376 0.38593423 0.23852047
0.035666578 0.072404079 0.052736077 0.14741376 0.38593423 0.23852047
0.03492168 0.073281005 0.053044744 0.14741376 0.38593423 0.23852047
0.034158148 0.07409665 0.053317782 0.14741376 0.38593423 0.23852047
0.033371847 0.07484144 0.053549372 0.14741376 0.38593423 0.23852047
0.032568112 0.075531766 0.053749125 0.14741376 0.38593423 0.23852047
0.031743135 0.076158918 0.053911746 0.14741376 0.38593423 0.23852047
0.03090483 0.076745652 0.054050669 0.14741376 0.38593423 0.23852047
0.030042358 0.077264577 0.054149456 0.14741376 0.38593423 0.23852047
0.029172327 0.077760823 0.054234952 0.14741376 0.38593423 0.23852047
0.028272355 0.078177199 0.054272868 0.14741376 0.38593423 0.23852047
0.027371429 0.078590073 0.054308809 0.14741376 0.38593423 0.23852047
0.026432818 0.078906342 0.054286905 0.14741376 0.38593423 0.23852047
0.025493937 0.079222709 0.054265033 0.14741376 0.38593423 0.23852047
0.024520507 0.079453699 0.054191802 0.14741376 0.38593423 0.23852047
0.023539999 0.079669505 0.054109279 0.14741376 0.38593423 0.23852047
0.022529088 0.079813361 0.053983219 0.14741376 0.38593423 0.23852047
0.021503324 0.079924956 0.053837415 0.14741376 0.38593423 0.23852047
0.020455034 0.079986654 0.053661145 0.14741376 0.38593423 0.23852047
0.01937726 0.079983152 0.053445037 0.14741376 0.38593423 0.23852047
0.018262999 0.079899535 0.053179923 0.14741376 0.38593423 0.23852047
0.017128533 0.079776116 0.05289007 0.14741376 0.38593423 0.23852047
0.015949488 0.079557143 0.052541547 0.14741376 0.38593423 0.23852047
0.014746327 0.079292335 0.052164357 0.14741376 0.38593423 0.23852047
0.013471613 0.078874141 0.051692963 0.14741376 0.38593423 0.23852047
0.012155619 0.078375198 0.05117128 0.14741376 0.38593423 0.23852047
0.010770286 0.077734277 0.050561778 0.14741376 0.38593423 0.23852047
0.0092688128 0.076850146 0.049802355 0.14741376 0.38593423 0.23852047
0.0076304739 0.075682759 0.048867986 0.14741376 0.38593423 0.23852047
0.0057519856 0.074011542 0.047623068 0.14741376 0.38593423 0.23852047
0.0030680955 0.070613801 0.045317333 0.14741376 0.38593423 0.23852047
0.039999999 0.0028150678 0.015960526 0.14741376 0.38593423 0.23852047
0.039999999 0.0071850428 0.018252296 0.14741376 0.38593423 0.23852047
0.039999999 0.01146419 0.020496475 0.14741376 0.38593423 0.23852047
0.039999999 0.015655369 0.022694558 0.14741376 0.38593423 0.23852047
0.039999999 0.019761316 0.024847984 0.14741376 0.38593423 0.23852047
0.039999999 0.023784664 0.026958128 0.14741376 0.38593423 0.23852047
0.039999999 0.02772793 0.029026311 0.14741376 0.38593423 0.23852047
0.039999999 0.031593535 0.031053802 0.14741376 0.38593423 0.23852047
0.039999999 0.035383802 0.033041816 0.14741376 0.38593423 0.23852047
0.039999999 0.03910096 0.034991525 0.14741376 0.38593423 0.23852047
0.039999999 0.042747159 0.036904048 0.14741376 0.38593423 0.23852047
0.039999999 0.046324451 0.038780469 0.14741376 0.38593423 0.23852047
0.039662488 0.048778746 0.039999999 0.14741376 0.38593423 0.23852047
0.038669389 0.049159367 0.039999999 0.14741376 0.38593423 0.23852047
0.037676513 0.049539827 0.039999999 0.14741376 0.38593423 0.23852047
0.039998904 0.059979811 0.045943353 0.14741376 0.38593423 0.23852047
0.039802641 0.062651284 0.047305346 0.14741376 0.38593423 0.23852047
0.039417293 0.064714 0.04831003 0.14741376 0.38593423 0.23852047
0.038930278 0.066443272 0.049119402 0.14741376 0.38593423 0.23852047
0.038354844 0.067887455 0.049761482 0.14741376 0.38593423 0.23852047
0.037735309 0.069182791 0.050316654 0.14741376 0.38593423 0.23852047
0.037088752 0.070382409 0.050816219 0.14741376 0.38593423 0.23852047
0.036388919 0.071414657 0.05121731 0.14741376 0.38593423 0.23852047
0.035674982 0.072394185 0.051587947 0.14741376 0.38593423 0.23852047
0.034928937 0.073272459 0.051899049 0.14741376 0.38593423 0.23852047
0.034164649 0.074090496 0.052174918 0.14741376 0.38593423 0.23852047
0.033377152 0.074836418 0.05240833 0.14741376 0.38593423 0.23852047
0.032572452 0.075528465 0.052610058 0.14741376 0.38593423 0.23852047
0.031746227 0.076156564 0.052773949 0.14741376 0.38593423 0.23852047
0.030906772 0.076744482 0.052914135 0.14741376 0.38593423 0.23852047
0.030043004 0.07726419 0.05301369 0.14741376 0.38593423 0.23852047
0.029171651 0.077761136 0.053099811 0.14741376 0.38593423 0.23852047
0.028270328 0.078178138 0.05313801 0.14741376 0.38593423 0.23852047
0.027367907 0.078591257 0.053173989 0.14741376 0.38593423 0.23852047
0.026427884 0.078908004 0.053151894 0.14741376 0.38593423 0.23852047
0.025487592 0.07922484 0.053129826 0.14741376 0.38593423 0.23852047
0.024512414 0.07945548 0.053055566 0.14741376 0.38593423 0.23852047
0.023530426 0.079671614 0.052972358 0.14741376 0.38593423 0.23852047
0.022517547 0.07981462 0.052844625 0.14741376 0.38593423 0.23852047
0.021490222 0.079926379 0.052697636 0.14741376 0.38593423 0.23852047
0.020440165 0.079987772 0.052519694 0.14741376 0.38593423 0.23852047
0.019360077 0.079982683 0.052300878 0.14741376 0.38593423 0.23852047
0.018243445 0.079897404 0.052032698 0.14741376 0.38593423 0.23852047
