# .PCD v0.7 - Point Cloud Data file format
VERSION 0.7
FIELDS x y z vp_x vp_y vp_z
SIZE 4 4 4 4 4 4
TYPE F F F F F F
COUNT 1 1 1 1 1 1
WIDTH 728
HEIGHT 1
VIEWPOINT 0 0 0 1 0 0 0
POINTS 728
DATA ascii
0.028558349 0.0051097404 0.039999999 0.23852047 0.14741376 0.38593423
0.027967917 0.0060653263 0.039999999 0.23852047 0.14741376 0.38593423
0.02737754 0.0070207934 0.039999999 0.23852047 0.14741376 0.38593423
0.026787212 0.0079761539 0.039999999 0.23852047 0.14741376 0.38593423
0.026196925 0.0089314217 0.039999999 0.23852047 0.14741376 0.38593423
0.025606669 0.0098866094 0.039999999 0.23852047 0.14741376 0.38593423
0.02501644 0.010841731 0.039999999 0.23852047 0.14741376 0.38593423
0.024426226 0.011796799 0.039999999 0.23852047 0.14741376 0.38593423
0.02383602 0.012751826 0.039999999 0.23852047 0.14741376 0.38593423
0.023245815 0.013706826 0.039999999 0.23852047 0.14741376 0.38593423
0.022655601 0.014661811 0.039999999 0.23852047 0.14741376 0.38593423
0.022065371 0.015616796 0.039999999 0.23852047 0.14741376 0.38593423
0.021475118 0.016571794 0.039999999 0.23852047 0.14741376 0.38593423
0.020884831 0.017526817 0.039999999 0.23852047 0.14741376 0.38593423
0.020294502 0.018481877 0.039999999 0.23852047 0.14741376 0.38593423
0.019704126 0.019436989 0.039999999 0.23852047 0.14741376 0.38593423
0.019113693 0.020392166 0.039999999 0.23852047 0.14741376 0.38593423
0.018523196 0.021347422 0.039999999 0.23852047 0.14741376 0.38593423
0.017932624 0.022302769 0.039999999 0.23852047 0.14741376 0.38593423
0.017341971 0.02325822 0.039999999 0.23852047 0.14741376 0.38593423
0.01675123 0.024213787 0.039999999 0.23852047 0.14741376 0.38593423
0.016160389 0.025169486 0.039999999 0.23852047 0.14741376 0.38593423
0.015569445 0.02612533 0.039999999 0.23852047 0.14741376 0.38593423
0.014978386 0.027081329 0.039999999 0.23852047 0.14741376 0.38593423
0.014387204 0.0280375 0.039999999 0.23852047 0.14741376 0.38593423
0.013795893 0.028993852 0.039999999 0.23852047 0.14741376 0.38593423
0.013204442 0.029950403 0.039999999 0.23852047 0.14741376 0.38593423
0.012612846 0.030907163 0.039999999 0.23852047 0.14741376 0.38593423
0.012021095 0.031864148 0.039999999 0.23852047 0.14741376 0.38593423
0.011429179 0.032821365 0.039999999 0.23852047 0.14741376 0.38593423
0.030582182 0.04363345 0.07 0.23852047 0.14741376 0.38593423
0.030041279 0.044508126 0.07 0.23852047 0.14741376 0.38593423
0.029500203 0.045383055 0.07 0.23852047 0.14741376 0.38593423
0.02895895 0.046258245 0.07 0.23852047 0.14741376 0.38593423
0.028417511 0.047133714 0.07 0.23852047 0.14741376 0.38593423
0.027875876 0.048009474 0.07 0.23852047 0.14741376 0.38593423
0.027334042 0.048885532 0.07 0.23852047 0.14741376 0.38593423
0.026791997 0.049761906 0.07 0.23852047 0.14741376 0.38593423
0.026249735 0.050638605 0.07 0.23852047 0.14741376 0.38593423
0.025707249 0.051515643 0.07 0.23852047 0.14741376 0.38593423
0.025164532 0.052393027 0.07 0.23852047 0.14741376 0.38593423
0.024621574 0.053270776 0.07 0.23852047 0.14741376 0.38593423
0.024078369 0.054148898 0.07 0.23852047 0.14741376 0.38593423
0.023534911 0.05502741 0.07 0.23852047 0.14741376 0.38593423
0.02299119 0.055906318 0.07 0.23852047 0.14741376 0.38593423
0.022447197 0.056785639 0.07 0.23852047 0.14741376 0.38593423
0.021902926 0.057665385 0.07 0.23852047 0.14741376 0.38593423
0.021358371 0.058545567 0.07 0.23852047 0.14741376 0.38593423
0.020813523 0.0594262 0.07 0.23852047 0.14741376 0.38593423
0.020268373 0.060307294 0.07 0.23852047 0.14741376 0.38593423
0.019722914 0.061188858 0.07 0.23852047 0.14741376 0.38593423
0.019177139 0.062070914 0.07 0.23852047 0.14741376 0.38593423
0.018631041 0.062953465 0.07 0.23852047 0.14741376 0.38593423
0.018084608 0.06383653 0.07 0.23852047 0.14741376 0.38593423
0.017537838 0.064720117 0.07 0.23852047 0.14741376 0.38593423
0.016990718 0.065604247 0.07 0.23852047 0.14741376 0.38593423
0.016443243 0.066488922 0.07 0.23852047 0.14741376 0.38593423
0.015895406 0.067374155 0.07 0.23852047 0.14741376 0.38593423
0.015347196 0.068259969 0.07 0.23852047 0.14741376 0.38593423
0.014798607 0.069146372 0.07 0.23852047 0.14741376 0.38593423
0.01424963 0.070033371 0.07 0.23852047 0.14741376 0.38593423
0.013700258 0.070920989 0.07 0.23852047 0.14741376 0.38593423
0.013150483 0.071809232 0.07 0.23852047 0.14741376 0.38593423
0.012600297 0.072698109 0.07 0.23852047 0.14741376 0.38593423
0.012049692 0.073587649 0.07 0.23852047 0.14741376 0.38593423
0.011498659 0.074477844 0.07 0.23852047 0.14741376 0.38593423
0.010947191 0.075368725 0.07 0.23852047 0.14741376 0.38593423
0.010395279 0.076260291 0.07 0.23852047 0.14741376 0.38593423
0.0098429155 0.077152565 0.07 0.23852047 0.14741376 0.38593423
0.033267695 0.00013204647 0.039999999 0.23852047 0.14741376 0.38593423
0.032677755 0.0010867252 0.039999999 0.23852047 0.14741376 0.38593423
0.03208793 0.0020412114 0.039999999 0.23852047 0.14741376 0.38593423
0.031498209 0.002995518 0.039999999 0.23852047 0.14741376 0.38593423
0.030908585 0.0039496585 0.039999999 0.23852047 0.14741376 0.38593423
0.030319048 0.0049036457 0.039999999 0.23852047 0.14741376 0.38593423
0.029729595 0.0058574928 0.039999999 0.23852047 0.14741376 0.38593423
0.029140214 0.0068112132 0.039999999 0.23852047 0.14741376 0.38593423
0.028550897 0.0077648195 0.039999999 0.23852047 0.14741376 0.38593423
0.027961638 0.0087183248 0.039999999 0.23852047 0.14741376 0.38593423
0.027372425 0.009671743 0.039999999 0.23852047 0.14741376 0.38593423
0.026783254 0.010625088 0.039999999 0.23852047 0.14741376 0.38593423
0.026194116 0.01157837 0.039999999 0.23852047 0.14741376 0.38593423
0.025605002 0.012531604 0.039999999 0.23852047 0.14741376 0.38593423
0.025015904 0.013484802 0.039999999 0.23852047 0.14741376 0.38593423
0.024426814 0.014437979 0.039999999 0.23852047 0.14741376 0.38593423
0.023837723 0.015391147 0.039999999 0.23852047 0.14741376 0.38593423
0.023248626 0.016344318 0.039999999 0.23852047 0.14741376 0.38593423
0.02265951 0.017297508 0.039999999 0.23852047 0.14741376 0.38593423
0.022070372 0.018250726 0.039999999 0.23852047 0.14741376 0.38593423
0.021481201 0.019203989 0.039999999 0.23852047 0.14741376 0.38593423
0.020891991 0.020157307 0.039999999 0.23852047 0.14741376 0.38593423
0.02030273 0.021110697 0.039999999 0.23852047 0.14741376 0.38593423
0.019713413 0.022064166 0.039999999 0.23852047 0.14741376 0.38593423
0.019124033 0.023017732 0.039999999 0.23852047 0.14741376 0.38593423
0.018534578 0.023971409 0.039999999 0.23852047 0.14741376 0.38593423
0.017945044 0.024925206 0.039999999 0.23852047 0.14741376 0.38593423
0.01735542 0.025879137 0.039999999 0.23852047 0.14741376 0.38593423
0.016765699 0.026833218 0.039999999 0.23852047 0.14741376 0.38593423
0.016175872 0.02778746 0.039999999 0.23852047 0.14741376 0.38593423
0.015585932 0.028741876 0.039999999 0.23852047 0.14741376 0.38593423
0.01499587 0.029696479 0.039999999 0.23852047 0.14741376 0.38593423
0.014405679 0.030651284 0.039999999 0.23852047 0.14741376 0.38593423
0.013815351 0.031606302 0.039999999 0.23852047 0.14741376 0.38593423
0.013224876 0.032561548 0.039999999 0.23852047 0.14741376 0.38593423
0.012634247 0.033517033 0.039999999 0.23852047 0.14741376 0.38593423
0.031683926 0.044267207 0.07 0.23852047 0.14741376 0.38593423
0.031144213 0.045140307 0.07 0.23852047 0.14741376 0.38593423
0.030604336 0.046013661 0.07 0.23852047 0.14741376 0.38593423
0.03006429 0.046887286 0.07 0.23852047 0.14741376 0.38593423
0.029524066 0.047761187 0.07 0.23852047 0.14741376 0.38593423
0.028983654 0.048635382 0.07 0.23852047 0.14741376 0.38593423
0.028443052 0.049509883 0.07 0.23852047 0.14741376 0.38593423
0.027902247 0.050384697 0.07 0.23852047 0.14741376 0.38593423
0.027361235 0.051259842 0.07 0.23852047 0.14741376 0.38593423
0.026820006 0.052135326 0.07 0.23852047 0.14741376 0.38593423
0.026278555 0.053011164 0.07 0.23852047 0.14741376 0.38593423
0.025736872 0.053887371 0.07 0.23852047 0.14741376 0.38593423
0.025194952 0.05476395 0.07 0.23852047 0.14741376 0.38593423
0.024652785 0.055640921 0.07 0.23852047 0.14741376 0.38593423
0.024110364 0.056518294 0.07 0.23852047 0.14741376 0.38593423
0.02356768 0.05739608 0.07 0.23852047 0.14741376 0.38593423
0.02302473 0.058274295 0.07 0.23852047 0.14741376 0.38593423
0.022481501 0.05915295 0.07 0.23852047 0.14741376 0.38593423
0.021937989 0.060032055 0.07 0.23852047 0.14741376 0.38593423
0.021394186 0.060911622 0.07 0.23852047 0.14741376 0.38593423
0.020850081 0.06179167 0.07 0.23852047 0.14741376 0.38593423
0.020305671 0.062672205 0.07 0.23852047 0.14741376 0.38593423
0.019760944 0.063553236 0.07 0.23852047 0.14741376 0.38593423
0.019215893 0.064434789 0.07 0.23852047 0.14741376 0.38593423
0.018670514 0.065316863 0.07 0.23852047 0.14741376 0.38593423
0.018124795 0.066199481 0.07 0.23852047 0.14741376 0.38593423
0.01757873 0.067082651 0.07 0.23852047 0.14741376 0.38593423
0.01703231 0.067966379 0.07 0.23852047 0.14741376 0.38593423
0.016485529 0.068850689 0.07 0.23852047 0.14741376 0.38593423
0.015938379 0.069735587 0.07 0.23852047 0.14741376 0.38593423
0.01539085 0.070621088 0.07 0.23852047 0.14741376 0.38593423
0.014842936 0.071507208 0.07 0.23852047 0.14741376 0.38593423
0.014294627 0.072393954 0.07 0.23852047 0.14741376 0.38593423
0.013745918 0.07328134 0.07 0.23852047 0.14741376 0.38593423
0.013196799 0.074169375 0.07 0.23852047 0.14741376 0.38593423
0.012647263 0.075058088 0.07 0.23852047 0.14741376 0.38593423
0.0120973 0.075947471 0.07 0.23852047 0.14741376 0.38593423
0.011546905 0.076837547 0.07 0.23852047 0.14741376 0.38593423
0.010996068 0.077728339 0.07 0.23852047 0.14741376 0.38593423
0.034428351 0.00088822277 0.039999999 0.23852047 0.14741376 0.38593423
0.033839416 0.0018410083 0.039999999 0.23852047 0.14741376 0.38593423
0.033250596 0.0027936071 0.039999999 0.23852047 0.14741376 0.38593423
0.032661892 0.0037460325 0.039999999 0.23852047 0.14741376 0.38593423
0.032073297 0.004698297 0.039999999 0.23852047 0.14741376 0.38593423
0.031484794 0.0056504146 0.039999999 0.23852047 0.14741376 0.38593423
0.030896379 0.0066023972 0.039999999 0.23852047 0.14741376 0.38593423
0.030308047 0.0075542587 0.039999999 0.23852047 0.14741376 0.38593423
0.029719787 0.0085060121 0.039999999 0.23852047 0.14741376 0.38593423
0.029131589 0.0094576702 0.039999999 0.23852047 0.14741376 0.38593423
0.02854345 0.010409246 0.039999999 0.23852047 0.14741376 0.38593423
0.027955359 0.011360753 0.039999999 0.23852047 0.14741376 0.38593423
0.027367309 0.012312204 0.039999999 0.23852047 0.14741376 0.38593423
0.026779288 0.013263611 0.039999999 0.23852047 0.14741376 0.38593423
0.026191294 0.014214989 0.039999999 0.23852047 0.14741376 0.38593423
0.025603315 0.015166349 0.039999999 0.23852047 0.14741376 0.38593423
0.025015345 0.016117705 0.039999999 0.23852047 0.14741376 0.38593423
0.024427375 0.017069072 0.039999999 0.23852047 0.14741376 0.38593423
0.023839395 0.018020459 0.039999999 0.23852047 0.14741376 0.38593423
0.023251401 0.018971881 0.039999999 0.23852047 0.14741376 0.38593423
0.022663383 0.019923352 0.039999999 0.23852047 0.14741376 0.38593423
0.022075331 0.020874882 0.039999999 0.23852047 0.14741376 0.38593423
0.02148724 0.021826489 0.039999999 0.23852047 0.14741376 0.38593423
0.0208991 0.022778181 0.039999999 0.23852047 0.14741376 0.38593423
0.020310903 0.023729974 0.039999999 0.23852047 0.14741376 0.38593423
0.019722644 0.024681881 0.039999999 0.23852047 0.14741376 0.38593423
0.019134311 0.025633914 0.039999999 0.23852047 0.14741376 0.38593423
0.018545898 0.026586086 0.039999999 0.23852047 0.14741376 0.38593423
0.017957395 0.027538409 0.039999999 0.23852047 0.14741376 0.38593423
0.017368795 0.028490901 0.039999999 0.23852047 0.14741376 0.38593423
0.016780093 0.029443569 0.039999999 0.23852047 0.14741376 0.38593423
0.016191276 0.03039643 0.039999999 0.23852047 0.14741376 0.38593423
0.015602338 0.031349495 0.039999999 0.23852047 0.14741376 0.38593423
0.015013272 0.032302778 0.039999999 0.23852047 0.14741376 0.38593423
0.014424068 0.033256292 0.039999999 0.23852047 0.14741376 0.38593423
0.013834719 0.034210049 0.039999999 0.23852047 0.14741376 0.38593423
0.032781467 0.044898547 0.07 0.23852047 0.14741376 0.38593423
0.032242939 0.045770079 0.07 0.23852047 0.14741376 0.38593423
0.031704258 0.046641864 0.07 0.23852047 0.14741376 0.38593423
0.031165414 0.047513925 0.07 0.23852047 0.14741376 0.38593423
0.030626398 0.048386265 0.07 0.23852047 0.14741376 0.38593423
0.030087207 0.049258903 0.07 0.23852047 0.14741376 0.38593423
0.029547829 0.05013185 0.07 0.23852047 0.14741376 0.38593423
0.02900826 0.051005114 0.07 0.23852047 0.14741376 0.38593423
0.028468492 0.051878709 0.07 0.23852047 0.14741376 0.38593423
0.027928514 0.052752648 0.07 0.23852047 0.14741376 0.38593423
0.027388323 0.053626943 0.07 0.23852047 0.14741376 0.38593423
0.02684791 0.054501608 0.07 0.23852047 0.14741376 0.38593423
0.026307266 0.055376653 0.07 0.23852047 0.14741376 0.38593423
0.025766386 0.056252088 0.07 0.23852047 0.14741376 0.38593423
0.025225259 0.05712793 0.07 0.23852047 0.14741376 0.38593423
0.02468388 0.058004189 0.07 0.23852047 0.14741376 0.38593423
0.024142241 0.058880877 0.07 0.23852047 0.14741376 0.38593423
0.023600334 0.059758008 0.07 0.23852047 0.14741376 0.38593423
0.023058154 0.060635589 0.07 0.23852047 0.14741376 0.38593423
0.022515688 0.06151364 0.07 0.23852047 0.14741376 0.38593423
0.021972932 0.062392171 0.07 0.23852047 0.14741376 0.38593423
0.021429878 0.063271187 0.07 0.23852047 0.14741376 0.38593423
0.020886518 0.064150713 0.07 0.23852047 0.14741376 0.38593423
0.020342844 0.065030754 0.07 0.23852047 0.14741376 0.38593423
0.019798847 0.065911323 0.07 0.23852047 0.14741376 0.38593423
0.019254522 0.066792436 0.07 0.23852047 0.14741376 0.38593423
0.018709861 0.0676741 0.07 0.23852047 0.14741376 0.38593423
0.018164854 0.068556331 0.07 0.23852047 0.14741376 0.38593423
0.017619494 0.069439143 0.07 0.23852047 0.14741376 0.38593423
0.017073775 0.070322543 0.07 0.23852047 0.14741376 0.38593423
0.016527686 0.071206547 0.07 0.23852047 0.14741376 0.38593423
0.015981222 0.07209117 0.07 0.23852047 0.14741376 0.38593423
0.015434374 0.072976425 0.07 0.23852047 0.14741376 0.38593423
0.014887135 0.073862322 0.07 0.23852047 0.14741376 0.38593423
0.014339495 0.074748874 0.07 0.23852047 0.14741376 0.38593423
0.013791447 0.075636089 0.07 0.23852047 0.14741376 0.38593423
0.013242983 0.076523989 0.07 0.23852047 0.14741376 0.38593423
0.012694096 0.07741259 0.07 0.23852047 0.14741376 0.38593423
0.012144777 0.078301892 0.07 0.23852047 0.14741376 0.38593423
0.036172684 0.00069043972 0.039999999 0.23852047 0.14741376 0.38593423
0.03558461 0.0016415335 0.039999999 0.23852047 0.14741376 0.38593423
0.03499667 0.0025924332 0.039999999 0.23852047 0.14741376 0.38593423
0.03440886 0.0035431522 0.039999999 0.23852047 0.14741376 0.38593423
0.033821169 0.0044937036 0.039999999 0.23852047 0.14741376 0.38593423
0.033233594 0.0054441001 0.039999999 0.23852047 0.14741376 0.38593423
0.03264612 0.0063943546 0.039999999 0.23852047 0.14741376 0.38593423
0.032058746 0.0073444806 0.039999999 0.23852047 0.14741376 0.38593423
0.031471457 0.0082944902 0.039999999 0.23852047 0.14741376 0.38593423
0.030884247 0.0092443982 0.039999999 0.23852047 0.14741376 0.38593423
0.030297112 0.010194215 0.039999999 0.23852047 0.14741376 0.38593423
0.029710039 0.011143956 0.039999999 0.23852047 0.14741376 0.38593423
0.029123025 0.012093632 0.039999999 0.23852047 0.14741376 0.38593423
0.028536057 0.013043258 0.039999999 0.23852047 0.14741376 0.38593423
0.02794913 0.013992847 0.039999999 0.23852047 0.14741376 0.38593423
0.027362235 0.014942409 0.039999999 0.23852047 0.14741376 0.38593423
0.026775362 0.01589196 0.039999999 0.23852047 0.14741376 0.38593423
0.026188508 0.016841512 0.039999999 0.23852047 0.14741376 0.38593423
0.025601659 0.017791079 0.039999999 0.23852047 0.14741376 0.38593423
0.025014812 0.018740671 0.039999999 0.23852047 0.14741376 0.38593423
0.024427958 0.019690303 0.039999999 0.23852047 0.14741376 0.38593423
0.023841085 0.02063999 0.039999999 0.23852047 0.14741376 0.38593423
0.02325419 0.021589741 0.039999999 0.23852047 0.14741376 0.38593423
0.022667263 0.022539571 0.039999999 0.23852047 0.14741376 0.38593423
0.022080295 0.023489492 0.039999999 0.23852047 0.14741376 0.38593423
0.02149328 0.024439517 0.039999999 0.23852047 0.14741376 0.38593423
0.020906208 0.025389662 0.039999999 0.23852047 0.14741376 0.38593423
0.020319073 0.026339937 0.039999999 0.23852047 0.14741376 0.38593423
0.019731864 0.027290355 0.039999999 0.23852047 0.14741376 0.38593423
0.019144576 0.02824093 0.039999999 0.23852047 0.14741376 0.38593423
0.0185572 0.029191675 0.039999999 0.23852047 0.14741376 0.38593423
0.017969728 0.030142603 0.039999999 0.23852047 0.14741376 0.38593423
0.017382151 0.031093726 0.039999999 0.23852047 0.14741376 0.38593423
0.016794462 0.032045059 0.039999999 0.23852047 0.14741376 0.38593423
0.016206652 0.032996614 0.039999999 0.23852047 0.14741376 0.38593423
0.015618715 0.033948399 0.039999999 0.23852047 0.14741376 0.38593423
0.01503064 0.034900438 0.039999999 0.23852047 0.14741376 0.38593423
0.033635598 0.045408383 0.069630645 0.23852047 0.14741376 0.38593423
0.0333375 0.046397459 0.07 0.23852047 0.14741376 0.38593423
0.032800008 0.047267687 0.07 0.23852047 0.14741376 0.38593423
0.032262359 0.048138186 0.07 0.23852047 0.14741376 0.38593423
0.03172455 0.049008973 0.07 0.23852047 0.14741376 0.38593423
0.031186569 0.049880058 0.07 0.23852047 0.14741376 0.38593423
0.030648414 0.050751455 0.07 0.23852047 0.14741376 0.38593423
0.030110074 0.051623173 0.07 0.23852047 0.14741376 0.38593423
0.029571543 0.052495226 0.07 0.23852047 0.14741376 0.38593423
0.029032812 0.053367626 0.07 0.23852047 0.14741376 0.38593423
0.028493876 0.054240383 0.07 0.23852047 0.14741376 0.38593423
0.027954726 0.055113513 0.07 0.23852047 0.14741376 0.38593423
0.027415354 0.055987023 0.07 0.23852047 0.14741376 0.38593423
0.026875753 0.056860931 0.07 0.23852047 0.14741376 0.38593423
0.026335916 0.057735249 0.07 0.23852047 0.14741376 0.38593423
0.025795836 0.058609985 0.07 0.23852047 0.14741376 0.38593423
0.025255503 0.059485149 0.07 0.23852047 0.14741376 0.38593423
0.024714911 0.060360763 0.07 0.23852047 0.14741376 0.38593423
0.024174053 0.061236829 0.07 0.23852047 0.14741376 0.38593423
0.023632921 0.062113367 0.07 0.23852047 0.14741376 0.38593423
0.023091508 0.062990382 0.07 0.23852047 0.14741376 0.38593423
0.022549804 0.063867897 0.07 0.23852047 0.14741376 0.38593423
0.022007803 0.064745918 0.07 0.23852047 0.14741376 0.38593423
0.021465497 0.065624453 0.07 0.23852047 0.14741376 0.38593423
0.020922881 0.066503517 0.07 0.23852047 0.14741376 0.38593423
0.020379942 0.067383125 0.07 0.23852047 0.14741376 0.38593423
0.019836677 0.068263292 0.07 0.23852047 0.14741376 0.38593423
0.019293075 0.069144033 0.07 0.23852047 0.14741376 0.38593423
0.018749131 0.070025347 0.07 0.23852047 0.14741376 0.38593423
0.018204836 0.070907257 0.07 0.23852047 0.14741376 0.38593423
0.01766018 0.071789771 0.07 0.23852047 0.14741376 0.38593423
0.017115159 0.072672904 0.07 0.23852047 0.14741376 0.38593423
0.016569763 0.073556669 0.07 0.23852047 0.14741376 0.38593423
0.016023986 0.074441083 0.07 0.23852047 0.14741376 0.38593423
0.015477818 0.075326152 0.07 0.23852047 0.14741376 0.38593423
0.014931252 0.076211885 0.07 0.23852047 0.14741376 0.38593423
0.01438428 0.07709831 0.07 0.23852047 0.14741376 0.38593423
0.013836893 0.077985421 0.07 0.23852047 0.14741376 0.38593423
0.03791083 0.0004933849 0.039999999 0.23852047 0.14741376 0.38593423
0.037323594 0.0014427954 0.039999999 0.23852047 0.14741376 0.38593423
0.036736507 0.0023920049 0.039999999 0.23852047 0.14741376 0.38593423
0.036149565 0.0033410264 0.039999999 0.23852047 0.14741376 0.38593423
0.035562757 0.0042898729 0.039999999 0.23852047 0.14741376 0.38593423
0.03497608 0.0052385577 0.039999999 0.23852047 0.14741376 0.38593423
0.034389522 0.006187093 0.039999999 0.23852047 0.14741376 0.38593423
0.033803076 0.0071354923 0.039999999 0.23852047 0.14741376 0.38593423
0.03321673 0.0080837682 0.039999999 0.23852047 0.14741376 0.38593423
0.032630485 0.0090319337 0.039999999 0.23852047 0.14741376 0.38593423
0.032044325 0.0099800024 0.039999999 0.23852047 0.14741376 0.38593423
0.031458244 0.010927986 0.039999999 0.23852047 0.14741376 0.38593423
0.030872237 0.011875899 0.039999999 0.23852047 0.14741376 0.38593423
0.030286293 0.012823753 0.039999999 0.23852047 0.14741376 0.38593423
0.029700404 0.013771561 0.039999999 0.23852047 0.14741376 0.38593423
0.029114565 0.014719336 0.039999999 0.23852047 0.14741376 0.38593423
0.028528765 0.015667092 0.039999999 0.23852047 0.14741376 0.38593423
0.027942996 0.016614839 0.039999999 0.23852047 0.14741376 0.38593423
0.027357252 0.017562594 0.039999999 0.23852047 0.14741376 0.38593423
0.026771523 0.018510368 0.039999999 0.23852047 0.14741376 0.38593423
0.026185803 0.019458173 0.039999999 0.23852047 0.14741376 0.38593423
0.025600083 0.020406021 0.039999999 0.23852047 0.14741376 0.38593423
0.025014354 0.021353928 0.039999999 0.23852047 0.14741376 0.38593423
0.02442861 0.022301907 0.039999999 0.23852047 0.14741376 0.38593423
0.023842841 0.023249967 0.039999999 0.23852047 0.14741376 0.38593423
0.023257041 0.024198124 0.039999999 0.23852047 0.14741376 0.38593423
0.022671202 0.025146389 0.039999999 0.23852047 0.14741376 0.38593423
0.022085315 0.026094778 0.039999999 0.23852047 0.14741376 0.38593423
0.021499371 0.027043302 0.039999999 0.23852047 0.14741376 0.38593423
0.020913364 0.027991971 0.039999999 0.23852047 0.14741376 0.38593423
0.020327285 0.028940804 0.039999999 0.23852047 0.14741376 0.38593423
0.019741127 0.029889809 0.039999999 0.23852047 0.14741376 0.38593423
0.01915488 0.030839002 0.039999999 0.23852047 0.14741376 0.38593423
0.018568538 0.031788394 0.039999999 0.23852047 0.14741376 0.38593423
0.017982092 0.032738 0.039999999 0.23852047 0.14741376 0.38593423
0.017395534 0.03368783 0.039999999 0.23852047 0.14741376 0.38593423
0.016808856 0.034637902 0.039999999 0.23852047 0.14741376 0.38593423
0.016222052 0.035588223 0.039999999 0.23852047 0.14741376 0.38593423
0.03382419 0.045587018 0.068230771 0.23852047 0.14741376 0.38593423
0.034427933 0.047022477 0.07 0.23852047 0.14741376 0.38593423
0.033891622 0.047891147 0.07 0.23852047 0.14741376 0.38593423
0.033355165 0.048760094 0.07 0.23852047 0.14741376 0.38593423
0.032818556 0.049629331 0.07 0.23852047 0.14741376 0.38593423
0.032281782 0.050498869 0.07 0.23852047 0.14741376 0.38593423
0.031744841 0.051368721 0.07 0.23852047 0.14741376 0.38593423
0.031207727 0.052238896 0.07 0.23852047 0.14741376 0.38593423
0.030670429 0.053109411 0.07 0.23852047 0.14741376 0.38593423
0.030132938 0.053980276 0.07 0.23852047 0.14741376 0.38593423
0.029595252 0.054851502 0.07 0.23852047 0.14741376 0.38593423
0.029057359 0.055723105 0.07 0.23852047 0.14741376 0.38593423
0.028519254 0.056595091 0.07 0.23852047 0.14741376 0.38593423
0.027980927 0.057467476 0.07 0.23852047 0.14741376 0.38593423
0.027442373 0.05834027 0.07 0.23852047 0.14741376 0.38593423
0.026903585 0.059213486 0.07 0.23852047 0.14741376 0.38593423
0.026364552 0.060087137 0.07 0.23852047 0.14741376 0.38593423
0.02582527 0.060961235 0.07 0.23852047 0.14741376 0.38593423
0.02528573 0.061835792 0.07 0.23852047 0.14741376 0.38593423
0.024745924 0.062710822 0.07 0.23852047 0.14741376 0.38593423
0.024205847 0.063586332 0.07 0.23852047 0.14741376 0.38593423
0.023665488 0.064462341 0.07 0.23852047 0.14741376 0.38593423
0.02312484 0.065338857 0.07 0.23852047 0.14741376 0.38593423
0.022583898 0.066215895 0.07 0.23852047 0.14741376 0.38593423
0.022042651 0.067093462 0.07 0.23852047 0.14741376 0.38593423
0.021501094 0.06797158 0.07 0.23852047 0.14741376 0.38593423
0.020959217 0.068850257 0.07 0.23852047 0.14741376 0.38593423
0.020417016 0.0697295 0.07 0.23852047 0.14741376 0.38593423
0.01987448 0.070609324 0.07 0.23852047 0.14741376 0.38593423
0.019331601 0.071489744 0.07 0.23852047 0.14741376 0.38593423
0.018788373 0.072370775 0.07 0.23852047 0.14741376 0.38593423
0.018244788 0.073252425 0.07 0.23852047 0.14741376 0.38593423
0.017700838 0.074134715 0.07 0.23852047 0.14741376 0.38593423
0.017156515 0.075017639 0.07 0.23852047 0.14741376 0.38593423
0.016611811 0.075901233 0.07 0.23852047 0.14741376 0.38593423
0.016066719 0.07678549 0.07 0.23852047 0.14741376 0.38593423
0.015521231 0.077670433 0.07 0.23852047 0.14741376 0.38593423
0.014975338 0.078556076 0.07 0.23852047 0.14741376 0.38593423
0.039642878 0.00029706734 0.039999999 0.23852047 0.14741376 0.38593423
0.03905645 0.0012448031 0.039999999 0.23852047 0.14741376 0.38593423
0.03847019 0.0021923308 0.039999999 0.23852047 0.14741376 0.38593423
0.03788409 0.0031396635 0.039999999 0.23852047 0.14741376 0.38593423
0.037298139 0.0040868144 0.039999999 0.23852047 0.14741376 0.38593423
0.036712334 0.0050337957 0.039999999 0.23852047 0.14741376 0.38593423
0.036126662 0.0059806206 0.039999999 0.23852047 0.14741376 0.38593423
0.035541117 0.0069273021 0.039999999 0.23852047 0.14741376 0.38593423
0.034955692 0.0078738527 0.039999999 0.23852047 0.14741376 0.38593423
0.034370381 0.008820286 0.039999999 0.23852047 0.14741376 0.38593423
0.033785168 0.009766615 0.039999999 0.23852047 0.14741376 0.38593423
0.033200055 0.010712852 0.039999999 0.23852047 0.14741376 0.38593423
0.032615028 0.011659009 0.039999999 0.23852047 0.14741376 0.38593423
0.03203008 0.0126051 0.039999999 0.23852047 0.14741376 0.38593423
0.031445205 0.013551138 0.039999999 0.23852047 0.14741376 0.38593423
0.030860392 0.014497135 0.039999999 0.23852047 0.14741376 0.38593423
0.030275635 0.015443104 0.039999999 0.23852047 0.14741376 0.38593423
0.029690925 0.016389059 0.039999999 0.23852047 0.14741376 0.38593423
0.029106256 0.017335013 0.039999999 0.23852047 0.14741376 0.38593423
0.02852162 0.018280976 0.039999999 0.23852047 0.14741376 0.38593423
0.027937004 0.019226963 0.039999999 0.23852047 0.14741376 0.38593423
0.027352408 0.020172985 0.039999999 0.23852047 0.14741376 0.38593423
0.026767818 0.021119058 0.039999999 0.23852047 0.14741376 0.38593423
0.026183229 0.022065194 0.039999999 0.23852047 0.14741376 0.38593423
0.02559863 0.023011403 0.039999999 0.23852047 0.14741376 0.38593423
0.025014017 0.023957701 0.039999999 0.23852047 0.14741376 0.38593423
0.024429381 0.0249041 0.039999999 0.23852047 0.14741376 0.38593423
0.023844711 0.025850613 0.039999999 0.23852047 0.14741376 0.38593423
0.023260005 0.026797252 0.039999999 0.23852047 0.14741376 0.38593423
0.022675248 0.027744029 0.039999999 0.23852047 0.14741376 0.38593423
0.022090437 0.02869096 0.039999999 0.23852047 0.14741376 0.38593423
0.021505563 0.029638054 0.039999999 0.23852047 0.14741376 0.38593423
0.020920616 0.030585328 0.039999999 0.23852047 0.14741376 0.38593423
0.02033559 0.031532791 0.039999999 0.23852047 0.14741376 0.38593423
0.019750478 0.03248046 0.039999999 0.23852047 0.14741376 0.38593423
0.01916527 0.033428345 0.039999999 0.23852047 0.14741376 0.38593423
0.01857996 0.034376457 0.039999999 0.23852047 0.14741376 0.38593423
0.017994538 0.035324816 0.039999999 0.23852047 0.14741376 0.38593423
0.017408995 0.036273427 0.039999999 0.23852047 0.14741376 0.38593423
0.034013744 0.045766566 0.066823773 0.23852047 0.14741376 0.38593423
0.035514276 0.047645148 0.07 0.23852047 0.14741376 0.38593423
0.034979142 0.048512265 0.07 0.23852047 0.14741376 0.38593423
0.03444387 0.049379665 0.07 0.23852047 0.14741376 0.38593423
0.033908457 0.05024736 0.07 0.23852047 0.14741376 0.38593423
0.033372886 0.051115356 0.07 0.23852047 0.14741376 0.38593423
0.032837156 0.051983669 0.07 0.23852047 0.14741376 0.38593423
0.032301258 0.05285231 0.07 0.23852047 0.14741376 0.38593423
0.031765189 0.053721294 0.07 0.23852047 0.14741376 0.38593423
0.031228933 0.054590628 0.07 0.23852047 0.14741376 0.38593423
0.03069249 0.05546033 0.07 0.23852047 0.14741376 0.38593423
0.030155849 0.056330405 0.07 0.23852047 0.14741376 0.38593423
0.029619005 0.057200871 0.07 0.23852047 0.14741376 0.38593423
0.029081946 0.058071736 0.07 0.23852047 0.14741376 0.38593423
0.02854467 0.058943015 0.07 0.23852047 0.14741376 0.38593423
0.028007166 0.059814721 0.07 0.23852047 0.14741376 0.38593423
0.02746943 0.06068686 0.07 0.23852047 0.14741376 0.38593423
0.026931452 0.06155945 0.07 0.23852047 0.14741376 0.38593423
0.026393222 0.062432501 0.07 0.23852047 0.14741376 0.38593423
0.025854738 0.063306026 0.07 0.23852047 0.14741376 0.38593423
0.025315989 0.064180039 0.07 0.23852047 0.14741376 0.38593423
0.024776967 0.065054551 0.07 0.23852047 0.14741376 0.38593423
0.024237668 0.065929569 0.07 0.23852047 0.14741376 0.38593423
0.02369808 0.066805109 0.07 0.23852047 0.14741376 0.38593423
0.0231582 0.067681186 0.07 0.23852047 0.14741376 0.38593423
0.022618016 0.068557814 0.07 0.23852047 0.14741376 0.38593423
0.022077523 0.069435 0.07 0.23852047 0.14741376 0.38593423
0.021536713 0.070312753 0.07 0.23852047 0.14741376 0.38593423
0.020995578 0.071191102 0.07 0.23852047 0.14741376 0.38593423
0.020454111 0.07207004 0.07 0.23852047 0.14741376 0.38593423
0.019912302 0.072949588 0.07 0.23852047 0.14741376 0.38593423
0.019370146 0.073829763 0.07 0.23852047 0.14741376 0.38593423
0.018827636 0.074710563 0.07 0.23852047 0.14741376 0.38593423
0.01828476 0.075592019 0.07 0.23852047 0.14741376 0.38593423
0.017741514 0.076474138 0.07 0.23852047 0.14741376 0.38593423
0.017197888 0.077356927 0.07 0.23852047 0.14741376 0.38593423
0.016653877 0.078240395 0.07 0.23852047 0.14741376 0.38593423
0.01610947 0.07912457 0.07 0.23852047 0.14741376 0.38593423
0.039999999 0.0004677937 0.038629718 0.23852047 0.14741376 0.38593423
0.039999999 0.0018483843 0.039654981 0.23852047 0.14741376 0.38593423
0.039612513 0.0029390722 0.039999999 0.23852047 0.14741376 0.38593423
0.039027393 0.0038845353 0.039999999 0.23852047 0.14741376 0.38593423
0.038442433 0.0048298221 0.039999999 0.23852047 0.14741376 0.38593423
0.037857622 0.0057749455 0.039999999 0.23852047 0.14741376 0.38593423
0.037272956 0.0067199185 0.039999999 0.23852047 0.14741376 0.38593423
0.036688425 0.0076647531 0.039999999 0.23852047 0.14741376 0.38593423
0.036104016 0.0086094635 0.039999999 0.23852047 0.14741376 0.38593423
0.03551973 0.0095540611 0.039999999 0.23852047 0.14741376 0.38593423
0.034935553 0.010498559 0.039999999 0.23852047 0.14741376 0.38593423
0.034351479 0.01144297 0.039999999 0.23852047 0.14741376 0.38593423
0.033767503 0.012387308 0.039999999 0.23852047 0.14741376 0.38593423
0.033183612 0.013331586 0.039999999 0.23852047 0.14741376 0.38593423
0.032599799 0.014275814 0.039999999 0.23852047 0.14741376 0.38593423
0.032016058 0.015220007 0.039999999 0.23852047 0.14741376 0.38593423
0.031432383 0.016164178 0.039999999 0.23852047 0.14741376 0.38593423
0.030848758 0.017108338 0.039999999 0.23852047 0.14741376 0.38593423
0.030265184 0.018052502 0.039999999 0.23852047 0.14741376 0.38593423
0.029681649 0.018996682 0.039999999 0.23852047 0.14741376 0.38593423
0.029098146 0.019940889 0.039999999 0.23852047 0.14741376 0.38593423
0.028514666 0.020885138 0.039999999 0.23852047 0.14741376 0.38593423
0.027931204 0.021829441 0.039999999 0.23852047 0.14741376 0.38593423
0.027347749 0.02277381 0.039999999 0.23852047 0.14741376 0.38593423
0.026764294 0.02371826 0.039999999 0.23852047 0.14741376 0.38593423
0.02618083 0.024662802 0.039999999 0.23852047 0.14741376 0.38593423
0.025597353 0.025607448 0.039999999 0.23852047 0.14741376 0.38593423
0.025013851 0.026552213 0.039999999 0.23852047 0.14741376 0.38593423
0.024430316 0.027497109 0.039999999 0.23852047 0.14741376 0.38593423
0.023846744 0.028442146 0.039999999 0.23852047 0.14741376 0.38593423
0.023263125 0.029387342 0.039999999 0.23852047 0.14741376 0.38593423
0.022679448 0.030332707 0.039999999 0.23852047 0.14741376 0.38593423
0.02209571 0.031278253 0.039999999 0.23852047 0.14741376 0.38593423
0.021511901 0.032223996 0.039999999 0.23852047 0.14741376 0.38593423
0.020928014 0.033169944 0.039999999 0.23852047 0.14741376 0.38593423
0.020344038 0.034116115 0.039999999 0.23852047 0.14741376 0.38593423
0.019759968 0.035062518 0.039999999 0.23852047 0.14741376 0.38593423
0.019175796 0.03600917 0.039999999 0.23852047 0.14741376 0.38593423
0.029758325 0.042564526 0.057564683 0.23852047 0.14741376 0.38593423
0.034204267 0.04594703 0.065409571 0.23852047 0.14741376 0.38593423
0.035960238 0.047953051 0.069004394 0.23852047 0.14741376 0.38593423
0.036062606 0.049131069 0.07 0.23852047 0.14741376 0.38593423
0.035528515 0.049996927 0.07 0.23852047 0.14741376 0.38593423
0.034994289 0.05086308 0.07 0.23852047 0.14741376 0.38593423
0.034459915 0.051729541 0.07 0.23852047 0.14741376 0.38593423
0.033925392 0.052596323 0.07 0.23852047 0.14741376 0.38593423
0.033390708 0.053463433 0.07 0.23852047 0.14741376 0.38593423
0.032855857 0.054330889 0.07 0.23852047 0.14741376 0.38593423
0.032320835 0.055198703 0.07 0.23852047 0.14741376 0.38593423
0.03178563 0.056066878 0.07 0.23852047 0.14741376 0.38593423
0.031250235 0.056935437 0.07 0.23852047 0.14741376 0.38593423
0.030714644 0.057804387 0.07 0.23852047 0.14741376 0.38593423
0.030178849 0.058673739 0.07 0.23852047 0.14741376 0.38593423
0.029642845 0.059543509 0.07 0.23852047 0.14741376 0.38593423
0.029106623 0.060413703 0.07 0.23852047 0.14741376 0.38593423
0.028570173 0.061284341 0.07 0.23852047 0.14741376 0.38593423
0.028033491 0.062155426 0.07 0.23852047 0.14741376 0.38593423
0.027496569 0.06302698 0.07 0.23852047 0.14741376 0.38593423
0.026959399 0.063899003 0.07 0.23852047 0.14741376 0.38593423
0.026421973 0.064771518 0.07 0.23852047 0.14741376 0.38593423
0.025884284 0.065644532 0.07 0.23852047 0.14741376 0.38593423
0.025346324 0.066518061 0.07 0.23852047 0.14741376 0.38593423
0.024808088 0.067392118 0.07 0.23852047 0.14741376 0.38593423
0.024269564 0.068266705 0.07 0.23852047 0.14741376 0.38593423
0.023730749 0.06914185 0.07 0.23852047 0.14741376 0.38593423
0.023191633 0.070017546 0.07 0.23852047 0.14741376 0.38593423
0.022652209 0.070893824 0.07 0.23852047 0.14741376 0.38593423
0.022112468 0.07177069 0.07 0.23852047 0.14741376 0.38593423
0.021572404 0.072648153 0.07 0.23852047 0.14741376 0.38593423
0.021032009 0.073526226 0.07 0.23852047 0.14741376 0.38593423
0.020491276 0.074404925 0.07 0.23852047 0.14741376 0.38593423
0.019950196 0.075284258 0.07 0.23852047 0.14741376 0.38593423
0.019408762 0.076164238 0.07 0.23852047 0.14741376 0.38593423
0.018866966 0.077044889 0.07 0.23852047 0.14741376 0.38593423
0.0183248 0.077926204 0.07 0.23852047 0.14741376 0.38593423
0.017782258 0.078808211 0.07 0.23852047 0.14741376 0.38593423
0.01723933 0.079690918 0.07 0.23852047 0.14741376 0.38593423
0.039999999 0.00037361294 0.036622658 0.23852047 0.14741376 0.38593423
0.039999999 0.0017598387 0.037658084 0.23852047 0.14741376 0.38593423
0.039999999 0.0031375412 0.038687069 0.23852047 0.14741376 0.38593423
0.039999999 0.0045068185 0.039709691 0.23852047 0.14741376 0.38593423
0.039582483 0.0055700764 0.039999999 0.23852047 0.14741376 0.38593423
0.038998667 0.0065133488 0.039999999 0.23852047 0.14741376 0.38593423
0.038415004 0.0074564763 0.039999999 0.23852047 0.14741376 0.38593423
0.037831478 0.0083994716 0.039999999 0.23852047 0.14741376 0.38593423
0.037248086 0.0093423473 0.039999999 0.23852047 0.14741376 0.38593423
0.036664821 0.010285117 0.039999999 0.23852047 0.14741376 0.38593423
0.036081675 0.011227791 0.039999999 0.23852047 0.14741376 0.38593423
0.035498641 0.012170385 0.039999999 0.23852047 0.14741376 0.38593423
0.034915708 0.01311291 0.039999999 0.23852047 0.14741376 0.38593423
0.034332868 0.01405538 0.039999999 0.23852047 0.14741376 0.38593423
0.033750117 0.014997805 0.039999999 0.23852047 0.14741376 0.38593423
0.033167444 0.015940202 0.039999999 0.23852047 0.14741376 0.38593423
0.032584842 0.01688258 0.039999999 0.23852047 0.14741376 0.38593423
0.032002304 0.017824953 0.039999999 0.23852047 0.14741376 0.38593423
0.031419821 0.018767335 0.039999999 0.23852047 0.14741376 0.38593423
0.030837383 0.019709736 0.039999999 0.23852047 0.14741376 0.38593423
0.030254988 0.020652171 0.039999999 0.23852047 0.14741376 0.38593423
0.029672623 0.021594651 0.039999999 0.23852047 0.14741376 0.38593423
0.029090282 0.02253719 0.039999999 0.23852047 0.14741376 0.38593423
0.028507955 0.023479801 0.039999999 0.23852047 0.14741376 0.38593423
0.027925638 0.024422497 0.039999999 0.23852047 0.14741376 0.38593423
0.027343322 0.025365287 0.039999999 0.23852047 0.14741376 0.38593423
0.026760997 0.02630819 0.039999999 0.23852047 0.14741376 0.38593423
0.026178656 0.027251214 0.039999999 0.23852047 0.14741376 0.38593423
0.025596295 0.028194372 0.039999999 0.23852047 0.14741376 0.38593423
0.025013899 0.029137678 0.039999999 0.23852047 0.14741376 0.38593423
0.024431465 0.030081145 0.039999999 0.23852047 0.14741376 0.38593423
0.023848984 0.031024786 0.039999999 0.23852047 0.14741376 0.38593423
0.02326645 0.031968612 0.039999999 0.23852047 0.14741376 0.38593423
0.022683851 0.032912638 0.039999999 0.23852047 0.14741376 0.38593423
0.022101182 0.033856876 0.039999999 0.23852047 0.14741376 0.38593423
0.021518435 0.034801338 0.039999999 0.23852047 0.14741376 0.38593423
0.020935602 0.035746034 0.039999999 0.23852047 0.14741376 0.38593423
0.020352675 0.036690984 0.039999999 0.23852047 0.14741376 0.38593423
0.030603467 0.043073025 0.057132687 0.23852047 0.14741376 0.38593423
0.034395769 0.046128422 0.063988104 0.23852047 0.14741376 0.38593423
0.036051005 0.04808693 0.06744568 0.23852047 0.14741376 0.38593423
0.03714205 0.049747579 0.07 0.23852047 0.14741376 0.38593423
0.036609136 0.050611898 0.07 0.23852047 0.14741376 0.38593423
0.036076091 0.051476516 0.07 0.23852047 0.14741376 0.38593423
0.035542913 0.052341446 0.07 0.23852047 0.14741376 0.38593423
0.035009585 0.053206701 0.07 0.23852047 0.14741376 0.38593423
0.034476113 0.054072287 0.07 0.23852047 0.14741376 0.38593423
0.033942476 0.054938223 0.07 0.23852047 0.14741376 0.38593423
0.033408679 0.055804513 0.07 0.23852047 0.14741376 0.38593423
0.032874703 0.056671176 0.07 0.23852047 0.14741376 0.38593423
0.032340553 0.057538223 0.07 0.23852047 0.14741376 0.38593423
0.031806212 0.05840566 0.07 0.23852047 0.14741376 0.38593423
0.031271674 0.059273504 0.07 0.23852047 0.14741376 0.38593423
0.030736934 0.060141768 0.07 0.23852047 0.14741376 0.38593423
0.030201986 0.061010461 0.07 0.23852047 0.14741376 0.38593423
0.029666821 0.061879594 0.07 0.23852047 0.14741376 0.38593423
0.029131429 0.062749185 0.07 0.23852047 0.14741376 0.38593423
0.028595807 0.063619241 0.07 0.23852047 0.14741376 0.38593423
0.028059946 0.064489774 0.07 0.23852047 0.14741376 0.38593423
0.027523838 0.065360799 0.07 0.23852047 0.14741376 0.38593423
0.026987474 0.066232324 0.07 0.23852047 0.14741376 0.38593423
0.02645085 0.067104369 0.07 0.23852047 0.14741376 0.38593423
0.025913956 0.067976937 0.07 0.23852047 0.14741376 0.38593423
0.025376786 0.06885004 0.07 0.23852047 0.14741376 0.38593423
0.02483933 0.069723703 0.07 0.23852047 0.14741376 0.38593423
0.024301585 0.070597924 0.07 0.23852047 0.14741376 0.38593423
0.023763539 0.071472727 0.07 0.23852047 0.14741376 0.38593423
0.023225186 0.072348118 0.07 0.23852047 0.14741376 0.38593423
0.022686521 0.073224105 0.07 0.23852047 0.14741376 0.38593423
0.022147533 0.074100703 0.07 0.23852047 0.14741376 0.38593423
0.021608213 0.074977934 0.07 0.23852047 0.14741376 0.38593423
0.021068558 0.075855799 0.07 0.23852047 0.14741376 0.38593423
0.020528559 0.076734319 0.07 0.23852047 0.14741376 0.38593423
0.019988205 0.077613503 0.07 0.23852047 0.14741376 0.38593423
0.019447494 0.078493357 0.07 0.23852047 0.14741376 0.38593423
0.018906413 0.079373904 0.07 0.23852047 0.14741376 0.38593423
0.016406607 0.079657756 0.067189671 0.23852047 0.14741376 0.38593423
0.039999999 0.00027869071 0.034599796 0.23852047 0.14741376 0.38593423
0.039999999 0.0016705982 0.035645511 0.23852047 0.14741376 0.38593423
0.039999999 0.0030539136 0.036684688 0.23852047 0.14741376 0.38593423
0.039999999 0.0044287359 0.037717395 0.23852047 0.14741376 0.38593423
0.039999999 0.0057951626 0.038743708 0.23852047 0.14741376 0.38593423
0.039999999 0.0071532894 0.039763704 0.23852047 0.14741376 0.38593423
0.039552838 0.0081903199 0.039999999 0.23852047 0.14741376 0.38593423
0.038970318 0.0091314828 0.039999999 0.23852047 0.14741376 0.38593423
0.038387939 0.010072531 0.039999999 0.23852047 0.14741376 0.38593423
0.037805695 0.011013478 0.039999999 0.23852047 0.14741376 0.38593423
0.037223577 0.011954337 0.039999999 0.23852047 0.14741376 0.38593423
0.036641575 0.012895119 0.039999999 0.23852047 0.14741376 0.38593423
0.036059685 0.013835839 0.039999999 0.23852047 0.14741376 0.38593423
0.035477895 0.014776507 0.039999999 0.23852047 0.14741376 0.38593423
0.034896199 0.015717138 0.039999999 0.23852047 0.14741376 0.38593423
0.034314588 0.016657744 0.039999999 0.23852047 0.14741376 0.38593423
0.033733059 0.017598337 0.039999999 0.23852047 0.14741376 0.38593423
0.033151601 0.018538928 0.039999999 0.23852047 0.14741376 0.38593423
0.032570202 0.019479534 0.039999999 0.23852047 0.14741376 0.38593423
0.031988863 0.020420164 0.039999999 0.23852047 0.14741376 0.38593423
0.031407565 0.021360833 0.039999999 0.23852047 0.14741376 0.38593423
0.030826312 0.022301551 0.039999999 0.23852047 0.14741376 0.38593423
0.030245088 0.023242334 0.039999999 0.23852047 0.14741376 0.38593423
0.029663889 0.024183193 0.039999999 0.23852047 0.14741376 0.38593423
0.029082706 0.02512414 0.039999999 0.23852047 0.14741376 0.38593423
0.028501529 0.026065188 0.039999999 0.23852047 0.14741376 0.38593423
0.027920354 0.02700635 0.039999999 0.23852047 0.14741376 0.38593423
0.027339172 0.027947638 0.039999999 0.23852047 0.14741376 0.38593423
0.026757974 0.028889066 0.039999999 0.23852047 0.14741376 0.38593423
0.026176754 0.029830646 0.039999999 0.23852047 0.14741376 0.38593423
0.025595501 0.030772392 0.039999999 0.23852047 0.14741376 0.38593423
0.02501421 0.031714313 0.039999999 0.23852047 0.14741376 0.38593423
0.024432873 0.032656427 0.039999999 0.23852047 0.14741376 0.38593423
0.023851482 0.03359874 0.039999999 0.23852047 0.14741376 0.38593423
0.023270028 0.034541272 0.039999999 0.23852047 0.14741376 0.38593423
0.022688502 0.035484031 0.039999999 0.23852047 0.14741376 0.38593423
0.022106901 0.036427032 0.039999999 0.23852047 0.14741376 0.38593423
0.021525213 0.037370287 0.039999999 0.23852047 0.14741376 0.38593423
0.031310473 0.043512166 0.056482963 0.23852047 0.14741376 0.38593423
0.034565188 0.046299312 0.062522687 0.23852047 0.14741376 0.38593423
0.036142331 0.048221633 0.065877393 0.23852047 0.14741376 0.38593423
0.037243705 0.049889978 0.068464041 0.23852047 0.14741376 0.38593423
0.037685767 0.051224601 0.07 0.23852047 0.14741376 0.38593423
0.0371539 0.052087691 0.07 0.23852047 0.14741376 0.38593423
0.03662191 0.052951094 0.07 0.23852047 0.14741376 0.38593423
0.036089778 0.053814825 0.07 0.23852047 0.14741376 0.38593423
0.035557505 0.054678895 0.07 0.23852047 0.14741376 0.38593423
0.035025083 0.055543311 0.07 0.23852047 0.14741376 0.38593423
0.034492504 0.056408089 0.07 0.23852047 0.14741376 0.38593423
0.033959758 0.057273239 0.07 0.23852047 0.14741376 0.38593423
0.03342684 0.058138777 0.07 0.23852047 0.14741376 0.38593423
0.03289374 0.059004709 0.07 0.23852047 0.14741376 0.38593423
0.032360457 0.059871051 0.07 0.23852047 0.14741376 0.38593423
0.03182698 0.060737815 0.07 0.23852047 0.14741376 0.38593423
0.031293299 0.06160501 0.07 0.23852047 0.14741376 0.38593423
0.030759409 0.062472649 0.07 0.23852047 0.14741376 0.38593423
0.030225305 0.063340746 0.07 0.23852047 0.14741376 0.38593423
0.029690977 0.064209312 0.07 0.23852047 0.14741376 0.38593423
0.029156417 0.065078355 0.07 0.23852047 0.14741376 0.38593423
0.02862162 0.06594789 0.07 0.23852047 0.14741376 0.38593423
0.028086577 0.066817939 0.07 0.23852047 0.14741376 0.38593423
0.02755128 0.067688495 0.07 0.23852047 0.14741376 0.38593423
0.027015725 0.068559587 0.07 0.23852047 0.14741376 0.38593423
0.0264799 0.069431216 0.07 0.23852047 0.14741376 0.38593423
0.025943801 0.070303403 0.07 0.23852047 0.14741376 0.38593423
0.025407417 0.071176149 0.07 0.23852047 0.14741376 0.38593423
0.024870744 0.072049476 0.07 0.23852047 0.14741376 0.38593423
0.024333773 0.0729234 0.07 0.23852047 0.14741376 0.38593423
0.023796499 0.073797919 0.07 0.23852047 0.14741376 0.38593423
0.02325891 0.074673057 0.07 0.23852047 0.14741376 0.38593423
0.022721 0.07554882 0.07 0.23852047 0.14741376 0.38593423
0.022182763 0.076425217 0.07 0.23852047 0.14741376 0.38593423
0.02164419 0.077302277 0.07 0.23852047 0.14741376 0.38593423
0.021105275 0.07818 0.07 0.23852047 0.14741376 0.38593423
0.020566007 0.079058394 0.07 0.23852047 0.14741376 0.38593423
0.020026382 0.079937488 0.07 0.23852047 0.14741376 0.38593423
0.039999999 0.00018301692 0.032560918 0.23852047 0.14741376 0.38593423
0.039999999 0.0015806531 0.033617053 0.23852047 0.14741376 0.38593423
0.039999999 0.002969628 0.034666546 0.23852047 0.14741376 0.38593423
0.039999999 0.0043500415 0.035709471 0.23852047 0.14741376 0.38593423
0.039999999 0.0057219914 0.036745898 0.23852047 0.14741376 0.38593423
0.039999999 0.0070855757 0.037775904 0.23852047 0.14741376 0.38593423
0.039999999 0.0084408894 0.038799565 0.23852047 0.14741376 0.38593423
0.039999999 0.009788027 0.039816953 0.23852047 0.14741376 0.38593423
0.039523616 0.010800039 0.039999999 0.23852047 0.14741376 0.38593423
0.038942389 0.011739172 0.039999999 0.23852047 0.14741376 0.38593423
0.038361292 0.012678221 0.039999999 0.23852047 0.14741376 0.38593423
0.037780322 0.013617199 0.039999999 0.23852047 0.14741376 0.38593423
0.037199467 0.014556119 0.039999999 0.23852047 0.14741376 0.38593423
0.036618724 0.015494994 0.039999999 0.23852047 0.14741376 0.38593423
0.036038082 0.016433835 0.039999999 0.23852047 0.14741376 0.38593423
0.035457533 0.017372657 0.039999999 0.23852047 0.14741376 0.38593423
0.034877069 0.018311471 0.039999999 0.23852047 0.14741376 0.38593423
0.034296684 0.019250289 0.039999999 0.23852047 0.14741376 0.38593423
0.033716373 0.020189125 0.039999999 0.23852047 0.14741376 0.38593423
0.033136122 0.02112799 0.039999999 0.23852047 0.14741376 0.38593423
0.032555923 0.022066899 0.039999999 0.23852047 0.14741376 0.38593423
0.031975776 0.023005862 0.039999999 0.23852047 0.14741376 0.38593423
0.031395666 0.023944894 0.039999999 0.23852047 0.14741376 0.38593423
0.030815588 0.024884006 0.039999999 0.23852047 0.14741376 0.38593423
0.030235533 0.025823211 0.039999999 0.23852047 0.14741376 0.38593423
0.029655496 0.026762523 0.039999999 0.23852047 0.14741376 0.38593423
0.029075464 0.027701952 0.039999999 0.23852047 0.14741376 0.38593423
0.028495435 0.028641513 0.039999999 0.23852047 0.14741376 0.38593423
0.0279154 0.029581215 0.039999999 0.23852047 0.14741376 0.38593423
0.027335348 0.030521076 0.039999999 0.23852047 0.14741376 0.38593423
0.026755271 0.031461105 0.039999999 0.23852047 0.14741376 0.38593423
0.026175166 0.032401316 0.039999999 0.23852047 0.14741376 0.38593423
0.025595022 0.033341717 0.039999999 0.23852047 0.14741376 0.38593423
0.025014833 0.03428233 0.039999999 0.23852047 0.14741376 0.38593423
0.024434587 0.03522316 0.039999999 0.23852047 0.14741376 0.38593423
0.023854282 0.036164224 0.039999999 0.23852047 0.14741376 0.38593423
0.023273906 0.037105531 0.039999999 0.23852047 0.14741376 0.38593423
0.022693451 0.038047098 0.039999999 0.23852047 0.14741376 0.38593423
0.03163819 0.043761302 0.055226453 0.23852047 0.14741376 0.38593423
0.03469342 0.046450276 0.060982198 0.23852047 0.14741376 0.38593423
0.036234219 0.048357166 0.06429942 0.23852047 0.14741376 0.38593423
0.037310574 0.050016101 0.06686265 0.23852047 0.14741376 0.38593423
0.038110618 0.05152509 0.068975426 0.23852047 0.14741376 0.38593423
0.038227756 0.052696619 0.07 0.23852047 0.14741376 0.38593423
0.037696943 0.053558502 0.07 0.23852047 0.14741376 0.38593423
0.037166003 0.054420717 0.07 0.23852047 0.14741376 0.38593423
0.036634929 0.055283271 0.07 0.23852047 0.14741376 0.38593423
0.036103714 0.056146175 0.07 0.23852047 0.14741376 0.38593423
0.035572346 0.057009447 0.07 0.23852047 0.14741376 0.38593423
0.035040822 0.057873093 0.07 0.23852047 0.14741376 0.38593423
0.034509134 0.058737125 0.07 0.23852047 0.14741376 0.38593423
