# .PCD v0.7 - Point Cloud Data file format
VERSION 0.7
FIELDS x y z vp_x vp_y vp_z
SIZE 4 4 4 4 4 4
TYPE F F F F F F
COUNT 1 1 1 1 1 1
WIDTH 765
HEIGHT 1
VIEWPOINT 0 0 0 1 0 0 0
POINTS 765
DATA ascii
0 0.063030265 0.023531629 -0.38593423 0.23852047 0.14741376
0 0.061759826 0.023330871 -0.38593423 0.23852047 0.14741376
0 0.060486138 0.023129685 -0.38593423 0.23852047 0.14741376
0 0.059209164 0.022928068 -0.38593423 0.23852047 0.14741376
0 0.057928883 0.022726016 -0.38593423 0.23852047 0.14741376
0 0.056645252 0.022523524 -0.38593423 0.23852047 0.14741376
0 0.055358253 0.022320587 -0.38593423 0.23852047 0.14741376
0 0.05406785 0.022117201 -0.38593423 0.23852047 0.14741376
0 0.052774008 0.021913361 -0.38593423 0.23852047 0.14741376
0 0.051476702 0.021709062 -0.38593423 0.23852047 0.14741376
0 0.050175898 0.021504302 -0.38593423 0.23852047 0.14741376
0 0.048871562 0.021299072 -0.38593423 0.23852047 0.14741376
0 0.047563668 0.02109337 -0.38593423 0.23852047 0.14741376
0 0.046252176 0.02088719 -0.38593423 0.23852047 0.14741376
0 0.044937059 0.02068053 -0.38593423 0.23852047 0.14741376
0 0.04361828 0.020473383 -0.38593423 0.23852047 0.14741376
0 0.04229581 0.020265745 -0.38593423 0.23852047 0.14741376
0 0.040969614 0.020057609 -0.38593423 0.23852047 0.14741376
0 0.039639656 0.019848973 -0.38593423 0.23852047 0.14741376
0 0.038305901 0.019639831 -0.38593423 0.23852047 0.14741376
0 0.036968321 0.019430175 -0.38593423 0.23852047 0.14741376
0 0.035626877 0.019220006 -0.38593423 0.23852047 0.14741376
0 0.034281533 0.019009314 -0.38593423 0.23852047 0.14741376
0 0.032932255 0.018798096 -0.38593423 0.23852047 0.14741376
0 0.031579006 0.018586345 -0.38593423 0.23852047 0.14741376
0 0.030221755 0.018374057 -0.38593423 0.23852047 0.14741376
0 0.028860461 0.018161228 -0.38593423 0.23852047 0.14741376
0 0.02749509 0.017947851 -0.38593423 0.23852047 0.14741376
0.039999999 0.0041120201 0.0042933053 -0.38593423 0.23852047 0.14741376
0 0.024751961 0.017519433 -0.38593423 0.23852047 0.14741376
0 0.023374131 0.017304379 -0.38593423 0.23852047 0.14741376
0 0.021992074 0.01708876 -0.38593423 0.23852047 0.14741376
0 0.02060575 0.016872562 -0.38593423 0.23852047 0.14741376
0 0.019215122 0.016655786 -0.38593423 0.23852047 0.14741376
0 0.017820148 0.016438423 -0.38593423 0.23852047 0.14741376
0 0.016420793 0.016220467 -0.38593423 0.23852047 0.14741376
0 0.015017014 0.016001916 -0.38593423 0.23852047 0.14741376
0 0.013608773 0.015782759 -0.38593423 0.23852047 0.14741376
0 0.012196029 0.015562993 -0.38593423 0.23852047 0.14741376
0 0.010778739 0.015342614 -0.38593423 0.23852047 0.14741376
0 0.0093568647 0.015121612 -0.38593423 0.23852047 0.14741376
0 0.0079303635 0.014899983 -0.38593423 0.23852047 0.14741376
0.010810479 0 0.010959626 -0.38593423 0.23852047 0.14741376
0 0.0050633112 0.01445482 -0.38593423 0.23852047 0.14741376
0 0.0036226751 0.014231273 -0.38593423 0.23852047 0.14741376
5.5511151e-17 0.0021772415 0.014007075 -0.38593423 0.23852047 0.14741376
0 0.00072696659 0.013782218 -0.38593423 0.23852047 0.14741376
0.037059784 0.079999998 0.015725937 -0.38593423 0.23852047 0.14741376
0.033582006 0.079999998 0.016599074 -0.38593423 0.23852047 0.14741376
0.03015364 0.079999998 0.017459886 -0.38593423 0.23852047 0.14741376
0.026773598 0.079999998 0.018308645 -0.38593423 0.23852047 0.14741376
0.023440823 0.079999998 0.019145619 -0.38593423 0.23852047 0.14741376
0.020154282 0.079999998 0.019971061 -0.38593423 0.23852047 0.14741376
0.016912978 0.079999998 0.020785222 -0.38593423 0.23852047 0.14741376
0.013715941 0.079999998 0.021588344 -0.38593423 0.23852047 0.14741376
0.010562228 0.079999998 0.022380661 -0.38593423 0.23852047 0.14741376
0.0074509205 0.079999998 0.023162404 -0.38593423 0.23852047 0.14741376
0.0043811291 0.079999998 0.023933792 -0.38593423 0.23852047 0.14741376
0.0013519871 0.079999998 0.024695044 -0.38593423 0.23852047 0.14741376
0 0.079324603 0.024926713 -0.38593423 0.23852047 0.14741376
0 0.078092955 0.024729596 -0.38593423 0.23852047 0.14741376
0 0.076858424 0.024532096 -0.38593423 0.23852047 0.14741376
0 0.075620972 0.024334205 -0.38593423 0.23852047 0.14741376
0 0.074380577 0.024135923 -0.38593423 0.23852047 0.14741376
0 0.073137216 0.023937242 -0.38593423 0.23852047 0.14741376
0 0.071890846 0.023738161 -0.38593423 0.23852047 0.14741376
0 0.070641458 0.023538675 -0.38593423 0.23852047 0.14741376
0 0.069389008 0.023338778 -0.38593423 0.23852047 0.14741376
0 0.068133481 0.023138467 -0.38593423 0.23852047 0.14741376
0 0.066874839 0.022937739 -0.38593423 0.23852047 0.14741376
0 0.065613061 0.022736588 -0.38593423 0.23852047 0.14741376
0 0.064348109 0.022535011 -0.38593423 0.23852047 0.14741376
0 0.063079961 0.022333002 -0.38593423 0.23852047 0.14741376
0 0.061808582 0.022130558 -0.38593423 0.23852047 0.14741376
0 0.060533948 0.021927673 -0.38593423 0.23852047 0.14741376
0 0.059256028 0.021724345 -0.38593423 0.23852047 0.14741376
0 0.057974793 0.021520568 -0.38593423 0.23852047 0.14741376
0 0.056690205 0.021316338 -0.38593423 0.23852047 0.14741376
0 0.055402242 0.021111649 -0.38593423 0.23852047 0.14741376
0 0.05411087 0.020906499 -0.38593423 0.23852047 0.14741376
0 0.052816056 0.020700881 -0.38593423 0.23852047 0.14741376
0 0.05151777 0.020494791 -0.38593423 0.23852047 0.14741376
0 0.050215982 0.020288223 -0.38593423 0.23852047 0.14741376
0 0.048910659 0.020081177 -0.38593423 0.23852047 0.14741376
0 0.047601767 0.019873643 -0.38593423 0.23852047 0.14741376
0 0.04628928 0.019665619 -0.38593423 0.23852047 0.14741376
0 0.044973157 0.019457098 -0.38593423 0.23852047 0.14741376
0 0.043653369 0.019248078 -0.38593423 0.23852047 0.14741376
0 0.042329881 0.019038552 -0.38593423 0.23852047 0.14741376
0 0.041002661 0.018828515 -0.38593423 0.23852047 0.14741376
0 0.039671678 0.018617963 -0.38593423 0.23852047 0.14741376
0 0.038336892 0.01840689 -0.38593423 0.23852047 0.14741376
0 0.036998272 0.018195292 -0.38593423 0.23852047 0.14741376
0 0.035655782 0.017983163 -0.38593423 0.23852047 0.14741376
0 0.034309387 0.017770499 -0.38593423 0.23852047 0.14741376
0 0.032959051 0.017557291 -0.38593423 0.23852047 0.14741376
0 0.031604741 0.01734354 -0.38593423 0.23852047 0.14741376
0 0.03024642 0.017129235 -0.38593423 0.23852047 0.14741376
0 0.02888405 0.016914373 -0.38593423 0.23852047 0.14741376
0 0.027517594 0.016698949 -0.38593423 0.23852047 0.14741376
0 0.026147019 0.016482955 -0.38593423 0.23852047 0.14741376
0 0.024772283 0.016266389 -0.38593423 0.23852047 0.14741376
0 0.023393352 0.016049244 -0.38593423 0.23852047 0.14741376
0.039233629 0 0.0024550147 -0.38593423 0.23852047 0.14741376
0 0.020622745 0.015613194 -0.38593423 0.23852047 0.14741376
0 0.019230995 0.015394277 -0.38593423 0.23852047 0.14741376
0 0.016434401 0.014954632 -0.38593423 0.23852047 0.14741376
0 0.015029479 0.014733892 -0.38593423 0.23852047 0.14741376
0 0.012206184 0.014290548 -0.38593423 0.23852047 0.14741376
5.5511151e-17 0.010787729 0.014067932 -0.38593423 0.23852047 0.14741376
5.5511151e-17 0.0093646813 0.013844678 -0.38593423 0.23852047 0.14741376
0 0.0079369992 0.013620781 -0.38593423 0.23852047 0.14741376
0 0.00650464 0.013396232 -0.38593423 0.23852047 0.14741376
0 0.0050675618 0.013171029 -0.38593423 0.23852047 0.14741376
0 0.0036257214 0.012945163 -0.38593423 0.23852047 0.14741376
0 0.0021790753 0.012718628 -0.38593423 0.23852047 0.14741376
0 0.00072757993 0.012491418 -0.38593423 0.23852047 0.14741376
0.037270304 0.079999998 0.014386124 -0.38593423 0.23852047 0.14741376
0.033786647 0.079999998 0.015269962 -0.38593423 0.23852047 0.14741376
0.030352555 0.079999998 0.016141299 -0.38593423 0.23852047 0.14741376
0.026966928 0.079999998 0.017000413 -0.38593423 0.23852047 0.14741376
0.023628702 0.079999998 0.01784757 -0.38593423 0.23852047 0.14741376
0.020336846 0.079999998 0.018683033 -0.38593423 0.23852047 0.14741376
0.017090358 0.079999998 0.019507054 -0.38593423 0.23852047 0.14741376
0.013888259 0.079999998 0.020319879 -0.38593423 0.23852047 0.14741376
0.010729606 0.079999998 0.021121746 -0.38593423 0.23852047 0.14741376
0.0076134782 0.079999998 0.02191289 -0.38593423 0.23852047 0.14741376
0.0045389803 0.079999998 0.022693532 -0.38593423 0.23852047 0.14741376
0.0015052429 0.079999998 0.023463896 -0.38593423 0.23852047 0.14741376
0 0.079386204 0.0237472 -0.38593423 0.23852047 0.14741376
0 0.078153677 0.023548555 -0.38593423 0.23852047 0.14741376
0 0.076918252 0.023349511 -0.38593423 0.23852047 0.14741376
0 0.075679906 0.023150066 -0.38593423 0.23852047 0.14741376
0 0.074438617 0.022950217 -0.38593423 0.23852047 0.14741376
0 0.073194347 0.022749959 -0.38593423 0.23852047 0.14741376
0 0.071947075 0.022549285 -0.38593423 0.23852047 0.14741376
0 0.070696779 0.022348195 -0.38593423 0.23852047 0.14741376
0 0.06944342 0.022146683 -0.38593423 0.23852047 0.14741376
0 0.068186969 0.021944745 -0.38593423 0.23852047 0.14741376
0 0.066927403 0.021742376 -0.38593423 0.23852047 0.14741376
0 0.065664694 0.021539573 -0.38593423 0.23852047 0.14741376
0 0.06439881 0.021336328 -0.38593423 0.23852047 0.14741376
0 0.063129731 0.021132641 -0.38593423 0.23852047 0.14741376
0 0.061857414 0.020928506 -0.38593423 0.23852047 0.14741376
0 0.060581833 0.020723918 -0.38593423 0.23852047 0.14741376
0 0.059302963 0.020518873 -0.38593423 0.23852047 0.14741376
0 0.058020767 0.020313365 -0.38593423 0.23852047 0.14741376
0 0.056735221 0.02010739 -0.38593423 0.23852047 0.14741376
0 0.055446293 0.019900946 -0.38593423 0.23852047 0.14741376
0 0.054153953 0.019694027 -0.38593423 0.23852047 0.14741376
0 0.052858163 0.019486625 -0.38593423 0.23852047 0.14741376
0 0.051558897 0.019278739 -0.38593423 0.23852047 0.14741376
0 0.050256126 0.019070363 -0.38593423 0.23852047 0.14741376
0 0.048949812 0.018861491 -0.38593423 0.23852047 0.14741376
0 0.047639925 0.018652121 -0.38593423 0.23852047 0.14741376
0 0.046326436 0.018442245 -0.38593423 0.23852047 0.14741376
0 0.045009308 0.018231859 -0.38593423 0.23852047 0.14741376
0 0.043688506 0.01802096 -0.38593423 0.23852047 0.14741376
0 0.042364001 0.017809542 -0.38593423 0.23852047 0.14741376
0 0.04103576 0.017597597 -0.38593423 0.23852047 0.14741376
0 0.039703745 0.017385125 -0.38593423 0.23852047 0.14741376
0 0.038367923 0.017172117 -0.38593423 0.23852047 0.14741376
0 0.037028264 0.016958568 -0.38593423 0.23852047 0.14741376
0 0.035684727 0.016744474 -0.38593423 0.23852047 0.14741376
0 0.034337282 0.01652983 -0.38593423 0.23852047 0.14741376
0 0.032985888 0.016314629 -0.38593423 0.23852047 0.14741376
0 0.031630512 0.016098868 -0.38593423 0.23852047 0.14741376
0 0.03027112 0.01588254 -0.38593423 0.23852047 0.14741376
0 0.028907672 0.015665641 -0.38593423 0.23852047 0.14741376
0 0.027540134 0.015448162 -0.38593423 0.23852047 0.14741376
5.5511151e-17 0.026168467 0.015230101 -0.38593423 0.23852047 0.14741376
5.5511151e-17 0.024792636 0.015011451 -0.38593423 0.23852047 0.14741376
0 0.0234126 0.014792206 -0.38593423 0.23852047 0.14741376
0 0.022028323 0.014572361 -0.38593423 0.23852047 0.14741376
0 0.020639768 0.01435191 -0.38593423 0.23852047 0.14741376
0.033875648 0 0.0024318455 -0.38593423 0.23852047 0.14741376
5.5511151e-17 0.01784966 0.013909167 -0.38593423 0.23852047 0.14741376
0 0.016448028 0.013686863 -0.38593423 0.23852047 0.14741376
0 0.015041962 0.013463928 -0.38593423 0.23852047 0.14741376
0 0.013631417 0.013240359 -0.38593423 0.23852047 0.14741376
0 0.010796732 0.012791289 -0.38593423 0.23852047 0.14741376
0 0.00937251 0.012565776 -0.38593423 0.23852047 0.14741376
0 0.0079436451 0.012339602 -0.38593423 0.23852047 0.14741376
0.010829122 2.7755576e-17 0.0083162831 -0.38593423 0.23852047 0.14741376
0.0083846636 0 0.0089408066 -0.38593423 0.23852047 0.14741376
5.5511151e-17 0.0036287722 0.011657055 -0.38593423 0.23852047 0.14741376
0 0.0021809121 0.011428177 -0.38593423 0.23852047 0.14741376
0.0011818511 0 0.010781473 -0.38593423 0.23852047 0.14741376
0.039999999 0.079057045 0.012243778 -0.38593423 0.23852047 0.14741376
0.03399178 0.079999998 0.013937665 -0.38593423 0.23852047 0.14741376
0.030551942 0.079999998 0.014819576 -0.38593423 0.23852047 0.14741376
0.027160712 0.079999998 0.01568909 -0.38593423 0.23852047 0.14741376
0.023817021 0.079999998 0.01654648 -0.38593423 0.23852047 0.14741376
0.020519836 0.079999998 0.017392008 -0.38593423 0.23852047 0.14741376
0.017268145 0.079999998 0.018225932 -0.38593423 0.23852047 0.14741376
0.014060972 0.079999998 0.019048505 -0.38593423 0.23852047 0.14741376
0.010897366 0.079999998 0.019859964 -0.38593423 0.23852047 0.14741376
0.0077764033 0.079999998 0.020660549 -0.38593423 0.23852047 0.14741376
0.0046971855 0.079999998 0.021450488 -0.38593423 0.23852047 0.14741376
0.0016588402 0.079999998 0.022230001 -0.38593423 0.23852047 0.14741376
0 0.079447895 0.022565993 -0.38593423 0.23852047 0.14741376
0 0.078214481 0.02236581 -0.38593423 0.23852047 0.14741376
0 0.076978169 0.02216522 -0.38593423 0.23852047 0.14741376
0 0.075738929 0.021964217 -0.38593423 0.23852047 0.14741376
0 0.074496739 0.021762798 -0.38593423 0.23852047 0.14741376
0 0.073251568 0.021560956 -0.38593423 0.23852047 0.14741376
0 0.072003387 0.021358687 -0.38593423 0.23852047 0.14741376
0 0.070752174 0.021155989 -0.38593423 0.23852047 0.14741376
0 0.069497898 0.020952856 -0.38593423 0.23852047 0.14741376
0 0.068240531 0.020749286 -0.38593423 0.23852047 0.14741376
0 0.066980049 0.020545272 -0.38593423 0.23852047 0.14741376
0 0.065716408 0.02034081 -0.38593423 0.23852047 0.14741376
0 0.064449593 0.020135896 -0.38593423 0.23852047 0.14741376
0 0.063179567 0.019930525 -0.38593423 0.23852047 0.14741376
0 0.061906312 0.019724693 -0.38593423 0.23852047 0.14741376
0 0.060629785 0.019518396 -0.38593423 0.23852047 0.14741376
0 0.059349962 0.019311629 -0.38593423 0.23852047 0.14741376
0 0.058066815 0.019104386 -0.38593423 0.23852047 0.14741376
0 0.056780305 0.018896664 -0.38593423 0.23852047 0.14741376
0 0.055490412 0.018688457 -0.38593423 0.23852047 0.14741376
0 0.054197099 0.018479763 -0.38593423 0.23852047 0.14741376
0 0.052900333 0.018270573 -0.38593423 0.23852047 0.14741376
0 0.051600087 0.018060885 -0.38593423 0.23852047 0.14741376
0 0.050296329 0.017850693 -0.38593423 0.23852047 0.14741376
0 0.048989024 0.017639993 -0.38593423 0.23852047 0.14741376
0 0.047678139 0.01742878 -0.38593423 0.23852047 0.14741376
0 0.046363648 0.017217048 -0.38593423 0.23852047 0.14741376
0 0.04504551 0.017004792 -0.38593423 0.23852047 0.14741376
0 0.043723695 0.016792009 -0.38593423 0.23852047 0.14741376
0 0.042398173 0.016578691 -0.38593423 0.23852047 0.14741376
0 0.041068908 0.016364835 -0.38593423 0.23852047 0.14741376
0 0.039735861 0.016150434 -0.38593423 0.23852047 0.14741376
0 0.038399007 0.015935484 -0.38593423 0.23852047 0.14741376
0 0.037058301 0.01571998 -0.38593423 0.23852047 0.14741376
0 0.035713717 0.015503917 -0.38593423 0.23852047 0.14741376
0 0.034365218 0.015287288 -0.38593423 0.23852047 0.14741376
0 0.033012763 0.015070088 -0.38593423 0.23852047 0.14741376
0 0.031656321 0.014852312 -0.38593423 0.23852047 0.14741376
0 0.030295858 0.014633955 -0.38593423 0.23852047 0.14741376
0 0.028931331 0.01441501 -0.38593423 0.23852047 0.14741376
0 0.027562708 0.014195472 -0.38593423 0.23852047 0.14741376
0 0.026189949 0.013975335 -0.38593423 0.23852047 0.14741376
0 0.024813019 0.013754595 -0.38593423 0.23852047 0.14741376
0 0.023431879 0.013533245 -0.38593423 0.23852047 0.14741376
5.5511151e-17 0.02204649 0.013311278 -0.38593423 0.23852047 0.14741376
0 0.020656815 0.01308869 -0.38593423 0.23852047 0.14741376
0 0.019262815 0.012865474 -0.38593423 0.23852047 0.14741376
0 0.017864449 0.012641625 -0.38593423 0.23852047 0.14741376
0.028610105 2.7755576e-17 0.0024095564 -0.38593423 0.23852047 0.14741376
0 0.015054464 0.012192002 -0.38593423 0.23852047 0.14741376
0.02341366 0 0.0037489529 -0.38593423 0.23852047 0.14741376
0 0.012226541 0.011739771 -0.38593423 0.23852047 0.14741376
0 0.010805749 0.011512662 -0.38593423 0.23852047 0.14741376
0 0.0093803499 0.011284882 -0.38593423 0.23852047 0.14741376
0 0.0079503013 0.011056426 -0.38593423 0.23852047 0.14741376
0 0.0065155593 0.010827286 -0.38593423 0.23852047 0.14741376
0.0083918665 0 0.0076224823 -0.38593423 0.23852047 0.14741376
0 0.0036318279 0.01036693 -0.38593423 0.23852047 0.14741376
0 0.0021827514 0.0101357 -0.38593423 0.23852047 0.14741376
0.037692871 0.079999998 0.011696761 -0.38593423 0.23852047 0.14741376
0.034197409 0.079999998 0.012602152 -0.38593423 0.23852047 0.14741376
0.030751808 0.079999998 0.013494687 -0.38593423 0.23852047 0.14741376
0.027354958 0.079999998 0.01437465 -0.38593423 0.23852047 0.14741376
0.024005786 0.079999998 0.015242318 -0.38593423 0.23852047 0.14741376
0.020703252 0.079999998 0.016097957 -0.38593423 0.23852047 0.14741376
0.017446347 0.079999998 0.016941832 -0.38593423 0.23852047 0.14741376
0.014234084 0.079999998 0.017774194 -0.38593423 0.23852047 0.14741376
0.01106551 0.079999998 0.018595289 -0.38593423 0.23852047 0.14741376
0.0079396991 0.079999998 0.019405358 -0.38593423 0.23852047 0.14741376
0.0048557487 0.079999998 0.020204632 -0.38593423 0.23852047 0.14741376
0.0018127825 0.079999998 0.020993335 -0.38593423 0.23852047 0.14741376
0 0.079509676 0.021383069 -0.38593423 0.23852047 0.14741376
0 0.078275375 0.021181349 -0.38593423 0.23852047 0.14741376
0 0.077038169 0.020979207 -0.38593423 0.23852047 0.14741376
0 0.075798035 0.020776641 -0.38593423 0.23852047 0.14741376
0 0.074554943 0.020573644 -0.38593423 0.23852047 0.14741376
0 0.07330887 0.020370213 -0.38593423 0.23852047 0.14741376
0 0.07205978 0.020166347 -0.38593423 0.23852047 0.14741376
0 0.070807658 0.019962035 -0.38593423 0.23852047 0.14741376
0 0.069552466 0.019757278 -0.38593423 0.23852047 0.14741376
0 0.068294175 0.019552071 -0.38593423 0.23852047 0.14741376
0 0.067032762 0.019346407 -0.38593423 0.23852047 0.14741376
0 0.065768197 0.019140281 -0.38593423 0.23852047 0.14741376
0 0.064500451 0.018933691 -0.38593423 0.23852047 0.14741376
0 0.063229486 0.018726634 -0.38593423 0.23852047 0.14741376
0 0.061955284 0.0185191 -0.38593423 0.23852047 0.14741376
0 0.060677808 0.018311089 -0.38593423 0.23852047 0.14741376
0 0.059397034 0.018102594 -0.38593423 0.23852047 0.14741376
0 0.058112927 0.017893612 -0.38593423 0.23852047 0.14741376
0 0.056825459 0.017684136 -0.38593423 0.23852047 0.14741376
0 0.055534594 0.017474163 -0.38593423 0.23852047 0.14741376
0 0.054240309 0.017263688 -0.38593423 0.23852047 0.14741376
0 0.052942567 0.017052704 -0.38593423 0.23852047 0.14741376
0 0.051641338 0.01684121 -0.38593423 0.23852047 0.14741376
0 0.050336592 0.016629197 -0.38593423 0.23852047 0.14741376
0 0.049028292 0.016416663 -0.38593423 0.23852047 0.14741376
0 0.047716413 0.016203601 -0.38593423 0.23852047 0.14741376
0 0.046400916 0.015990008 -0.38593423 0.23852047 0.14741376
0 0.045081768 0.015775876 -0.38593423 0.23852047 0.14741376
0 0.04375894 0.015561202 -0.38593423 0.23852047 0.14741376
0 0.042432398 0.01534598 -0.38593423 0.23852047 0.14741376
0 0.041102104 0.015130205 -0.38593423 0.23852047 0.14741376
0 0.039768029 0.014913873 -0.38593423 0.23852047 0.14741376
0 0.038430132 0.014696976 -0.38593423 0.23852047 0.14741376
0 0.037088387 0.01447951 -0.38593423 0.23852047 0.14741376
0 0.035742752 0.01426147 -0.38593423 0.23852047 0.14741376
0 0.034393199 0.01404285 -0.38593423 0.23852047 0.14741376
0 0.033039682 0.013823644 -0.38593423 0.23852047 0.14741376
0 0.031682175 0.013603847 -0.38593423 0.23852047 0.14741376
0.038537052 0.0095310602 0 -0.38593423 0.23852047 0.14741376
0 0.027585316 0.012940855 -0.38593423 0.23852047 0.14741376
0 0.026211465 0.012718637 -0.38593423 0.23852047 0.14741376
0 0.024833433 0.0124958 -0.38593423 0.23852047 0.14741376
0.035047099 0.0039205151 0 -0.38593423 0.23852047 0.14741376
0 0.022064684 0.012048244 -0.38593423 0.23852047 0.14741376
0 0.02067389 0.011823512 -0.38593423 0.23852047 0.14741376
0 0.019278761 0.011598137 -0.38593423 0.23852047 0.14741376
0 0.017879261 0.011372113 -0.38593423 0.23852047 0.14741376
0 0.01647535 0.011145432 -0.38593423 0.23852047 0.14741376
5.5511151e-17 0.015066986 0.01091809 -0.38593423 0.23852047 0.14741376
0 0.013654131 0.01069008 -0.38593423 0.23852047 0.14741376
0 0.012236743 0.010461395 -0.38593423 0.23852047 0.14741376
5.5511151e-17 0.010814781 0.010232029 -0.38593423 0.23852047 0.14741376
0 0.0093882028 0.010001977 -0.38593423 0.23852047 0.14741376
5.5511151e-17 0.0079569677 0.0097712297 -0.38593423 0.23852047 0.14741376
0 0.0065210317 0.009539783 -0.38593423 0.23852047 0.14741376
0 0.005080353 0.0093076294 -0.38593423 0.23852047 0.14741376
5.5511151e-17 0.0021845941 0.0088411737 -0.38593423 0.23852047 0.14741376
0 0.00072942569 0.0086068586 -0.38593423 0.23852047 0.14741376
0.037904926 0.079999998 0.01034715 -0.38593423 0.23852047 0.14741376
0.03440354 0.079999998 0.011263395 -0.38593423 0.23852047 0.14741376
0.030952156 0.079999998 0.012166603 -0.38593423 0.23852047 0.14741376
0.027549667 0.079999998 0.013057062 -0.38593423 0.23852047 0.14741376
0.024194999 0.079999998 0.013935056 -0.38593423 0.23852047 0.14741376
0.020887103 0.079999998 0.014800854 -0.38593423 0.23852047 0.14741376
0.017624965 0.079999998 0.015654722 -0.38593423 0.23852047 0.14741376
0.014407598 0.079999998 0.016496919 -0.38593423 0.23852047 0.14741376
0.011234043 0.079999998 0.017327692 -0.38593423 0.23852047 0.14741376
0.0081033697 0.079999998 0.018147288 -0.38593423 0.23852047 0.14741376
0.0050146733 0.079999998 0.018955939 -0.38593423 0.23852047 0.14741376
0.001967073 0.079999998 0.019753873 -0.38593423 0.23852047 0.14741376
0 0.079571553 0.02019841 -0.38593423 0.23852047 0.14741376
0 0.078336358 0.019995145 -0.38593423 0.23852047 0.14741376
0 0.077098258 0.019791448 -0.38593423 0.23852047 0.14741376
0 0.07585723 0.019587314 -0.38593423 0.23852047 0.14741376
0 0.074613236 0.019382738 -0.38593423 0.23852047 0.14741376
0 0.073366255 0.019177714 -0.38593423 0.23852047 0.14741376
0 0.072116263 0.018972242 -0.38593423 0.23852047 0.14741376
0 0.070863225 0.018766316 -0.38593423 0.23852047 0.14741376
0 0.069607109 0.018559929 -0.38593423 0.23852047 0.14741376
0 0.068347901 0.018353077 -0.38593423 0.23852047 0.14741376
0 0.067085557 0.018145759 -0.38593423 0.23852047 0.14741376
0 0.065820061 0.017937966 -0.38593423 0.23852047 0.14741376
0 0.064551376 0.017729698 -0.38593423 0.23852047 0.14741376
0 0.063279472 0.017520946 -0.38593423 0.23852047 0.14741376
0 0.062004328 0.017311705 -0.38593423 0.23852047 0.14741376
0 0.060725905 0.017101975 -0.38593423 0.23852047 0.14741376
0 0.059444174 0.01689175 -0.38593423 0.23852047 0.14741376
0 0.058159109 0.016681021 -0.38593423 0.23852047 0.14741376
0 0.056870677 0.016469786 -0.38593423 0.23852047 0.14741376
0 0.055578846 0.016258042 -0.38593423 0.23852047 0.14741376
0 0.054283585 0.016045781 -0.38593423 0.23852047 0.14741376
0 0.052984864 0.015833 -0.38593423 0.23852047 0.14741376
0 0.051682651 0.015619691 -0.38593423 0.23852047 0.14741376
0 0.050376914 0.015405853 -0.38593423 0.23852047 0.14741376
0 0.049067624 0.015191479 -0.38593423 0.23852047 0.14741376
0 0.047754742 0.014976564 -0.38593423 0.23852047 0.14741376
0 0.04643824 0.014761102 -0.38593423 0.23852047 0.14741376
0 0.045118082 0.01454509 -0.38593423 0.23852047 0.14741376
0 0.043794237 0.01432852 -0.38593423 0.23852047 0.14741376
0 0.042466674 0.014111388 -0.38593423 0.23852047 0.14741376
0 0.041135352 0.013893689 -0.38593423 0.23852047 0.14741376
0 0.039800242 0.013675418 -0.38593423 0.23852047 0.14741376
0 0.038461309 0.013456568 -0.38593423 0.23852047 0.14741376
0 0.037118517 0.013237135 -0.38593423 0.23852047 0.14741376
0 0.035771832 0.013017112 -0.38593423 0.23852047 0.14741376
0 0.03442122 0.012796495 -0.38593423 0.23852047 0.14741376
0 0.033066642 0.012575277 -0.38593423 0.23852047 0.14741376
5.5511151e-17 0.031708062 0.012353454 -0.38593423 0.23852047 0.14741376
0 0.030345447 0.012131019 -0.38593423 0.23852047 0.14741376
0 0.028978759 0.011907967 -0.38593423 0.23852047 0.14741376
0 0.027607961 0.01168429 -0.38593423 0.23852047 0.14741376
0 0.026233014 0.011459986 -0.38593423 0.23852047 0.14741376
0 0.024853881 0.011235045 -0.38593423 0.23852047 0.14741376
0 0.023470525 0.011009464 -0.38593423 0.23852047 0.14741376
0 0.022082908 0.010783236 -0.38593423 0.23852047 0.14741376
5.5511151e-17 0.020690991 0.010556353 -0.38593423 0.23852047 0.14741376
0.029078627 0.0027769348 0 -0.38593423 0.23852047 0.14741376
5.5511151e-17 0.017894097 0.010100606 -0.38593423 0.23852047 0.14741376
0 0.016489042 0.0098717278 -0.38593423 0.23852047 0.14741376
0 0.015079528 0.0096421707 -0.38593423 0.23852047 0.14741376
0 0.013665515 0.0094119301 -0.38593423 0.23852047 0.14741376
0.020888533 0 0.001699206 -0.38593423 0.23852047 0.14741376
0 0.010823826 0.0089493692 -0.38593423 0.23852047 0.14741376
0 0.0093960688 0.0087170359 -0.38593423 0.23852047 0.14741376
0 0.0079636443 0.008483992 -0.38593423 0.23852047 0.14741376
0.010857199 0 0.0043352465 -0.38593423 0.23852047 0.14741376
0 0.0050846306 0.0080157453 -0.38593423 0.23852047 0.14741376
0 0.0036379539 0.0077805296 -0.38593423 0.23852047 0.14741376
0 0.0021864395 0.0075445757 -0.38593423 0.23852047 0.14741376
0.0011848608 0 0.0068777371 -0.38593423 0.23852047 0.14741376
0.038117506 0.079999998 0.0089942124 -0.38593423 0.23852047 0.14741376
0.034610171 0.079999998 0.0099213617 -0.38593423 0.23852047 0.14741376
0.03115299 0.079999998 0.010835293 -0.38593423 0.23852047 0.14741376
0.027744848 0.079999998 0.011736299 -0.38593423 0.23852047 0.14741376
0.039999999 0.073967248 0.0074950522 -0.38593423 0.23852047 0.14741376
0.021071391 0.079999998 0.013500667 -0.38593423 0.23852047 0.14741376
0.017804006 0.079999998 0.014364576 -0.38593423 0.23852047 0.14741376
0.014581519 0.079999998 0.015216652 -0.38593423 0.23852047 0.14741376
0.011402968 0.079999998 0.016057149 -0.38593423 0.23852047 0.14741376
0.0082674185 0.079999998 0.016886311 -0.38593423 0.23852047 0.14741376
0.0051739621 0.079999998 0.017704381 -0.38593423 0.23852047 0.14741376
0.0021217149 0.079999998 0.018511588 -0.38593423 0.23852047 0.14741376
0 0.079633519 0.019011995 -0.38593423 0.23852047 0.14741376
0 0.07839743 0.018807182 -0.38593423 0.23852047 0.14741376
0 0.077158436 0.018601926 -0.38593423 0.23852047 0.14741376
0 0.075916506 0.018396217 -0.38593423 0.23852047 0.14741376
0 0.074671611 0.018190058 -0.38593423 0.23852047 0.14741376
0 0.073423728 0.017983438 -0.38593423 0.23852047 0.14741376
0 0.072172821 0.017776355 -0.38593423 0.23852047 0.14741376
0 0.070918866 0.017568806 -0.38593423 0.23852047 0.14741376
0 0.069661841 0.017360786 -0.38593423 0.23852047 0.14741376
0 0.068401702 0.017152287 -0.38593423 0.23852047 0.14741376
0 0.067138433 0.016943309 -0.38593423 0.23852047 0.14741376
0 0.065872006 0.016733844 -0.38593423 0.23852047 0.14741376
0 0.064602382 0.01652389 -0.38593423 0.23852047 0.14741376
0 0.06332954 0.016313439 -0.38593423 0.23852047 0.14741376
0 0.062053446 0.016102489 -0.38593423 0.23852047 0.14741376
0 0.060774073 0.015891036 -0.38593423 0.23852047 0.14741376
0 0.059491388 0.015679071 -0.38593423 0.23852047 0.14741376
0 0.058205362 0.015466592 -0.38593423 0.23852047 0.14741376
0 0.056915965 0.015253595 -0.38593423 0.23852047 0.14741376
0 0.055623163 0.015040073 -0.38593423 0.23852047 0.14741376
0 0.054326925 0.014826021 -0.38593423 0.23852047 0.14741376
0 0.053027228 0.014611435 -0.38593423 0.23852047 0.14741376
0 0.051724028 0.01439631 -0.38593423 0.23852047 0.14741376
0 0.0504173 0.01418064 -0.38593423 0.23852047 0.14741376
0 0.049107011 0.01396442 -0.38593423 0.23852047 0.14741376
0 0.047793131 0.013747646 -0.38593423 0.23852047 0.14741376
0 0.046475619 0.013530311 -0.38593423 0.23852047 0.14741376
0 0.045154452 0.013312411 -0.38593423 0.23852047 0.14741376
0 0.04382959 0.01309394 -0.38593423 0.23852047 0.14741376
0 0.042501003 0.012874893 -0.38593423 0.23852047 0.14741376
0 0.041168652 0.012655264 -0.38593423 0.23852047 0.14741376
0 0.039832506 0.012435048 -0.38593423 0.23852047 0.14741376
0 0.038492534 0.01221424 -0.38593423 0.23852047 0.14741376
0 0.037148695 0.011992833 -0.38593423 0.23852047 0.14741376
0 0.03580096 0.011770822 -0.38593423 0.23852047 0.14741376
0 0.034449287 0.011548202 -0.38593423 0.23852047 0.14741376
0 0.033093642 0.011324966 -0.38593423 0.23852047 0.14741376
0 0.031733993 0.01110111 -0.38593423 0.23852047 0.14741376
0.030743742 0.013788939 0 -0.38593423 0.23852047 0.14741376
0.030057874 0.012684557 0 -0.38593423 0.23852047 0.14741376
0 0.027630638 0.010425756 -0.38593423 0.23852047 0.14741376
0.028687082 0.010476548 0 -0.38593423 0.23852047 0.14741376
0 0.024874359 0.0099723069 -0.38593423 0.23852047 0.14741376
0 0.023489894 0.0097446004 -0.38593423 0.23852047 0.14741376
0 0.02210116 0.0095162317 -0.38593423 0.23852047 0.14741376
5.5511151e-17 0.020708118 0.0092871925 -0.38593423 0.23852047 0.14741376
0 0.01931073 0.009057479 -0.38593423 0.23852047 0.14741376
0.024581539 0.0038574156 0 -0.38593423 0.23852047 0.14741376
0 0.016502757 0.0085960003 -0.38593423 0.23852047 0.14741376
0.023215033 0.0016522417 0 -0.38593423 0.23852047 0.14741376
5.5511151e-17 0.013676917 0.0081317443 -0.38593423 0.23852047 0.14741376
0 0.012257197 0.0078985579 -0.38593423 0.23852047 0.14741376
0 0.010832887 0.0076646577 -0.38593423 0.23852047 0.14741376
0 0.0094039459 0.007430037 -0.38593423 0.23852047 0.14741376
0 0.0079703322 0.0071946885 -0.38593423 0.23852047 0.14741376
0.01086659 2.7755576e-17 0.0030038683 -0.38593423 0.23852047 0.14741376
0.008413543 0 0.0036546325 -0.38593423 0.23852047 0.14741376
0 0.0036410242 0.0064842105 -0.38593423 0.23852047 0.14741376
0 0.0021882879 0.0062458836 -0.38593423 0.23852047 0.14741376
0 0.00073066115 0.0060067945 -0.38593423 0.23852047 0.14741376
0.038330615 0.079999998 0.0076379166 -0.38593423 0.23852047 0.14741376
0.034817312 0.079999998 0.0085760225 -0.38593423 0.23852047 0.14741376
0.039999999 0.076715656 0.0066433451 -0.38593423 0.23852047 0.14741376
0.039999999 0.075381026 0.0064203748 -0.38593423 0.23852047 0.14741376
0.039999999 0.07404346 0.0061969473 -0.38593423 0.23852047 0.14741376
0.021256119 0.079999998 0.01219737 -0.38593423 0.23852047 0.14741376
0.017983472 0.079999998 0.013071365 -0.38593423 0.23852047 0.14741376
0.01475585 0.079999998 0.013933364 -0.38593423 0.23852047 0.14741376
0.011572288 0.079999998 0.014783626 -0.38593423 0.23852047 0.14741376
0.0084318491 0.079999998 0.015622401 -0.38593423 0.23852047 0.14741376
0.0053336192 0.079999998 0.01644993 -0.38593423 0.23852047 0.14741376
0.0022767116 0.079999998 0.017266452 -0.38593423 0.23852047 0.14741376
0 0.079695575 0.017823804 -0.38593423 0.23852047 0.14741376
0 0.0784586 0.01761744 -0.38593423 0.23852047 0.14741376
0 0.077218711 0.017410617 -0.38593423 0.23852047 0.14741376
0 0.07597588 0.017203333 -0.38593423 0.23852047 0.14741376
0 0.074730083 0.016995583 -0.38593423 0.23852047 0.14741376
0 0.073481284 0.016787361 -0.38593423 0.23852047 0.14741376
0 0.072229467 0.016578667 -0.38593423 0.23852047 0.14741376
0 0.070974596 0.01636949 -0.38593423 0.23852047 0.14741376
0 0.069716647 0.016159831 -0.38593423 0.23852047 0.14741376
0 0.068455592 0.01594968 -0.38593423 0.23852047 0.14741376
0 0.067191392 0.015739037 -0.38593423 0.23852047 0.14741376
0 0.065924026 0.015527896 -0.38593423 0.23852047 0.14741376
0 0.064653471 0.015316251 -0.38593423 0.23852047 0.14741376
0 0.063379683 0.015104097 -0.38593423 0.23852047 0.14741376
0 0.062102642 0.014891431 -0.38593423 0.23852047 0.14741376
0 0.060822316 0.014678247 -0.38593423 0.23852047 0.14741376
0 0.059538674 0.01446454 -0.38593423 0.23852047 0.14741376
0 0.058251686 0.014250306 -0.38593423 0.23852047 0.14741376
0 0.05696132 0.01403554 -0.38593423 0.23852047 0.14741376
0 0.055667546 0.013820235 -0.38593423 0.23852047 0.14741376
0 0.054370336 0.013604388 -0.38593423 0.23852047 0.14741376
0 0.053069651 0.013387992 -0.38593423 0.23852047 0.14741376
0 0.051765468 0.013171043 -0.38593423 0.23852047 0.14741376
0 0.05045775 0.012953537 -0.38593423 0.23852047 0.14741376
0 0.049146462 0.012735466 -0.38593423 0.23852047 0.14741376
0 0.047831576 0.012516826 -0.38593423 0.23852047 0.14741376
0 0.046513062 0.012297614 -0.38593423 0.23852047 0.14741376
0 0.045190878 0.01207782 -0.38593423 0.23852047 0.14741376
0 0.043864995 0.011857442 -0.38593423 0.23852047 0.14741376
0 0.042535383 0.011636473 -0.38593423 0.23852047 0.14741376
0 0.041202005 0.011414909 -0.38593423 0.23852047 0.14741376
0 0.039864823 0.011192743 -0.38593423 0.23852047 0.14741376
0 0.038523808 0.010969969 -0.38593423 0.23852047 0.14741376
0 0.037178919 0.010746582 -0.38593423 0.23852047 0.14741376
0 0.035830129 0.010522578 -0.38593423 0.23852047 0.14741376
0 0.034477398 0.010297948 -0.38593423 0.23852047 0.14741376
0.028304681 0.018056527 0 -0.38593423 0.23852047 0.14741376
0 0.031759966 0.0098467935 -0.38593423 0.23852047 0.14741376
0 0.030395193 0.0096202558 -0.38593423 0.23852047 0.14741376
0 0.029026335 0.0093930699 -0.38593423 0.23852047 0.14741376
0 0.027653353 0.0091652302 -0.38593423 0.23852047 0.14741376
0 0.026276212 0.0089367311 -0.38593423 0.23852047 0.14741376
0 0.024894871 0.0087075653 -0.38593423 0.23852047 0.14741376
0.023549289 0.010389544 0 -0.38593423 0.23852047 0.14741376
0 0.02211944 0.0082472097 -0.38593423 0.23852047 0.14741376
5.5511151e-17 0.020725273 0.008016008 -0.38593423 0.23852047 0.14741376
0 0.019326752 0.0077841147 -0.38593423 0.23852047 0.14741376
0 0.017923839 0.0075515234 -0.38593423 0.23852047 0.14741376
0 0.016516492 0.0073182285 -0.38593423 0.23852047 0.14741376
0.019483024 0.0038260259 0 -0.38593423 0.23852047 0.14741376
0 0.013688337 0.006849499 -0.38593423 0.23852047 0.14741376
0 0.012267448 0.0066140518 -0.38593423 0.23852047 0.14741376
0.017452577 0.00054596737 0 -0.38593423 0.23852047 0.14741376
0 0.009411837 0.0061409581 -0.38593423 0.23852047 0.14741376
0 0.0079770312 0.0059032976 -0.38593423 0.23852047 0.14741376
5.5511151e-17 0.0065375017 0.0056648864 -0.38593423 0.23852047 0.14741376
0.0084207924 0 0.002327645 -0.38593423 0.23852047 0.14741376
0.0059877578 0 0.0029791186 -0.38593423 0.23852047 0.14741376
0 0.0021901394 0.0049450737 -0.38593423 0.23852047 0.14741376
0 0.00073128036 0.0047035865 -0.38593423 0.23852047 0.14741376
0.038544256 0.079999998 0.0062782322 -0.38593423 0.23852047 0.14741376
0.035024967 0.079999998 0.0072273458 -0.38593423 0.23852047 0.14741376
0.031556137 0.079999998 0.0081628747 -0.38593423 0.23852047 0.14741376
0.028136635 0.079999998 0.0090851206 -0.38593423 0.23852047 0.14741376
0.024765372 0.079999998 0.0099943783 -0.38593423 0.23852047 0.14741376
0.021441294 0.079999998 0.010890933 -0.38593423 0.23852047 0.14741376
0.018163366 0.079999998 0.01177506 -0.38593423 0.23852047 0.14741376
0.014930596 0.079999998 0.012647028 -0.38593423 0.23852047 0.14741376
0.011742009 0.079999998 0.013507101 -0.38593423 0.23852047 0.14741376
0.0085966643 0.079999998 0.01435553 -0.38593423 0.23852047 0.14741376
0.0054936474 0.079999998 0.015192563 -0.38593423 0.23852047 0.14741376
0.0024320665 0.079999998 0.016018439 -0.38593423 0.23852047 0.14741376
0 0.07975772 0.016633818 -0.38593423 0.23852047 0.14741376
0 0.078519858 0.016425896 -0.38593423 0.23852047 0.14741376
0 0.077279069 0.016217504 -0.38593423 0.23852047 0.14741376
0 0.076035336 0.016008638 -0.38593423 0.23852047 0.14741376
0 0.074788637 0.015799295 -0.38593423 0.23852047 0.14741376
0 0.073538929 0.015589467 -0.38593423 0.23852047 0.14741376
0 0.072286204 0.015379152 -0.38593423 0.23852047 0.14741376
0 0.071030416 0.015168345 -0.38593423 0.23852047 0.14741376
0 0.069771543 0.014957041 -0.38593423 0.23852047 0.14741376
0 0.068509556 0.014745235 -0.38593423 0.23852047 0.14741376
0 0.067244433 0.014532922 -0.38593423 0.23852047 0.14741376
0 0.065976128 0.014320098 -0.38593423 0.23852047 0.14741376
0 0.064704634 0.014106757 -0.38593423 0.23852047 0.14741376
0 0.0634299 0.013892896 -0.38593423 0.23852047 0.14741376
0 0.062151913 0.013678509 -0.38593423 0.23852047 0.14741376
0 0.060870633 0.01346359 -0.38593423 0.23852047 0.14741376
0 0.059586029 0.013248136 -0.38593423 0.23852047 0.14741376
0 0.058298081 0.013032141 -0.38593423 0.23852047 0.14741376
0 0.057006747 0.0128156 -0.38593423 0.23852047 0.14741376
0 0.055712 0.012598507 -0.38593423 0.23852047 0.14741376
0 0.05441381 0.012380859 -0.38593423 0.23852047 0.14741376
0 0.053112146 0.012162648 -0.38593423 0.23852047 0.14741376
0 0.051806971 0.011943871 -0.38593423 0.23852047 0.14741376
0 0.050498258 0.011724521 -0.38593423 0.23852047 0.14741376
0 0.049185976 0.011504595 -0.38593423 0.23852047 0.14741376
0 0.047870085 0.011284085 -0.38593423 0.23852047 0.14741376
0 0.046550557 0.011062987 -0.38593423 0.23852047 0.14741376
0 0.04522736 0.010841295 -0.38593423 0.23852047 0.14741376
0 0.04390046 0.010619004 -0.38593423 0.23852047 0.14741376
0 0.04256982 0.010396108 -0.38593423 0.23852047 0.14741376
0 0.041235406 0.010172602 -0.38593423 0.23852047 0.14741376
0 0.039897189 0.009948479 -0.38593423 0.23852047 0.14741376
0 0.03855513 0.009723735 -0.38593423 0.23852047 0.14741376
0 0.037209194 0.0094983634 -0.38593423 0.23852047 0.14741376
0 0.035859346 0.0092723574 -0.38593423 0.23852047 0.14741376
0 0.03450555 0.0090457126 -0.38593423 0.23852047 0.14741376
0.024555884 0.020080499 0 -0.38593423 0.23852047 0.14741376
0 0.031785976 0.0085904822 -0.38593423 0.23852047 0.14741376
0 0.030420125 0.0083618835 -0.38593423 0.23852047 0.14741376
0.022534689 0.016819216 0 -0.38593423 0.23852047 0.14741376
0.021861482 0.015732696 0 -0.38593423 0.23852047 0.14741376
0 0.026297864 0.0076720845 -0.38593423 0.23852047 0.14741376
0 0.024915416 0.0074407957 -0.38593423 0.23852047 0.14741376
0 0.023528725 0.007208819 -0.38593423 0.23852047 0.14741376
0.019171033 0.011389079 0 -0.38593423 0.23852047 0.14741376
0 0.020742455 0.0067427759 -0.38593423 0.23852047 0.14741376
0 0.019342801 0.0065086964 -0.38593423 0.23852047 0.14741376
0 0.017938746 0.006273903 -0.38593423 0.23852047 0.14741376
0 0.016530251 0.0060383887 -0.38593423 0.23852047 0.14741376
5.5511151e-17 0.015117274 0.0058021476 -0.38593423 0.23852047 0.14741376
0 0.013699776 0.0055651725 -0.38593423 0.23852047 0.14741376
0 0.012277716 0.0053274566 -0.38593423 0.23852047 0.14741376
0.013799543 0.0027104572 0 -0.38593423 0.23852047 0.14741376
5.5511151e-17 0.0094197402 0.0048497757 -0.38593423 0.23852047 0.14741376
0 0.0079837404 0.0046097967 -0.38593423 0.23852047 0.14741376
0 0.0065430095 0.0043690489 -0.38593423 0.23852047 0.14741376
5.5511151e-17 0.0050975042 0.0041275257 -0.38593423 0.23852047 0.14741376
5.5511151e-17 0.00364718 0.0038852196 -0.38593423 0.23852047 0.14741376
0 0.0021919936 0.0036421237 -0.38593423 0.23852047 0.14741376
5.5511151e-17 0.00073190063 0.0033982303 -0.38593423 0.23852047 0.14741376
0.038758434 0.079999998 0.0049151271 -0.38593423 0.23852047 0.14741376
0.035233144 0.079999998 0.0058753015 -0.38593423 0.23852047 0.14741376
0.031758457 0.079999998 0.006821706 -0.38593423 0.23852047 0.14741376
0.028333249 0.079999998 0.0077546476 -0.38593423 0.23852047 0.14741376
0.024956424 0.079999998 0.0086744241 -0.38593423 0.23852047 0.14741376
0.021626916 0.079999998 0.0095813246 -0.38593423 0.23852047 0.14741376
0.018343695 0.079999998 0.010475631 -0.38593423 0.23852047 0.14741376
0.015105759 0.079999998 0.011357616 -0.38593423 0.23852047 0.14741376
0.011912132 0.079999998 0.012227543 -0.38593423 0.23852047 0.14741376
0.0087618688 0.079999998 0.01308567 -0.38593423 0.23852047 0.14741376
0.0056540505 0.079999998 0.013932249 -0.38593423 0.23852047 0.14741376
0.0025877829 0.079999998 0.014767521 -0.38593423 0.23852047 0.14741376
0 0.07981997 0.015442016 -0.38593423 0.23852047 0.14741376
0 0.078581207 0.015232531 -0.38593423 0.23852047 0.14741376
0 0.077339523 0.015022566 -0.38593423 0.23852047 0.14741376
0 0.076094888 0.014812114 -0.38593423 0.23852047 0.14741376
0 0.074847281 0.01460117 -0.38593423 0.23852047 0.14741376
0 0.073596671 0.014389732 -0.38593423 0.23852047 0.14741376
0 0.072343022 0.014177794 -0.38593423 0.23852047 0.14741376
0 0.071086317 0.01396535 -0.38593423 0.23852047 0.14741376
0 0.069826521 0.013752397 -0.38593423 0.23852047 0.14741376
0 0.06856361 0.013538929 -0.38593423 0.23852047 0.14741376
0 0.067297548 0.013324942 -0.38593423 0.23852047 0.14741376
0 0.066028312 0.013110431 -0.38593423 0.23852047 0.14741376
0 0.064755872 0.01289539 -0.38593423 0.23852047 0.14741376
0 0.063480198 0.012679816 -0.38593423 0.23852047 0.14741376
0 0.062201258 0.012463702 -0.38593423 0.23852047 0.14741376
0 0.060919024 0.012247045 -0.38593423 0.23852047 0.14741376
0 0.059633464 0.012029838 -0.38593423 0.23852047 0.14741376
0 0.058344547 0.011812076 -0.38593423 0.23852047 0.14741376
0 0.057052244 0.011593755 -0.38593423 0.23852047 0.14741376
0 0.055756524 0.011374869 -0.38593423 0.23852047 0.14741376
0 0.054457355 0.011155413 -0.38593423 0.23852047 0.14741376
0 0.053154703 0.010935383 -0.38593423 0.23852047 0.14741376
0 0.051848542 0.010714771 -0.38593423 0.23852047 0.14741376
0 0.050538834 0.010493574 -0.38593423 0.23852047 0.14741376
0 0.04922555 0.010271785 -0.38593423 0.23852047 0.14741376
0 0.047908653 0.010049399 -0.38593423 0.23852047 0.14741376
0 0.046588115 0.0098264106 -0.38593423 0.23852047 0.14741376
0 0.045263901 0.0096028149 -0.38593423 0.23852047 0.14741376
0 0.043935977 0.0093786046 -0.38593423 0.23852047 0.14741376
0 0.042604309 0.0091537759 -0.38593423 0.23852047 0.14741376
0 0.041268863 0.0089283222 -0.38593423 0.23852047 0.14741376
0 0.039929606 0.0087022372 -0.38593423 0.23852047 0.14741376
0 0.038586501 0.008475516 -0.38593423 0.23852047 0.14741376
0 0.037239514 0.0082481522 -0.38593423 0.23852047 0.14741376
0 0.035888609 0.0080201402 -0.38593423 0.23852047 0.14741376
0 0.03453375 0.007791474 -0.38593423 0.23852047 0.14741376
0 0.033174906 0.0075621475 -0.38593423 0.23852047 0.14741376
0 0.031812031 0.0073321545 -0.38593423 0.23852047 0.14741376
5.5511151e-17 0.030445097 0.0071014888 -0.38593423 0.23852047 0.14741376
5.5511151e-17 0.029074064 0.006870145 -0.38593423 0.23852047 0.14741376
0 0.027698893 0.0066381157 -0.38593423 0.23852047 0.14741376
0 0.026319548 0.0064053955 -0.38593423 0.23852047 0.14741376
0 0.024935992 0.0061719776 -0.38593423 0.23852047 0.14741376
0 0.023548186 0.0059378562 -0.38593423 0.23852047 0.14741376
5.5511151e-17 0.022156091 0.0057030236 -0.38593423 0.23852047 0.14741376
0 0.020759666 0.0054674745 -0.38593423 0.23852047 0.14741376
0 0.019358875 0.0052312021 -0.38593423 0.23852047 0.14741376
5.5511151e-17 0.017953677 0.0049941991 -0.38593423 0.23852047 0.14741376
0 0.016544031 0.0047564595 -0.38593423 0.23852047 0.14741376
0 0.015129897 0.0045179757 -0.38593423 0.23852047 0.14741376
0 0.013711234 0.0042787418 -0.38593423 0.23852047 0.14741376
0 0.012288 0.0040387507 -0.38593423 0.23852047 0.14741376
5.5511151e-17 0.010860156 0.0037979947 -0.38593423 0.23852047 0.14741376
0 0.0094276564 0.0035564676 -0.38593423 0.23852047 0.14741376
0.0088761421 0.0026884775 2.7755576e-17 -0.38593423 0.23852047 0.14741376
5.5511151e-17 0.0065485267 0.0030710706 -0.38593423 0.23852047 0.14741376
0 0.0051018093 0.0028271864 -0.38593423 0.23852047 0.14741376
0 0.0036502655 0.0025825021 -0.38593423 0.23852047 0.14741376
0 0.0021938514 0.0023370099 -0.38593423 0.23852047 0.14741376
5.5511151e-17 0.00073252193 0.002090703 -0.38593423 0.23852047 0.14741376
0.038973153 0.079999998 0.0035485697 -0.38593423 0.23852047 0.14741376
0.039999999 0.078285232 0.002974129 -0.38593423 0.23852047 0.14741376
0.031961285 0.079999998 0.00547719 -0.38593423 0.23852047 0.14741376
0.028530352 0.079999998 0.0064208773 -0.38593423 0.23852047 0.14741376
0.025147943 0.079999998 0.0073512224 -0.38593423 0.23852047 0.14741376
0.021812992 0.079999998 0.0082685184 -0.38593423 0.23852047 0.14741376
0.01852446 0.079999998 0.0091730505 -0.38593423 0.23852047 0.14741376
0.015281344 0.079999998 0.010065096 -0.38593423 0.23852047 0.14741376
0.012082662 0.079999998 0.010944923 -0.38593423 0.23852047 0.14741376
0.0089274663 0.079999998 0.011812793 -0.38593423 0.23852047 0.14741376
0.0058148326 0.079999998 0.012668961 -0.38593423 0.23852047 0.14741376
0.0027438644 0.079999998 0.013513671 -0.38593423 0.23852047 0.14741376
0 0.079882309 0.014248375 -0.38593423 0.23852047 0.14741376
0 0.078642651 0.014037324 -0.38593423 0.23852047 0.14741376
0 0.077400066 0.01382578 -0.38593423 0.23852047 0.14741376
0 0.07615453 0.013613737 -0.38593423 0.23852047 0.14741376
0 0.074906014 0.013401191 -0.38593423 0.23852047 0.14741376
0 0.073654495 0.013188137 -0.38593423 0.23852047 0.14741376
0 0.072399929 0.01297457 -0.38593423 0.23852047 0.14741376
0 0.071142301 0.012760485 -0.38593423 0.23852047 0.14741376
0 0.069881588 0.012545878 -0.38593423 0.23852047 0.14741376
0 0.068617746 0.012330743 -0.38593423 0.23852047 0.14741376
0 0.067350753 0.012115077 -0.38593423 0.23852047 0.14741376
0 0.066080578 0.011898874 -0.38593423 0.23852047 0.14741376
0 0.064807191 0.011682129 -0.38593423 0.23852047 0.14741376
0 0.063530572 0.011464835 -0.38593423 0.23852047 0.14741376
0 0.062250681 0.01124699 -0.38593423 0.23852047 0.14741376
0 0.06096749 0.011028588 -0.38593423 0.23852047 0.14741376
0 0.059680969 0.010809622 -0.38593423 0.23852047 0.14741376
0 0.058391087 0.010590089 -0.38593423 0.23852047 0.14741376
0 0.057097815 0.010369984 -0.38593423 0.23852047 0.14741376
0 0.055801116 0.010149299 -0.38593423 0.23852047 0.14741376
0 0.054500967 0.0099280309 -0.38593423 0.23852047 0.14741376
0 0.053197332 0.009706174 -0.38593423 0.23852047 0.14741376
0 0.051890176 0.009483723 -0.38593423 0.23852047 0.14741376
0 0.050579473 0.0092606721 -0.38593423 0.23852047 0.14741376
0 0.049265187 0.009037015 -0.38593423 0.23852047 0.14741376
0 0.047947284 0.0088127479 -0.38593423 0.23852047 0.14741376
0 0.046625733 0.0085878633 -0.38593423 0.23852047 0.14741376
0 0.045300502 0.0083623566 -0.38593423 0.23852047 0.14741376
0 0.043971553 0.0081362221 -0.38593423 0.23852047 0.14741376
0 0.042638857 0.0079094544 -0.38593423 0.23852047 0.14741376
0 0.041302375 0.0076820464 -0.38593423 0.23852047 0.14741376
0 0.039962076 0.0074539934 -0.38593423 0.23852047 0.14741376
0 0.038617924 0.007225289 -0.38593423 0.23852047 0.14741376
0 0.037269883 0.0069959275 -0.38593423 0.23852047 0.14741376
0.018565468 0.026171669 0 -0.38593423 0.23852047 0.14741376
5.5511151e-17 0.034561995 0.0065352088 -0.38593423 0.23852047 0.14741376
0 0.033202078 0.0063038394 -0.38593423 0.23852047 0.14741376
0 0.031838126 0.0060717883 -0.38593423 0.23852047 0.14741376
0 0.030470109 0.0058390489 -0.38593423 0.23852047 0.14741376
0 0.029097985 0.0056056161 -0.38593423 0.23852047 0.14741376
5.5511151e-17 0.027721718 0.0053714826 -0.38593423 0.23852047 0.14741376
0 0.026341271 0.0051366421 -0.38593423 0.23852047 0.14741376
0 0.024956604 0.0049010883 -0.38593423 0.23852047 0.14741376
0 0.02356768 0.0046648146 -0.38593423 0.23852047 0.14741376
5.5511151e-17 0.022174461 0.0044278149 -0.38593423 0.23852047 0.14741376
0 0.020776905 0.0041900817 -0.38593423 0.23852047 0.14741376
0 0.019374976 0.0039516087 -0.38593423 0.23852047 0.14741376
0.0099702468 0.012270884 0 -0.38593423 0.23852047 0.14741376
0 0.016557835 0.0034724169 -0.38593423 0.23852047 0.14741376
0.0086502945 0.010135768 0 -0.38593423 0.23852047 0.14741376
0 0.01372271 0.0029901841 -0.38593423 0.23852047 0.14741376
0 0.012298303 0.0027479099 -0.38593423 0.23852047 0.14741376
0 0.010869276 0.0025048545 -0.38593423 0.23852047 0.14741376
0 0.0094355866 0.0022610105 -0.38593423 0.23852047 0.14741376
5.5511151e-17 0.0079971934 0.0020163709 -0.38593423 0.23852047 0.14741376
0 0.0065540527 0.0017709284 -0.38593423 0.23852047 0.14741376
0 0.0051061218 0.0015246756 -0.38593423 0.23852047 0.14741376
0 0.0036533563 0.0012776051 -0.38593423 0.23852047 0.14741376
0.0027147769 0.00053333282 0 -0.38593423 0.23852047 0.14741376
0 0.00073314423 0.00078098068 -0.38593423 0.23852047 0.14741376
0.039188422 0.079999998 0.0021785283 -0.38593423 0.23852047 0.14741376
0.035651065 0.079999998 0.003160984 -0.38593423 0.23852047 0.14741376
0.032164618 0.079999998 0.0041292957 -0.38593423 0.23852047 0.14741376
0.028727945 0.079999998 0.0050837798 -0.38593423 0.23852047 0.14741376
