# .PCD v0.7 - Point Cloud Data file format
VERSION 0.7
FIELDS x y z vp_x vp_y vp_z
SIZE 4 4 4 4 4 4
TYPE F F F F F F
COUNT 1 1 1 1 1 1
WIDTH 1039
HEIGHT 1
VIEWPOINT 0 0 0 1 0 0 0
POINTS 1039
DATA ascii
0.014942378 0.040664516 0.043406799 -0.47704095 0 0
0.011371528 0.078012437 0.042185094 -0.47704095 0 0
0.0083457585 0.076226525 0.041906372 -0.47704095 0 0
0.0063990853 0.074624486 0.041721292 -0.47704095 0 0
0.004929991 0.073106371 0.04157785 -0.47704095 0 0
0.0037656119 0.071642555 0.04146108 -0.47704095 0 0
0.0028129485 0.070216954 0.041362938 -0.47704095 0 0
0.0020768589 0.068828546 0.041283812 -0.47704095 0 0
0.0014765101 0.067464173 0.041216724 -0.47704095 0 0
0.00097231945 0.066117242 0.041158244 -0.47704095 0 0
0.0006044805 0.064792432 0.041111827 -0.47704095 0 0
0.00033381121 0.063483402 0.041074082 -0.47704095 0 0
0.00012081779 0.062184215 0.041041609 -0.47704095 0 0
4.9070877e-05 0.060905065 0.041021582 -0.47704095 0 0
1.9926729e-05 0.059632469 0.041005511 -0.47704095 0 0
8.822466e-05 0.058372781 0.040998105 -0.47704095 0 0
0.00023441795 0.057122864 0.040997677 -0.47704095 0 0
0.00043822569 0.055879705 0.041002478 -0.47704095 0 0
0.00075938419 0.054649666 0.041017629 -0.47704095 0 0
0.0011228755 0.053423412 0.041036688 -0.47704095 0 0
0.001606688 0.052209094 0.041066337 -0.47704095 0 0
0.0021671737 0.051001102 0.04110283 -0.47704095 0 0
0.0028045806 0.049798828 0.041146178 -0.47704095 0 0
0.0035948295 0.048609328 0.041202888 -0.47704095 0 0
0.0044782148 0.047425497 0.041267831 -0.47704095 0 0
0.0054777274 0.046248782 0.041342974 -0.47704095 0 0
0.0067022014 0.045088392 0.041437633 -0.47704095 0 0
0.0081263836 0.043940246 0.04154963 -0.47704095 0 0
0.0098335529 0.042810071 0.041686092 -0.47704095 0 0
0.011974714 0.041708495 0.041859925 -0.47704095 0 0
0.014942378 0.040664516 0.042104702 -0.47704095 0 0
0 0.078759775 0.039963242 -0.47704095 0 0
0 0.077477396 0.039946113 -0.47704095 0 0
5.5511151e-17 0.076196104 0.039929274 -0.47704095 0 0
0.0010431748 0.075079709 0.039999999 -0.47704095 0 0
0 0.073636718 0.039896455 -0.47704095 0 0
0 0.072358578 0.039880473 -0.47704095 0 0
0 0.07108146 0.039864779 -0.47704095 0 0
0 0.069805339 0.039849371 -0.47704095 0 0
0.001984979 0.068815351 0.039999999 -0.47704095 0 0
5.5511151e-17 0.067256004 0.039819408 -0.47704095 0 0
5.5511151e-17 0.065982759 0.039804853 -0.47704095 0 0
0 0.064710431 0.039790582 -0.47704095 0 0
0.038094658 0.068505004 0.042952996 -0.47704095 0 0
0 0.062168472 0.039762884 -0.47704095 0 0
0 0.060898799 0.039749458 -0.47704095 0 0
0 0.059629977 0.039736316 -0.47704095 0 0
0 0.058361985 0.039723452 -0.47704095 0 0
5.5511151e-17 0.057094805 0.039710868 -0.47704095 0 0
5.5511151e-17 0.055828419 0.039698564 -0.47704095 0 0
0 0.054562811 0.039686542 -0.47704095 0 0
0 0.053297956 0.039674796 -0.47704095 0 0
0 0.052033845 0.039663333 -0.47704095 0 0
0 0.050770454 0.039652146 -0.47704095 0 0
0 0.049507767 0.039641235 -0.47704095 0 0
0 0.048245765 0.039630603 -0.47704095 0 0
5.5511151e-17 0.04698443 0.03962025 -0.47704095 0 0
0 0.045723747 0.03961017 -0.47704095 0 0
5.5511151e-17 0.044463698 0.039600369 -0.47704095 0 0
5.5511151e-17 0.043204263 0.039590847 -0.47704095 0 0
5.5511151e-17 0.041945424 0.039581597 -0.47704095 0 0
0 0.040687162 0.039572623 -0.47704095 0 0
0 0.039429467 0.039563924 -0.47704095 0 0
5.5511151e-17 0.038172312 0.039555501 -0.47704095 0 0
0 0.036915686 0.03954735 -0.47704095 0 0
0 0.03565957 0.039539475 -0.47704095 0 0
5.5511151e-17 0.034403943 0.039531875 -0.47704095 0 0
0 0.033148792 0.039524548 -0.47704095 0 0
0.0058246288 0.032283522 0.039999999 -0.47704095 0 0
0 0.03063984 0.039510712 -0.47704095 0 0
5.5511151e-17 0.029386006 0.039504208 -0.47704095 0 0
0.0060632876 0.028490147 0.039999999 -0.47704095 0 0
0 0.026879532 0.039492011 -0.47704095 0 0
0 0.025626859 0.039486319 -0.47704095 0 0
0 0.024374539 0.039480902 -0.47704095 0 0
0 0.023122553 0.039475758 -0.47704095 0 0
0 0.021870883 0.039470885 -0.47704095 0 0
5.5511151e-17 0.020619515 0.039466284 -0.47704095 0 0
0 0.019368431 0.039461952 -0.47704095 0 0
0 0.018117612 0.039457895 -0.47704095 0 0
0 0.016867042 0.039454106 -0.47704095 0 0
0 0.015616703 0.03945059 -0.47704095 0 0
5.5511151e-17 0.014366579 0.039447345 -0.47704095 0 0
0 0.013116651 0.039444368 -0.47704095 0 0
0.0067529674 0.012034891 0.039999999 -0.47704095 0 0
0 0.010617319 0.039439231 -0.47704095 0 0
0.0068093496 0.0095015988 0.039999999 -0.47704095 0 0
0 0.0081185699 0.039435178 -0.47704095 0 0
0.0068524671 0.0069680465 0.039999999 -0.47704095 0 0
0 0.0056202663 0.039432202 -0.47704095 0 0
0.0068823188 0.0044343024 0.039999999 -0.47704095 0 0
0.006892269 0.0031673806 0.039999999 -0.47704095 0 0
0.0068989028 0.0019004371 0.039999999 -0.47704095 0 0
0.0069022197 0.00063348049 0.039999999 -0.47704095 0 0
0 0.078759775 0.038689069 -0.47704095 0 0
5.5511151e-17 0.077477396 0.038672488 -0.47704095 0 0
0.022598969 0.079805762 0.040487453 -0.47704095 0 0
0.026107661 0.079015903 0.04075487 -0.47704095 0 0
0 0.073636718 0.03862441 -0.47704095 0 0
0 0.072358578 0.038608942 -0.47704095 0 0
0.032125413 0.075868309 0.04119277 -0.47704095 0 0
0 0.069805339 0.038578831 -0.47704095 0 0
0 0.068530194 0.03856419 -0.47704095 0 0
5.5511151e-17 0.067256004 0.038549822 -0.47704095 0 0
0 0.065982759 0.038535733 -0.47704095 0 0
0.037415583 0.069785841 0.04154329 -0.47704095 0 0
0 0.063439012 0.038508371 -0.47704095 0 0
0.038627774 0.067202486 0.041612189 -0.47704095 0 0
0 0.060898799 0.038482103 -0.47704095 0 0
0 0.059629977 0.038469378 -0.47704095 0 0
0 0.058361985 0.038456924 -0.47704095 0 0
0 0.057094805 0.038444743 -0.47704095 0 0
0 0.055828419 0.038432833 -0.47704095 0 0
0 0.054562811 0.038421191 -0.47704095 0 0
0 0.053297956 0.038409822 -0.47704095 0 0
0 0.052033845 0.038398724 -0.47704095 0 0
0.039325621 0.054955795 0.041552458 -0.47704095 0 0
0 0.049507767 0.03837733 -0.47704095 0 0
0 0.048245765 0.038367037 -0.47704095 0 0
5.5511151e-17 0.04698443 0.038357012 -0.47704095 0 0
0 0.045723747 0.038347255 -0.47704095 0 0
0.035843842 0.047804605 0.041218385 -0.47704095 0 0
0 0.043204263 0.038328547 -0.47704095 0 0
5.5511151e-17 0.041945424 0.038319591 -0.47704095 0 0
0 0.040687162 0.038310904 -0.47704095 0 0
5.5511151e-17 0.039429467 0.038302485 -0.47704095 0 0
5.5511151e-17 0.038172312 0.038294327 -0.47704095 0 0
0 0.036915686 0.03828644 -0.47704095 0 0
0 0.03565957 0.038278814 -0.47704095 0 0
5.5511151e-17 0.034403943 0.038271457 -0.47704095 0 0
0.021638138 0.03465239 0.039999999 -0.47704095 0 0
0 0.031894095 0.038257536 -0.47704095 0 0
0 0.03063984 0.038250972 -0.47704095 0 0
0 0.029386006 0.038244668 -0.47704095 0 0
0.021973668 0.029428432 0.039999999 -0.47704095 0 0
5.5511151e-17 0.026879532 0.038232863 -0.47704095 0 0
0.022120913 0.026815206 0.039999999 -0.47704095 0 0
5.5511151e-17 0.024374539 0.038222112 -0.47704095 0 0
0 0.023122553 0.038217127 -0.47704095 0 0
0 0.021870883 0.038212411 -0.47704095 0 0
5.5511151e-17 0.020619515 0.038207956 -0.47704095 0 0
0.02242915 0.020279082 0.039999999 -0.47704095 0 0
5.5511151e-17 0.018117612 0.038199835 -0.47704095 0 0
0.022528483 0.017663596 0.039999999 -0.47704095 0 0
0 0.015616703 0.038192764 -0.47704095 0 0
0 0.014366579 0.03818962 -0.47704095 0 0
0 0.013116651 0.03818674 -0.47704095 0 0
0 0.011866904 0.038184121 -0.47704095 0 0
0.022716893 0.011122921 0.039999999 -0.47704095 0 0
0 0.0093678804 0.038179673 -0.47704095 0 0
0 0.0081185699 0.03817784 -0.47704095 0 0
0 0.006869371 0.038176272 -0.47704095 0 0
5.5511151e-17 0.0056202663 0.038174964 -0.47704095 0 0
0 0.0043712384 0.038173918 -0.47704095 0 0
0 0.0031222701 0.038173132 -0.47704095 0 0
0 0.001873345 0.038172606 -0.47704095 0 0
0.022840228 0.00065434328 0.039999999 -0.47704095 0 0
5.5511151e-17 0.078759775 0.037415434 -0.47704095 0 0
5.5511151e-17 0.077477396 0.037399396 -0.47704095 0 0
0 0.076196104 0.037383627 -0.47704095 0 0
0 0.074915886 0.03736813 -0.47704095 0 0
5.5511151e-17 0.073636718 0.037352901 -0.47704095 0 0
0 0.072358578 0.03733794 -0.47704095 0 0
5.5511151e-17 0.07108146 0.037323248 -0.47704095 0 0
0 0.069805339 0.03730882 -0.47704095 0 0
5.5511151e-17 0.068530194 0.037294663 -0.47704095 0 0
0 0.067256004 0.037280768 -0.47704095 0 0
0 0.065982759 0.037267141 -0.47704095 0 0
0 0.064710431 0.037253778 -0.47704095 0 0
0.038094658 0.068505004 0.04021458 -0.47704095 0 0
0 0.062168472 0.037227847 -0.47704095 0 0
0 0.060898799 0.037215278 -0.47704095 0 0
5.5511151e-17 0.059629977 0.037202973 -0.47704095 0 0
0.039709371 0.063220099 0.040286738 -0.47704095 0 0
0 0.057094805 0.03717915 -0.47704095 0 0
0 0.055828419 0.037167631 -0.47704095 0 0
0.039952986 0.059132539 0.040268283 -0.47704095 0 0
0.039868824 0.057752348 0.040249813 -0.47704095 0 0
5.5511151e-17 0.052033845 0.037134644 -0.47704095 0 0
0 0.050770454 0.037124168 -0.47704095 0 0
0.038926646 0.05354761 0.040142462 -0.47704095 0 0
0 0.048245765 0.037103999 -0.47704095 0 0
5.5511151e-17 0.04698443 0.037094306 -0.47704095 0 0
5.5511151e-17 0.045723747 0.03708487 -0.47704095 0 0
0 0.044463698 0.037075695 -0.47704095 0 0
0 0.043204263 0.037066776 -0.47704095 0 0
0 0.041945424 0.037058119 -0.47704095 0 0
0 0.040687162 0.037049714 -0.47704095 0 0
0 0.039429467 0.037041571 -0.47704095 0 0
0 0.038172312 0.037033685 -0.47704095 0 0
5.5511151e-17 0.036915686 0.037026055 -0.47704095 0 0
5.5511151e-17 0.03565957 0.037018683 -0.47704095 0 0
0 0.034403943 0.037011568 -0.47704095 0 0
0 0.033148792 0.037004706 -0.47704095 0 0
0 0.031894095 0.036998101 -0.47704095 0 0
0 0.03063984 0.036991753 -0.47704095 0 0
0 0.029386006 0.036985662 -0.47704095 0 0
0 0.028132576 0.036979824 -0.47704095 0 0
0 0.026879532 0.036974244 -0.47704095 0 0
0.039112605 0.027728006 0.039999999 -0.47704095 0 0
0.03918343 0.026376627 0.039999999 -0.47704095 0 0
0 0.023122553 0.036959026 -0.47704095 0 0
0.03931446 0.023673333 0.039999999 -0.47704095 0 0
0 0.020619515 0.036950156 -0.47704095 0 0
0 0.019368431 0.036946103 -0.47704095 0 0
0 0.018117612 0.036942303 -0.47704095 0 0
0 0.016867042 0.036938757 -0.47704095 0 0
0.039580096 0.016912421 0.039999999 -0.47704095 0 0
0 0.014366579 0.036932424 -0.47704095 0 0
0 0.013116651 0.036929641 -0.47704095 0 0
5.5511151e-17 0.011866904 0.036927108 -0.47704095 0 0
0 0.010617319 0.036924828 -0.47704095 0 0
0 0.0093678804 0.036922805 -0.47704095 0 0
0 0.0081185699 0.036921032 -0.47704095 0 0
0.039803267 0.0074425368 0.039999999 -0.47704095 0 0
0 0.0056202663 0.036918249 -0.47704095 0 0
0 0.0043712384 0.036917236 -0.47704095 0 0
0 0.0031222701 0.036916479 -0.47704095 0 0
5.5511151e-17 0.001873345 0.036915973 -0.47704095 0 0
0.039856408 0.00067661743 0.039999999 -0.47704095 0 0
5.5511151e-17 0.078759775 0.036142312 -0.47704095 0 0
0.015532074 0.079999998 0.037303079 -0.47704095 0 0
0 0.076196104 0.03611159 -0.47704095 0 0
0 0.074915886 0.036096618 -0.47704095 0 0
0 0.073636718 0.036081906 -0.47704095 0 0
5.5511151e-17 0.072358578 0.036067456 -0.47704095 0 0
0 0.07108146 0.036053263 -0.47704095 0 0
0 0.069805339 0.036039326 -0.47704095 0 0
0 0.068530194 0.036025651 -0.47704095 0 0
5.5511151e-17 0.067256004 0.036012229 -0.47704095 0 0
0 0.064710431 0.035986155 -0.47704095 0 0
0 0.062168472 0.03596111 -0.47704095 0 0
5.5511151e-17 0.060898799 0.035948966 -0.47704095 0 0
0 0.059629977 0.035937078 -0.47704095 0 0
0 0.057094805 0.035914067 -0.47704095 0 0
5.5511151e-17 0.055828419 0.03590294 -0.47704095 0 0
5.5511151e-17 0.054562811 0.035892066 -0.47704095 0 0
5.5511151e-17 0.053297956 0.035881445 -0.47704095 0 0
0 0.052033845 0.035871074 -0.47704095 0 0
5.5511151e-17 0.050770454 0.035860956 -0.47704095 0 0
5.5511151e-17 0.048245765 0.035841476 -0.47704095 0 0
5.5511151e-17 0.04698443 0.035832111 -0.47704095 0 0
0 0.045723747 0.035822999 -0.47704095 0 0
5.5511151e-17 0.044463698 0.035814133 -0.47704095 0 0
5.5511151e-17 0.043204263 0.03580552 -0.47704095 0 0
0 0.041945424 0.035797153 -0.47704095 0 0
0 0.040687162 0.035789039 -0.47704095 0 0
0 0.039429467 0.035781171 -0.47704095 0 0
0 0.038172312 0.035773553 -0.47704095 0 0
0 0.03565957 0.035759062 -0.47704095 0 0
5.5511151e-17 0.031894095 0.03573918 -0.47704095 0 0
0 0.03063984 0.035733048 -0.47704095 0 0
5.5511151e-17 0.029386006 0.035727162 -0.47704095 0 0
5.5511151e-17 0.028132576 0.035721526 -0.47704095 0 0
0 0.026879532 0.035716131 -0.47704095 0 0
5.5511151e-17 0.025626859 0.035710987 -0.47704095 0 0
0 0.024374539 0.035706088 -0.47704095 0 0
5.5511151e-17 0.023122553 0.035701435 -0.47704095 0 0
0 0.021870883 0.035697028 -0.47704095 0 0
0 0.019368431 0.035688948 -0.47704095 0 0
5.5511151e-17 0.018117612 0.035685278 -0.47704095 0 0
0 0.016867042 0.035681851 -0.47704095 0 0
5.5511151e-17 0.015616703 0.035678674 -0.47704095 0 0
5.5511151e-17 0.014366579 0.035675738 -0.47704095 0 0
5.5511151e-17 0.013116651 0.035673048 -0.47704095 0 0
0 0.010617319 0.035668399 -0.47704095 0 0
0 0.0093678804 0.035666443 -0.47704095 0 0
5.5511151e-17 0.0081185699 0.035664733 -0.47704095 0 0
5.5511151e-17 0.006869371 0.035663266 -0.47704095 0 0
0 0.0056202663 0.035662044 -0.47704095 0 0
5.5511151e-17 0.0031222701 0.035660334 -0.47704095 0 0
0 0.001873345 0.035659846 -0.47704095 0 0
0 0.0006244455 0.0356596 -0.47704095 0 0
0.0075119087 0.079999998 0.035418775 -0.47704095 0 0
0 0.077477396 0.03485474 -0.47704095 0 0
5.5511151e-17 0.076196104 0.034840047 -0.47704095 0 0
0.03237405 0.079999998 0.037189018 -0.47704095 0 0
5.5511151e-17 0.073636718 0.034811411 -0.47704095 0 0
5.5511151e-17 0.072358578 0.034797467 -0.47704095 0 0
0 0.07108146 0.034783773 -0.47704095 0 0
0 0.068530194 0.034757134 -0.47704095 0 0
0 0.067256004 0.034744184 -0.47704095 0 0
0 0.063439012 0.034706824 -0.47704095 0 0
0 0.060898799 0.034683149 -0.47704095 0 0
5.5511151e-17 0.059629977 0.034671683 -0.47704095 0 0
5.5511151e-17 0.058361985 0.034660459 -0.47704095 0 0
0 0.057094805 0.03464948 -0.47704095 0 0
5.5511151e-17 0.055828419 0.034638744 -0.47704095 0 0
0 0.054562811 0.034628253 -0.47704095 0 0
0 0.053297956 0.034618005 -0.47704095 0 0
0 0.052033845 0.034608003 -0.47704095 0 0
0 0.050770454 0.034598239 -0.47704095 0 0
0 0.048245765 0.034579445 -0.47704095 0 0
5.5511151e-17 0.044463698 0.034553066 -0.47704095 0 0
0 0.041945424 0.034536682 -0.47704095 0 0
0 0.040687162 0.034528852 -0.47704095 0 0
5.5511151e-17 0.039429467 0.034521263 -0.47704095 0 0
5.5511151e-17 0.038172312 0.034513913 -0.47704095 0 0
0 0.036915686 0.034506802 -0.47704095 0 0
5.5511151e-17 0.034403943 0.034493297 -0.47704095 0 0
5.5511151e-17 0.033148792 0.034486905 -0.47704095 0 0
0 0.031894095 0.034480751 -0.47704095 0 0
5.5511151e-17 0.03063984 0.034474835 -0.47704095 0 0
0 0.029386006 0.034469157 -0.47704095 0 0
5.5511151e-17 0.024374539 0.034448825 -0.47704095 0 0
0 0.023122553 0.034444336 -0.47704095 0 0
5.5511151e-17 0.018117612 0.034428746 -0.47704095 0 0
0 0.016867042 0.034425441 -0.47704095 0 0
5.5511151e-17 0.015616703 0.034422375 -0.47704095 0 0
0 0.014366579 0.03441954 -0.47704095 0 0
0 0.011866904 0.034414586 -0.47704095 0 0
5.5511151e-17 0.010617319 0.034412462 -0.47704095 0 0
0 0.0093678804 0.034410577 -0.47704095 0 0
0 0.0081185699 0.034408927 -0.47704095 0 0
0 0.006869371 0.034407511 -0.47704095 0 0
5.5511151e-17 0.0043712384 0.034405388 -0.47704095 0 0
0 0.0031222701 0.03440468 -0.47704095 0 0
5.5511151e-17 0.001873345 0.034404211 -0.47704095 0 0
5.5511151e-17 0.078759775 0.033597544 -0.47704095 0 0
0 0.077477396 0.033583142 -0.47704095 0 0
0.023815038 0.079999998 0.03524483 -0.47704095 0 0
0.03237405 0.079999998 0.03583226 -0.47704095 0 0
0 0.073636718 0.033541393 -0.47704095 0 0
0 0.072358578 0.033527959 -0.47704095 0 0
5.5511151e-17 0.07108146 0.033514764 -0.47704095 0 0
0 0.069805339 0.033501811 -0.47704095 0 0
0 0.068530194 0.033489097 -0.47704095 0 0
0 0.067256004 0.033476621 -0.47704095 0 0
5.5511151e-17 0.065982759 0.033464383 -0.47704095 0 0
0 0.064710431 0.033452384 -0.47704095 0 0
0 0.063439012 0.033440623 -0.47704095 0 0
0 0.060898799 0.033417813 -0.47704095 0 0
0 0.058361985 0.033395946 -0.47704095 0 0
5.5511151e-17 0.057094805 0.03338537 -0.47704095 0 0
0 0.055828419 0.033375025 -0.47704095 0 0
5.5511151e-17 0.053297956 0.033355042 -0.47704095 0 0
0 0.052033845 0.033345405 -0.47704095 0 0
0 0.050770454 0.033335999 -0.47704095 0 0
0 0.049507767 0.033326827 -0.47704095 0 0
5.5511151e-17 0.048245765 0.03331789 -0.47704095 0 0
0 0.04698443 0.033309184 -0.47704095 0 0
5.5511151e-17 0.044463698 0.033292472 -0.47704095 0 0
5.5511151e-17 0.043204263 0.033284463 -0.47704095 0 0
0 0.041945424 0.033276688 -0.47704095 0 0
0 0.040687162 0.033269145 -0.47704095 0 0
0 0.039429467 0.033261832 -0.47704095 0 0
0 0.036915686 0.033247899 -0.47704095 0 0
0 0.034403943 0.033234887 -0.47704095 0 0
0 0.033148792 0.033228729 -0.47704095 0 0
0 0.03063984 0.033217099 -0.47704095 0 0
0 0.029386006 0.033211626 -0.47704095 0 0
5.5511151e-17 0.028132576 0.033206385 -0.47704095 0 0
0 0.026879532 0.033201374 -0.47704095 0 0
0 0.025626859 0.033196591 -0.47704095 0 0
5.5511151e-17 0.024374539 0.033192035 -0.47704095 0 0
0 0.023122553 0.03318771 -0.47704095 0 0
0 0.021870883 0.033183612 -0.47704095 0 0
0 0.020619515 0.033179745 -0.47704095 0 0
0 0.019368431 0.033176102 -0.47704095 0 0
0 0.018117612 0.033172689 -0.47704095 0 0
0 0.016867042 0.033169508 -0.47704095 0 0
0 0.014366579 0.033163819 -0.47704095 0 0
0 0.011866904 0.033159047 -0.47704095 0 0
5.5511151e-17 0.010617319 0.033157002 -0.47704095 0 0
0 0.0081185699 0.033153594 -0.47704095 0 0
0 0.006869371 0.03315223 -0.47704095 0 0
5.5511151e-17 0.0056202663 0.033151094 -0.47704095 0 0
0 0.0043712384 0.033150185 -0.47704095 0 0
5.5511151e-17 0.001873345 0.033149049 -0.47704095 0 0
0 0.0006244455 0.033148821 -0.47704095 0 0
0 0.078759775 0.032325864 -0.47704095 0 0
0 0.077477396 0.032312006 -0.47704095 0 0
5.5511151e-17 0.076196104 0.032298386 -0.47704095 0 0
0 0.074915886 0.032284994 -0.47704095 0 0
0 0.073636718 0.032271836 -0.47704095 0 0
0 0.072358578 0.032258913 -0.47704095 0 0
5.5511151e-17 0.07108146 0.032246217 -0.47704095 0 0
0 0.068530194 0.032221518 -0.47704095 0 0
5.5511151e-17 0.067256004 0.032209516 -0.47704095 0 0
5.5511151e-17 0.065982759 0.032197744 -0.47704095 0 0
0 0.064710431 0.032186199 -0.47704095 0 0
5.5511151e-17 0.063439012 0.032174882 -0.47704095 0 0
0 0.062168472 0.032163795 -0.47704095 0 0
5.5511151e-17 0.059629977 0.032142304 -0.47704095 0 0
0 0.058361985 0.032131899 -0.47704095 0 0
5.5511151e-17 0.057094805 0.032121718 -0.47704095 0 0
0 0.055828419 0.032111768 -0.47704095 0 0
0 0.054562811 0.032102041 -0.47704095 0 0
0 0.053297956 0.032092541 -0.47704095 0 0
5.5511151e-17 0.052033845 0.032083269 -0.47704095 0 0
0 0.050770454 0.032074217 -0.47704095 0 0
5.5511151e-17 0.048245765 0.032056794 -0.47704095 0 0
0 0.04698443 0.032048419 -0.47704095 0 0
5.5511151e-17 0.044463698 0.032032337 -0.47704095 0 0
0 0.043204263 0.032024633 -0.47704095 0 0
0 0.041945424 0.032017153 -0.47704095 0 0
5.5511151e-17 0.039429467 0.032002859 -0.47704095 0 0
0 0.036915686 0.031989451 -0.47704095 0 0
5.5511151e-17 0.03565957 0.031983081 -0.47704095 0 0
0 0.034403943 0.031976935 -0.47704095 0 0
0 0.033148792 0.031971008 -0.47704095 0 0
0 0.03063984 0.031959817 -0.47704095 0 0
0 0.029386006 0.031954553 -0.47704095 0 0
0 0.026879532 0.031944688 -0.47704095 0 0
0 0.025626859 0.031940084 -0.47704095 0 0
5.5511151e-17 0.024374539 0.031935703 -0.47704095 0 0
0 0.023122553 0.031931542 -0.47704095 0 0
5.5511151e-17 0.021870883 0.031927601 -0.47704095 0 0
5.5511151e-17 0.019368431 0.031920373 -0.47704095 0 0
5.5511151e-17 0.018117612 0.031917091 -0.47704095 0 0
0 0.016867042 0.031914026 -0.47704095 0 0
5.5511151e-17 0.014366579 0.031908557 -0.47704095 0 0
0 0.010617319 0.031901997 -0.47704095 0 0
0 0.0081185699 0.031898715 -0.47704095 0 0
0 0.0056202663 0.031896312 -0.47704095 0 0
5.5511151e-17 0.0043712384 0.031895436 -0.47704095 0 0
0 0.0031222701 0.031894781 -0.47704095 0 0
0 0.001873345 0.031894341 -0.47704095 0 0
0 0.0006244455 0.031894125 -0.47704095 0 0
0 0.078759775 0.031054627 -0.47704095 0 0
0 0.077477396 0.031041317 -0.47704095 0 0
0 0.076196104 0.03102823 -0.47704095 0 0
0 0.074915886 0.031015366 -0.47704095 0 0
0 0.073636718 0.031002726 -0.47704095 0 0
5.5511151e-17 0.072358578 0.030990308 -0.47704095 0 0
0 0.07108146 0.030978113 -0.47704095 0 0
0 0.068530194 0.030954387 -0.47704095 0 0
5.5511151e-17 0.067256004 0.030942855 -0.47704095 0 0
0 0.065982759 0.030931545 -0.47704095 0 0
5.5511151e-17 0.063439012 0.030909583 -0.47704095 0 0
0 0.062168472 0.030898932 -0.47704095 0 0
0 0.060898799 0.0308885 -0.47704095 0 0
5.5511151e-17 0.059629977 0.030878285 -0.47704095 0 0
5.5511151e-17 0.058361985 0.03086829 -0.47704095 0 0
0 0.057094805 0.030858511 -0.47704095 0 0
0 0.055828419 0.030848952 -0.47704095 0 0
5.5511151e-17 0.053297956 0.030830482 -0.47704095 0 0
0 0.052033845 0.030821573 -0.47704095 0 0
0 0.049507767 0.030804401 -0.47704095 0 0
0 0.048245765 0.03079614 -0.47704095 0 0
0 0.04698443 0.030788094 -0.47704095 0 0
0 0.045723747 0.030780263 -0.47704095 0 0
0 0.044463698 0.030772647 -0.47704095 0 0
5.5511151e-17 0.041945424 0.030758057 -0.47704095 0 0
0 0.039429467 0.030744324 -0.47704095 0 0
0 0.038172312 0.030737778 -0.47704095 0 0
0 0.036915686 0.030731445 -0.47704095 0 0
0 0.03565957 0.030725326 -0.47704095 0 0
5.5511151e-17 0.034403943 0.03071942 -0.47704095 0 0
0 0.033148792 0.030713726 -0.47704095 0 0
0 0.031894095 0.030708244 -0.47704095 0 0
0 0.03063984 0.030702977 -0.47704095 0 0
0 0.029386006 0.030697919 -0.47704095 0 0
0 0.028132576 0.030693075 -0.47704095 0 0
5.5511151e-17 0.026879532 0.030688442 -0.47704095 0 0
0 0.024374539 0.030679811 -0.47704095 0 0
5.5511151e-17 0.021870883 0.030672025 -0.47704095 0 0
0 0.020619515 0.030668449 -0.47704095 0 0
0 0.019368431 0.030665085 -0.47704095 0 0
0 0.018117612 0.030661929 -0.47704095 0 0
0 0.015616703 0.030656254 -0.47704095 0 0
0 0.014366579 0.030653732 -0.47704095 0 0
0 0.011866904 0.030649319 -0.47704095 0 0
0 0.010617319 0.030647429 -0.47704095 0 0
0 0.0093678804 0.030645749 -0.47704095 0 0
0 0.0081185699 0.030644277 -0.47704095 0 0
0 0.006869371 0.030643018 -0.47704095 0 0
0 0.0056202663 0.030641967 -0.47704095 0 0
0 0.0043712384 0.030641127 -0.47704095 0 0
0 0.0031222701 0.030640496 -0.47704095 0 0
5.5511151e-17 0.001873345 0.030640077 -0.47704095 0 0
0 0.078759775 0.029783819 -0.47704095 0 0
5.5511151e-17 0.077477396 0.029771052 -0.47704095 0 0
0.023815038 0.079999998 0.031244118 -0.47704095 0 0
0 0.074915886 0.029746165 -0.47704095 0 0
5.5511151e-17 0.072358578 0.029722132 -0.47704095 0 0
0 0.07108146 0.029710436 -0.47704095 0 0
5.5511151e-17 0.069805339 0.029698953 -0.47704095 0 0
0 0.068530194 0.029687682 -0.47704095 0 0
0 0.067256004 0.029676622 -0.47704095 0 0
0 0.065982759 0.029665774 -0.47704095 0 0
0 0.063439012 0.029644711 -0.47704095 0 0
5.5511151e-17 0.060898799 0.02962449 -0.47704095 0 0
5.5511151e-17 0.058361985 0.029605107 -0.47704095 0 0
0 0.057094805 0.029595729 -0.47704095 0 0
0 0.055828419 0.029586559 -0.47704095 0 0
5.5511151e-17 0.053297956 0.029568845 -0.47704095 0 0
5.5511151e-17 0.050770454 0.029551964 -0.47704095 0 0
5.5511151e-17 0.049507767 0.029543834 -0.47704095 0 0
0 0.048245765 0.02953591 -0.47704095 0 0
0 0.045723747 0.029520681 -0.47704095 0 0
0 0.044463698 0.029513378 -0.47704095 0 0
0 0.043204263 0.029506277 -0.47704095 0 0
0 0.041945424 0.029499386 -0.47704095 0 0
0 0.039429467 0.029486215 -0.47704095 0 0
0 0.038172312 0.029479936 -0.47704095 0 0
0 0.036915686 0.029473862 -0.47704095 0 0
5.5511151e-17 0.03565957 0.029467992 -0.47704095 0 0
0 0.034403943 0.029462328 -0.47704095 0 0
0 0.031894095 0.029451611 -0.47704095 0 0
0 0.03063984 0.029446557 -0.47704095 0 0
0 0.029386006 0.029441709 -0.47704095 0 0
0 0.028132576 0.029437061 -0.47704095 0 0
0 0.026879532 0.029432619 -0.47704095 0 0
0 0.024374539 0.029424341 -0.47704095 0 0
0 0.023122553 0.029420506 -0.47704095 0 0
5.5511151e-17 0.021870883 0.029416874 -0.47704095 0 0
0 0.020619515 0.029413445 -0.47704095 0 0
5.5511151e-17 0.019368431 0.029410217 -0.47704095 0 0
5.5511151e-17 0.016867042 0.029404368 -0.47704095 0 0
5.5511151e-17 0.014366579 0.02939933 -0.47704095 0 0
0 0.013116651 0.029397111 -0.47704095 0 0
0 0.011866904 0.029395098 -0.47704095 0 0
5.5511151e-17 0.010617319 0.029393284 -0.47704095 0 0
0 0.0093678804 0.029391672 -0.47704095 0 0
5.5511151e-17 0.0081185699 0.029390261 -0.47704095 0 0
0 0.006869371 0.029389054 -0.47704095 0 0
0 0.0056202663 0.029388046 -0.47704095 0 0
0 0.0043712384 0.029387239 -0.47704095 0 0
0 0.0031222701 0.029386636 -0.47704095 0 0
0 0.001873345 0.029386234 -0.47704095 0 0
0 0.078759775 0.02851342 -0.47704095 0 0
0.015532074 0.079999998 0.029429175 -0.47704095 0 0
0.023815038 0.079999998 0.029911432 -0.47704095 0 0
0 0.074915886 0.028477373 -0.47704095 0 0
5.5511151e-17 0.07108146 0.028443169 -0.47704095 0 0
5.5511151e-17 0.069805339 0.028432174 -0.47704095 0 0
0 0.068530194 0.028421383 -0.47704095 0 0
0 0.067256004 0.028410796 -0.47704095 0 0
0 0.065982759 0.02840041 -0.47704095 0 0
0 0.064710431 0.028390227 -0.47704095 0 0
0 0.063439012 0.028380247 -0.47704095 0 0
0 0.062168472 0.028370466 -0.47704095 0 0
0 0.060898799 0.028360886 -0.47704095 0 0
5.5511151e-17 0.059629977 0.028351508 -0.47704095 0 0
0 0.058361985 0.028342331 -0.47704095 0 0
0 0.057094805 0.028333353 -0.47704095 0 0
5.5511151e-17 0.055828419 0.028324576 -0.47704095 0 0
0 0.054562811 0.028315997 -0.47704095 0 0
0 0.053297956 0.028307617 -0.47704095 0 0
0 0.052033845 0.028299436 -0.47704095 0 0
5.5511151e-17 0.050770454 0.028291455 -0.47704095 0 0
0 0.049507767 0.028283671 -0.47704095 0 0
0 0.048245765 0.028276086 -0.47704095 0 0
0 0.045723747 0.028261507 -0.47704095 0 0
0 0.044463698 0.028254515 -0.47704095 0 0
0 0.040687162 0.028234717 -0.47704095 0 0
5.5511151e-17 0.036915686 0.028216684 -0.47704095 0 0
5.5511151e-17 0.03565957 0.028211066 -0.47704095 0 0
5.5511151e-17 0.033148792 0.028200416 -0.47704095 0 0
0 0.03063984 0.028190544 -0.47704095 0 0
0 0.029386006 0.028185902 -0.47704095 0 0
0 0.026879532 0.0281772 -0.47704095 0 0
0 0.025626859 0.028173141 -0.47704095 0 0
0 0.024374539 0.028169276 -0.47704095 0 0
5.5511151e-17 0.023122553 0.028165605 -0.47704095 0 0
0 0.021870883 0.028162127 -0.47704095 0 0
0 0.019368431 0.028155753 -0.47704095 0 0
5.5511151e-17 0.018117612 0.028152859 -0.47704095 0 0
0 0.016867042 0.028150156 -0.47704095 0 0
0 0.015616703 0.028147647 -0.47704095 0 0
0 0.014366579 0.02814533 -0.47704095 0 0
0 0.011866904 0.028141279 -0.47704095 0 0
0 0.010617319 0.028139543 -0.47704095 0 0
0 0.0093678804 0.028138001 -0.47704095 0 0
5.5511151e-17 0.0081185699 0.02813665 -0.47704095 0 0
5.5511151e-17 0.006869371 0.028135493 -0.47704095 0 0
0 0.0043712384 0.028133757 -0.47704095 0 0
0 0.0006244455 0.028132601 -0.47704095 0 0
5.5511151e-17 0.078759775 0.027243415 -0.47704095 0 0
5.5511151e-17 0.077477396 0.027231738 -0.47704095 0 0
0.023815038 0.079999998 0.028579157 -0.47704095 0 0
5.5511151e-17 0.074915886 0.027208973 -0.47704095 0 0
0 0.073636718 0.027197883 -0.47704095 0 0
0 0.072358578 0.02718699 -0.47704095 0 0
5.5511151e-17 0.07108146 0.027176291 -0.47704095 0 0
0 0.068530194 0.027155478 -0.47704095 0 0
0 0.067256004 0.027145362 -0.47704095 0 0
0 0.065982759 0.027135437 -0.47704095 0 0
0 0.064710431 0.027125709 -0.47704095 0 0
5.5511151e-17 0.063439012 0.027116172 -0.47704095 0 0
5.5511151e-17 0.060898799 0.027097674 -0.47704095 0 0
5.5511151e-17 0.059629977 0.027088715 -0.47704095 0 0
0 0.058361985 0.027079945 -0.47704095 0 0
0 0.057094805 0.027071368 -0.47704095 0 0
0 0.052033845 0.027038962 -0.47704095 0 0
0 0.050770454 0.027031336 -0.47704095 0 0
0 0.049507767 0.027023898 -0.47704095 0 0
0 0.048245765 0.027016651 -0.47704095 0 0
0 0.045723747 0.027002722 -0.47704095 0 0
0 0.043204263 0.026989546 -0.47704095 0 0
0 0.040687162 0.026977124 -0.47704095 0 0
0 0.039429467 0.026971193 -0.47704095 0 0
0 0.038172312 0.02696545 -0.47704095 0 0
5.5511151e-17 0.036915686 0.026959896 -0.47704095 0 0
0 0.03565957 0.026954528 -0.47704095 0 0
0 0.034403943 0.026949346 -0.47704095 0 0
0 0.033148792 0.02694435 -0.47704095 0 0
0 0.031894095 0.026939541 -0.47704095 0 0
5.5511151e-17 0.03063984 0.02693492 -0.47704095 0 0
0 0.029386006 0.026930483 -0.47704095 0 0
0 0.028132576 0.026926234 -0.47704095 0 0
0 0.026879532 0.02692217 -0.47704095 0 0
0 0.025626859 0.02691829 -0.47704095 0 0
5.5511151e-17 0.024374539 0.026914598 -0.47704095 0 0
0 0.023122553 0.026911089 -0.47704095 0 0
0 0.020619515 0.026904631 -0.47704095 0 0
5.5511151e-17 0.016867042 0.02689633 -0.47704095 0 0
5.5511151e-17 0.015616703 0.026893932 -0.47704095 0 0
5.5511151e-17 0.014366579 0.02689172 -0.47704095 0 0
0 0.013116651 0.026889691 -0.47704095 0 0
0 0.0093678804 0.026884716 -0.47704095 0 0
0 0.0081185699 0.026883425 -0.47704095 0 0
0 0.006869371 0.026882319 -0.47704095 0 0
0 0.0043712384 0.026880661 -0.47704095 0 0
5.5511151e-17 0.0031222701 0.026880108 -0.47704095 0 0
0 0.001873345 0.026879741 -0.47704095 0 0
5.5511151e-17 0.078759775 0.025973782 -0.47704095 0 0
0 0.077477396 0.025962649 -0.47704095 0 0
0.023815038 0.079999998 0.027247276 -0.47704095 0 0
0 0.074915886 0.025940945 -0.47704095 0 0
0 0.073636718 0.025930373 -0.47704095 0 0
0 0.072358578 0.025919987 -0.47704095 0 0
0 0.07108146 0.025909787 -0.47704095 0 0
0 0.068530194 0.025889944 -0.47704095 0 0
0 0.067256004 0.0258803 -0.47704095 0 0
5.5511151e-17 0.065982759 0.025870839 -0.47704095 0 0
0 0.064710431 0.025861563 -0.47704095 0 0
5.5511151e-17 0.063439012 0.02585247 -0.47704095 0 0
5.5511151e-17 0.062168472 0.025843561 -0.47704095 0 0
0 0.060898799 0.025834836 -0.47704095 0 0
0 0.059629977 0.025826292 -0.47704095 0 0
0 0.058361985 0.025817933 -0.47704095 0 0
0 0.057094805 0.025809754 -0.47704095 0 0
0 0.054562811 0.025793944 -0.47704095 0 0
0 0.053297956 0.02578631 -0.47704095 0 0
5.5511151e-17 0.052033845 0.025778858 -0.47704095 0 0
0 0.050770454 0.025771588 -0.47704095 0 0
0 0.049507767 0.025764497 -0.47704095 0 0
5.5511151e-17 0.048245765 0.025757587 -0.47704095 0 0
5.5511151e-17 0.04698443 0.025750857 -0.47704095 0 0
0 0.045723747 0.025744308 -0.47704095 0 0
0 0.044463698 0.025737938 -0.47704095 0 0
0 0.043204263 0.025731746 -0.47704095 0 0
0 0.041945424 0.025725735 -0.47704095 0 0
0 0.040687162 0.025719902 -0.47704095 0 0
0 0.039429467 0.025714248 -0.47704095 0 0
5.5511151e-17 0.03565957 0.025698358 -0.47704095 0 0
0 0.033148792 0.025688656 -0.47704095 0 0
0 0.031894095 0.025684072 -0.47704095 0 0
0 0.028132576 0.025671383 -0.47704095 0 0
0 0.026879532 0.025667509 -0.47704095 0 0
5.5511151e-17 0.025626859 0.025663812 -0.47704095 0 0
0 0.023122553 0.025656946 -0.47704095 0 0
0 0.021870883 0.025653778 -0.47704095 0 0
5.5511151e-17 0.020619515 0.025650788 -0.47704095 0 0
0 0.018117612 0.025645334 -0.47704095 0 0
0 0.015616703 0.025640588 -0.47704095 0 0
5.5511151e-17 0.014366579 0.025638478 -0.47704095 0 0
0 0.013116651 0.025636544 -0.47704095 0 0
0 0.010617319 0.025633207 -0.47704095 0 0
0 0.0093678804 0.0256318 -0.47704095 0 0
0 0.0081185699 0.025630571 -0.47704095 0 0
0 0.0056202663 0.025628638 -0.47704095 0 0
5.5511151e-17 0.0031222701 0.025627408 -0.47704095 0 0
0 0.001873345 0.025627058 -0.47704095 0 0
0 0.0006244455 0.025626881 -0.47704095 0 0
5.5511151e-17 0.078759775 0.024704508 -0.47704095 0 0
0 0.077477396 0.024693919 -0.47704095 0 0
0 0.076196104 0.024683509 -0.47704095 0 0
0 0.074915886 0.024673276 -0.47704095 0 0
0 0.072358578 0.024653342 -0.47704095 0 0
0 0.07108146 0.024643641 -0.47704095 0 0
0 0.069805339 0.024634115 -0.47704095 0 0
0 0.068530194 0.024624767 -0.47704095 0 0
0 0.067256004 0.024615593 -0.47704095 0 0
0 0.065982759 0.024606595 -0.47704095 0 0
5.5511151e-17 0.062168472 0.02458065 -0.47704095 0 0
0 0.059629977 0.024564225 -0.47704095 0 0
0 0.058361985 0.024556274 -0.47704095 0 0
5.5511151e-17 0.057094805 0.024548495 -0.47704095 0 0
5.5511151e-17 0.055828419 0.02454089 -0.47704095 0 0
0 0.053297956 0.024526197 -0.47704095 0 0
0 0.050770454 0.024512194 -0.47704095 0 0
0 0.049507767 0.024505449 -0.47704095 0 0
0 0.048245765 0.024498878 -0.47704095 0 0
0 0.04698443 0.024492476 -0.47704095 0 0
0 0.045723747 0.024486246 -0.47704095 0 0
0 0.044463698 0.024480188 -0.47704095 0 0
0 0.043204263 0.024474299 -0.47704095 0 0
0 0.040687162 0.024463033 -0.47704095 0 0
0 0.039429467 0.024457656 -0.47704095 0 0
5.5511151e-17 0.038172312 0.02445245 -0.47704095 0 0
5.5511151e-17 0.036915686 0.024447411 -0.47704095 0 0
5.5511151e-17 0.034403943 0.024437845 -0.47704095 0 0
5.5511151e-17 0.033148792 0.024433315 -0.47704095 0 0
5.5511151e-17 0.031894095 0.024428954 -0.47704095 0 0
0 0.03063984 0.024424763 -0.47704095 0 0
0 0.029386006 0.02442074 -0.47704095 0 0
0 0.028132576 0.024416886 -0.47704095 0 0
0 0.025626859 0.024409683 -0.47704095 0 0
5.5511151e-17 0.023122553 0.024403155 -0.47704095 0 0
0 0.021870883 0.024400141 -0.47704095 0 0
0 0.020619515 0.024397297 -0.47704095 0 0
0 0.019368431 0.02439462 -0.47704095 0 0
0 0.018117612 0.024392111 -0.47704095 0 0
0 0.015616703 0.024387596 -0.47704095 0 0
0 0.014366579 0.02438559 -0.47704095 0 0
0 0.013116651 0.02438375 -0.47704095 0 0
5.5511151e-17 0.011866904 0.024382079 -0.47704095 0 0
5.5511151e-17 0.010617319 0.024380574 -0.47704095 0 0
5.5511151e-17 0.0093678804 0.024379238 -0.47704095 0 0
5.5511151e-17 0.0081185699 0.024378069 -0.47704095 0 0
0 0.006869371 0.024377065 -0.47704095 0 0
0 0.0056202663 0.02437623 -0.47704095 0 0
0 0.0043712384 0.024375562 -0.47704095 0 0
0 0.0031222701 0.024375061 -0.47704095 0 0
0 0.001873345 0.024374727 -0.47704095 0 0
0 0.0006244455 0.02437456 -0.47704095 0 0
0.0075119087 0.079999998 0.023804611 -0.47704095 0 0
5.5511151e-17 0.077477396 0.023425529 -0.47704095 0 0
0 0.076196104 0.023415653 -0.47704095 0 0
0.03237405 0.079999998 0.024994373 -0.47704095 0 0
0 0.073636718 0.023396406 -0.47704095 0 0
0 0.072358578 0.023387035 -0.47704095 0 0
5.5511151e-17 0.069805339 0.023368796 -0.47704095 0 0
0 0.068530194 0.023359926 -0.47704095 0 0
5.5511151e-17 0.067256004 0.023351224 -0.47704095 0 0
0 0.065982759 0.023342689 -0.47704095 0 0
5.5511151e-17 0.064710431 0.023334319 -0.47704095 0 0
0 0.063439012 0.023326116 -0.47704095 0 0
0 0.062168472 0.023318077 -0.47704095 0 0
0 0.060898799 0.023310205 -0.47704095 0 0
0 0.057094805 0.023287574 -0.47704095 0 0
0 0.055828419 0.02328036 -0.47704095 0 0
5.5511151e-17 0.054562811 0.023273308 -0.47704095 0 0
0 0.053297956 0.023266422 -0.47704095 0 0
0 0.052033845 0.023259697 -0.47704095 0 0
5.5511151e-17 0.050770454 0.023253137 -0.47704095 0 0
0 0.049507767 0.023246739 -0.47704095 0 0
0 0.048245765 0.023240505 -0.47704095 0 0
0 0.04698443 0.023234433 -0.47704095 0 0
5.5511151e-17 0.043204263 0.023217188 -0.47704095 0 0
0 0.041945424 0.023211764 -0.47704095 0 0
0 0.040687162 0.023206502 -0.47704095 0 0
0 0.038172312 0.023196461 -0.47704095 0 0
0 0.036915686 0.023191683 -0.47704095 0 0
5.5511151e-17 0.03565957 0.023187064 -0.47704095 0 0
0 0.034403943 0.023182606 -0.47704095 0 0
0 0.033148792 0.023178311 -0.47704095 0 0
0 0.031894095 0.023174174 -0.47704095 0 0
0 0.029386006 0.023166381 -0.47704095 0 0
5.5511151e-17 0.028132576 0.023162726 -0.47704095 0 0
0 0.026879532 0.02315923 -0.47704095 0 0
0 0.025626859 0.023155892 -0.47704095 0 0
5.5511151e-17 0.024374539 0.023152716 -0.47704095 0 0
0 0.021870883 0.02314684 -0.47704095 0 0
5.5511151e-17 0.020619515 0.023144143 -0.47704095 0 0
0 0.015616703 0.023134939 -0.47704095 0 0
0 0.014366579 0.023133036 -0.47704095 0 0
0 0.011866904 0.023129705 -0.47704095 0 0
5.5511151e-17 0.010617319 0.023128279 -0.47704095 0 0
0 0.0093678804 0.02312701 -0.47704095 0 0
0 0.006869371 0.02312495 -0.47704095 0 0
0 0.0043712384 0.023123523 -0.47704095 0 0
5.5511151e-17 0.0031222701 0.023123048 -0.47704095 0 0
0 0.001873345 0.02312273 -0.47704095 0 0
0 0.0006244455 0.023122571 -0.47704095 0 0
0 0.078759775 0.02216696 -0.47704095 0 0
0.015532074 0.079999998 0.022878889 -0.47704095 0 0
0 0.076196104 0.022148117 -0.47704095 0 0
0 0.074915886 0.022138936 -0.47704095 0 0
0 0.072358578 0.022121049 -0.47704095 0 0
0 0.07108146 0.022112345 -0.47704095 0 0
0 0.069805339 0.022103798 -0.47704095 0 0
0 0.068530194 0.022095408 -0.47704095 0 0
5.5511151e-17 0.067256004 0.022087177 -0.47704095 0 0
0 0.065982759 0.022079105 -0.47704095 0 0
0 0.064710431 0.022071188 -0.47704095 0 0
5.5511151e-17 0.063439012 0.022063429 -0.47704095 0 0
0 0.062168472 0.022055825 -0.47704095 0 0
5.5511151e-17 0.059629977 0.022041086 -0.47704095 0 0
0 0.058361985 0.022033952 -0.47704095 0 0
0 0.055828419 0.022020148 -0.47704095 0 0
0 0.054562811 0.02201348 -0.47704095 0 0
0 0.053297956 0.022006964 -0.47704095 0 0
5.5511151e-17 0.052033845 0.022000605 -0.47704095 0 0
0 0.050770454 0.021994399 -0.47704095 0 0
5.5511151e-17 0.049507767 0.021988349 -0.47704095 0 0
0 0.048245765 0.021982452 -0.47704095 0 0
0 0.04698443 0.021976708 -0.47704095 0 0
0 0.044463698 0.021965681 -0.47704095 0 0
0 0.043204263 0.021960398 -0.47704095 0 0
0 0.040687162 0.02195029 -0.47704095 0 0
0 0.039429467 0.021945465 -0.47704095 0 0
0 0.038172312 0.021940792 -0.47704095 0 0
0 0.03565957 0.021931903 -0.47704095 0 0
0 0.034403943 0.021927688 -0.47704095 0 0
0 0.033148792 0.021923624 -0.47704095 0 0
0 0.031894095 0.021919711 -0.47704095 0 0
5.5511151e-17 0.03063984 0.02191595 -0.47704095 0 0
5.5511151e-17 0.029386006 0.02191234 -0.47704095 0 0
0 0.028132576 0.021908883 -0.47704095 0 0
0 0.026879532 0.021905575 -0.47704095 0 0
0 0.025626859 0.02190242 -0.47704095 0 0
0 0.024374539 0.021899415 -0.47704095 0 0
0 0.023122553 0.02189656 -0.47704095 0 0
0 0.021870883 0.021893857 -0.47704095 0 0
0 0.020619515 0.021891305 -0.47704095 0 0
5.5511151e-17 0.018117612 0.021886652 -0.47704095 0 0
0 0.016867042 0.021884551 -0.47704095 0 0
5.5511151e-17 0.015616703 0.021882599 -0.47704095 0 0
5.5511151e-17 0.014366579 0.0218808 -0.47704095 0 0
0 0.013116651 0.02187915 -0.47704095 0 0
0 0.011866904 0.02187765 -0.47704095 0 0
5.5511151e-17 0.010617319 0.0218763 -0.47704095 0 0
5.5511151e-17 0.0093678804 0.0218751 -0.47704095 0 0
0 0.0081185699 0.021874052 -0.47704095 0 0
0 0.006869371 0.021873152 -0.47704095 0 0
0 0.0056202663 0.021872401 -0.47704095 0 0
0 0.0043712384 0.021871801 -0.47704095 0 0
0 0.0031222701 0.021871353 -0.47704095 0 0
5.5511151e-17 0.001873345 0.021871053 -0.47704095 0 0
5.5511151e-17 0.0006244455 0.021870902 -0.47704095 0 0
0.0075119087 0.079999998 0.021227742 -0.47704095 0 0
0 0.077477396 0.020889694 -0.47704095 0 0
5.5511151e-17 0.076196104 0.020880887 -0.47704095 0 0
0 0.074915886 0.020872232 -0.47704095 0 0
0 0.072358578 0.020855369 -0.47704095 0 0
5.5511151e-17 0.07108146 0.020847162 -0.47704095 0 0
0 0.069805339 0.020839104 -0.47704095 0 0
5.5511151e-17 0.067256004 0.020823434 -0.47704095 0 0
0 0.065982759 0.020815823 -0.47704095 0 0
0 0.064710431 0.02080836 -0.47704095 0 0
0 0.063439012 0.020801043 -0.47704095 0 0
0 0.060898799 0.020786854 -0.47704095 0 0
5.5511151e-17 0.059629977 0.02077998 -0.47704095 0 0
0 0.058361985 0.020773254 -0.47704095 0 0
0 0.057094805 0.020766674 -0.47704095 0 0
0 0.055828419 0.02076024 -0.47704095 0 0
0 0.054562811 0.020753952 -0.47704095 0 0
0 0.050770454 0.020735964 -0.47704095 0 0
0 0.048245765 0.020724699 -0.47704095 0 0
0 0.04698443 0.020719284 -0.47704095 0 0
0 0.044463698 0.020708889 -0.47704095 0 0
0 0.043204263 0.020703908 -0.47704095 0 0
5.5511151e-17 0.039429467 0.02068983 -0.47704095 0 0
5.5511151e-17 0.038172312 0.020685425 -0.47704095 0 0
0 0.036915686 0.020681163 -0.47704095 0 0
0 0.034403943 0.02067307 -0.47704095 0 0
0 0.033148792 0.020669239 -0.47704095 0 0
0 0.03063984 0.020662004 -0.47704095 0 0
0 0.029386006 0.020658601 -0.47704095 0 0
0 0.026879532 0.020652223 -0.47704095 0 0
5.5511151e-17 0.025626859 0.020649247 -0.47704095 0 0
0 0.024374539 0.020646414 -0.47704095 0 0
0 0.023122553 0.020643724 -0.47704095 0 0
0 0.021870883 0.020641174 -0.47704095 0 0
5.5511151e-17 0.020619515 0.020638768 -0.47704095 0 0
0 0.019368431 0.020636505 -0.47704095 0 0
0 0.018117612 0.020634381 -0.47704095 0 0
0 0.016867042 0.020632401 -0.47704095 0 0
5.5511151e-17 0.015616703 0.020630561 -0.47704095 0 0
0 0.014366579 0.020628864 -0.47704095 0 0
0 0.013116651 0.020627309 -0.47704095 0 0
0 0.011866904 0.020625895 -0.47704095 0 0
0 0.010617319 0.020624623 -0.47704095 0 0
0 0.0081185699 0.020622501 -0.47704095 0 0
5.5511151e-17 0.006869371 0.020621654 -0.47704095 0 0
0 0.0056202663 0.020620948 -0.47704095 0 0
0 0.0043712384 0.020620381 -0.47704095 0 0
0 0.0031222701 0.020619957 -0.47704095 0 0
5.5511151e-17 0.001873345 0.020619676 -0.47704095 0 0
0 0.0006244455 0.020619534 -0.47704095 0 0
0.0075119087 0.079999998 0.019939752 -0.47704095 0 0
5.5511151e-17 0.077477396 0.019622216 -0.47704095 0 0
0 0.076196104 0.019613944 -0.47704095 0 0
0.03237405 0.079999998 0.020936348 -0.47704095 0 0
0 0.073636718 0.019597823 -0.47704095 0 0
0 0.069805339 0.019574694 -0.47704095 0 0
0 0.068530194 0.019567266 -0.47704095 0 0
0 0.067256004 0.019559978 -0.47704095 0 0
0 0.065982759 0.019552827 -0.47704095 0 0
5.5511151e-17 0.064710431 0.019545816 -0.47704095 0 0
0 0.063439012 0.019538945 -0.47704095 0 0
0 0.060898799 0.019525615 -0.47704095 0 0
5.5511151e-17 0.059629977 0.01951916 -0.47704095 0 0
5.5511151e-17 0.058361985 0.019512841 -0.47704095 0 0
0 0.057094805 0.019506659 -0.47704095 0 0
5.5511151e-17 0.055828419 0.019500617 -0.47704095 0 0
0 0.054562811 0.01949471 -0.47704095 0 0
0 0.053297956 0.019488942 -0.47704095 0 0
0 0.052033845 0.019483309 -0.47704095 0 0
5.5511151e-17 0.049507767 0.019472456 -0.47704095 0 0
0 0.048245765 0.019467233 -0.47704095 0 0
0 0.04698443 0.019462146 -0.47704095 0 0
0 0.045723747 0.019457197 -0.47704095 0 0
0 0.044463698 0.019452382 -0.47704095 0 0
5.5511151e-17 0.043204263 0.019447703 -0.47704095 0 0
5.5511151e-17 0.041945424 0.01944316 -0.47704095 0 0
0 0.039429467 0.019434478 -0.47704095 0 0
0 0.036915686 0.019426337 -0.47704095 0 0
0 0.03565957 0.01942247 -0.47704095 0 0
0 0.034403943 0.019418735 -0.47704095 0 0
0 0.033148792 0.019415136 -0.47704095 0 0
5.5511151e-17 0.031894095 0.019411672 -0.47704095 0 0
0 0.03063984 0.019408341 -0.47704095 0 0
5.5511151e-17 0.029386006 0.019405143 -0.47704095 0 0
0 0.028132576 0.019402081 -0.47704095 0 0
5.5511151e-17 0.024374539 0.019393697 -0.47704095 0 0
0 0.023122553 0.01939117 -0.47704095 0 0
0 0.020619515 0.019386515 -0.47704095 0 0
5.5511151e-17 0.019368431 0.019384388 -0.47704095 0 0
0 0.018117612 0.019382395 -0.47704095 0 0
5.5511151e-17 0.016867042 0.019380534 -0.47704095 0 0
5.5511151e-17 0.014366579 0.019377213 -0.47704095 0 0
5.5511151e-17 0.011866904 0.019374423 -0.47704095 0 0
5.5511151e-17 0.0093678804 0.019372165 -0.47704095 0 0
5.5511151e-17 0.0081185699 0.019371236 -0.47704095 0 0
0 0.0056202663 0.019369775 -0.47704095 0 0
0 0.0043712384 0.019369245 -0.47704095 0 0
5.5511151e-17 0.0031222701 0.019368846 -0.47704095 0 0
0 0.001873345 0.01936858 -0.47704095 0 0
0 0.078759775 0.01836288 -0.47704095 0 0
5.5511151e-17 0.077477396 0.018355008 -0.47704095 0 0
0.023815038 0.079999998 0.01926321 -0.47704095 0 0
0 0.074915886 0.018339664 -0.47704095 0 0
0 0.072358578 0.018324846 -0.47704095 0 0
0 0.07108146 0.018317636 -0.47704095 0 0
0 0.069805339 0.018310556 -0.47704095 0 0
0 0.068530194 0.018303607 -0.47704095 0 0
0 0.067256004 0.018296788 -0.47704095 0 0
5.5511151e-17 0.064710431 0.018283542 -0.47704095 0 0
5.5511151e-17 0.063439012 0.018277114 -0.47704095 0 0
0 0.062168472 0.018270815 -0.47704095 0 0
0 0.060898799 0.018264646 -0.47704095 0 0
0 0.059629977 0.018258607 -0.47704095 0 0
0 0.057094805 0.018246915 -0.47704095 0 0
0 0.055828419 0.018241262 -0.47704095 0 0
0 0.054562811 0.018235736 -0.47704095 0 0
0 0.052033845 0.018225072 -0.47704095 0 0
0 0.049507767 0.018214919 -0.47704095 0 0
0 0.048245765 0.018210033 -0.47704095 0 0
5.5511151e-17 0.04698443 0.018205276 -0.47704095 0 0
0 0.045723747 0.018200645 -0.47704095 0 0
0 0.043204263 0.018191764 -0.47704095 0 0
0 0.041945424 0.018187514 -0.47704095 0 0
0 0.040687162 0.018183392 -0.47704095 0 0
0 0.039429467 0.018179394 -0.47704095 0 0
5.5511151e-17 0.038172312 0.018175524 -0.47704095 0 0
0 0.036915686 0.018171778 -0.47704095 0 0
0 0.03565957 0.018168161 -0.47704095 0 0
5.5511151e-17 0.034403943 0.018164668 -0.47704095 0 0
0 0.033148792 0.018161301 -0.47704095 0 0
5.5511151e-17 0.031894095 0.01815806 -0.47704095 0 0
0 0.03063984 0.018154945 -0.47704095 0 0
0 0.029386006 0.018151954 -0.47704095 0 0
5.5511151e-17 0.028132576 0.018149089 -0.47704095 0 0
5.5511151e-17 0.025626859 0.018143736 -0.47704095 0 0
0 0.024374539 0.018141247 -0.47704095 0 0
5.5511151e-17 0.021870883 0.018136643 -0.47704095 0 0
0 0.020619515 0.018134529 -0.47704095 0 0
0 0.019368431 0.018132539 -0.47704095 0 0
0 0.016867042 0.018128933 -0.47704095 0 0
0 0.015616703 0.018127318 -0.47704095 0 0
0 0.014366579 0.018125826 -0.47704095 0 0
0 0.011866904 0.018123217 -0.47704095 0 0
5.5511151e-17 0.010617319 0.018122099 -0.47704095 0 0
0 0.006869371 0.01811949 -0.47704095 0 0
0 0.0056202663 0.01811887 -0.47704095 0 0
0 0.0043712384 0.018118372 -0.47704095 0 0
5.5511151e-17 0.001873345 0.018117752 -0.47704095 0 0
0 0.0006244455 0.018117627 -0.47704095 0 0
0 0.078759775 0.01709538 -0.47704095 0 0
0 0.077477396 0.017088052 -0.47704095 0 0
5.5511151e-17 0.076196104 0.017080847 -0.47704095 0 0
0 0.074915886 0.017073767 -0.47704095 0 0
5.5511151e-17 0.073636718 0.017066808 -0.47704095 0 0
0 0.072358578 0.017059973 -0.47704095 0 0
0 0.07108146 0.01705326 -0.47704095 0 0
0 0.069805339 0.017046668 -0.47704095 0 0
0 0.068530194 0.017040199 -0.47704095 0 0
0 0.065982759 0.017027624 -0.47704095 0 0
0 0.064710431 0.017021518 -0.47704095 0 0
5.5511151e-17 0.063439012 0.017015534 -0.47704095 0 0
0 0.062168472 0.01700967 -0.47704095 0 0
0 0.059629977 0.016998304 -0.47704095 0 0
0 0.058361985 0.016992802 -0.47704095 0 0
0 0.055828419 0.016982157 -0.47704095 0 0
0 0.052033845 0.016967084 -0.47704095 0 0
0 0.049507767 0.016957631 -0.47704095 0 0
5.5511151e-17 0.048245765 0.016953085 -0.47704095 0 0
0 0.04698443 0.016948653 -0.47704095 0 0
5.5511151e-17 0.045723747 0.016944343 -0.47704095 0 0
5.5511151e-17 0.044463698 0.01694015 -0.47704095 0 0
0 0.043204263 0.016936077 -0.47704095 0 0
5.5511151e-17 0.041945424 0.016932119 -0.47704095 0 0
0 0.039429467 0.01692456 -0.47704095 0 0
0 0.036915686 0.016917469 -0.47704095 0 0
0 0.034403943 0.016910849 -0.47704095 0 0
0 0.033148792 0.016907714 -0.47704095 0 0
0 0.031894095 0.016904699 -0.47704095 0 0
5.5511151e-17 0.029386006 0.016899014 -0.47704095 0 0
0 0.028132576 0.016896347 -0.47704095 0 0
5.5511151e-17 0.026879532 0.016893797 -0.47704095 0 0
0 0.021870883 0.016884759 -0.47704095 0 0
0 0.020619515 0.01688279 -0.47704095 0 0
5.5511151e-17 0.019368431 0.016880939 -0.47704095 0 0
0 0.018117612 0.016879203 -0.47704095 0 0
5.5511151e-17 0.015616703 0.016876077 -0.47704095 0 0
5.5511151e-17 0.014366579 0.01687469 -0.47704095 0 0
5.5511151e-17 0.013116651 0.016873417 -0.47704095 0 0
5.5511151e-17 0.011866904 0.016872261 -0.47704095 0 0
0 0.010617319 0.01687122 -0.47704095 0 0
0 0.0093678804 0.016870294 -0.47704095 0 0
0 0.0081185699 0.016869484 -0.47704095 0 0
0 0.006869371 0.016868791 -0.47704095 0 0
0 0.0043712384 0.016867749 -0.47704095 0 0
0 0.0031222701 0.016867403 -0.47704095 0 0
0 0.001873345 0.016867172 -0.47704095 0 0
0 0.0006244455 0.016867056 -0.47704095 0 0
0 0.078759775 0.015828114 -0.47704095 0 0
0 0.077477396 0.01582133 -0.47704095 0 0
0 0.076196104 0.01581466 -0.47704095 0 0
0.03237405 0.079999998 0.016880909 -0.47704095 0 0
0 0.072358578 0.015795331 -0.47704095 0 0
0 0.07108146 0.015789116 -0.47704095 0 0
5.5511151e-17 0.069805339 0.015783014 -0.47704095 0 0
5.5511151e-17 0.068530194 0.015777024 -0.47704095 0 0
0 0.065982759 0.015765382 -0.47704095 0 0
0 0.064710431 0.015759729 -0.47704095 0 0
0 0.063439012 0.015754187 -0.47704095 0 0
0 0.062168472 0.015748758 -0.47704095 0 0
0 0.060898799 0.015743442 -0.47704095 0 0
5.5511151e-17 0.059629977 0.015738236 -0.47704095 0 0
0 0.057094805 0.015728157 -0.47704095 0 0
0 0.055828419 0.015723284 -0.47704095 0 0
5.5511151e-17 0.054562811 0.015718522 -0.47704095 0 0
0 0.053297956 0.015713871 -0.47704095 0 0
