# .PCD v0.7 - Point Cloud Data file format
VERSION 0.7
FIELDS x y z rgb scalar_Scalar_field
SIZE 4 4 4 4 4
TYPE F F F U F
COUNT 1 1 1 1 1
WIDTH 1116
HEIGHT 1
VIEWPOINT 0 0 0 1 0 0 0
POINTS 1116
DATA ascii
99.293404 98.201202 200.742 16317694 -1327
99.291901 98.197197 200.741 16317692 -1320
99.290901 98.194901 200.742 16186110 -1329
99.290398 98.193703 200.742 16186110 -1329
99.288902 98.1894 200.742 16449278 -1359
99.287102 98.185402 200.742 16317694 -1470
99.2864 98.183403 200.742 16449278 -1752
99.280899 98.169403 200.74001 16318206 -1777
99.280403 98.168198 200.741 15923448 -1484
99.2799 98.169701 200.742 15396594 -1400
99.2799 98.169899 200.741 16055034 -1659
99.279602 98.169701 200.739 16449276 -1916
99.284103 98.180901 200.742 16318202 -1869
99.285896 98.185204 200.742 16317692 -1588
99.2854 98.184196 200.74001 16317692 -1394
99.288101 98.190903 200.742 16449278 -1329
99.289398 98.194397 200.742 16449276 -1329
99.290604 98.197701 200.742 16449276 -1300
99.292099 98.200699 200.742 16317692 -1307
99.292603 98.202202 200.741 16317692 -1350
99.293098 98.2034 200.74001 16317692 -1502
99.2939 98.2052 200.74001 16317692 -1571
99.295898 98.210403 200.741 16449276 -1583
99.298897 98.217697 200.743 16449276 -1601
99.299599 98.219902 200.742 16449276 -1600
99.299896 98.220703 200.741 16317692 -1567
99.300102 98.220901 200.74001 16317692 -1574
99.303101 98.228401 200.742 16317692 -1594
99.303596 98.230202 200.741 16317692 -1594
99.301903 98.229202 200.74001 16317692 -1587
99.301598 98.228203 200.741 16317692 -1592
99.300102 98.224701 200.741 16317692 -1594
99.298897 98.221397 200.741 16317692 -1591
99.298103 98.219704 200.741 16317690 -1592
99.2966 98.215202 200.741 16317692 -1592
99.295097 98.211899 200.74001 16317692 -1586
99.294601 98.210403 200.741 16317692 -1587
99.291901 98.203697 200.74001 16317692 -1553
99.292397 98.204399 200.741 16317692 -1450
99.2911 98.201401 200.741 16317692 -1337
99.2901 98.199402 200.742 16317692 -1321
99.288101 98.194397 200.741 16449276 -1328
99.287903 98.193398 200.742 16449276 -1339
99.2864 98.189697 200.742 16449278 -1360
99.2854 98.187202 200.742 16317692 -1460
99.284599 98.185402 200.743 16317692 -1733
99.278603 98.170197 200.741 16055034 -1558
99.276901 98.169403 200.742 15265518 -1437
99.276901 98.1689 200.74001 16055034 -1738
99.283401 98.185402 200.743 16318202 -1843
99.283401 98.185402 200.742 16317692 -1559
99.2854 98.190201 200.742 16317692 -1381
99.286598 98.193901 200.743 16449278 -1341
99.286598 98.193901 200.741 16449276 -1320
99.288597 98.1987 200.742 16317692 -1309
99.289597 98.201202 200.742 16317692 -1316
99.290604 98.203903 200.742 16317692 -1396
99.290604 98.203697 200.74001 16317692 -1527
99.2939 98.2117 200.742 16449276 -1563
99.2939 98.211899 200.741 16317692 -1585
99.295601 98.216202 200.742 16317690 -1581
99.295898 98.217201 200.74001 16317690 -1576
99.298103 98.222198 200.741 16449276 -1583
99.300102 98.227402 200.742 16317692 -1591
99.2994 98.225899 200.74001 16317692 -1590
99.300598 98.229202 200.74001 16317692 -1588
99.2994 98.228699 200.741 16449276 -1588
99.298401 98.2267 200.741 16449276 -1597
99.297096 98.223396 200.741 16317692 -1597
99.296402 98.221199 200.742 16317692 -1597
99.294098 98.215897 200.741 16186106 -1594
99.293098 98.213402 200.741 16317692 -1595
99.292397 98.2117 200.742 16317692 -1589
99.290398 98.205902 200.74001 16317692 -1557
99.2901 98.205399 200.742 16317692 -1432
99.288902 98.202698 200.742 16317692 -1322
99.287598 98.199203 200.742 16317692 -1319
99.2864 98.196404 200.742 16317692 -1331
99.284103 98.190697 200.74001 16449276 -1342
99.283401 98.188904 200.741 16449276 -1362
99.2826 98.186897 200.742 16317692 -1451
99.280403 98.180901 200.74001 16317692 -1723
99.278099 98.1754 200.742 16449278 -1844
99.276901 98.172203 200.742 15266544 -1536
99.276398 98.174202 200.739 16449274 -1918
99.280899 98.185898 200.743 16449276 -1704
99.282097 98.188904 200.743 16449276 -1434
99.283096 98.191704 200.742 16580348 -1348
99.284599 98.195396 200.743 16580348 -1344
99.284897 98.1959 200.741 16317690 -1335
99.285896 98.198196 200.741 16317690 -1341
99.288101 98.203903 200.742 16317692 -1352
99.287598 98.202698 200.74001 16317692 -1457
99.289398 98.206902 200.741 16317692 -1556
99.292099 98.213402 200.742 16317692 -1593
99.292099 98.213699 200.741 16317692 -1599
99.2929 98.215698 200.74001 16317692 -1610
99.294899 98.220703 200.741 16449276 -1594
99.295601 98.222397 200.741 16317692 -1595
99.295898 98.223198 200.74001 16449276 -1585
99.298401 98.229401 200.741 16449276 -1577
99.296097 98.227203 200.741 16449276 -1591
99.295097 98.224403 200.741 16449276 -1594
99.2929 98.218697 200.74001 16449276 -1579
99.292603 98.218201 200.741 16449278 -1607
99.2911 98.214401 200.741 16449276 -1597
99.289398 98.210197 200.74001 16317690 -1585
99.288902 98.2089 200.741 16317692 -1558
99.287102 98.204697 200.741 16317692 -1501
99.285896 98.201202 200.74001 16317692 -1380
99.285599 98.200699 200.742 16317690 -1332
99.2836 98.1959 200.741 16186106 -1333
99.283096 98.194702 200.742 16317692 -1326
99.281097 98.189697 200.741 16580348 -1326
99.280602 98.1884 200.742 16580348 -1367
99.279404 98.185204 200.742 16449276 -1566
99.277397 98.179901 200.741 16449276 -1836
99.2771 98.179199 200.742 16449276 -1919
99.278397 98.185699 200.744 16449276 -1830
99.278397 98.185699 200.742 16449276 -1607
99.2789 98.187202 200.741 16449278 -1382
99.280602 98.1912 200.742 16580348 -1351
99.281097 98.192902 200.741 16580350 -1353
99.2826 98.196404 200.741 16317690 -1354
99.284897 98.201698 200.742 16317690 -1338
99.284897 98.201897 200.741 16317692 -1369
99.286102 98.204903 200.741 16317692 -1476
99.287102 98.207703 200.741 16317692 -1567
99.288399 98.210899 200.741 16317692 -1575
99.2901 98.214897 200.741 16317692 -1595
99.2901 98.214897 200.74001 16449276 -1591
99.293404 98.223396 200.742 16449276 -1595
99.292603 98.221397 200.74001 16449276 -1601
99.295898 98.229698 200.741 16449276 -1606
99.294899 98.2304 200.741 16449276 -1587
99.293602 98.227203 200.741 16449276 -1583
99.292099 98.223396 200.741 16449276 -1594
99.291603 98.221901 200.741 16449276 -1602
99.289902 98.217903 200.741 16449276 -1594
99.288399 98.213699 200.74001 16317692 -1592
99.286903 98.210197 200.74001 16317692 -1579
99.286102 98.208702 200.741 16317692 -1559
99.2854 98.206703 200.741 16449276 -1496
99.284103 98.203201 200.741 16449276 -1383
99.2826 98.199898 200.741 16317692 -1353
99.281403 98.196701 200.741 16317692 -1361
99.280403 98.194397 200.741 16317692 -1357
99.2789 98.190697 200.741 16317690 -1328
99.277397 98.186897 200.741 16317690 -1333
99.276398 98.183899 200.741 16317690 -1497
99.2761 98.183197 200.742 16449276 -1723
99.276604 98.187698 200.742 16186106 -1335
99.2771 98.189201 200.741 16186106 -1309
99.2789 98.193901 200.742 16317692 -1331
99.2799 98.196404 200.741 16449276 -1352
99.282097 98.201202 200.742 16317692 -1359
99.283401 98.204399 200.742 16449276 -1380
99.283096 98.203903 200.74001 16449276 -1473
99.285599 98.210701 200.742 16317692 -1568
99.284897 98.208702 200.74001 16317692 -1583
99.286598 98.212898 200.74001 16317692 -1585
99.287598 98.215202 200.74001 16449276 -1587
99.290398 98.222397 200.742 16449276 -1586
99.292099 98.2267 200.742 16449276 -1590
99.293404 98.229897 200.742 16449276 -1591
99.293404 98.229698 200.741 16449276 -1582
99.291397 98.227699 200.741 16317692 -1582
99.290398 98.225403 200.741 16317692 -1592
99.289398 98.222702 200.741 16449276 -1587
99.288399 98.220398 200.742 16449276 -1572
99.286598 98.215897 200.741 16317692 -1579
99.284599 98.210701 200.74001 16317692 -1587
99.284103 98.2099 200.741 16317692 -1569
99.283401 98.207901 200.741 16449276 -1529
99.282402 98.2052 200.742 16449276 -1415
99.280602 98.201202 200.741 16449276 -1363
99.279099 98.197701 200.741 16317690 -1359
99.277901 98.194702 200.741 16317692 -1354
99.276901 98.191704 200.741 16317692 -1334
99.276901 98.194901 200.742 16317692 -1351
99.278099 98.198196 200.742 16317692 -1357
99.279099 98.200401 200.741 16317692 -1379
99.280602 98.203903 200.741 16449276 -1400
99.281403 98.205902 200.741 16449276 -1485
99.282402 98.2089 200.741 16317692 -1556
99.284103 98.212898 200.741 16317692 -1574
99.284401 98.213699 200.74001 16317692 -1575
99.286598 98.218903 200.741 16449276 -1589
99.287598 98.222198 200.741 16449276 -1590
99.288101 98.2229 200.74001 16449276 -1594
99.2901 98.227898 200.741 16317692 -1587
99.288597 98.227402 200.74001 16317692 -1589
99.288597 98.227699 200.742 16317692 -1591
99.286102 98.220901 200.74001 16449274 -1593
99.2854 98.219398 200.741 16449276 -1584
99.283897 98.215897 200.741 16449276 -1580
99.282402 98.211403 200.74001 16317692 -1589
99.282097 98.210899 200.741 16317692 -1582
99.280602 98.207397 200.741 16449278 -1526
99.279404 98.204201 200.741 16449276 -1422
99.277901 98.200699 200.741 16317692 -1380
99.2761 98.196198 200.74001 16317692 -1366
99.2761 98.199402 200.741 16317692 -1394
99.2771 98.201698 200.741 16317692 -1395
99.2789 98.206398 200.742 16449276 -1436
99.280403 98.2099 200.742 16317692 -1544
99.280403 98.2099 200.74001 16317692 -1578
99.281601 98.213203 200.741 16317692 -1586
99.284103 98.218903 200.742 16449276 -1594
99.284599 98.2202 200.741 16449276 -1592
99.285896 98.223396 200.741 16449274 -1595
99.287903 98.228401 200.742 16449274 -1582
99.285896 98.226402 200.741 16449274 -1584
99.285599 98.225899 200.742 16318202 -1594
99.283401 98.220398 200.741 16317692 -1601
99.2826 98.218697 200.741 16317692 -1597
99.281097 98.215202 200.741 16317692 -1596
99.279602 98.211197 200.741 16317692 -1589
99.279099 98.209702 200.741 16317694 -1571
99.276901 98.204399 200.74001 16317692 -1467
99.277397 98.208702 200.743 16317694 -1450
99.276604 98.206902 200.74001 16317692 -1528
99.279602 98.214401 200.742 16317694 -1582
99.280602 98.216904 200.742 16317694 -1586
99.281601 98.219704 200.742 16317692 -1586
99.282402 98.221199 200.741 16317692 -1598
99.284401 98.226196 200.742 16317692 -1603
99.284897 98.227699 200.741 16449276 -1589
99.284599 98.229897 200.74001 16449276 -1592
99.282898 98.225899 200.741 16317692 -1598
99.281403 98.221901 200.741 16317692 -1591
99.2799 98.218201 200.74001 16317692 -1596
99.2789 98.215897 200.741 16317694 -1596
99.277603 98.2127 200.741 16317694 -1582
99.278099 98.216904 200.742 16317694 -1570
99.2799 98.221397 200.742 16317694 -1574
99.280602 98.223198 200.742 16317692 -1577
99.281403 98.224899 200.741 16317692 -1589
99.282402 98.227402 200.741 16449276 -1598
99.281601 98.228897 200.741 16317692 -1582
99.2799 98.224403 200.74001 16449276 -1582
99.279099 98.222397 200.741 16317692 -1578
99.277901 98.219704 200.741 16317694 -1589
99.2761 98.215202 200.742 16317692 -1580
99.276604 98.219704 200.741 16449276 -1593
99.2789 98.225197 200.742 16449276 -1583
99.279404 98.2267 200.741 16449276 -1590
99.277901 98.2257 200.74001 16449276 -1585
99.277397 98.224403 200.741 16449276 -1576
99.276398 98.225197 200.742 16449276 -1584
99.278099 98.229897 200.743 16449276 -1588
99.277901 98.228897 200.741 16318202 -1595
99.276604 98.228897 200.74001 16318202 -1599
99.276398 98.228699 200.741 16449274 -1596
99.2761 98.227699 200.742 16449276 -1599
99.274902 98.232201 200.741 16449276 -1602
99.273903 98.232399 200.743 16449276 -1582
99.273598 98.231903 200.741 16449276 -1591
99.275597 98.236702 200.742 16056056 -1591
99.275597 98.239899 200.741 16318202 -1612
99.274399 98.236702 200.741 16318204 -1607
99.2724 98.232201 200.74001 16449276 -1598
99.270897 98.231201 200.742 16317692 -1584
99.272102 98.234398 200.742 16449276 -1590
99.273102 98.236702 200.742 16579838 -1588
99.274399 98.240196 200.742 16187130 -1603
99.275101 98.244904 200.742 16710394 -1599
99.273903 98.241898 200.742 16580344 -1609
99.2724 98.238403 200.741 16187132 -1604
99.271103 98.235397 200.741 16187134 -1597
99.268402 98.231697 200.743 16317692 -1582
99.268097 98.231201 200.741 16317692 -1583
99.269897 98.235397 200.742 16317692 -1586
99.271103 98.238197 200.742 16318204 -1587
99.2724 98.241402 200.742 16318200 -1579
99.273598 98.244202 200.742 16710908 -1592
99.275597 98.248901 200.742 16710398 -1601
99.275597 98.248901 200.741 16449278 -1595
99.274902 98.250397 200.741 15924988 -1593
99.273903 98.248199 200.742 15924990 -1584
99.273598 98.2472 200.743 16579838 -1583
99.270401 98.239899 200.74001 16579834 -1584
99.270401 98.239403 200.742 16317692 -1588
99.269897 98.238403 200.743 16317692 -1600
99.267403 98.232201 200.741 16317692 -1597
99.2659 98.231697 200.743 16317692 -1590
99.266403 98.232903 200.742 16317692 -1591
99.268402 98.2379 200.743 16317692 -1591
99.269096 98.239899 200.742 16187134 -1586
99.270897 98.243896 200.743 16579834 -1578
99.270897 98.243698 200.741 16579834 -1595
99.2724 98.2472 200.741 16187134 -1593
99.272903 98.248398 200.74001 15924988 -1602
99.273903 98.2509 200.74001 16056052 -1595
99.275597 98.258202 200.741 16186108 -1603
99.275597 98.2584 200.743 16711418 -1614
99.273399 98.252701 200.742 16187130 -1607
99.272598 98.251198 200.742 16449278 -1606
99.270103 98.245201 200.741 16056062 -1594
99.269402 98.243202 200.741 16318202 -1586
99.268097 98.240402 200.741 16580348 -1580
99.267403 98.238403 200.742 16187134 -1590
99.266403 98.236198 200.742 16318202 -1591
99.264397 98.2314 200.742 16317692 -1588
99.2659 98.237701 200.743 16317692 -1591
99.2659 98.238197 200.742 16449274 -1592
99.266602 98.239899 200.742 16449278 -1595
99.267601 98.242203 200.741 16187128 -1595
99.2686 98.244698 200.741 16710394 -1601
99.271896 98.252197 200.743 16448254 -1602
99.271896 98.252403 200.742 16318202 -1604
99.273102 98.255203 200.742 16711418 -1600
99.273399 98.255898 200.741 16187134 -1592
99.275101 98.262703 200.742 16703728 -1574
99.273399 98.259201 200.742 14745342 -1577
99.272102 98.255898 200.742 16056060 -1589
99.270599 98.252197 200.741 16187132 -1589
99.270103 98.251404 200.742 15662846 -1600
99.268402 98.2472 200.742 16708858 -1603
99.268097 98.246696 200.743 16710392 -1589
99.2659 98.240898 200.742 16449278 -1590
99.2649 98.238403 200.742 16317692 -1595
99.262901 98.233902 200.741 16317692 -1594
99.261597 98.230904 200.741 16317692 -1579
99.260902 98.231903 200.742 16317692 -1585
99.262398 98.235703 200.742 16317692 -1600
99.264397 98.240402 200.743 16317692 -1578
99.265404 98.242897 200.742 16448248 -1588
99.266098 98.244698 200.742 16709884 -1591
99.267899 98.248398 200.742 16056062 -1604
99.268898 98.2509 200.742 16187128 -1590
99.270103 98.253899 200.742 16579836 -1603
99.271599 98.257401 200.742 15531262 -1597
99.273102 98.261398 200.743 16709364 -1595
99.274597 98.264397 200.743 14028820 -1589
99.274101 98.263199 200.741 16646150 -1587
99.273598 98.265198 200.74001 16515588 -1598
99.273598 98.265404 200.742 16647172 -1591
99.273102 98.263901 200.742 16384000 -1584
99.2724 98.262199 200.743 16698578 -1580
99.271103 98.259399 200.743 16317182 -1587
99.269096 98.254898 200.742 16055034 -1588
99.267403 98.250397 200.742 16580346 -1594
99.266403 98.248398 200.742 15793918 -1607
99.264603 98.243896 200.741 16710398 -1602
99.263901 98.241898 200.742 16710904 -1599
99.262398 98.238701 200.742 16317692 -1591
99.260597 98.2342 200.741 16317692 -1596
99.259903 98.232697 200.742 16317692 -1597
99.2584 98.232399 200.742 16317692 -1591
99.260101 98.236397 200.742 16317692 -1587
99.261902 98.2407 200.743 16317692 -1593
99.262901 98.242699 200.742 15662846 -1594
99.264603 98.247398 200.743 15531774 -1606
99.265404 98.248703 200.742 16709880 -1602
99.265602 98.249397 200.741 16448246 -1603
99.267601 98.254402 200.742 15662846 -1589
99.269897 98.259399 200.743 16706286 -1584
99.269897 98.259697 200.741 14945300 -1593
99.270897 98.262199 200.741 16384000 -1593
99.272903 98.266403 200.742 15729152 -1577
99.274101 98.269402 200.742 16706286 -1586
99.274101 98.269699 200.741 15662846 -1586
99.275101 98.271698 200.74001 16710910 -1592
99.274101 98.2724 200.742 16318206 -1588
99.272903 98.269203 200.742 15007486 -1596
99.273102 98.269699 200.743 13899790 -1597
99.2696 98.261902 200.741 16646656 -1603
99.269402 98.261398 200.742 16515072 -1606
99.2686 98.259399 200.742 14290960 -1589
99.266098 98.2537 200.741 16448758 -1599
99.265602 98.252197 200.742 16056056 -1593
99.262901 98.245903 200.74001 16709878 -1608
99.261398 98.242401 200.74001 15400702 -1607
99.260902 98.241203 200.741 15400190 -1599
99.260101 98.239403 200.742 16317692 -1590
99.259102 98.237198 200.742 16317692 -1596
99.257599 98.233398 200.742 16317692 -1593
99.256897 98.231697 200.742 16317692 -1582
99.256599 98.233902 200.743 16317692 -1608
99.256599 98.233902 200.74001 16317692 -1602
99.257896 98.2369 200.74001 16317692 -1593
99.261597 98.245903 200.743 16710904 -1586
99.262901 98.248901 200.743 16709360 -1593
99.263603 98.250397 200.742 15269630 -1600
99.264099 98.251701 200.742 15924990 -1607
99.265404 98.255203 200.742 15493736 -1596
99.267097 98.259201 200.742 14814218 -1604
99.2686 98.262703 200.743 16647168 -1596
99.269096 98.263397 200.742 14306378 -1593
99.271103 98.268204 200.742 16707316 -1591
99.271599 98.269402 200.742 15400702 -1603
99.272903 98.272697 200.742 16449278 -1591
99.273903 98.2752 200.741 16316670 -1599
99.275101 98.280899 200.741 11317408 -1609
99.273598 98.277397 200.741 12632756 -1609
99.273102 98.276199 200.741 15531254 -1611
99.273102 98.276199 200.743 15662842 -1590
99.269402 98.267197 200.74001 16708860 -1595
99.270103 98.269203 200.742 15793918 -1585
99.267403 98.262703 200.741 16703194 -1587
99.267403 98.262398 200.742 16515072 -1598
99.266098 98.259697 200.742 16646144 -1590
99.2649 98.256401 200.742 14552078 -1593
99.263397 98.252899 200.742 16690862 -1598
99.262604 98.251198 200.742 14876414 -1599
99.260597 98.246696 200.742 16708846 -1595
99.2584 98.241402 200.74001 16709872 -1594
99.259399 98.243896 200.743 16317692 -1595
99.257599 98.239197 200.742 16317692 -1596
99.255096 98.233704 200.741 16317692 -1590
99.254097 98.231201 200.741 16317692 -1604
99.253403 98.232399 200.743 16449276 -1597
99.252899 98.2314 200.741 16449278 -1581
99.255096 98.236702 200.742 16449276 -1588
99.256599 98.239899 200.742 16449276 -1580
99.258598 98.245201 200.743 16710906 -1590
99.259399 98.246902 200.742 15269630 -1593
99.260101 98.248703 200.741 16187134 -1590
99.261597 98.252197 200.742 14046288 -1588
99.262398 98.253899 200.741 15337996 -1590
99.264397 98.258202 200.742 16384000 -1591
99.266098 98.262398 200.742 14836840 -1590
99.267403 98.265701 200.742 16689832 -1591
99.2686 98.268204 200.742 15138558 -1592
99.2686 98.268204 200.741 15924990 -1600
99.2714 98.274902 200.743 16187130 -1593
99.272598 98.277901 200.743 14607578 -1593
99.272598 98.277901 200.741 12370094 -1603
99.275398 98.284203 200.743 10530456 -1601
99.275101 98.283699 200.741 9873562 -1599
99.275597 98.287697 200.743 10004644 -1569
99.274597 98.285698 200.743 9614484 -1601
99.273102 98.282204 200.743 10268810 -1609
99.2714 98.277901 200.742 12108972 -1621
99.268402 98.270699 200.74001 15924474 -1609
99.266899 98.267403 200.74001 16711414 -1593
99.267899 98.269699 200.743 16449268 -1602
99.2659 98.2649 200.742 15924990 -1593
99.265099 98.262901 200.742 16705770 -1598
99.262604 98.257698 200.741 16515074 -1592
99.2621 98.256203 200.742 16646144 -1589
99.260101 98.251404 200.741 14290440 -1587
99.260399 98.2519 200.742 16685718 -1599
99.258904 98.248703 200.742 15138558 -1599
99.257103 98.244202 200.742 15531774 -1593
99.256401 98.242699 200.742 16449276 -1601
99.254601 98.238403 200.742 16449276 -1597
99.252403 98.233398 200.741 16449278 -1596
99.2519 98.232399 200.742 16449276 -1613
99.250603 98.232399 200.743 16317690 -1602
99.250397 98.231201 200.742 16317692 -1612
99.252899 98.237701 200.743 16317692 -1604
99.252098 98.235901 200.741 16317692 -1597
99.253601 98.239403 200.741 16317692 -1602
99.256897 98.246902 200.743 15531774 -1580
99.257103 98.247398 200.742 16706278 -1589
99.259399 98.252899 200.743 13911102 -1580
99.259903 98.2537 200.742 16515072 -1596
99.261398 98.257698 200.742 16646656 -1595
99.2621 98.259201 200.742 14160918 -1584
99.262604 98.260399 200.741 16694974 -1584
99.265602 98.267197 200.743 15269630 -1597
99.266602 98.269897 200.743 16579314 -1600
99.267403 98.2714 200.742 16710904 -1594
99.268402 98.273903 200.742 14741738 -1601
99.269897 98.277397 200.742 12373184 -1610
99.270897 98.2799 200.742 10007692 -1612
99.271599 98.281403 200.741 9613962 -1599
99.273903 98.286903 200.742 9610390 -1561
99.274399 98.287903 200.742 10003098 -1520
99.275597 98.290703 200.742 10135190 -1512
99.275101 98.289902 200.737 9608342 -1657
99.275101 98.289703 200.72701 10658448 -1684
99.275597 98.290703 200.71899 9479822 -1697
99.274399 98.2882 200.716 9744016 -1671
99.275101 98.289398 200.715 9348742 -1644
99.275398 98.290199 200.714 10005648 -1622
99.275398 98.290398 200.71201 10006170 -1601
99.275398 98.290398 200.71001 10267290 -1598
99.275398 98.290398 200.705 10137236 -1606
99.274101 98.290398 200.702 10661532 -1592
99.274101 98.290199 200.703 11187876 -1601
99.274902 98.291901 200.70599 10005142 -1605
99.274399 98.290901 200.70599 10531486 -1599
99.275398 98.293404 200.709 11186846 -1603
99.273903 98.289902 200.709 10661528 -1604
99.273903 98.289902 200.71001 10925216 -1608
99.274597 98.291702 200.71201 10923678 -1612
99.274101 98.290398 200.713 10922654 -1601
99.274902 98.292198 200.715 10922652 -1615
99.272903 98.287399 200.714 9480330 -1636
99.274101 98.290398 200.717 10402972 -1660
99.275101 98.292397 200.72099 10659988 -1698
99.273903 98.289398 200.72099 10528916 -1695
99.274902 98.291702 200.72301 11318942 -1701
99.273598 98.288696 200.72301 10530966 -1702
99.272903 98.287399 200.72501 10003086 -1691
99.274597 98.291397 200.728 10005656 -1686
99.273903 98.289902 200.729 10007196 -1660
99.275398 98.2929 200.73199 10399380 -1645
99.275101 98.292702 200.733 9872520 -1660
99.2724 98.285698 200.731 10004628 -1676
99.273598 98.2892 200.73599 9478812 -1689
99.274399 98.290398 200.739 10136734 -1625
99.274399 98.290703 200.74001 9744016 -1546
99.273598 98.288902 200.741 10005138 -1498
99.271599 98.284203 200.74001 11054756 -1522
99.2714 98.283699 200.741 10268826 -1553
99.271103 98.283203 200.742 9743504 -1582
99.269897 98.280197 200.742 10401954 -1604
99.268402 98.276703 200.742 11188906 -1605
99.267097 98.273903 200.742 15265514 -1595
99.266098 98.271698 200.743 16187134 -1601
99.2659 98.270401 200.743 16316152 -1595
99.262901 98.263702 200.742 15400700 -1589
99.262604 98.263199 200.743 15793914 -1576
99.260399 98.257896 200.742 13645370 -1585
99.259598 98.256203 200.742 16122890 -1591
99.258904 98.254402 200.743 16646144 -1603
99.256599 98.248901 200.742 14813186 -1592
99.255096 98.245903 200.742 16707822 -1587
99.254402 98.243896 200.742 16449276 -1588
99.252403 98.239403 200.741 16317692 -1594
99.2519 98.238197 200.742 16317692 -1599
99.249397 98.232399 200.741 16317692 -1606
99.2491 98.231697 200.742 16449276 -1599
99.247902 98.231697 200.743 16710910 -1587
99.249603 98.235901 200.743 16448766 -1589
99.249603 98.235901 200.742 15662840 -1582
99.251099 98.239403 200.742 15924982 -1597
99.252098 98.241402 200.741 16317694 -1597
99.253403 98.244904 200.742 16706786 -1595
99.255898 98.250397 200.743 13898766 -1580
99.257103 98.253403 200.743 16515584 -1574
99.256599 98.252403 200.741 16647170 -1582
99.259399 98.258904 200.742 16698574 -1595
99.259399 98.258698 200.741 16580344 -1595
99.260399 98.261398 200.741 15400702 -1589
99.262901 98.266899 200.742 16710392 -1584
99.264603 98.270699 200.742 16056062 -1586
99.265404 98.272697 200.742 13684942 -1606
99.267403 98.276901 200.743 12240050 -1608
99.267899 98.278702 200.742 10269344 -1601
99.2696 98.282898 200.743 9743512 -1569
99.269897 98.283401 200.742 10137242 -1534
99.2724 98.2892 200.743 10662046 -1505
99.2714 98.286903 200.74001 10528922 -1510
99.272598 98.289703 200.74001 10136722 -1551
99.273102 98.290901 200.74001 10006674 -1628
99.273102 98.290703 200.73801 10398362 -1675
99.273903 98.292702 200.73801 9609374 -1682
99.2724 98.2892 200.735 9086626 -1684
99.272903 98.290398 200.73399 10398360 -1689
99.272598 98.289902 200.73199 10398866 -1668
99.271599 98.287399 200.73 9478274 -1655
99.273598 98.291901 200.731 9480336 -1661
99.271599 98.287201 200.72701 9744540 -1684
99.272903 98.290398 200.72701 9873042 -1697
99.271896 98.287903 200.72501 10529426 -1701
99.273102 98.290398 200.72501 10662548 -1701
99.273399 98.291702 200.724 10398866 -1703
99.272102 98.2882 200.72099 11186842 -1702
99.271599 98.287201 200.71899 9608322 -1686
99.271599 98.287201 200.718 10790544 -1682
99.2724 98.288902 200.717 9612432 -1657
99.2724 98.2892 200.716 10009242 -1630
99.2724 98.288902 200.714 10792606 -1615
99.272102 98.288399 200.713 11184288 -1604
99.271896 98.287903 200.711 10657434 -1606
99.271896 98.287903 200.71001 10924702 -1607
99.273102 98.290901 200.71001 10530966 -1599
99.271896 98.287903 200.707 10398866 -1596
99.271896 98.287903 200.70599 10662552 -1593
99.2724 98.288902 200.705 10401446 -1587
99.272903 98.290199 200.70399 10531488 -1598
99.2724 98.288902 200.702 10793632 -1601
99.270599 98.287697 200.703 9614484 -1602
99.271103 98.288902 200.705 9876632 -1597
99.270897 98.288696 200.70599 10269852 -1588
99.270103 98.286697 200.707 10793118 -1603
99.271599 98.290199 200.71001 10792608 -1595
99.270897 98.288399 200.71001 10659988 -1603
99.269897 98.286201 200.711 10923154 -1615
99.271103 98.289398 200.713 10399388 -1595
99.271599 98.290199 200.715 9611926 -1605
99.270599 98.287903 200.716 9745044 -1630
99.2696 98.2854 200.716 10136204 -1653
99.2686 98.283203 200.716 11055256 -1670
99.270401 98.287201 200.71899 9608844 -1693
99.269402 98.285202 200.72 9873560 -1689
99.270103 98.286903 200.722 10530454 -1693
99.271896 98.290703 200.72501 10135184 -1690
99.2714 98.289703 200.726 10398360 -1701
99.270897 98.288696 200.72701 9872014 -1689
99.2724 98.292198 200.73 10660504 -1686
99.271103 98.288902 200.729 10264214 -1679
99.2714 98.289398 200.731 10135192 -1681
99.2724 98.291901 200.73399 9609864 -1685
99.270897 98.288399 200.733 10266770 -1697
99.270103 98.2864 200.73399 10398878 -1680
99.271599 98.289902 200.737 10398874 -1686
99.271896 98.290901 200.739 10661016 -1679
99.271103 98.288902 200.739 10266260 -1637
99.271896 98.290703 200.741 10135702 -1534
99.270401 98.287201 200.741 10530976 -1507
99.269096 98.284698 200.741 10661520 -1520
99.269096 98.284401 200.743 10137232 -1545
99.267899 98.281403 200.742 9217688 -1573
99.266403 98.277702 200.742 9873560 -1590
99.265404 98.275703 200.743 11448488 -1600
99.263901 98.2724 200.742 12896962 -1587
99.261597 98.266899 200.741 15792890 -1590
99.261902 98.267403 200.743 16054520 -1587
99.259598 98.262199 200.742 16711418 -1599
99.259399 98.261398 200.743 16710910 -1599
99.256897 98.255699 200.742 16706292 -1595
99.255898 98.253403 200.742 15991816 -1601
99.255402 98.252403 200.743 16515584 -1591
99.253601 98.247902 200.742 14290960 -1598
99.251602 98.243698 200.742 16711418 -1595
99.250397 98.240196 200.741 16316662 -1602
99.248901 98.237198 200.741 15924990 -1592
99.246597 98.231903 200.74001 16056062 -1589
99.246597 98.231903 200.742 16710398 -1602
99.245903 98.232903 200.743 16056062 -1600
99.246101 98.233704 200.742 16710398 -1601
99.247101 98.235901 200.741 16579838 -1595
99.247597 98.2369 200.74001 16186618 -1589
99.251099 98.245399 200.743 16563380 -1591
99.251602 98.246201 200.742 15991312 -1592
99.252098 98.247398 200.741 16647168 -1591
99.255096 98.2547 200.743 16515072 -1588
99.2556 98.256203 200.742 16702690 -1585
99.256401 98.257698 200.742 16449278 -1598
99.256897 98.258698 200.741 16318200 -1597
99.258904 98.262901 200.741 16448246 -1596
99.259598 98.2649 200.741 16318206 -1601
99.261398 98.268898 200.741 12765886 -1597
99.262398 98.2714 200.741 10793122 -1585
99.264397 98.276199 200.742 10791574 -1595
99.265602 98.279198 200.742 10004118 -1576
99.266602 98.281197 200.742 9875096 -1534
99.267403 98.282898 200.741 10005648 -1505
99.268898 98.286697 200.741 10661532 -1506
99.2686 98.285896 200.74001 9873560 -1559
99.2686 98.285896 200.73801 9741974 -1632
99.268898 98.2864 200.737 10003092 -1670
99.268097 98.284897 200.735 10135186 -1679
99.2696 98.288696 200.73599 10398868 -1681
99.269897 98.2892 200.73399 10135202 -1673
99.2696 98.288399 200.733 9214084 -1689
99.269096 98.286903 200.731 9873550 -1686
99.268402 98.2854 200.729 9740936 -1689
99.270401 98.290398 200.73 11054732 -1685
99.2686 98.285896 200.726 10266246 -1680
99.268402 98.2854 200.72501 9872524 -1703
99.267899 98.284203 200.72301 9740434 -1696
99.269402 98.287903 200.72301 9872014 -1691
99.268402 98.285698 200.72099 10005150 -1695
99.269096 98.287399 200.72 9478812 -1693
99.268898 98.286903 200.71899 10266258 -1676
99.269096 98.287201 200.717 10528918 -1657
99.268402 98.285698 200.715 10004622 -1626
99.2686 98.286201 200.714 9744020 -1620
99.267601 98.283897 200.71201 9611928 -1608
99.268402 98.285698 200.711 10398864 -1595
99.2686 98.286201 200.71001 10924690 -1597
99.268097 98.284897 200.70799 10397838 -1598
99.268898 98.2864 200.707 10529948 -1606
99.268898 98.2864 200.70599 10793632 -1600
99.2686 98.285896 200.70399 10006170 -1594
99.268402 98.2854 200.703 9745048 -1604
99.2696 98.288399 200.703 10662044 -1613
99.265602 98.282204 200.701 10270372 -1597
99.267403 98.286201 200.705 10793122 -1605
99.267097 98.285202 200.70599 10924702 -1604
99.266098 98.283401 200.70599 10794138 -1597
99.266899 98.284897 200.70799 10399376 -1601
99.267601 98.286697 200.71001 10794642 -1604
99.267403 98.285698 200.711 10531992 -1606
99.266602 98.283897 200.71201 10137754 -1609
99.267097 98.285698 200.714 10663586 -1607
99.267601 98.2864 200.716 10398876 -1621
99.267097 98.285698 200.717 10398364 -1637
99.268097 98.287697 200.71899 9478296 -1666
99.267601 98.2864 200.72 9347228 -1684
99.267899 98.287399 200.722 9741448 -1695
99.266602 98.284401 200.722 9872520 -1686
99.266602 98.284401 200.72301 10398876 -1699
99.267601 98.2864 200.72501 9214592 -1697
99.267403 98.286201 200.726 10661510 -1688
99.268097 98.287697 200.728 10397824 -1690
99.267403 98.2864 200.729 10267276 -1688
99.268097 98.287697 200.731 9740944 -1680
99.265404 98.281403 200.73 10398362 -1697
99.268898 98.289398 200.735 9872530 -1691
99.2659 98.2827 200.733 10136208 -1689
99.267403 98.285896 200.73599 10003610 -1684
99.267899 98.287399 200.73801 9740958 -1673
99.267601 98.2864 200.739 9480344 -1655
99.267601 98.2864 200.74001 9348244 -1581
99.268097 98.287399 200.742 9872532 -1522
99.266403 98.283897 200.742 10004624 -1512
99.264603 98.279701 200.741 10267286 -1536
99.262604 98.274902 200.74001 10397334 -1572
99.2631 98.276199 200.742 11447446 -1584
99.260597 98.270203 200.741 10662560 -1597
99.259102 98.266701 200.741 12633784 -1590
99.259102 98.266899 200.742 15791350 -1602
99.257103 98.262199 200.741 16187134 -1596
99.257103 98.262398 200.743 16710902 -1593
99.255096 98.257896 200.742 15793910 -1590
99.253899 98.2547 200.742 16709364 -1595
99.2519 98.249702 200.741 16013400 -1592
99.251099 98.248398 200.742 16515072 -1601
99.249603 98.2444 200.741 16515080 -1597
99.2481 98.240898 200.741 15092816 -1601
99.246399 98.237198 200.741 15662846 -1605
99.245399 98.234398 200.741 16449278 -1599
99.245399 98.234703 200.743 16579830 -1609
99.242599 98.231201 200.742 16709356 -1611
99.244102 98.235199 200.742 15924990 -1597
99.245903 98.238899 200.742 16709880 -1598
99.246902 98.241699 200.742 16687258 -1599
99.248596 98.245697 200.743 16646144 -1597
99.249901 98.248398 200.742 16515072 -1593
99.251099 98.251198 200.742 14427684 -1598
99.2519 98.253197 200.742 16705766 -1589
99.253098 98.255898 200.742 15269630 -1588
99.254898 98.259903 200.742 16709882 -1597
99.255898 98.262398 200.742 16317176 -1597
99.258102 98.267403 200.743 14213852 -1597
99.258102 98.267403 200.742 13158588 -1600
99.259903 98.271698 200.742 10009250 -1612
99.260597 98.273201 200.741 10268830 -1587
99.261902 98.276199 200.741 10790040 -1580
99.263603 98.280403 200.742 10267286 -1540
99.2649 98.282898 200.742 10136722 -1515
99.264603 98.282402 200.74001 10530460 -1516
99.264397 98.281898 200.739 9741976 -1593
99.265602 98.284698 200.739 9480854 -1655
99.265404 98.284203 200.737 9610906 -1682
99.2649 98.282898 200.735 9740958 -1681
99.265404 98.284401 200.73399 10004112 -1691
99.2649 98.283203 200.73199 10399378 -1691
99.266403 98.2864 200.733 10134686 -1692
99.265099 98.283699 200.73 10004114 -1696
99.264397 98.281898 200.728 10529944 -1686
99.2659 98.285698 200.728 10135700 -1696
99.265602 98.284698 200.726 10397838 -1704
99.265404 98.284203 200.72501 10661004 -1693
99.265099 98.283699 200.72301 9872522 -1705
99.265404 98.284698 200.722 10136204 -1699
99.267899 98.290398 200.724 9873538 -1691
99.265404 98.284203 200.71899 9610894 -1686
99.266403 98.286697 200.71899 9742492 -1674
99.264603 98.2827 200.716 9610390 -1634
99.264397 98.282204 200.714 10661024 -1614
99.2649 98.283203 200.713 10530462 -1617
99.264603 98.282402 200.71201 9742484 -1617
99.264397 98.2817 200.71001 10137238 -1611
99.2649 98.282898 200.709 10794648 -1608
99.263901 98.280701 200.707 10399894 -1601
99.265099 98.283897 200.707 10662560 -1598
99.265602 98.284897 200.70599 10793624 -1605
99.264603 98.282898 200.70399 11187356 -1592
99.265099 98.283897 200.703 10925222 -1599
99.2621 98.279701 200.701 11054734 -1593
99.264603 98.285202 200.705 11055244 -1598
99.264099 98.284203 200.70599 10530982 -1591
99.2631 98.281898 200.70599 10136234 -1592
99.2621 98.279701 200.707 10267292 -1605
99.262901 98.281403 200.709 10662040 -1609
99.2631 98.282204 200.711 10530452 -1611
99.2621 98.279701 200.711 10267282 -1625
99.263901 98.283699 200.714 10529944 -1606
99.264099 98.284401 200.716 9744016 -1613
99.262604 98.280701 200.715 10138264 -1630
99.262901 98.281403 200.717 9611404 -1663
99.262901 98.2817 200.71899 10795156 -1685
99.2631 98.281898 200.72 10400400 -1694
99.264099 98.284401 200.72301 10135688 -1691
99.263397 98.282402 200.72301 10398862 -1700
99.265404 98.287201 200.72701 10003094 -1691
99.264099 98.284698 200.72701 10529444 -1692
99.263397 98.282402 200.72701 9477766 -1692
99.2649 98.2864 200.73 10267280 -1693
99.2631 98.281898 200.729 10530460 -1688
99.263603 98.283203 200.73199 9740940 -1690
99.2659 98.2882 200.735 10267792 -1685
99.264603 98.285698 200.735 10267292 -1690
99.264099 98.284203 200.73599 9609362 -1683
99.264397 98.285202 200.73801 10269344 -1680
99.263397 98.2827 200.73801 10005146 -1672
99.264099 98.284401 200.74001 10136728 -1601
99.262604 98.280899 200.74001 10137236 -1534
99.2631 98.281898 200.742 10398878 -1526
99.262398 98.2799 200.742 10135196 -1540
99.260399 98.275398 200.742 9086622 -1574
99.259598 98.273697 200.742 10005652 -1596
99.2584 98.270699 200.742 9482394 -1601
99.257103 98.2677 200.742 11583150 -1599
99.2556 98.264702 200.742 14738630 -1594
99.253601 98.259903 200.741 15924990 -1590
99.252602 98.257896 200.742 16579838 -1599
99.251404 98.2547 200.742 16711418 -1594
99.249901 98.251198 200.741 16710392 -1599
99.247902 98.246902 200.741 16413302 -1603
99.248596 98.248703 200.743 16646144 -1603
99.244904 98.2397 200.74001 16646656 -1601
99.244102 98.237396 200.741 14040130 -1598
99.244598 98.238899 200.743 16708854 -1593
99.242897 98.234703 200.742 16187134 -1596
99.2416 98.231697 200.742 16710388 -1593
99.240097 98.230904 200.741 15924988 -1607
99.242897 98.237198 200.742 16708858 -1601
99.243599 98.239403 200.742 14813710 -1600
99.243896 98.2397 200.741 16646656 -1602
99.245102 98.243202 200.741 16646656 -1594
99.246101 98.245697 200.741 13384252 -1597
99.249397 98.252899 200.743 15924990 -1591
99.249397 98.252899 200.741 15269620 -1599
99.251404 98.257896 200.742 16709884 -1595
99.252403 98.260399 200.742 15138040 -1591
99.252098 98.259399 200.74001 14608086 -1586
99.257103 98.270897 200.744 10793632 -1588
99.256599 98.269699 200.742 10008238 -1588
99.257896 98.2724 200.742 10661018 -1593
99.258598 98.274399 200.742 10662552 -1561
99.259102 98.275703 200.741 10005152 -1538
99.260399 98.278702 200.741 9873052 -1518
99.261101 98.280197 200.74001 10136728 -1549
99.261398 98.281197 200.739 10137234 -1619
99.261597 98.281403 200.73801 9874070 -1669
99.261101 98.280197 200.73599 10530464 -1682
99.261398 98.281197 200.735 9872528 -1690
99.261101 98.280197 200.733 10135186 -1686
99.260597 98.2789 200.731 10135696 -1684
99.2631 98.284897 200.733 9609864 -1693
99.261902 98.281898 200.73 10663068 -1697
99.261101 98.280403 200.728 10135694 -1688
99.261398 98.280899 200.72701 10398866 -1693
99.261101 98.280403 200.72501 10134676 -1696
99.259903 98.277397 200.72301 9608848 -1692
99.261101 98.280197 200.72301 10135692 -1696
99.261101 98.280197 200.72099 10398860 -1695
99.261902 98.282204 200.72099 10530966 -1692
99.2621 98.2827 200.72 10005136 -1688
99.260101 98.277702 200.716 10531992 -1667
99.261597 98.281403 200.716 10137244 -1640
99.260597 98.279198 200.714 10138268 -1624
99.260101 98.278198 200.71201 10660508 -1604
99.261398 98.280701 200.71201 10792606 -1617
99.260399 98.278198 200.709 10398866 -1616
99.261398 98.280701 200.709 10530452 -1607
99.260902 98.2799 200.707 10662040 -1619
99.259598 98.276901 200.70399 10793646 -1606
99.261101 98.2799 200.705 10399404 -1603
99.260597 98.279198 200.703 11056278 -1596
99.262398 98.283401 200.703 11186828 -1595
99.259399 98.2789 200.703 11056802 -1604
99.258598 98.277702 200.70399 10793116 -1606
99.2584 98.276901 200.705 10924698 -1600
99.259903 98.2799 200.70799 10266770 -1607
99.259903 98.280197 200.709 10529948 -1604
99.260101 98.280899 200.711 10662046 -1599
99.259598 98.279701 200.71201 10660508 -1597
99.259399 98.2789 200.713 10139296 -1608
99.259598 98.279404 200.715 10136232 -1604
99.2584 98.276901 200.715 9873050 -1639
99.261101 98.283401 200.71899 10531484 -1659
99.260101 98.280899 200.72 10135186 -1676
99.260399 98.2817 200.72099 10529940 -1693
99.260101 98.280899 200.722 10004612 -1694
99.259102 98.278702 200.72301 10005120 -1696
99.260597 98.282204 200.72501 10266768 -1701
99.260597 98.281898 200.72701 10267280 -1697
99.260399 98.281197 200.728 10266772 -1696
99.260902 98.2827 200.73 10663578 -1690
99.259399 98.279404 200.73 9478278 -1690
99.258904 98.277901 200.73 10267284 -1699
99.260902 98.2827 200.73399 10135698 -1687
99.260399 98.281197 200.735 10397840 -1695
99.260597 98.281898 200.73599 10135188 -1684
99.260597 98.2817 200.73801 10004630 -1693
99.260902 98.2827 200.739 9611916 -1669
99.258904 98.278198 200.739 10136728 -1630
99.260902 98.2827 200.742 10004640 -1549
99.259102 98.278397 200.742 9611936 -1533
99.2584 98.276901 200.742 9482886 -1549
99.255898 98.270897 200.741 10137250 -1595
99.253601 98.2659 200.74001 10005146 -1606
99.254601 98.268204 200.742 10004630 -1622
99.253098 98.264397 200.742 13161158 -1599
99.252602 98.263397 200.743 15264486 -1602
99.250099 98.257896 200.742 16579326 -1596
99.249901 98.256897 200.743 16449278 -1583
99.248596 98.254204 200.743 16056054 -1586
99.246902 98.250397 200.742 16056054 -1595
99.245102 98.246201 200.742 16682126 -1604
99.243896 98.242897 200.742 16384000 -1594
99.242599 98.2397 200.742 16648192 -1605
99.242104 98.238701 200.743 13118510 -1602
99.240402 98.234901 200.742 16705774 -1606
99.238403 98.232697 200.741 16705780 -1600
99.240898 98.238899 200.743 15076360 -1590
99.242104 98.241898 200.743 16647168 -1599
99.241898 98.241203 200.741 15728644 -1604
99.244102 98.246399 200.742 16709358 -1604
99.245102 98.248901 200.742 16579326 -1598
99.246399 98.252403 200.742 16056054 -1603
99.246902 98.253403 200.741 16056062 -1599
99.249397 98.258904 200.742 16317182 -1593
99.2509 98.262398 200.743 12633792 -1602
99.250603 98.261902 200.741 11187884 -1616
99.252899 98.266701 200.742 10663076 -1598
99.254601 98.270699 200.742 9874070 -1588
99.2556 98.273201 200.742 9745564 -1572
99.255096 98.2724 200.74001 9481362 -1568
99.257103 98.276703 200.741 9218204 -1553
99.256401 98.2752 200.739 9874084 -1593
99.258598 98.280403 200.74001 10399898 -1653
99.257896 98.278702 200.73801 10138256 -1684
99.257896 98.278702 200.73599 10005146 -1682
99.257896 98.278702 200.735 10003098 -1685
99.257401 98.277199 200.733 10660500 -1683
99.257401 98.277702 200.73199 10398354 -1683
99.256897 98.276398 200.73 10136212 -1691
99.257599 98.277901 200.729 10136208 -1691
99.257599 98.277901 200.728 10268302 -1694
99.257401 98.277199 200.726 10004118 -1697
99.257896 98.278397 200.72501 9872018 -1693
99.258102 98.2789 200.724 10398352 -1702
99.257401 98.277702 200.722 10005124 -1699
99.257896 98.278397 200.72099 9741438 -1690
99.259399 98.281898 200.72099 10003080 -1687
99.257103 98.276703 200.718 10397846 -1669
99.257599 98.277901 200.717 9741956 -1654
99.256599 98.275703 200.714 10399888 -1626
99.256897 98.276199 200.713 9872546 -1607
99.257401 98.277199 200.71201 9743010 -1610
99.258102 98.2789 200.71201 10924184 -1602
99.257103 98.276703 200.709 11056796 -1610
99.257401 98.277199 200.70799 10662046 -1608
99.257599 98.277702 200.707 11056296 -1599
99.257599 98.277702 200.70599 10924192 -1605
99.256401 98.274696 200.703 10266772 -1601
99.258598 98.280403 200.70399 11187878 -1602
99.254898 98.274696 200.702 10923678 -1605
99.256401 98.277901 200.705 10265750 -1600
99.255096 98.274696 200.705 10529954 -1597
99.256401 98.277901 200.70799 10136728 -1611
99.2556 98.276199 200.70799 10138254 -1608
99.254898 98.274696 200.709 10793620 -1614
99.254898 98.274399 200.71001 10139806 -1606
99.256104 98.277199 200.713 10006180 -1603
99.255402 98.275398 200.713 10398874 -1608
99.256401 98.278198 200.716 10399882 -1616
99.256897 98.279404 200.718 10267280 -1644
99.256599 98.278397 200.71899 10002062 -1675
99.256897 98.279198 200.72099 10004612 -1679
99.255898 98.276703 200.72099 10005636 -1695
99.256401 98.278198 200.72301 10267786 -1690
99.257599 98.280899 200.72501 10134674 -1698
99.256104 98.277702 200.72501 10266262 -1695
99.255096 98.274696 200.72501 10269326 -1694
99.257401 98.2799 200.729 9610372 -1693
99.2556 98.276398 200.729 10267288 -1697
99.255898 98.277199 200.73 9610388 -1687
99.2556 98.276199 200.731 10792604 -1687
99.255898 98.276901 200.733 10397340 -1692
99.255096 98.2752 200.73399 9479320 -1693
99.255402 98.275902 200.735 9480846 -1691
99.2556 98.276398 200.737 10136208 -1673
99.256401 98.277901 200.739 10135708 -1658
99.256104 98.277397 200.74001 9742492 -1586
99.2556 98.276199 200.741 10005654 -1554
99.255402 98.275703 200.742 8955534 -1542
99.2556 98.276199 200.744 9087120 -1560
99.252602 98.269402 200.742 11056812 -1581
99.251099 98.2659 200.742 10529958 -1611
99.249901 98.262901 200.742 10399386 -1601
99.248901 98.260902 200.742 12110512 -1599
99.246399 98.255203 200.741 15792368 -1608
99.245598 98.253403 200.742 16053492 -1600
99.244598 98.2509 200.742 16318206 -1591
99.243896 98.248398 200.742 15269630 -1595
99.242401 98.245201 200.742 16708854 -1593
99.239899 98.239197 200.741 14161430 -1592
99.238403 98.235901 200.741 16515072 -1590
99.237396 98.233902 200.741 16384000 -1595
99.236603 98.231903 200.741 13640740 -1604
99.2351 98.2314 200.741 14305866 -1605
99.236603 98.234703 200.741 16647168 -1591
99.236603 98.235199 200.74001 16646656 -1606
99.239098 98.240402 200.741 14183528 -1598
99.241898 98.2472 200.743 16186618 -1591
99.242897 98.249397 200.743 16711422 -1592
99.243401 98.250397 200.742 16317182 -1597
99.244102 98.252197 200.741 16711422 -1603
99.245903 98.256699 200.742 14214872 -1600
99.2481 98.261703 200.743 12243642 -1591
99.247902 98.261703 200.741 10662046 -1591
99.249397 98.264702 200.741 10135702 -1591
99.251404 98.269203 200.742 10531478 -1570
99.252403 98.271896 200.742 10266782 -1553
99.253899 98.274902 200.742 10529448 -1553
99.254097 98.275398 200.741 9480852 -1580
99.254097 98.275902 200.74001 10006174 -1626
99.253899 98.2752 200.73801 10792084 -1670
99.254601 98.276703 200.737 10529934 -1686
99.253601 98.274696 200.735 9349784 -1680
99.253601 98.274696 200.73399 9217698 -1686
99.254898 98.277397 200.73399 10266786 -1693
99.254097 98.275703 200.731 9872540 -1690
99.254898 98.277397 200.731 9873058 -1691
99.254601 98.276703 200.729 9478802 -1687
99.255402 98.278397 200.729 10136206 -1693
99.253601 98.274696 200.72501 10005130 -1696
99.253403 98.273903 200.724 10136204 -1696
99.253403 98.273697 200.722 10135176 -1694
99.254097 98.275902 200.722 10003598 -1695
99.253098 98.273201 200.71899 10136724 -1690
99.252899 98.273201 200.718 10267788 -1678
99.2556 98.279404 200.72 10660496 -1659
99.252602 98.2724 200.715 10529426 -1627
99.252403 98.271698 200.713 10530962 -1613
99.252899 98.272697 200.71201 10662550 -1603
99.252602 98.271896 200.71001 10530462 -1601
99.252602 98.2724 200.709 10532510 -1608
99.253403 98.2742 200.709 10661534 -1602
99.253403 98.273903 200.707 10399894 -1603
99.253899 98.274902 200.70599 10270362 -1608
99.252899 98.272903 200.70399 10006172 -1599
99.253403 98.2742 200.703 10661012 -1607
99.252098 98.273903 200.70399 9480338 -1598
99.251099 98.271896 200.70399 10400924 -1600
99.251602 98.273201 200.70599 10533532 -1607
99.252098 98.273903 200.70799 10266274 -1605
99.252899 98.275398 200.71001 9877136 -1610
99.252602 98.274902 200.711 10398358 -1612
99.250099 98.269699 200.71001 10661010 -1611
99.251099 98.271698 200.713 9872526 -1605
99.252098 98.273697 200.715 10660502 -1618
99.252403 98.274696 200.717 11054742 -1635
99.251602 98.272697 200.717 10530960 -1666
99.252098 98.273903 200.71899 10005138 -1678
99.251404 98.272202 200.72 10398354 -1696
99.252403 98.274696 200.722 10397832 -1694
99.251602 98.272903 200.72301 9873028 -1694
99.253098 98.276199 200.72501 9610374 -1698
99.251404 98.2724 200.72501 10136718 -1693
99.2519 98.273399 200.72701 9215630 -1696
99.253601 98.277702 200.73 9742502 -1689
99.252403 98.274399 200.73 10267304 -1688
99.252098 98.273903 200.731 10266788 -1685
99.254601 98.279701 200.73599 9217698 -1699
99.252899 98.275703 200.735 9481374 -1685
99.252403 98.274696 200.73599 10661004 -1688
99.252098 98.273697 200.737 10923152 -1680
99.251404 98.272202 200.73801 9741974 -1668
99.252899 98.275902 200.741 9481372 -1622
99.2519 98.273399 200.741 10657960 -1566
99.2509 98.2714 200.741 10923174 -1539
99.250397 98.269897 200.742 10138248 -1552
99.249397 98.2677 200.742 10136714 -1570
99.247902 98.263901 200.742 10267292 -1581
99.246902 98.262199 200.742 9743000 -1579
99.245903 98.259903 200.743 11848378 -1592
99.243401 98.2537 200.741 15266542 -1599
99.241898 98.250198 200.741 16056054 -1597
99.241096 98.248398 200.742 16707834 -1604
99.240097 98.245697 200.742 15793916 -1607
99.238899 98.242897 200.742 16711414 -1607
99.237396 98.2397 200.742 16697036 -1594
99.235397 98.235199 200.741 15991814 -1606
99.233398 98.233398 200.742 16646656 -1612
99.234901 98.2369 200.743 16646656 -1609
99.235603 98.238403 200.742 16549000 -1604
99.2369 98.241203 200.742 16707826 -1595
99.239403 98.247398 200.743 15531766 -1599
99.240402 98.249702 200.743 16187132 -1595
99.240898 98.250702 200.742 16187126 -1591
99.242104 98.2537 200.742 13950682 -1600
99.242599 98.254402 200.741 11976888 -1597
99.2444 98.259201 200.742 10529426 -1587
99.245903 98.262398 200.742 10528408 -1585
99.248901 98.269402 200.744 10397342 -1574
99.247597 98.266403 200.741 10267286 -1534
99.249901 98.2714 200.742 10269334 -1537
99.250099 98.272202 200.741 9611412 -1578
99.251404 98.2752 200.741 10398880 -1617
99.249901 98.2714 200.73801 10267288 -1662
99.250099 98.271896 200.737 9873044 -1684
99.250603 98.273697 200.73599 10269334 -1696
99.249901 98.271698 200.73399 11053732 -1694
99.251404 98.275398 200.73399 10397862 -1688
99.250397 98.272903 200.73199 10004638 -1694
99.249901 98.2714 200.73 10396826 -1688
99.249397 98.270699 200.728 10527388 -1684
99.249901 98.2714 200.72701 9479320 -1687
99.251602 98.275703 200.72701 9609358 -1703
99.2509 98.273903 200.72501 10397838 -1700
99.252098 98.276901 200.72501 10005644 -1697
99.250099 98.272202 200.722 10135176 -1698
99.250397 98.272697 200.72099 10134658 -1696
99.249901 98.271698 200.71899 10134668 -1681
99.250099 98.2724 200.718 10790550 -1668
99.249901 98.271896 200.716 10790544 -1644
99.251099 98.274399 200.716 9744016 -1613
99.249603 98.2714 200.713 10401954 -1605
99.250397 98.272697 200.71201 10528408 -1609
99.250099 98.271896 200.711 10923670 -1618
99.249397 98.270699 200.709 10136722 -1609
99.2491 98.269699 200.707 10662560 -1604
