# .PCD v0.7 - Point Cloud Data file format
VERSION 0.7
FIELDS x y z
SIZE 4 4 4
TYPE F F F
COUNT 1 1 1
WIDTH 1442
HEIGHT 1
VIEWPOINT 0 0 0 1 0 0 0
POINTS 1442
DATA ascii
-23.01339 -23.01339 649.2608
-20.420059 -22.972561 648.12677
-17.86112 -22.9643 647.89709
-15.30378 -22.955669 647.65741
-12.73596 -22.924721 646.79779
-10.18949 -22.92634 646.84277
-7.6352148 -22.905649 646.26788
-5.083024 -22.87361 645.37799
-2.5354719 -22.81925 643.86798
0 -22.786489 642.95789
2.530592 -22.77533 642.64789
5.0561838 -22.752831 642.02307
7.5839791 -22.75194 641.99823
10.09678 -22.717751 641.04852
12.60788 -22.69418 640.39398
15.09888 -22.64831 639.11981
17.61356 -22.646 639.05548
20.127411 -22.64333 638.98138
-28.08217 -20.423389 648.23108
-25.301809 -20.24144 642.5451
-22.63236 -20.117649 638.67657
-20.11058 -20.11058 638.45563
-17.60737 -20.122709 638.83459
-15.09357 -20.124769 638.89893
-12.57907 -20.126511 638.95343
-10.05909 -20.11817 638.69287
-7.54107 -20.10952 638.42242
-5.0178161 -20.07126 637.22711
-2.5089669 -20.071739 637.24182
0 -20.071899 637.24683
2.5089669 -20.071739 637.24182
5.0178161 -20.07126 637.22711
7.522768 -20.060711 636.89728
10.02981 -20.05961 636.86292
12.53637 -20.058189 636.81848
15.0277 -20.03694 636.15442
17.547609 -20.054411 636.7002
20.07156 -20.07156 637.23608
22.588461 -20.07863 637.45721
25.131121 -20.104891 638.27802
-28.018419 -17.829901 646.78229
-25.146271 -17.60239 638.6568
-22.62405 -17.596479 638.4458
-20.083679 -17.573219 637.61499
-17.60091 -17.60091 638.60388
-15.08804 -17.602711 638.66821
-12.56835 -17.59569 638.41748
-10.04563 -17.579849 637.85193
-7.5309768 -17.572281 637.58142
-5.0159678 -17.555889 636.99597
-2.5080431 -17.556299 637.0108
0 -17.55644 637.01569
2.5068231 -17.54776 636.70569
5.0135269 -17.54735 636.69092
7.5126739 -17.52957 636.05621
10.01635 -17.52861 636.02173
12.51955 -17.52737 635.97742
15.01484 -17.517309 635.61823
17.54114 -17.54114 636.46918
20.064159 -17.556141 637.00513
22.580139 -17.56233 637.22632
25.207239 -17.645069 640.18103
-25.368349 -15.22101 644.20868
-22.834921 -15.22328 644.30328
-20.310181 -15.23263 644.69312
-17.78204 -15.24175 645.073
-15.24331 -15.24331 645.13788
-12.70386 -15.24463 645.19287
-10.15404 -15.23107 644.62769
-7.6122909 -15.22458 644.3576
-5.0604162 -15.18125 642.55188
-2.530268 -15.18161 642.56689
0 -15.16708 641.96167
2.5266061 -15.15964 641.65161
5.050653 -15.15196 641.33148
7.5720201 -15.14404 641.00159
10.09547 -15.1432 640.96692
12.60624 -15.12749 640.31207
15.11154 -15.11154 639.64752
17.636869 -15.11731 639.88812
20.163799 -15.12285 640.11877
22.71417 -15.14278 640.94928
25.575661 -15.34539 649.39142
-38.29982 -2.5533209 648.33032
-35.532799 -2.5380571 644.51428
-32.764011 -2.520308 640.07703
-30.513029 -2.542752 645.68799
28.1229 -2.556628 649.15692
-37.989368 0 643.15619
-34.850498 0 632.33032
-32.288792 0 630.93842
-29.766991 0 630.14569
-27.103519 0 625.98907
-24.44846 0 621.21149
-21.93004 0 619.16779
-19.49597 0 619.24921
-17.060989 0 619.32098
-14.6252 0 619.38342
-12.21313 0 620.65668
-9.7809639 0 621.31018
-7.3361268 0 621.34387
-4.890944 0 621.36798
-2.445529 0 621.38239
0 0 619.55603
2.433322 0 618.33038
4.8567619 0 617.09528
7.259222 0 614.93518
9.668664 0 614.2915
12.08497 0 614.24872
14.50071 0 614.19647
16.924311 0 614.43982
19.34955 0 614.67352
21.77632 0 614.89771
24.289881 0 617.24707
27.37184 0 632.08728
30.07428 0 636.54749
33.049549 0 645.56818
-37.678329 2.511889 637.97223
-34.816101 2.4868641 631.716
-32.24099 2.4800761 630.0191
-29.591169 2.4659309 626.48273
-26.902069 2.4456429 621.41083
-24.265301 2.4265289 616.63239
-21.78713 2.4207921 615.19788
-19.359159 2.4198949 614.97382
-16.941271 2.420181 615.04523
-14.50792 2.4179871 614.49683
-12.09098 2.418196 614.54907
-9.6783533 2.4195881 614.89709
-7.2591648 2.4197221 614.93042
-4.8445172 2.4222579 615.56458
-2.4210949 2.4210949 615.27368
0 2.419893 614.97333
2.418653 2.418653 614.66333
4.8347511 2.4173751 614.34381
7.2445159 2.414839 613.70972
9.6539402 2.4134851 613.37128
12.06657 2.4133141 613.32861
14.47863 2.413105 613.27643
16.907089 2.4152989 613.82483
19.32988 2.416235 614.05872
21.732229 2.4146919 613.67297
24.19211 2.4192109 614.80267
26.83499 2.4395449 619.88623
29.91309 2.4927571 633.18927
32.700611 2.5154319 638.85791
-37.586048 5.0114741 636.4342
-34.83234 4.9760489 632.0061
-32.208542 4.9551601 629.39502
-29.48805 4.9146738 624.33429
-26.68679 4.8521438 616.51801
-24.19154 4.8383069 614.78839
-21.742689 4.8317099 613.96368
-19.31966 4.829915 613.73938
-16.898161 4.8280439 613.50562
-14.47097 4.8236561 612.95697
-12.06018 4.8240738 613.00922
-9.6488304 4.8244152 613.05188
-7.2406831 4.8271222 613.39032
-4.8297529 4.8297529 613.71918
-2.4149339 4.8298669 613.73352
0 4.829906 613.73822
2.4149339 4.8298669 613.73352
4.8297529 4.8297529 613.71918
7.237021 4.8246808 613.08508
9.6488304 4.8244152 613.05188
12.06018 4.8240738 613.00922
14.47829 4.826097 613.26208
16.9067 4.8304849 613.81061
19.31966 4.829915 613.73938
21.709749 4.8243899 613.04883
24.13055 4.8261089 613.26367
26.6063 4.8375092 614.68872
29.83922 4.9732041 631.65051
32.620602 5.0185528 637.31921
-37.602859 7.5205712 636.71417
-34.88216 7.47475 632.89581
-32.175579 7.4251332 628.76111
-29.325939 7.3314848 620.95709
-26.6455 7.2669539 615.57953
-24.178391 7.2535172 614.45972
-21.74184 7.2472801 613.94
-19.328659 7.2482481 614.02069
-16.89749 7.2417822 613.48181
-14.47772 7.238862 613.2384
-12.05971 7.235826 612.98547
-9.6484509 7.2363391 613.0282
-7.2403979 7.2403979 613.36652
-4.8271222 7.2406831 613.39032
-2.414839 7.2445159 613.70972
0 7.2445731 613.71442
2.414839 7.2445159 613.70972
4.8271222 7.2406831 613.39032
7.2403979 7.2403979 613.36652
9.6533327 7.2399998 613.33331
12.06581 7.2394872 613.29059
14.49237 7.2461829 613.84857
16.91457 7.2491031 614.09192
19.328659 7.2482481 614.02069
21.719879 7.2399602 613.33002
24.129601 7.2388802 613.23999
26.591841 7.2523198 614.35999
29.85268 7.4631701 631.93079
32.666859 7.538506 638.20892
-37.619068 10.03175 636.98438
-34.931431 9.9804096 633.77557
-32.14212 9.8898811 628.11761
-29.19265 9.7308836 618.18018
-26.644039 9.6887398 615.54633
-24.189251 9.6757021 614.73138
-21.7626 9.672267 614.51672
-19.33736 9.6686792 614.29248
-16.913639 9.6649389 614.05872
-14.49889 9.6659269 614.12042
-12.07125 9.6569996 613.5625
-9.6576834 9.6576834 613.60522
-7.2436609 9.6582165 613.63843
-4.829298 9.6585951 613.66217
-2.414706 9.658823 613.67651
0 9.6588993 613.68121
2.414706 9.658823 613.67651
4.8268561 9.6537123 613.35712
7.2399998 9.6533327 613.33331
9.6576834 9.6576834 613.60522
12.07735 9.6618814 613.86761
14.49889 9.6659269 614.12042
16.930731 9.6746998 614.66882
19.34712 9.6735592 614.59747
21.751619 9.667388 614.21167
24.16486 9.6659451 614.12152
26.59038 9.6692286 614.32678
29.865669 9.9552231 632.20148
32.680908 10.05567 638.47913
-40.816021 12.75501 647.75043
-37.616409 12.5388 636.94019
-34.92897 12.47463 633.73163
-32.10815 12.34929 627.46448
-29.132071 12.13836 616.91809
-26.642151 12.11007 615.50348
-24.199739 12.09987 614.99353
-21.761061 12.08948 614.47388
-19.345751 12.09109 614.55469
-16.92099 12.08642 614.32098
-14.50519 12.08766 614.38281
-12.0826 12.0826 614.12988
-9.6667633 12.08345 614.17273
-7.2431488 12.07191 613.5957
-4.8289561 12.07239 613.61938
-2.414535 12.07267 613.63373
0 12.07277 613.63843
2.414535 12.07267 613.63373
4.8289561 12.07239 613.61938
7.2431488 12.07191 613.5957
9.6618814 12.07735 613.86761
12.0826 12.0826 614.12988
14.50519 12.08766 614.38281
16.93807 12.09862 614.93103
19.365271 12.10329 615.16467
21.772039 12.09558 614.77887
24.17535 12.08768 614.38373
26.60191 12.09178 614.58893
29.878189 12.44925 632.46228
32.69445 12.57479 638.73938
-40.53968 15.20238 643.43262
-37.576618 15.03065 636.27698
-34.84066 14.93171 632.15448
-31.96278 14.75205 624.66888
-29.11492 14.55746 616.56091
-26.653259 14.53814 615.75598
-24.209841 14.52591 615.24622
-21.781139 14.52076 615.03162
-19.3636 14.5227 615.11243
-16.928061 14.50977 614.57373
-14.51125 14.51125 614.6355
-12.09376 14.51251 614.68781
-9.6708078 14.50621 614.42548
-7.2498441 14.49969 614.15369
-4.8334188 14.50026 614.17743
-2.4167669 14.5006 614.19171
0 14.48607 613.58618
2.414326 14.48596 613.58148
4.8309789 14.49294 613.87231
7.2498441 14.49969 614.15369
9.6659269 14.49889 614.12042
12.08766 14.50519 614.38281
14.51857 14.51857 614.94049
16.945141 14.52441 615.18372
19.3636 14.5227 615.11243
21.781139 14.52076 615.03162
24.185459 14.51127 614.63641
26.599621 14.50888 614.53668
29.87561 14.9378 632.40851
32.69162 15.08844 638.68512
-40.223789 17.59791 638.49658
-37.499699 17.499861 634.995
-34.75182 17.37591 630.56812
-31.832781 17.14073 622.16882
-29.11195 16.981979 616.49902
-26.66395 16.96797 615.99902
-24.23176 16.962231 615.79401
-21.800859 16.95623 615.57953
-19.37138 16.949949 615.35553
-16.943411 16.943411 615.12189
-14.51709 16.9366 614.87872
-12.09862 16.93807 614.93103
-9.6795807 16.93927 614.97382
-7.2600851 16.940201 615.00708
-4.8378072 16.93232 614.72583
-2.4177401 16.924179 614.435
0 16.924311 614.43982
2.4177401 16.924179 614.435
4.8353658 16.92378 614.42078
7.256424 16.93166 614.70203
9.6746998 16.930731 614.66882
12.09862 16.93807 614.93103
14.52441 16.945141 615.18372
16.95195 16.95195 615.42682
19.37138 16.949949 615.35553
21.77891 16.93915 614.96979
24.195181 16.93663 614.87952
26.61031 16.93383 614.77979
29.857929 17.41713 632.04028
32.656601 17.58433 638.0116
-40.141129 20.07056 637.20508
-37.422211 19.958509 633.70361
-34.594219 19.768129 627.75403
-31.638941 19.470119 618.44122
-29.10853 19.405689 616.42767
-26.66081 19.389681 615.92761
-24.22891 19.383129 615.72272
-21.809271 19.386021 615.81299
-19.388611 19.388611 615.89392
-16.95849 19.38113 615.6604
-14.53002 19.37335 615.4173
-12.10939 19.375031 615.46973
-9.68332 19.36664 615.20752
-7.2628889 19.367701 615.24078
-4.8396759 19.358709 614.95947
-2.4198949 19.359159 614.97382
0 19.35931 614.97858
2.4211149 19.368919 615.27887
4.8421159 19.368469 615.26459
7.2628889 19.367701 615.24078
9.68332 19.36664 615.20752
12.10939 19.375031 615.46973
14.53733 19.38311 615.72229
16.95849 19.38113 615.6604
19.378851 19.378851 615.58911
21.77635 19.35675 614.8985
24.192329 19.353861 614.80829
26.60718 19.350679 614.70862
29.86904 19.912689 632.27173
32.65276 20.094009 637.93768
-43.150558 22.84441 644.56708
-40.096821 22.554461 636.51282
-37.32589 22.395531 632.09808
-34.53846 22.203291 626.75812
-31.60305 21.87903 617.75092
-29.11927 21.839451 616.65149
-26.67067 21.821461 616.15149
-24.237869 21.814079 615.94672
-21.817329 21.817329 616.03699
-19.395769 21.82024 616.11792
-16.96476 21.81184 615.8844
-14.54271 21.81407 615.94629
-12.11387 21.80497 615.69373
-9.6869059 21.79554 615.43158
-7.2655792 21.79674 615.4649
-4.8439102 21.79759 615.48871
-2.4220121 21.798109 615.50299
0 21.798281 615.50781
2.4232321 21.80909 615.80798
4.8463488 21.808571 615.7937
7.269238 21.80772 615.7699
9.6917849 21.80652 615.73657
12.11387 21.80497 615.69373
14.53539 21.803089 615.64142
16.96476 21.81184 615.8844
19.376261 21.7983 615.50818
21.795389 21.795389 615.42743
24.20129 21.78116 615.03229
26.617041 21.77758 614.93268
29.90893 22.4317 633.10272
32.68008 22.62467 638.46307
-42.833801 25.19635 639.90887
-39.95451 24.971569 634.28918
-37.24728 24.83152 630.78802
-34.362801 24.544861 623.62152
-31.598339 24.306419 617.6604
-29.144171 24.28681 617.17029
-26.680099 24.254629 616.36578
-24.246441 24.246441 616.16101
-21.814079 24.237869 615.94672
-19.392879 24.2411 616.02753
-16.97077 24.24395 616.09888
-14.54786 24.246429 616.16083
-12.11816 24.23633 615.9082
-9.6952171 24.238041 615.95099
-7.2681532 24.22718 615.67938
-4.8456259 24.22813 615.70319
-2.4240899 24.2409 616.02252
0 24.241091 616.02722
2.4253099 24.253099 616.32751
4.8505049 24.252529 616.31311
7.2754722 24.25157 616.28931
9.7049742 24.26244 616.56091
12.13036 24.260719 616.51801
14.55517 24.258631 616.46558
16.9793 24.256149 616.40369
19.40263 24.25329 616.33228
21.814079 24.237869 615.94672
24.234249 24.234249 615.85632
26.65329 24.230261 615.75647
29.91909 24.932581 633.31451
32.70689 25.15914 638.97858
-42.744019 27.6579 638.5885
-39.8311 27.383881 632.36102
-37.113319 27.216431 628.55542
-34.25486 26.91453 621.69397
-31.60898 26.746059 617.86493
-29.13938 26.7111 617.07037
-26.68911 26.68911 616.57062
-24.266821 26.693501 616.67047
-21.83242 26.684071 616.45618
-19.399441 26.674219 616.23242
-16.96797 26.66395 615.99902
-14.54546 26.666679 616.06079
-12.12226 26.66898 616.11322
-9.6984959 26.67086 616.15601
-7.274271 26.672331 616.18927
-4.8497052 26.67338 616.21307
-2.4249101 26.674009 616.22742
0 26.674219 616.23218
2.4261291 26.68742 616.53229
4.8545828 26.700211 616.82288
7.2852468 26.71257 617.10388
9.713129 26.711109 617.07062
12.14055 26.709221 617.02759
14.56741 26.706909 616.97522
16.985041 26.690769 616.60852
19.409189 26.68763 616.53711
21.821461 26.67067 616.15149
24.242451 26.666691 616.06122
26.68911 26.68911 616.57062
29.87031 27.381121 632.2981
32.66983 27.643709 638.26611
-42.715649 30.15222 638.17133
-39.804459 29.85335 631.9447
-37.051861 29.641491 627.53113
-34.163471 29.28297 620.06201
-31.61911 29.186871 618.05988
-29.148741 29.148741 617.26538
-26.697689 29.12476 616.76581
-24.27463 29.129551 616.86572
-21.839451 29.11927 616.65149
-19.41544 29.12315 616.73242
-16.981979 29.11195 616.49902
-14.55746 29.11492 616.56091
-12.13227 29.117439 616.61322
-9.7016211 29.10486 616.35132
-7.2766161 29.106461 616.38458
-4.8512678 29.107611 616.40839
-2.4256909 29.10829 616.42273
0 29.12315 616.73242
2.4281299 29.13756 617.03247
4.8561449 29.136869 617.01813
7.28759 29.15036 617.29907
9.7162523 29.14876 617.26569
12.14446 29.1467 617.22278
14.5794 29.15881 617.47522
17.00757 29.15583 617.41321
19.42519 29.137779 617.03699
21.839451 29.11927 616.65149
24.27463 29.129551 616.86572
26.7111 29.13938 617.07037
29.864929 29.864929 632.18591
32.648121 30.136721 637.84839
-45.732441 33.02898 645.17279
-42.707298 32.65852 638.04852
-39.79668 32.334801 631.82312
-37.00811 32.073689 626.80182
-34.15678 31.71701 619.94263
-31.62875 31.62875 618.24518
-29.15765 31.58745 617.45099
-26.719259 31.577311 617.25592
-24.282049 31.566669 617.05127
-21.84614 31.555531 616.83722
-19.421379 31.55974 616.91803
-16.995701 31.56345 616.98938
-14.56923 31.566669 617.05127
-12.14207 31.569401 617.10382
-9.7094698 31.55578 616.84192
-7.2825031 31.55751 616.87518
-4.8527541 31.5429 616.59418
-2.426434 31.54364 616.60852
0 31.55974 616.91809
2.4276531 31.55949 616.91333
4.8576298 31.5746 617.2038
7.2898169 31.589211 617.48468
9.7240982 31.603319 617.7561
12.15426 31.601089 617.7132
14.58386 31.59836 617.66083
17.021299 31.610979 617.90338
19.450621 31.60726 617.83197
21.8571 31.571369 617.14172
24.282049 31.566669 617.05127
26.73266 31.59314 617.56042
29.829849 32.31567 631.4552
32.64172 32.64172 637.7254
-45.46019 35.357929 641.39148
-42.677608 35.146271 637.61188
-39.749352 34.780682 631.08362
-36.87254 34.414371 624.5423
-34.166611 34.166611 620.11798
-31.62207 34.054531 618.1167
-29.16609 34.027111 617.62701
-26.727011 34.01619 617.43188
-24.289101 34.00473 617.22742
-21.85248 33.992741 617.01331
-19.42701 33.997269 617.09418
-17.000641 34.00127 617.16553
-14.57346 34.004742 617.22742
-12.1456 34.007671 617.27979
-9.7171631 34.010071 617.32269
-7.284616 33.994881 617.05127
-4.8541641 33.979149 616.77039
-2.427139 33.97995 616.78473
0 33.980209 616.78949
2.4283581 33.997009 617.08948
4.8590388 34.013271 617.37988
7.2882719 34.01194 617.35602
9.7220383 34.02713 617.62738
12.15169 34.024731 617.58447
14.58808 34.03886 617.83667
17.02622 34.052441 618.07928
19.456249 34.048439 618.00787
21.88537 34.0439 617.92688
24.301279 34.02179 617.53192
26.753799 34.050289 618.04077
29.808929 34.777081 631.01941
32.618999 35.128151 637.28839
-45.406139 37.838451 640.64081
-42.62661 37.61171 636.86188
-39.701431 37.220089 630.33478
-36.718201 36.718201 621.97009
-34.141819 36.580521 619.67542
-31.614889 36.478729 617.9787
-29.15947 36.449341 617.48907
-26.72094 36.437641 617.29413
-24.283581 36.425369 617.08948
-21.858471 36.43079 617.17981
-19.432341 36.435638 617.26068
-17.005301 36.43993 617.33209
-14.57746 36.443642 617.39398
-12.14893 36.446781 617.44641
-9.7149534 36.43108 617.18457
-7.2866149 36.433071 617.2179
-4.8554969 36.416229 616.93707
-2.4278049 36.41708 616.95142
0 36.43565 617.2608
2.429024 36.43536 617.25598
4.857934 36.434502 617.2417
7.2866149 36.433071 617.2179
9.7198277 36.449348 617.4892
12.16111 36.48333 618.05548
14.59938 36.498459 618.30768
17.02235 36.476471 617.94122
19.45183 36.472179 617.86969
21.88039 36.467319 617.78882
24.32011 36.48016 618.00269
26.774509 36.510689 618.51147
29.78756 37.23444 630.5741
32.611591 37.628761 637.146
-48.59573 40.92271 649.41742
-45.35141 40.312359 639.88068
-42.574959 40.070549 636.10242
-39.63345 39.63345 629.27271
-36.636341 39.07877 620.60571
-34.11652 38.990311 619.22357
-31.59141 38.881741 617.52722
-29.152399 38.869881 617.34167
-26.71446 38.857391 617.14673
-24.28986 38.863781 617.24652
-21.86413 38.86956 617.33691
-19.43737 38.874729 617.41772
-17.001169 38.85981 617.18457
-14.57391 38.86377 617.2464
-12.14598 38.867119 617.29883
-9.7174654 38.869862 617.34161
-7.2848439 38.852501 617.07037
-4.8567529 38.854031 617.09418
-2.429652 38.874432 617.41302
0 38.874741 617.41779
2.4284339 38.854939 617.10852
4.8567529 38.854031 617.09418
7.2848439 38.852501 617.07037
9.7125931 38.850368 617.03699
12.15207 38.886608 617.60327
14.59584 38.92223 618.15991
17.026739 38.91827 618.09802
19.466591 38.933182 618.33087
21.88604 38.90852 617.94562
24.314211 38.902729 617.85522
26.781401 38.954762 618.66821
29.76573 39.687641 630.11932
32.730221 40.28334 639.42719
-48.052479 42.994331 642.26947
-45.2304 42.717602 638.20001
-42.460701 42.460701 634.42212
-39.564899 42.037701 628.20148
-36.6269 41.51049 620.44843
-34.141781 41.45787 619.67462
-31.646521 41.383911 618.58691
-29.14488 41.288582 617.18512
-26.70756 41.275318 616.99011
-24.28359 41.282101 617.08972
-21.847521 41.267551 616.87567
-19.432341 41.293732 617.2608
-17.005301 41.29858 617.33209
-14.58476 41.323479 617.6983
-12.14892 41.306339 617.44623
-9.7246962 41.32996 617.79352
-7.297576 41.352928 618.13129
-4.8676772 41.375259 618.45959
-2.432678 41.355518 618.16937
0 41.33514 617.86969
2.429024 41.2934 617.25592
4.8603692 41.313141 617.54608
7.2902679 41.31152 617.52228
9.7149534 41.288551 617.18457
12.14284 41.285641 617.14178
14.58476 41.323479 617.6983
17.022341 41.339981 617.94092
19.461559 41.35582 618.17383
21.89134 41.350319 618.0929
24.33227 41.364861 618.30682
26.80126 41.42012 619.11938
29.758051 42.15723 629.95929
32.753399 42.831371 639.87299
-47.877892 45.358002 639.97229
-45.15247 45.15247 637.11761
-42.345852 44.836781 632.73297
-39.437439 44.367119 626.21002
-36.689831 44.02779 621.49707
-34.13245 43.884571 619.508
-31.637871 43.806271 618.42047
-29.1807 43.771049 617.93121
-26.72702 43.735119 617.43219
-24.325609 43.786098 618.14032
-21.863449 43.726891 617.31799
-19.43676 43.732712 617.39868
-17.009159 43.737839 617.47009
-14.58807 43.764198 617.83618
-12.15777 43.767971 617.88849
-9.7366409 43.81488 618.53998
-7.3028808 43.817291 618.57343
-4.8687782 43.819 618.59723
-2.433228 43.798111 618.30713
0 43.776539 618.00751
2.430793 43.75428 617.6983
4.8614721 43.75325 617.68402
7.291923 43.751541 617.66028
9.7171612 43.72723 617.32257
12.15168 43.746059 617.58423
14.59537 43.78611 618.1405
17.026199 43.781658 618.07861
19.465969 43.798431 618.31152
21.896299 43.79261 618.23071
24.33778 43.807999 618.44452
26.914351 44.041672 621.68988
29.79369 44.69054 630.70178
32.791859 45.404121 640.61267
-47.84103 47.84103 639.4873
-45.13945 47.647202 636.93683
-42.333641 47.31406 632.55353
-39.38718 46.772282 625.42468
-36.69746 46.483459 621.62439
-34.105579 46.28614 619.02808
-31.644529 46.249699 618.54858
-29.20145 46.235619 618.36353
-26.7728 46.243931 618.47278
-24.342899 46.251518 618.57257
-21.911869 46.258381 618.66302
-19.46034 46.2183 618.1355
-17.021271 46.2006 617.90259
-14.58385 46.182178 617.66022
-12.16034 46.20927 618.01678
-9.7338219 46.235649 618.36389
-7.300766 46.23819 618.39722
-4.8673682 46.240002 618.42102
-2.4337411 46.241081 618.4353
0 46.218319 618.13568
2.4313071 46.19482 617.82672
4.8624992 46.193741 617.81238
7.2934632 46.191929 617.78857
9.7240849 46.1894 617.75531
12.16034 46.20927 618.01678
14.59115 46.205299 617.96448
17.029791 46.223721 618.20679
19.479799 46.26453 618.74377
21.922819 46.281502 618.9671
24.367229 46.297741 619.18079
26.946711 46.544312 622.42517
29.697531 47.021099 628.69861
32.766579 47.889622 640.12659
-51.153309 51.153309 649.41638
-47.849571 50.36797 639.59961
-45.103901 50.11544 636.44299
-42.279499 49.740582 631.75732
-39.239201 49.049 623.11243
-36.631649 48.84219 620.5274
-34.112209 48.731731 619.14673
-31.6507 48.69339 618.6673
-29.23632 48.7272 619.0899
-26.80477 48.735939 619.19928
-24.347651 48.695301 618.69122
-21.90519 48.6782 618.47748
-19.454411 48.636009 617.9502
-17.024599 48.64172 618.02142
-14.594 48.64666 618.08331
-12.16271 48.650841 618.1355
-9.7308531 48.65427 618.17828
-7.2985392 48.656929 618.21161
-4.8683171 48.68317 618.53961
-2.434216 48.684311 618.55389
0 48.660351 618.25439
2.4329979 48.659969 618.24969
4.8634501 48.634491 617.93121
7.294889 48.632591 617.90741
9.7259855 48.629929 617.87408
12.15663 48.626511 617.83142
14.5867 48.62233 617.77911
17.033119 48.66605 618.32562
19.483601 48.708988 618.86243
21.91614 48.702518 618.78162
24.35981 48.71962 618.99518
26.88501 48.881828 621.02289
29.557211 49.26202 625.77533
32.72501 50.346169 639.32709
-50.967232 53.515591 647.09039
-47.99564 53.047821 641.52173
-45.023979 52.527981 635.33313
-41.91523 51.777641 626.40051
-39.148972 51.383018 621.70258
-36.60173 51.24242 620.02881
-34.135319 51.20298 619.55933
-31.68796 51.188251 619.38391
-29.24155 51.17271 619.19891
-26.79619 51.156368 619.00439
-24.36417 51.164749 619.10419
-21.920059 51.146809 618.89062
-19.47736 51.128071 618.66742
-17.01915 51.057449 617.82672
-14.58932 51.06263 617.88843
-12.15881 51.06702 617.94067
-9.7277346 51.07061 617.98352
-7.2961998 51.073399 618.01672
-4.866756 51.100941 618.3446
-2.433435 51.102139 618.35883
0 51.102539 618.36359
2.432219 51.076599 618.05469
4.8643241 51.075401 618.04053
7.292551 51.047859 617.71259
9.7228699 51.045071 617.67932
12.15881 51.06702 617.94067
14.59662 51.088169 618.1925
17.02766 51.082981 618.13068
19.47736 51.128071 618.66742
21.931 51.17234 619.19452
24.37632 51.190281 619.40808
26.822929 51.207409 619.61212
29.3582 51.37685 621.62921
32.572399 52.616951 636.39227
-50.974449 56.071892 647.1806
-48.00264 55.582008 641.61371
-44.856091 54.824108 633.00128
-41.65369 53.904781 622.55432
-39.116451 53.785118 621.19452
-36.58947 53.664558 619.82458
-34.140888 53.649971 619.65881
-31.69313 53.634529 619.48328
-29.246321 53.618259 619.2984
-26.81394 53.627869 619.40771
-24.368151 53.609921 619.20367
-21.923651 53.591129 618.99011
-19.480551 53.571499 618.76703
-17.02194 53.49754 617.92657
-14.59172 53.502972 617.98822
-12.16081 53.507561 618.04053
-9.7341957 53.538071 618.38721
-7.308342 53.594509 619.0285
-4.8748498 53.623348 619.35632
-2.4362659 53.597851 619.06653
0 53.571522 618.76727
2.43505 53.571098 618.76251
4.8699861 53.569851 618.74823
7.2973981 53.514252 618.11652
9.729332 53.51133 618.08331
12.16689 53.534309 618.34448
14.60631 53.556461 618.59619
17.03896 53.551029 618.53442
19.470819 53.544762 618.4632
21.91271 53.5644 618.68628
24.34384 53.556461 618.59613
26.80057 53.601139 619.10388
29.30463 53.725151 620.51312
32.0089 54.1689 625.55573
35.432812 55.68013 642.72882
-50.714272 58.321411 643.92828
-47.640381 57.669941 636.84723
-44.403881 56.7383 626.72058
-41.597889 56.279491 621.73358
-39.10276 56.21022 620.98071
-36.594872 56.112129 619.91443
-34.14592 56.09687 619.74872
-31.697809 56.080742 619.5733
-29.250641 56.063728 619.38843
-26.81789 56.07378 619.49762
-24.3596 56.027081 618.98999
-21.926889 56.035381 619.0802
-19.483431 56.014858 618.85718
-17.024481 55.937561 618.01703
-14.60118 55.971191 618.38239
-12.18692 56.05986 619.34631
-9.7550869 56.091751 619.69287
-7.3203621 56.122768 620.03021
-4.882863 56.15292 620.35779
-2.4390571 56.09832 619.76428
0 56.070789 619.46509
2.436626 56.0424 619.15649
4.870707 56.01313 618.83832
7.3057752 56.010941 618.81458
9.7405005 56.007881 618.78131
12.17477 56.003941 618.73853
14.60847 55.999142 618.68628
17.041491 55.993462 618.62457
19.483431 56.014858 618.85718
21.915951 56.007431 618.77643
24.32316 55.94326 618.07892
26.76446 55.96204 618.28308
29.250641 56.063728 619.38843
31.77672 56.22036 621.09082
34.536758 56.73896 626.72791
-50.259682 60.311619 638.24597
-46.95533 59.312 627.83331
-44.10405 58.805401 622.55627
-41.60331 58.734089 621.81342
-39.088482 58.632721 620.75751
-36.581501 58.530392 619.69159
-34.150429 58.543591 619.82898
-31.702 58.52676 619.65369
-29.26907 58.538151 619.77228
-26.82143 58.519489 619.578
-24.374969 58.49992 619.37408
-21.92979 58.479431 619.16071
-19.48601 58.458031 618.93781
-17.05225 58.464859 619.00897
-14.62499 58.499939 619.37439
-12.20068 58.563278 620.03412
-9.8049736 58.829842 622.81091
-7.4197478 59.35799 628.31238
-4.9418311 59.301979 627.72888
-2.441808 58.603401 620.45209
0 58.545528 619.8493
2.438163 58.515911 619.54071
4.8737812 58.485378 619.2226
7.3103871 58.483101 619.19891
9.7417908 58.450741 618.86188
12.17638 58.44664 618.81921
14.61041 58.441631 618.76703
17.060749 58.494011 619.31262
19.48601 58.458031 618.93781
21.90793 58.421139 618.55353
24.350679 58.441639 618.76703
26.78137 58.432079 618.66748
29.239941 58.479881 619.16553
31.733549 58.585011 620.26062
34.25235 58.718311 621.64899
37.89159 60.626549 641.52661
-53.549339 63.749222 647.49219
-49.635139 62.043919 630.43921
-46.59227 61.30563 623.05627
-44.087292 61.232342 622.32343
-41.58749 61.15807 621.58069
-39.092999 61.082821 620.82819
-36.622139 61.0369 620.36902
-34.1544 60.990009 619.90002
-31.70569 60.972481 619.72479
-29.27248 60.984329 619.84332
-26.83791 60.995239 619.95239
-24.37781 60.944519 619.44519
-21.94327 60.953529 619.53528
-19.497999 60.931252 619.31238
-17.06274 60.93837 619.38373
-14.67769 61.157051 621.57062
-12.45714 62.285709 632.85712
-10.13646 63.35284 643.52838
-7.6464839 63.720699 647.20697
-5.1002841 63.753551 647.53552
-2.5477719 63.694309 646.94312
0 63.66444 646.64429
2.5465579 63.66394 646.6394
5.0784202 63.48024 644.80243
7.5262332 62.718609 637.1861
9.8643885 61.65242 626.52417
12.22031 61.10157 621.01569
14.64126 61.00526 620.05261
17.071239 60.968719 619.68719
19.497999 60.931252 619.31238
21.93235 60.92318 619.23181
24.365669 60.914169 619.14172
26.797859 60.904221 619.04218
29.243361 60.92366 619.23657
31.72146 61.0028 620.02808
34.188358 61.050652 620.50647
36.840401 61.400669 624.00671
40.916279 63.93169 649.31702
-52.867519 65.455017 639.37518
-49.179779 63.93372 624.74731
-46.550869 63.70118 622.51141
-44.069859 63.65646 622.08142
-41.59164 63.610741 621.64172
-39.1357 63.595509 621.4953
-36.662182 63.547779 621.03638
-34.191799 63.49905 620.56769
-31.740419 63.480831 620.39258
-29.275431 63.430099 619.90479
-26.840611 63.441441 620.01379
-24.404539 63.451801 620.1134
-21.956409 63.429619 619.90021
-19.55822 63.564232 621.19452
-17.361839 64.486839 630.0658
-15.25454 66.103012 645.60577
15.09431 65.408653 638.92938
17.25988 64.108139 626.42438
19.55822 63.564232 621.19452
21.978251 63.492722 620.50702
24.41667 63.483341 620.41669
26.840611 63.441441 620.01379
29.275431 63.430099 619.90479
31.724649 63.44931 620.08948
34.17482 63.467529 620.26459
36.680359 63.5793 621.33942
39.54287 64.257156 627.8573
-56.141941 68.901466 647.97662
-52.109241 66.997597 630.34808
-49.06282 66.23481 623.28528
-46.55476 66.156769 622.56262
-44.073559 66.110336 622.13281
-41.61573 66.095573 621.99597
-39.177761 66.112473 622.15253
-36.71981 66.09565 621.99683
-34.245602 66.04509 621.5285
-31.77463 65.993469 621.0506
-29.321581 65.973541 620.86609
-26.89625 66.018059 621.27838
-24.47938 66.09433 621.9845
-22.318529 66.955589 629.95923
-20.37509 68.765938 646.72168
20.171289 68.078087 640.35272
22.198441 66.595337 626.62347
24.467251 66.061577 621.68127
26.86957 65.952583 620.67212
29.30703 65.940804 620.56299
31.74312 65.928009 620.44452
34.194698 65.946922 620.61963
36.68346 66.030228 621.39099
39.235901 66.210587 623.06097
42.37743 67.305344 633.19757
45.882271 68.82341 647.25372
-55.453362 70.577003 640.15179
-51.655479 68.873978 624.94623
-49.041969 68.658752 623.0246
-46.557949 68.61171 622.60461
-44.09837 68.597473 622.47742
-41.63916 68.582153 622.34058
-39.180439 68.565773 622.19452
-36.722321 68.548332 622.0387
-34.281872 68.563744 622.17627
-31.82408 68.544167 622.00153
-29.381769 68.557457 622.12018
-27.071421 68.909081 625.25958
-25.281139 70.787193 642.0285
25.087179 70.244087 637.17938
27.031429 68.807266 624.35059
29.381769 68.557457 622.12018
31.82408 68.544167 622.00153
34.264912 68.529823 621.87341
36.722321 68.548332 622.0387
39.19981 68.599678 622.49707
41.74205 68.751617 623.8537
45.361729 70.562714 640.02411
-54.977161 72.469887 634.74042
-51.582001 71.232292 624.07147
-49.044559 71.114609 623.05688
-46.583389 71.10096 622.93927
-44.100712 71.05114 622.50983
-41.641369 71.035294 622.37311
-39.201889 71.053421 622.52948
-36.742432 71.035362 622.37378
-34.30064 71.051323 622.51141
-31.85725 71.066177 622.63953
-29.601351 71.536613 626.69489
-28.01897 73.868202 646.79492
28.072281 74.008743 648.00629
29.64496 71.641991 627.60339
31.872999 71.101303 622.94232
34.317581 71.086433 622.81403
36.76059 71.070473 622.67651
39.201889 71.053421 622.52948
41.68251 71.105461 622.97809
44.710331 72.033318 630.97693
48.559269 74.116783 648.93781
-54.872459 74.82608 633.55072
-51.63464 73.763763 624.69812
-49.09473 73.642097 623.68408
-46.58514 73.555481 622.96228
-44.12413 73.540222 622.83521
-41.663502 73.523827 622.69849
-39.22271 73.54258 622.85492
-36.761959 73.523918 622.69928
-34.3358 73.576721 623.13928
-32.078751 74.027878 626.89899
-30.590309 76.475777 647.29822
30.692011 76.730026 649.41687
32.110222 74.100502 627.50421
34.352749 73.613029 623.44189
36.79826 73.596512 623.30432
39.22271 73.54258 622.85492
41.684059 73.560112 623.00092
44.232941 73.721573 624.3465
47.94006 75.694832 640.79022
-54.97945 77.471039 634.76642
-51.686432 76.299019 625.3147
-49.144112 76.17337 624.30127
-46.63208 76.083923 623.58002
-44.168621 76.068176 623.453
-41.684971 76.013779 623.01428
-39.24292 76.033157 623.17047
-36.799049 76.051369 623.31738
-34.45509 76.293411 625.26941
-32.771412 78.147202 640.21942
32.83432 78.297234 641.42932
34.48896 76.368408 625.87433
36.799049 76.051369 623.31738
39.24292 76.033157 623.17047
41.684971 76.013779 623.01428
44.21212 76.143097 624.05731
47.41251 77.357246 633.84882
-55.324348 80.471786 638.68579
-51.712059 78.799316 625.61969
-49.168549 78.669678 624.60687
-46.70121 78.654671 624.48962
-44.212391 78.5998 624.06097
-41.726341 78.543694 623.62262
-39.281849 78.56369 623.77881
-36.871799 78.659851 624.53009
-34.827641 79.606033 631.92212
35.14925 80.341133 637.6651
36.889938 78.698532 624.83228
39.262508 78.525017 623.47668
41.685261 78.46637 623.01849
44.190651 78.56115 623.75897
46.88475 78.963791 626.9046
51.09996 81.759933 648.74951
-55.296711 82.945068 638.3717
-51.73687 81.300789 625.9151
-49.192219 81.167168 624.90277
-46.700779 81.11187 624.48389
-44.233719 81.095139 624.35712
-41.74649 81.037308 623.91901
-39.320141 81.097778 624.37708
-37.070789 81.555733 627.84637
-35.453049 83.567909 643.09021
37.288261 82.034157 631.47089
39.281479 81.018059 623.77319
41.705429 80.957611 623.31519
44.211979 81.055313 624.0553
46.86129 81.390663 626.59589
50.640041 83.556068 643.00049
-58.868809 87.023453 649.87842
-54.605461 84.390259 630.5166
-51.735561 83.762329 625.89948
-49.21513 83.665718 625.18909
-46.699631 83.567757 624.46881
-44.232632 83.550522 624.34198
-41.80703 83.614059 624.80933
-39.415741 83.758453 625.87091
-37.776169 85.625977 639.60278
37.97541 86.077591 642.92352
39.37711 83.676353 625.26727
41.765999 83.53199 624.20581
44.27607 83.632568 624.94537
46.88298 83.895859 626.88129
49.914539 84.854721 633.93182
-57.813042 87.976357 638.40259
-54.285091 86.362648 626.87598
-51.733471 86.22245 625.87457
-49.237259 86.165207 625.46582
-46.720692 86.06443 624.74591
-44.274288 86.088898 624.92072
-41.866871 86.196503 625.68927
-39.62648 86.682907 629.1637
39.62648 86.682907 629.1637
41.825859 86.112061 625.08612
44.361118 86.257729 626.12659
46.903938 86.402 627.1571
49.598831 86.797958 629.98541
-61.282631 91.923943 648.36072
-56.97897 89.184471 629.33661
-54.255569 88.781837 626.54053
-51.75589 88.724388 626.14148
-49.28273 88.708908 626.03412
-46.8097 88.69207 625.91718
-44.336929 88.673866 625.79077
-41.96701 88.871307 627.16193
-40.01004 90.022591 635.15692
40.37664 90.847427 640.88501
41.94651 88.827911 626.86047
44.40202 88.804039 626.6947
46.87838 88.822197 626.82092
49.52364 89.142563 629.04547
-60.267399 92.912247 637.7854
-56.891842 91.521652 628.38953
-54.304668 91.330582 627.09851
-51.82806 91.316101 627.00067
-49.375549 91.344772 627.19452
-46.897911 91.327507 627.07782
-44.442211 91.353416 627.25293
-42.025429 91.467117 628.02112
-40.66254 94.032127 645.35217
40.816811 94.388878 647.7627
42.025429 91.467117 628.02112
44.420521 91.308853 626.95172
46.875031 91.282959 626.77667
49.375549 91.344772 627.19452
-59.7715 94.638206 632.61981
-56.859249 93.941368 628.03528
-54.32645 93.836594 627.34601
-51.84885 93.821732 627.24823
-49.371281 93.805443 627.14099
-46.916721 93.833443 627.3252
-44.460011 93.860023 627.50012
-42.062691 94.022476 628.56891
42.08316 94.068237 628.86987
44.416672 93.768517 626.89819
46.84811 93.696228 626.42249
49.347221 93.759712 626.84021
-59.67878 96.977997 631.65387
-56.936371 96.544273 628.87347
-54.373829 96.389961 627.8844
-51.843601 96.280968 627.18573
-49.366268 96.264229 627.07843
-46.934799 96.339844 627.56299
-44.498779 96.414032 628.03857
-42.0788 96.53373 628.80603
42.242481 96.909233 631.21301
44.477131 96.367104 627.73792
46.84338 96.152199 626.36023
49.39032 96.311127 627.37903
-63.93428 102.2948 649.34277
-59.78688 99.644814 632.78003
-56.957321 99.056213 629.10132
-54.446751 98.994102 628.71307
-51.913261 98.882401 628.01501
-49.43264 98.865273 627.90802
-46.952148 98.846626 627.79138
-44.515202 98.922668 628.26672
-42.09428 99.045357 629.03351
42.2374 99.382133 631.13831
44.580132 99.066963 629.16852
46.974991 98.894707 628.09198
49.552811 99.105621 629.4101
-59.865189 102.2697 633.5957
-56.977402 101.5684 629.31952
-54.465981 101.5048 628.93158
-51.95686 101.4396 628.534
-49.450142 101.3728 628.12677
-46.968781 101.3537 628.01031
-44.530941 101.4316 628.48523
-42.1091 101.5572 629.25153
42.272579 101.9515 631.65552
44.639091 101.6779 629.9873
47.060089 101.5507 629.21167
49.786419 102.0622 632.3302
-59.971279 104.9497 634.70068
-56.996601 104.0808 629.52832
-54.457981 103.9652 628.8407
-51.97443 103.9489 628.74323
-49.4669 103.8805 628.33618
-46.984699 103.8609 628.21973
-44.524368 103.8902 628.39398
-42.16412 104.1702 630.06061
42.307072 104.5233 632.16272
44.6973 104.2937 630.79578
47.121559 104.1635 630.02063
50.451061 105.9472 640.63818
-60.392551 108.2033 639.08911
-57.070061 106.6962 630.32678
-54.475559 106.475 629.04053
-51.991211 106.4582 628.94287
-49.506882 106.4398 628.836
-47.02269 106.4198 628.71973
-44.56036 106.4497 628.89392
-42.218441 106.7878 630.8595
-40.724812 109.4479 646.3252
42.361301 107.1492 632.96033
44.733181 106.8626 631.29413
47.227859 106.8841 631.41913
-60.783649 111.4367 643.16302
-57.14259 109.3163 631.11511
-54.54501 109.09 629.82971
-52.08268 109.1256 630.03192
-49.618 109.1596 630.22498
-47.151058 109.1919 630.40869
-44.703579 109.2754 630.88312
-42.292469 109.4629 631.94812
-40.371441 111.0215 640.80377
42.45562 109.8851 634.34741
44.854691 109.6448 632.98181
47.60667 110.247 636.40363
-57.48938 112.4792 634.88458
-54.666241 111.8173 631.20728
-52.173271 111.7999 631.11041
-49.704281 111.8346 631.30353
-47.255798 111.9216 631.7868
-44.781231 111.9531 631.96149
-42.345379 112.0907 632.7262
-40.056332 112.6584 635.88019
40.6511 114.3312 645.1734
42.549179 112.6302 635.72333
45.126389 112.816 636.75537
48.120861 113.9705 643.16931
-58.13739 116.2748 641.92822
-54.83913 114.6636 633.17188
-52.262959 114.4808 632.17822
-49.76577 114.4613 632.07208
-47.291451 114.4951 632.25592
-44.814991 114.5272 632.43042
-42.356869 114.6127 632.89508
-39.951969 114.8619 634.24951
-38.146969 116.984 645.78278
40.392929 116.1297 641.13953
42.560532 115.1638 635.89008
45.310822 115.7943 639.31689
-55.010971 117.5234 635.12469
-52.32666 117.112 632.9364
-49.826439 117.0921 632.83051
-47.326351 117.0704 632.71509
-44.848049 117.1032 632.88959
-42.34737 117.078 632.75537
-39.942959 117.3324 634.10858
-37.67091 118.0355 637.84839
38.04818 119.2176 644.13641
40.153702 117.9515 637.40149
42.672989 117.9783 637.54388
45.58049 119.0157 643.06232
-55.575932 121.2566 641.54468
-52.389488 119.7474 633.68439
-49.862389 119.6697 633.27991
-47.360519 119.6476 633.16467
-44.837349 119.5663 632.74103
-42.357601 119.5979 632.90588
-39.914219 119.7427 633.65973
-37.48222 119.9431 634.70367
-35.778782 122.6701 648.90692
37.625839 120.4027 637.09741
40.124809 120.3744 636.9502
42.825329 120.9186 639.78418
-52.72728 123.0303 637.70569
-49.969231 122.4246 634.61542
-47.439331 122.3435 634.20178
-44.91206 122.2606 633.77863
-42.38752 122.1758 633.34583
-39.942341 122.3234 634.09912
-37.490601 122.4693 634.84332
-35.23336 123.3167 639.16711
35.367329 123.7857 641.55951
37.616169 122.8795 636.93622
40.133652 122.9093 637.0882
43.037788 124.0501 642.90863
-53.264229 126.8196 644.0979
-50.075169 125.1879 635.9397
-47.540031 125.1053 635.52667
-45.007488 125.0208 635.10413
-42.477692 124.9344 634.67188
-39.969841 124.9057 634.52869
-37.480492 124.935 634.67493
-35.022919 125.0819 635.40942
-32.74551 125.9443 639.72131
32.792141 126.1236 640.61798
35.123329 125.4405 637.20227
37.623901 125.413 637.06488
40.218349 125.6823 638.41162
-50.58569 128.9935 642.32111
-47.594551 127.7538 636.24408
-45.05917 127.6677 635.82178
-42.54681 127.6404 635.68842
-40.03492 127.6113 635.54547
-37.52359 127.5802 635.39319
-35.046398 127.669 635.82861
-32.596298 127.8778 636.85199
-30.28097 128.69411 640.85352
30.28097 128.69411 640.85352
32.642891 128.06059 637.74792
35.096561 127.8518 636.7243
37.613152 127.8847 636.8858
40.474239 129.0116 642.40997
-48.010639 131.3976 641.71899
-45.153049 130.44209 637.12561
-42.63549 130.4144 636.99249
-40.099312 130.3228 636.5517
-37.583981 130.29111 636.3996
-35.08604 130.3196 636.53638
-32.586521 130.3461 636.66382
-30.12851 130.5569 637.67731
-27.76708 131.2626 641.06989
27.81962 131.51089 642.2641
30.17149 130.7431 638.57281
32.602039 130.4081 636.96228
35.08604 130.3196 636.53638
37.709259 130.7254 638.48767
-45.43911 133.79289 641.09869
-42.682899 133.07021 637.68958
-40.143959 132.9769 637.24933
-37.625839 132.9446 637.09741
-35.125111 132.9736 637.23407
-32.622799 133.0006 637.36151
-30.133329 133.0889 637.77759
-27.65325 133.2384 638.48291
-25.33423 134.27139 643.35571
25.40583 134.65089 645.14569
27.732 133.6178 640.27258
30.161961 133.2153 638.37408
32.607288 132.93739 637.06317
35.191891 133.22639 638.42651
-43.35709 137.7225 647.60419
-40.168892 135.57001 637.63892
-37.667099 135.6015 637.78491
-35.163609 135.6311 637.92157
-32.658539 135.6586 638.04889
-30.137699 135.61971 637.86877
-27.617889 135.5787 637.67932
-25.14691 135.7933 638.67273
-22.69985 136.1991 640.55127
-20.323351 137.1826 645.10461
20.34243 137.3114 645.70093
22.73205 136.3923 641.44568
25.218451 136.1796 640.46118
27.70969 136.0294 639.76562
30.180611 135.81281 638.76282
32.766991 136.10899 640.1344
-40.821522 140.32401 647.83618
-37.707741 138.2617 638.46228
-35.184872 138.2263 638.30127
-32.67828 138.2543 638.42853
-30.170219 138.2802 638.54633
-27.647711 138.23849 638.35687
-25.15015 138.32581 638.75378
-22.681259 138.6077 640.0351
-20.192301 138.82201 641.00928
-17.67025 138.83771 641.08038
-15.23323 139.63789 644.7179
15.35481 140.7524 649.78381
17.72031 139.231 642.86823
20.2209 139.01871 641.90308
22.71343 138.80431 640.92877
25.233549 138.7845 640.83868
27.804939 139.0247 641.93048
-35.522011 142.088 644.32172
-32.71299 140.9175 639.09589
-30.216539 141.0105 639.51123
-27.716351 141.10139 639.91711
-25.200649 141.1236 640.01617
-22.683821 141.14371 640.10602
-20.175489 141.22839 640.48389
-17.65554 141.24429 640.55487
-15.13479 141.2581 640.61627
-12.61932 141.3364 640.96613
-10.11043 141.5461 641.9021
-7.5867972 141.62019 642.23297
-5.0604372 141.6922 642.55463
-2.5350411 141.9623 643.76007
0 141.89661 643.4671
2.533849 141.8956 643.46228
5.0556722 141.55881 641.95898
7.5796499 141.4868 641.63751
10.10567 141.4794 641.60431
12.63123 141.4698 641.56158
15.17052 141.59151 642.10498
17.71389 141.71111 642.63892
20.261221 141.82851 643.16302
22.79096 141.81039 643.08228
25.414921 142.3235 645.37299
-30.547689 145.1015 646.4101
-27.797569 144.04201 641.76288
-25.2507 143.929 641.26752
-22.707451 143.8138 640.76251
-20.18697 143.8322 640.84277
-17.665581 143.8483 640.91357
-15.13626 143.79449 640.67749
-12.61459 143.8063 640.72949
-10.10663 144.0195 641.66461
-7.5803719 144.0271 641.69769
-5.053771 144.0325 641.72137
-2.526942 144.03571 641.73547
0 143.9689 641.44269
2.5245609 143.89999 641.14038
5.046629 143.8289 640.82867
7.5732312 143.8914 641.1026
10.10663 144.0195 641.66461
12.64434 144.14549 642.21698
15.20052 144.40491 643.35492
17.782181 144.79781 645.07788
-25.466669 147.7067 646.66669
-22.76281 146.6937 642.30029
-20.245689 146.7812 642.67767
-17.73361 146.93559 643.34308
-15.20171 146.94991 643.4046
-12.65724 146.82401 642.86218
-10.12648 146.83389 642.90479
-7.58812 146.7037 642.34338
-5.0565581 146.6402 642.0697
-2.5283351 146.64349 642.08392
0 146.64461 642.08862
2.5271461 146.57449 641.78662
5.0613151 146.77811 642.66431
7.5952549 146.8416 642.93793
10.1788 147.5925 646.17468
12.75831 147.9964 647.91553
-12.75904 150.5567 647.95209
-10.18416 150.21629 646.50989
-7.6100039 149.66341 644.16699
-5.0687728 149.52879 643.59662
-2.5344429 149.5322 643.61078
0 149.53329 643.61548
2.538008 149.7424 644.50189
-7.6566682 153.13341 648.05573
-5.0998869 152.9966 647.4859
-2.5500009 153 647.50018
0 153.2149 648.39532
2.5594971 153.56979 649.87433
