# .PCD v0.7 - Point Cloud Data file format
VERSION 0.7
FIELDS x y z
SIZE 4 4 4
TYPE F F F
COUNT 1 1 1
WIDTH 1648
HEIGHT 1
VIEWPOINT 0 0 0 1 0 0 0
POINTS 1648
DATA ascii
-175.20419 167.1179 683.86249
-172.4438 167.05499 683.60883
-169.5381 166.847 682.77008
-166.6364 166.6364 681.92108
-163.8797 166.5663 681.63818
-160.9153 166.2791 680.48022
-158.0256 166.06081 679.59998
-155.4088 166.1266 679.86542
-152.91969 166.33369 680.7005
-150.48711 166.6107 681.81738
-148.1077 166.9577 683.21667
-145.5903 167.15919 684.02917
-143.0032 167.2868 684.54352
-140.3499 167.34019 684.75897
-137.5152 167.17529 684.09387
-134.6255 166.93559 683.12762
-131.6274 166.549 681.5686
-128.8074 166.37621 680.8717
-126.1553 166.4176 681.0387
-123.4465 166.3844 680.90503
-120.7371 166.34891 680.76178
-118.0786 166.38341 680.90088
-115.4675 166.4881 681.32288
-112.999 166.80811 682.61322
-110.4229 166.981 683.31042
-107.6993 166.93401 683.12079
-105.1128 167.1024 683.79999
-102.4304 167.12331 683.88452
-99.745972 167.14191 683.95929
-97.017288 167.0853 683.7312
-94.247963 166.95351 683.19971
-91.521423 166.892 682.95172
-88.873138 166.9738 683.28137
-86.14576 166.90739 683.01367
-83.419281 166.83859 682.73608
-80.517288 166.4024 680.97742
-77.696342 166.10941 679.79608
-74.322929 164.5722 673.5976
-71.092957 163.2505 668.26819
-67.567017 161.1214 659.68292
-64.52092 160.0119 655.20923
-61.877491 159.8502 654.55719
-59.455521 160.27139 656.25568
-57.304951 161.4958 661.19263
-55.709572 164.47591 673.20923
-53.190941 164.89191 674.88678
-50.523499 164.8662 674.7829
-47.749809 164.4716 673.19177
-44.867519 163.63451 669.81653
-41.916889 162.4279 664.95142
-38.933491 160.92509 658.89148
-36.312599 160.8129 658.43927
-33.940971 161.8723 662.71088
-31.81885 164.3974 672.8927
-29.56292 166.6274 681.88452
-27.02165 167.53419 685.54132
-24.38686 167.9984 687.41278
-21.70837 168.2399 688.38672
-19.00523 168.33211 688.75842
-16.29888 168.4218 689.12012
-13.58351 168.4355 689.17548
-10.86754 168.44679 689.22089
-8.147521 168.3821 688.96008
-5.4271431 168.24139 688.39288
-2.7124469 168.17171 688.11182
0 168.2464 688.41309
2.710077 168.0248 687.51929
5.420033 168.0211 687.50421
8.136858 168.1617 688.07147
10.86754 168.44679 689.22089
13.59536 168.5824 689.76788
16.3202 168.64211 690.00848
19.04669 168.6992 690.23901
21.765221 168.6805 690.16309
24.47212 168.5858 689.78131
27.18741 168.562 689.68542
29.87545 168.3889 688.98749
32.585838 168.3602 688.8717
35.310169 168.4023 689.04169
38.03529 168.442 689.2016
40.761082 168.4791 689.35138
43.46851 168.44051 689.19537
46.1539 168.326 688.73389
48.813629 168.1358 687.9671
51.466499 167.9433 687.1908
54.088772 167.6752 686.10962
56.751209 167.55119 685.60962
59.43478 167.498 685.3952
62.11573 167.4424 685.17102
64.850594 167.5307 685.52698
67.5578 167.5434 685.57812
70.233742 167.4805 685.32452
72.842972 167.2691 684.47198
75.444366 167.0554 683.61041
78.106102 166.9855 683.32849
80.83506 167.0591 683.62549
83.528687 167.0574 683.61853
86.183388 166.9803 683.30768
88.950706 167.11951 683.86902
91.601303 167.0377 683.539
94.206863 166.88071 682.90613
96.848297 166.7943 682.55768
99.485603 166.7056 682.20001
102.1632 166.6873 682.1261
104.8844 166.7392 682.33557
107.6525 166.8614 682.82812
110.279 166.76331 682.4328
112.999 166.80811 682.61322
115.7188 166.8504 682.78387
118.2327 166.60069 681.77692
120.9472 166.6384 681.92902
123.5002 166.4568 681.19672
125.9361 166.12849 679.87299
128.8074 166.37621 680.8717
131.3423 166.1882 680.11353
134.1021 166.28661 680.51038
136.74451 166.2384 680.31622
139.2627 166.04401 679.53241
141.64999 165.7037 678.16022
143.8994 165.2179 676.20117
146.0045 164.5869 673.65662
147.76379 163.5956 669.65979
149.8203 162.9624 667.10663
151.25191 161.683 661.94781
152.9147 160.69 657.94373
155.02969 160.1974 655.95728
157.19791 159.7749 654.25378
159.494 159.494 653.12079
161.7067 159.14 651.69342
161.9931 156.9308 642.78552
161.9861 154.5099 633.02362
163.7218 153.7993 630.15851
165.8949 153.51469 629.01093
168.05721 153.22861 627.85718
170.2876 153.01199 626.98389
172.58929 152.86481 626.3902
175.04649 152.8575 626.3609
177.3369 152.7068 625.75311
179.7869 152.69569 625.70862
182.14999 152.6122 625.3717
184.5083 152.5269 625.02759
186.86169 152.4398 624.67651
189.2101 152.351 624.31842
191.73039 152.40109 624.52039
194.3392 152.51939 624.9975
196.8586 152.5654 625.18298
199.46831 152.6795 625.64301
202.07899 152.7914 626.09448
204.784 152.97121 626.81927
207.30251 153.009 626.97168
209.6282 152.9053 626.55359
211.8517 152.7303 625.84802
214.0675 152.55389 625.1366
-236.70129 169.4566 682.44678
-234.2845 169.6543 683.23132
-232.0524 169.9919 684.57092
-229.61681 170.18649 685.34338
-227.0782 170.3087 685.82812
-224.4399 170.358 686.02393
-221.6125 170.26331 685.64789
-218.5107 169.9527 684.41559
-214.96291 169.28329 681.75897
-212.23669 169.252 681.63489
-209.4203 169.1472 681.21899
-206.6918 169.1115 681.07727
-204.0481 169.1451 681.21082
-201.4861 169.24831 681.62018
-199.0027 169.4212 682.3064
-196.5118 169.5923 682.98547
-193.9312 169.6898 683.37238
-191.10229 169.5696 682.89539
-188.5144 169.6629 683.26562
-186.0791 169.8983 684.19958
-183.401 169.9156 684.26831
-180.72 169.93069 684.32819
-178.11189 170.0159 684.66632
-175.3497 169.95441 684.42212
-172.44009 169.7457 683.59412
-169.46201 169.46201 682.4682
-166.5616 169.248 681.6192
-163.80589 169.17661 681.33569
-160.98109 169.03011 680.75452
-158.1586 168.8812 680.16339
-155.4724 168.8752 680.13959
-152.98199 169.0854 680.97382
-150.548 169.3665 682.08948
-148.16721 169.7188 683.48718
-145.586 169.8503 684.00922
-143.0602 170.0527 684.81238
-140.46609 170.17999 685.31763
-137.6884 170.08569 684.94342
-134.8537 169.9157 684.26868
-131.96539 169.6698 683.29303
-129.1387 169.4946 682.59747
-126.3704 169.39011 682.18292
-123.5499 169.2097 681.46698
-120.8908 169.2471 681.61542
-118.2288 169.2821 681.75452
-115.6645 169.46201 682.46832
-113.1913 169.7869 683.75769
-110.6106 169.9626 684.45471
-107.8825 169.9149 684.2655
-105.2457 170.0123 684.65192
-102.4709 169.886 684.1507
-99.741989 169.8309 683.93237
-97.013397 169.77341 683.70422
-94.285248 169.71339 683.46613
-91.597557 169.7249 683.51147
-88.908241 169.7339 683.5473
-86.17981 169.6665 683.27979
-83.488724 169.67059 683.29608
-80.725777 169.52409 682.7149
-78.068649 169.5974 683.00562
-75.045647 168.85271 680.05042
-71.917824 167.8082 675.9057
-68.729927 166.5379 670.86469
-65.581009 165.2641 665.81012
-62.66927 164.5069 662.80487
-60.26865 165.08369 665.09412
-58.082561 166.3273 670.02911
-55.955559 167.8667 676.13757
-53.401539 168.2149 677.51929
-50.723629 168.1889 677.4162
-47.982059 167.93719 676.41748
-45.1273 167.2365 673.63678
-42.199539 166.16071 669.3678
-39.500229 165.90089 668.33698
-36.974079 166.3833 670.25128
-34.570469 167.5338 674.81677
-32.172531 168.90581 680.26111
-29.67865 169.97771 684.51477
-27.055759 170.45129 686.3941
-24.385559 170.6989 687.37659
-21.68825 170.795 687.75781
-18.98761 170.8885 688.12903
-16.28377 170.97951 688.49017
-13.57683 171.0681 688.84149
-10.86692 171.15401 689.18268
-8.1470642 171.08839 688.92212
-5.4268432 170.9456 688.35529
-2.7111139 170.8002 687.77863
0 170.8015 687.78363
2.7075629 170.57651 686.89069
5.4173732 170.6472 687.17157
8.1364107 170.86459 688.03418
10.86219 171.0795 688.88678
13.58867 171.21719 689.43329
16.319269 171.35229 689.9696
19.045601 171.4104 690.19989
21.773439 171.4659 690.41998
24.50268 171.5188 690.63013
27.2332 171.5692 690.83002
29.92584 171.3934 690.13281
32.612431 171.2153 689.42572
35.323601 171.18359 689.29993
38.04974 171.22391 689.45972
40.758839 171.1871 689.31403
43.447231 171.0735 688.86298
46.151421 171.0318 688.69739
48.78981 170.7643 687.63629
51.441429 170.569 686.86102
54.08609 170.3712 686.07611
56.748451 170.2453 685.57678
59.431919 170.19141 685.36279
62.112789 170.13499 685.13898
64.819221 170.1505 685.20032
67.495697 170.0892 684.95697
70.169228 170.02541 684.7041
72.776123 169.8109 683.85291
75.375183 169.5941 682.99261
78.034531 169.5233 682.71149
80.690514 169.4501 682.42078
83.415848 169.52251 682.70837
86.104622 169.51849 682.69238
88.830742 169.586 682.96021
91.517754 169.577 682.92468
94.162079 169.4917 682.5863
96.802361 169.4041 682.23859
99.48185 169.388 682.17468
102.2039 169.4433 682.39398
105.0174 169.6436 683.18872
107.7889 169.7675 683.6806
110.3709 169.5943 682.99323
113.1422 169.7133 683.46558
115.8152 169.68269 683.34412
118.4342 169.5762 682.92139
121.0482 169.4675 682.48999
123.6571 169.35651 682.04968
126.2062 169.17 681.30939
128.9153 169.20129 681.43372
131.50951 169.08369 680.96698
134.0983 168.9639 680.4917
136.7408 168.9151 680.29822
139.2592 168.7179 679.51538
141.6467 168.3725 678.14502
143.83411 167.8064 675.89838
145.7475 166.9471 672.48859
147.6328 166.0869 669.0752
149.2924 165.0074 664.79138
150.7834 163.78191 659.92828
152.3714 162.7016 655.64148
154.6857 162.42 654.52393
156.9193 162.06419 653.11182
159.2827 161.85181 652.26892
161.2029 161.2029 649.69409
162.0721 159.5397 643.09418
162.2925 157.2989 634.20209
163.5793 156.14391 629.61871
165.674 155.783 628.18658
167.7558 155.42081 626.74908
169.98241 155.20129 625.87817
172.3602 155.12421 625.57208
174.73351 155.0452 625.25879
177.1843 155.0363 625.22333
179.63251 155.0253 625.17987
182.07809 155.0125 625.12878
184.4357 154.92599 624.78583
186.7885 154.8378 624.43579
189.13631 154.74789 624.0788
191.5674 154.72749 623.99811
194.26379 154.9192 624.75891
196.78239 154.96609 624.94501
199.3914 155.0822 625.40552
202.00121 155.19611 625.85742
204.7054 155.3788 626.58252
207.1286 155.34641 626.4541
209.54829 155.3123 626.3186
211.868 155.2056 625.89532
214.0844 155.0266 625.185
-236.797 172.216 682.71887
-234.4763 172.4883 683.78241
-232.24159 172.83099 685.12091
-229.8035 173.0285 685.89282
-227.1682 173.08051 686.09583
-224.4352 173.0585 686.0097
-221.7001 173.0343 685.9151
-218.3233 172.5023 683.83728
-214.7782 171.82249 681.18182
-211.96449 171.71809 680.77393
-209.23959 171.68381 680.63971
-206.513 171.6472 680.49689
-203.785 171.6084 680.3454
-201.3963 171.85809 681.32092
-198.74541 171.88789 681.43707
-196.25729 172.0612 682.1142
-193.9258 172.37849 683.35358
-191.3398 172.4753 683.73169
-188.90829 172.7162 684.67249
-186.1521 172.6628 684.46411
-183.395 172.6071 684.2464
-180.7906 172.6955 684.59192
-178.257 172.85519 685.21582
-175.41811 172.71941 684.68512
-172.4341 172.4341 683.57062
-169.45621 172.146 682.44513
-166.4846 171.8551 681.30878
-163.7301 171.78239 681.02478
-160.97549 171.7072 680.73138
-158.2211 171.6297 680.42853
-155.6008 171.6974 680.69312
-153.108 171.9108 681.52643
-150.6716 172.19611 682.64111
-148.161 172.4055 683.45923
-145.5797 172.53889 683.97998
-143.0538 172.7442 684.7821
-140.45959 172.87331 685.28638
-137.7412 172.8517 685.20203
-135.0797 172.90199 685.39862
-132.1871 172.6526 684.42407
-129.30029 172.40041 683.43903
-126.3646 172.071 682.15228
-123.705 172.1113 682.30981
-121.0949 172.22391 682.74951
-118.531 172.4088 683.47192
-115.9098 172.51691 683.89398
-113.2836 172.6227 684.30731
-110.7006 172.8009 685.00348
-108.0171 172.8273 685.10669
-105.2857 172.7765 684.90808
-102.4654 172.57339 684.11469
-99.693329 172.4425 683.60358
-96.966011 172.384 683.37512
-94.280159 172.39799 683.42969
-91.592567 172.4095 683.47467
-88.942062 172.4937 683.80353
-86.287727 172.5755 684.12292
-83.556877 172.5045 683.84583
-80.756561 172.2807 682.97131
-77.996101 172.1293 682.38019
-75.206306 171.9001 681.48492
-72.327271 171.4424 679.69702
-69.522568 171.13251 678.48621
-66.549911 170.3678 675.49908
-63.79784 170.12759 674.56091
-61.323269 170.6387 676.55731
-58.806061 171.0722 678.25067
-56.249828 171.42799 679.64081
-53.587429 171.4798 679.84277
-50.92268 171.52901 680.03522
-48.213211 171.4248 679.62799
-45.38596 170.86481 677.44061
-42.61327 170.45309 675.8324
-39.95908 170.4921 675.98468
-37.402321 170.98199 677.89862
-34.81443 171.3941 679.50818
-32.2841 172.1819 682.58539
-29.715759 172.89169 685.35828
-27.0658 173.2211 686.64502
-24.37328 173.32111 687.03552
-21.67732 173.4185 687.4162
-18.969761 173.43781 687.49139
-16.275551 173.6058 688.14783
-13.56997 173.6956 688.4986
-10.86616 173.8586 689.13507
-8.1464949 173.7919 688.87457
-5.4241018 173.5713 688.01282
-2.7109289 173.4994 687.73218
0 173.3493 687.14587
2.706198 173.1967 686.5495
5.417006 173.34419 687.12579
8.1393995 173.6405 688.28333
10.8567 173.7072 688.54382
13.5818 173.847 689.08978
16.31102 173.98421 689.62567
19.035959 174.04311 689.85577
21.771891 174.17509 690.37152
24.500931 174.2289 690.58142
27.231251 174.28 690.78119
29.962721 174.3286 690.97089
32.681049 174.2989 690.85522
35.367222 174.11549 690.13879
38.063641 174.0052 689.70789
40.756031 173.8924 689.26727
43.463161 173.8526 689.11188
46.148312 173.7348 688.65161
48.829071 173.6145 688.18158
51.415699 173.1897 686.52228
54.082661 173.0645 686.03333
56.744911 172.9369 685.53473
59.402328 172.80679 685.02649
62.081902 172.7496 684.80322
64.758751 172.69 684.57031
67.432793 172.6279 684.32782
70.073273 172.48801 683.78137
72.708366 172.34579 683.22571
75.337997 172.2011 682.66058
77.962021 172.05409 682.08643
80.615593 171.9799 681.79657
83.302071 171.9785 681.79089
86.024834 172.0497 682.06897
88.748497 172.1183 682.3371
91.433113 172.10941 682.30219
94.116089 172.09801 682.25781
96.839508 172.1591 682.49658
99.606697 172.29269 683.01819
102.2876 172.2738 682.9447
105.1032 172.4771 683.73871
107.9236 172.6777 684.52228
110.509 172.50191 683.83539
113.2836 172.6227 684.30731
115.9599 172.59151 684.18573
118.531 172.4088 683.47192
121.1998 172.373 683.33209
123.8657 172.3349 683.18311
126.474 172.21989 682.73401
129.18871 172.2516 682.8576
131.6747 171.98331 681.80981
134.20889 171.7874 681.04449
136.73531 171.5894 680.27112
139.2538 171.3893 679.48962
141.703 171.1131 678.4104
143.89191 170.5385 676.1662
145.489 169.2963 671.31378
147.43539 168.4976 668.19379
148.69769 166.9588 662.18292
150.17979 165.7157 657.32678
152.0311 164.9151 654.19952
154.40939 164.7034 653.37262
156.7794 164.4899 652.53857
159.14101 164.2746 651.69757
161.2045 163.76331 649.70062
162.58971 162.58971 645.11578
163.41631 160.90221 638.52411
163.7374 158.7757 630.21753
165.3746 157.9698 627.06952
167.5305 157.6757 625.92078
169.7543 157.45329 625.05188
172.04939 157.30231 624.46222
174.4998 157.2955 624.43573
177.02969 157.3597 624.68628
179.4761 157.34891 624.6441
181.91991 157.33611 624.59412
184.2758 157.2487 624.25262
186.6268 157.15939 623.90387
188.9729 157.06841 623.54828
191.4023 157.048 623.46887
194.1861 157.31531 624.51282
196.7039 157.3631 624.69958
199.312 157.48109 625.16052
201.92101 157.59689 625.61292
204.43739 157.6384 625.77521
206.95239 157.67799 625.92963
209.3705 157.6436 625.79541
211.785 157.6075 625.65411
213.9035 157.35429 624.66522
-237.0865 175.1207 683.54108
-234.76221 175.39709 684.60413
-232.3311 175.59911 685.38123
-229.7963 175.72659 685.8714
-227.1608 175.7791 686.07373
-224.4277 175.75661 685.98688
-221.6001 175.65871 685.61023
-218.22479 175.1187 683.53333
-214.6813 174.4286 680.87909
-211.7794 174.2489 680.18811
-209.0565 174.2137 680.05292
-206.2448 174.10271 679.62592
-203.51981 174.063 679.47302
-201.2189 174.38969 680.72968
-198.48599 174.34579 680.56073
-196.2498 174.743 682.08838
-193.99989 175.13879 683.61072
-191.4935 175.311 684.27289
-188.89999 175.4071 684.6427
-186.2225 175.427 684.71918
-183.4644 175.37041 684.50128
-180.62891 175.237 683.98853
-178.0972 175.3988 684.61072
-175.40961 175.40961 684.65222
-172.4258 175.1199 683.53821
-169.4481 174.8275 682.41333
-166.40559 174.4575 680.99017
-163.72231 174.45821 680.99323
-160.9679 174.3819 680.69952
-158.2135 174.30299 680.3963
-155.66 174.4465 680.9483
-153.1002 174.588 681.49219
-150.59891 174.80231 682.31653
-148.08929 175.0146 683.13318
-145.509 175.1497 683.65277
-142.9841 175.35789 684.45349
-140.3307 175.41341 684.66699
-137.73289 175.54201 685.16138
-135.0715 175.5929 685.3573
-132.23599 175.4151 684.67352
-129.2925 175.0836 683.39862
-126.4665 174.90041 682.69391
-123.7511 174.86571 682.56042
-121.0875 174.90421 682.7085
-118.4724 175.01601 683.13849
-115.9525 175.27699 684.14252
-113.4232 175.5359 685.13818
-110.7889 175.64101 685.54218
-108.1499 175.7437 685.93707
-105.3697 175.6162 685.44678
-102.4142 175.1821 683.7774
-99.643387 175.04919 683.26617
-96.875259 174.9137 682.74487
-94.232811 175.0038 683.09149
-91.62616 175.1676 683.72168
-88.974586 175.25301 684.04999
-86.319221 175.33591 684.3689
-83.623756 175.3401 684.38507
-80.85659 175.1893 683.80487
-78.058823 174.9594 682.9209
-75.26696 174.7269 682.02643
-72.576309 174.7207 682.00281
-69.8237 174.5592 681.38171
-66.928032 174.01289 679.28027
-64.132797 173.69299 678.04999
-61.535919 173.9059 678.86871
-58.905769 174.03979 679.38379
-56.320179 174.3244 680.47827
-53.654419 174.37691 680.68018
-50.963921 174.3503 680.57788
-48.273529 174.32111 680.4657
-45.503201 173.9828 679.16461
-42.79921 173.8718 678.73749
-40.115719 173.83479 678.59528
-37.49889 174.10201 679.62299
-34.919369 174.59689 681.52643
-32.352509 175.2428 684.01068
-29.73941 175.73289 685.89569
-27.063629 175.9136 686.59082
-24.371309 176.015 686.9809
-21.666109 176.03709 687.06592
-18.96821 176.13341 687.43622
-16.26712 176.2271 687.79651
-13.56294 176.31821 688.14691
-10.86052 176.48351 688.78271
-8.1387253 176.339 688.22711
-5.4212909 176.192 687.66138
-2.708343 176.0423 687.08569
0 175.9668 686.79529
2.7059801 175.8887 686.49487
5.4212909 176.192 687.66138
8.1387253 176.339 688.22711
10.85107 176.3299 688.19202
13.57475 176.4718 688.73749
16.302549 176.61099 689.27301
19.034349 176.7476 689.79828
21.76058 176.8047 690.01819
24.477579 176.7825 689.93292
27.21711 176.91119 690.42792
29.960159 177.03729 690.91272
32.692421 177.084 691.09222
35.410259 177.0513 690.96661
38.126541 177.0161 690.83112
40.788059 176.7482 689.80103
43.459591 176.5546 689.05621
46.124519 176.3584 688.3017
48.82515 176.313 688.12701
51.45647 176.03529 687.05878
54.102058 175.8317 686.27582
56.765331 175.70219 685.77771
59.397869 175.4937 684.97583
62.077271 175.43581 684.75299
64.753967 175.37531 684.52063
67.398453 175.23599 683.98438
70.007088 175.0177 683.14508
72.671494 174.94991 682.88422
75.29985 174.80321 682.32013
77.888573 174.5778 681.45319
80.539703 174.5027 681.16418
83.223717 174.5014 681.15912
85.944 174.5737 681.4375
88.665192 174.6436 681.70599
91.427017 174.7869 682.25739
94.150848 174.85159 682.50598
96.959511 175.0658 683.33002
99.816498 175.3533 684.43579
102.5474 175.4101 684.65411
105.1874 175.31239 684.2785
107.9164 175.3642 684.4776
110.6454 175.41341 684.66699
113.3252 175.38429 684.55511
116.0026 175.3528 684.43378
118.6774 175.3188 684.30328
121.3494 175.2825 684.16351
124.0187 175.2438 684.01453
126.5757 175.0515 683.27509
129.3483 175.1591 683.68903
131.8378 174.8869 682.64203
134.3755 174.6881 681.87732
136.84621 174.4118 680.81458
139.30679 174.1335 679.74432
141.69591 173.778 678.37701
144.0726 173.4207 677.00281
145.4834 171.93491 671.28802
146.9778 170.5992 666.15057
148.1678 168.9633 659.85889
149.6422 167.7025 655.00958
151.75729 167.19031 653.03949
154.13161 166.97591 652.2149
156.5676 166.8344 651.67072
158.9975 166.6909 651.11877
161.42101 166.5455 650.55939
163.6179 166.1745 649.13251
164.9827 164.9827 644.54883
164.7242 162.2283 633.9552
165.8399 160.8895 628.8056
167.6142 160.21941 626.22852
169.6032 159.77119 624.50452
171.97639 159.6924 624.20142
174.345 159.61169 623.89099
176.873 159.677 624.14252
179.3176 159.6664 624.10132
181.75951 159.65359 624.05249
184.11369 159.5652 623.71228
186.463 159.4749 623.36511
188.89461 159.4565 623.29401
191.4115 159.50951 623.49823
194.01669 159.634 623.97681
196.5327 159.6828 624.16461
199.1389 159.8028 624.62628
201.83839 159.9939 625.36102
204.2606 159.9631 625.24268
206.7738 160.0036 625.39832
209.2856 160.0419 625.54602
211.6031 159.9326 625.12543
214.0125 159.89439 624.97827
-237.1758 177.8819 683.79492
-234.7527 178.0883 684.57678
-232.2249 178.2191 685.07251
-229.6908 178.34821 685.56128
-226.96181 178.32719 685.48169
-224.2307 178.30389 685.39368
-221.4052 178.20419 685.01599
-217.94119 177.5817 682.65802
-214.7623 177.17889 681.13232
-211.6812 176.8476 679.87708
-208.9592 176.8116 679.74103
-206.3228 176.8481 679.87909
-203.7688 176.9572 680.29218
-201.4644 177.2887 681.54797
-198.8963 177.394 681.9469
-196.4886 177.6472 682.90613
-193.9894 177.82359 683.57428
-191.4828 177.99809 684.23529
-188.88921 178.0955 684.60413
-186.2117 178.11549 684.67987
-183.4536 178.05791 684.46167
-180.69479 177.99789 684.23438
-177.93539 177.93539 683.99792
-175.3244 178.0217 684.32452
-172.3419 177.7276 683.21057
-169.2934 177.355 681.79919
-166.39571 177.13091 680.95032
-163.7124 177.1315 680.9527
-160.8891 176.978 680.37128
-158.3396 177.1257 680.93073
-155.717 177.1953 681.19421
-153.1561 177.33859 681.73718
-150.65359 177.556 682.56049
-148.1427 177.7713 683.37622
-145.6237 177.9845 684.1839
-142.85139 177.8904 683.82739
-140.2605 178.0229 684.3291
-137.60471 178.07671 684.53278
-135.00349 178.20461 685.01727
-132.283 178.17709 684.91333
-129.2831 177.76421 683.3493
-126.5664 177.73151 683.2254
-123.8489 177.6963 683.0921
-121.1832 177.73531 683.23993
-118.5658 177.84869 683.66949
-115.9936 178.0367 684.38129
-113.4142 178.22231 685.08447
-110.6844 178.1749 684.90479
-107.8145 177.89391 683.84058
-105.088 177.8412 683.64093
-102.2728 177.63181 682.8476
-99.548973 177.57381 682.62817
-96.825447 177.51331 682.39893
-94.225197 177.68179 683.03717
-91.658432 177.9252 683.95898
-89.005859 178.0117 684.2868
-86.386963 178.1731 684.89807
-83.689369 178.1774 684.91418
-80.955307 178.1017 684.62762
-78.120354 177.7912 683.45142
-75.326462 177.55521 682.55768
-72.601982 177.4715 682.2406
-69.909538 177.46271 682.20721
-67.157654 177.2962 681.57648
-64.353409 176.97189 680.34802
-61.639141 176.8775 679.99072
-58.978611 176.93581 680.21143
-56.36491 177.1469 681.01093
-53.720539 177.2778 681.50677
-51.04911 177.32851 681.69891
-48.354259 177.299 681.58691
-45.579529 176.9558 680.28717
-42.927639 177.07651 680.74432
-40.236149 177.03909 680.60248
-37.578251 177.1546 681.04022
-34.96233 177.50101 682.35242
-32.349602 177.92281 683.95001
-29.73665 178.41991 685.83313
-27.072889 178.68111 686.8222
-24.369011 178.7061 686.91687
-21.673491 178.8063 687.29669
-18.974661 178.90401 687.66663
-16.27264 178.99899 688.02661
-13.56753 179.0914 688.37659
-10.85003 179.02541 688.12653
-8.1379375 179.0347 688.16162
-5.4231319 178.9633 687.89148
-2.7104459 178.8894 687.61139
0 178.657 686.73108
2.7080851 178.7336 687.02118
5.4207711 178.8855 687.59637
8.1379375 179.0347 688.16162
10.85475 179.1033 688.42157
13.56753 179.0914 688.37659
16.2868 179.1548 688.61658
19.015961 179.2934 689.14148
21.739559 179.35139 689.36139
24.46456 179.4068 689.57123
27.21443 179.6152 690.36072
29.94421 179.6653 690.55029
32.660881 179.6348 690.435
35.406761 179.7574 690.89929
38.106289 179.64391 690.46942
40.7841 179.4501 689.73499
43.436581 179.1759 688.69672
46.100128 178.97701 687.94312
48.77816 178.8533 687.47449
51.40699 178.57159 686.40771
54.073601 178.4429 685.91998
56.735512 178.3116 685.42273
59.392601 178.1778 684.91589
62.071812 178.11909 684.69348
64.748306 178.05791 684.46161
67.392616 177.9165 683.92627
70.031677 177.77271 683.38159
72.665382 177.6265 682.82758
75.260742 177.4003 681.97089
77.848213 177.1718 681.10529
80.498039 177.0957 680.81702
83.217056 177.1718 681.10529
85.937119 177.2453 681.38379
88.696747 177.39349 681.94513
91.499268 177.6162 682.78882
94.348022 177.91341 683.91443
97.077972 177.9763 684.15259
99.808372 178.03661 684.38092
102.5391 178.09419 684.59943
105.2701 178.14931 684.80811
107.9545 178.12489 684.71552
110.6366 178.0979 684.6134
113.3163 178.0685 684.50201
115.9435 177.95979 684.09021
118.6682 178.0023 684.25128
121.3925 178.0423 684.40277
124.0093 177.92641 683.96368
126.6755 177.8848 683.80609
129.3945 177.9174 683.92963
131.9989 177.7944 683.46368
134.5399 177.5927 682.69952
137.0141 177.3123 681.63757
139.53841 177.1064 680.85748
141.8096 176.593 678.91302
144.0639 176.07809 676.96228
145.41229 174.49471 670.9649
146.7128 172.9115 664.96777
147.8998 171.2524 658.68329
149.2373 169.8217 653.26422
151.4142 169.3786 651.58539
153.8522 169.2374 651.05072
156.42419 169.2459 651.08289
158.92329 169.17641 650.81958
161.3459 169.0291 650.26147
163.6889 168.80409 649.40961
165.8744 168.4263 647.97852
166.61279 166.61279 641.10901
167.0677 164.5742 633.38702
168.006 163.0647 627.66931
169.5289 162.1581 624.23523
171.90131 162.0784 623.93323
174.2692 161.9967 623.62378
176.7144 161.9882 623.59161
179.1571 161.9776 623.55157
181.5972 161.965 623.50378
183.9496 161.8756 623.16522
186.38319 161.8591 623.10248
188.814 161.8405 623.03229
191.4182 161.96919 623.51971
193.9343 162.0211 623.71619
196.44949 162.0708 623.90472
199.05479 162.19279 624.36682
201.7533 162.3868 625.10168
204.0816 162.28169 624.70349
206.4987 162.24899 624.57953
209.103 162.3623 625.00891
211.6116 162.3996 625.1499
214.11861 162.4348 625.2832
-237.26199 180.64259 684.03967
-234.8376 180.8519 684.82062
-232.3085 180.9845 685.31549
-229.4875 180.89011 684.96307
-226.76041 180.86839 684.88232
-223.9381 180.7693 684.51233
-221.11571 180.66769 684.1333
-218.02 180.33749 682.90118
-214.8405 179.92889 681.37653
-211.75861 179.5927 680.12207
-209.1236 179.63181 680.26801
-206.485 179.66879 680.40588
-203.9288 179.7794 680.8186
-201.3671 179.888 681.22369
-198.8838 180.0705 681.90472
-196.55859 180.40311 683.14612
-194.14 180.6581 684.09741
-191.5504 180.7589 684.47333
-188.9556 180.8575 684.84149
-186.27699 180.8777 684.91681
-183.51801 180.8192 684.69849
-180.6817 180.6817 684.18561
-177.77161 180.4651 683.37738
-175.237 180.62891 683.98853
-172.4025 180.4838 683.4472
-169.4254 180.1826 682.32318
-166.668 180.10899 682.0484
-163.91051 180.03281 681.76428
-161.153 179.95419 681.47083
-158.5313 180.02699 681.74268
-155.9054 180.0976 682.00598
-153.2755 180.16589 682.26093
-150.6416 180.2319 682.50708
-148.06731 180.3728 683.03302
-145.48689 180.5116 683.55072
-142.83949 180.57069 683.77112
-140.2486 180.7048 684.27191
-137.53391 180.6817 684.18561
-134.81799 180.6561 684.09009
-132.1579 180.7056 684.27478
-129.3275 180.5197 683.58087
-126.5554 180.40871 683.16681
-123.9449 180.5285 683.61359
-121.2247 180.4902 683.47083
-118.5552 180.52721 683.60907
-115.983 180.7177 684.31982
-113.3059 180.74989 684.43988
-110.6263 180.7796 684.55078
-107.7579 180.49451 683.487
-104.9418 180.2847 682.70398
-102.1747 180.15021 682.20227
-99.453377 180.09129 681.9823
-96.774422 180.108 682.04462
-94.298126 180.5136 683.55811
-91.729149 180.76041 684.479
-89.151649 181.0049 685.39117
-86.528267 181.16859 686.00208
-83.753708 181.0161 685.43323
-80.947327 180.78239 684.5611
-78.214684 180.7029 684.26453
-75.417641 180.4637 683.37183
-72.689949 180.3788 683.05511
-69.96376 180.2912 682.72852
-67.268517 180.2796 682.68518
-64.516327 180.10809 682.04523
-61.741322 179.8551 681.10132
-58.998791 179.6781 680.4408
-56.359421 179.8134 680.94537
-53.715248 179.94611 681.44067
-51.088749 180.15511 682.2204
-48.391819 180.12511 682.10852
-45.675098 180.0136 681.69263
-42.9799 179.9783 681.56091
-40.302818 180.0193 681.71368
-37.62397 180.0576 681.85663
-35.004711 180.40891 683.16748
-32.346241 180.5999 683.88013
-29.72053 181.0251 685.46667
-27.0464 181.21091 686.1601
-24.35577 181.3152 686.54919
-21.661711 181.41679 686.92853
-18.972589 181.5948 687.59253
-16.27792 181.7701 688.24683
-13.56603 181.7849 688.3017
-10.84883 181.7179 688.05188
-8.1405792 181.8063 688.38159
-5.4296112 181.892 688.70142
-2.710149 181.58 687.53717
0 181.5023 687.24731
2.7066109 181.3429 686.65277
5.4225359 181.655 687.81702
8.137042 181.72729 688.08679
10.84883 181.7179 688.05188
13.56014 181.7059 688.00702
16.27792 181.7701 688.24683
18.997339 181.8317 688.47662
21.718281 181.89059 688.69641
24.451229 182.0258 689.20081
27.187799 182.15829 689.69513
29.927891 182.28799 690.1792
32.643089 182.2572 690.06427
35.372162 182.3027 690.23383
38.069061 182.18761 689.80463
40.76194 182.07001 689.3656
43.413021 181.79201 688.32843
46.075161 181.5903 687.57593
48.709431 181.3073 686.51978
51.356892 181.1006 685.74847
54.044449 181.0489 685.5556
56.704971 180.9158 685.05908
59.386532 180.85899 684.84692
62.065498 180.7995 684.625
64.769958 180.8161 684.68707
67.415237 180.67281 684.1524
70.116287 180.6843 684.19513
72.753288 180.5359 683.64148
75.319168 180.228 682.49261
77.874832 179.91769 681.33478
80.525642 179.84061 681.047
83.281868 179.99631 681.62793
85.966537 179.9924 681.61359
88.842827 180.3779 683.05182
91.6894 180.6821 684.18683
94.420837 180.7485 684.43451
97.110786 180.73399 684.38049
99.92849 180.9516 685.19238
102.7511 181.1664 685.99402
105.3966 181.0659 685.61908
107.991 180.8849 684.94373
110.6263 180.7796 684.55078
113.257 180.67191 684.14899
115.933 180.6398 684.02899
118.6064 180.6051 683.89978
121.3293 180.6459 684.0517
123.9983 180.6062 683.90387
126.7735 180.7197 684.32703
129.4388 180.675 684.16058
132.0443 180.5504 683.69537
134.6443 180.4234 683.22168
137.2388 180.2942 682.73938
139.76759 180.08521 681.95959
141.9823 179.48711 679.72791
144.2402 178.9648 677.77887
146.0372 177.8999 673.80542
147.0918 175.9848 666.65979
147.82719 173.7618 658.36511
149.0313 172.15691 652.37653
151.1375 171.63071 650.41309
153.5024 171.411 649.59332
156.13901 171.49699 649.91412
158.776 171.58051 650.22589
161.341 171.5849 650.24219
163.8308 171.51041 649.96411
166.1676 171.2804 649.10608
167.74159 170.2831 645.3847
168.59711 168.59711 639.09351
169.093 166.60629 631.66541
169.6884 164.7699 624.81299
171.90379 164.5365 623.94208
174.2719 164.4538 623.63361
176.7173 164.4453 623.60193
179.07739 164.3587 623.27869
181.5166 164.3461 623.23187
183.8683 164.25571 622.89429
186.3011 164.23911 622.83252
188.8181 164.2963 623.04578
191.3343 164.3513 623.25098
193.84959 164.4041 623.44818
196.364 164.4548 623.63751
198.8772 164.5034 623.81873
201.5737 164.7005 624.55408
203.9935 164.6694 624.43817
206.4099 164.6364 624.31512
209.2038 164.90179 625.30518
211.71359 164.93961 625.44641
214.0273 164.82561 625.021
-237.6395 183.6306 685.1123
-235.01649 183.69099 685.33472
-232.29289 183.6734 685.27002
-229.37669 183.5014 684.63751
-226.5565 183.40289 684.27551
-223.7363 183.302 683.90448
-221.0081 183.27499 683.80518
-217.9137 182.9399 682.57318
-214.9157 182.67841 681.61169
-212.0112 182.4906 680.92139
-209.37309 182.5303 681.0675
-206.6443 182.4911 680.92322
-204 182.5264 681.0528
-201.4371 182.6364 681.45721
-198.95261 182.8213 682.13708
-196.5433 183.08141 683.09351
-194.1245 183.3398 684.04327
-191.6154 183.519 684.70227
-189.09911 183.6963 685.354
-186.49699 183.7941 685.71381
-183.65739 183.65739 685.211
-180.59 183.28529 683.84308
-177.6812 183.06551 683.03479
-175.0733 183.15359 683.35883
-172.3875 183.1617 683.38867
-169.48289 182.93401 682.55127
-166.72459 182.85921 682.27643
-164.0361 182.85989 682.27887
-161.41431 182.9362 682.55939
-158.7204 182.93201 682.54431
-156.158 183.0818 683.09497
-153.45821 183.07291 683.06232
-150.69209 182.98331 682.73273
-148.0533 183.04781 682.96973
-145.3485 183.0314 682.90973
-142.8257 183.248 683.70612
-140.1747 183.3054 683.91711
-137.4024 183.2032 683.5412
-134.7468 183.2556 683.73401
-132.0312 183.2269 683.62842
-129.37019 183.2744 683.8031
-126.5972 183.1618 683.38922
-123.9323 183.2043 683.54529
-121.2124 183.16541 683.40222
-118.543 183.2028 683.53979
-115.9209 183.3168 683.95892
-113.2452 183.3493 684.07831
-110.5192 183.30009 683.89758
-107.7466 183.1692 683.41608
-104.9308 182.9563 682.63348
-102.2083 182.89909 682.42322
-99.57238 182.99789 682.78638
-96.97422 183.17349 683.43213
-94.369652 183.34669 684.06891
-91.798477 183.597 684.98889
-89.180252 183.7654 685.60797
-86.518501 183.85181 685.92572
-83.780533 183.7766 685.64941
-80.903152 183.38049 684.19287
-78.20591 183.37939 684.1889
-75.507622 183.3757 684.17517
-72.808388 183.36929 684.15179
-70.077873 183.28059 683.82562
-67.348953 183.1891 683.48938
-64.649918 183.1748 683.43658
-61.815472 182.7588 681.90723
-59.0956 182.6591 681.54089
-56.402481 182.6366 681.45813
-53.732731 182.6913 681.65918
-51.08297 182.8233 682.14429
-48.428631 182.95261 682.61987
-45.7099 182.8396 682.20428
-43.031471 182.8837 682.3667
-40.351158 182.92529 682.51929
-37.669079 182.9641 682.66217
-35.015949 183.16029 683.38348
-32.356579 183.3539 684.09528
-29.71698 183.705 685.38599
-27.05492 183.9734 686.37292
-24.363411 184.0791 686.76147
-21.668489 184.18221 687.14038
-18.9785 184.36259 687.80371
-16.275909 184.4603 688.16278
-13.57613 184.63541 688.80652
-10.86633 184.72771 689.14587
-8.1537037 184.81731 689.47522
-5.4336462 184.744 689.20569
-2.7133491 184.50771 688.33728
0 184.429 688.04773
2.7109931 184.3475 687.74823
5.4218659 184.34351 687.73328
8.1325006 184.3367 687.70837
10.84278 184.32719 687.67352
13.55258 184.315 687.62872
16.275909 184.4603 688.16278
19.003229 184.6028 688.68689
21.72501 184.6626 688.90662
24.43759 184.6395 688.82178
27.184401 184.8539 689.60999
29.924129 184.9855 690.09381
32.639 184.9543 689.97913
35.352428 184.92039 689.85449
38.03138 184.72391 689.13177
40.73925 184.6846 688.98749
43.388901 184.4028 687.9516
46.029629 184.1185 686.90631
48.66132 183.8316 685.85162
51.30619 183.6221 685.08142
53.991131 183.56979 684.8891
56.67371 183.51489 684.68707
59.353828 183.45731 684.47528
62.058361 183.4769 684.54742
64.790672 183.57359 684.90277
67.495506 183.5878 684.9552
70.23024 183.67909 685.29077
72.871658 183.52859 684.73761
75.474831 183.29601 683.88239
77.968269 182.8221 682.1402
80.727623 182.9826 682.73022
83.490448 183.1404 683.31012
86.181793 183.13631 683.29529
88.910316 183.20911 683.56299
91.719063 183.4381 684.40479
94.492233 183.5849 684.94452
97.184242 183.57021 684.89062
100.047 183.87019 685.99329
102.7841 183.9295 686.21118
105.4306 183.82761 685.83691
107.9794 183.565 684.8714
110.5669 183.3793 684.18848
113.1963 183.2702 683.7876
115.8709 183.23779 683.66827
118.4919 183.1239 683.24951
121.2124 183.16541 683.40222
124.039 183.36211 684.12518
126.7061 183.3195 683.96869
129.37019 183.2744 683.8031
131.9745 183.14819 683.33911
134.6311 183.0983 683.15558
137.2256 182.96741 682.67432
139.81441 182.8342 682.18457
142.214 182.4633 680.8208
144.53889 182.01199 679.16168
146.659 181.3239 676.6319
147.7905 179.4599 669.77917
148.34309 176.9707 660.62762
149.4239 175.1866 654.06848
151.1304 174.1842 650.38318
153.4267 173.88361 649.27777
155.9922 173.89301 649.31238
158.698 174.05589 649.91138
161.4783 174.2941 650.78699
164.0435 174.2962 650.79498
166.3838 174.063 649.93762
168.26331 173.3622 647.36108
169.89211 172.4278 643.92572
171.1055 171.1055 639.06427
170.3952 167.9257 627.37402
172.06329 167.1472 624.51178
174.1918 166.8316 623.35138
176.5546 166.746 623.0368
178.9128 166.65849 622.71503
181.3501 166.6461 622.66937
183.78481 166.63161 622.61609
186.3027 166.69189 622.83789
188.8199 166.75 623.05151
191.42419 166.8826 623.53912
193.9407 166.93629 623.73639
196.45621 166.98779 623.92572
199.0618 167.1136 624.38812
201.48399 167.0843 624.28052
203.99609 167.1293 624.44611
206.4128 167.0961 624.32373
209.2066 167.3653 625.31348
211.62041 167.3278 625.17572
213.93359 167.2124 624.75159
-237.81731 186.4704 685.61737
-235.19209 186.53169 685.83948
-232.46651 186.51379 685.77478
-229.45351 186.26221 684.8631
-226.5383 186.08501 684.22113
-223.8111 186.05991 684.12988
-220.99001 185.955 683.74988
-218.0779 185.7701 683.08002
-215.16811 185.5825 682.40033
-212.34959 185.46989 681.99237
-209.6194 185.4325 681.85699
-206.8876 185.39281 681.71301
-204.2402 185.4286 681.84271
-201.58929 185.4621 681.96429
-199.10249 185.6496 682.64349
-196.6909 185.9133 683.59888
-194.2697 186.17509 684.54761
-191.8391 186.4352 685.48969
-189.3195 186.6149 686.14093
-186.7141 186.7141 686.50049
-183.71671 186.4185 685.4292
-180.6487 186.0412 684.06232
-177.81441 185.8969 683.53943
-174.9818 185.74989 683.0069
-172.44341 185.9156 683.60712
-169.5381 185.6846 682.7702
-166.9917 185.8456 683.3537
-164.2291 185.7674 683.07019
-161.46651 185.68649 682.77728
-158.83949 185.7614 683.04871
-156.2749 185.9133 683.59869
-153.50751 185.82491 683.27863
-150.8694 185.8927 683.52417
-148.16409 185.8786 683.47333
-145.33279 185.70309 682.83728
-142.7489 185.8429 683.34399
-140.0392 185.8213 683.26562
-137.44611 185.95641 683.75519
-134.7317 185.92979 683.65863
-132.0163 185.9005 683.55261
-129.2444 185.7888 683.14801
-126.5828 185.8343 683.31262
-123.9714 185.95711 683.75781
-121.3028 185.9976 683.90442
-118.5803 185.95551 683.75177
-115.9073 185.9908 683.87982
-113.2318 186.0237 683.99872
-110.4585 185.89349 683.52722
-107.7338 185.84081 683.33643
-104.9184 185.62489 682.55408
-102.2405 185.6472 682.6347
-99.603592 185.74719 682.99731
-97.004463 185.9252 683.64209
-94.398933 186.1008 684.27808
-91.787102 186.2738 684.90521
-89.207603 186.52499 685.81519
-86.507584 186.532 685.84052
-83.80616 186.5363 685.85608
-81.06839 186.45731 685.56989
-78.297852 186.29491 684.98138
-75.563637 186.2104 684.67529
-72.893997 186.2847 684.94452
-70.190788 186.2756 684.91138
-67.486862 186.2637 684.86871
-64.754219 186.1684 684.52307
-61.969509 185.90849 683.5816
-59.243 185.8076 683.21588
-56.49395 185.623 682.54712
-53.749439 185.43559 681.86798
-51.098789 185.56931 682.35248
-48.443581 185.70039 682.82758
-45.763969 185.74789 682.99951
-43.082352 185.7926 683.16168
-40.398849 185.8347 683.31421
-37.713589 185.8741 683.45697
-35.02668 185.9108 683.59003
-32.394661 186.2693 684.88867
-29.738899 186.54401 685.88422
-27.06304 186.735 686.57599
-24.37071 186.8421 686.96417
-21.674959 186.9465 687.34259
-18.98415 187.12939 688.00519
-16.28779 187.3096 688.65802
-13.58014 187.4059 689.0069
-10.86953 187.4995 689.34589
-8.1525688 187.50909 689.38068
-5.4328909 187.4348 689.11151
-2.7153289 187.3577 688.83221
0 187.3591 688.83728
2.712975 187.1953 688.24377
5.421124 187.02879 687.6405
8.1313877 187.0219 687.61572
10.846 187.09351 687.87512
13.55661 187.08121 687.83032
16.280741 187.22839 688.36401
19.00885 187.37289 688.88751
21.731421 187.4335 689.10687
24.476561 187.65359 689.90442
27.227671 187.8709 690.69177
29.932899 187.76089 690.29321
32.634472 187.64819 689.88483
35.347542 187.61391 689.76038
38.042622 187.4958 689.33252
40.716061 187.2939 688.60101
43.36425 187.0083 687.56628
45.983559 186.6391 686.22882
48.6549 186.5105 685.76251
51.277191 186.21719 684.69989
53.93718 186.0833 684.21472
56.64175 186.1086 684.30652
59.346191 186.1312 684.38849
62.077351 186.23199 684.75378
64.810471 186.33009 685.10907
67.603996 186.5871 686.03998
70.28212 186.5179 685.78961
72.957207 186.4462 685.52972
75.530884 186.1297 684.38281
78.128273 185.8914 683.51947
80.822899 185.8927 683.52417
83.552597 185.97189 683.81128
86.320702 186.129 684.38049
89.014977 186.12219 684.3559
91.826767 186.35429 685.1969
94.60302 186.5031 685.7359
97.298203 186.4882 685.68188
100.0778 186.6315 686.20099
102.8157 186.6916 686.41888
105.4631 186.5885 686.04523
107.9664 186.2421 684.79022
110.5061 185.97369 683.81769
113.1342 185.8633 683.41791
115.8075 185.8306 683.29938
118.4782 185.79539 683.17157
121.2506 185.9176 683.6145
124.078 186.1171 684.3371
126.746 186.07401 684.18103
129.411 186.0284 684.01593
132.073 185.9803 683.84167
134.6739 185.85001 683.36969
137.26939 185.71741 682.88922
139.9192 185.66209 682.6886
142.44341 185.44521 681.90277
144.9595 185.2261 681.10901
147.0244 184.44881 678.29279
148.4216 182.8766 672.59631
149.18359 180.59061 664.31378
150.0802 178.5437 656.8974
151.1891 176.81441 650.63202
153.2803 176.2724 648.66803
155.8437 176.2822 648.70361
158.5471 176.4476 649.30298
161.5412 176.9261 651.0365
164.1806 177.0072 651.33038
166.7458 177.0071 651.33002
169.08299 176.7686 650.46588
171.1062 176.21381 648.45581
171.9509 174.4796 642.17242
172.1971 172.1971 633.90253
172.77699 170.3087 627.06073
174.2708 169.36169 623.62939
176.4715 169.11861 622.74841
178.8289 169.03011 622.4278
181.2654 169.0177 622.38312
183.6992 169.0033 622.33069
186.13029 168.98669 622.27081
188.73241 169.12379 622.76752
191.33569 169.2585 623.25549
194.02921 169.46851 624.0163
196.54581 169.5208 624.20569
199.1524 169.64841 624.66803
201.4839 169.5414 624.28027
203.9962 169.5872 624.44629
206.8833 169.9398 625.72412
209.1118 169.7496 625.03461
211.5249 169.71181 624.89783
213.8373 169.59509 624.4751
-237.89391 189.2338 685.8349
-235.17059 189.2177 685.77759
-232.541 189.2775 685.99121
-229.8121 189.257 685.91779
-227.08099 189.2341 685.83618
-224.1619 189.0522 685.1864
-221.33681 188.946 684.80719
-218.42081 188.7588 684.13843
-215.5072 188.5688 683.4599
-212.68469 188.4548 683.0528
-209.86259 188.3382 682.6366
-207.3882 188.5347 683.33832
-204.7345 188.5713 683.46887
-201.99271 188.5265 683.30902
-199.33321 188.5585 683.42297
-196.9183 188.8257 684.37762
-194.4122 189.0119 685.04242
-191.8183 189.11659 685.41638
-189.2986 189.2986 686.06628
-186.6933 189.399 686.42499
-183.851 189.2583 685.92261
-180.93381 189.03529 685.12598
-178.02029 188.8094 684.31927
-175.1106 188.5806 683.50232
-172.49699 188.66859 683.81653
-169.73489 188.5943 683.55121
-167.1853 188.7576 684.13428
-164.41969 188.6783 683.85107
-161.5854 188.5162 683.27228
-158.821 188.43159 682.97021
-156.25639 188.5853 683.51898
-153.55479 188.576 683.48578
-150.9157 188.64461 683.73077
-148.2095 188.63029 683.67963
-145.3774 188.4523 683.04382
-142.67039 188.43269 682.97382
-139.9621 188.41051 682.89471
-137.429 188.62801 683.67139
-134.83031 188.7625 684.15161
-132.1129 188.7328 684.04572
-129.4501 188.7814 684.21942
-126.7298 188.7466 684.09479
-123.9023 188.547 683.38208
-121.4435 188.91209 684.68622
-118.616 188.7072 683.95428
-115.992 188.8241 684.37189
-113.2657 188.77609 684.20038
-110.4916 188.6441 683.72913
-107.7661 188.5907 683.53833
-104.9954 188.4532 683.04712
-102.3154 188.47569 683.12762
-99.633408 188.49561 683.19873
-97.075256 188.75751 684.13379
-94.467667 188.9353 684.76898
-91.853783 189.1107 685.39539
-89.272179 189.3652 686.30438
-86.607521 189.4539 686.62128
-83.939171 189.5401 686.92877
-81.232208 189.54179 686.93512
-78.524071 189.54089 686.93158
-75.78215 189.4554 686.62628
-72.915314 189.0397 685.14178
-70.211304 189.0304 685.10858
-67.506569 189.0184 685.06567
-64.801247 189.0036 685.01312
-62.122391 189.0681 685.24341
-59.389301 188.966 684.87842
-56.609081 188.6969 683.91772
-53.812279 188.343 682.6535
-51.180729 188.56059 683.43073
-48.457851 188.4472 683.0257
-45.797359 188.57739 683.4906
-43.11377 188.6227 683.65259
-40.4459 188.7475 684.09833
-37.757488 188.78751 684.24103
-35.06744 188.82471 684.37378
-32.446308 189.2702 685.9649
-29.773291 189.4664 686.66559
-27.082529 189.5777 687.06317
-24.398809 189.76849 687.74463
-21.699921 189.8743 688.12262
-19.00597 190.05969 688.78461
-16.31354 190.3246 689.73059
-13.59571 190.3399 689.78528
-10.87728 190.3524 689.83008
-8.1583786 190.3622 689.86493
-5.4391179 190.36909 689.88977
-2.719619 190.37331 689.90472
0 190.2924 689.61578
2.717268 190.20869 689.31689
5.4297142 190.03999 688.71417
8.1477985 190.1153 688.98328
10.86318 190.10561 688.94849
13.57808 190.09309 688.90381
16.30648 190.24229 689.43683
19.03887 190.3887 689.95978
21.775129 190.53239 690.47272
24.53627 190.8376 691.56299
27.28223 190.9756 692.05579
29.992929 190.86411 691.65747
32.671791 190.5854 690.66217
35.372711 190.4684 690.24438
38.05331 190.2666 689.52338
40.72757 190.062 688.79279
43.35783 189.69051 687.46613
45.99678 189.3985 686.42328
48.69006 189.3502 686.25092
51.29211 188.9709 684.89618
53.929489 188.7532 684.11871
56.658291 188.86099 684.50348
59.440849 189.13 685.46417
62.149319 189.1501 685.53607
64.857437 189.1675 685.59833
67.59433 189.2641 685.94342
70.393784 189.5217 686.86322
73.104736 189.53081 686.89581
75.74942 189.3736 686.33411
78.35466 189.1319 685.47119
81.022003 189.0513 685.18329
83.75824 189.1315 685.46973
86.495506 189.20889 685.74622
89.156723 189.1203 685.42969
91.89341 189.19231 685.68683
94.671547 189.34309 686.22528
97.368713 189.328 686.17157
100.064 189.3103 686.10828
102.8458 189.4528 686.61719
105.5394 189.4297 686.53479
107.9985 188.99741 684.9906
110.5868 188.8067 684.30969
113.1682 188.61369 683.62018
115.8424 188.5806 683.50208
118.718 188.86951 684.53381
121.3393 188.75 684.10712
124.1153 188.87109 684.53967
126.8929 188.9895 684.9624
129.5611 188.9433 684.79742
132.2262 188.8945 684.62323
134.83031 188.7625 684.15161
137.429 188.62801 683.67139
140.2019 188.73331 684.04742
142.73151 188.51331 683.26178
145.1288 188.13 681.89282
147.38721 187.58369 679.94177
149.49989 186.87489 677.41028
150.87131 185.2805 671.71619
150.9994 182.24071 660.85962
151.7868 180.08611 653.16461
153.4071 178.97501 649.19641
155.7632 178.7446 648.37372
158.3945 178.8325 648.68738
161.3139 179.2377 650.13483
164.0961 179.4801 651.00043
166.7343 179.5601 651.28589
169.2222 179.478 650.99298
171.55299 179.2345 650.12323
173.10181 178.19299 646.40363
173.8365 176.3559 639.84241
173.8844 173.8844 631.01569
174.4278 171.9711 624.18262
176.5495 171.6454 623.01923
178.8255 171.4765 622.41632
181.2621 171.4642 622.37207
183.6114 171.3707 622.03802
186.0416 171.3541 621.97913
188.6427 171.4933 622.47607
191.33279 171.70889 623.24622
193.9373 171.8432 623.72559
196.7227 172.13229 624.75842
199.1496 172.1046 624.65912
201.66521 172.1532 624.83282
204.1796 172.1996 624.99872
206.6927 172.2439 625.15692
209.1095 172.20779 625.02789
211.4268 172.0916 624.61292
213.8356 172.0517 624.47021
-237.86951 191.9174 685.76562
-235.34 192.0591 686.2644
-232.6124 192.0405 686.19891
-229.8826 192.0195 686.12512
-227.1505 191.9962 686.04321
-224.7878 192.2883 687.07147
-221.9557 192.18111 686.69409
-218.8512 191.8326 685.46667
-215.8429 191.56059 684.50897
-212.9277 191.3654 683.8219
-210.1028 191.24741 683.40631
-207.45171 191.28661 683.54437
-204.797 191.3235 683.67438
-202.2235 191.43829 684.07849
-199.7281 191.6311 684.75732
-197.0602 191.6613 684.86371
-194.4705 191.7695 685.24481
-191.8755 191.8755 685.61798
-189.27541 191.97929 685.98352
-186.5918 192.0002 686.05719
-183.9826 192.0994 686.40649
-180.9874 191.7926 685.32617
-178.14841 191.6445 684.80438
-175.311 191.4935 684.27289
-172.4023 191.2588 683.44672
-169.78529 191.3454 683.7514
-167.3055 191.5918 684.61902
-164.6078 191.59261 684.62189
-161.77049 191.42841 684.0437
-158.9355 191.2614 683.45569
-156.43539 191.4985 684.29053
-153.6653 191.40759 683.97052
-150.8956 191.3141 683.64111
-148.1897 191.29939 683.58942
-145.48219 191.2821 683.52863
-142.77319 191.26221 683.45862
-140.0629 191.2397 683.37927
-137.4689 191.3783 683.86713
-134.927 191.5963 684.63483
-132.26421 191.6481 684.81732
-129.7646 191.94341 685.85712
-126.9836 191.8262 685.44452
-124.0977 191.54201 684.44379
-121.4261 191.5835 684.58972
-118.7519 191.6223 684.72638
-116.0749 191.6586 684.85413
-113.3954 191.6922 684.97247
-110.7134 191.72321 685.08173
-107.9362 191.58681 684.60132
-105.2519 191.6124 684.69159
-102.6537 191.8004 685.35352
-99.790894 191.4906 684.26282
-97.186501 191.6734 684.90631
-94.575729 191.85361 685.54102
-91.958672 192.0313 686.16669
-89.373871 192.2892 687.07483
-86.7061 192.3792 687.39142
-83.998489 192.38361 687.40723
-81.289597 192.38541 687.41333
-78.613388 192.4673 687.7016
-75.868423 192.3806 687.39673
-73.061752 192.1254 686.49768
-70.32196 192.0331 686.17273
-67.583771 191.9379 685.83783
-64.875366 191.923 685.7851
-62.1665 191.9053 685.72278
-59.457272 191.8848 685.65082
-56.723209 191.7785 685.27631
-54.014759 191.7524 685.18457
-51.261799 191.5573 684.49738
-48.45034 191.1097 682.92139
-45.770302 191.15829 683.09271
-43.107029 191.2874 683.54718
-40.52747 191.83 685.45789
-37.83363 191.8705 685.60052
-35.153381 191.9915 686.02661
-32.483341 192.1931 686.73633
-29.7943 192.30859 687.14313
-27.11334 192.5047 687.8335
-24.426519 192.6981 688.51428
-21.733931 192.8886 689.18542
-19.035709 193.07651 689.84668
-16.331961 193.26151 690.49823
-13.61106 193.27699 690.55292
-10.88956 193.2897 690.5976
-8.1711111 193.383 690.92603
-5.4452581 193.3067 690.65723
