# .PCD v0.7 - Point Cloud Data file format
VERSION 0.7
FIELDS x y z vp_x vp_y vp_z
SIZE 4 4 4 4 4 4
TYPE F F F F F F
COUNT 1 1 1 1 1 1
WIDTH 769
HEIGHT 1
VIEWPOINT 0 0 0 1 0 0 0
POINTS 769
DATA ascii
0.037400752 0.079999998 0.0043587564 -0.14741376 0.38593423 -0.23852047
0.03609075 0.079999998 0.0040198723 -0.14741376 0.38593423 -0.23852047
0.0347853 0.079999998 0.0036824502 -0.14741376 0.38593423 -0.23852047
0.033484355 0.079999998 0.0033464772 -0.14741376 0.38593423 -0.23852047
0.032187875 0.079999998 0.003011941 -0.14741376 0.38593423 -0.23852047
0.030895816 0.079999998 0.0026788295 -0.14741376 0.38593423 -0.23852047
0.02960814 0.079999998 0.0023471303 -0.14741376 0.38593423 -0.23852047
0.028324801 0.079999998 0.0020168317 -0.14741376 0.38593423 -0.23852047
0.027045764 0.079999998 0.0016879214 -0.14741376 0.38593423 -0.23852047
0.025770985 0.079999998 0.0013603879 -0.14741376 0.38593423 -0.23852047
0.024500424 0.079999998 0.0010342195 -0.14741376 0.38593423 -0.23852047
0.023234043 0.079999998 0.00070940482 -0.14741376 0.38593423 -0.23852047
0.021971803 0.079999998 0.00038593225 -0.14741376 0.38593423 -0.23852047
0.020713663 0.079999998 6.3790576e-05 -0.14741376 0.38593423 -0.23852047
0.019639606 0.079669967 0 -0.14741376 0.38593423 -0.23852047
0.018610848 0.07925871 0 -0.14741376 0.38593423 -0.23852047
0.017582426 0.078848027 0 -0.14741376 0.38593423 -0.23852047
0.016554326 0.078437909 0 -0.14741376 0.38593423 -0.23852047
0.015526538 0.078028351 0 -0.14741376 0.38593423 -0.23852047
0.01449905 0.077619351 0 -0.14741376 0.38593423 -0.23852047
0.013471849 0.077210903 0 -0.14741376 0.38593423 -0.23852047
0.012444926 0.076802999 0 -0.14741376 0.38593423 -0.23852047
0.011418268 0.076395638 0 -0.14741376 0.38593423 -0.23852047
0.010391863 0.075988814 0 -0.14741376 0.38593423 -0.23852047
0.0093656993 0.075582519 0 -0.14741376 0.38593423 -0.23852047
0.0083397655 0.075176753 0 -0.14741376 0.38593423 -0.23852047
0.0073140496 0.074771509 0 -0.14741376 0.38593423 -0.23852047
0.006288541 0.074366778 0 -0.14741376 0.38593423 -0.23852047
0.005263227 0.073962562 0 -0.14741376 0.38593423 -0.23852047
0.004238097 0.073558852 0 -0.14741376 0.38593423 -0.23852047
0.0032131388 0.073155649 0 -0.14741376 0.38593423 -0.23852047
0.002188341 0.072752938 0 -0.14741376 0.38593423 -0.23852047
0.001163692 0.072350726 0 -0.14741376 0.38593423 -0.23852047
0.00013918022 0.071948998 0 -0.14741376 0.38593423 -0.23852047
0 0.069648489 0.0014409457 -0.14741376 0.38593423 -0.23852047
0 0.067015983 0.0031301444 -0.14741376 0.38593423 -0.23852047
0 0.064346865 0.0048431209 -0.14741376 0.38593423 -0.23852047
0 0.061640322 0.0065804007 -0.14741376 0.38593423 -0.23852047
0 0.058895525 0.0083425241 -0.14741376 0.38593423 -0.23852047
0 0.056111615 0.010130048 -0.14741376 0.38593423 -0.23852047
0 0.053287707 0.011943546 -0.14741376 0.38593423 -0.23852047
0 0.050422892 0.013783609 -0.14741376 0.38593423 -0.23852047
0 0.04751623 0.015650848 -0.14741376 0.38593423 -0.23852047
0 0.044566754 0.017545888 -0.14741376 0.38593423 -0.23852047
0 0.041573469 0.019469379 -0.14741376 0.38593423 -0.23852047
0 0.038535342 0.021421988 -0.14741376 0.38593423 -0.23852047
0 0.035451315 0.023404401 -0.14741376 0.38593423 -0.23852047
2.7755576e-17 0.032320291 0.02541733 -0.14741376 0.38593423 -0.23852047
2.7755576e-17 0.029141145 0.02746151 -0.14741376 0.38593423 -0.23852047
0 0.025912708 0.029537696 -0.14741376 0.38593423 -0.23852047
2.7755576e-17 0.022633776 0.031646669 -0.14741376 0.38593423 -0.23852047
0 0.019303108 0.033789236 -0.14741376 0.38593423 -0.23852047
0 0.015919415 0.035966232 -0.14741376 0.38593423 -0.23852047
0 0.012481375 0.038178522 -0.14741376 0.38593423 -0.23852047
0.039912064 0.079999998 0.0036338365 -0.14741376 0.38593423 -0.23852047
0.038595334 0.079999998 0.0032950474 -0.14741376 0.38593423 -0.23852047
0.037283223 0.079999998 0.0029577222 -0.14741376 0.38593423 -0.23852047
0.035975687 0.079999998 0.0026218484 -0.14741376 0.38593423 -0.23852047
0.034672685 0.079999998 0.0022874132 -0.14741376 0.38593423 -0.23852047
0.033374172 0.079999998 0.0019544046 -0.14741376 0.38593423 -0.23852047
0.032080103 0.079999998 0.0016228101 -0.14741376 0.38593423 -0.23852047
0.030790443 0.079999998 0.0012926179 -0.14741376 0.38593423 -0.23852047
0.029505147 0.079999998 0.00096381584 -0.14741376 0.38593423 -0.23852047
0.028224176 0.079999998 0.00063639221 -0.14741376 0.38593423 -0.23852047
0.026947485 0.079999998 0.00031033522 -0.14741376 0.38593423 -0.23852047
0.025685467 0.079981573 0 -0.14741376 0.38593423 -0.23852047
0.024650427 0.079566211 0 -0.14741376 0.38593423 -0.23852047
0.023615791 0.079151429 0 -0.14741376 0.38593423 -0.23852047
0.022581546 0.078737244 0 -0.14741376 0.38593423 -0.23852047
0.021547681 0.078323632 0 -0.14741376 0.38593423 -0.23852047
0.020514183 0.077910595 0 -0.14741376 0.38593423 -0.23852047
0.019481041 0.077498123 0 -0.14741376 0.38593423 -0.23852047
0.018448243 0.077086218 0 -0.14741376 0.38593423 -0.23852047
0.017415779 0.076674871 0 -0.14741376 0.38593423 -0.23852047
0.016383633 0.076264076 0 -0.14741376 0.38593423 -0.23852047
0.015351796 0.075853825 0 -0.14741376 0.38593423 -0.23852047
0.014320255 0.075444125 0 -0.14741376 0.38593423 -0.23852047
0.013289 0.075034961 0 -0.14741376 0.38593423 -0.23852047
0.012258017 0.074626327 0 -0.14741376 0.38593423 -0.23852047
0.011227295 0.074218221 0 -0.14741376 0.38593423 -0.23852047
0.036628194 0.021467367 0.039999999 -0.14741376 0.38593423 -0.23852047
0.0091665881 0.073403582 0 -0.14741376 0.38593423 -0.23852047
0.0081365788 0.072997034 0 -0.14741376 0.38593423 -0.23852047
0.0071067838 0.072590999 0 -0.14741376 0.38593423 -0.23852047
0.0060771909 0.072185464 0 -0.14741376 0.38593423 -0.23852047
0.0050477888 0.071780428 0 -0.14741376 0.38593423 -0.23852047
0.0040185661 0.071375884 0 -0.14741376 0.38593423 -0.23852047
0.0029895101 0.070971832 0 -0.14741376 0.38593423 -0.23852047
0.00196061 0.070568264 0 -0.14741376 0.38593423 -0.23852047
0.00093185378 0.070165172 0 -0.14741376 0.38593423 -0.23852047
0 0.069554873 0.00015668035 -0.14741376 0.38593423 -0.23852047
0 0.066925287 0.0018347361 -0.14741376 0.38593423 -0.23852047
0 0.064259179 0.0035363731 -0.14741376 0.38593423 -0.23852047
0 0.061555736 0.0052621113 -0.14741376 0.38593423 -0.23852047
0 0.058814134 0.0070124865 -0.14741376 0.38593423 -0.23852047
0 0.056033518 0.0087880502 -0.14741376 0.38593423 -0.23852047
0 0.053213011 0.010589371 -0.14741376 0.38593423 -0.23852047
0 0.050351698 0.012417033 -0.14741376 0.38593423 -0.23852047
0 0.04744865 0.01427164 -0.14741376 0.38593423 -0.23852047
0 0.044502903 0.016153814 -0.14741376 0.38593423 -0.23852047
0 0.041513462 0.018064197 -0.14741376 0.38593423 -0.23852047
0 0.038479306 0.020003447 -0.14741376 0.38593423 -0.23852047
0 0.035399374 0.021972248 -0.14741376 0.38593423 -0.23852047
0 0.032272577 0.023971304 -0.14741376 0.38593423 -0.23852047
0 0.029097794 0.026001338 -0.14741376 0.38593423 -0.23852047
0 0.02587386 0.028063102 -0.14741376 0.38593423 -0.23852047
0 0.02259958 0.030157367 -0.14741376 0.38593423 -0.23852047
0 0.019273713 0.032284934 -0.14741376 0.38593423 -0.23852047
0 0.015894981 0.034446627 -0.14741376 0.38593423 -0.23852047
2.7755576e-17 0.012462064 0.0366433 -0.14741376 0.38593423 -0.23852047
0 0.0089735948 0.038875829 -0.14741376 0.38593423 -0.23852047
0.039790027 0.079999998 0.0022321553 -0.14741376 0.38593423 -0.23852047
0.038475789 0.079999998 0.0018964026 -0.14741376 0.38593423 -0.23852047
0.037166148 0.079999998 0.0015620904 -0.14741376 0.38593423 -0.23852047
0.035861067 0.079999998 0.0012292066 -0.14741376 0.38593423 -0.23852047
0.034560502 0.079999998 0.00089773879 -0.14741376 0.38593423 -0.23852047
0.03326441 0.079999998 0.00056767487 -0.14741376 0.38593423 -0.23852047
0.031972747 0.079999998 0.00023900281 -0.14741376 0.38593423 -0.23852047
0.030751422 0.079886712 0 -0.14741376 0.38593423 -0.23852047
0.029710142 0.079467788 0 -0.14741376 0.38593423 -0.23852047
0.028669324 0.079049468 0 -0.14741376 0.38593423 -0.23852047
0.027628954 0.078631744 0 -0.14741376 0.38593423 -0.23852047
0.026589023 0.078214616 0 -0.14741376 0.38593423 -0.23852047
0.025549516 0.077798069 0 -0.14741376 0.38593423 -0.23852047
0.024510425 0.077382103 0 -0.14741376 0.38593423 -0.23852047
0.023471734 0.076966718 0 -0.14741376 0.38593423 -0.23852047
0.02243343 0.076551899 0 -0.14741376 0.38593423 -0.23852047
0.021395504 0.076137647 2.7755576e-17 -0.14741376 0.38593423 -0.23852047
0.020357944 0.075723961 0 -0.14741376 0.38593423 -0.23852047
0.019320738 0.075310819 0 -0.14741376 0.38593423 -0.23852047
0.01828387 0.074898235 0 -0.14741376 0.38593423 -0.23852047
0.017247332 0.074486196 0 -0.14741376 0.38593423 -0.23852047
0.016211111 0.0740747 0 -0.14741376 0.38593423 -0.23852047
0.015175195 0.073663734 0 -0.14741376 0.38593423 -0.23852047
0.014139572 0.073253304 0 -0.14741376 0.38593423 -0.23852047
0.01310423 0.072843395 0 -0.14741376 0.38593423 -0.23852047
0.012069157 0.072434008 0 -0.14741376 0.38593423 -0.23852047
0.011034342 0.072025135 0 -0.14741376 0.38593423 -0.23852047
0.0099997716 0.071616769 0 -0.14741376 0.38593423 -0.23852047
0.0089654345 0.071208909 0 -0.14741376 0.38593423 -0.23852047
0.0079313191 0.070801556 0 -0.14741376 0.38593423 -0.23852047
0.0068974132 0.070394695 0 -0.14741376 0.38593423 -0.23852047
0.0058637056 0.069988325 0 -0.14741376 0.38593423 -0.23852047
0.0048301839 0.06958244 0 -0.14741376 0.38593423 -0.23852047
0.0037968366 0.069177032 0 -0.14741376 0.38593423 -0.23852047
0.0027636515 0.068772107 0 -0.14741376 0.38593423 -0.23852047
0.0017306171 0.068367653 0 -0.14741376 0.38593423 -0.23852047
0.00069772167 0.06796366 0 -0.14741376 0.38593423 -0.23852047
0 0.066834874 0.00054335187 -0.14741376 0.38593423 -0.23852047
0 0.064171761 0.0022337087 -0.14741376 0.38593423 -0.23852047
0 0.061471414 0.0039479672 -0.14741376 0.38593423 -0.23852047
0 0.058733001 0.0056866566 -0.14741376 0.38593423 -0.23852047
0 0.055955671 0.0074503245 -0.14741376 0.38593423 -0.23852047
0 0.05313855 0.009239533 -0.14741376 0.38593423 -0.23852047
0 0.050280735 0.011054861 -0.14741376 0.38593423 -0.23852047
0 0.047381289 0.012896907 -0.14741376 0.38593423 -0.23852047
0 0.04443926 0.014766285 -0.14741376 0.38593423 -0.23852047
0 0.041453656 0.016663631 -0.14741376 0.38593423 -0.23852047
0 0.038423453 0.018589599 -0.14741376 0.38593423 -0.23852047
0 0.035347607 0.020544864 -0.14741376 0.38593423 -0.23852047
0 0.032225024 0.022530124 -0.14741376 0.38593423 -0.23852047
0 0.02905459 0.024546094 -0.14741376 0.38593423 -0.23852047
0 0.025835145 0.026593518 -0.14741376 0.38593423 -0.23852047
0 0.022565501 0.028673159 -0.14741376 0.38593423 -0.23852047
0 0.019244419 0.030785812 -0.14741376 0.38593423 -0.23852047
0 0.015870631 0.032932289 -0.14741376 0.38593423 -0.23852047
0 0.01244282 0.035113439 -0.14741376 0.38593423 -0.23852047
2.7755576e-17 0.0089596258 0.037330132 -0.14741376 0.38593423 -0.23852047
0 0.0054196436 0.039583266 -0.14741376 0.38593423 -0.23852047
0.039668459 0.079999998 0.00083586638 -0.14741376 0.38593423 -0.23852047
0.038356699 0.079999998 0.00050312962 -0.14741376 0.38593423 -0.23852047
0.037049521 0.079999998 0.00017181059 -0.14741376 0.38593423 -0.23852047
0.035868373 0.079797074 0 -0.14741376 0.38593423 -0.23852047
0.039999999 0.07066153 0.0067792269 -0.14741376 0.38593423 -0.23852047
0.033773221 0.07895267 0 -0.14741376 0.38593423 -0.23852047
0.032726418 0.078531384 0 -0.14741376 0.38593423 -0.23852047
0.031680107 0.078110702 0 -0.14741376 0.38593423 -0.23852047
0.030634284 0.077690624 0 -0.14741376 0.38593423 -0.23852047
0.029588934 0.077271141 0 -0.14741376 0.38593423 -0.23852047
0.028544042 0.07685224 0 -0.14741376 0.38593423 -0.23852047
0.027499598 0.076433934 0 -0.14741376 0.38593423 -0.23852047
0.026455591 0.076016195 0 -0.14741376 0.38593423 -0.23852047
0.025412004 0.075599037 0 -0.14741376 0.38593423 -0.23852047
0.02436883 0.075182445 0 -0.14741376 0.38593423 -0.23852047
0.023326054 0.07476642 0 -0.14741376 0.38593423 -0.23852047
0.022283664 0.074350953 0 -0.14741376 0.38593423 -0.23852047
0.021241648 0.07393603 0 -0.14741376 0.38593423 -0.23852047
0.020199995 0.073521666 0 -0.14741376 0.38593423 -0.23852047
0.019158691 0.073107839 0 -0.14741376 0.38593423 -0.23852047
0.018117726 0.072694547 0 -0.14741376 0.38593423 -0.23852047
0.017077085 0.072281785 0 -0.14741376 0.38593423 -0.23852047
0.016036758 0.07186956 0 -0.14741376 0.38593423 -0.23852047
0.014996732 0.071457848 0 -0.14741376 0.38593423 -0.23852047
0.013956996 0.071046658 0 -0.14741376 0.38593423 -0.23852047
0.012917536 0.070635974 0 -0.14741376 0.38593423 -0.23852047
0.011878342 0.070225805 0 -0.14741376 0.38593423 -0.23852047
0.010839402 0.069816135 0 -0.14741376 0.38593423 -0.23852047
0.0098007023 0.069406956 0 -0.14741376 0.38593423 -0.23852047
0.0087622311 0.068998277 0 -0.14741376 0.38593423 -0.23852047
0.0077239783 0.068590082 0 -0.14741376 0.38593423 -0.23852047
0.0066859303 0.068182364 0 -0.14741376 0.38593423 -0.23852047
0.0056480756 0.06777513 0 -0.14741376 0.38593423 -0.23852047
0.0046104025 0.067368366 0 -0.14741376 0.38593423 -0.23852047
0.0035728985 0.066962071 0 -0.14741376 0.38593423 -0.23852047
0.002535552 0.066556238 0 -0.14741376 0.38593423 -0.23852047
0.0014983511 0.066150866 0 -0.14741376 0.38593423 -0.23852047
0.00046128387 0.065745942 0 -0.14741376 0.38593423 -0.23852047
0 0.064084619 0.00093509152 -0.14741376 0.38593423 -0.23852047
0 0.061387356 0.0026379302 -0.14741376 0.38593423 -0.23852047
0 0.058652122 0.0043649967 -0.14741376 0.38593423 -0.23852047
0 0.055878069 0.0061168317 -0.14741376 0.38593423 -0.23852047
0 0.053064328 0.0078939926 -0.14741376 0.38593423 -0.23852047
0 0.050209995 0.0096970545 -0.14741376 0.38593423 -0.23852047
0 0.047314145 0.011526606 -0.14741376 0.38593423 -0.23852047
0 0.044375822 0.01338326 -0.14741376 0.38593423 -0.23852047
0 0.041394044 0.015267642 -0.14741376 0.38593423 -0.23852047
0 0.038367786 0.017180402 -0.14741376 0.38593423 -0.23852047
0 0.035296008 0.019122206 -0.14741376 0.38593423 -0.23852047
0 0.032177627 0.021093745 -0.14741376 0.38593423 -0.23852047
0 0.029011529 0.023095731 -0.14741376 0.38593423 -0.23852047
0 0.025796562 0.025128895 -0.14741376 0.38593423 -0.23852047
0 0.022531537 0.027193999 -0.14741376 0.38593423 -0.23852047
0 0.019215228 0.029291824 -0.14741376 0.38593423 -0.23852047
0 0.015846366 0.031423178 -0.14741376 0.38593423 -0.23852047
0 0.012423643 0.033588894 -0.14741376 0.38593423 -0.23852047
0 0.0089457063 0.035789836 -0.14741376 0.38593423 -0.23852047
0 0.0054111551 0.038026903 -0.14741376 0.38593423 -0.23852047
0.039983463 0.079286374 0 -0.14741376 0.38593423 -0.23852047
0.038929328 0.078860871 0 -0.14741376 0.38593423 -0.23852047
0.037875764 0.078435995 0 -0.14741376 0.38593423 -0.23852047
0.036822755 0.078011736 0 -0.14741376 0.38593423 -0.23852047
0.035770293 0.077588096 0 -0.14741376 0.38593423 -0.23852047
0.034718368 0.07716506 0 -0.14741376 0.38593423 -0.23852047
0.033666961 0.076742634 0 -0.14741376 0.38593423 -0.23852047
0.03261606 0.076320797 0 -0.14741376 0.38593423 -0.23852047
0.031565655 0.075899556 0 -0.14741376 0.38593423 -0.23852047
0.030515734 0.075478904 0 -0.14741376 0.38593423 -0.23852047
0.029466283 0.075058833 0 -0.14741376 0.38593423 -0.23852047
0.028417287 0.074639335 0 -0.14741376 0.38593423 -0.23852047
0.027368739 0.074220411 0 -0.14741376 0.38593423 -0.23852047
0.026320625 0.073802054 0 -0.14741376 0.38593423 -0.23852047
0.02527293 0.073384255 0 -0.14741376 0.38593423 -0.23852047
0.024225643 0.072967008 0 -0.14741376 0.38593423 -0.23852047
0.023178753 0.072550312 0 -0.14741376 0.38593423 -0.23852047
0.022132246 0.072134167 0 -0.14741376 0.38593423 -0.23852047
0.02108611 0.071718551 0 -0.14741376 0.38593423 -0.23852047
0.020040331 0.071303479 0 -0.14741376 0.38593423 -0.23852047
0.018994901 0.070888929 0 -0.14741376 0.38593423 -0.23852047
0.017949805 0.070474908 0 -0.14741376 0.38593423 -0.23852047
0.01690503 0.070061401 0 -0.14741376 0.38593423 -0.23852047
0.015860567 0.069648415 0 -0.14741376 0.38593423 -0.23852047
0.0148164 0.069235928 0 -0.14741376 0.38593423 -0.23852047
0.013772519 0.068823949 0 -0.14741376 0.38593423 -0.23852047
0.012728911 0.068412468 0 -0.14741376 0.38593423 -0.23852047
0.011685565 0.068001479 0 -0.14741376 0.38593423 -0.23852047
0.010642467 0.067590982 0 -0.14741376 0.38593423 -0.23852047
0.0095996065 0.067180969 0 -0.14741376 0.38593423 -0.23852047
0.0085569713 0.066771433 0 -0.14741376 0.38593423 -0.23852047
0.007514548 0.066362366 0 -0.14741376 0.38593423 -0.23852047
0.0064723254 0.065953776 0 -0.14741376 0.38593423 -0.23852047
0.0054302914 0.065545641 0 -0.14741376 0.38593423 -0.23852047
0.0043884339 0.065137967 0 -0.14741376 0.38593423 -0.23852047
0.003346741 0.064730749 0 -0.14741376 0.38593423 -0.23852047
0.0023052003 0.064323984 0 -0.14741376 0.38593423 -0.23852047
0.0012638001 0.063917659 0 -0.14741376 0.38593423 -0.23852047
0.00022252814 0.063511774 0 -0.14741376 0.38593423 -0.23852047
0 0.06130356 0.0013319638 -0.14741376 0.38593423 -0.23852047
0 0.058571495 0.0030474686 -0.14741376 0.38593423 -0.23852047
0 0.055800714 0.0047875345 -0.14741376 0.38593423 -0.23852047
0 0.05299034 0.006552713 -0.14741376 0.38593423 -0.23852047
0 0.050139483 0.0083435727 -0.14741376 0.38593423 -0.23852047
0 0.047247216 0.010160699 -0.14741376 0.38593423 -0.23852047
0 0.044312593 0.012004697 -0.14741376 0.38593423 -0.23852047
0 0.041334622 0.013876187 -0.14741376 0.38593423 -0.23852047
0 0.038312301 0.015775809 -0.14741376 0.38593423 -0.23852047
2.7755576e-17 0.03524458 0.01770423 -0.14741376 0.38593423 -0.23852047
0 0.03213039 0.019662127 -0.14741376 0.38593423 -0.23852047
2.7755576e-17 0.028968614 0.021650206 -0.14741376 0.38593423 -0.23852047
0 0.025758106 0.023669194 -0.14741376 0.38593423 -0.23852047
2.7755576e-17 0.022497687 0.025719842 -0.14741376 0.38593423 -0.23852047
0 0.019186134 0.027802922 -0.14741376 0.38593423 -0.23852047
2.7755576e-17 0.015822183 0.029919237 -0.14741376 0.38593423 -0.23852047
0 0.012404532 0.032069612 -0.14741376 0.38593423 -0.23852047
0 0.0089318343 0.034254901 -0.14741376 0.38593423 -0.23852047
0 0.0054026959 0.03647599 -0.14741376 0.38593423 -0.23852047
2.7755576e-17 0.0018156776 0.038733788 -0.14741376 0.38593423 -0.23852047
0.03990059 0.077063717 0 -0.14741376 0.38593423 -0.23852047
0.038842339 0.076637723 0 -0.14741376 0.38593423 -0.23852047
0.037784658 0.076212339 0 -0.14741376 0.38593423 -0.23852047
0.036727533 0.075787559 0 -0.14741376 0.38593423 -0.23852047
0.035670951 0.075363383 0 -0.14741376 0.38593423 -0.23852047
0.034614902 0.074939802 0 -0.14741376 0.38593423 -0.23852047
0.033559375 0.07451681 0 -0.14741376 0.38593423 -0.23852047
0.03250435 0.074094407 0 -0.14741376 0.38593423 -0.23852047
0.031449821 0.073672578 0 -0.14741376 0.38593423 -0.23852047
0.03039577 0.073251329 0 -0.14741376 0.38593423 -0.23852047
0.029342188 0.07283064 0 -0.14741376 0.38593423 -0.23852047
0.028289063 0.072410516 0 -0.14741376 0.38593423 -0.23852047
0.02723638 0.071990952 0 -0.14741376 0.38593423 -0.23852047
0.026184127 0.071571939 0 -0.14741376 0.38593423 -0.23852047
0.025132293 0.071153477 0 -0.14741376 0.38593423 -0.23852047
0.024080863 0.070735551 0 -0.14741376 0.38593423 -0.23852047
0.023029827 0.070318162 0 -0.14741376 0.38593423 -0.23852047
0.021979172 0.069901302 0 -0.14741376 0.38593423 -0.23852047
0.020928884 0.069484971 0 -0.14741376 0.38593423 -0.23852047
0.019878952 0.069069162 0 -0.14741376 0.38593423 -0.23852047
0.018829364 0.068653867 0 -0.14741376 0.38593423 -0.23852047
0.017780107 0.068239085 0 -0.14741376 0.38593423 -0.23852047
0.016731167 0.067824803 0 -0.14741376 0.38593423 -0.23852047
0.015682533 0.06741102 0 -0.14741376 0.38593423 -0.23852047
0.014634195 0.066997737 0 -0.14741376 0.38593423 -0.23852047
0.013586137 0.066584945 0 -0.14741376 0.38593423 -0.23852047
0.012538349 0.066172637 0 -0.14741376 0.38593423 -0.23852047
0.011490818 0.065760806 0 -0.14741376 0.38593423 -0.23852047
0.010443532 0.065349445 0 -0.14741376 0.38593423 -0.23852047
0.0093964785 0.06493856 0 -0.14741376 0.38593423 -0.23852047
0.008349645 0.064528137 0 -0.14741376 0.38593423 -0.23852047
0.0073030191 0.064118177 0 -0.14741376 0.38593423 -0.23852047
0.032027181 0.0096712876 0.039999999 -0.14741376 0.38593423 -0.23852047
0.0052103433 0.063299611 0 -0.14741376 0.38593423 -0.23852047
0.0041642687 0.062890999 0 -0.14741376 0.38593423 -0.23852047
0.0031183537 0.062482826 0 -0.14741376 0.38593423 -0.23852047
0.0020725855 0.06207509 0 -0.14741376 0.38593423 -0.23852047
0.0010269524 0.061667781 0 -0.14741376 0.38593423 -0.23852047
0 0.06122002 3.0031206e-05 -0.14741376 0.38593423 -0.23852047
0 0.058491118 0.001734035 -0.14741376 0.38593423 -0.23852047
0 0.055723596 0.0034623935 -0.14741376 0.38593423 -0.23852047
0 0.052916586 0.0052156537 -0.14741376 0.38593423 -0.23852047
0 0.050069194 0.0069943778 -0.14741376 0.38593423 -0.23852047
0 0.047180504 0.0087991459 -0.14741376 0.38593423 -0.23852047
0 0.044249561 0.010630556 -0.14741376 0.38593423 -0.23852047
0 0.041275397 0.012489224 -0.14741376 0.38593423 -0.23852047
0 0.038256995 0.014375784 -0.14741376 0.38593423 -0.23852047
0 0.035193324 0.016290892 -0.14741376 0.38593423 -0.23852047
0 0.032083306 0.018235223 -0.14741376 0.38593423 -0.23852047
0 0.02892584 0.020209474 -0.14741376 0.38593423 -0.23852047
0 0.02571978 0.022214366 -0.14741376 0.38593423 -0.23852047
0 0.022463953 0.02425064 -0.14741376 0.38593423 -0.23852047
0 0.01915714 0.026319062 -0.14741376 0.38593423 -0.23852047
0 0.015798083 0.028420426 -0.14741376 0.38593423 -0.23852047
0 0.012385488 0.030555548 -0.14741376 0.38593423 -0.23852047
0 0.0089180106 0.032725275 -0.14741376 0.38593423 -0.23852047
2.7755576e-17 0.0053942665 0.034930483 -0.14741376 0.38593423 -0.23852047
0 0.0018128215 0.037172068 -0.14741376 0.38593423 -0.23852047
0.039816573 0.07482519 0 -0.14741376 0.38593423 -0.23852047
0.03875418 0.074398682 0 -0.14741376 0.38593423 -0.23852047
0.037692353 0.073972762 0 -0.14741376 0.38593423 -0.23852047
0.036631081 0.073547445 0 -0.14741376 0.38593423 -0.23852047
0.03557035 0.07312271 0 -0.14741376 0.38593423 -0.23852047
0.034510151 0.072698556 0 -0.14741376 0.38593423 -0.23852047
0.033450469 0.072274983 0 -0.14741376 0.38593423 -0.23852047
0.032391291 0.071851976 0 -0.14741376 0.38593423 -0.23852047
0.031332605 0.071429536 0 -0.14741376 0.38593423 -0.23852047
0.030274397 0.071007654 0 -0.14741376 0.38593423 -0.23852047
0.029216655 0.070586331 0 -0.14741376 0.38593423 -0.23852047
0.028159367 0.070165552 0 -0.14741376 0.38593423 -0.23852047
0.027102519 0.069745325 0 -0.14741376 0.38593423 -0.23852047
0.026046097 0.069325626 0 -0.14741376 0.38593423 -0.23852047
0.024990093 0.068906471 0 -0.14741376 0.38593423 -0.23852047
0.023934489 0.068487838 0 -0.14741376 0.38593423 -0.23852047
0.022879276 0.068069726 0 -0.14741376 0.38593423 -0.23852047
0.021824442 0.067652136 0 -0.14741376 0.38593423 -0.23852047
0.02076997 0.067235053 0 -0.14741376 0.38593423 -0.23852047
0.019715853 0.066818476 0 -0.14741376 0.38593423 -0.23852047
0.018662075 0.066402406 0 -0.14741376 0.38593423 -0.23852047
0.017608624 0.065986834 0 -0.14741376 0.38593423 -0.23852047
0.016555488 0.065571748 0 -0.14741376 0.38593423 -0.23852047
0.015502655 0.065157153 0 -0.14741376 0.38593423 -0.23852047
0.014450111 0.064743035 0 -0.14741376 0.38593423 -0.23852047
0.013397845 0.064329393 0 -0.14741376 0.38593423 -0.23852047
0.012345845 0.063916221 0 -0.14741376 0.38593423 -0.23852047
0.011294096 0.063503519 0 -0.14741376 0.38593423 -0.23852047
0.010242589 0.063091278 0 -0.14741376 0.38593423 -0.23852047
0.0091913082 0.062679484 0 -0.14741376 0.38593423 -0.23852047
0.0081402445 0.062268149 0 -0.14741376 0.38593423 -0.23852047
0.032999635 0.0075093918 0.039999999 -0.14741376 0.38593423 -0.23852047
0.0060387128 0.061446805 0 -0.14741376 0.38593423 -0.23852047
0.0049882215 0.061036792 0 -0.14741376 0.38593423 -0.23852047
0.0039378963 0.060627207 0 -0.14741376 0.38593423 -0.23852047
0.0028877251 0.060218047 0 -0.14741376 0.38593423 -0.23852047
0.0018376957 0.059809308 0 -0.14741376 0.38593423 -0.23852047
0.00078779564 0.059400987 0 -0.14741376 0.38593423 -0.23852047
0 0.058410991 0.00042465903 -0.14741376 0.38593423 -0.23852047
0 0.055646721 0.0021413725 -0.14741376 0.38593423 -0.23852047
0 0.05284306 0.0038827774 -0.14741376 0.38593423 -0.23852047
0 0.049999125 0.0056494307 -0.14741376 0.38593423 -0.23852047
0 0.047114 0.0074419072 -0.14741376 0.38593423 -0.23852047
0 0.044186734 0.0092607979 -0.14741376 0.38593423 -0.23852047
0 0.041216359 0.011106714 -0.14741376 0.38593423 -0.23852047
0 0.038201869 0.012980282 -0.14741376 0.38593423 -0.23852047
0 0.035142232 0.014882152 -0.14741376 0.38593423 -0.23852047
0 0.032036375 0.016812993 -0.14741376 0.38593423 -0.23852047
0 0.028883206 0.018773494 -0.14741376 0.38593423 -0.23852047
0 0.025681581 0.020764368 -0.14741376 0.38593423 -0.23852047
0 0.022430331 0.022786349 -0.14741376 0.38593423 -0.23852047
0 0.019128243 0.024840197 -0.14741376 0.38593423 -0.23852047
0 0.015774066 0.026926694 -0.14741376 0.38593423 -0.23852047
0 0.012366507 0.029046653 -0.14741376 0.38593423 -0.23852047
0 0.0089042345 0.031200908 -0.14741376 0.38593423 -0.23852047
0 0.0053858659 0.033390325 -0.14741376 0.38593423 -0.23852047
0 0.0018099754 0.035615798 -0.14741376 0.38593423 -0.23852047
0.039731428 0.07257057 0 -0.14741376 0.38593423 -0.23852047
0.038664855 0.07214351 0 -0.14741376 0.38593423 -0.23852047
0.037598852 0.071717039 0 -0.14741376 0.38593423 -0.23852047
0.036533404 0.071291149 0 -0.14741376 0.38593423 -0.23852047
0.035468496 0.070865825 0 -0.14741376 0.38593423 -0.23852047
0.034404114 0.070441075 0 -0.14741376 0.38593423 -0.23852047
0.033340249 0.070016891 0 -0.14741376 0.38593423 -0.23852047
0.032276887 0.069593258 0 -0.14741376 0.38593423 -0.23852047
0.031214014 0.069170177 0 -0.14741376 0.38593423 -0.23852047
0.030151617 0.068747647 0 -0.14741376 0.38593423 -0.23852047
0.029089684 0.068325654 0 -0.14741376 0.38593423 -0.23852047
0.028028201 0.067904197 0 -0.14741376 0.38593423 -0.23852047
0.026967157 0.067483269 0 -0.14741376 0.38593423 -0.23852047
0.025906537 0.06706287 0 -0.14741376 0.38593423 -0.23852047
0.024846328 0.066642985 0 -0.14741376 0.38593423 -0.23852047
0.023786521 0.066223621 0 -0.14741376 0.38593423 -0.23852047
0.0227271 0.065804757 0 -0.14741376 0.38593423 -0.23852047
0.021668054 0.0653864 0 -0.14741376 0.38593423 -0.23852047
0.02060937 0.064968541 0 -0.14741376 0.38593423 -0.23852047
0.019551033 0.064551175 0 -0.14741376 0.38593423 -0.23852047
0.018493034 0.0641343 0 -0.14741376 0.38593423 -0.23852047
0.017435357 0.063717902 0 -0.14741376 0.38593423 -0.23852047
0.016377991 0.063301988 0 -0.14741376 0.38593423 -0.23852047
0.015320925 0.062886544 0 -0.14741376 0.38593423 -0.23852047
0.014264144 0.062471561 0 -0.14741376 0.38593423 -0.23852047
0.013207637 0.062057044 0 -0.14741376 0.38593423 -0.23852047
0.01215139 0.061642986 0 -0.14741376 0.38593423 -0.23852047
0.011095392 0.061229374 0 -0.14741376 0.38593423 -0.23852047
0.010039628 0.060816213 0 -0.14741376 0.38593423 -0.23852047
0.0089840898 0.060403492 0 -0.14741376 0.38593423 -0.23852047
0.0079287607 0.059991207 0 -0.14741376 0.38593423 -0.23852047
0.0068736305 0.059579354 0 -0.14741376 0.38593423 -0.23852047
0.0058186864 0.059167925 0 -0.14741376 0.38593423 -0.23852047
0.0047639152 0.058756921 0 -0.14741376 0.38593423 -0.23852047
0.0037093053 0.058346331 0 -0.14741376 0.38593423 -0.23852047
0.002654844 0.057936151 0 -0.14741376 0.38593423 -0.23852047
0.0016005187 0.05752638 0 -0.14741376 0.38593423 -0.23852047
0.0005463172 0.057117011 0 -0.14741376 0.38593423 -0.23852047
0 0.055570081 0.00082443363 -0.14741376 0.38593423 -0.23852047
0 0.052769765 0.002554046 -0.14741376 0.38593423 -0.23852047
0 0.04992928 0.0043086931 -0.14741376 0.38593423 -0.23852047
0 0.047047704 0.0060889432 -0.14741376 0.38593423 -0.23852047
0 0.044124104 0.0078953831 -0.14741376 0.38593423 -0.23852047
0 0.04115751 0.0097286152 -0.14741376 0.38593423 -0.23852047
0 0.038146921 0.011589263 -0.14741376 0.38593423 -0.23852047
0 0.035091303 0.013477968 -0.14741376 0.38593423 -0.23852047
2.7755576e-17 0.031989601 0.015395393 -0.14741376 0.38593423 -0.23852047
0 0.028840713 0.017342221 -0.14741376 0.38593423 -0.23852047
0 0.025643509 0.019319156 -0.14741376 0.38593423 -0.23852047
0 0.02239682 0.021326926 -0.14741376 0.38593423 -0.23852047
0 0.019099442 0.023366282 -0.14741376 0.38593423 -0.23852047
0 0.015750127 0.025438 -0.14741376 0.38593423 -0.23852047
0 0.012347592 0.027542882 -0.14741376 0.38593423 -0.23852047
0 0.0088905059 0.029681755 -0.14741376 0.38593423 -0.23852047
0 0.0053774947 0.031855475 -0.14741376 0.38593423 -0.23852047
2.7755576e-17 0.001807139 0.034064926 -0.14741376 0.38593423 -0.23852047
0.039645154 0.070299603 0 -0.14741376 0.38593423 -0.23852047
0.038574375 0.069871977 0 -0.14741376 0.38593423 -0.23852047
0.037504166 0.069444925 0 -0.14741376 0.38593423 -0.23852047
0.036434509 0.069018431 0 -0.14741376 0.38593423 -0.23852047
0.035365392 0.068592504 0 -0.14741376 0.38593423 -0.23852047
0.034296799 0.068167128 0 -0.14741376 0.38593423 -0.23852047
0.033228721 0.067742303 0 -0.14741376 0.38593423 -0.23852047
0.032161143 0.067318015 0 -0.14741376 0.38593423 -0.23852047
0.03109405 0.06689427 0 -0.14741376 0.38593423 -0.23852047
0.030027432 0.066471055 0 -0.14741376 0.38593423 -0.23852047
0.028961277 0.066048369 0 -0.14741376 0.38593423 -0.23852047
0.027895568 0.065626204 0 -0.14741376 0.38593423 -0.23852047
0.026830295 0.065204561 0 -0.14741376 0.38593423 -0.23852047
0.025765445 0.064783417 0 -0.14741376 0.38593423 -0.23852047
0.024701003 0.064362787 0 -0.14741376 0.38593423 -0.23852047
0.023636958 0.063942648 0 -0.14741376 0.38593423 -0.23852047
0.022573298 0.063523009 0 -0.14741376 0.38593423 -0.23852047
0.021510007 0.063103862 0 -0.14741376 0.38593423 -0.23852047
0.020447075 0.062685199 0 -0.14741376 0.38593423 -0.23852047
0.019384488 0.062267009 0 -0.14741376 0.38593423 -0.23852047
0.018322233 0.061849296 0 -0.14741376 0.38593423 -0.23852047
0.017260298 0.061432049 0 -0.14741376 0.38593423 -0.23852047
0.016198672 0.061015267 0 -0.14741376 0.38593423 -0.23852047
0.015137339 0.060598943 0 -0.14741376 0.38593423 -0.23852047
0.014076287 0.060183071 0 -0.14741376 0.38593423 -0.23852047
0.013015505 0.059767645 0 -0.14741376 0.38593423 -0.23852047
0.011954979 0.059352662 0 -0.14741376 0.38593423 -0.23852047
0.010894697 0.05893812 0 -0.14741376 0.38593423 -0.23852047
0.0098346453 0.058524005 0 -0.14741376 0.38593423 -0.23852047
0.0087748123 0.058110319 0 -0.14741376 0.38593423 -0.23852047
0.0077151861 0.057697054 0 -0.14741376 0.38593423 -0.23852047
0.0066557522 0.057284206 0 -0.14741376 0.38593423 -0.23852047
0.005596499 0.056871772 0 -0.14741376 0.38593423 -0.23852047
0.0045374143 0.05645974 0 -0.14741376 0.38593423 -0.23852047
0.0034784849 0.056048114 0 -0.14741376 0.38593423 -0.23852047
0.0024196983 0.055636883 0 -0.14741376 0.38593423 -0.23852047
0.0013610424 0.055226043 0 -0.14741376 0.38593423 -0.23852047
0.00030250425 0.05481559 0 -0.14741376 0.38593423 -0.23852047
0 0.052696697 0.0012294223 -0.14741376 0.38593423 -0.23852047
0 0.049859647 0.0029721267 -0.14741376 0.38593423 -0.23852047
0 0.046981618 0.0047402163 -0.14741376 0.38593423 -0.23852047
0 0.044061672 0.0065342714 -0.14741376 0.38593423 -0.23852047
0 0.041098848 0.0083548892 -0.14741376 0.38593423 -0.23852047
0 0.038092144 0.010202687 -0.14741376 0.38593423 -0.23852047
0 0.035040542 0.012078299 -0.14741376 0.38593423 -0.23852047
0 0.031942975 0.013982383 -0.14741376 0.38593423 -0.23852047
0.011887001 0 0.036432568 -0.14741376 0.38593423 -0.23852047
0 0.025605561 0.017878687 -0.14741376 0.38593423 -0.23852047
0 0.022363421 0.019872325 -0.14741376 0.38593423 -0.23852047
0 0.019070737 0.021897271 -0.14741376 0.38593423 -0.23852047
0 0.01572627 0.023954295 -0.14741376 0.38593423 -0.23852047
2.7755576e-17 0.01232874 0.026044186 -0.14741376 0.38593423 -0.23852047
2.7755576e-17 0.0088768238 0.028167766 -0.14741376 0.38593423 -0.23852047
0 0.0053691519 0.03032588 -0.14741376 0.38593423 -0.23852047
0 0.0018043126 0.032519408 -0.14741376 0.38593423 -0.23852047
0.039557759 0.068012051 0 -0.14741376 0.38593423 -0.23852047
0.038482748 0.067583829 0 -0.14741376 0.38593423 -0.23852047
0.0374083 0.067156166 0 -0.14741376 0.38593423 -0.23852047
0.036334403 0.066729054 0 -0.14741376 0.38593423 -0.23852047
0.035261042 0.066302486 0 -0.14741376 0.38593423 -0.23852047
0.034188207 0.065876462 0 -0.14741376 0.38593423 -0.23852047
0.033115882 0.065450966 0 -0.14741376 0.38593423 -0.23852047
0.032044057 0.065026 0 -0.14741376 0.38593423 -0.23852047
0.030972715 0.064601563 0 -0.14741376 0.38593423 -0.23852047
0.029901845 0.06417764 0 -0.14741376 0.38593423 -0.23852047
0.028831435 0.063754231 0 -0.14741376 0.38593423 -0.23852047
0.027761469 0.063331328 0 -0.14741376 0.38593423 -0.23852047
0.026691936 0.062908925 0 -0.14741376 0.38593423 -0.23852047
0.02562282 0.062487021 0 -0.14741376 0.38593423 -0.23852047
0.024554113 0.062065609 0 -0.14741376 0.38593423 -0.23852047
0.023485798 0.061644681 0 -0.14741376 0.38593423 -0.23852047
0.022417864 0.061224233 0 -0.14741376 0.38593423 -0.23852047
0.021350298 0.060804259 0 -0.14741376 0.38593423 -0.23852047
0.020283086 0.060384758 0 -0.14741376 0.38593423 -0.23852047
0.019216215 0.059965719 0 -0.14741376 0.38593423 -0.23852047
0.018149674 0.059547137 0 -0.14741376 0.38593423 -0.23852047
0.017083447 0.059129011 0 -0.14741376 0.38593423 -0.23852047
0.016017525 0.058711331 0 -0.14741376 0.38593423 -0.23852047
0.014951891 0.058294099 0 -0.14741376 0.38593423 -0.23852047
0.013886536 0.057877298 0 -0.14741376 0.38593423 -0.23852047
0.012821444 0.057460938 0 -0.14741376 0.38593423 -0.23852047
0.011756605 0.057045002 0 -0.14741376 0.38593423 -0.23852047
0.010692005 0.056629486 0 -0.14741376 0.38593423 -0.23852047
0.0096276309 0.056214388 0 -0.14741376 0.38593423 -0.23852047
0.0085634701 0.055799704 0 -0.14741376 0.38593423 -0.23852047
0.00749951 0.055385429 0 -0.14741376 0.38593423 -0.23852047
0.0064357379 0.054971553 0 -0.14741376 0.38593423 -0.23852047
0.0053721415 0.054558072 0 -0.14741376 0.38593423 -0.23852047
0.0043087075 0.054144986 0 -0.14741376 0.38593423 -0.23852047
0.0032454233 0.053732287 0 -0.14741376 0.38593423 -0.23852047
0.0021822765 0.053319968 0 -0.14741376 0.38593423 -0.23852047
0.0011192539 0.052908029 0 -0.14741376 0.38593423 -0.23852047
5.6343491e-05 0.052496459 0 -0.14741376 0.38593423 -0.23852047
0 0.04979023 0.001639694 -0.14741376 0.38593423 -0.23852047
0 0.046915736 0.0033956876 -0.14741376 0.38593423 -0.23852047
0 0.043999437 0.0051774243 -0.14741376 0.38593423 -0.23852047
0 0.041040368 0.0069854958 -0.14741376 0.38593423 -0.23852047
0 0.038037546 0.0088205133 -0.14741376 0.38593423 -0.23852047
0 0.034989942 0.010683104 -0.14741376 0.38593423 -0.23852047
0 0.031896502 0.012573919 -0.14741376 0.38593423 -0.23852047
0 0.02875614 0.014493626 -0.14741376 0.38593423 -0.23852047
0 0.025567736 0.016442917 -0.14741376 0.38593423 -0.23852047
2.7755576e-17 0.02233013 0.018422503 -0.14741376 0.38593423 -0.23852047
0 0.019042127 0.020433122 -0.14741376 0.38593423 -0.23852047
2.7755576e-17 0.015702493 0.022475533 -0.14741376 0.38593423 -0.23852047
0 0.012309952 0.02455052 -0.14741376 0.38593423 -0.23852047
0 0.0088631874 0.026658894 -0.14741376 0.38593423 -0.23852047
0 0.0053608376 0.028801495 -0.14741376 0.38593423 -0.23852047
0 0.0018014958 0.030979188 -0.14741376 0.38593423 -0.23852047
0.03946925 0.065707669 0 -0.14741376 0.38593423 -0.23852047
0.03838997 0.065278828 0 -0.14741376 0.38593423 -0.23852047
0.037311256 0.064850524 0 -0.14741376 0.38593423 -0.23852047
0.036233086 0.064422764 0 -0.14741376 0.38593423 -0.23852047
0.035155453 0.063995525 0 -0.14741376 0.38593423 -0.23852047
0.034078345 0.063568823 0 -0.14741376 0.38593423 -0.23852047
0.033001743 0.063142635 0 -0.14741376 0.38593423 -0.23852047
0.031925637 0.062716961 0 -0.14741376 0.38593423 -0.23852047
0.030850014 0.062291797 0 -0.14741376 0.38593423 -0.23852047
0.02977486 0.061867137 0 -0.14741376 0.38593423 -0.23852047
0.02870016 0.061442975 0 -0.14741376 0.38593423 -0.23852047
0.027625903 0.061019309 0 -0.14741376 0.38593423 -0.23852047
0.026552077 0.060596123 0 -0.14741376 0.38593423 -0.23852047
0.025478667 0.060173426 0 -0.14741376 0.38593423 -0.23852047
0.02440566 0.059751201 0 -0.14741376 0.38593423 -0.23852047
0.023333043 0.05932945 0 -0.14741376 0.38593423 -0.23852047
0.022260802 0.058908161 0 -0.14741376 0.38593423 -0.23852047
0.021188926 0.058487333 0 -0.14741376 0.38593423 -0.23852047
0.020117398 0.058066964 0 -0.14741376 0.38593423 -0.23852047
0.019046212 0.057647038 0 -0.14741376 0.38593423 -0.23852047
0.017975347 0.057227563 0 -0.14741376 0.38593423 -0.23852047
0.016904796 0.056808524 0 -0.14741376 0.38593423 -0.23852047
0.015834544 0.056389917 0 -0.14741376 0.38593423 -0.23852047
0.014764576 0.055971738 0 -0.14741376 0.38593423 -0.23852047
0.013694882 0.055553988 0 -0.14741376 0.38593423 -0.23852047
0.012625447 0.055136651 0 -0.14741376 0.38593423 -0.23852047
0.01155626 0.054719727 0 -0.14741376 0.38593423 -0.23852047
0.010487308 0.05430321 0 -0.14741376 0.38593423 -0.23852047
0.0094185751 0.053887099 0 -0.14741376 0.38593423 -0.23852047
0.0083500519 0.053471383 0 -0.14741376 0.38593423 -0.23852047
0.0072817234 0.053056058 0 -0.14741376 0.38593423 -0.23852047
0.0062135779 0.05264112 0 -0.14741376 0.38593423 -0.23852047
0.0051456024 0.052226566 0 -0.14741376 0.38593423 -0.23852047
0.0040777833 0.051812388 0 -0.14741376 0.38593423 -0.23852047
0.0030101088 0.051398579 0 -0.14741376 0.38593423 -0.23852047
0.0019425654 0.050985139 0 -0.14741376 0.38593423 -0.23852047
0.00087514048 0.050572064 0 -0.14741376 0.38593423 -0.23852047
0 0.049721029 0.00031135764 -0.14741376 0.38593423 -0.23852047
0 0.046850059 0.0020553193 -0.14741376 0.38593423 -0.23852047
0 0.043937396 0.0038248035 -0.14741376 0.38593423 -0.23852047
0 0.040982075 0.0056203962 -0.14741376 0.38593423 -0.23852047
0 0.037983119 0.0074427016 -0.14741376 0.38593423 -0.23852047
0 0.034939501 0.0092923427 -0.14741376 0.38593423 -0.23852047
0 0.031850174 0.011169962 -0.14741376 0.38593423 -0.23852047
0 0.028714059 0.013076221 -0.14741376 0.38593423 -0.23852047
0 0.025530035 0.015011804 -0.14741376 0.38593423 -0.23852047
2.7755576e-17 0.022296948 0.016977416 -0.14741376 0.38593423 -0.23852047
0 0.019013612 0.018973788 -0.14741376 0.38593423 -0.23852047
0 0.015678793 0.021001669 -0.14741376 0.38593423 -0.23852047
0 0.012291227 0.023061838 -0.14741376 0.38593423 -0.23852047
2.7755576e-17 0.0088495975 0.025155095 -0.14741376 0.38593423 -0.23852047
0 0.0053525516 0.027282272 -0.14741376 0.38593423 -0.23852047
2.7755576e-17 0.0017986887 0.029444223 -0.14741376 0.38593423 -0.23852047
0.039379638 0.063386202 0 -0.14741376 0.38593423 -0.23852047
0.038296059 0.062956706 0 -0.14741376 0.38593423 -0.23852047
0.037213039 0.062527739 0 -0.14741376 0.38593423 -0.23852047
0.03613057 0.062099297 0 -0.14741376 0.38593423 -0.23852047
0.03504863 0.061671369 0 -0.14741376 0.38593423 -0.23852047
0.033967212 0.061243955 0 -0.14741376 0.38593423 -0.23852047
0.0328863 0.060817044 0 -0.14741376 0.38593423 -0.23852047
0.031805884 0.060390633 0 -0.14741376 0.38593423 -0.23852047
0.030725945 0.059964716 0 -0.14741376 0.38593423 -0.23852047
0.029646473 0.059539292 0 -0.14741376 0.38593423 -0.23852047
0.028567454 0.059114348 0 -0.14741376 0.38593423 -0.23852047
0.027488874 0.058689881 0 -0.14741376 0.38593423 -0.23852047
0.026410721 0.058265891 0 -0.14741376 0.38593423 -0.23852047
0.025332982 0.057842363 0 -0.14741376 0.38593423 -0.23852047
0.024255641 0.0574193 0 -0.14741376 0.38593423 -0.23852047
0.023178687 0.056996692 0 -0.14741376 0.38593423 -0.23852047
0.022102106 0.056574535 0 -0.14741376 0.38593423 -0.23852047
0.021025887 0.056152821 0 -0.14741376 0.38593423 -0.23852047
0.019950014 0.05573155 0 -0.14741376 0.38593423 -0.23852047
0.018874474 0.055310711 0 -0.14741376 0.38593423 -0.23852047
0.017799255 0.054890305 0 -0.14741376 0.38593423 -0.23852047
0.016724342 0.054470319 0 -0.14741376 0.38593423 -0.23852047
0.015649725 0.054050755 0 -0.14741376 0.38593423 -0.23852047
0.014575389 0.0536316 0 -0.14741376 0.38593423 -0.23852047
0.013501321 0.053212859 0 -0.14741376 0.38593423 -0.23852047
0.012427509 0.052794516 0 -0.14741376 0.38593423 -0.23852047
0.011353939 0.052376572 0 -0.14741376 0.38593423 -0.23852047
0.010280597 0.051959023 0 -0.14741376 0.38593423 -0.23852047
0.0092074713 0.051541857 0 -0.14741376 0.38593423 -0.23852047
0.0081345495 0.051125076 0 -0.14741376 0.38593423 -0.23852047
0.0070618172 0.05070867 0 -0.14741376 0.38593423 -0.23852047
0.0059892619 0.050292637 0 -0.14741376 0.38593423 -0.23852047
0.004916871 0.049876969 0 -0.14741376 0.38593423 -0.23852047
0.0038446311 0.049461666 0 -0.14741376 0.38593423 -0.23852047
0.0027725294 0.049046718 0 -0.14741376 0.38593423 -0.23852047
0.0017005528 0.048632119 0 -0.14741376 0.38593423 -0.23852047
0.00062868849 0.048217867 0 -0.14741376 0.38593423 -0.23852047
0 0.046784583 0.00071907399 -0.14741376 0.38593423 -0.23852047
0 0.043875545 0.0024763709 -0.14741376 0.38593423 -0.23852047
0 0.040923964 0.0042595514 -0.14741376 0.38593423 -0.23852047
0 0.037928861 0.0060692136 -0.14741376 0.38593423 -0.23852047
0 0.034889221 0.0079059741 -0.14741376 0.38593423 -0.23852047
0 0.031803995 0.0097704697 -0.14741376 0.38593423 -0.23852047
0.011830709 0 0.031741887 -0.14741376 0.38593423 -0.23852047
2.7755576e-17 0.025492454 0.013585307 -0.14741376 0.38593423 -0.23852047
0 0.022263875 0.015537024 -0.14741376 0.38593423 -0.23852047
0 0.018985189 0.017519228 -0.14741376 0.38593423 -0.23852047
0 0.015655173 0.019532662 -0.14741376 0.38593423 -0.23852047
2.7755576e-17 0.012272563 0.021578094 -0.14741376 0.38593423 -0.23852047
2.7755576e-17 0.0088360524 0.023656322 -0.14741376 0.38593423 -0.23852047
0 0.0053442935 0.025768163 -0.14741376 0.38593423 -0.23852047
2.7755576e-17 0.001795891 0.027914464 -0.14741376 0.38593423 -0.23852047
0.039288923 0.061047383 0 -0.14741376 0.38593423 -0.23852047
0.038201012 0.060617208 0 -0.14741376 0.38593423 -0.23852047
0.037113663 0.060187548 0 -0.14741376 0.38593423 -0.23852047
0.036026854 0.059758399 0 -0.14741376 0.38593423 -0.23852047
0.034940578 0.059329748 0 -0.14741376 0.38593423 -0.23852047
0.03385482 0.058901597 0 -0.14741376 0.38593423 -0.23852047
0.032769565 0.058473933 0 -0.14741376 0.38593423 -0.23852047
0.031684801 0.058046754 0 -0.14741376 0.38593423 -0.23852047
0.030600514 0.05762006 0 -0.14741376 0.38593423 -0.23852047
0.029516691 0.057193834 0 -0.14741376 0.38593423 -0.23852047
0.028433319 0.056768078 0 -0.14741376 0.38593423 -0.23852047
0.027350383 0.056342788 0 -0.14741376 0.38593423 -0.23852047
0.026267869 0.055917952 0 -0.14741376 0.38593423 -0.23852047
0.025185766 0.055493571 0 -0.14741376 0.38593423 -0.23852047
0.024104057 0.055069633 0 -0.14741376 0.38593423 -0.23852047
0.023022734 0.054646138 0 -0.14741376 0.38593423 -0.23852047
0.021941777 0.054223079 0 -0.14741376 0.38593423 -0.23852047
0.020861179 0.053800449 0 -0.14741376 0.38593423 -0.23852047
0.019780923 0.053378247 0 -0.14741376 0.38593423 -0.23852047
0.018700996 0.052956462 0 -0.14741376 0.38593423 -0.23852047
0.017621387 0.052535091 0 -0.14741376 0.38593423 -0.23852047
0.016542081 0.052114125 0 -0.14741376 0.38593423 -0.23852047
0.015463063 0.05169357 0 -0.14741376 0.38593423 -0.23852047
0.014384324 0.051273409 0 -0.14741376 0.38593423 -0.23852047
0.013305847 0.05085364 0 -0.14741376 0.38593423 -0.23852047
0.01222762 0.050434258 0 -0.14741376 0.38593423 -0.23852047
0.011149631 0.05001526 0 -0.14741376 0.38593423 -0.23852047
0.010071865 0.049596641 0 -0.14741376 0.38593423 -0.23852047
0.0089943102 0.049178392 0 -0.14741376 0.38593423 -0.23852047
0.0079169534 0.048760507 0 -0.14741376 0.38593423 -0.23852047
0.0068397806 0.048342988 0 -0.14741376 0.38593423 -0.23852047
0.0057627792 0.047925822 0 -0.14741376 0.38593423 -0.23852047
0.004685936 0.047509007 0 -0.14741376 0.38593423 -0.23852047
0.0036092382 0.047092538 0 -0.14741376 0.38593423 -0.23852047
0.0025326724 0.046676408 0 -0.14741376 0.38593423 -0.23852047
0.0014562253 0.046260618 0 -0.14741376 0.38593423 -0.23852047
0.0003798843 0.045845155 0 -0.14741376 0.38593423 -0.23852047
0 0.043813884 0.0011320882 -0.14741376 0.38593423 -0.23852047
0 0.040866032 0.0029029227 -0.14741376 0.38593423 -0.23852047
0 0.037874773 0.0047000097 -0.14741376 0.38593423 -0.23852047
0 0.034839097 0.0065239598 -0.14741376 0.38593423 -0.23852047
0 0.031757966 0.0083754025 -0.14741376 0.38593423 -0.23852047
0 0.028630299 0.010254987 -0.14741376 0.38593423 -0.23852047
0 0.025454994 0.012163383 -0.14741376 0.38593423 -0.23852047
0 0.022230908 0.014101282 -0.14741376 0.38593423 -0.23852047
0 0.018956859 0.016069395 -0.14741376 0.38593423 -0.23852047
0 0.015631629 0.018068464 -0.14741376 0.38593423 -0.23852047
0 0.012253961 0.020099247 -0.14741376 0.38593423 -0.23852047
2.7755576e-17 0.0088225529 0.022162527 -0.14741376 0.38593423 -0.23852047
0 0.0053360625 0.02425912 -0.14741376 0.38593423 -0.23852047
0 0.0017931028 0.026389865 -0.14741376 0.38593423 -0.23852047
0.039197121 0.05869095 0 -0.14741376 0.38593423 -0.23852047
0.038104843 0.058260072 0 -0.14741376 0.38593423 -0.23852047
0.037013125 0.057829689 0 -0.14741376 0.38593423 -0.23852047
0.035921946 0.057399802 0 -0.14741376 0.38593423 -0.23852047
0.0348313 0.056970403 0 -0.14741376 0.38593423 -0.23852047
0.033741169 0.05654148 0 -0.14741376 0.38593423 -0.23852047
0.032651536 0.056113034 0 -0.14741376 0.38593423 -0.23852047
0.031562392 0.055685062 0 -0.14741376 0.38593423 -0.23852047
0.030473724 0.055257551 0 -0.14741376 0.38593423 -0.23852047
0.029385516 0.054830499 0 -0.14741376 0.38593423 -0.23852047
0.028297756 0.054403901 0 -0.14741376 0.38593423 -0.23852047
0.027210427 0.05397775 0 -0.14741376 0.38593423 -0.23852047
0.026123518 0.053552043 0 -0.14741376 0.38593423 -0.23852047
0.025037017 0.053126771 0 -0.14741376 0.38593423 -0.23852047
0.023950908 0.052701931 0 -0.14741376 0.38593423 -0.23852047
0.022865178 0.052277517 0 -0.14741376 0.38593423 -0.23852047
0.021779813 0.051853523 0 -0.14741376 0.38593423 -0.23852047
0.020694802 0.051429946 0 -0.14741376 0.38593423 -0.23852047
0.019610127 0.051006775 0 -0.14741376 0.38593423 -0.23852047
0.018525779 0.050584007 0 -0.14741376 0.38593423 -0.23852047
0.017441744 0.050161641 0 -0.14741376 0.38593423 -0.23852047
0.016358007 0.049739666 0 -0.14741376 0.38593423 -0.23852047
0.015274554 0.049318083 0 -0.14741376 0.38593423 -0.23852047
0.014191373 0.048896879 0 -0.14741376 0.38593423 -0.23852047
0.013108452 0.048476052 0 -0.14741376 0.38593423 -0.23852047
0.012025774 0.048055597 0 -0.14741376 0.38593423 -0.23852047
0.01094333 0.047635511 0 -0.14741376 0.38593423 -0.23852047
0.0098611042 0.047215782 0 -0.14741376 0.38593423 -0.23852047
0.0087790824 0.046796415 0 -0.14741376 0.38593423 -0.23852047
0.007697254 0.046377394 0 -0.14741376 0.38593423 -0.23852047
0.0066156033 0.04595872 0 -0.14741376 0.38593423 -0.23852047
0.005534119 0.045540385 0 -0.14741376 0.38593423 -0.23852047
0.0044527864 0.045122389 0 -0.14741376 0.38593423 -0.23852047
0.0033715926 0.044704717 0 -0.14741376 0.38593423 -0.23852047
0.0022905248 0.044287372 0 -0.14741376 0.38593423 -0.23852047
0.0012095696 0.043870348 0 -0.14741376 0.38593423 -0.23852047
0.00012871376 0.043453638 0 -0.14741376 0.38593423 -0.23852047
0 0.040808279 0.0015504725 -0.14741376 0.38593423 -0.23852047
0 0.037820853 0.0033350515 -0.14741376 0.38593423 -0.23852047
0 0.03478913 0.0051462599 -0.14741376 0.38593423 -0.23852047
0 0.031712078 0.0069847205 -0.14741376 0.38593423 -0.23852047
0 0.028588619 0.0088510765 -0.14741376 0.38593423 -0.23852047
0 0.025417656 0.01074599 -0.14741376 0.38593423 -0.23852047
0 0.022198047 0.012670147 -0.14741376 0.38593423 -0.23852047
0 0.018928621 0.014624252 -0.14741376 0.38593423 -0.23852047
0 0.015608163 0.016609034 -0.14741376 0.38593423 -0.23852047
0 0.01223542 0.018625248 -0.14741376 0.38593423 -0.23852047
