# .PCD v0.7 - Point Cloud Data file format
VERSION 0.7
FIELDS x y z vp_x vp_y vp_z
SIZE 4 4 4 4 4 4
TYPE F F F F F F
COUNT 1 1 1 1 1 1
WIDTH 724
HEIGHT 1
VIEWPOINT 0 0 0 1 0 0 0
POINTS 724
DATA ascii
0.039999999 0.066236667 0.029344121 0.23852047 -0.14741376 -0.38593423
0.039999999 0.068149485 0.030841377 0.23852047 -0.14741376 -0.38593423
0.039999999 0.070077725 0.032350916 0.23852047 -0.14741376 -0.38593423
0.039999999 0.072021626 0.033872914 0.23852047 -0.14741376 -0.38593423
0.039999999 0.073981389 0.035407543 0.23852047 -0.14741376 -0.38593423
0.039999999 0.075957254 0.03695498 0.23852047 -0.14741376 -0.38593423
0.039999999 0.077949435 0.038515411 0.23852047 -0.14741376 -0.38593423
0.0012344886 0 0.023958003 0.23852047 -0.14741376 -0.38593423
0.0036759498 0 0.020910807 0.23852047 -0.14741376 -0.38593423
0.0060814288 0 0.0179087 0.23852047 -0.14741376 -0.38593423
0 0.0054153567 0.02967746 0.23852047 -0.14741376 -0.38593423
0.010787711 0 0.012035653 0.23852047 -0.14741376 -0.38593423
0.013090088 0 0.0091627417 0.23852047 -0.14741376 -0.38593423
0.015359634 0 0.0063309721 0.23852047 -0.14741376 -0.38593423
0.017597076 0 0.00353943 0.23852047 -0.14741376 -0.38593423
0.019803125 0 0.00078722805 0.23852047 -0.14741376 -0.38593423
0.020892115 0.00073954737 0 0.23852047 -0.14741376 -0.38593423
0.021536056 0.0017792467 0 0.23852047 -0.14741376 -0.38593423
0.022180187 0.0028190296 0 0.23852047 -0.14741376 -0.38593423
0.022824513 0.0038589102 0 0.23852047 -0.14741376 -0.38593423
0.023469046 0.0048989016 0 0.23852047 -0.14741376 -0.38593423
0.024113795 0.0059390184 0 0.23852047 -0.14741376 -0.38593423
0.024758765 0.0069792736 0 0.23852047 -0.14741376 -0.38593423
0.025403969 0.008019682 0 0.23852047 -0.14741376 -0.38593423
0.026049413 0.0090602571 0 0.23852047 -0.14741376 -0.38593423
0.026695104 0.010101012 0 0.23852047 -0.14741376 -0.38593423
0.027341057 0.011141961 0 0.23852047 -0.14741376 -0.38593423
0.0061666439 0.028724475 0.039999999 0.23852047 -0.14741376 -0.38593423
0.028633766 0.013224499 0 0.23852047 -0.14741376 -0.38593423
0.029280543 0.014266116 0 0.23852047 -0.14741376 -0.38593423
0.029927611 0.015307982 0 0.23852047 -0.14741376 -0.38593423
0.030574983 0.016350111 0 0.23852047 -0.14741376 -0.38593423
0.031222664 0.017392518 0 0.23852047 -0.14741376 -0.38593423
0.031870663 0.018435217 0 0.23852047 -0.14741376 -0.38593423
0.03251899 0.019478224 0 0.23852047 -0.14741376 -0.38593423
0.033167653 0.02052155 0 0.23852047 -0.14741376 -0.38593423
0.033816662 0.021565208 0 0.23852047 -0.14741376 -0.38593423
0.034466024 0.022609215 0 0.23852047 -0.14741376 -0.38593423
0.035115752 0.023653584 0 0.23852047 -0.14741376 -0.38593423
0.035765849 0.024698328 0 0.23852047 -0.14741376 -0.38593423
0.036416329 0.025743462 0 0.23852047 -0.14741376 -0.38593423
0.00052799186 0.058385562 0.07 0.23852047 -0.14741376 -0.38593423
0.03771846 0.027834959 0 0.23852047 -0.14741376 -0.38593423
0.038370136 0.028881351 5.5511151e-17 0.23852047 -0.14741376 -0.38593423
0.039022226 0.029928187 0 0.23852047 -0.14741376 -0.38593423
0.0036084864 0.06333138 0.07 0.23852047 -0.14741376 -0.38593423
0.039999999 0.032319937 0.000638097 0.23852047 -0.14741376 -0.38593423
0.039999999 0.033967905 0.0019167447 0.23852047 -0.14741376 -0.38593423
0.0059242062 0.067046583 0.07 0.23852047 -0.14741376 -0.38593423
0.039999999 0.037299588 0.0045023025 0.23852047 -0.14741376 -0.38593423
0.039999999 0.038983617 0.0058094556 0.23852047 -0.14741376 -0.38593423
0.039999999 0.040679976 0.0071263579 0.23852047 -0.14741376 -0.38593423
0.039999999 0.04238883 0.0084531354 0.23852047 -0.14741376 -0.38593423
0.039999999 0.044110347 0.0097899176 0.23852047 -0.14741376 -0.38593423
0.039999999 0.045844685 0.011136836 0.23852047 -0.14741376 -0.38593423
0.039999999 0.047592018 0.012494024 0.23852047 -0.14741376 -0.38593423
0.039999999 0.049352519 0.013861618 0.23852047 -0.14741376 -0.38593423
0.039999999 0.051126361 0.015239755 0.23852047 -0.14741376 -0.38593423
0.039999999 0.052913722 0.016628576 0.23852047 -0.14741376 -0.38593423
0.039999999 0.054714788 0.018028226 0.23852047 -0.14741376 -0.38593423
0.039999999 0.056529742 0.019438848 0.23852047 -0.14741376 -0.38593423
0.039999999 0.058358766 0.02086059 0.23852047 -0.14741376 -0.38593423
0.039999999 0.060202058 0.022293607 0.23852047 -0.14741376 -0.38593423
0.039999999 0.062059812 0.023738047 0.23852047 -0.14741376 -0.38593423
0.025703866 0.079151966 0.054800812 0.23852047 -0.14741376 -0.38593423
0.039999999 0.065819502 0.026661834 0.23852047 -0.14741376 -0.38593423
0.039999999 0.067721844 0.028141502 0.23852047 -0.14741376 -0.38593423
0.035047699 0.075054072 0.039999999 0.23852047 -0.14741376 -0.38593423
0.039999999 0.071572565 0.031137209 0.23852047 -0.14741376 -0.38593423
0.039999999 0.073521376 0.032653589 0.23852047 -0.14741376 -0.38593423
0.039999999 0.075486109 0.034182549 0.23852047 -0.14741376 -0.38593423
0.039999999 0.077467002 0.035724267 0.23852047 -0.14741376 -0.38593423
0.039531235 0.079999998 0.038278256 0.23852047 -0.14741376 -0.38593423
0.0012298787 0 0.021666637 0.23852047 -0.14741376 -0.38593423
0.0036623247 0 0.018647691 0.23852047 -0.14741376 -0.38593423
0.0060590529 0 0.015673239 0.23852047 -0.14741376 -0.38593423
0.008420879 0 0.012742262 0.23852047 -0.14741376 -0.38593423
0.010748592 0 0.0098537784 0.23852047 -0.14741376 -0.38593423
0.01304296 2.7755576e-17 0.0070068315 0.23852047 -0.14741376 -0.38593423
0.015304727 0 0.0042004958 0.23852047 -0.14741376 -0.38593423
0.017534615 0 0.0014338709 0.23852047 -0.14741376 -0.38593423
0 0.013295862 0.033398397 0.23852047 -0.14741376 -0.38593423
2.7755576e-17 0.014904458 0.034633886 0.23852047 -0.14741376 -0.38593423
0.020287277 0.0025792073 5.5511151e-17 0.23852047 -0.14741376 -0.38593423
0.020932518 0.003620991 5.5511151e-17 0.23852047 -0.14741376 -0.38593423
0 0.019789012 0.03838652 0.23852047 -0.14741376 -0.38593423
0.022223575 0.0057048821 5.5511151e-17 0.23852047 -0.14741376 -0.38593423
0.02286941 0.0067470171 0 0.23852047 -0.14741376 -0.38593423
0.023515461 0.007789297 0 0.23852047 -0.14741376 -0.38593423
0.024161736 0.0088317357 0 0.23852047 -0.14741376 -0.38593423
0.024808243 0.0098743476 0 0.23852047 -0.14741376 -0.38593423
0.025454992 0.010917147 0 0.23852047 -0.14741376 -0.38593423
0.026101992 0.011960145 0 0.23852047 -0.14741376 -0.38593423
0.02674925 0.01300336 0 0.23852047 -0.14741376 -0.38593423
0.027396776 0.014046801 0 0.23852047 -0.14741376 -0.38593423
0.02804458 0.015090487 0 0.23852047 -0.14741376 -0.38593423
0.028692666 0.016134428 5.5511151e-17 0.23852047 -0.14741376 -0.38593423
0.029341049 0.01717864 0 0.23852047 -0.14741376 -0.38593423
0.0083766486 0.035390507 0.039999999 0.23852047 -0.14741376 -0.38593423
0.03063873 0.019267933 0 0.23852047 -0.14741376 -0.38593423
0.031288046 0.020313041 5.5511151e-17 0.23852047 -0.14741376 -0.38593423
0.031937692 0.021358477 0 0.23852047 -0.14741376 -0.38593423
0.032587677 0.022404252 0 0.23852047 -0.14741376 -0.38593423
0.033238005 0.023450382 0 0.23852047 -0.14741376 -0.38593423
0.0020286094 0.051262461 0.060087912 0.23852047 -0.14741376 -0.38593423
0.00092757866 0.054043896 0.063594662 0.23852047 -0.14741376 -0.38593423
0.035191167 0.026591048 0 0.23852047 -0.14741376 -0.38593423
0.035842974 0.027638741 0 0.23852047 -0.14741376 -0.38593423
0.036495171 0.028686859 0 0.23852047 -0.14741376 -0.38593423
0.00062318053 0.061866391 0.07 0.23852047 -0.14741376 -0.38593423
0.037800778 0.03078443 0 0.23852047 -0.14741376 -0.38593423
0.038454201 0.031833913 0 0.23852047 -0.14741376 -0.38593423
0.039108057 0.032883879 0 0.23852047 -0.14741376 -0.38593423
0.039762344 0.03393434 0 0.23852047 -0.14741376 -0.38593423
0.039999999 0.035369333 0.00081253354 0.23852047 -0.14741376 -0.38593423
0.039999999 0.037033066 0.0020958688 0.23852047 -0.14741376 -0.38593423
0.039999999 0.038708866 0.0033886665 0.23852047 -0.14741376 -0.38593423
0.0068092034 0.071797095 0.07 0.23852047 -0.14741376 -0.38593423
0.0075849048 0.073041283 0.07 0.23852047 -0.14741376 -0.38593423
0.039999999 0.043810211 0.0073250667 0.23852047 -0.14741376 -0.38593423
0.039999999 0.045535848 0.0086569572 0.23852047 -0.14741376 -0.38593423
0.039999999 0.047274355 0.0099989427 0.23852047 -0.14741376 -0.38593423
0.039999999 0.049025901 0.011351155 0.23852047 -0.14741376 -0.38593423
0.039999999 0.050790664 0.012713732 0.23852047 -0.14741376 -0.38593423
0.039999999 0.052568812 0.014086809 0.23852047 -0.14741376 -0.38593423
0.039999999 0.054360531 0.015470527 0.23852047 -0.14741376 -0.38593423
0.039999999 0.056166001 0.016865028 0.23852047 -0.14741376 -0.38593423
0.039999999 0.057985403 0.018270459 0.23852047 -0.14741376 -0.38593423
0.020685276 0.079981297 0.05915121 0.23852047 -0.14741376 -0.38593423
0.039999999 0.061666779 0.021114698 0.23852047 -0.14741376 -0.38593423
0.039999999 0.063529134 0.022553809 0.23852047 -0.14741376 -0.38593423
0.027946444 0.078327984 0.048894677 0.23852047 -0.14741376 -0.38593423
0.039999999 0.067298189 0.025466798 0.23852047 -0.14741376 -0.38593423
0.039999999 0.069205292 0.026940994 0.23852047 -0.14741376 -0.38593423
0.039999999 0.07112772 0.02842721 0.23852047 -0.14741376 -0.38593423
0.039999999 0.073065698 0.029925613 0.23852047 -0.14741376 -0.38593423
0.039999999 0.075019434 0.031436373 0.23852047 -0.14741376 -0.38593423
0.039999999 0.076989152 0.032959662 0.23852047 -0.14741376 -0.38593423
0.03910125 0.079999998 0.036399044 0.23852047 -0.14741376 -0.38593423
0.0012253039 0 0.019392647 0.23852047 -0.14741376 -0.38593423
0.0036488019 0 0.016401613 0.23852047 -0.14741376 -0.38593423
0.0060368441 0 0.013454486 0.23852047 -0.14741376 -0.38593423
0.0083902366 0 0.010550264 0.23852047 -0.14741376 -0.38593423
0.010709762 0 0.0076879808 0.23852047 -0.14741376 -0.38593423
0.012996177 0 0.0048666969 0.23852047 -0.14741376 -0.38593423
0.01525022 0 0.0020855002 0.23852047 -0.14741376 -0.38593423
0.01709595 0.00025118556 0 0.23852047 -0.14741376 -0.38593423
0.017741811 0.0012947333 5.5511151e-17 0.23852047 -0.14741376 -0.38593423
0.018387826 0.0023383484 0 0.23852047 -0.14741376 -0.38593423
0.019034008 0.0033820448 5.5511151e-17 0.23852047 -0.14741376 -0.38593423
0.019680362 0.0044258367 5.5511151e-17 0.23852047 -0.14741376 -0.38593423
0.020326898 0.0054697376 0 0.23852047 -0.14741376 -0.38593423
0.020973623 0.0065137614 0 0.23852047 -0.14741376 -0.38593423
0.021620549 0.0075579225 0 0.23852047 -0.14741376 -0.38593423
0.022267682 0.0086022345 0 0.23852047 -0.14741376 -0.38593423
0.022915032 0.0096467119 5.5511151e-17 0.23852047 -0.14741376 -0.38593423
0.023562606 0.010691368 5.5511151e-17 0.23852047 -0.14741376 -0.38593423
0.0019983347 0.028231254 0.039999999 0.23852047 -0.14741376 -0.38593423
0.024858465 0.012781275 0 0.23852047 -0.14741376 -0.38593423
0.0034290489 0.03053824 0.039999999 0.23852047 -0.14741376 -0.38593423
0.026155332 0.014872065 0 0.23852047 -0.14741376 -0.38593423
0.026804164 0.015917826 5.5511151e-17 0.23852047 -0.14741376 -0.38593423
0.027453274 0.016963853 5.5511151e-17 0.23852047 -0.14741376 -0.38593423
0.02810267 0.018010154 0 0.23852047 -0.14741376 -0.38593423
0.02875236 0.019056749 0 0.23852047 -0.14741376 -0.38593423
0.029402357 0.020103648 0 0.23852047 -0.14741376 -0.38593423
0.030052666 0.021150868 0 0.23852047 -0.14741376 -0.38593423
0.030703295 0.02219842 0 0.23852047 -0.14741376 -0.38593423
0.031354256 0.023246322 0 0.23852047 -0.14741376 -0.38593423
0.032005556 0.024294585 0 0.23852047 -0.14741376 -0.38593423
0.032657206 0.025343224 0 0.23852047 -0.14741376 -0.38593423
0.03330921 0.026392255 0 0.23852047 -0.14741376 -0.38593423
0.033961583 0.027441692 0 0.23852047 -0.14741376 -0.38593423
0.034614332 0.028491545 0 0.23852047 -0.14741376 -0.38593423
0.035267465 0.029541833 0 0.23852047 -0.14741376 -0.38593423
0.035920989 0.030592568 0 0.23852047 -0.14741376 -0.38593423
0.036574919 0.031643767 0 0.23852047 -0.14741376 -0.38593423
0.037229255 0.032695442 0 0.23852047 -0.14741376 -0.38593423
0.037884016 0.033747606 5.5511151e-17 0.23852047 -0.14741376 -0.38593423
0.0022669903 0.067849904 0.07 0.23852047 -0.14741376 -0.38593423
0.03919483 0.035853468 5.5511151e-17 0.23852047 -0.14741376 -0.38593423
0.0038166053 0.070338972 0.07 0.23852047 -0.14741376 -0.38593423
0.039999999 0.038436517 0.00098901265 0.23852047 -0.14741376 -0.38593423
0.039999999 0.040116273 0.0022770779 0.23852047 -0.14741376 -0.38593423
0.039999999 0.041808289 0.0035746885 0.23852047 -0.14741376 -0.38593423
0.039999999 0.043512728 0.0048819678 0.23852047 -0.14741376 -0.38593423
0.039999999 0.045229748 0.0061990428 0.23852047 -0.14741376 -0.38593423
0.0093944259 0.076925725 0.068185158 0.23852047 -0.14741376 -0.38593423
0.039999999 0.048702199 0.0088630915 0.23852047 -0.14741376 -0.38593423
0.039999999 0.050457969 0.010210329 0.23852047 -0.14741376 -0.38593423
0.039999999 0.052227002 0.011567887 0.23852047 -0.14741376 -0.38593423
0.039999999 0.054009467 0.012935903 0.23852047 -0.14741376 -0.38593423
0.039999999 0.055805553 0.014314516 0.23852047 -0.14741376 -0.38593423
0.039999999 0.057615433 0.01570387 0.23852047 -0.14741376 -0.38593423
0.039999999 0.059439301 0.017104106 0.23852047 -0.14741376 -0.38593423
0.039999999 0.061277341 0.018515375 0.23852047 -0.14741376 -0.38593423
0.039999999 0.063129753 0.019937824 0.23852047 -0.14741376 -0.38593423
0.039999999 0.064996727 0.021371607 0.23852047 -0.14741376 -0.38593423
0.030801335 0.076807924 0.041756809 0.23852047 -0.14741376 -0.38593423
0.039999999 0.068775162 0.024273794 0.23852047 -0.14741376 -0.38593423
0.039999999 0.070687033 0.025742518 0.23852047 -0.14741376 -0.38593423
0.039999999 0.07261429 0.027223213 0.23852047 -0.14741376 -0.38593423
0.039999999 0.074557148 0.028716045 0.23852047 -0.14741376 -0.38593423
0.039999999 0.076515824 0.030221185 0.23852047 -0.14741376 -0.38593423
0.039999999 0.078490533 0.031738803 0.23852047 -0.14741376 -0.38593423
2.7755576e-17 0.00075835461 0.019209355 0.23852047 -0.14741376 -0.38593423
0.0036353806 0 0.014172351 0.23852047 -0.14741376 -0.38593423
0.0060148006 0 0.011252224 0.23852047 -0.14741376 -0.38593423
0.0083598215 2.7755576e-17 0.0083744433 0.23852047 -0.14741376 -0.38593423
0.010671216 0 0.0055380547 0.23852047 -0.14741376 -0.38593423
0.012949735 0 0.0027421352 0.23852047 -0.14741376 -0.38593423
0.015187883 5.4284765e-06 0 0.23852047 -0.14741376 -0.38593423
0.015834747 0.0010509151 0 0.23852047 -0.14741376 -0.38593423
2.7755576e-17 0.01319448 0.028647576 0.23852047 -0.14741376 -0.38593423
0.017128898 0.0031420798 0 0.23852047 -0.14741376 -0.38593423
0.017776204 0.004187786 0 0.23852047 -0.14741376 -0.38593423
0.018423676 0.0052335933 0 0.23852047 -0.14741376 -0.38593423
2.7755576e-17 0.019636296 0.033539779 0.23852047 -0.14741376 -0.38593423
0.01971915 0.0073255668 0 0.23852047 -0.14741376 -0.38593423
0.02036717 0.008371762 0 0.23852047 -0.14741376 -0.38593423
2.7755576e-17 0.024571244 0.037289049 0.23852047 -0.14741376 -0.38593423
0.021663817 0.010464638 5.5511151e-17 0.23852047 -0.14741376 -0.38593423
0.022312462 0.011511346 0 0.23852047 -0.14741376 -0.38593423
0.022961333 0.012558254 0 0.23852047 -0.14741376 -0.38593423
0.0013361751 0.030294141 0.039999999 0.23852047 -0.14741376 -0.38593423
0.024259789 0.014652725 5.5511151e-17 0.23852047 -0.14741376 -0.38593423
0.024909392 0.015700316 0 0.23852047 -0.14741376 -0.38593423
0.025559256 0.016748164 0 0.23852047 -0.14741376 -0.38593423
0.02620939 0.01779628 0 0.23852047 -0.14741376 -0.38593423
0.026859803 0.018844681 5.5511151e-17 0.23852047 -0.14741376 -0.38593423
0.027510505 0.01989338 0 0.23852047 -0.14741376 -0.38593423
0.028161502 0.020942392 0 0.23852047 -0.14741376 -0.38593423
0.028812805 0.021991732 0 0.23852047 -0.14741376 -0.38593423
0.029464424 0.02304141 0 0.23852047 -0.14741376 -0.38593423
0.030116364 0.024091445 0 0.23852047 -0.14741376 -0.38593423
0.030768637 0.02514185 0 0.23852047 -0.14741376 -0.38593423
0.031421252 0.026192637 0 0.23852047 -0.14741376 -0.38593423
0.032074217 0.027243823 0 0.23852047 -0.14741376 -0.38593423
0.03272754 0.028295422 0 0.23852047 -0.14741376 -0.38593423
0.033381231 0.029347446 0 0.23852047 -0.14741376 -0.38593423
0.034035299 0.030399913 0 0.23852047 -0.14741376 -0.38593423
0.034689754 0.031452835 0 0.23852047 -0.14741376 -0.38593423
0.035344604 0.032506224 0 0.23852047 -0.14741376 -0.38593423
0.035999857 0.033560101 0 0.23852047 -0.14741376 -0.38593423
0.036655527 0.034614477 0 0.23852047 -0.14741376 -0.38593423
0.037311614 0.035669364 0 0.23852047 -0.14741376 -0.38593423
0.037968136 0.03672478 0 0.23852047 -0.14741376 -0.38593423
0.0031134782 0.07068073 0.068561614 0.23852047 -0.14741376 -0.38593423
0.039282508 0.038837254 0 0.23852047 -0.14741376 -0.38593423
0.0048408923 0.073001482 0.068214759 0.23852047 -0.14741376 -0.38593423
0.039999999 0.041521825 0.0011674643 0.23852047 -0.14741376 -0.38593423
0.039999999 0.043217853 0.0024603019 0.23852047 -0.14741376 -0.38593423
0.0079805898 0.075948916 0.066617079 0.23852047 -0.14741376 -0.38593423
0.039999999 0.046647459 0.0050749904 0.23852047 -0.14741376 -0.38593423
0.039999999 0.04838137 0.0063970941 0.23852047 -0.14741376 -0.38593423
0.039999999 0.05012824 0.0077292104 0.23852047 -0.14741376 -0.38593423
0.039999999 0.051888246 0.0090714702 0.23852047 -0.14741376 -0.38593423
0.014704064 0.079283036 0.060928889 0.23852047 -0.14741376 -0.38593423
0.039999999 0.05544835 0.011786963 0.23852047 -0.14741376 -0.38593423
0.039999999 0.057248808 0.013160471 0.23852047 -0.14741376 -0.38593423
0.019884098 0.079985231 0.055124838 0.23852047 -0.14741376 -0.38593423
0.021901883 0.079881594 0.052576549 0.23852047 -0.14741376 -0.38593423
0.024122689 0.079541259 0.049599353 0.23852047 -0.14741376 -0.38593423
0.039999999 0.064590998 0.018762911 0.23852047 -0.14741376 -0.38593423
0.039999999 0.066462599 0.020191362 0.23852047 -0.14741376 -0.38593423
0.039999999 0.068349004 0.021631254 0.23852047 -0.14741376 -0.38593423
0.039999999 0.070250437 0.023082746 0.23852047 -0.14741376 -0.38593423
0.039999999 0.074099191 0.026021168 0.23852047 -0.14741376 -0.38593423
0.039999999 0.076046936 0.027508428 0.23852047 -0.14741376 -0.38593423
0.039999999 0.078010559 0.029007945 0.23852047 -0.14741376 -0.38593423
0.039999999 0.079990275 0.030519893 0.23852047 -0.14741376 -0.38593423
0.0012162571 0 0.014895884 0.23852047 -0.14741376 -0.38593423
0.003622059 0 0.011959684 0.23852047 -0.14741376 -0.38593423
0 0.0037992869 0.019246567 0.23852047 -0.14741376 -0.38593423
0.008329629 0 0.0062145907 0.23852047 -0.14741376 -0.38593423
0.010632951 0 0.0034037963 0.23852047 -0.14741376 -0.38593423
0.012903628 0 0.00063294923 0.23852047 -0.14741376 -0.38593423
0.013920939 0.00080606632 0 0.23852047 -0.14741376 -0.38593423
0.014568957 0.0018535528 5.5511151e-17 0.23852047 -0.14741376 -0.38593423
0.015217104 0.002901104 0 0.23852047 -0.14741376 -0.38593423
0.015865391 0.0039487341 0 0.23852047 -0.14741376 -0.38593423
0.016513828 0.0049964576 0 0.23852047 -0.14741376 -0.38593423
0.017162422 0.0060442877 5.5511151e-17 0.23852047 -0.14741376 -0.38593423
0.017811179 0.0070922393 5.5511151e-17 0.23852047 -0.14741376 -0.38593423
0.018460114 0.0081403255 0 0.23852047 -0.14741376 -0.38593423
0.01910923 0.0091885617 0 0.23852047 -0.14741376 -0.38593423
0.019758539 0.010236962 0 0.23852047 -0.14741376 -0.38593423
0.020408047 0.011285539 0 0.23852047 -0.14741376 -0.38593423
0.021057768 0.012334308 0 0.23852047 -0.14741376 -0.38593423
0.021707704 0.013383282 0 0.23852047 -0.14741376 -0.38593423
0.02235787 0.014432478 0 0.23852047 -0.14741376 -0.38593423
0.02300827 0.015481907 5.5511151e-17 0.23852047 -0.14741376 -0.38593423
0.023658916 0.016531585 5.5511151e-17 0.23852047 -0.14741376 -0.38593423
0.024309816 0.017581524 0 0.23852047 -0.14741376 -0.38593423
0.024960976 0.018631741 0 0.23852047 -0.14741376 -0.38593423
0.02561241 0.019682249 0 0.23852047 -0.14741376 -0.38593423
0.026264124 0.02073306 0 0.23852047 -0.14741376 -0.38593423
0.026916126 0.021784194 0 0.23852047 -0.14741376 -0.38593423
0.027568426 0.022835661 5.5511151e-17 0.23852047 -0.14741376 -0.38593423
0.028221034 0.023887474 5.5511151e-17 0.23852047 -0.14741376 -0.38593423
0.028873958 0.024939651 0 0.23852047 -0.14741376 -0.38593423
0.029527206 0.025992204 0 0.23852047 -0.14741376 -0.38593423
0.030180788 0.027045149 0 0.23852047 -0.14741376 -0.38593423
0.030834714 0.028098499 0 0.23852047 -0.14741376 -0.38593423
0.031488989 0.029152269 0 0.23852047 -0.14741376 -0.38593423
0.032143626 0.030206472 0 0.23852047 -0.14741376 -0.38593423
0.032798637 0.031261124 0 0.23852047 -0.14741376 -0.38593423
0.03345402 0.032316241 0 0.23852047 -0.14741376 -0.38593423
0.034109797 0.033371836 0 0.23852047 -0.14741376 -0.38593423
0.034765966 0.034427922 5.5511151e-17 0.23852047 -0.14741376 -0.38593423
0.035422545 0.035484515 0 0.23852047 -0.14741376 -0.38593423
0.036079537 0.03654163 0 0.23852047 -0.14741376 -0.38593423
0.036736954 0.037599277 0 0.23852047 -0.14741376 -0.38593423
0.037394807 0.038657479 0 0.23852047 -0.14741376 -0.38593423
0.038053099 0.039716244 0 0.23852047 -0.14741376 -0.38593423
0.0046877181 0.072821148 0.065718263 0.23852047 -0.14741376 -0.38593423
0.039371055 0.041835532 0 0.23852047 -0.14741376 -0.38593423
0.039999999 0.042925548 5.9754788e-05 0.23852047 -0.14741376 -0.38593423
0.039999999 0.044625591 0.0013478178 0.23852047 -0.14741376 -0.38593423
0.0089398418 0.076652221 0.063441955 0.23852047 -0.14741376 -0.38593423
0.039999999 0.048063368 0.0039528375 0.23852047 -0.14741376 -0.38593423
0.039999999 0.049801428 0.0052700457 0.23852047 -0.14741376 -0.38593423
0.039999999 0.051552497 0.0065972251 0.23852047 -0.14741376 -0.38593423
0.039999999 0.053316742 0.007934507 0.23852047 -0.14741376 -0.38593423
0.016006581 0.079569712 0.057048324 0.23852047 -0.14741376 -0.38593423
0.017696768 0.079837933 0.055193931 0.23852047 -0.14741376 -0.38593423
0.039999999 0.058690317 0.012008315 0.23852047 -0.14741376 -0.38593423
0.039999999 0.060509056 0.013387367 0.23852047 -0.14741376 -0.38593423
0.039999999 0.062341876 0.014777214 0.23852047 -0.14741376 -0.38593423
0.039999999 0.064188972 0.016178003 0.23852047 -0.14741376 -0.38593423
0.039999999 0.066050537 0.01758988 0.23852047 -0.14741376 -0.38593423
0.039999999 0.067926772 0.019012997 0.23852047 -0.14741376 -0.38593423
0.039999999 0.069817871 0.020447511 0.23852047 -0.14741376 -0.38593423
0.039999999 0.071724035 0.021893574 0.23852047 -0.14741376 -0.38593423
0.034293383 0.079999998 0.035116564 0.23852047 -0.14741376 -0.38593423
0.039999999 0.07558243 0.024820996 0.23852047 -0.14741376 -0.38593423
0.039999999 0.077535078 0.026302684 0.23852047 -0.14741376 -0.38593423
0.039999999 0.079503663 0.027796578 0.23852047 -0.14741376 -0.38593423
0.0012117843 0 0.01267267 0.23852047 -0.14741376 -0.38593423
0.0036088361 0 0.0097634001 0.23852047 -0.14741376 -0.38593423
0.0059712003 0 0.0068963272 0.23852047 -0.14741376 -0.38593423
0.0082996562 0 0.0040705032 0.23852047 -0.14741376 -0.38593423
0 0.0068524289 0.01928463 0.23852047 -0.14741376 -0.38593423
0.012000301 0.00056019466 5.5511151e-17 0.23852047 -0.14741376 -0.38593423
0.012649363 0.0016096317 0 0.23852047 -0.14741376 -0.38593423
0.013298538 0.0026591253 0 0.23852047 -0.14741376 -0.38593423
0.013947835 0.0037086895 0 0.23852047 -0.14741376 -0.38593423
0.014597264 0.0047583384 0 0.23852047 -0.14741376 -0.38593423
0.015246834 0.0058080866 5.5511151e-17 0.23852047 -0.14741376 -0.38593423
0.015896551 0.0068579474 0 0.23852047 -0.14741376 -0.38593423
0.016546428 0.0079079354 0 0.23852047 -0.14741376 -0.38593423
2.7755576e-17 0.021107871 0.029986385 0.23852047 -0.14741376 -0.38593423
0.017846689 0.010008351 0 0.23852047 -0.14741376 -0.38593423
0.018497091 0.011058806 0 0.23852047 -0.14741376 -0.38593423
0 0.026033232 0.033685796 0.23852047 -0.14741376 -0.38593423
0.019798482 0.013160282 0 0.23852047 -0.14741376 -0.38593423
0.020449487 0.014211331 0 0.23852047 -0.14741376 -0.38593423
0.021100715 0.015262607 0 0.23852047 -0.14741376 -0.38593423
0.021752169 0.016314123 5.5511151e-17 0.23852047 -0.14741376 -0.38593423
4.5404718e-06 0.034444418 0.039999999 0.23852047 -0.14741376 -0.38593423
0.023055797 0.018417936 0 0.23852047 -0.14741376 -0.38593423
0.02370799 0.019470261 0 0.23852047 -0.14741376 -0.38593423
0.024360446 0.020522883 0 0.23852047 -0.14741376 -0.38593423
0.025013175 0.021575818 0 0.23852047 -0.14741376 -0.38593423
0.025666185 0.02262908 0 0.23852047 -0.14741376 -0.38593423
0.026319487 0.023682682 0 0.23852047 -0.14741376 -0.38593423
0.026973087 0.024736639 5.5511151e-17 0.23852047 -0.14741376 -0.38593423
0.027626995 0.025790967 0 0.23852047 -0.14741376 -0.38593423
0.028281221 0.026845679 0 0.23852047 -0.14741376 -0.38593423
0.028935775 0.027900787 0 0.23852047 -0.14741376 -0.38593423
0.0013844725 0.052766833 0.05210235 0.23852047 -0.14741376 -0.38593423
0.030245895 0.030012259 0 0.23852047 -0.14741376 -0.38593423
0.03090148 0.031068653 0 0.23852047 -0.14741376 -0.38593423
0.03155743 0.032125499 5.5511151e-17 0.23852047 -0.14741376 -0.38593423
0.032213751 0.033182818 5.5511151e-17 0.23852047 -0.14741376 -0.38593423
0.00026184006 0.063044399 0.061195128 0.23852047 -0.14741376 -0.38593423
0.033527542 0.035298929 0 0.23852047 -0.14741376 -0.38593423
0.00099692622 0.066205867 0.062683329 0.23852047 -0.14741376 -0.38593423
0.034842931 0.037417099 0 0.23852047 -0.14741376 -0.38593423
0.035501245 0.038476992 0 0.23852047 -0.14741376 -0.38593423
0.0028585813 0.07030303 0.063511178 0.23852047 -0.14741376 -0.38593423
0.036819167 0.040598471 0 0.23852047 -0.14741376 -0.38593423
0.03747879 0.041660085 0 0.23852047 -0.14741376 -0.38593423
0.0054599768 0.07373032 0.06293942 0.23852047 -0.14741376 -0.38593423
0.038799409 0.04378514 0 0.23852047 -0.14741376 -0.38593423
0.039460424 0.04484861 0 0.23852047 -0.14741376 -0.38593423
0.039999999 0.046031527 0.00023716547 0.23852047 -0.14741376 -0.38593423
0.039999999 0.047748152 0.0015300019 0.23852047 -0.14741376 -0.38593423
0.039999999 0.049477492 0.0028325124 0.23852047 -0.14741376 -0.38593423
0.039999999 0.051219713 0.0041448232 0.23852047 -0.14741376 -0.38593423
0.039999999 0.052974984 0.0054670637 0.23852047 -0.14741376 -0.38593423
0.039999999 0.054743484 0.0067993649 0.23852047 -0.14741376 -0.38593423
0.039999999 0.056525383 0.0081418594 0.23852047 -0.14741376 -0.38593423
0.039999999 0.058320858 0.0094946837 0.23852047 -0.14741376 -0.38593423
0.039999999 0.060130097 0.010857975 0.23852047 -0.14741376 -0.38593423
0.039999999 0.06195328 0.012231873 0.23852047 -0.14741376 -0.38593423
0.039999999 0.063790597 0.013616523 0.23852047 -0.14741376 -0.38593423
0.027627729 0.078920394 0.039999999 0.23852047 -0.14741376 -0.38593423
0.028461684 0.079999998 0.039804026 0.23852047 -0.14741376 -0.38593423
0.039999999 0.069389269 0.017836438 0.23852047 -0.14741376 -0.38593423
0.039999999 0.071285062 0.01926557 0.23852047 -0.14741376 -0.38593423
0.039999999 0.073195979 0.020706205 0.23852047 -0.14741376 -0.38593423
0.039999999 0.07512223 0.022158502 0.23852047 -0.14741376 -0.38593423
0.039999999 0.07706403 0.023622623 0.23852047 -0.14741376 -0.38593423
0.039999999 0.079021595 0.025098734 0.23852047 -0.14741376 -0.38593423
0.0012073447 0 0.010465942 0.23852047 -0.14741376 -0.38593423
0.0035957107 0 0.0075832861 0.23852047 -0.14741376 -0.38593423
0.0059496392 2.7755576e-17 0.0047422764 0.23852047 -0.14741376 -0.38593423
0.0082699023 0 0.0019419793 0.23852047 -0.14741376 -0.38593423
0.010072744 0.0003133078 0 0.23852047 -0.14741376 -0.38593423
0 0.0083679995 0.01816668 0.23852047 -0.14741376 -0.38593423
0.01137311 0.0024161518 5.5511151e-17 0.23852047 -0.14741376 -0.38593423
2.7755576e-17 0.011477103 0.020487068 0.23852047 -0.14741376 -0.38593423
0.012673899 0.0045192451 0 0.23852047 -0.14741376 -0.38593423
0.013324473 0.0055709202 5.5511151e-17 0.23852047 -0.14741376 -0.38593423
0.01397518 0.006622701 0 0.23852047 -0.14741376 -0.38593423
0 0.017805833 0.025211364 0.23852047 -0.14741376 -0.38593423
0.015277024 0.0087266332 0 0.23852047 -0.14741376 -0.38593423
0.015928179 0.0097788135 5.5511151e-17 0.23852047 -0.14741376 -0.38593423
0 0.022652416 0.028830176 0.23852047 -0.14741376 -0.38593423
0.017231001 0.011883673 0 0.23852047 -0.14741376 -0.38593423
0.017882682 0.012936383 0 0.23852047 -0.14741376 -0.38593423
0 0.027588051 0.032516271 0.23852047 -0.14741376 -0.38593423
0 0.029253589 0.033760324 0.23852047 -0.14741376 -0.38593423
0.019838931 0.016095793 5.5511151e-17 0.23852047 -0.14741376 -0.38593423
0.020491442 0.017149406 0 0.23852047 -0.14741376 -0.38593423
0.021144183 0.018203279 0 0.23852047 -0.14741376 -0.38593423
2.7755576e-17 0.036020551 0.038815718 0.23852047 -0.14741376 -0.38593423
0.022450387 0.02031187 5.5511151e-17 0.23852047 -0.14741376 -0.38593423
0.02310387 0.021366617 0 0.23852047 -0.14741376 -0.38593423
0.023757618 0.02242168 0 0.23852047 -0.14741376 -0.38593423
0.024411639 0.023477079 5.5511151e-17 0.23852047 -0.14741376 -0.38593423
0.025065942 0.024532827 0 0.23852047 -0.14741376 -0.38593423
0.025720539 0.025588935 0 0.23852047 -0.14741376 -0.38593423
0.026375435 0.026645422 0 0.23852047 -0.14741376 -0.38593423
0.027030641 0.0277023 5.5511151e-17 0.23852047 -0.14741376 -0.38593423
0.027686168 0.028759582 0 0.23852047 -0.14741376 -0.38593423
0.028342022 0.029817287 0 0.23852047 -0.14741376 -0.38593423
0.028998211 0.030875426 0 0.23852047 -0.14741376 -0.38593423
0.029654749 0.031934015 0 0.23852047 -0.14741376 -0.38593423
0.03031164 0.032993067 0 0.23852047 -0.14741376 -0.38593423
0.030968897 0.034052599 0 0.23852047 -0.14741376 -0.38593423
0.00022443452 0.06281624 0.058576595 0.23852047 -0.14741376 -0.38593423
0.032284539 0.036173157 5.5511151e-17 0.23852047 -0.14741376 -0.38593423
0.00093514274 0.065983348 0.060088798 0.23852047 -0.14741376 -0.38593423
0.03360175 0.038295809 0 0.23852047 -0.14741376 -0.38593423
0.0020618818 0.0688003 0.060837947 0.23852047 -0.14741376 -0.38593423
0.034920603 0.040420666 5.5511151e-17 0.23852047 -0.14741376 -0.38593423
0.0035390956 0.071308471 0.060934022 0.23852047 -0.14741376 -0.38593423
0.03624117 0.042547856 5.5511151e-17 0.23852047 -0.14741376 -0.38593423
0.036902118 0.043612357 0 0.23852047 -0.14741376 -0.38593423
0.037563525 0.044677489 0 0.23852047 -0.14741376 -0.38593423
0.038225397 0.045743261 0 0.23852047 -0.14741376 -0.38593423
0.038887747 0.046809692 0 0.23852047 -0.14741376 -0.38593423
0.039550576 0.047876794 0 0.23852047 -0.14741376 -0.38593423
0.039999999 0.049156386 0.00041629246 0.23852047 -0.14741376 -0.38593423
0.012380455 0.078479223 0.055646248 0.23852047 -0.14741376 -0.38593423
0.039999999 0.05263624 0.0030213557 0.23852047 -0.14741376 -0.38593423
0.039999999 0.054395728 0.0043386552 0.23852047 -0.14741376 -0.38593423
0.039999999 0.056168489 0.0056659733 0.23852047 -0.14741376 -0.38593423
0.039999999 0.057954695 0.0070034424 0.23852047 -0.14741376 -0.38593423
0.039999999 0.059754528 0.0083511984 0.23852047 -0.14741376 -0.38593423
0.039999999 0.061568167 0.0097093778 0.23852047 -0.14741376 -0.38593423
0.039999999 0.063395798 0.01107812 0.23852047 -0.14741376 -0.38593423
0.039999999 0.065237619 0.012457569 0.23852047 -0.14741376 -0.38593423
0.039999999 0.067093812 0.013847869 0.23852047 -0.14741376 -0.38593423
0.039999999 0.068964571 0.015249166 0.23852047 -0.14741376 -0.38593423
0.039999999 0.070850097 0.01666161 0.23852047 -0.14741376 -0.38593423
0.033463273 0.079999998 0.031388596 0.23852047 -0.14741376 -0.38593423
0.039999999 0.074666277 0.019520558 0.23852047 -0.14741376 -0.38593423
0.039999999 0.07659734 0.020967375 0.23852047 -0.14741376 -0.38593423
0.039999999 0.078544006 0.022425968 0.23852047 -0.14741376 -0.38593423
0.0012029379 0 0.0082754903 0.23852047 -0.14741376 -0.38593423
0.0035826813 0 0.005419136 0.23852047 -0.14741376 -0.38593423
0.0059282347 0 0.002603886 0.23852047 -0.14741376 -0.38593423
0.0081381779 6.5413486e-05 0 0.23852047 -0.14741376 -0.38593423
0.0087894155 0.0011187827 5.5511151e-17 0.23852047 -0.14741376 -0.38593423
0.0094407331 0.0021721914 0 0.23852047 -0.14741376 -0.38593423
0.010092139 0.0032256541 0 0.23852047 -0.14741376 -0.38593423
0.010743642 0.0042791846 0 0.23852047 -0.14741376 -0.38593423
0.011395251 0.0053327978 0 0.23852047 -0.14741376 -0.38593423
0.012046975 0.0063865073 0 0.23852047 -0.14741376 -0.38593423
0.012698823 0.0074403277 0 0.23852047 -0.14741376 -0.38593423
0 0.017738402 0.022882886 0.23852047 -0.14741376 -0.38593423
2.7755576e-17 0.019337922 0.024070313 0.23852047 -0.14741376 -0.38593423
0 0.020947037 0.025264936 0.23852047 -0.14741376 -0.38593423
0.015307627 0.011657004 0 0.23852047 -0.14741376 -0.38593423
0.015960226 0.012711594 5.5511151e-17 0.23852047 -0.14741376 -0.38593423
0.016613001 0.01376638 0 0.23852047 -0.14741376 -0.38593423
0.017265962 0.014821377 0 0.23852047 -0.14741376 -0.38593423
0.017919118 0.015876599 0 0.23852047 -0.14741376 -0.38593423
2.7755576e-17 0.030809475 0.032588404 0.23852047 -0.14741376 -0.38593423
0.019226048 0.017987778 5.5511151e-17 0.23852047 -0.14741376 -0.38593423
0.019879842 0.019043764 0 0.23852047 -0.14741376 -0.38593423
0.020533865 0.020100031 0 0.23852047 -0.14741376 -0.38593423
0.021188129 0.021156598 0 0.23852047 -0.14741376 -0.38593423
0.02184264 0.022213474 0 0.23852047 -0.14741376 -0.38593423
0.022497408 0.023270678 0 0.23852047 -0.14741376 -0.38593423
0.023152443 0.024328222 0 0.23852047 -0.14741376 -0.38593423
0.023807753 0.025386123 0 0.23852047 -0.14741376 -0.38593423
0.024463346 0.026444392 0 0.23852047 -0.14741376 -0.38593423
0.025119234 0.027503045 5.5511151e-17 0.23852047 -0.14741376 -0.38593423
0.025775423 0.028562099 0 0.23852047 -0.14741376 -0.38593423
0.026431926 0.029621564 0 0.23852047 -0.14741376 -0.38593423
0.027088746 0.030681457 0 0.23852047 -0.14741376 -0.38593423
0.027745899 0.031741794 0 0.23852047 -0.14741376 -0.38593423
0.00026492003 0.056936812 0.051683556 0.23852047 -0.14741376 -0.38593423
0.029061226 0.033863857 5.5511151e-17 0.23852047 -0.14741376 -0.38593423
0.029719422 0.03492561 0 0.23852047 -0.14741376 -0.38593423
0.030377982 0.035987861 0 0.23852047 -0.14741376 -0.38593423
0.031036919 0.037050635 0 0.23852047 -0.14741376 -0.38593423
0.031696241 0.038113937 0 0.23852047 -0.14741376 -0.38593423
0.0013773597 0.067215316 0.057991069 0.23852047 -0.14741376 -0.38593423
0.033016074 0.040242191 0 0.23852047 -0.14741376 -0.38593423
0.0026436322 0.069897592 0.058467388 0.23852047 -0.14741376 -0.38593423
0.034337558 0.042372748 0 0.23852047 -0.14741376 -0.38593423
0.034998938 0.04343893 0 0.23852047 -0.14741376 -0.38593423
0.035660762 0.04450573 5.5511151e-17 0.23852047 -0.14741376 -0.38593423
0.036323037 0.045573164 5.5511151e-17 0.23852047 -0.14741376 -0.38593423
0.03698577 0.046641249 0 0.23852047 -0.14741376 -0.38593423
0.0083158473 0.076203786 0.0563577 0.23852047 -0.14741376 -0.38593423
0.038312647 0.048779435 0 0.23852047 -0.14741376 -0.38593423
0.038976815 0.049849562 0 0.23852047 -0.14741376 -0.38593423
0.039641477 0.050920401 0 0.23852047 -0.14741376 -0.38593423
0.039999999 0.052300457 0.0005970627 0.23852047 -0.14741376 -0.38593423
0.015059633 0.07936129 0.050623599 0.23852047 -0.14741376 -0.38593423
0.039999999 0.055814739 0.0032119278 0.23852047 -0.14741376 -0.38593423
0.039999999 0.05759177 0.0045342604 0.23852047 -0.14741376 -0.38593423
0.039999999 0.059382293 0.0058667012 0.23852047 -0.14741376 -0.38593423
0.039999999 0.061186492 0.0072093862 0.23852047 -0.14741376 -0.38593423
0.039999999 0.063004546 0.0085624512 0.23852047 -0.14741376 -0.38593423
0.039999999 0.064836644 0.0099260351 0.23852047 -0.14741376 -0.38593423
0.02765183 0.079999998 0.03600866 0.23852047 -0.14741376 -0.38593423
0.039999999 0.068543725 0.012685332 0.23852047 -0.14741376 -0.38593423
0.039999999 0.070419095 0.014081334 0.23852047 -0.14741376 -0.38593423
0.039999999 0.072309285 0.015488438 0.23852047 -0.14741376 -0.38593423
0.039999999 0.074214503 0.016906796 0.23852047 -0.14741376 -0.38593423
0.039999999 0.07613495 0.018336564 0.23852047 -0.14741376 -0.38593423
0.039999999 0.078070834 0.019777898 0.23852047 -0.14741376 -0.38593423
0.0011985634 0 0.006101104 0.23852047 -0.14741376 -0.38593423
0.0035697469 0 0.0032707457 0.23852047 -0.14741376 -0.38593423
0.0059069851 0 0.00048095698 0.23852047 -0.14741376 -0.38593423
0.0068488824 0.00087187038 0 0.23852047 -0.14741376 -0.38593423
0.0075013163 0.0019272523 5.5511151e-17 0.23852047 -0.14741376 -0.38593423
0.0081538213 0.0029826795 0 0.23852047 -0.14741376 -0.38593423
0.0088064056 0.0040381663 0 0.23852047 -0.14741376 -0.38593423
0.0094590783 0.0050937268 0 0.23852047 -0.14741376 -0.38593423
0.01011185 0.0061493758 0 0.23852047 -0.14741376 -0.38593423
0.010764726 0.0072051273 0 0.23852047 -0.14741376 -0.38593423
0.011417719 0.0082609951 0 0.23852047 -0.14741376 -0.38593423
0.012070836 0.0093169948 5.5511151e-17 0.23852047 -0.14741376 -0.38593423
2.7755576e-17 0.019264754 0.021748178 0.23852047 -0.14741376 -0.38593423
0.013377477 0.011429446 0 0.23852047 -0.14741376 -0.38593423
2.7755576e-17 0.022479963 0.024121627 0.23852047 -0.14741376 -0.38593423
0.014684722 0.013542594 0 0.23852047 -0.14741376 -0.38593423
0.015338593 0.014599466 5.5511151e-17 0.23852047 -0.14741376 -0.38593423
0.015992641 0.015656555 5.5511151e-17 0.23852047 -0.14741376 -0.38593423
0.016646877 0.016713876 0 0.23852047 -0.14741376 -0.38593423
0.017301308 0.017771445 0 0.23852047 -0.14741376 -0.38593423
0 0.032362957 0.031418528 0.23852047 -0.14741376 -0.38593423
0.018610792 0.019887378 0 0.23852047 -0.14741376 -0.38593423
0.019265864 0.020945773 0 0.23852047 -0.14741376 -0.38593423
0.019921167 0.02200447 0 0.23852047 -0.14741376 -0.38593423
0.02057671 0.023063488 0 0.23852047 -0.14741376 -0.38593423
0.021232503 0.024122838 0 0.23852047 -0.14741376 -0.38593423
2.7755576e-17 0.042621717 0.038994908 0.23852047 -0.14741376 -0.38593423
0.022544872 0.026242599 0 0.23852047 -0.14741376 -0.38593423
0.023201467 0.027303036 0 0.23852047 -0.14741376 -0.38593423
0.023858348 0.028363867 0 0.23852047 -0.14741376 -0.38593423
0.024515525 0.029425103 5.5511151e-17 0.23852047 -0.14741376 -0.38593423
0.025173003 0.030486761 0 0.23852047 -0.14741376 -0.38593423
0.025830796 0.031548854 0 0.23852047 -0.14741376 -0.38593423
0.026488909 0.032611396 0 0.23852047 -0.14741376 -0.38593423
0.027147356 0.033674408 0 0.23852047 -0.14741376 -0.38593423
0.027806142 0.034737896 0 0.23852047 -0.14741376 -0.38593423
0.028465278 0.03580188 0 0.23852047 -0.14741376 -0.38593423
0.029124774 0.036866371 0 0.23852047 -0.14741376 -0.38593423
0.029784637 0.03793139 0 0.23852047 -0.14741376 -0.38593423
0.030444875 0.038996946 0 0.23852047 -0.14741376 -0.38593423
0.031105503 0.040063057 0 0.23852047 -0.14741376 -0.38593423
0.031766526 0.041129734 5.5511151e-17 0.23852047 -0.14741376 -0.38593423
0.032427952 0.042197 0 0.23852047 -0.14741376 -0.38593423
0.033089794 0.043264862 0 0.23852047 -0.14741376 -0.38593423
0.033752061 0.044333339 0 0.23852047 -0.14741376 -0.38593423
0.034414761 0.045402445 0 0.23852047 -0.14741376 -0.38593423
0.0059672203 0.07421542 0.055223491 0.23852047 -0.14741376 -0.38593423
0.035741497 0.047542602 5.5511151e-17 0.23852047 -0.14741376 -0.38593423
0.036405552 0.048613686 0 0.23852047 -0.14741376 -0.38593423
0.037070077 0.04968546 0 0.23852047 -0.14741376 -0.38593423
0.037735086 0.050757937 0 0.23852047 -0.14741376 -0.38593423
0.011871823 0.078243904 0.05116111 0.23852047 -0.14741376 -0.38593423
0.039066579 0.052905072 0 0.23852047 -0.14741376 -0.38593423
0.039733082 0.053979754 0 0.23852047 -0.14741376 -0.38593423
0.039999999 0.055464096 0.00077940221 0.23852047 -0.14741376 -0.38593423
0.039999999 0.057232041 0.0020868112 0.23852047 -0.14741376 -0.38593423
0.039999999 0.059013352 0.0034041551 0.23852047 -0.14741376 -0.38593423
0.039999999 0.0608082 0.0047315652 0.23852047 -0.14741376 -0.38593423
0.023569407 0.079999998 0.038513429 0.23852047 -0.14741376 -0.38593423
0.025418533 0.079999998 0.036309052 0.23852047 -0.14741376 -0.38593423
0.039999999 0.066275813 0.0087755453 0.23852047 -0.14741376 -0.38593423
0.039999999 0.068126664 0.010144584 0.23852047 -0.14741376 -0.38593423
0.039999999 0.069991983 0.011524383 0.23852047 -0.14741376 -0.38593423
0.032641664 0.079999998 0.027698791 0.23852047 -0.14741376 -0.38593423
0.039999999 0.073766842 0.014316848 0.23852047 -0.14741376 -0.38593423
0.039999999 0.075676784 0.015729815 0.23852047 -0.14741376 -0.38593423
0.039999999 0.077602014 0.017154144 0.23852047 -0.14741376 -0.38593423
0.039999999 0.079542734 0.01858999 0.23852047 -0.14741376 -0.38593423
0.0011942209 0 0.0039425776 0.23852047 -0.14741376 -0.38593423
0.003556906 0 0.0011379139 0.23852047 -0.14741376 -0.38593423
0.004901187 0.00062397664 5.5511151e-17 0.23852047 -0.14741376 -0.38593423
0 0.0052363235 0.009202105 0.23852047 -0.14741376 -0.38593423
0.0062084012 0.0027387445 0 0.23852047 -0.14741376 -0.38593423
0.0068620974 0.0037961975 0 0.23852047 -0.14741376 -0.38593423
0.0075158644 0.0048537161 0 0.23852047 -0.14741376 -0.38593423
0.0081697116 0.0059113144 0 0.23852047 -0.14741376 -0.38593423
2.7755576e-17 0.012899517 0.014825403 0.23852047 -0.14741376 -0.38593423
0.0094776824 0.0080268085 0 0.23852047 -0.14741376 -0.38593423
0.010131824 0.0090847323 0 0.23852047 -0.14741376 -0.38593423
0.010786082 0.010142794 5.5511151e-17 0.23852047 -0.14741376 -0.38593423
0.011440463 0.011201007 0 0.23852047 -0.14741376 -0.38593423
0 0.020788655 0.020615462 0.23852047 -0.14741376 -0.38593423
0.012749637 0.013317948 0 0.23852047 -0.14741376 -0.38593423
0.013404447 0.014376704 0 0.23852047 -0.14741376 -0.38593423
0.014059417 0.01543567 5.5511151e-17 0.23852047 -0.14741376 -0.38593423
0.014714557 0.016494859 0 0.23852047 -0.14741376 -0.38593423
0.015369875 0.017554287 0 0.23852047 -0.14741376 -0.38593423
0.016025381 0.01861397 0 0.23852047 -0.14741376 -0.38593423
0.016681083 0.019673919 0 0.23852047 -0.14741376 -0.38593423
0.017336991 0.02073415 0 0.23852047 -0.14741376 -0.38593423
0.017993113 0.021794679 0 0.23852047 -0.14741376 -0.38593423
0.018649459 0.022855518 0 0.23852047 -0.14741376 -0.38593423
2.7755576e-17 0.039005619 0.033988915 0.23852047 -0.14741376 -0.38593423
2.7755576e-17 0.040724318 0.035250887 0.23852047 -0.14741376 -0.38593423
0.020619927 0.026040053 0 0.23852047 -0.14741376 -0.38593423
0.021277258 0.027102284 0 0.23852047 -0.14741376 -0.38593423
0.021934858 0.028164901 0 0.23852047 -0.14741376 -0.38593423
0.022592735 0.029227916 0 0.23852047 -0.14741376 -0.38593423
0.00093936978 0.048709519 0.039999999 0.23852047 -0.14741376 -0.38593423
0.0016660761 0.049883641 0.039999999 0.23852047 -0.14741376 -0.38593423
0.024568126 0.032419503 0 0.23852047 -0.14741376 -0.38593423
0.025227206 0.033484265 0 0.23852047 -0.14741376 -0.38593423
0.02588661 0.034549497 0 0.23852047 -0.14741376 -0.38593423
8.3236599e-05 0.05846478 0.048180502 0.23852047 -0.14741376 -0.38593423
0.027206426 0.03668144 0 0.23852047 -0.14741376 -0.38593423
0.000116069 0.062140781 0.050841656 0.23852047 -0.14741376 -0.38593423
0.028527647 0.038815454 0 0.23852047 -0.14741376 -0.38593423
0.029188808 0.039883275 0 0.23852047 -0.14741376 -0.38593423
0.0012128978 0.066802531 0.052964807 0.23852047 -0.14741376 -0.38593423
0.030512279 0.042020619 0 0.23852047 -0.14741376 -0.38593423
0.031174606 0.043090172 0 0.23852047 -0.14741376 -0.38593423
0.03183734 0.044160333 0 0.23852047 -0.14741376 -0.38593423
0.032500491 0.045231115 5.5511151e-17 0.23852047 -0.14741376 -0.38593423
0.033164065 0.046302535 0 0.23852047 -0.14741376 -0.38593423
0.03382808 0.04737461 0 0.23852047 -0.14741376 -0.38593423
0.034492537 0.048447352 0 0.23852047 -0.14741376 -0.38593423
0.035157446 0.049520776 5.5511151e-17 0.23852047 -0.14741376 -0.38593423
0.035822824 0.0505949 5.5511151e-17 0.23852047 -0.14741376 -0.38593423
0.036488671 0.051669739 5.5511151e-17 0.23852047 -0.14741376 -0.38593423
0.037155002 0.052745309 0 0.23852047 -0.14741376 -0.38593423
0.037821829 0.05382162 0 0.23852047 -0.14741376 -0.38593423
0.038489155 0.054898694 0 0.23852047 -0.14741376 -0.38593423
0.016026614 0.079574116 0.044776533 0.23852047 -0.14741376 -0.38593423
0.039825354 0.057055183 0 0.23852047 -0.14741376 -0.38593423
0.039999999 0.058647648 0.00096323626 0.23852047 -0.14741376 -0.38593423
0.039999999 0.060433246 0.002275588 0.23852047 -0.14741376 -0.38593423
0.039999999 0.062232431 0.0035979634 0.23852047 -0.14741376 -0.38593423
0.039999999 0.064045385 0.0049304962 0.23852047 -0.14741376 -0.38593423
0.039999999 0.065872289 0.0062733218 0.23852047 -0.14741376 -0.38593423
0.039999999 0.067713335 0.0076265787 0.23852047 -0.14741376 -0.38593423
0.039999999 0.069568716 0.008990407 0.23852047 -0.14741376 -0.38593423
0.039999999 0.071438618 0.010364951 0.23852047 -0.14741376 -0.38593423
0.039999999 0.073323242 0.011750354 0.23852047 -0.14741376 -0.38593423
0.039999999 0.07522279 0.013146767 0.23852047 -0.14741376 -0.38593423
0.037469298 0.079999998 0.019659689 0.23852047 -0.14741376 -0.38593423
0.039182603 0.079999998 0.017628053 0.23852047 -0.14741376 -0.38593423
0.0011899098 0 0.0017997097 0.23852047 -0.14741376 -0.38593423
0.0029462364 0.00037510935 0 0.23852047 -0.14741376 -0.38593423
0.0036009939 0.0014344692 5.5511151e-17 0.23852047 -0.14741376 -0.38593423
0.0042557875 0.0024938572 5.5511151e-17 0.23852047 -0.14741376 -0.38593423
0.0049106255 0.0035532871 0 0.23852047 -0.14741376 -0.38593423
0.0055655171 0.0046127741 0 0.23852047 -0.14741376 -0.38593423
0.0062204716 0.0056723324 0 0.23852047 -0.14741376 -0.38593423
0 0.011307204 0.011454985 0.23852047 -0.14741376 -0.38593423
0.0075306036 0.0077917203 0 0.23852047 -0.14741376 -0.38593423
0.0081857992 0.0088515785 5.5511151e-17 0.23852047 -0.14741376 -0.38593423
0.0088410936 0.009911567 0 0.23852047 -0.14741376 -0.38593423
0.0094964951 0.010971698 0 0.23852047 -0.14741376 -0.38593423
0 0.019120075 0.017156526 0.23852047 -0.14741376 -0.38593423
0 0.020710362 0.018317128 0.23852047 -0.14741376 -0.38593423
0.011463434 0.014153101 0 0.23852047 -0.14741376 -0.38593423
0 0.023919487 0.020659234 0.23852047 -0.14741376 -0.38593423
2.7755576e-17 0.025538541 0.0218409 0.23852047 -0.14741376 -0.38593423
0.013431663 0.017336318 0 0.23852047 -0.14741376 -0.38593423
0.014088067 0.018397862 0 0.23852047 -0.14741376 -0.38593423
0.014744652 0.019459665 0 0.23852047 -0.14741376 -0.38593423
0.015401424 0.020521743 0 0.23852047 -0.14741376 -0.38593423
0.016058393 0.021584112 0 0.23852047 -0.14741376 -0.38593423
0.016715569 0.022646783 0 0.23852047 -0.14741376 -0.38593423
0 0.037152939 0.03031832 0.23852047 -0.14741376 -0.38593423
0.018030578 0.024773097 0 0.23852047 -0.14741376 -0.38593423
0.018688429 0.025836768 0 0.23852047 -0.14741376 -0.38593423
0.019346522 0.0269008 5.5511151e-17 0.23852047 -0.14741376 -0.38593423
0.020004867 0.02796521 0 0.23852047 -0.14741376 -0.38593423
0.020663474 0.029030014 0 0.23852047 -0.14741376 -0.38593423
0.021322349 0.030095223 0 0.23852047 -0.14741376 -0.38593423
0.021981504 0.031160854 0 0.23852047 -0.14741376 -0.38593423
0.022640949 0.03222692 0 0.23852047 -0.14741376 -0.38593423
0.023300691 0.033293441 5.5511151e-17 0.23852047 -0.14741376 -0.38593423
0.023960739 0.034360424 0 0.23852047 -0.14741376 -0.38593423
0.024621105 0.035427891 0 0.23852047 -0.14741376 -0.38593423
0.025281794 0.036495849 5.5511151e-17 0.23852047 -0.14741376 -0.38593423
0.025942819 0.037564322 0 0.23852047 -0.14741376 -0.38593423
0.026604189 0.03863332 5.5511151e-17 0.23852047 -0.14741376 -0.38593423
0.00034444724 0.063548274 0.049181961 0.23852047 -0.14741376 -0.38593423
0.027927995 0.040772952 0 0.23852047 -0.14741376 -0.38593423
0.02859045 0.041843619 5.5511151e-17 0.23852047 -0.14741376 -0.38593423
0.029253287 0.042914867 0 0.23852047 -0.14741376 -0.38593423
0.029916516 0.043986719 5.5511151e-17 0.23852047 -0.14741376 -0.38593423
0.030580144 0.045059189 0 0.23852047 -0.14741376 -0.38593423
0.031244181 0.046132289 0 0.23852047 -0.14741376 -0.38593423
0.0046999231 0.07283552 0.050823681 0.23852047 -0.14741376 -0.38593423
0.032573521 0.048280444 0 0.23852047 -0.14741376 -0.38593423
0.033238843 0.049355529 5.5511151e-17 0.23852047 -0.14741376 -0.38593423
0.033904612 0.050431304 0 0.23852047 -0.14741376 -0.38593423
