# .PCD v0.7 - Point Cloud Data file format
VERSION 0.7
FIELDS x y z vp_x vp_y vp_z
SIZE 4 4 4 4 4 4
TYPE F F F F F F
COUNT 1 1 1 1 1 1
WIDTH 703
HEIGHT 1
VIEWPOINT 0 0 0 1 0 0 0
POINTS 703
DATA ascii
0.00529418 0.079999998 0.016311791 0.14741376 0.38593423 -0.23852047
0.0040821983 0.079999998 0.016649155 0.14741376 0.38593423 -0.23852047
0.0028666777 0.079999998 0.016987953 0.14741376 0.38593423 -0.23852047
0.0016475841 0.079999998 0.017328195 0.14741376 0.38593423 -0.23852047
0.00042488318 0.079999998 0.017669894 0.14741376 0.38593423 -0.23852047
0.039999999 0.032394759 0.039093692 0.14741376 0.38593423 -0.23852047
0.039999999 0.036480136 0.036209319 0.14741376 0.38593423 -0.23852047
0.039999999 0.040480539 0.033385407 0.14741376 0.38593423 -0.23852047
0.039999999 0.044398647 0.030620046 0.14741376 0.38593423 -0.23852047
0.039999999 0.048237037 0.027911412 0.14741376 0.38593423 -0.23852047
0.039999999 0.051998172 0.025257746 0.14741376 0.38593423 -0.23852047
0.039999999 0.055684417 0.022657368 0.14741376 0.38593423 -0.23852047
0.039999999 0.059298046 0.020108664 0.14741376 0.38593423 -0.23852047
0.039999999 0.062841229 0.017610084 0.14741376 0.38593423 -0.23852047
0.039999999 0.066316061 0.015160138 0.14741376 0.38593423 -0.23852047
0.039999999 0.06972456 0.012757397 0.14741376 0.38593423 -0.23852047
0.039999999 0.073068649 0.010400486 0.14741376 0.38593423 -0.23852047
0.039999999 0.076350182 0.008088083 0.14741376 0.38593423 -0.23852047
0.039999999 0.079570964 0.0058189174 0.14741376 0.38593423 -0.23852047
0.039031897 0.079999998 0.0057738815 0.14741376 0.38593423 -0.23852047
0.037910741 0.079999998 0.0060721394 0.14741376 0.38593423 -0.23852047
0.036786929 0.079999998 0.0063715251 0.14741376 0.38593423 -0.23852047
0.035660435 0.079999998 0.0066720471 0.14741376 0.38593423 -0.23852047
0.034531232 0.079999998 0.0069737146 0.14741376 0.38593423 -0.23852047
0.033399291 0.079999998 0.007276535 0.14741376 0.38593423 -0.23852047
0.032264583 0.079999998 0.0075805187 0.14741376 0.38593423 -0.23852047
0.031127086 0.079999998 0.007885674 0.14741376 0.38593423 -0.23852047
0.029986769 0.079999998 0.0081920093 0.14741376 0.38593423 -0.23852047
0.028843604 0.079999998 0.0084995348 0.14741376 0.38593423 -0.23852047
0.027697563 0.079999998 0.0088082589 0.14741376 0.38593423 -0.23852047
0.026548618 0.079999998 0.0091181919 0.14741376 0.38593423 -0.23852047
0.025396742 0.079999998 0.0094293412 0.14741376 0.38593423 -0.23852047
0.024241902 0.079999998 0.0097417189 0.14741376 0.38593423 -0.23852047
0.023084071 0.079999998 0.010055332 0.14741376 0.38593423 -0.23852047
0.02192322 0.079999998 0.010370191 0.14741376 0.38593423 -0.23852047
0.02075932 0.079999998 0.010686306 0.14741376 0.38593423 -0.23852047
0.019592339 0.079999998 0.011003687 0.14741376 0.38593423 -0.23852047
0.018422248 0.079999998 0.011322343 0.14741376 0.38593423 -0.23852047
0.017249018 0.079999998 0.011642285 0.14741376 0.38593423 -0.23852047
0.016072616 0.079999998 0.011963522 0.14741376 0.38593423 -0.23852047
0.014893012 0.079999998 0.012286065 0.14741376 0.38593423 -0.23852047
0.013710176 0.079999998 0.012609924 0.14741376 0.38593423 -0.23852047
0.012524074 0.079999998 0.012935109 0.14741376 0.38593423 -0.23852047
0.011334676 0.079999998 0.013261632 0.14741376 0.38593423 -0.23852047
0.01014195 0.079999998 0.013589502 0.14741376 0.38593423 -0.23852047
0.0089458646 0.079999998 0.01391873 0.14741376 0.38593423 -0.23852047
0.0077463849 0.079999998 0.014249328 0.14741376 0.38593423 -0.23852047
0.0065434794 0.079999998 0.014581304 0.14741376 0.38593423 -0.23852047
0.0053371154 0.079999998 0.014914672 0.14741376 0.38593423 -0.23852047
0.0041272584 0.079999998 0.015249442 0.14741376 0.38593423 -0.23852047
0.002913875 0.079999998 0.015585626 0.14741376 0.38593423 -0.23852047
0.0016969317 0.079999998 0.015923234 0.14741376 0.38593423 -0.23852047
0.00047639359 0.079999998 0.016262276 0.14741376 0.38593423 -0.23852047
0.039999999 0.032540858 0.037479736 0.14741376 0.38593423 -0.23852047
0.039999999 0.036616534 0.034618054 0.14741376 0.38593423 -0.23852047
0.039999999 0.040607609 0.031816229 0.14741376 0.38593423 -0.23852047
0.039999999 0.044516742 0.029072378 0.14741376 0.38593423 -0.23852047
0.039999999 0.048346497 0.026384693 0.14741376 0.38593423 -0.23852047
0.039999999 0.052099317 0.023751441 0.14741376 0.38593423 -0.23852047
0.039999999 0.055777557 0.021170959 0.14741376 0.38593423 -0.23852047
0.039999999 0.059383474 0.018641651 0.14741376 0.38593423 -0.23852047
0.039999999 0.062919229 0.016161984 0.14741376 0.38593423 -0.23852047
0.039999999 0.066386901 0.013730488 0.14741376 0.38593423 -0.23852047
0.039999999 0.069788493 0.011345749 0.14741376 0.38593423 -0.23852047
0.039999999 0.073125929 0.0090064071 0.14741376 0.38593423 -0.23852047
0.039999999 0.076401055 0.0067111556 0.14741376 0.38593423 -0.23852047
0.039999999 0.079615638 0.0044587371 0.14741376 0.38593423 -0.23852047
0.039018061 0.079999998 0.0044489596 0.14741376 0.38593423 -0.23852047
0.037898723 0.079999998 0.0047451677 0.14741376 0.38593423 -0.23852047
0.036776736 0.079999998 0.0050424868 0.14741376 0.38593423 -0.23852047
0.035652075 0.079999998 0.0053409259 0.14741376 0.38593423 -0.23852047
0.034524713 0.079999998 0.0056404928 0.14741376 0.38593423 -0.23852047
0.033394624 0.079999998 0.0059411973 0.14741376 0.38593423 -0.23852047
0.032261778 0.079999998 0.0062430473 0.14741376 0.38593423 -0.23852047
0.031126149 0.079999998 0.0065460517 0.14741376 0.38593423 -0.23852047
0.02998771 0.079999998 0.0068502198 0.14741376 0.38593423 -0.23852047
0.028846433 0.079999998 0.0071555604 0.14741376 0.38593423 -0.23852047
0.027702291 0.079999998 0.0074620824 0.14741376 0.38593423 -0.23852047
0.026555251 0.079999998 0.0077697951 0.14741376 0.38593423 -0.23852047
0.025405291 0.079999998 0.0080787074 0.14741376 0.38593423 -0.23852047
0.024252379 0.079999998 0.0083888294 0.14741376 0.38593423 -0.23852047
0.023096485 0.079999998 0.0087001696 0.14741376 0.38593423 -0.23852047
0.021937581 0.079999998 0.0090127373 0.14741376 0.38593423 -0.23852047
0.020775639 0.079999998 0.0093265437 0.14741376 0.38593423 -0.23852047
0.019610625 0.079999998 0.009641597 0.14741376 0.38593423 -0.23852047
0.018442513 0.079999998 0.0099579077 0.14741376 0.38593423 -0.23852047
0.017271271 0.079999998 0.010275485 0.14741376 0.38593423 -0.23852047
0.016096869 0.079999998 0.01059434 0.14741376 0.38593423 -0.23852047
0.014919276 0.079999998 0.010914481 0.14741376 0.38593423 -0.23852047
0.013738461 0.079999998 0.01123592 0.14741376 0.38593423 -0.23852047
0.012554393 0.079999998 0.011558666 0.14741376 0.38593423 -0.23852047
0.01136704 0.079999998 0.01188273 0.14741376 0.38593423 -0.23852047
0.01017637 0.079999998 0.012208122 0.14741376 0.38593423 -0.23852047
0.008982351 0.079999998 0.012534852 0.14741376 0.38593423 -0.23852047
0.0077849515 0.079999998 0.012862932 0.14741376 0.38593423 -0.23852047
0.0065841381 0.079999998 0.013192372 0.14741376 0.38593423 -0.23852047
0.0053798775 0.079999998 0.013523184 0.14741376 0.38593423 -0.23852047
0.0041721365 0.079999998 0.013855377 0.14741376 0.38593423 -0.23852047
0.0029608819 0.079999998 0.014188963 0.14741376 0.38593423 -0.23852047
0.0017460795 0.079999998 0.014523954 0.14741376 0.38593423 -0.23852047
0.00052769535 0.079999998 0.01486036 0.14741376 0.38593423 -0.23852047
0.039999999 0.028533239 0.038773671 0.14741376 0.38593423 -0.23852047
0.039999999 0.032686271 0.035873294 0.14741376 0.38593423 -0.23852047
0.039999999 0.036752302 0.033034127 0.14741376 0.38593423 -0.23852047
0.039999999 0.040734097 0.030254224 0.14741376 0.38593423 -0.23852047
0.039999999 0.044634305 0.027531721 0.14741376 0.38593423 -0.23852047
0.039999999 0.048455466 0.02486483 0.14741376 0.38593423 -0.23852047
0.039999999 0.052200016 0.022251841 0.14741376 0.38593423 -0.23852047
0.039999999 0.055870287 0.01969111 0.14741376 0.38593423 -0.23852047
0.039999999 0.059468526 0.017181057 0.14741376 0.38593423 -0.23852047
0.039999999 0.062996887 0.01472017 0.14741376 0.38593423 -0.23852047
0.039999999 0.066457435 0.012306993 0.14741376 0.38593423 -0.23852047
0.039999999 0.069852158 0.0099401288 0.14741376 0.38593423 -0.23852047
0.039999999 0.07318297 0.0076182336 0.14741376 0.38593423 -0.23852047
0.039999999 0.076451704 0.0053400141 0.14741376 0.38593423 -0.23852047
0.039999999 0.079660125 0.0031042276 0.14741376 0.38593423 -0.23852047
0.039004277 0.079999998 0.0031291828 0.14741376 0.38593423 -0.23852047
0.03788675 0.079999998 0.0034233537 0.14741376 0.38593423 -0.23852047
0.036766581 0.079999998 0.0037186197 0.14741376 0.38593423 -0.23852047
0.035643745 0.079999998 0.0040149889 0.14741376 0.38593423 -0.23852047
0.03451822 0.079999998 0.0043124696 0.14741376 0.38593423 -0.23852047
0.033389971 0.079999998 0.0046110707 0.14741376 0.38593423 -0.23852047
0.03225898 0.079999998 0.0049108011 0.14741376 0.38593423 -0.23852047
0.031125214 0.079999998 0.005211669 0.14741376 0.38593423 -0.23852047
0.029988647 0.079999998 0.0055136834 0.14741376 0.38593423 -0.23852047
0.02884925 0.079999998 0.0058168527 0.14741376 0.38593423 -0.23852047
0.027706997 0.079999998 0.0061211865 0.14741376 0.38593423 -0.23852047
0.02656186 0.079999998 0.0064266939 0.14741376 0.38593423 -0.23852047
0.025413807 0.079999998 0.0067333835 0.14741376 0.38593423 -0.23852047
0.024262814 0.079999998 0.0070412643 0.14741376 0.38593423 -0.23852047
0.023108849 0.079999998 0.0073503465 0.14741376 0.38593423 -0.23852047
0.021951886 0.079999998 0.0076606385 0.14741376 0.38593423 -0.23852047
0.020791892 0.079999998 0.0079721501 0.14741376 0.38593423 -0.23852047
0.01962884 0.079999998 0.008284892 0.14741376 0.38593423 -0.23852047
0.018462697 0.079999998 0.0085988715 0.14741376 0.38593423 -0.23852047
0.017293436 0.079999998 0.0089141009 0.14741376 0.38593423 -0.23852047
0.016121026 0.079999998 0.0092305876 0.14741376 0.38593423 -0.23852047
0.014945435 0.079999998 0.0095483437 0.14741376 0.38593423 -0.23852047
0.013766634 0.079999998 0.0098673776 0.14741376 0.38593423 -0.23852047
0.012584591 0.079999998 0.0101877 0.14741376 0.38593423 -0.23852047
0.011399274 0.079999998 0.010509321 0.14741376 0.38593423 -0.23852047
0.010210652 0.079999998 0.010832252 0.14741376 0.38593423 -0.23852047
0.0090186931 0.079999998 0.011156502 0.14741376 0.38593423 -0.23852047
0.0078233639 0.079999998 0.011482081 0.14741376 0.38593423 -0.23852047
0.0066246334 0.079999998 0.011809002 0.14741376 0.38593423 -0.23852047
0.0054224683 0.079999998 0.012137273 0.14741376 0.38593423 -0.23852047
0.0042168344 0.079999998 0.012466908 0.14741376 0.38593423 -0.23852047
0.0030076997 0.079999998 0.012797914 0.14741376 0.38593423 -0.23852047
0.0017950297 0.079999998 0.013130305 0.14741376 0.38593423 -0.23852047
0.0005787905 0.079999998 0.013464091 0.14741376 0.38593423 -0.23852047
0.039999999 0.02868796 0.037151705 0.14741376 0.38593423 -0.23852047
0.039999999 0.032831013 0.034274288 0.14741376 0.38593423 -0.23852047
0.039999999 0.036887448 0.031457469 0.14741376 0.38593423 -0.23852047
0.039999999 0.040860012 0.028699322 0.14741376 0.38593423 -0.23852047
0.039999999 0.044751335 0.025998008 0.14741376 0.38593423 -0.23852047
0.039999999 0.048563946 0.023351759 0.14741376 0.38593423 -0.23852047
0.039999999 0.052300263 0.020758884 0.14741376 0.38593423 -0.23852047
0.039999999 0.055962607 0.018217759 0.14741376 0.38593423 -0.23852047
0.039999999 0.059553213 0.015726823 0.14741376 0.38593423 -0.23852047
0.039999999 0.063074216 0.013284582 0.14741376 0.38593423 -0.23852047
0.039999999 0.066527672 0.010889594 0.14741376 0.38593423 -0.23852047
0.039999999 0.069915555 0.0085404795 0.14741376 0.38593423 -0.23852047
0.039999999 0.073239774 0.0062359087 0.14741376 0.38593423 -0.23852047
0.039999999 0.076502144 0.003974604 0.14741376 0.38593423 -0.23852047
0.039999999 0.079704434 0.0017553357 0.14741376 0.38593423 -0.23852047
0.03899055 0.079999998 0.0018145032 0.14741376 0.38593423 -0.23852047
0.037874822 0.079999998 0.00210665 0.14741376 0.38593423 -0.23852047
0.036756463 0.079999998 0.0023998755 0.14741376 0.38593423 -0.23852047
0.035635449 0.079999998 0.0026941882 0.14741376 0.38593423 -0.23852047
0.034511749 0.079999998 0.002989596 0.14741376 0.38593423 -0.23852047
0.03338534 0.079999998 0.0032861077 0.14741376 0.38593423 -0.23852047
0.032256193 0.079999998 0.0035837316 0.14741376 0.38593423 -0.23852047
0.031124283 0.079999998 0.0038824764 0.14741376 0.38593423 -0.23852047
0.02998958 0.079999998 0.0041823508 0.14741376 0.38593423 -0.23852047
0.028852057 0.079999998 0.0044833631 0.14741376 0.38593423 -0.23852047
0.027711686 0.079999998 0.0047855233 0.14741376 0.38593423 -0.23852047
0.026568441 0.079999998 0.0050888387 0.14741376 0.38593423 -0.23852047
0.025422292 0.079999998 0.0053933198 0.14741376 0.38593423 -0.23852047
0.024273209 0.079999998 0.0056989747 0.14741376 0.38593423 -0.23852047
0.023121167 0.079999998 0.0060058129 0.14741376 0.38593423 -0.23852047
0.021966133 0.079999998 0.0063138437 0.14741376 0.38593423 -0.23852047
0.020808082 0.079999998 0.0066230767 0.14741376 0.38593423 -0.23852047
0.019646982 0.079999998 0.0069335205 0.14741376 0.38593423 -0.23852047
0.018482802 0.079999998 0.0072451853 0.14741376 0.38593423 -0.23852047
0.017315514 0.079999998 0.0075580808 0.14741376 0.38593423 -0.23852047
0.016145088 0.079999998 0.0078722164 0.14741376 0.38593423 -0.23852047
0.014971492 0.079999998 0.0081876013 0.14741376 0.38593423 -0.23852047
0.013794696 0.079999998 0.0085042473 0.14741376 0.38593423 -0.23852047
0.012614669 0.079999998 0.0088221617 0.14741376 0.38593423 -0.23852047
0.011431381 0.079999998 0.0091413567 0.14741376 0.38593423 -0.23852047
0.010244798 0.079999998 0.0094618415 0.14741376 0.38593423 -0.23852047
0.0090548899 0.079999998 0.0097836275 0.14741376 0.38593423 -0.23852047
0.0078616245 0.079999998 0.010106723 0.14741376 0.38593423 -0.23852047
0.0066649681 0.079999998 0.01043114 0.14741376 0.38593423 -0.23852047
0.0054648891 0.079999998 0.010756889 0.14741376 0.38593423 -0.23852047
0.0042613545 0.079999998 0.01108398 0.14741376 0.38593423 -0.23852047
0.0030543304 0.079999998 0.011412425 0.14741376 0.38593423 -0.23852047
0.0018437839 0.079999998 0.011742233 0.14741376 0.38593423 -0.23852047
0.00062968087 0.079999998 0.012073417 0.14741376 0.38593423 -0.23852047
0.039999999 0.024619745 0.038453881 0.14741376 0.38593423 -0.23852047
0.039999999 0.028841961 0.03553728 0.14741376 0.38593423 -0.23852047
0.037101861 0.023451874 0.039999999 0.14741376 0.38593423 -0.23852047
0.039999999 0.037021976 0.029888006 0.14741376 0.38593423 -0.23852047
0.039999999 0.040985357 0.027151452 0.14741376 0.38593423 -0.23852047
0.039999999 0.044867843 0.024471169 0.14741376 0.38593423 -0.23852047
0.039999999 0.048671946 0.02184541 0.14741376 0.38593423 -0.23852047
0.039999999 0.052400071 0.019272504 0.14741376 0.38593423 -0.23852047
0.039999999 0.056054529 0.016750844 0.14741376 0.38593423 -0.23852047
0.039999999 0.059637528 0.014278889 0.14741376 0.38593423 -0.23852047
0.039999999 0.063151203 0.011855159 0.14741376 0.38593423 -0.23852047
0.039999999 0.066597603 0.0094782328 0.14741376 0.38593423 -0.23852047
0.039999999 0.069978684 0.0071467436 0.14741376 0.38593423 -0.23852047
0.039999999 0.073296331 0.0048593776 0.14741376 0.38593423 -0.23852047
0.039999999 0.076552376 0.0026148709 0.14741376 0.38593423 -0.23852047
0.039999999 0.079748556 0.00041200785 0.14741376 0.38593423 -0.23852047
0.038976874 0.079999998 0.00050487346 0.14741376 0.38593423 -0.23852047
0.037862942 0.079999998 0.00079500908 0.14741376 0.38593423 -0.23852047
0.036746386 0.079999998 0.0010862072 0.14741376 0.38593423 -0.23852047
0.035627186 0.079999998 0.0013784762 0.14741376 0.38593423 -0.23852047
0.034505308 0.079999998 0.001671824 0.14741376 0.38593423 -0.23852047
0.033380728 0.079999998 0.0019662594 0.14741376 0.38593423 -0.23852047
0.032253418 0.079999998 0.0022617904 0.14741376 0.38593423 -0.23852047
0.031123355 0.079999998 0.0025584255 0.14741376 0.38593423 -0.23852047
0.029990509 0.079999998 0.0028561736 0.14741376 0.38593423 -0.23852047
0.028854853 0.079999998 0.0031550431 0.14741376 0.38593423 -0.23852047
0.027716357 0.079999998 0.0034550426 0.14741376 0.38593423 -0.23852047
0.026574997 0.079999998 0.0037561813 0.14741376 0.38593423 -0.23852047
0.025430741 0.079999998 0.0040584677 0.14741376 0.38593423 -0.23852047
0.024283564 0.079999998 0.0043619107 0.14741376 0.38593423 -0.23852047
0.023133434 0.079999998 0.0046665198 0.14741376 0.38593423 -0.23852047
0.021980327 0.079999998 0.0049723038 0.14741376 0.38593423 -0.23852047
0.020824209 0.079999998 0.0052792723 0.14741376 0.38593423 -0.23852047
0.019665051 0.079999998 0.0055874339 0.14741376 0.38593423 -0.23852047
0.018502828 0.079999998 0.0058967983 0.14741376 0.38593423 -0.23852047
0.017337505 0.079999998 0.0062073758 0.14741376 0.38593423 -0.23852047
0.016169054 0.079999998 0.0065191747 0.14741376 0.38593423 -0.23852047
0.014997446 0.079999998 0.0068322052 0.14741376 0.38593423 -0.23852047
0.013822648 0.079999998 0.0071464772 0.14741376 0.38593423 -0.23852047
0.01264463 0.079999998 0.007462 0.14741376 0.38593423 -0.23852047
0.011463361 0.079999998 0.0077787843 0.14741376 0.38593423 -0.23852047
0.01027881 0.079999998 0.0080968402 0.14741376 0.38593423 -0.23852047
0.0090909442 0.079999998 0.0084161768 0.14741376 0.38593423 -0.23852047
0.0078997323 0.079999998 0.0087368051 0.14741376 0.38593423 -0.23852047
0.0067051426 0.079999998 0.0090587353 0.14741376 0.38593423 -0.23852047
0.0055071418 0.079999998 0.0093819778 0.14741376 0.38593423 -0.23852047
0.004305697 0.079999998 0.0097065438 0.14741376 0.38593423 -0.23852047
0.0031007759 0.079999998 0.010032442 0.14741376 0.38593423 -0.23852047
0.0018923441 0.079999998 0.010359686 0.14741376 0.38593423 -0.23852047
0.00068036851 0.079999998 0.010688284 0.14741376 0.38593423 -0.23852047
0.039999999 0.020479703 0.039780445 0.14741376 0.38593423 -0.23852047
0.039999999 0.024783304 0.036823686 0.14741376 0.38593423 -0.23852047
0.037607025 0.021043338 0.039999999 0.14741376 0.38593423 -0.23852047
0.039999999 0.033118505 0.031098301 0.14741376 0.38593423 -0.23852047
0.039999999 0.037155896 0.028325668 0.14741376 0.38593423 -0.23852047
0.039999999 0.041110136 0.025610548 0.14741376 0.38593423 -0.23852047
0.039999999 0.04498383 0.022951139 0.14741376 0.38593423 -0.23852047
0.039999999 0.048779469 0.020345721 0.14741376 0.38593423 -0.23852047
0.039999999 0.052499443 0.017792637 0.14741376 0.38593423 -0.23852047
0.039999999 0.056146048 0.015290301 0.14741376 0.38593423 -0.23852047
0.039999999 0.059721485 0.012837191 0.14741376 0.38593423 -0.23852047
0.039999999 0.06322787 0.010431843 0.14741376 0.38593423 -0.23852047
0.039999999 0.066667236 0.0080728512 0.14741376 0.38593423 -0.23852047
0.039999999 0.070041545 0.0057588648 0.14741376 0.38593423 -0.23852047
0.039999999 0.073352657 0.0034885844 0.14741376 0.38593423 -0.23852047
0.039999999 0.076602399 0.0012607608 0.14741376 0.38593423 -0.23852047
0.039581452 0.078599587 0 0.14741376 0.38593423 -0.23852047
0.038598396 0.07897076 0 0.14741376 0.38593423 -0.23852047
0.037615594 0.079342373 0 0.14741376 0.38593423 -0.23852047
0.036633041 0.079714432 0 0.14741376 0.38593423 -0.23852047
0.035618953 0.079999998 6.7805413e-05 0.14741376 0.38593423 -0.23852047
0.034498889 0.079999998 0.00035910643 0.14741376 0.38593423 -0.23852047
0.033376131 0.079999998 0.00065147848 0.14741376 0.38593423 -0.23852047
0.032250654 0.079999998 0.00094492984 0.14741376 0.38593423 -0.23852047
0.031122431 0.079999998 0.0012394689 0.14741376 0.38593423 -0.23852047
0.029991435 0.079999998 0.0015351042 0.14741376 0.38593423 -0.23852047
0.028857637 0.079999998 0.0018318441 0.14741376 0.38593423 -0.23852047
0.02772101 0.079999998 0.0021296975 0.14741376 0.38593423 -0.23852047
0.026581528 0.079999998 0.0024286725 0.14741376 0.38593423 -0.23852047
0.02543916 0.079999998 0.0027287786 0.14741376 0.38593423 -0.23852047
0.024293879 0.079999998 0.0030300242 0.14741376 0.38593423 -0.23852047
0.023145657 0.079999998 0.0033324182 0.14741376 0.38593423 -0.23852047
0.021994464 0.079999998 0.0036359699 0.14741376 0.38593423 -0.23852047
0.020840272 0.079999998 0.003940688 0.14741376 0.38593423 -0.23852047
0.019683054 0.079999998 0.0042465823 0.14741376 0.38593423 -0.23852047
0.018522775 0.079999998 0.0045536617 0.14741376 0.38593423 -0.23852047
0.017359411 0.079999998 0.004861935 0.14741376 0.38593423 -0.23852047
0.016192928 0.079999998 0.0051714126 0.14741376 0.38593423 -0.23852047
0.015023298 0.079999998 0.0054821037 0.14741376 0.38593423 -0.23852047
0.01385049 0.079999998 0.005794018 0.14741376 0.38593423 -0.23852047
0.012674472 0.079999998 0.0061071645 0.14741376 0.38593423 -0.23852047
0.011495216 0.079999998 0.0064215539 0.14741376 0.38593423 -0.23852047
0.010312688 0.079999998 0.0067371959 0.14741376 0.38593423 -0.23852047
0.0091268569 0.079999998 0.0070541003 0.14741376 0.38593423 -0.23852047
0.0079376912 0.079999998 0.0073722773 0.14741376 0.38593423 -0.23852047
0.0067451592 0.079999998 0.0076917373 0.14741376 0.38593423 -0.23852047
0.0055492278 0.079999998 0.0080124903 0.14741376 0.38593423 -0.23852047
0.004349865 0.079999998 0.0083345463 0.14741376 0.38593423 -0.23852047
0.0031470375 0.079999998 0.0086579164 0.14741376 0.38593423 -0.23852047
0.0019407121 0.079999998 0.0089826118 0.14741376 0.38593423 -0.23852047
0.00073085516 0.079999998 0.0093086418 0.14741376 0.38593423 -0.23852047
0.039999999 0.02065313 0.038134113 0.14741376 0.38593423 -0.23852047
0.038116798 0.018617189 0.039999999 0.14741376 0.38593423 -0.23852047
0.039999999 0.029147837 0.032330751 0.14741376 0.38593423 -0.23852047
0.039999999 0.033261266 0.029521173 0.14741376 0.38593423 -0.23852047
0.039999999 0.03728921 0.026770387 0.14741376 0.38593423 -0.23852047
0.039999999 0.041234359 0.024076538 0.14741376 0.38593423 -0.23852047
0.039999999 0.045099303 0.021437854 0.14741376 0.38593423 -0.23852047
0.039999999 0.048886519 0.018852625 0.14741376 0.38593423 -0.23852047
0.039999999 0.05259838 0.016319221 0.14741376 0.38593423 -0.23852047
0.039999999 0.056237169 0.013836072 0.14741376 0.38593423 -0.23852047
0.039999999 0.05980508 0.011401672 0.14741376 0.38593423 -0.23852047
0.039999999 0.063304208 0.0090145757 0.14741376 0.38593423 -0.23852047
0.039999999 0.066736579 0.0066733928 0.14741376 0.38593423 -0.23852047
0.039999999 0.070104137 0.0043767872 0.14741376 0.38593423 -0.23852047
0.039999999 0.073408753 0.0021234751 0.14741376 0.38593423 -0.23852047
0.039960455 0.076538354 0 0.14741376 0.38593423 -0.23852047
0.03897335 0.076910608 0 0.14741376 0.38593423 -0.23852047
0.037986513 0.077283293 0 0.14741376 0.38593423 -0.23852047
0.036999933 0.077656418 0 0.14741376 0.38593423 -0.23852047
0.036013592 0.078029975 0 0.14741376 0.38593423 -0.23852047
0.035027489 0.07840398 0 0.14741376 0.38593423 -0.23852047
0.03404161 0.078778431 0 0.14741376 0.38593423 -0.23852047
0.033055943 0.079153329 0 0.14741376 0.38593423 -0.23852047
0.032070477 0.079528682 0 0.14741376 0.38593423 -0.23852047
0.031085206 0.079904489 0 0.14741376 0.38593423 -0.23852047
0.029992357 0.079999998 0.00021909492 0.14741376 0.38593423 -0.23852047
0.028860411 0.079999998 0.00051371881 0.14741376 0.38593423 -0.23852047
0.027725646 0.079999998 0.00080943934 0.14741376 0.38593423 -0.23852047
0.026588032 0.079999998 0.001106265 0.14741376 0.38593423 -0.23852047
0.025447544 0.079999998 0.0014042044 0.14741376 0.38593423 -0.23852047
0.024304153 0.079999998 0.0017032664 0.14741376 0.38593423 -0.23852047
0.023157829 0.079999998 0.0020034597 0.14741376 0.38593423 -0.23852047
0.022008548 0.079999998 0.0023047933 0.14741376 0.38593423 -0.23852047
0.020856274 0.079999998 0.002607276 0.14741376 0.38593423 -0.23852047
0.019700984 0.079999998 0.0029109172 0.14741376 0.38593423 -0.23852047
0.018542645 0.079999998 0.0032157255 0.14741376 0.38593423 -0.23852047
0.01738123 0.079999998 0.0035217106 0.14741376 0.38593423 -0.23852047
0.016216708 0.079999998 0.0038288818 0.14741376 0.38593423 -0.23852047
0.01504905 0.079999998 0.0041372483 0.14741376 0.38593423 -0.23852047
0.013878223 0.079999998 0.0044468199 0.14741376 0.38593423 -0.23852047
0.012704199 0.079999998 0.0047576055 0.14741376 0.38593423 -0.23852047
0.011526946 0.079999998 0.0050696158 0.14741376 0.38593423 -0.23852047
0.010346433 0.079999998 0.0053828596 0.14741376 0.38593423 -0.23852047
0.009162629 0.079999998 0.0056973477 0.14741376 0.38593423 -0.23852047
0.007975501 0.079999998 0.0060130893 0.14741376 0.38593423 -0.23852047
0.0067850184 0.079999998 0.0063300948 0.14741376 0.38593423 -0.23852047
0.005591149 0.079999998 0.0066483738 0.14741376 0.38593423 -0.23852047
0.0043938593 0.079999998 0.0069679376 0.14741376 0.38593423 -0.23852047
0.0031931174 0.079999998 0.0072887959 0.14741376 0.38593423 -0.23852047
0.0019888896 0.079999998 0.007610959 0.14741376 0.38593423 -0.23852047
0.00078114285 0.079999998 0.0079344381 0.14741376 0.38593423 -0.23852047
0.039999999 0.016449461 0.039469197 0.14741376 0.38593423 -0.23852047
0.039999999 0.020825749 0.036495462 0.14741376 0.38593423 -0.23852047
0.039999999 0.025108153 0.033585925 0.14741376 0.38593423 -0.23852047
0.039999999 0.029299723 0.030738501 0.14741376 0.38593423 -0.23852047
0.039999999 0.033403382 0.027951194 0.14741376 0.38593423 -0.23852047
0.039999999 0.037421923 0.025222091 0.14741376 0.38593423 -0.23852047
0.039999999 0.041358028 0.022549359 0.14741376 0.38593423 -0.23852047
0.039999999 0.045214266 0.019931244 0.14741376 0.38593423 -0.23852047
0.039999999 0.048993099 0.017366061 0.14741376 0.38593423 -0.23852047
0.039999999 0.052696887 0.014852193 0.14741376 0.38593423 -0.23852047
0.039999999 0.056327902 0.012388093 0.14741376 0.38593423 -0.23852047
0.039999999 0.059888318 0.0099722724 0.14741376 0.38593423 -0.23852047
0.039999999 0.063380226 0.0076032989 0.14741376 0.38593423 -0.23852047
0.039999999 0.066805638 0.0052798004 0.14741376 0.38593423 -0.23852047
0.039999999 0.070166476 0.0030004559 0.14741376 0.38593423 -0.23852047
0.039999999 0.07346461 0.00076399546 0.14741376 0.38593423 -0.23852047
0.039351773 0.074835651 0 0.14741376 0.38593423 -0.23852047
0.038360864 0.075209446 0 0.14741376 0.38593423 -0.23852047
0.03737022 0.075583659 0 0.14741376 0.38593423 -0.23852047
0.036379829 0.075958304 0 0.14741376 0.38593423 -0.23852047
0.035389677 0.076333374 0 0.14741376 0.38593423 -0.23852047
0.034399759 0.076708883 0 0.14741376 0.38593423 -0.23852047
0.014291586 0.025290627 0.039999999 0.14741376 0.38593423 -0.23852047
0.013136162 0.025730131 0.039999999 0.14741376 0.38593423 -0.23852047
0.031431291 0.077838033 0 0.14741376 0.38593423 -0.23852047
0.030442193 0.078215316 0 0.14741376 0.38593423 -0.23852047
0.029453276 0.078593045 0 0.14741376 0.38593423 -0.23852047
0.028464528 0.078971237 0 0.14741376 0.38593423 -0.23852047
0.0073623043 0.02793555 0.039999999 0.14741376 0.38593423 -0.23852047
0.0062080994 0.028378244 0.039999999 0.14741376 0.38593423 -0.23852047
0.025455898 0.079999998 8.4697655e-05 0.14741376 0.38593423 -0.23852047
0.024314389 0.079999998 0.0003815899 0.14741376 0.38593423 -0.23852047
0.023169957 0.079999998 0.00067959639 0.14741376 0.38593423 -0.23852047
0.022022575 0.079999998 0.00097872596 0.14741376 0.38593423 -0.23852047
0.020872215 0.079999998 0.0012789875 0.14741376 0.38593423 -0.23852047
0.019718846 0.079999998 0.0015803899 0.14741376 0.38593423 -0.23852047
0.01856244 0.079999998 0.0018829423 0.14741376 0.38593423 -0.23852047
0.017402967 0.079999998 0.0021866534 0.14741376 0.38593423 -0.23852047
0.016240397 0.079999998 0.0024915331 0.14741376 0.38593423 -0.23852047
0.015074703 0.079999998 0.0027975901 0.14741376 0.38593423 -0.23852047
0.01390585 0.079999998 0.0031048339 0.14741376 0.38593423 -0.23852047
0.012733811 0.079999998 0.0034132742 0.14741376 0.38593423 -0.23852047
0.011558553 0.079999998 0.0037229203 0.14741376 0.38593423 -0.23852047
0.010380047 0.079999998 0.0040337821 0.14741376 0.38593423 -0.23852047
0.0091982614 0.079999998 0.0043458687 0.14741376 0.38593423 -0.23852047
0.0080131637 0.079999998 0.0046591908 0.14741376 0.38593423 -0.23852047
0.006824723 0.079999998 0.0049737575 0.14741376 0.38593423 -0.23852047
0.0056329062 0.079999998 0.0052895797 0.14741376 0.38593423 -0.23852047
0.0044376818 0.079999998 0.0056066667 0.14741376 0.38593423 -0.23852047
0.003239017 0.079999998 0.0059250291 0.14741376 0.38593423 -0.23852047
0.0020368786 0.079999998 0.0062446771 0.14741376 0.38593423 -0.23852047
0.0008312334 0.079999998 0.0065656216 0.14741376 0.38593423 -0.23852047
0.039999999 0.01663222 0.037814148 0.14741376 0.38593423 -0.23852047
0.039999999 0.020997567 0.034864407 0.14741376 0.38593423 -0.23852047
0.036814585 0.014573744 0.039999999 0.14741376 0.38593423 -0.23852047
0.035647452 0.015005747 0.039999999 0.14741376 0.38593423 -0.23852047
0.039999999 0.033544853 0.026388297 0.14741376 0.38593423 -0.23852047
0.039999999 0.037554044 0.023680715 0.14741376 0.38593423 -0.23852047
0.039999999 0.041481148 0.021028943 0.14741376 0.38593423 -0.23852047
0.039999999 0.045328725 0.018431246 0.14741376 0.38593423 -0.23852047
0.039999999 0.049099214 0.015885962 0.14741376 0.38593423 -0.23852047
0.039999999 0.052794971 0.013391493 0.14741376 0.38593423 -0.23852047
0.039999999 0.056418244 0.010946307 0.14741376 0.38593423 -0.23852047
0.039999999 0.059971202 0.0085489322 0.14741376 0.38593423 -0.23852047
0.039999999 0.063455924 0.0061979555 0.14741376 0.38593423 -0.23852047
0.039999999 0.0668744 0.0038920187 0.14741376 0.38593423 -0.23852047
0.039999999 0.070228562 0.0016298163 0.14741376 0.38593423 -0.23852047
0.039733686 0.072745666 2.7755576e-17 0.14741376 0.38593423 -0.23852047
0.038738675 0.073120601 0 0.14741376 0.38593423 -0.23852047
0.037743933 0.073495939 0 0.14741376 0.38593423 -0.23852047
0.036749456 0.073871695 0 0.14741376 0.38593423 -0.23852047
0.035755228 0.074247867 0 0.14741376 0.38593423 -0.23852047
0.034761239 0.074624464 0 0.14741376 0.38593423 -0.23852047
0.033767477 0.075001486 0 0.14741376 0.38593423 -0.23852047
0.032773934 0.075378932 0 0.14741376 0.38593423 -0.23852047
0.031780604 0.075756811 0 0.14741376 0.38593423 -0.23852047
0.030787466 0.076135136 0 0.14741376 0.38593423 -0.23852047
0.029794516 0.076513894 0 0.14741376 0.38593423 -0.23852047
0.028801743 0.076893099 0 0.14741376 0.38593423 -0.23852047
0.027809136 0.07727275 0 0.14741376 0.38593423 -0.23852047
0.026816683 0.077652864 0 0.14741376 0.38593423 -0.23852047
0.025824375 0.078033425 0 0.14741376 0.38593423 -0.23852047
0.0248322 0.078414455 0 0.14741376 0.38593423 -0.23852047
0.02384015 0.078795947 0 0.14741376 0.38593423 -0.23852047
0.022848211 0.079177909 0 0.14741376 0.38593423 -0.23852047
0.021856375 0.079560347 2.7755576e-17 0.14741376 0.38593423 -0.23852047
0.02086463 0.079943262 2.7755576e-17 0.14741376 0.38593423 -0.23852047
0.01973664 0.079999998 0.00025495319 0.14741376 0.38593423 -0.23852047
0.01858216 0.079999998 0.00055526366 0.14741376 0.38593423 -0.23852047
0.017424621 0.079999998 0.00085671566 0.14741376 0.38593423 -0.23852047
0.016263997 0.079999998 0.0011593183 0.14741376 0.38593423 -0.23852047
0.015100257 0.079999998 0.0014630805 0.14741376 0.38593423 -0.23852047
0.013933371 0.079999998 0.0017680118 0.14741376 0.38593423 -0.23852047
0.012763308 0.079999998 0.0020741215 0.14741376 0.38593423 -0.23852047
0.011590039 0.079999998 0.0023814186 0.14741376 0.38593423 -0.23852047
0.010413532 0.079999998 0.0026899134 0.14741376 0.38593423 -0.23852047
0.0092337569 0.079999998 0.0029996147 0.14741376 0.38593423 -0.23852047
0.0080506811 0.079999998 0.0033105325 0.14741376 0.38593423 -0.23852047
0.0068642735 0.079999998 0.0036226769 0.14741376 0.38593423 -0.23852047
0.0056745019 0.079999998 0.0039360574 0.14741376 0.38593423 -0.23852047
0.0044813342 0.079999998 0.0042506843 0.14741376 0.38593423 -0.23852047
0.0032847379 0.079999998 0.004566567 0.14741376 0.38593423 -0.23852047
0.0020846806 0.079999998 0.0048837168 0.14741376 0.38593423 -0.23852047
0.0008811286 0.079999998 0.005202143 0.14741376 0.38593423 -0.23852047
0.039999999 0.012363475 0.039157756 0.14741376 0.38593423 -0.23852047
0.039999999 0.016814126 0.036166806 0.14741376 0.38593423 -0.23852047
0.039999999 0.021168593 0.033240877 0.14741376 0.38593423 -0.23852047
0.036156345 0.012529881 0.039999999 0.14741376 0.38593423 -0.23852047
0.039999999 0.029601429 0.027575672 0.14741376 0.38593423 -0.23852047
0.039999999 0.033685692 0.024832409 0.14741376 0.38593423 -0.23852047
0.039999999 0.037685577 0.02214619 0.14741376 0.38593423 -0.23852047
0.039999999 0.041603729 0.019515224 0.14741376 0.38593423 -0.23852047
0.039999999 0.045442685 0.0169378 0.14741376 0.38593423 -0.23852047
0.039999999 0.049204875 0.01441227 0.14741376 0.38593423 -0.23852047
0.039999999 0.052892633 0.011937059 0.14741376 0.38593423 -0.23852047
0.039999999 0.056508206 0.0095106522 0.14741376 0.38593423 -0.23852047
0.039999999 0.06005374 0.0071315947 0.14741376 0.38593423 -0.23852047
0.039999999 0.063531302 0.0047984887 0.14741376 0.38593423 -0.23852047
0.039999999 0.066942878 0.0025099923 0.14741376 0.38593423 -0.23852047
0.039999999 0.070290387 0.0002648145 0.14741376 0.38593423 -0.23852047
0.039119974 0.071016535 0 0.14741376 0.38593423 -0.23852047
0.038121104 0.071393043 0 0.14741376 0.38593423 -0.23852047
0.037122503 0.071769938 0 0.14741376 0.38593423 -0.23852047
0.036124162 0.07214725 0 0.14741376 0.38593423 -0.23852047
0.035126068 0.072524965 0 0.14741376 0.38593423 -0.23852047
0.034128211 0.072903089 0 0.14741376 0.38593423 -0.23852047
0.033130582 0.073281631 0 0.14741376 0.38593423 -0.23852047
0.032133169 0.073660597 0 0.14741376 0.38593423 -0.23852047
0.031135961 0.074039988 0 0.14741376 0.38593423 -0.23852047
0.030138947 0.074419811 0 0.14741376 0.38593423 -0.23852047
0.029142117 0.074800059 0 0.14741376 0.38593423 -0.23852047
0.028145459 0.075180754 0 0.14741376 0.38593423 -0.23852047
0.027148964 0.075561881 0 0.14741376 0.38593423 -0.23852047
0.02615262 0.075943455 0 0.14741376 0.38593423 -0.23852047
0.025156418 0.076325484 0 0.14741376 0.38593423 -0.23852047
0.024160346 0.076707959 2.7755576e-17 0.14741376 0.38593423 -0.23852047
0.023164395 0.077090897 0 0.14741376 0.38593423 -0.23852047
0.022168551 0.077474296 0 0.14741376 0.38593423 -0.23852047
0.021172807 0.077858157 0 0.14741376 0.38593423 -0.23852047
0.02017715 0.078242488 0 0.14741376 0.38593423 -0.23852047
0.01918157 0.078627296 0 0.14741376 0.38593423 -0.23852047
0.018186057 0.07901258 0 0.14741376 0.38593423 -0.23852047
0.017190598 0.079398349 0 0.14741376 0.38593423 -0.23852047
0.016195185 0.079784609 0 0.14741376 0.38593423 -0.23852047
0.015125712 0.079999998 0.00013367194 0.14741376 0.38593423 -0.23852047
0.013960785 0.079999998 0.00043630539 0.14741376 0.38593423 -0.23852047
0.012792693 0.079999998 0.00074009929 0.14741376 0.38593423 -0.23852047
0.011621404 0.079999998 0.0010450629 0.14741376 0.38593423 -0.23852047
0.010446888 0.079999998 0.0013512056 0.14741376 0.38593423 -0.23852047
0.0092691155 0.079999998 0.001658537 0.14741376 0.38593423 -0.23852047
0.0080880532 0.079999998 0.0019670664 0.14741376 0.38593423 -0.23852047
0.0069036712 0.079999998 0.0022768036 0.14741376 0.38593423 -0.23852047
0.0057159364 0.079999998 0.0025877585 0.14741376 0.38593423 -0.23852047
0.0045248177 0.079999998 0.0028999408 0.14741376 0.38593423 -0.23852047
0.0033302822 0.079999998 0.0032133604 0.14741376 0.38593423 -0.23852047
0.0021322975 0.079999998 0.0035280273 0.14741376 0.38593423 -0.23852047
0.00093083031 0.079999998 0.0038439517 0.14741376 0.38593423 -0.23852047
0.039999999 0.012555802 0.037493754 0.14741376 0.38593423 -0.23852047
0.039999999 0.01699519 0.034527101 0.14741376 0.38593423 -0.23852047
0.039999999 0.021338833 0.031624801 0.14741376 0.38593423 -0.23852047
0.039999999 0.025589859 0.028784756 0.14741376 0.38593423 -0.23852047
0.039999999 0.029751262 0.026004951 0.14741376 0.38593423 -0.23852047
0.039999999 0.033825904 0.023283465 0.14741376 0.38593423 -0.23852047
0.039999999 0.037816532 0.020618448 0.14741376 0.38593423 -0.23852047
0.039999999 0.041725773 0.018008137 0.14741376 0.38593423 -0.23852047
0.039999999 0.045556147 0.015450837 0.14741376 0.38593423 -0.23852047
0.039999999 0.049310077 0.012944922 0.14741376 0.38593423 -0.23852047
0.039999999 0.052989881 0.010488832 0.14741376 0.38593423 -0.23852047
0.039999999 0.056597784 0.0080810711 0.14741376 0.38593423 -0.23852047
0.039999999 0.060135927 0.0057202023 0.14741376 0.38593423 -0.23852047
0.039999999 0.063606367 0.0034048432 0.14741376 0.38593423 -0.23852047
0.039999999 0.067011073 0.0011336671 0.14741376 0.38593423 -0.23852047
0.039504789 0.068897031 0 0.14741376 0.38593423 -0.23852047
0.038501758 0.069274724 0 0.14741376 0.38593423 -0.23852047
0.037499003 0.069652803 0 0.14741376 0.38593423 -0.23852047
0.036496513 0.070031278 0 0.14741376 0.38593423 -0.23852047
0.035494283 0.070410147 0 0.14741376 0.38593423 -0.23852047
0.034492295 0.070789419 0 0.14741376 0.38593423 -0.23852047
0.033490546 0.071169086 0 0.14741376 0.38593423 -0.23852047
0.032489017 0.07154917 0 0.14741376 0.38593423 -0.23852047
0.031487703 0.071929663 0 0.14741376 0.38593423 -0.23852047
0.030486591 0.072310574 2.7755576e-17 0.14741376 0.38593423 -0.23852047
0.029485671 0.072691903 0 0.14741376 0.38593423 -0.23852047
0.028484931 0.073073663 0 0.14741376 0.38593423 -0.23852047
0.027484361 0.073455848 0 0.14741376 0.38593423 -0.23852047
0.026483951 0.073838457 0 0.14741376 0.38593423 -0.23852047
0.025483688 0.074221514 2.7755576e-17 0.14741376 0.38593423 -0.23852047
0.024483563 0.07460501 0 0.14741376 0.38593423 -0.23852047
0.023483565 0.074988946 0 0.14741376 0.38593423 -0.23852047
0.022483684 0.075373337 0 0.14741376 0.38593423 -0.23852047
0.021483907 0.075758182 2.7755576e-17 0.14741376 0.38593423 -0.23852047
0.020484224 0.076143481 0 0.14741376 0.38593423 -0.23852047
0.019484626 0.076529242 0 0.14741376 0.38593423 -0.23852047
0.018485099 0.076915465 0 0.14741376 0.38593423 -0.23852047
0.017485635 0.077302165 0 0.14741376 0.38593423 -0.23852047
0.016486224 0.077689342 0 0.14741376 0.38593423 -0.23852047
0.015486852 0.078076988 0 0.14741376 0.38593423 -0.23852047
0.014487511 0.078465126 0 0.14741376 0.38593423 -0.23852047
0.013488187 0.078853749 0 0.14741376 0.38593423 -0.23852047
0.012488874 0.079242863 0 0.14741376 0.38593423 -0.23852047
0.011489557 0.079632476 0 0.14741376 0.38593423 -0.23852047
0.010480117 0.079999998 1.7610937e-05 0.14741376 0.38593423 -0.23852047
0.0093043391 0.079999998 0.00032258735 0.14741376 0.38593423 -0.23852047
0.0081252828 0.079999998 0.00062874367 0.14741376 0.38593423 -0.23852047
0.0069429181 0.079999998 0.00093608937 0.14741376 0.38593423 -0.23852047
0.0057572126 0.079999998 0.0012446342 0.14741376 0.38593423 -0.23852047
0.0045681344 0.079999998 0.0015543876 0.14741376 0.38593423 -0.23852047
0.0033756513 0.079999998 0.0018653597 0.14741376 0.38593423 -0.23852047
0.0021797309 0.079999998 0.0021775602 0.14741376 0.38593423 -0.23852047
0.00098034029 0.079999998 0.0024909992 0.14741376 0.38593423 -0.23852047
0.039999999 0.0082204947 0.0388459 0.14741376 0.38593423 -0.23852047
0.039999999 0.012747234 0.035837494 0.14741376 0.38593423 -0.23852047
0.039999999 0.017175419 0.032894954 0.14741376 0.38593423 -0.23852047
0.039999999 0.021508297 0.030016104 0.14741376 0.38593423 -0.23852047
0.039999999 0.025748974 0.02719887 0.14741376 0.38593423 -0.23852047
0.039999999 0.029900424 0.024441268 0.14741376 0.38593423 -0.23852047
0.039999999 0.033965491 0.021741396 0.14741376 0.38593423 -0.23852047
0.039999999 0.037946906 0.019097427 0.14741376 0.38593423 -0.23852047
0.039999999 0.041847281 0.01650762 0.14741376 0.38593423 -0.23852047
0.039999999 0.04566912 0.013970298 0.14741376 0.38593423 -0.23852047
0.039999999 0.049414828 0.011483856 0.14741376 0.38593423 -0.23852047
0.039999999 0.053086713 0.0090467511 0.14741376 0.38593423 -0.23852047
0.039999999 0.056686986 0.0066575063 0.14741376 0.38593423 -0.23852047
0.039999999 0.060217775 0.0043146987 0.14741376 0.38593423 -0.23852047
0.039999999 0.063681126 0.0020169637 0.14741376 0.38593423 -0.23852047
0.039893158 0.066761844 0 0.14741376 0.38593423 -0.23852047
0.038885925 0.067140758 0 0.14741376 0.38593423 -0.23852047
0.037878983 0.06752006 0 0.14741376 0.38593423 -0.23852047
0.036872312 0.067899734 0 0.14741376 0.38593423 -0.23852047
0.035865907 0.068279788 0 0.14741376 0.38593423 -0.23852047
0.034859758 0.068660237 0 0.14741376 0.38593423 -0.23852047
0.033853851 0.069041066 0 0.14741376 0.38593423 -0.23852047
0.032848176 0.069422297 0 0.14741376 0.38593423 -0.23852047
0.03184272 0.069803931 0 0.14741376 0.38593423 -0.23852047
0.030837478 0.070185967 0 0.14741376 0.38593423 -0.23852047
0.029832434 0.070568405 0 0.14741376 0.38593423 -0.23852047
0.028827578 0.070951261 0 0.14741376 0.38593423 -0.23852047
0.027822901 0.071334526 0 0.14741376 0.38593423 -0.23852047
0.026818389 0.071718216 0 0.14741376 0.38593423 -0.23852047
0.025814034 0.072102331 0 0.14741376 0.38593423 -0.23852047
0.024809824 0.07248687 0 0.14741376 0.38593423 -0.23852047
0.023805747 0.072871849 0 0.14741376 0.38593423 -0.23852047
0.022801794 0.07325726 0 0.14741376 0.38593423 -0.23852047
0.00073211943 0.021271737 0.039999999 0.14741376 0.38593423 -0.23852047
0.020794213 0.074029408 0 0.14741376 0.38593423 -0.23852047
0.019790564 0.074416153 0 0.14741376 0.38593423 -0.23852047
0.018786993 0.074803352 0 0.14741376 0.38593423 -0.23852047
0.017783493 0.075191014 0 0.14741376 0.38593423 -0.23852047
0.016780049 0.075579129 0 0.14741376 0.38593423 -0.23852047
0.015776653 0.075967722 0 0.14741376 0.38593423 -0.23852047
0.014773292 0.076356776 0 0.14741376 0.38593423 -0.23852047
0.013769957 0.076746307 0 0.14741376 0.38593423 -0.23852047
0.012766636 0.077136323 0 0.14741376 0.38593423 -0.23852047
0.011763318 0.077526815 2.7755576e-17 0.14741376 0.38593423 -0.23852047
0.010759994 0.077917799 0 0.14741376 0.38593423 -0.23852047
0.0097566508 0.078309283 0 0.14741376 0.38593423 -0.23852047
0.0087532783 0.07870125 0 0.14741376 0.38593423 -0.23852047
0.0077498658 0.079093724 0 0.14741376 0.38593423 -0.23852047
0.0067464025 0.079486705 0 0.14741376 0.38593423 -0.23852047
0.0057428768 0.0798802 0 0.14741376 0.38593423 -0.23852047
0.0046112854 0.079999998 0.00021397675 0.14741376 0.38593423 -0.23852047
0.0034208465 0.079999998 0.00052251708 0.14741376 0.38593423 -0.23852047
0.0022269825 0.079999998 0.00083226705 0.14741376 0.38593423 -0.23852047
0.0010296603 0.079999998 0.0011432365 0.14741376 0.38593423 -0.23852047
0.039999999 0.0084226374 0.037172705 0.14741376 0.38593423 -0.23852047
0.039999999 0.01293778 0.034188908 0.14741376 0.38593423 -0.23852047
0.039999999 0.017354822 0.031270288 0.14741376 0.38593423 -0.23852047
0.035338119 0.0058678137 0.039999999 0.14741376 0.38593423 -0.23852047
0.039999999 0.025907371 0.02562012 0.14741376 0.38593423 -0.23852047
0.039999999 0.03004892 0.022884553 0.14741376 0.38593423 -0.23852047
0.039999999 0.034104463 0.020206135 0.14741376 0.38593423 -0.23852047
0.039999999 0.038076714 0.017583061 0.14741376 0.38593423 -0.23852047
0.039999999 0.041968264 0.015013607 0.14741376 0.38593423 -0.23852047
0.039999999 0.045781609 0.01249612 0.14741376 0.38593423 -0.23852047
0.039999999 0.049519137 0.010029012 0.14741376 0.38593423 -0.23852047
0.039999999 0.053183138 0.0076107592 0.14741376 0.38593423 -0.23852047
0.039999999 0.056775816 0.0052398993 0.14741376 0.38593423 -0.23852047
0.039999999 0.060299281 0.002915028 0.14741376 0.38593423 -0.23852047
0.039999999 0.063755572 0.00063479523 0.14741376 0.38593423 -0.23852047
0.039273642 0.064990923 0 0.14741376 0.38593423 -0.23852047
0.038262472 0.065371461 0 0.14741376 0.38593423 -0.23852047
0.037251584 0.065752372 0 0.14741376 0.38593423 -0.23852047
0.036240973 0.066133656 0 0.14741376 0.38593423 -0.23852047
0.035230622 0.066515312 0 0.14741376 0.38593423 -0.23852047
0.034220524 0.06689734 0 0.14741376 0.38593423 -0.23852047
0.033210669 0.067279756 0 0.14741376 0.38593423 -0.23852047
0.032201041 0.067662559 0 0.14741376 0.38593423 -0.23852047
0.031191632 0.06804575 0 0.14741376 0.38593423 -0.23852047
0.030182431 0.068429336 0 0.14741376 0.38593423 -0.23852047
0.029173424 0.068813317 0 0.14741376 0.38593423 -0.23852047
0.028164605 0.069197707 0 0.14741376 0.38593423 -0.23852047
0.02715596 0.0695825 0 0.14741376 0.38593423 -0.23852047
0.026147479 0.069967709 0 0.14741376 0.38593423 -0.23852047
0.025139149 0.070353329 0 0.14741376 0.38593423 -0.23852047
0.024130961 0.070739366 0 0.14741376 0.38593423 -0.23852047
0.023122903 0.071125835 0 0.14741376 0.38593423 -0.23852047
0.022114966 0.071512729 0 0.14741376 0.38593423 -0.23852047
0.021107135 0.071900055 0 0.14741376 0.38593423 -0.23852047
0.020099403 0.072287813 0 0.14741376 0.38593423 -0.23852047
0.019091757 0.072676018 2.7755576e-17 0.14741376 0.38593423 -0.23852047
0.018084187 0.07306467 0 0.14741376 0.38593423 -0.23852047
0.01707668 0.073453762 0 0.14741376 0.38593423 -0.23852047
0.016069228 0.073843315 0 0.14741376 0.38593423 -0.23852047
0.015061817 0.074233323 0 0.14741376 0.38593423 -0.23852047
0.014054438 0.074623801 0 0.14741376 0.38593423 -0.23852047
0.01304708 0.07501474 0 0.14741376 0.38593423 -0.23852047
0.01203973 0.075406149 0 0.14741376 0.38593423 -0.23852047
0.011032379 0.075798035 0 0.14741376 0.38593423 -0.23852047
0.010025016 0.076190405 0 0.14741376 0.38593423 -0.23852047
0.0090176295 0.076583259 0 0.14741376 0.38593423 -0.23852047
0.0080102086 0.076976597 0 0.14741376 0.38593423 -0.23852047
0.0070027411 0.077370428 0 0.14741376 0.38593423 -0.23852047
0.0059952177 0.077764764 0 0.14741376 0.38593423 -0.23852047
0.0049876268 0.078159593 0 0.14741376 0.38593423 -0.23852047
0.0039799567 0.078554936 0 0.14741376 0.38593423 -0.23852047
0.0029721975 0.078950793 2.7755576e-17 0.14741376 0.38593423 -0.23852047
0.0019643372 0.079347156 0 0.14741376 0.38593423 -0.23852047
0.00095636537 0.079744048 0 0.14741376 0.38593423 -0.23852047
0.039999999 0.0040192353 0.038533397 0.14741376 0.38593423 -0.23852047
0.038238943 0.0024378092 0.039999999 0.14741376 0.38593423 -0.23852047
0.039999999 0.013127447 0.03254791 0.14741376 0.38593423 -0.23852047
0.035855643 0.0033193629 0.039999999 0.14741376 0.38593423 -0.23852047
0.034664772 0.0037606619 0.039999999 0.14741376 0.38593423 -0.23852047
0.039999999 0.026065061 0.024048433 0.14741376 0.38593423 -0.23852047
0.039999999 0.030196758 0.021334739 0.14741376 0.38593423 -0.23852047
0.039999999 0.034242827 0.018677616 0.14741376 0.38593423 -0.23852047
0.039999999 0.038205955 0.016075283 0.14741376 0.38593423 -0.23852047
0.039999999 0.042088728 0.013526038 0.14741376 0.38593423 -0.23852047
0.039999999 0.045893617 0.011028243 0.14741376 0.38593423 -0.23852047
0.039999999 0.049623001 0.0085803317 0.14741376 0.38593423 -0.23852047
0.039999999 0.053279158 0.0061807972 0.14741376 0.38593423 -0.23852047
0.039999999 0.056864273 0.0038281942 0.14741376 0.38593423 -0.23852047
0.039999999 0.060380451 0.0015211346 0.14741376 0.38593423 -0.23852047
0.039664939 0.062824957 0 0.14741376 0.38593423 -0.23852047
0.038649503 0.063206784 0 0.14741376 0.38593423 -0.23852047
0.037634365 0.063588969 0 0.14741376 0.38593423 -0.23852047
0.036619511 0.063971505 0 0.14741376 0.38593423 -0.23852047
0.035604924 0.064354405 0 0.14741376 0.38593423 -0.23852047
0.034590602 0.06473767 0 0.14741376 0.38593423 -0.23852047
0.033576526 0.065121301 0 0.14741376 0.38593423 -0.23852047
0.032562688 0.065505311 0 0.14741376 0.38593423 -0.23852047
0.031549081 0.065889694 0 0.14741376 0.38593423 -0.23852047
0.030535687 0.066274457 0 0.14741376 0.38593423 -0.23852047
0.029522497 0.066659607 0 0.14741376 0.38593423 -0.23852047
0.028509501 0.067045145 0 0.14741376 0.38593423 -0.23852047
0.027496688 0.067431077 0 0.14741376 0.38593423 -0.23852047
0.026484046 0.067817405 0 0.14741376 0.38593423 -0.23852047
0.025471564 0.068204142 0 0.14741376 0.38593423 -0.23852047
0.024459232 0.068591282 0 0.14741376 0.38593423 -0.23852047
0.023447037 0.068978831 0 0.14741376 0.38593423 -0.23852047
0.022434969 0.069366798 0 0.14741376 0.38593423 -0.23852047
0.021423016 0.069755182 0 0.14741376 0.38593423 -0.23852047
