# .PCD v0.7 - Point Cloud Data file format
VERSION 0.7
FIELDS x y z vp_x vp_y vp_z
SIZE 4 4 4 4 4 4
TYPE F F F F F F
COUNT 1 1 1 1 1 1
WIDTH 796
HEIGHT 1
VIEWPOINT 0 0 0 1 0 0 0
POINTS 796
DATA ascii
0.029999968 0.042709917 0.058353234 0 -0.25019264 0.4048202
0.031260412 0.043474112 0.057467658 0 -0.25019264 0.4048202
0.032551307 0.044455457 0.056326054 0 -0.25019264 0.4048202
0.033872906 0.04563316 0.054953068 0 -0.25019264 0.4048202
0.035237502 0.047090795 0.05324991 0 -0.25019264 0.4048202
0.036669426 0.04899909 0.051014762 0 -0.25019264 0.4048202
0.038229983 0.051799171 0.04772611 0 -0.25019264 0.4048202
0.00061475777 0.055170555 0.041449998 0 -0.25019264 0.4048202
0.0018231125 0.051665895 0.045621123 0 -0.25019264 0.4048202
0.003016361 0.049462505 0.048244487 0 -0.25019264 0.4048202
0.0041988743 0.047754362 0.050279219 0 -0.25019264 0.4048202
0.005373565 0.046371412 0.051927671 0 -0.25019264 0.4048202
0.0065427287 0.045239449 0.053278141 0 -0.25019264 0.4048202
0.0077068107 0.044259209 0.054448739 0 -0.25019264 0.4048202
0.0088664833 0.043391917 0.055485617 0 -0.25019264 0.4048202
0.010025083 0.042694837 0.05632063 0 -0.25019264 0.4048202
0.011181145 0.042075641 0.057063635 0 -0.25019264 0.4048202
0.01233592 0.041541383 0.057706252 0 -0.25019264 0.4048202
0.013491696 0.041119095 0.058216307 0 -0.25019264 0.4048202
0.014645881 0.040730186 0.058687318 0 -0.25019264 0.4048202
0.015804335 0.040474806 0.059000138 0 -0.25019264 0.4048202
0.016962204 0.040241983 0.059286792 0 -0.25019264 0.4048202
0.018124999 0.040115483 0.059447631 0 -0.25019264 0.4048202
0.019289633 0.040029299 0.059561189 0 -0.25019264 0.4048202
0.020459834 0.040029299 0.059572909 0 -0.25019264 0.4048202
0.021634713 0.040089339 0.059513897 0 -0.25019264 0.4048202
0.022815663 0.040217817 0.05937418 0 -0.25019264 0.4048202
0.024005022 0.040432844 0.059132211 0 -0.25019264 0.4048202
0.025200518 0.040695969 0.058833756 0 -0.25019264 0.4048202
0.026409885 0.041085932 0.058385164 0 -0.25019264 0.4048202
0.027627246 0.041524343 0.05787969 0 -0.25019264 0.4048202
0.028861515 0.042095382 0.057217237 0 -0.25019264 0.4048202
0.030112082 0.042777374 0.056423601 0 -0.25019264 0.4048202
0.031379718 0.043564808 0.055505365 0 -0.25019264 0.4048202
0.032675974 0.044550233 0.054352511 0 -0.25019264 0.4048202
0.034006231 0.045759447 0.052934401 0 -0.25019264 0.4048202
0.035381254 0.047260024 0.051170763 0 -0.25019264 0.4048202
0.036826603 0.049230926 0.048848897 0 -0.25019264 0.4048202
0.038426943 0.052293491 0.045230292 0 -0.25019264 0.4048202
0.00061609194 0.054763056 0.039999999 0 -0.25019264 0.4048202
0.0018294146 0.051650077 0.043724783 0 -0.25019264 0.4048202
0.0030267914 0.049447123 0.046361592 0 -0.25019264 0.4048202
0.004213369 0.047737297 0.048409145 0 -0.25019264 0.4048202
0.0053920285 0.046349674 0.050071932 0 -0.25019264 0.4048202
0.0065652179 0.045218147 0.051429022 0 -0.25019264 0.4048202
0.0077333301 0.044239048 0.052604429 0 -0.25019264 0.4048202
0.0088970466 0.043373529 0.053644635 0 -0.25019264 0.4048202
0.01005956 0.042674094 0.054486826 0 -0.25019264 0.4048202
0.011219708 0.042057801 0.055230219 0 -0.25019264 0.4048202
0.01237839 0.041521735 0.055878304 0 -0.25019264 0.4048202
0.01353833 0.041103382 0.056386247 0 -0.25019264 0.4048202
0.014696714 0.040718589 0.056854714 0 -0.25019264 0.4048202
0.015859168 0.040462736 0.057169609 0 -0.25019264 0.4048202
0.017021388 0.040235542 0.057450898 0 -0.25019264 0.4048202
0.018188218 0.040108602 0.057612948 0 -0.25019264 0.4048202
0.019357378 0.040029299 0.057718702 0 -0.25019264 0.4048202
0.020531697 0.040029299 0.057730287 0 -0.25019264 0.4048202
0.021711333 0.040097676 0.057660785 0 -0.25019264 0.4048202
0.02289651 0.040226612 0.057519555 0 -0.25019264 0.4048202
0.024090929 0.040451754 0.05726397 0 -0.25019264 0.4048202
0.025290797 0.04071584 0.056962531 0 -0.25019264 0.4048202
0.026505632 0.041118193 0.056496471 0 -0.25019264 0.4048202
0.027728815 0.041571334 0.055970427 0 -0.25019264 0.4048202
0.028967842 0.042144574 0.055301521 0 -0.25019264 0.4048202
0.030224951 0.042845283 0.054480981 0 -0.25019264 0.4048202
0.031499844 0.043656129 0.053529553 0 -0.25019264 0.4048202
0.032801501 0.04464566 0.052365318 0 -0.25019264 0.4048202
0.034140505 0.045886636 0.050901346 0 -0.25019264 0.4048202
0.035526067 0.047430508 0.049076192 0 -0.25019264 0.4048202
0.036985014 0.04946458 0.046666067 0 -0.25019264 0.4048202
0.038625792 0.052792545 0.042710565 0 -0.25019264 0.4048202
0.00061497779 0.053144131 0.039999999 0 -0.25019264 0.4048202
0.0018357557 0.051634163 0.041816726 0 -0.25019264 0.4048202
0.003037286 0.049431644 0.044467058 0 -0.25019264 0.4048202
0.0042279526 0.047720127 0.046527542 0 -0.25019264 0.4048202
0.0054106051 0.046327803 0.048204806 0 -0.25019264 0.4048202
0.0065878453 0.045196712 0.049568556 0 -0.25019264 0.4048202
0.0077600125 0.044218764 0.050748784 0 -0.25019264 0.4048202
0.0089277979 0.043355029 0.051792316 0 -0.25019264 0.4048202
0.010094247 0.042653222 0.052641757 0 -0.25019264 0.4048202
0.01125851 0.042039849 0.0533855 0 -0.25019264 0.4048202
0.012421122 0.041501965 0.054039121 0 -0.25019264 0.4048202
0.013585252 0.041087572 0.054544885 0 -0.25019264 0.4048202
0.014747885 0.040707324 0.055010241 0 -0.25019264 0.4048202
0.015914341 0.040450595 0.055327728 0 -0.25019264 0.4048202
0.01708094 0.040229063 0.055603545 0 -0.25019264 0.4048202
0.018251831 0.040101685 0.055766817 0 -0.25019264 0.4048202
0.019425549 0.040029299 0.055864628 0 -0.25019264 0.4048202
0.020604011 0.040029299 0.05587608 0 -0.25019264 0.4048202
0.021788437 0.040106066 0.055795912 0 -0.25019264 0.4048202
0.022977868 0.04023546 0.055653147 0 -0.25019264 0.4048202
0.024177389 0.040470783 0.055383731 0 -0.25019264 0.4048202
0.02538198 0.040739574 0.055074781 0 -0.25019264 0.4048202
0.026602004 0.041150667 0.05459547 0 -0.25019264 0.4048202
0.027831055 0.041618634 0.05404852 0 -0.25019264 0.4048202
0.029074878 0.042194095 0.053373098 0 -0.25019264 0.4048202
0.030338585 0.042913653 0.052525226 0 -0.25019264 0.4048202
0.031620804 0.043748084 0.051540062 0 -0.25019264 0.4048202
0.032927904 0.04474175 0.050364312 0 -0.25019264 0.4048202
0.034275744 0.046014734 0.048853721 0 -0.25019264 0.4048202
0.035671964 0.047602262 0.046966001 0 -0.25019264 0.4048202
0.037145179 0.049704138 0.044461157 0 -0.25019264 0.4048202
0.038826555 0.05329641 0.040166549 0 -0.25019264 0.4048202
0.00061386853 0.051532242 0.039999999 0 -0.25019264 0.4048202
0.0018416152 0.051532812 0.039999999 0 -0.25019264 0.4048202
0.0030478458 0.049416069 0.042560756 0 -0.25019264 0.4048202
0.004242627 0.047702853 0.044634268 0 -0.25019264 0.4048202
0.0054292968 0.046305798 0.046326164 0 -0.25019264 0.4048202
0.0066106119 0.045175146 0.047696605 0 -0.25019264 0.4048202
0.0077868598 0.044198357 0.048881672 0 -0.25019264 0.4048202
0.0089587402 0.04333641 0.049928527 0 -0.25019264 0.4048202
0.010129149 0.042632222 0.050785296 0 -0.25019264 0.4048202
0.011297551 0.042021789 0.051529355 0 -0.25019264 0.4048202
0.012464117 0.041482072 0.05218856 0 -0.25019264 0.4048202
0.013632465 0.041071661 0.052692086 0 -0.25019264 0.4048202
0.014799374 0.040695991 0.053154256 0 -0.25019264 0.4048202
0.015969858 0.040438376 0.053474359 0 -0.25019264 0.4048202
0.017140867 0.040222544 0.053744595 0 -0.25019264 0.4048202
0.018315844 0.040094718 0.053909101 0 -0.25019264 0.4048202
0.019494152 0.040029299 0.053998832 0 -0.25019264 0.4048202
0.020676782 0.040029299 0.054010145 0 -0.25019264 0.4048202
0.021866037 0.040114507 0.053919133 0 -0.25019264 0.4048202
0.023059748 0.040244371 0.053774823 0 -0.25019264 0.4048202
0.024264406 0.040489934 0.05349135 0 -0.25019264 0.4048202
0.025474392 0.040770713 0.053166013 0 -0.25019264 0.4048202
0.026699007 0.041183352 0.052682016 0 -0.25019264 0.4048202
0.027933976 0.041666251 0.052113827 0 -0.25019264 0.4048202
0.029182626 0.042243943 0.051431809 0 -0.25019264 0.4048202
0.030452991 0.042982489 0.050556164 0 -0.25019264 0.4048202
0.031742606 0.043840677 0.049536716 0 -0.25019264 0.4048202
0.033057712 0.044861004 0.048322149 0 -0.25019264 0.4048202
0.034411956 0.046143755 0.046791337 0 -0.25019264 0.4048202
0.035818957 0.047775306 0.044839982 0 -0.25019264 0.4048202
0.037316848 0.050027929 0.042139258 0 -0.25019264 0.4048202
0.038773961 0.051816594 0.039999999 0 -0.25019264 0.4048202
0.00061276404 0.049927317 0.039999999 0 -0.25019264 0.4048202
0.0018383017 0.049927875 0.039999999 0 -0.25019264 0.4048202
0.0030584717 0.049400397 0.040642545 0 -0.25019264 0.4048202
0.0042573931 0.047685467 0.042729188 0 -0.25019264 0.4048202
0.0054481039 0.046283655 0.04443587 0 -0.25019264 0.4048202
0.0066335201 0.045153446 0.045813043 0 -0.25019264 0.4048202
0.0078138737 0.044177819 0.047002964 0 -0.25019264 0.4048202
0.0089898743 0.043317679 0.048053142 0 -0.25019264 0.4048202
0.010164267 0.042611096 0.048917308 0 -0.25019264 0.4048202
0.011336835 0.042003613 0.049661651 0 -0.25019264 0.4048202
0.012507381 0.041462056 0.050326504 0 -0.25019264 0.4048202
0.013679974 0.041055653 0.050827716 0 -0.25019264 0.4048202
0.014851186 0.040684588 0.051286623 0 -0.25019264 0.4048202
0.016025722 0.040426079 0.051609367 0 -0.25019264 0.4048202
0.017201172 0.040215984 0.051873919 0 -0.25019264 0.4048202
0.01838026 0.040087711 0.052039672 0 -0.25019264 0.4048202
0.019563191 0.040029299 0.052121177 0 -0.25019264 0.4048202
0.020750016 0.040029299 0.052132349 0 -0.25019264 0.4048202
0.021944132 0.040123001 0.052030314 0 -0.25019264 0.4048202
0.023142153 0.040253334 0.051884439 0 -0.25019264 0.4048202
0.02435199 0.040509213 0.051586684 0 -0.25019264 0.4048202
0.025567412 0.040802058 0.051244695 0 -0.25019264 0.4048202
0.026796648 0.041216254 0.050755955 0 -0.25019264 0.4048202
0.028037587 0.041714188 0.050166182 0 -0.25019264 0.4048202
0.029291097 0.042294126 0.049477499 0 -0.25019264 0.4048202
0.030568179 0.043051794 0.048573639 0 -0.25019264 0.4048202
0.031865258 0.043933921 0.047519341 0 -0.25019264 0.4048202
0.033188917 0.044985283 0.046260249 0 -0.25019264 0.4048202
0.034550063 0.046281509 0.04470453 0 -0.25019264 0.4048202
0.035969026 0.047966011 0.042678066 0 -0.25019264 0.4048202
0.037469186 0.050187763 0.039999999 0 -0.25019264 0.4048202
0.038703941 0.050205182 0.039999999 0 -0.25019264 0.4048202
0.039939299 0.050223168 0.039999999 0 -0.25019264 0.4048202
0.00061166432 0.048329286 0.039999999 0 -0.25019264 0.4048202
0.0018350024 0.048329834 0.039999999 0 -0.25019264 0.4048202
0.0030583693 0.048330925 0.039999999 0 -0.25019264 0.4048202
0.0042722514 0.047667976 0.040812172 0 -0.25019264 0.4048202
0.0054670284 0.046261378 0.042533789 0 -0.25019264 0.4048202
0.0066565713 0.045131613 0.043917734 0 -0.25019264 0.4048202
0.0078410571 0.044157155 0.04511252 0 -0.25019264 0.4048202
0.009021203 0.043298829 0.046166018 0 -0.25019264 0.4048202
0.010199605 0.042589832 0.047037665 0 -0.25019264 0.4048202
0.011376366 0.041985322 0.047782253 0 -0.25019264 0.4048202
0.012550914 0.041441914 0.048452806 0 -0.25019264 0.4048202
0.01372778 0.041039545 0.048951648 0 -0.25019264 0.4048202
0.014903327 0.040673114 0.049407206 0 -0.25019264 0.4048202
0.016081939 0.040413707 0.049732622 0 -0.25019264 0.4048202
0.017261861 0.040209383 0.049991373 0 -0.25019264 0.4048202
0.018445084 0.040080659 0.050158385 0 -0.25019264 0.4048202
0.019632669 0.040029299 0.05023152 0 -0.25019264 0.4048202
0.020823717 0.040029299 0.050242554 0 -0.25019264 0.4048202
0.022022732 0.040131554 0.050129313 0 -0.25019264 0.4048202
0.02322509 0.040262356 0.049981851 0 -0.25019264 0.4048202
0.024440143 0.040528614 0.049669582 0 -0.25019264 0.4048202
0.025661046 0.040833607 0.049310673 0 -0.25019264 0.4048202
0.026894936 0.041249372 0.048817135 0 -0.25019264 0.4048202
0.028141893 0.041762445 0.048205439 0 -0.25019264 0.4048202
0.029400777 0.042349402 0.047504209 0 -0.25019264 0.4048202
0.030684158 0.043121576 0.046577483 0 -0.25019264 0.4048202
0.031988777 0.04402782 0.045487769 0 -0.25019264 0.4048202
0.033321075 0.045110464 0.044183396 0 -0.25019264 0.4048202
0.034692578 0.046449285 0.042566985 0 -0.25019264 0.4048202
0.036124807 0.048195783 0.040453594 0 -0.25019264 0.4048202
0.037401706 0.048583701 0.039999999 0 -0.25019264 0.4048202
0.038634218 0.048600715 0.039999999 0 -0.25019264 0.4048202
0.039867338 0.048618287 0.039999999 0 -0.25019264 0.4048202
0.00061056932 0.046738092 0.039999999 0 -0.25019264 0.4048202
0.0018317173 0.046738625 0.039999999 0 -0.25019264 0.4048202
0.0030528938 0.04673969 0.039999999 0 -0.25019264 0.4048202
0.0042741178 0.046741288 0.039999999 0 -0.25019264 0.4048202
0.0054860967 0.046240311 0.040618125 0 -0.25019264 0.4048202
0.0066797668 0.045109641 0.042010538 0 -0.25019264 0.4048202
0.0078684101 0.04413636 0.043210208 0 -0.25019264 0.4048202
0.0090527292 0.04327986 0.044267025 0 -0.25019264 0.4048202
0.010235165 0.042568438 0.045146227 0 -0.25019264 0.4048202
0.011416146 0.041966919 0.045891024 0 -0.25019264 0.4048202
0.012594721 0.041421648 0.046567343 0 -0.25019264 0.4048202
0.013775889 0.041023336 0.047063738 0 -0.25019264 0.4048202
0.014955796 0.040661566 0.047515869 0 -0.25019264 0.4048202
0.016138513 0.040401254 0.047843985 0 -0.25019264 0.4048202
0.017322935 0.040202737 0.048096821 0 -0.25019264 0.4048202
0.018510321 0.040073562 0.048265103 0 -0.25019264 0.4048202
0.019702595 0.040029299 0.048329726 0 -0.25019264 0.4048202
0.020897891 0.040029299 0.048340611 0 -0.25019264 0.4048202
0.02210184 0.040140159 0.048215978 0 -0.25019264 0.4048202
0.023309227 0.040279705 0.048056763 0 -0.25019264 0.4048202
0.024528876 0.040548142 0.047739901 0 -0.25019264 0.4048202
0.025755303 0.040865369 0.047363795 0 -0.25019264 0.4048202
0.02699388 0.041282713 0.046865407 0 -0.25019264 0.4048202
0.028246906 0.04181103 0.04623143 0 -0.25019264 0.4048202
0.029512363 0.042416539 0.045503367 0 -0.25019264 0.4048202
0.03080094 0.043191839 0.044567529 0 -0.25019264 0.4048202
0.032113168 0.044122383 0.043441813 0 -0.25019264 0.4048202
0.033454198 0.045236558 0.042091399 0 -0.25019264 0.4048202
0.034836173 0.046618331 0.040413238 0 -0.25019264 0.4048202
0.036104813 0.046970446 0.039999999 0 -0.25019264 0.4048202
0.037334513 0.046986517 0.039999999 0 -0.25019264 0.4048202
0.038564797 0.047003131 0.039999999 0 -0.25019264 0.4048202
0.039795682 0.047020286 0.039999999 0 -0.25019264 0.4048202
0.00060947891 0.045153663 0.039999999 0 -0.25019264 0.4048202
0.0018284462 0.045154184 0.039999999 0 -0.25019264 0.4048202
0.0030474418 0.045155223 0.039999999 0 -0.25019264 0.4048202
0.0042664846 0.045156784 0.039999999 0 -0.25019264 0.4048202
0.0054855933 0.045158863 0.039999999 0 -0.25019264 0.4048202
0.0067031085 0.045087531 0.040091317 0 -0.25019264 0.4048202
0.0078959363 0.044115435 0.04129589 0 -0.25019264 0.4048202
0.0090844547 0.043260772 0.042356022 0 -0.25019264 0.4048202
0.010270949 0.042546909 0.043242857 0 -0.25019264 0.4048202
0.011456177 0.0419484 0.043987826 0 -0.25019264 0.4048202
0.012639028 0.041406408 0.044663601 0 -0.25019264 0.4048202
0.013824302 0.041007023 0.045163855 0 -0.25019264 0.4048202
0.015008601 0.040649943 0.045612473 0 -0.25019264 0.4048202
0.016195446 0.040388726 0.045943312 0 -0.25019264 0.4048202
0.017384401 0.04019605 0.04619012 0 -0.25019264 0.4048202
0.018575978 0.040066421 0.046359692 0 -0.25019264 0.4048202
0.019772973 0.040029299 0.046415642 0 -0.25019264 0.4048202
0.020972546 0.040029299 0.046426386 0 -0.25019264 0.4048202
0.022181466 0.040148821 0.04629017 0 -0.25019264 0.4048202
0.023394017 0.040298365 0.046117522 0 -0.25019264 0.4048202
0.024618195 0.040567804 0.04579749 0 -0.25019264 0.4048202
0.02585019 0.04089734 0.045403905 0 -0.25019264 0.4048202
0.027093485 0.041316275 0.044900611 0 -0.25019264 0.4048202
0.028352633 0.041859943 0.044243995 0 -0.25019264 0.4048202
0.029624723 0.042484142 0.043488659 0 -0.25019264 0.4048202
0.030918535 0.043262593 0.042543601 0 -0.25019264 0.4048202
0.032238446 0.04421762 0.041381299 0 -0.25019264 0.4048202
0.033586826 0.045350667 0.039999999 0 -0.25019264 0.4048202
0.034813207 0.0453653 0.039999999 0 -0.25019264 0.4048202
0.036040127 0.045380458 0.039999999 0 -0.25019264 0.4048202
0.03726761 0.045396145 0.039999999 0 -0.25019264 0.4048202
0.038495671 0.045412362 0.039999999 0 -0.25019264 0.4048202
0.039724335 0.045429107 0.039999999 0 -0.25019264 0.4048202
0.00060839317 0.043575935 0.039999999 0 -0.25019264 0.4048202
0.0018251889 0.043576442 0.039999999 0 -0.25019264 0.4048202
0.0030420127 0.043577459 0.039999999 0 -0.25019264 0.4048202
0.0042588837 0.043578979 0.039999999 0 -0.25019264 0.4048202
0.00547582 0.043581009 0.039999999 0 -0.25019264 0.4048202
0.0066928412 0.043583546 0.039999999 0 -0.25019264 0.4048202
0.0079099657 0.043586589 0.039999999 0 -0.25019264 0.4048202
0.0091163823 0.043241564 0.040432867 0 -0.25019264 0.4048202
0.01030696 0.042525243 0.041327417 0 -0.25019264 0.4048202
0.011496462 0.041929759 0.04207252 0 -0.25019264 0.4048202
0.012683631 0.041391376 0.042747322 0 -0.25019264 0.4048202
0.013873024 0.040990606 0.04325185 0 -0.25019264 0.4048202
0.015061744 0.040638246 0.043696873 0 -0.25019264 0.4048202
0.016252745 0.040376112 0.044030469 0 -0.25019264 0.4048202
0.017446265 0.040189322 0.044271126 0 -0.25019264 0.4048202
0.018642055 0.040059231 0.044441998 0 -0.25019264 0.4048202
0.019843807 0.040029299 0.04448913 0 -0.25019264 0.4048202
0.021047685 0.040029299 0.044499725 0 -0.25019264 0.4048202
0.022261612 0.040157542 0.044351734 0 -0.25019264 0.4048202
0.023479369 0.040317152 0.044165432 0 -0.25019264 0.4048202
0.024708105 0.040587593 0.043842189 0 -0.25019264 0.4048202
0.025945716 0.04092953 0.043430842 0 -0.25019264 0.4048202
0.02719376 0.041350063 0.042922586 0 -0.25019264 0.4048202
0.028459083 0.041909195 0.04224297 0 -0.25019264 0.4048202
0.029737864 0.042552218 0.041459914 0 -0.25019264 0.4048202
0.031036949 0.04333384 0.040505528 0 -0.25019264 0.4048202
0.032303169 0.043754388 0.039999999 0 -0.25019264 0.4048202
0.033526827 0.043768149 0.039999999 0 -0.25019264 0.4048202
0.034751002 0.043782424 0.039999999 0 -0.25019264 0.4048202
0.035975717 0.043797214 0.039999999 0 -0.25019264 0.4048202
0.037200987 0.043812517 0.039999999 0 -0.25019264 0.4048202
0.038426839 0.043828338 0.039999999 0 -0.25019264 0.4048202
0.03965329 0.043844678 0.039999999 0 -0.25019264 0.4048202
0.00060731196 0.042004846 0.039999999 0 -0.25019264 0.4048202
0.0018219452 0.042005342 0.039999999 0 -0.25019264 0.4048202
0.0030366066 0.042006332 0.039999999 0 -0.25019264 0.4048202
0.0042513148 0.042007815 0.039999999 0 -0.25019264 0.4048202
0.0054660882 0.042009793 0.039999999 0 -0.25019264 0.4048202
0.0066809459 0.042012271 0.039999999 0 -0.25019264 0.4048202
0.0078959065 0.04201524 0.039999999 0 -0.25019264 0.4048202
0.0091109881 0.0420187 0.039999999 0 -0.25019264 0.4048202
0.01032621 0.04202266 0.039999999 0 -0.25019264 0.4048202
0.011537006 0.041911002 0.040144961 0 -0.25019264 0.4048202
0.012728521 0.041376252 0.040818736 0 -0.25019264 0.4048202
0.013922059 0.040974084 0.041327588 0 -0.25019264 0.4048202
0.01511523 0.040626474 0.041768923 0 -0.25019264 0.4048202
0.016310411 0.04036342 0.042105302 0 -0.25019264 0.4048202
0.017508527 0.040182546 0.042339697 0 -0.25019264 0.4048202
0.018708562 0.040051997 0.04251188 0 -0.25019264 0.4048202
0.019915104 0.040029299 0.042550042 0 -0.25019264 0.4048202
0.021123638 0.040033743 0.042554941 0 -0.25019264 0.4048202
0.022342289 0.040166318 0.04240052 0 -0.25019264 0.4048202
0.023565287 0.040336061 0.042200338 0 -0.25019264 0.4048202
0.024798617 0.040607512 0.04187385 0 -0.25019264 0.4048202
0.026041884 0.040961932 0.041444451 0 -0.25019264 0.4048202
0.027294716 0.041384082 0.040931176 0 -0.25019264 0.4048202
0.028566265 0.041958783 0.040228188 0 -0.25019264 0.4048202
0.029804166 0.042153548 0.039999999 0 -0.25019264 0.4048202
0.03102465 0.042165969 0.039999999 0 -0.25019264 0.4048202
0.032245614 0.042178884 0.039999999 0 -0.25019264 0.4048202
0.033467077 0.042192303 0.039999999 0 -0.25019264 0.4048202
0.034689058 0.042206224 0.039999999 0 -0.25019264 0.4048202
0.035911575 0.042220648 0.039999999 0 -0.25019264 0.4048202
0.037134651 0.042235576 0.039999999 0 -0.25019264 0.4048202
0.038358297 0.042251006 0.039999999 0 -0.25019264 0.4048202
0.039582543 0.042266939 0.039999999 0 -0.25019264 0.4048202
0.00060623529 0.040440332 0.039999999 0 -0.25019264 0.4048202
0.0018187152 0.040440816 0.039999999 0 -0.25019264 0.4048202
0.0030312231 0.040441781 0.039999999 0 -0.25019264 0.4048202
0.0042437771 0.040443227 0.039999999 0 -0.25019264 0.4048202
0.0054563968 0.040445156 0.039999999 0 -0.25019264 0.4048202
0.0066690999 0.040447567 0.039999999 0 -0.25019264 0.4048202
0.0078819059 0.040450461 0.039999999 0 -0.25019264 0.4048202
0.0090948325 0.04045384 0.039999999 0 -0.25019264 0.4048202
0.010307899 0.040457699 0.039999999 0 -0.25019264 0.4048202
0.011521123 0.040462043 0.039999999 0 -0.25019264 0.4048202
0.012734525 0.040466867 0.039999999 0 -0.25019264 0.4048202
0.013948122 0.040472176 0.039999999 0 -0.25019264 0.4048202
0.015161934 0.040477969 0.039999999 0 -0.25019264 0.4048202
0.016368452 0.040350646 0.040167674 0 -0.25019264 0.4048202
0.017571196 0.040175728 0.040395685 0 -0.25019264 0.4048202
0.018775502 0.040044714 0.040569194 0 -0.25019264 0.4048202
0.01998687 0.040029299 0.040598225 0 -0.25019264 0.4048202
0.021200376 0.040042091 0.040592462 0 -0.25019264 0.4048202
0.022423498 0.040175151 0.04043638 0 -0.25019264 0.4048202
0.023651782 0.040355101 0.040222082 0 -0.25019264 0.4048202
0.024882389 0.040541746 0.039999999 0 -0.25019264 0.4048202
0.026098972 0.040551901 0.039999999 0 -0.25019264 0.4048202
0.027315957 0.040562544 0.039999999 0 -0.25019264 0.4048202
0.028533366 0.040573675 0.039999999 0 -0.25019264 0.4048202
0.029751211 0.040585291 0.039999999 0 -0.25019264 0.4048202
0.030969515 0.040597394 0.039999999 0 -0.25019264 0.4048202
0.0321883 0.040609989 0.039999999 0 -0.25019264 0.4048202
0.03340758 0.040623069 0.039999999 0 -0.25019264 0.4048202
0.034627374 0.04063664 0.039999999 0 -0.25019264 0.4048202
0.035847705 0.040650699 0.039999999 0 -0.25019264 0.4048202
0.037068587 0.04066525 0.039999999 0 -0.25019264 0.4048202
0.038290046 0.040680293 0.039999999 0 -0.25019264 0.4048202
0.039512094 0.040695824 0.039999999 0 -0.25019264 0.4048202
0.00060516311 0.03888233 0.039999999 0 -0.25019264 0.4048202
0.0018154986 0.038882799 0.039999999 0 -0.25019264 0.4048202
0.0030258619 0.038883742 0.039999999 0 -0.25019264 0.4048202
0.0042362716 0.03888515 0.039999999 0 -0.25019264 0.4048202
0.005446746 0.038887031 0.039999999 0 -0.25019264 0.4048202
0.0066573038 0.038889382 0.039999999 0 -0.25019264 0.4048202
0.007867964 0.038892202 0.039999999 0 -0.25019264 0.4048202
0.0090787439 0.038895492 0.039999999 0 -0.25019264 0.4048202
0.010289663 0.038899254 0.039999999 0 -0.25019264 0.4048202
0.01150074 0.038903482 0.039999999 0 -0.25019264 0.4048202
0.012711993 0.038908187 0.039999999 0 -0.25019264 0.4048202
0.013923442 0.038913358 0.039999999 0 -0.25019264 0.4048202
0.015135103 0.038919002 0.039999999 0 -0.25019264 0.4048202
0.016346997 0.038925119 0.039999999 0 -0.25019264 0.4048202
0.017559141 0.038931705 0.039999999 0 -0.25019264 0.4048202
0.018771553 0.038938764 0.039999999 0 -0.25019264 0.4048202
0.019984255 0.038946293 0.039999999 0 -0.25019264 0.4048202
0.021197263 0.038954299 0.039999999 0 -0.25019264 0.4048202
0.022410596 0.038962774 0.039999999 0 -0.25019264 0.4048202
0.023624273 0.038971722 0.039999999 0 -0.25019264 0.4048202
0.024838313 0.038981143 0.039999999 0 -0.25019264 0.4048202
0.026052736 0.038991041 0.039999999 0 -0.25019264 0.4048202
0.027267557 0.039001409 0.039999999 0 -0.25019264 0.4048202
0.028482798 0.039012253 0.039999999 0 -0.25019264 0.4048202
0.029698476 0.039023571 0.039999999 0 -0.25019264 0.4048202
0.030914612 0.039035365 0.039999999 0 -0.25019264 0.4048202
0.032131221 0.039047636 0.039999999 0 -0.25019264 0.4048202
0.033348329 0.03906038 0.039999999 0 -0.25019264 0.4048202
0.034565948 0.039073605 0.039999999 0 -0.25019264 0.4048202
0.035784099 0.039087303 0.039999999 0 -0.25019264 0.4048202
0.037002802 0.039101481 0.039999999 0 -0.25019264 0.4048202
0.038222078 0.039116137 0.039999999 0 -0.25019264 0.4048202
0.039441939 0.039131273 0.039999999 0 -0.25019264 0.4048202
0.00060409534 0.03733078 0.039999999 0 -0.25019264 0.4048202
0.0018122953 0.037331238 0.039999999 0 -0.25019264 0.4048202
0.0030205229 0.037332155 0.039999999 0 -0.25019264 0.4048202
0.0042287968 0.037333526 0.039999999 0 -0.25019264 0.4048202
0.0054371352 0.037335359 0.039999999 0 -0.25019264 0.4048202
0.0066455565 0.037337646 0.039999999 0 -0.25019264 0.4048202
0.0078540789 0.037340391 0.039999999 0 -0.25019264 0.4048202
0.0090627223 0.037343595 0.039999999 0 -0.25019264 0.4048202
0.010271504 0.037347261 0.039999999 0 -0.25019264 0.4048202
0.011480442 0.037351381 0.039999999 0 -0.25019264 0.4048202
0.012689556 0.037355959 0.039999999 0 -0.25019264 0.4048202
0.013898863 0.037360996 0.039999999 0 -0.25019264 0.4048202
0.015108383 0.037366495 0.039999999 0 -0.25019264 0.4048202
0.016318135 0.037372451 0.039999999 0 -0.25019264 0.4048202
0.017528135 0.037378866 0.039999999 0 -0.25019264 0.4048202
0.018738404 0.037385739 0.039999999 0 -0.25019264 0.4048202
0.019948959 0.037393074 0.039999999 0 -0.25019264 0.4048202
0.02115982 0.037400868 0.039999999 0 -0.25019264 0.4048202
0.022371005 0.037409123 0.039999999 0 -0.25019264 0.4048202
0.023582533 0.037417836 0.039999999 0 -0.25019264 0.4048202
0.02479442 0.037427012 0.039999999 0 -0.25019264 0.4048202
0.026006689 0.037436649 0.039999999 0 -0.25019264 0.4048202
0.027219357 0.037446748 0.039999999 0 -0.25019264 0.4048202
0.02843244 0.03745731 0.039999999 0 -0.25019264 0.4048202
0.029645961 0.037468333 0.039999999 0 -0.25019264 0.4048202
0.030859936 0.037479818 0.039999999 0 -0.25019264 0.4048202
0.032074384 0.037491769 0.039999999 0 -0.25019264 0.4048202
0.033289324 0.037504181 0.039999999 0 -0.25019264 0.4048202
0.034504779 0.037517056 0.039999999 0 -0.25019264 0.4048202
0.035720758 0.0375304 0.039999999 0 -0.25019264 0.4048202
0.036937289 0.037544206 0.039999999 0 -0.25019264 0.4048202
0.03815439 0.037558477 0.039999999 0 -0.25019264 0.4048202
0.039372075 0.037573218 0.039999999 0 -0.25019264 0.4048202
0.00060303201 0.035785619 0.039999999 0 -0.25019264 0.4048202
0.0018091052 0.035786062 0.039999999 0 -0.25019264 0.4048202
0.003015206 0.035786957 0.039999999 0 -0.25019264 0.4048202
0.0042213527 0.03578829 0.039999999 0 -0.25019264 0.4048202
0.0054275636 0.035790075 0.039999999 0 -0.25019264 0.4048202
0.0066338573 0.035792302 0.039999999 0 -0.25019264 0.4048202
0.0078402525 0.035794973 0.039999999 0 -0.25019264 0.4048202
0.009046766 0.035798095 0.039999999 0 -0.25019264 0.4048202
0.010253418 0.03580166 0.039999999 0 -0.25019264 0.4048202
0.011460227 0.035805669 0.039999999 0 -0.25019264 0.4048202
0.01266721 0.035810128 0.039999999 0 -0.25019264 0.4048202
0.013874386 0.03581503 0.039999999 0 -0.25019264 0.4048202
0.015081774 0.035820384 0.039999999 0 -0.25019264 0.4048202
0.016289392 0.03582618 0.039999999 0 -0.25019264 0.4048202
0.017497258 0.035832424 0.039999999 0 -0.25019264 0.4048202
0.01870539 0.035839114 0.039999999 0 -0.25019264 0.4048202
0.019913809 0.035846252 0.039999999 0 -0.25019264 0.4048202
0.021122532 0.03585384 0.039999999 0 -0.25019264 0.4048202
0.022331577 0.035861876 0.039999999 0 -0.25019264 0.4048202
0.023540964 0.035870358 0.039999999 0 -0.25019264 0.4048202
0.02475071 0.035879288 0.039999999 0 -0.25019264 0.4048202
0.025960833 0.035888668 0.039999999 0 -0.25019264 0.4048202
0.027171355 0.035898499 0.039999999 0 -0.25019264 0.4048202
0.02838229 0.035908781 0.039999999 0 -0.25019264 0.4048202
0.029593661 0.03591951 0.039999999 0 -0.25019264 0.4048202
0.030805483 0.035930689 0.039999999 0 -0.25019264 0.4048202
0.032017779 0.03594232 0.039999999 0 -0.25019264 0.4048202
0.033230565 0.035954401 0.039999999 0 -0.25019264 0.4048202
0.034443859 0.035966936 0.039999999 0 -0.25019264 0.4048202
0.035657682 0.035979923 0.039999999 0 -0.25019264 0.4048202
0.036872048 0.035993364 0.039999999 0 -0.25019264 0.4048202
0.038086984 0.036007255 0.039999999 0 -0.25019264 0.4048202
0.039302502 0.036021601 0.039999999 0 -0.25019264 0.4048202
0.00060197304 0.034246787 0.039999999 0 -0.25019264 0.4048202
0.0018059282 0.03424722 0.039999999 0 -0.25019264 0.4048202
0.0030099107 0.034248088 0.039999999 0 -0.25019264 0.4048202
0.004213939 0.034249388 0.039999999 0 -0.25019264 0.4048202
0.0054180315 0.03425112 0.039999999 0 -0.25019264 0.4048202
0.0066222064 0.034253288 0.039999999 0 -0.25019264 0.4048202
0.0078264819 0.034255888 0.039999999 0 -0.25019264 0.4048202
0.0090308757 0.034258924 0.039999999 0 -0.25019264 0.4048202
0.010235407 0.034262393 0.039999999 0 -0.25019264 0.4048202
0.011440095 0.034266293 0.039999999 0 -0.25019264 0.4048202
0.012644956 0.034270629 0.039999999 0 -0.25019264 0.4048202
0.013850009 0.034275401 0.039999999 0 -0.25019264 0.4048202
0.015055274 0.034280606 0.039999999 0 -0.25019264 0.4048202
0.016260767 0.034286246 0.039999999 0 -0.25019264 0.4048202
0.017466508 0.034292322 0.039999999 0 -0.25019264 0.4048202
0.018672513 0.03429883 0.039999999 0 -0.25019264 0.4048202
0.019878805 0.034305774 0.039999999 0 -0.25019264 0.4048202
0.021085396 0.034313157 0.039999999 0 -0.25019264 0.4048202
0.02229231 0.034320973 0.039999999 0 -0.25019264 0.4048202
0.023499565 0.034329224 0.039999999 0 -0.25019264 0.4048202
0.024707178 0.034337915 0.039999999 0 -0.25019264 0.4048202
0.025915166 0.034347039 0.039999999 0 -0.25019264 0.4048202
0.02712355 0.034356602 0.039999999 0 -0.25019264 0.4048202
0.028332347 0.034366604 0.039999999 0 -0.25019264 0.4048202
0.029541576 0.034377042 0.039999999 0 -0.25019264 0.4048202
0.030751256 0.03438792 0.039999999 0 -0.25019264 0.4048202
0.031961408 0.034399234 0.039999999 0 -0.25019264 0.4048202
0.033172045 0.034410987 0.039999999 0 -0.25019264 0.4048202
0.034383189 0.03442318 0.039999999 0 -0.25019264 0.4048202
0.035594862 0.034435816 0.039999999 0 -0.25019264 0.4048202
0.036807075 0.034448888 0.039999999 0 -0.25019264 0.4048202
0.038019855 0.034462404 0.039999999 0 -0.25019264 0.4048202
0.039233215 0.034476362 0.039999999 0 -0.25019264 0.4048202
0.00060091831 0.032714222 0.039999999 0 -0.25019264 0.4048202
0.0018027641 0.032714643 0.039999999 0 -0.25019264 0.4048202
0.0030046373 0.032715488 0.039999999 0 -0.25019264 0.4048202
0.0042065559 0.032716751 0.039999999 0 -0.25019264 0.4048202
0.005408538 0.032718439 0.039999999 0 -0.25019264 0.4048202
0.0066106026 0.032720543 0.039999999 0 -0.25019264 0.4048202
0.0078127673 0.032723073 0.039999999 0 -0.25019264 0.4048202
0.0090150498 0.032726023 0.039999999 0 -0.25019264 0.4048202
0.01021747 0.032729395 0.039999999 0 -0.25019264 0.4048202
0.011420045 0.032733191 0.039999999 0 -0.25019264 0.4048202
0.012622792 0.032737408 0.039999999 0 -0.25019264 0.4048202
0.013825731 0.032742046 0.039999999 0 -0.25019264 0.4048202
0.015028881 0.032747105 0.039999999 0 -0.25019264 0.4048202
0.016232258 0.032752588 0.039999999 0 -0.25019264 0.4048202
0.017435882 0.032758497 0.039999999 0 -0.25019264 0.4048202
0.018639769 0.032764826 0.039999999 0 -0.25019264 0.4048202
0.01984394 0.032771576 0.039999999 0 -0.25019264 0.4048202
0.021048414 0.032778755 0.039999999 0 -0.25019264 0.4048202
0.022253206 0.032786354 0.039999999 0 -0.25019264 0.4048202
0.023458336 0.032794379 0.039999999 0 -0.25019264 0.4048202
0.024663823 0.032802828 0.039999999 0 -0.25019264 0.4048202
0.025869684 0.032811701 0.039999999 0 -0.25019264 0.4048202
0.027075939 0.032820996 0.039999999 0 -0.25019264 0.4048202
0.028282607 0.032830723 0.039999999 0 -0.25019264 0.4048202
0.029489703 0.03284087 0.039999999 0 -0.25019264 0.4048202
0.030697251 0.032851446 0.039999999 0 -0.25019264 0.4048202
0.031905264 0.032862447 0.039999999 0 -0.25019264 0.4048202
0.033113763 0.032873876 0.039999999 0 -0.25019264 0.4048202
0.034322768 0.03288573 0.039999999 0 -0.25019264 0.4048202
0.035532296 0.032898016 0.039999999 0 -0.25019264 0.4048202
0.036742367 0.032910727 0.039999999 0 -0.25019264 0.4048202
0.037952997 0.03292387 0.039999999 0 -0.25019264 0.4048202
0.039164208 0.032937437 0.039999999 0 -0.25019264 0.4048202
0.00059986796 0.03118787 0.039999999 0 -0.25019264 0.4048202
0.0017996129 0.031188279 0.039999999 0 -0.25019264 0.4048202
0.0029993849 0.031189099 0.039999999 0 -0.25019264 0.4048202
0.0041992026 0.031190326 0.039999999 0 -0.25019264 0.4048202
0.0053990833 0.031191964 0.039999999 0 -0.25019264 0.4048202
0.0065990458 0.031194013 0.039999999 0 -0.25019264 0.4048202
0.0077991085 0.031196469 0.039999999 0 -0.25019264 0.4048202
0.008999289 0.031199336 0.039999999 0 -0.25019264 0.4048202
0.010199605 0.031202614 0.039999999 0 -0.25019264 0.4048202
0.011400076 0.0312063 0.039999999 0 -0.25019264 0.4048202
0.012600719 0.031210398 0.039999999 0 -0.25019264 0.4048202
0.013801552 0.031214906 0.039999999 0 -0.25019264 0.4048202
0.015002595 0.031219823 0.039999999 0 -0.25019264 0.4048202
0.016203865 0.031225152 0.039999999 0 -0.25019264 0.4048202
0.01740538 0.031230891 0.039999999 0 -0.25019264 0.4048202
0.018607158 0.031237042 0.039999999 0 -0.25019264 0.4048202
0.019809218 0.031243604 0.039999999 0 -0.25019264 0.4048202
0.02101158 0.031250577 0.039999999 0 -0.25019264 0.4048202
0.022214258 0.031257961 0.039999999 0 -0.25019264 0.4048202
0.023417274 0.031265758 0.039999999 0 -0.25019264 0.4048202
0.024620643 0.031273969 0.039999999 0 -0.25019264 0.4048202
0.025824387 0.031282589 0.039999999 0 -0.25019264 0.4048202
0.027028523 0.031291626 0.039999999 0 -0.25019264 0.4048202
0.028233068 0.031301074 0.039999999 0 -0.25019264 0.4048202
0.029438043 0.031310935 0.039999999 0 -0.25019264 0.4048202
0.030643463 0.031321213 0.039999999 0 -0.25019264 0.4048202
0.031849351 0.031331901 0.039999999 0 -0.25019264 0.4048202
0.033055723 0.031343009 0.039999999 0 -0.25019264 0.4048202
0.034262594 0.031354528 0.039999999 0 -0.25019264 0.4048202
0.03546999 0.031366464 0.039999999 0 -0.25019264 0.4048202
0.036677923 0.031378817 0.039999999 0 -0.25019264 0.4048202
0.037886415 0.031391587 0.039999999 0 -0.25019264 0.4048202
0.039095484 0.031404771 0.039999999 0 -0.25019264 0.4048202
0.00059882173 0.029667668 0.039999999 0 -0.25019264 0.4048202
0.0017964743 0.029668067 0.039999999 0 -0.25019264 0.4048202
0.0029941539 0.029668862 0.039999999 0 -0.25019264 0.4048202
0.0041918787 0.029670054 0.039999999 0 -0.25019264 0.4048202
0.0053896667 0.029671645 0.039999999 0 -0.25019264 0.4048202
0.0065875361 0.029673634 0.039999999 0 -0.25019264 0.4048202
0.0077855047 0.02967602 0.039999999 0 -0.25019264 0.4048202
0.0089835906 0.029678803 0.039999999 0 -0.25019264 0.4048202
0.010181813 0.029681986 0.039999999 0 -0.25019264 0.4048202
0.011380187 0.029685566 0.039999999 0 -0.25019264 0.4048202
0.012578734 0.029689545 0.039999999 0 -0.25019264 0.4048202
0.013777471 0.029693922 0.039999999 0 -0.25019264 0.4048202
0.014976416 0.029698698 0.039999999 0 -0.25019264 0.4048202
0.016175587 0.029703872 0.039999999 0 -0.25019264 0.4048202
0.017375002 0.029709447 0.039999999 0 -0.25019264 0.4048202
0.018574679 0.029715419 0.039999999 0 -0.25019264 0.4048202
0.019774636 0.029721791 0.039999999 0 -0.25019264 0.4048202
0.020974893 0.029728564 0.039999999 0 -0.25019264 0.4048202
0.022175467 0.029735735 0.039999999 0 -0.25019264 0.4048202
0.023376377 0.029743306 0.039999999 0 -0.25019264 0.4048202
0.024577638 0.029751278 0.039999999 0 -0.25019264 0.4048202
0.025779273 0.029759653 0.039999999 0 -0.25019264 0.4048202
0.026981298 0.029768426 0.039999999 0 -0.25019264 0.4048202
0.02818373 0.029777601 0.039999999 0 -0.25019264 0.4048202
0.029386589 0.029787179 0.039999999 0 -0.25019264 0.4048202
0.030589893 0.029797157 0.039999999 0 -0.25019264 0.4048202
0.031793661 0.02980754 0.039999999 0 -0.25019264 0.4048202
0.032997914 0.029818324 0.039999999 0 -0.25019264 0.4048202
0.034202661 0.029829511 0.039999999 0 -0.25019264 0.4048202
0.035407931 0.029841103 0.039999999 0 -0.25019264 0.4048202
0.036613736 0.029853098 0.039999999 0 -0.25019264 0.4048202
0.037820101 0.029865498 0.039999999 0 -0.25019264 0.4048202
0.039027035 0.029878303 0.039999999 0 -0.25019264 0.4048202
0.00059777976 0.028153561 0.039999999 0 -0.25019264 0.4048202
0.0017933483 0.028153947 0.039999999 0 -0.25019264 0.4048202
0.0029889438 0.028154718 0.039999999 0 -0.25019264 0.4048202
0.0041845841 0.028155876 0.039999999 0 -0.25019264 0.4048202
0.0053802878 0.02815742 0.039999999 0 -0.25019264 0.4048202
0.006576072 0.02815935 0.039999999 0 -0.25019264 0.4048202
0.0077719553 0.028161665 0.039999999 0 -0.25019264 0.4048202
0.0089679556 0.028164368 0.039999999 0 -0.25019264 0.4048202
0.01016409 0.028167456 0.039999999 0 -0.25019264 0.4048202
0.011360379 0.02817093 0.039999999 0 -0.25019264 0.4048202
0.012556838 0.028174791 0.039999999 0 -0.25019264 0.4048202
0.013753486 0.02817904 0.039999999 0 -0.25019264 0.4048202
0.014950342 0.028183674 0.039999999 0 -0.25019264 0.4048202
0.016147422 0.028188696 0.039999999 0 -0.25019264 0.4048202
0.017344745 0.028194105 0.039999999 0 -0.25019264 0.4048202
0.018542329 0.028199902 0.039999999 0 -0.25019264 0.4048202
0.019740194 0.028206086 0.039999999 0 -0.25019264 0.4048202
0.020938355 0.028212657 0.039999999 0 -0.25019264 0.4048202
0.022136834 0.028219618 0.039999999 0 -0.25019264 0.4048202
0.023335643 0.028226966 0.039999999 0 -0.25019264 0.4048202
0.024534807 0.028234702 0.039999999 0 -0.25019264 0.4048202
0.025734341 0.028242828 0.039999999 0 -0.25019264 0.4048202
0.026934262 0.028251342 0.039999999 0 -0.25019264 0.4048202
0.02813459 0.028260248 0.039999999 0 -0.25019264 0.4048202
0.029335342 0.028269541 0.039999999 0 -0.25019264 0.4048202
0.03053654 0.028279226 0.039999999 0 -0.25019264 0.4048202
0.031738196 0.028289301 0.039999999 0 -0.25019264 0.4048202
0.032940336 0.028299768 0.039999999 0 -0.25019264 0.4048202
0.034142971 0.028310625 0.039999999 0 -0.25019264 0.4048202
0.035346124 0.028321873 0.039999999 0 -0.25019264 0.4048202
0.03654981 0.028333513 0.039999999 0 -0.25019264 0.4048202
0.037754051 0.028345548 0.039999999 0 -0.25019264 0.4048202
0.038958866 0.028357973 0.039999999 0 -0.25019264 0.4048202
0.00059674197 0.026645489 0.039999999 0 -0.25019264 0.4048202
0.0017902348 0.026645863 0.039999999 0 -0.25019264 0.4048202
0.0029837545 0.026646612 0.039999999 0 -0.25019264 0.4048202
0.0041773189 0.026647735 0.039999999 0 -0.25019264 0.4048202
0.0053709461 0.026649233 0.039999999 0 -0.25019264 0.4048202
0.0065646539 0.026651103 0.039999999 0 -0.25019264 0.4048202
0.00775846 0.026653349 0.039999999 0 -0.25019264 0.4048202
0.008952383 0.02665597 0.039999999 0 -0.25019264 0.4048202
0.01014644 0.026658965 0.039999999 0 -0.25019264 0.4048202
0.011340649 0.026662335 0.039999999 0 -0.25019264 0.4048202
0.012535029 0.026666079 0.039999999 0 -0.25019264 0.4048202
0.013729597 0.026670199 0.039999999 0 -0.25019264 0.4048202
0.014924371 0.026674693 0.039999999 0 -0.25019264 0.4048202
0.016119368 0.026679564 0.039999999 0 -0.25019264 0.4048202
0.017314609 0.026684809 0.039999999 0 -0.25019264 0.4048202
0.018510109 0.026690431 0.039999999 0 -0.25019264 0.4048202
0.019705888 0.026696429 0.039999999 0 -0.25019264 0.4048202
0.020901963 0.026702801 0.039999999 0 -0.25019264 0.4048202
0.022098353 0.026709551 0.039999999 0 -0.25019264 0.4048202
0.023295075 0.026716677 0.039999999 0 -0.25019264 0.4048202
0.024492146 0.02672418 0.039999999 0 -0.25019264 0.4048202
0.025689587 0.026732059 0.039999999 0 -0.25019264 0.4048202
0.026887413 0.026740318 0.039999999 0 -0.25019264 0.4048202
0.028085647 0.026748953 0.039999999 0 -0.25019264 0.4048202
0.029284302 0.026757967 0.039999999 0 -0.25019264 0.4048202
0.030483399 0.026767358 0.039999999 0 -0.25019264 0.4048202
0.031682953 0.02677713 0.039999999 0 -0.25019264 0.4048202
0.032882988 0.026787279 0.039999999 0 -0.25019264 0.4048202
0.034083519 0.026797807 0.039999999 0 -0.25019264 0.4048202
0.035284564 0.026808716 0.039999999 0 -0.25019264 0.4048202
0.036486141 0.026820006 0.039999999 0 -0.25019264 0.4048202
0.03768827 0.026831675 0.039999999 0 -0.25019264 0.4048202
0.038890965 0.026843727 0.039999999 0 -0.25019264 0.4048202
0.00059570826 0.025143398 0.039999999 0 -0.25019264 0.4048202
0.0017871336 0.025143761 0.039999999 0 -0.25019264 0.4048202
0.0029785857 0.025144488 0.039999999 0 -0.25019264 0.4048202
0.0041700825 0.025145575 0.039999999 0 -0.25019264 0.4048202
0.0053616418 0.025147026 0.039999999 0 -0.25019264 0.4048202
0.0065532811 0.025148839 0.039999999 0 -0.25019264 0.4048202
0.0077450182 0.025151016 0.039999999 0 -0.25019264 0.4048202
0.0089368718 0.025153555 0.039999999 0 -0.25019264 0.4048202
0.010128859 0.025156457 0.039999999 0 -0.25019264 0.4048202
0.011320998 0.025159722 0.039999999 0 -0.25019264 0.4048202
0.012513306 0.025163352 0.039999999 0 -0.25019264 0.4048202
0.013705802 0.025167344 0.039999999 0 -0.25019264 0.4048202
0.014898503 0.025171699 0.039999999 0 -0.25019264 0.4048202
0.016091427 0.025176419 0.039999999 0 -0.25019264 0.4048202
0.017284593 0.025181502 0.039999999 0 -0.25019264 0.4048202
0.018478017 0.02518695 0.039999999 0 -0.25019264 0.4048202
0.01967172 0.025192762 0.039999999 0 -0.25019264 0.4048202
0.020865716 0.025198938 0.039999999 0 -0.25019264 0.4048202
0.022060025 0.025205478 0.039999999 0 -0.25019264 0.4048202
0.023254665 0.025212385 0.039999999 0 -0.25019264 0.4048202
0.024449654 0.025219655 0.039999999 0 -0.25019264 0.4048202
0.02564501 0.025227292 0.039999999 0 -0.25019264 0.4048202
0.026840752 0.025235293 0.039999999 0 -0.25019264 0.4048202
0.028036896 0.025243662 0.039999999 0 -0.25019264 0.4048202
0.029233463 0.025252396 0.039999999 0 -0.25019264 0.4048202
0.030430468 0.025261499 0.039999999 0 -0.25019264 0.4048202
0.031627931 0.025270967 0.039999999 0 -0.25019264 0.4048202
0.032825869 0.025280802 0.039999999 0 -0.25019264 0.4048202
0.034024302 0.025291005 0.039999999 0 -0.25019264 0.4048202
0.035223246 0.025301578 0.039999999 0 -0.25019264 0.4048202
0.036422722 0.025312517 0.039999999 0 -0.25019264 0.4048202
0.037622746 0.025323827 0.039999999 0 -0.25019264 0.4048202
0.038823336 0.025335504 0.039999999 0 -0.25019264 0.4048202
0.00059467863 0.023647232 0.039999999 0 -0.25019264 0.4048202
0.0017840447 0.023647584 0.039999999 0 -0.25019264 0.4048202
0.0029734373 0.023648286 0.039999999 0 -0.25019264 0.4048202
0.0041628745 0.023649339 0.039999999 0 -0.25019264 0.4048202
0.0053523737 0.023650745 0.039999999 0 -0.25019264 0.4048202
0.006541953 0.0236525 0.039999999 0 -0.25019264 0.4048202
0.0077316295 0.023654608 0.039999999 0 -0.25019264 0.4048202
0.0089214221 0.023657067 0.039999999 0 -0.25019264 0.4048202
0.010111348 0.023659877 0.039999999 0 -0.25019264 0.4048202
0.011301424 0.023663038 0.039999999 0 -0.25019264 0.4048202
0.01249167 0.023666553 0.039999999 0 -0.25019264 0.4048202
0.013682101 0.023670418 0.039999999 0 -0.25019264 0.4048202
0.014872737 0.023674637 0.039999999 0 -0.25019264 0.4048202
0.016063597 0.023679206 0.039999999 0 -0.25019264 0.4048202
0.017254695 0.023684129 0.039999999 0 -0.25019264 0.4048202
0.018446052 0.023689404 0.039999999 0 -0.25019264 0.4048202
0.019637683 0.023695031 0.039999999 0 -0.25019264 0.4048202
0.020829611 0.023701012 0.039999999 0 -0.25019264 0.4048202
0.022021849 0.023707345 0.039999999 0 -0.25019264 0.4048202
0.023214417 0.023714032 0.039999999 0 -0.25019264 0.4048202
0.024407331 0.023721073 0.039999999 0 -0.25019264 0.4048202
0.02560061 0.023728468 0.039999999 0 -0.25019264 0.4048202
0.026794275 0.023736216 0.039999999 0 -0.25019264 0.4048202
0.027988341 0.023744319 0.039999999 0 -0.25019264 0.4048202
0.029182825 0.023752777 0.039999999 0 -0.25019264 0.4048202
0.030377747 0.023761589 0.039999999 0 -0.25019264 0.4048202
0.031573124 0.023770757 0.039999999 0 -0.25019264 0.4048202
0.032768976 0.023780283 0.039999999 0 -0.25019264 0.4048202
0.033965319 0.023790162 0.039999999 0 -0.25019264 0.4048202
0.035162173 0.023800399 0.039999999 0 -0.25019264 0.4048202
0.036359556 0.023810992 0.039999999 0 -0.25019264 0.4048202
0.037557483 0.023821943 0.039999999 0 -0.25019264 0.4048202
0.038755976 0.023833251 0.039999999 0 -0.25019264 0.4048202
0.039955053 0.023844916 0.039999999 0 -0.25019264 0.4048202
0.00059365301 0.022156933 0.039999999 0 -0.25019264 0.4048202
0.0017809679 0.022157274 0.039999999 0 -0.25019264 0.4048202
0.0029683092 0.022157954 0.039999999 0 -0.25019264 0.4048202
0.004155695 0.022158973 0.039999999 0 -0.25019264 0.4048202
0.0053431424 0.022160333 0.039999999 0 -0.25019264 0.4048202
0.0065306695 0.022162031 0.039999999 0 -0.25019264 0.4048202
0.0077182935 0.022164069 0.039999999 0 -0.25019264 0.4048202
0.0089060329 0.02216645 0.039999999 0 -0.25019264 0.4048202
0.010093905 0.022169169 0.039999999 0 -0.25019264 0.4048202
0.011281927 0.022172228 0.039999999 0 -0.25019264 0.4048202
0.012470118 0.022175627 0.039999999 0 -0.25019264 0.4048202
0.013658494 0.022179367 0.039999999 0 -0.25019264 0.4048202
0.014847074 0.022183448 0.039999999 0 -0.25019264 0.4048202
0.016035875 0.02218787 0.039999999 0 -0.25019264 0.4048202
0.017224915 0.022192633 0.039999999 0 -0.25019264 0.4048202
0.018414212 0.022197736 0.039999999 0 -0.25019264 0.4048202
0.019603783 0.022203181 0.039999999 0 -0.25019264 0.4048202
0.020793647 0.022208966 0.039999999 0 -0.25019264 0.4048202
0.021983823 0.022215094 0.039999999 0 -0.25019264 0.4048202
0.023174325 0.022221563 0.039999999 0 -0.25019264 0.4048202
0.024365174 0.022228375 0.039999999 0 -0.25019264 0.4048202
0.025556386 0.022235529 0.039999999 0 -0.25019264 0.4048202
0.026747979 0.022243027 0.039999999 0 -0.25019264 0.4048202
0.027939973 0.022250867 0.039999999 0 -0.25019264 0.4048202
0.029132387 0.022259049 0.039999999 0 -0.25019264 0.4048202
0.030325234 0.022267576 0.039999999 0 -0.25019264 0.4048202
0.031518534 0.022276446 0.039999999 0 -0.25019264 0.4048202
0.032712307 0.022285661 0.039999999 0 -0.25019264 0.4048202
0.033906572 0.02229522 0.039999999 0 -0.25019264 0.4048202
0.035101339 0.022305124 0.039999999 0 -0.25019264 0.4048202
0.036296636 0.022315374 0.039999999 0 -0.25019264 0.4048202
0.037492476 0.022325968 0.039999999 0 -0.25019264 0.4048202
0.038688879 0.02233691 0.039999999 0 -0.25019264 0.4048202
0.039885864 0.022348195 0.039999999 0 -0.25019264 0.4048202
0.0005926314 0.02067245 0.039999999 0 -0.25019264 0.4048202
0.0017779031 0.020672778 0.039999999 0 -0.25019264 0.4048202
0.0029632011 0.020673435 0.039999999 0 -0.25019264 0.4048202
0.0041485433 0.020674421 0.039999999 0 -0.25019264 0.4048202
0.005333947 0.020675736 0.039999999 0 -0.25019264 0.4048202
0.0065194299 0.020677377 0.039999999 0 -0.25019264 0.4048202
0.0077050095 0.020679347 0.039999999 0 -0.25019264 0.4048202
0.0088907033 0.020681648 0.039999999 0 -0.25019264 0.4048202
0.01007653 0.020684276 0.039999999 0 -0.25019264 0.4048202
0.011262506 0.020687234 0.039999999 0 -0.25019264 0.4048202
0.01244865 0.020690519 0.039999999 0 -0.25019264 0.4048202
0.013634978 0.020694135 0.039999999 0 -0.25019264 0.4048202
0.014821509 0.02069808 0.039999999 0 -0.25019264 0.4048202
0.016008262 0.020702355 0.039999999 0 -0.25019264 0.4048202
0.017195251 0.020706957 0.039999999 0 -0.25019264 0.4048202
0.018382495 0.020711891 0.039999999 0 -0.25019264 0.4048202
0.019570015 0.020717155 0.039999999 0 -0.25019264 0.4048202
0.020757824 0.020722749 0.039999999 0 -0.25019264 0.4048202
0.021945944 0.020728672 0.039999999 0 -0.25019264 0.4048202
0.02313439 0.020734925 0.039999999 0 -0.25019264 0.4048202
0.02432318 0.020741511 0.039999999 0 -0.25019264 0.4048202
0.025512334 0.020748425 0.039999999 0 -0.25019264 0.4048202
0.026701866 0.020755673 0.039999999 0 -0.25019264 0.4048202
0.027891798 0.020763252 0.039999999 0 -0.25019264 0.4048202
0.029082144 0.020771163 0.039999999 0 -0.25019264 0.4048202
0.030272925 0.020779405 0.039999999 0 -0.25019264 0.4048202
0.031464159 0.020787979 0.039999999 0 -0.25019264 0.4048202
0.032655861 0.020796886 0.039999999 0 -0.25019264 0.4048202
0.033848051 0.020806126 0.039999999 0 -0.25019264 0.4048202
0.035040747 0.0208157 0.039999999 0 -0.25019264 0.4048202
0.036233965 0.020825608 0.039999999 0 -0.25019264 0.4048202
0.037427727 0.020835849 0.039999999 0 -0.25019264 0.4048202
