# .PCD v0.7 - Point Cloud Data file format
VERSION 0.7
FIELDS x y z vp_x vp_y vp_z
SIZE 4 4 4 4 4 4
TYPE F F F F F F
COUNT 1 1 1 1 1 1
WIDTH 714
HEIGHT 1
VIEWPOINT 0 0 0 1 0 0 0
POINTS 714
DATA ascii
2.7755576e-17 0.023739608 0.016069571 -0.23852047 -0.14741376 -0.38593423
2.7755576e-17 0.022142852 0.014917438 -0.23852047 -0.14741376 -0.38593423
2.7755576e-17 0.020555537 0.01377211 -0.23852047 -0.14741376 -0.38593423
2.7755576e-17 0.018977558 0.012633511 -0.23852047 -0.14741376 -0.38593423
0 0.017408812 0.011501567 -0.23852047 -0.14741376 -0.38593423
2.7755576e-17 0.015849197 0.010376202 -0.23852047 -0.14741376 -0.38593423
2.7755576e-17 0.014298611 0.0092573473 -0.23852047 -0.14741376 -0.38593423
2.7755576e-17 0.012756957 0.0081449281 -0.23852047 -0.14741376 -0.38593423
0 0.011224135 0.0070388755 -0.23852047 -0.14741376 -0.38593423
2.7755576e-17 0.0097000496 0.00593912 -0.23852047 -0.14741376 -0.38593423
2.7755576e-17 0.0081846062 0.0048455922 -0.23852047 -0.14741376 -0.38593423
0.022182634 0.021008365 0.039999999 -0.23852047 -0.14741376 -0.38593423
0 0.0051792683 0.0026769515 -0.23852047 -0.14741376 -0.38593423
0 0.0036891906 0.0016017059 -0.23852047 -0.14741376 -0.38593423
0 0.0022073868 0.00053242338 -0.23852047 -0.14741376 -0.38593423
0.00032860349 0.00093786663 0 -0.23852047 -0.14741376 -0.38593423
0.0011899096 0 0.00032888196 -0.23852047 -0.14741376 -0.38593423
0.0035957056 0 0.0031378896 -0.23852047 -0.14741376 -0.38593423
0.0060367994 0 0.0059881038 -0.23852047 -0.14741376 -0.38593423
0.0085140076 0 0.0088804774 -0.23852047 -0.14741376 -0.38593423
0.011028173 0 0.011815995 -0.23852047 -0.14741376 -0.38593423
0.013580164 0 0.014795668 -0.23852047 -0.14741376 -0.38593423
0.016170874 0 0.017820545 -0.23852047 -0.14741376 -0.38593423
0.018801231 0 0.020891704 -0.23852047 -0.14741376 -0.38593423
0.021472188 0 0.024010256 -0.23852047 -0.14741376 -0.38593423
0.024184726 0 0.027177352 -0.23852047 -0.14741376 -0.38593423
0.026939865 0 0.030394182 -0.23852047 -0.14741376 -0.38593423
0.03379073 0.0022266961 0.039999999 -0.23852047 -0.14741376 -0.38593423
0.032582179 0 0.036981974 -0.23852047 -0.14741376 -0.38593423
0.005047766 0.073245026 0.055235203 -0.23852047 -0.14741376 -0.38593423
0.0019074475 0.068509005 0.048191141 -0.23852047 -0.14741376 -0.38593423
0.00085464946 0.065693446 0.044949137 -0.23852047 -0.14741376 -0.38593423
0.00031328402 0.063358195 0.042645633 -0.23852047 -0.14741376 -0.38593423
7.0762049e-05 0.061305139 0.04089161 -0.23852047 -0.14741376 -0.38593423
2.7755576e-17 0.059416987 0.039455336 -0.23852047 -0.14741376 -0.38593423
0 0.057602819 0.038154293 -0.23852047 -0.14741376 -0.38593423
2.7755576e-17 0.055800594 0.036861792 -0.23852047 -0.14741376 -0.38593423
0 0.054010168 0.035577726 -0.23852047 -0.14741376 -0.38593423
0 0.052231401 0.034302 -0.23852047 -0.14741376 -0.38593423
2.7755576e-17 0.050464157 0.033034511 -0.23852047 -0.14741376 -0.38593423
0 0.048708301 0.031775165 -0.23852047 -0.14741376 -0.38593423
2.7755576e-17 0.046963695 0.03052387 -0.23852047 -0.14741376 -0.38593423
0 0.04523021 0.029280527 -0.23852047 -0.14741376 -0.38593423
2.7755576e-17 0.043507718 0.028045043 -0.23852047 -0.14741376 -0.38593423
0 0.041796092 0.026817331 -0.23852047 -0.14741376 -0.38593423
0 0.040095206 0.025597297 -0.23852047 -0.14741376 -0.38593423
0 0.038404934 0.024384856 -0.23852047 -0.14741376 -0.38593423
2.7755576e-17 0.03672516 0.023179919 -0.23852047 -0.14741376 -0.38593423
0 0.035055757 0.021982398 -0.23852047 -0.14741376 -0.38593423
2.7755576e-17 0.033396609 0.020792212 -0.23852047 -0.14741376 -0.38593423
0 0.031747598 0.019609278 -0.23852047 -0.14741376 -0.38593423
2.7755576e-17 0.030108616 0.018433511 -0.23852047 -0.14741376 -0.38593423
2.7755576e-17 0.028479543 0.01726483 -0.23852047 -0.14741376 -0.38593423
0 0.026860269 0.016103158 -0.23852047 -0.14741376 -0.38593423
0 0.025250684 0.014948414 -0.23852047 -0.14741376 -0.38593423
0 0.02365068 0.01380052 -0.23852047 -0.14741376 -0.38593423
2.7755576e-17 0.02206015 0.012659402 -0.23852047 -0.14741376 -0.38593423
0 0.02047899 0.011524982 -0.23852047 -0.14741376 -0.38593423
0 0.018907094 0.010397187 -0.23852047 -0.14741376 -0.38593423
2.7755576e-17 0.017344361 0.009275944 -0.23852047 -0.14741376 -0.38593423
0 0.01579069 0.0081611797 -0.23852047 -0.14741376 -0.38593423
0.019997034 0.02779918 0.039999999 -0.23852047 -0.14741376 -0.38593423
0.02072401 0.026622606 0.039999999 -0.23852047 -0.14741376 -0.38593423
2.7755576e-17 0.011183056 0.0048550568 -0.23852047 -0.14741376 -0.38593423
0 0.0096646491 0.0037655081 -0.23852047 -0.14741376 -0.38593423
2.7755576e-17 0.0081548207 0.0026820921 -0.23852047 -0.14741376 -0.38593423
2.7755576e-17 0.0066534765 0.001604743 -0.23852047 -0.14741376 -0.38593423
0 0.0051605254 0.00053339481 -0.23852047 -0.14741376 -0.38593423
0.00032925847 0.0038844442 5.5511151e-17 -0.23852047 -0.14741376 -0.38593423
0.00098770903 0.0028189882 0 -0.23852047 -0.14741376 -0.38593423
0.026538134 0.017213952 0.039999999 -0.23852047 -0.14741376 -0.38593423
0.027264839 0.016038118 0.039999999 -0.23852047 -0.14741376 -0.38593423
0.0035826783 0 0.000990203 -0.23852047 -0.14741376 -0.38593423
0.006014768 0 0.0038143098 -0.23852047 -0.14741376 -0.38593423
0.0084827067 0 0.006680022 -0.23852047 -0.14741376 -0.38593423
0.010987327 0 0.0095883058 -0.23852047 -0.14741376 -0.38593423
0.013529489 0 0.012540159 -0.23852047 -0.14741376 -0.38593423
0.016110078 0 0.015536607 -0.23852047 -0.14741376 -0.38593423
0.018730005 0 0.018578714 -0.23852047 -0.14741376 -0.38593423
0.021390216 0 0.021667572 -0.23852047 -0.14741376 -0.38593423
0.024091683 0 0.024804309 -0.23852047 -0.14741376 -0.38593423
0.026835414 0 0.027990095 -0.23852047 -0.14741376 -0.38593423
0.029622441 0 0.031226132 -0.23852047 -0.14741376 -0.38593423
0.032453839 0 0.034513664 -0.23852047 -0.14741376 -0.38593423
0.035330717 0 0.037853979 -0.23852047 -0.14741376 -0.38593423
0.0040430953 0.072051816 0.050795145 -0.23852047 -0.14741376 -0.38593423
0.0017160374 0.06806536 0.045264594 -0.23852047 -0.14741376 -0.38593423
0.00075793557 0.065345116 0.042218454 -0.23852047 -0.14741376 -0.38593423
0 0.062828623 0.039548811 -0.23852047 -0.14741376 -0.38593423
2.7755576e-17 0.060998335 0.038244087 -0.23852047 -0.14741376 -0.38593423
0 0.059180174 0.036947969 -0.23852047 -0.14741376 -0.38593423
0 0.057373997 0.035660349 -0.23852047 -0.14741376 -0.38593423
5.5511151e-17 0.055579655 0.034381133 -0.23852047 -0.14741376 -0.38593423
0 0.053797014 0.033110216 -0.23852047 -0.14741376 -0.38593423
2.7755576e-17 0.052025937 0.031847503 -0.23852047 -0.14741376 -0.38593423
2.7755576e-17 0.050266284 0.030592898 -0.23852047 -0.14741376 -0.38593423
2.7755576e-17 0.048517924 0.029346304 -0.23852047 -0.14741376 -0.38593423
2.7755576e-17 0.04678072 0.028107628 -0.23852047 -0.14741376 -0.38593423
2.7755576e-17 0.045054551 0.026876777 -0.23852047 -0.14741376 -0.38593423
2.7755576e-17 0.043339282 0.025653662 -0.23852047 -0.14741376 -0.38593423
2.7755576e-17 0.041634791 0.024438193 -0.23852047 -0.14741376 -0.38593423
0 0.03994095 0.023230283 -0.23852047 -0.14741376 -0.38593423
2.7755576e-17 0.038257644 0.022029843 -0.23852047 -0.14741376 -0.38593423
0 0.036584742 0.020836787 -0.23852047 -0.14741376 -0.38593423
0 0.034922134 0.019651033 -0.23852047 -0.14741376 -0.38593423
0 0.0332697 0.018472498 -0.23852047 -0.14741376 -0.38593423
0 0.031627323 0.017301098 -0.23852047 -0.14741376 -0.38593423
0 0.029994896 0.016136754 -0.23852047 -0.14741376 -0.38593423
2.7755576e-17 0.028372299 0.014979386 -0.23852047 -0.14741376 -0.38593423
2.7755576e-17 0.026759425 0.013828916 -0.23852047 -0.14741376 -0.38593423
0 0.025156165 0.012685265 -0.23852047 -0.14741376 -0.38593423
2.7755576e-17 0.023562413 0.01154836 -0.23852047 -0.14741376 -0.38593423
2.7755576e-17 0.021978062 0.010418124 -0.23852047 -0.14741376 -0.38593423
2.7755576e-17 0.020403009 0.0092944819 -0.23852047 -0.14741376 -0.38593423
2.7755576e-17 0.01883715 0.0081773633 -0.23852047 -0.14741376 -0.38593423
0 0.017280383 0.0070666946 -0.23852047 -0.14741376 -0.38593423
0 0.015732611 0.0059624054 -0.23852047 -0.14741376 -0.38593423
2.7755576e-17 0.014193733 0.0048644259 -0.23852047 -0.14741376 -0.38593423
0 0.012663654 0.0037726867 -0.23852047 -0.14741376 -0.38593423
2.7755576e-17 0.011142276 0.0026871203 -0.23852047 -0.14741376 -0.38593423
0 0.0096295057 0.0016076595 -0.23852047 -0.14741376 -0.38593423
0 0.0081252502 0.000534238 -0.23852047 -0.14741376 -0.38593423
0.00032999745 0.0068425392 0 -0.23852047 -0.14741376 -0.38593423
0.00098969741 0.0057749194 5.5511151e-17 -0.23852047 -0.14741376 -0.38593423
0.0016493882 0.0047073648 0 -0.23852047 -0.14741376 -0.38593423
0.002309079 0.003639861 0 -0.23852047 -0.14741376 -0.38593423
0.0029687788 0.0025723935 0 -0.23852047 -0.14741376 -0.38593423
0.003628497 0.0015049474 0 -0.23852047 -0.14741376 -0.38593423
0.0042882422 0.00043750799 0 -0.23852047 -0.14741376 -0.38593423
0.0059928969 0 0.0016562807 -0.23852047 -0.14741376 -0.38593423
0.008451635 0 0.0044956417 -0.23852047 -0.14741376 -0.38593423
0.010946783 2.7755576e-17 0.0073770126 -0.23852047 -0.14741376 -0.38593423
0.013479191 0 0.010301373 -0.23852047 -0.14741376 -0.38593423
0.016049733 0 0.013269733 -0.23852047 -0.14741376 -0.38593423
0.018659314 0 0.016283136 -0.23852047 -0.14741376 -0.38593423
0.021308867 0 0.019342657 -0.23852047 -0.14741376 -0.38593423
0.023999354 0 0.022449406 -0.23852047 -0.14741376 -0.38593423
0.036010187 0.0051564774 0.039999999 -0.23852047 -0.14741376 -0.38593423
0.029507129 0 0.028809212 -0.23852047 -0.14741376 -0.38593423
0.032326505 0 0.032064673 -0.23852047 -0.14741376 -0.38593423
0.035190985 0 0.035372175 -0.23852047 -0.14741376 -0.38593423
0.038101699 0 0.038733028 -0.23852047 -0.14741376 -0.38593423
0.0035516182 0.071326941 0.047316268 -0.23852047 -0.14741376 -0.38593423
2.7755576e-17 0.06625852 0.039642528 -0.23852047 -0.14741376 -0.38593423
2.7755576e-17 0.064411871 0.038334101 -0.23852047 -0.14741376 -0.38593423
0 0.062577546 0.037034344 -0.23852047 -0.14741376 -0.38593423
0 0.060755379 0.035743151 -0.23852047 -0.14741376 -0.38593423
2.7755576e-17 0.058945235 0.034460422 -0.23852047 -0.14741376 -0.38593423
2.7755576e-17 0.057146974 0.033186059 -0.23852047 -0.14741376 -0.38593423
2.7755576e-17 0.055360451 0.031919956 -0.23852047 -0.14741376 -0.38593423
0 0.053585529 0.030662024 -0.23852047 -0.14741376 -0.38593423
2.7755576e-17 0.051822074 0.029412162 -0.23852047 -0.14741376 -0.38593423
2.7755576e-17 0.050069951 0.028170275 -0.23852047 -0.14741376 -0.38593423
0 0.048329022 0.02693627 -0.23852047 -0.14741376 -0.38593423
2.7755576e-17 0.046599165 0.025710057 -0.23852047 -0.14741376 -0.38593423
0 0.044880245 0.024491547 -0.23852047 -0.14741376 -0.38593423
0 0.04317214 0.023280647 -0.23852047 -0.14741376 -0.38593423
0 0.041474722 0.02207727 -0.23852047 -0.14741376 -0.38593423
2.7755576e-17 0.039787874 0.020881331 -0.23852047 -0.14741376 -0.38593423
0 0.038111471 0.019692745 -0.23852047 -0.14741376 -0.38593423
0 0.03644539 0.018511428 -0.23852047 -0.14741376 -0.38593423
2.7755576e-17 0.034789525 0.017337294 -0.23852047 -0.14741376 -0.38593423
0 0.033143748 0.016170267 -0.23852047 -0.14741376 -0.38593423
0 0.031507954 0.015010263 -0.23852047 -0.14741376 -0.38593423
2.7755576e-17 0.029882027 0.013857204 -0.23852047 -0.14741376 -0.38593423
2.7755576e-17 0.028265856 0.012711012 -0.23852047 -0.14741376 -0.38593423
2.7755576e-17 0.026659332 0.011571608 -0.23852047 -0.14741376 -0.38593423
2.7755576e-17 0.025062349 0.01043892 -0.23852047 -0.14741376 -0.38593423
2.7755576e-17 0.023474799 0.0093128709 -0.23852047 -0.14741376 -0.38593423
0 0.02189658 0.0081933876 -0.23852047 -0.14741376 -0.38593423
0 0.020327587 0.0070803966 -0.23852047 -0.14741376 -0.38593423
0 0.018767718 0.0059738276 -0.23852047 -0.14741376 -0.38593423
0 0.017216874 0.0048736087 -0.23852047 -0.14741376 -0.38593423
0 0.015674956 0.0037796714 -0.23852047 -0.14741376 -0.38593423
2.7755576e-17 0.014141867 0.0026919465 -0.23852047 -0.14741376 -0.38593423
0 0.01261751 0.0016103663 -0.23852047 -0.14741376 -0.38593423
0 0.011101791 0.00053486414 -0.23852047 -0.14741376 -0.38593423
0.00033087534 0.0098124184 0 -0.23852047 -0.14741376 -0.38593423
0.025815986 0.024927301 0.039999999 -0.23852047 -0.14741376 -0.38593423
0.0016527659 0.0076727686 0 -0.23852047 -0.14741376 -0.38593423
0.0023136928 0.0066030812 0 -0.23852047 -0.14741376 -0.38593423
0.0029746194 0.0055334652 0 -0.23852047 -0.14741376 -0.38593423
0.0036355553 0.0044639059 0 -0.23852047 -0.14741376 -0.38593423
0.0042965091 0.0033943886 5.5511151e-17 -0.23852047 -0.14741376 -0.38593423
0.0049574906 0.0023248983 5.5511151e-17 -0.23852047 -0.14741376 -0.38593423
0.0056185084 0.0012554204 0 -0.23852047 -0.14741376 -0.38593423
0.0062795719 0.00018594004 0 -0.23852047 -0.14741376 -0.38593423
0.0084207887 0 0.0023271318 -0.23852047 -0.14741376 -0.38593423
0.010906535 0 0.005181904 -0.23852047 -0.14741376 -0.38593423
0.013429263 0 0.0080790957 -0.23852047 -0.14741376 -0.38593423
0.015989838 0 0.0110197 -0.23852047 -0.14741376 -0.38593423
0.018589154 0 0.014004743 -0.23852047 -0.14741376 -0.38593423
0.021228133 2.7755576e-17 0.017035281 -0.23852047 -0.14741376 -0.38593423
0.023907725 2.7755576e-17 0.020112405 -0.23852047 -0.14741376 -0.38593423
0.026628911 0 0.023237241 -0.23852047 -0.14741376 -0.38593423
0.029392706 0 0.026410952 -0.23852047 -0.14741376 -0.38593423
0.032200158 0 0.02963474 -0.23852047 -0.14741376 -0.38593423
0.035052348 0 0.032909844 -0.23852047 -0.14741376 -0.38593423
0.037950389 0 0.036237545 -0.23852047 -0.14741376 -0.38593423
2.7755576e-17 0.069707006 0.039736386 -0.23852047 -0.14741376 -0.38593423
0 0.067843758 0.038424235 -0.23852047 -0.14741376 -0.38593423
2.7755576e-17 0.065993011 0.037120815 -0.23852047 -0.14741376 -0.38593423
2.7755576e-17 0.064154625 0.035826031 -0.23852047 -0.14741376 -0.38593423
0 0.06232845 0.03453977 -0.23852047 -0.14741376 -0.38593423
2.7755576e-17 0.060514335 0.033261936 -0.23852047 -0.14741376 -0.38593423
2.7755576e-17 0.058712143 0.031992432 -0.23852047 -0.14741376 -0.38593423
2.7755576e-17 0.056921732 0.030731151 -0.23852047 -0.14741376 -0.38593423
2.7755576e-17 0.055142961 0.029478002 -0.23852047 -0.14741376 -0.38593423
0 0.053375691 0.028232887 -0.23852047 -0.14741376 -0.38593423
2.7755576e-17 0.051619794 0.026995713 -0.23852047 -0.14741376 -0.38593423
0 0.049875133 0.025766388 -0.23852047 -0.14741376 -0.38593423
2.7755576e-17 0.048141576 0.024544816 -0.23852047 -0.14741376 -0.38593423
2.7755576e-17 0.046418998 0.023330912 -0.23852047 -0.14741376 -0.38593423
0 0.044707272 0.022124587 -0.23852047 -0.14741376 -0.38593423
2.7755576e-17 0.043006271 0.020925749 -0.23852047 -0.14741376 -0.38593423
2.7755576e-17 0.041315872 0.019734317 -0.23852047 -0.14741376 -0.38593423
2.7755576e-17 0.039635956 0.018550204 -0.23852047 -0.14741376 -0.38593423
0 0.0379664 0.017373327 -0.23852047 -0.14741376 -0.38593423
2.7755576e-17 0.036307093 0.016203605 -0.23852047 -0.14741376 -0.38593423
0 0.03465791 0.015040952 -0.23852047 -0.14741376 -0.38593423
0 0.033018742 0.013885293 -0.23852047 -0.14741376 -0.38593423
2.7755576e-17 0.031389475 0.012736547 -0.23852047 -0.14741376 -0.38593423
2.7755576e-17 0.029769998 0.011594637 -0.23852047 -0.14741376 -0.38593423
0 0.028160203 0.010459486 -0.23852047 -0.14741376 -0.38593423
0 0.026559981 0.0093310187 -0.23852047 -0.14741376 -0.38593423
0 0.024969226 0.0082091615 -0.23852047 -0.14741376 -0.38593423
0 0.023387831 0.0070938393 -0.23852047 -0.14741376 -0.38593423
2.7755576e-17 0.021815695 0.0059849811 -0.23852047 -0.14741376 -0.38593423
2.7755576e-17 0.020252716 0.0048825154 -0.23852047 -0.14741376 -0.38593423
2.7755576e-17 0.018698793 0.0037863713 -0.23852047 -0.14741376 -0.38593423
2.7755576e-17 0.017153827 0.0026964804 -0.23852047 -0.14741376 -0.38593423
2.7755576e-17 0.01561772 0.0016127734 -0.23852047 -0.14741376 -0.38593423
0 0.014090376 0.00053518353 -0.23852047 -0.14741376 -0.38593423
0.00033194755 0.01279435 0 -0.23852047 -0.14741376 -0.38593423
0.0009941617 0.011722128 5.5511151e-17 -0.23852047 -0.14741376 -0.38593423
0.0016563481 0.010650042 0 -0.23852047 -0.14741376 -0.38593423
0.0023185159 0.0095780799 0 -0.23852047 -0.14741376 -0.38593423
0.028010964 0.02466649 0.039999999 -0.23852047 -0.14741376 -0.38593423
0.0036428326 0.0074344613 0 -0.23852047 -0.14741376 -0.38593423
0.004305 0.0063627753 0 -0.23852047 -0.14741376 -0.38593423
0.0049671857 0.0052911523 0 -0.23852047 -0.14741376 -0.38593423
0.0056293984 0.0042195772 0 -0.23852047 -0.14741376 -0.38593423
0.0062916479 0.0031480351 0 -0.23852047 -0.14741376 -0.38593423
0.0069539435 0.0020765108 0 -0.23852047 -0.14741376 -0.38593423
0.0076162941 0.0010049897 5.5511151e-17 -0.23852047 -0.14741376 -0.38593423
0.0083901649 0 0.00017429065 -0.23852047 -0.14741376 -0.38593423
0.01086658 0 0.0030027735 -0.23852047 -0.14741376 -0.38593423
0.013379701 0 0.0058731153 -0.23852047 -0.14741376 -0.38593423
0.015930384 0 0.0087862918 -0.23852047 -0.14741376 -0.38593423
0.018519515 2.7755576e-17 0.011743312 -0.23852047 -0.14741376 -0.38593423
0.021148002 0 0.014745214 -0.23852047 -0.14741376 -0.38593423
0.023816789 0 0.017793071 -0.23852047 -0.14741376 -0.38593423
0.02652684 0 0.020887988 -0.23852047 -0.14741376 -0.38593423
0.029279163 0 0.024031108 -0.23852047 -0.14741376 -0.38593423
0.03207479 0 0.027223613 -0.23852047 -0.14741376 -0.38593423
0.034914792 0 0.030466719 -0.23852047 -0.14741376 -0.38593423
0.037800267 0 0.033761688 -0.23852047 -0.14741376 -0.38593423
2.7755576e-17 0.073174395 0.039830294 -0.23852047 -0.14741376 -0.38593423
2.7755576e-17 0.071294293 0.038514391 -0.23852047 -0.14741376 -0.38593423
2.7755576e-17 0.069426902 0.037207291 -0.23852047 -0.14741376 -0.38593423
0 0.06757205 0.035908889 -0.23852047 -0.14741376 -0.38593423
2.7755576e-17 0.065729603 0.034619078 -0.23852047 -0.14741376 -0.38593423
2.7755576e-17 0.063899405 0.033337761 -0.23852047 -0.14741376 -0.38593423
0 0.062081315 0.032064829 -0.23852047 -0.14741376 -0.38593423
0 0.060275186 0.030800184 -0.23852047 -0.14741376 -0.38593423
2.7755576e-17 0.058480874 0.029543731 -0.23852047 -0.14741376 -0.38593423
0 0.056698244 0.028295372 -0.23852047 -0.14741376 -0.38593423
2.7755576e-17 0.054927155 0.02705501 -0.23852047 -0.14741376 -0.38593423
0 0.053167477 0.025822554 -0.23852047 -0.14741376 -0.38593423
2.7755576e-17 0.051419076 0.024597911 -0.23852047 -0.14741376 -0.38593423
2.7755576e-17 0.049681816 0.023380987 -0.23852047 -0.14741376 -0.38593423
2.7755576e-17 0.047955569 0.022171697 -0.23852047 -0.14741376 -0.38593423
2.7755576e-17 0.046240214 0.020969948 -0.23852047 -0.14741376 -0.38593423
2.7755576e-17 0.044535618 0.019775657 -0.23852047 -0.14741376 -0.38593423
2.7755576e-17 0.042841665 0.018588737 -0.23852047 -0.14741376 -0.38593423
2.7755576e-17 0.041158225 0.017409101 -0.23852047 -0.14741376 -0.38593423
2.7755576e-17 0.039485186 0.01623667 -0.23852047 -0.14741376 -0.38593423
2.7755576e-17 0.037822425 0.015071359 -0.23852047 -0.14741376 -0.38593423
0 0.036169827 0.013913088 -0.23852047 -0.14741376 -0.38593423
2.7755576e-17 0.034527279 0.012761779 -0.23852047 -0.14741376 -0.38593423
0 0.032894667 0.011617351 -0.23852047 -0.14741376 -0.38593423
2.7755576e-17 0.031271875 0.010479728 -0.23852047 -0.14741376 -0.38593423
0 0.029658802 0.0093488339 -0.23852047 -0.14741376 -0.38593423
0 0.028055331 0.0082245925 -0.23852047 -0.14741376 -0.38593423
0 0.026461361 0.0071069305 -0.23852047 -0.14741376 -0.38593423
0 0.024876785 0.0059957751 -0.23852047 -0.14741376 -0.38593423
0 0.023301499 0.0048910538 -0.23852047 -0.14741376 -0.38593423
2.7755576e-17 0.021735402 0.0037926957 -0.23852047 -0.14741376 -0.38593423
0 0.020178391 0.0027006308 -0.23852047 -0.14741376 -0.38593423
0 0.018630369 0.0016147902 -0.23852047 -0.14741376 -0.38593423
0 0.017091237 0.00053510576 -0.23852047 -0.14741376 -0.38593423
0.00033326994 0.015788611 0 -0.23852047 -0.14741376 -0.38593423
0.00099674903 0.014713949 0 -0.23852047 -0.14741376 -0.38593423
0.0016601909 0.013639459 0 -0.23852047 -0.14741376 -0.38593423
0.0023236049 0.012565129 0 -0.23852047 -0.14741376 -0.38593423
0.028017946 0.027960556 0.039999999 -0.23852047 -0.14741376 -0.38593423
0.028750088 0.026775176 0.039999999 -0.23852047 -0.14741376 -0.38593423
0.0043137711 0.0093429359 0 -0.23852047 -0.14741376 -0.38593423
0.0049771657 0.0082690893 5.5511151e-17 -0.23852047 -0.14741376 -0.38593423
0.0056405785 0.007195326 0 -0.23852047 -0.14741376 -0.38593423
0.0063040182 0.0061216312 0 -0.23852047 -0.14741376 -0.38593423
0.032410998 0.020849828 0.039999999 -0.23852047 -0.14741376 -0.38593423
0.033143289 0.019664953 0.039999999 -0.23852047 -0.14741376 -0.38593423
0.0082945963 0.0029008093 0 -0.23852047 -0.14741376 -0.38593423
0.0089582382 0.0018272394 0 -0.23852047 -0.14741376 -0.38593423
0.0096219545 0.0007536636 0 -0.23852047 -0.14741376 -0.38593423
0.010826914 0 0.00083941809 -0.23852047 -0.14741376 -0.38593423
0.013330501 0 0.0036832229 -0.23852047 -0.14741376 -0.38593423
0.015871368 0 0.0065692943 -0.23852047 -0.14741376 -0.38593423
0.018450392 0 0.0094986232 -0.23852047 -0.14741376 -0.38593423
0.021068471 0 0.012472231 -0.23852047 -0.14741376 -0.38593423
0.023726534 0 0.015491171 -0.23852047 -0.14741376 -0.38593423
0.026425544 0 0.018556532 -0.23852047 -0.14741376 -0.38593423
0.029166488 0 0.021669434 -0.23852047 -0.14741376 -0.38593423
0.031950388 0 0.024831042 -0.23852047 -0.14741376 -0.38593423
0.034778304 0 0.028042546 -0.23852047 -0.14741376 -0.38593423
0.037651319 0 0.031305186 -0.23852047 -0.14741376 -0.38593423
2.7755576e-17 0.076661021 0.039924141 -0.23852047 -0.14741376 -0.38593423
5.5511151e-17 0.07476382 0.038604472 -0.23852047 -0.14741376 -0.38593423
2.7755576e-17 0.072879523 0.037293669 -0.23852047 -0.14741376 -0.38593423
2.7755576e-17 0.071007974 0.035991631 -0.23852047 -0.14741376 -0.38593423
0 0.069149017 0.034698252 -0.23852047 -0.14741376 -0.38593423
5.5511151e-17 0.067302495 0.033413425 -0.23852047 -0.14741376 -0.38593423
2.7755576e-17 0.065468274 0.032137047 -0.23852047 -0.14741376 -0.38593423
0 0.06364619 0.030869024 -0.23852047 -0.14741376 -0.38593423
2.7755576e-17 0.061836116 0.02960925 -0.23852047 -0.14741376 -0.38593423
2.7755576e-17 0.0600379 0.028357629 -0.23852047 -0.14741376 -0.38593423
2.7755576e-17 0.058251403 0.027114064 -0.23852047 -0.14741376 -0.38593423
0 0.056476489 0.025878463 -0.23852047 -0.14741376 -0.38593423
2.7755576e-17 0.054713018 0.02465073 -0.23852047 -0.14741376 -0.38593423
2.7755576e-17 0.052960865 0.023430774 -0.23852047 -0.14741376 -0.38593423
0 0.051219895 0.022218503 -0.23852047 -0.14741376 -0.38593423
0 0.049489975 0.02101383 -0.23852047 -0.14741376 -0.38593423
2.7755576e-17 0.047770981 0.019816667 -0.23852047 -0.14741376 -0.38593423
2.7755576e-17 0.046062786 0.018626925 -0.23852047 -0.14741376 -0.38593423
2.7755576e-17 0.044365264 0.017444521 -0.23852047 -0.14741376 -0.38593423
0 0.0426783 0.016269369 -0.23852047 -0.14741376 -0.38593423
2.7755576e-17 0.041001767 0.015101389 -0.23852047 -0.14741376 -0.38593423
2.7755576e-17 0.039335549 0.013940496 -0.23852047 -0.14741376 -0.38593423
0 0.037679527 0.012786612 -0.23852047 -0.14741376 -0.38593423
2.7755576e-17 0.036033589 0.011639656 -0.23852047 -0.14741376 -0.38593423
0 0.034397621 0.010499552 -0.23852047 -0.14741376 -0.38593423
2.7755576e-17 0.032771509 0.0093662208 -0.23852047 -0.14741376 -0.38593423
0 0.031155147 0.0082395878 -0.23852047 -0.14741376 -0.38593423
0 0.029548423 0.0071195774 -0.23852047 -0.14741376 -0.38593423
0 0.027951229 0.006006116 -0.23852047 -0.14741376 -0.38593423
0 0.026363464 0.0048991316 -0.23852047 -0.14741376 -0.38593423
0 0.024785019 0.0037985519 -0.23852047 -0.14741376 -0.38593423
0 0.023215797 0.0027043063 -0.23852047 -0.14741376 -0.38593423
0 0.02165569 0.001616325 -0.23852047 -0.14741376 -0.38593423
0 0.020104604 0.00053453952 -0.23852047 -0.14741376 -0.38593423
0.00033489888 0.018795479 5.5511151e-17 -0.23852047 -0.14741376 -0.38593423
0.00099964836 0.017718282 0 -0.23852047 -0.14741376 -0.38593423
0.026558211 0.033644717 0.039999999 -0.23852047 -0.14741376 -0.38593423
0.0023290163 0.015564501 5.5511151e-17 -0.23852047 -0.14741376 -0.38593423
0.0029936533 0.014487889 5.5511151e-17 -0.23852047 -0.14741376 -0.38593423
0.0036582714 0.01341144 0 -0.23852047 -0.14741376 -0.38593423
0.0043228799 0.012335142 0 -0.23852047 -0.14741376 -0.38593423
0.004987488 0.011258978 0 -0.23852047 -0.14741376 -0.38593423
0.005652105 0.010182935 0 -0.23852047 -0.14741376 -0.38593423
0.0063167405 0.0091069965 0 -0.23852047 -0.14741376 -0.38593423
0.0069814031 0.0080311466 5.5511151e-17 -0.23852047 -0.14741376 -0.38593423
0.033159938 0.0229549 0.039999999 -0.23852047 -0.14741376 -0.38593423
0.0083108479 0.0058796569 5.5511151e-17 -0.23852047 -0.14741376 -0.38593423
0.0089756493 0.0048039868 5.5511151e-17 -0.23852047 -0.14741376 -0.38593423
0.0096405149 0.0037283457 0 -0.23852047 -0.14741376 -0.38593423
0.010305454 0.0026527194 5.5511151e-17 -0.23852047 -0.14741376 -0.38593423
0.010970477 0.0015770925 0 -0.23852047 -0.14741376 -0.38593423
0.011635592 0.00050145003 0 -0.23852047 -0.14741376 -0.38593423
0.013281657 0 0.0015092138 -0.23852047 -0.14741376 -0.38593423
0.015812784 0 0.0043684971 -0.23852047 -0.14741376 -0.38593423
0.018381778 0 0.0072704609 -0.23852047 -0.14741376 -0.38593423
0.02098953 0 0.010216109 -0.23852047 -0.14741376 -0.38593423
0.023636958 0 0.01320648 -0.23852047 -0.14741376 -0.38593423
0.02632501 0 0.01624264 -0.23852047 -0.14741376 -0.38593423
0.029054668 0 0.019325692 -0.23852047 -0.14741376 -0.38593423
0.031826939 0 0.022456778 -0.23852047 -0.14741376 -0.38593423
0.034642868 0 0.025637072 -0.23852047 -0.14741376 -0.38593423
0.037503529 0 0.028867787 -0.23852047 -0.14741376 -0.38593423
2.7755576e-17 0.078252658 0.038694374 -0.23852047 -0.14741376 -0.38593423
2.7755576e-17 0.07635121 0.03737985 -0.23852047 -0.14741376 -0.38593423
2.7755576e-17 0.074462712 0.036074154 -0.23852047 -0.14741376 -0.38593423
2.7755576e-17 0.072586998 0.034777183 -0.23852047 -0.14741376 -0.38593423
2.7755576e-17 0.070723921 0.033488832 -0.23852047 -0.14741376 -0.38593423
2.7755576e-17 0.068873324 0.032208994 -0.23852047 -0.14741376 -0.38593423
2.7755576e-17 0.067035064 0.030937569 -0.23852047 -0.14741376 -0.38593423
0 0.065208986 0.029674457 -0.23852047 -0.14741376 -0.38593423
2.7755576e-17 0.063394956 0.028419558 -0.23852047 -0.14741376 -0.38593423
0 0.061592825 0.027172776 -0.23852047 -0.14741376 -0.38593423
2.7755576e-17 0.059802454 0.025934013 -0.23852047 -0.14741376 -0.38593423
2.7755576e-17 0.058023702 0.024703177 -0.23852047 -0.14741376 -0.38593423
2.7755576e-17 0.05625644 0.023480173 -0.23852047 -0.14741376 -0.38593423
2.7755576e-17 0.054500528 0.022264911 -0.23852047 -0.14741376 -0.38593423
0 0.052755836 0.021057298 -0.23852047 -0.14741376 -0.38593423
2.7755576e-17 0.051022235 0.01985725 -0.23852047 -0.14741376 -0.38593423
0 0.049299594 0.018664675 -0.23852047 -0.14741376 -0.38593423
2.7755576e-17 0.04758779 0.01747949 -0.23852047 -0.14741376 -0.38593423
0 0.045886699 0.016301608 -0.23852047 -0.14741376 -0.38593423
0 0.044196196 0.015130945 -0.23852047 -0.14741376 -0.38593423
0 0.042516161 0.01396742 -0.23852047 -0.14741376 -0.38593423
0 0.040846478 0.012810951 -0.23852047 -0.14741376 -0.38593423
0 0.039187025 0.011661459 -0.23852047 -0.14741376 -0.38593423
2.7755576e-17 0.03753769 0.010518863 -0.23852047 -0.14741376 -0.38593423
2.7755576e-17 0.035898361 0.0093830861 -0.23852047 -0.14741376 -0.38593423
0 0.034268919 0.0082540521 -0.23852047 -0.14741376 -0.38593423
0 0.032649264 0.0071316855 -0.23852047 -0.14741376 -0.38593423
2.7755576e-17 0.031039275 0.0060159112 -0.23852047 -0.14741376 -0.38593423
0 0.029438853 0.0049066558 -0.23852047 -0.14741376 -0.38593423
0 0.02784789 0.0038038471 -0.23852047 -0.14741376 -0.38593423
0 0.026266281 0.0027074139 -0.23852047 -0.14741376 -0.38593423
0 0.024693921 0.0016172857 -0.23852047 -0.14741376 -0.38593423
0 0.023130713 0.00053339289 -0.23852047 -0.14741376 -0.38593423
0.0003368913 0.02181524 5.5511151e-17 -0.23852047 -0.14741376 -0.38593423
0.0010029167 0.020735411 0 -0.23852047 -0.14741376 -0.38593423
0.0016688857 0.019655829 0 -0.23852047 -0.14741376 -0.38593423
0.0023348075 0.018576479 0 -0.23852047 -0.14741376 -0.38593423
0.0030006918 0.017497346 5.5511151e-17 -0.23852047 -0.14741376 -0.38593423
0.0036665474 0.016418414 0 -0.23852047 -0.14741376 -0.38593423
0.029502772 0.032208186 0.039999999 -0.23852047 -0.14741376 -0.38593423
0.0049982108 0.014261096 0 -0.23852047 -0.14741376 -0.38593423
0.0056640371 0.013182678 0 -0.23852047 -0.14741376 -0.38593423
0.0063298722 0.012104402 5.5511151e-17 -0.23852047 -0.14741376 -0.38593423
0.0069957254 0.011026252 0 -0.23852047 -0.14741376 -0.38593423
0.0076616067 0.0099482127 5.5511151e-17 -0.23852047 -0.14741376 -0.38593423
0.0083275242 0.0088702692 0 -0.23852047 -0.14741376 -0.38593423
0.0089934878 0.0077924062 0 -0.23852047 -0.14741376 -0.38593423
0.035382021 0.022689182 0.039999999 -0.23852047 -0.14741376 -0.38593423
0.036117144 0.021499734 0.039999999 -0.23852047 -0.14741376 -0.38593423
0.01099175 0.0045591509 5.5511151e-17 -0.23852047 -0.14741376 -0.38593423
0.011657991 0.0034814596 0 -0.23852047 -0.14741376 -0.38593423
0.012324327 0.0024037738 0 -0.23852047 -0.14741376 -0.38593423
0.012990763 0.001326078 0 -0.23852047 -0.14741376 -0.38593423
0.013657312 0.00024835713 0 -0.23852047 -0.14741376 -0.38593423
0.015754625 0 0.0021836932 -0.23852047 -0.14741376 -0.38593423
0.018313667 0 0.0050586136 -0.23852047 -0.14741376 -0.38593423
0.02091117 0 0.0079766344 -0.23852047 -0.14741376 -0.38593423
0.023548044 0 0.010938774 -0.23852047 -0.14741376 -0.38593423
0.02622523 0 0.013946083 -0.23852047 -0.14741376 -0.38593423
0.028943691 0 0.016999647 -0.23852047 -0.14741376 -0.38593423
0.031704426 0 0.020100582 -0.23852047 -0.14741376 -0.38593423
0.03450847 0 0.023250047 -0.23852047 -0.14741376 -0.38593423
0.037356883 0 0.026449233 -0.23852047 -0.14741376 -0.38593423
2.7755576e-17 0.079842292 0.037465729 -0.23852047 -0.14741376 -0.38593423
0 0.077936582 0.036156356 -0.23852047 -0.14741376 -0.38593423
2.7755576e-17 0.076043867 0.034855776 -0.23852047 -0.14741376 -0.38593423
2.7755576e-17 0.074163988 0.033563882 -0.23852047 -0.14741376 -0.38593423
0 0.072296776 0.032280564 -0.23852047 -0.14741376 -0.38593423
0 0.070442095 0.031005722 -0.23852047 -0.14741376 -0.38593423
0 0.06859979 0.029739255 -0.23852047 -0.14741376 -0.38593423
2.7755576e-17 0.066769712 0.028481061 -0.23852047 -0.14741376 -0.38593423
0 0.064951718 0.027231045 -0.23852047 -0.14741376 -0.38593423
2.7755576e-17 0.063145667 0.025989106 -0.23852047 -0.14741376 -0.38593423
2.7755576e-17 0.061351415 0.024755152 -0.23852047 -0.14741376 -0.38593423
2.7755576e-17 0.059568822 0.023529086 -0.23852047 -0.14741376 -0.38593423
0 0.057797752 0.022310818 -0.23852047 -0.14741376 -0.38593423
2.7755576e-17 0.056038078 0.021100255 -0.23852047 -0.14741376 -0.38593423
0 0.054289658 0.019897308 -0.23852047 -0.14741376 -0.38593423
0 0.052552365 0.018701889 -0.23852047 -0.14741376 -0.38593423
0 0.050826073 0.01751391 -0.23852047 -0.14741376 -0.38593423
0 0.049110655 0.016333286 -0.23852047 -0.14741376 -0.38593423
2.7755576e-17 0.047405981 0.015159932 -0.23852047 -0.14741376 -0.38593423
2.7755576e-17 0.045711935 0.013993764 -0.23852047 -0.14741376 -0.38593423
0 0.044028394 0.012834701 -0.23852047 -0.14741376 -0.38593423
0 0.042355236 0.011682661 -0.23852047 -0.14741376 -0.38593423
0 0.040692344 0.010537566 -0.23852047 -0.14741376 -0.38593423
0 0.039039604 0.0093993349 -0.23852047 -0.14741376 -0.38593423
0 0.037396904 0.0082678916 -0.23852047 -0.14741376 -0.38593423
0 0.035764128 0.0071431603 -0.23852047 -0.14741376 -0.38593423
2.7755576e-17 0.034141168 0.0060250652 -0.23852047 -0.14741376 -0.38593423
2.7755576e-17 0.032527912 0.0049135322 -0.23852047 -0.14741376 -0.38593423
2.7755576e-17 0.030924251 0.0038084877 -0.23852047 -0.14741376 -0.38593423
0 0.029330082 0.0027098602 -0.23852047 -0.14741376 -0.38593423
2.7755576e-17 0.027745299 0.0016175787 -0.23852047 -0.14741376 -0.38593423
0 0.026169799 0.00053157279 -0.23852047 -0.14741376 -0.38593423
0.00033930459 0.024848182 0 -0.23852047 -0.14741376 -0.38593423
0.0010066117 0.023765625 0 -0.23852047 -0.14741376 -0.38593423
0.0016738526 0.02268335 0 -0.23852047 -0.14741376 -0.38593423
0.0023410367 0.021601347 0 -0.23852047 -0.14741376 -0.38593423
0.0030081731 0.020519597 0 -0.23852047 -0.14741376 -0.38593423
0.0036752718 0.019438086 0 -0.23852047 -0.14741376 -0.38593423
0.0043423413 0.0183568 5.5511151e-17 -0.23852047 -0.14741376 -0.38593423
0.030249948 0.034344897 0.039999999 -0.23852047 -0.14741376 -0.38593423
0.0056764325 0.016194835 0 -0.23852047 -0.14741376 -0.38593423
0.0063434723 0.015114127 0 -0.23852047 -0.14741376 -0.38593423
0.0070105214 0.014033581 0 -0.23852047 -0.14741376 -0.38593423
0.033194687 0.029574353 0.039999999 -0.23852047 -0.14741376 -0.38593423
0.0083446829 0.011872918 5.5511151e-17 -0.23852047 -0.14741376 -0.38593423
0.034667198 0.027190024 0.039999999 -0.23852047 -0.14741376 -0.38593423
0.0096789915 0.009712724 0 -0.23852047 -0.14741376 -0.38593423
0.036139913 0.024806146 0.039999999 -0.23852047 -0.14741376 -0.38593423
0.011013523 0.0075528771 0 -0.23852047 -0.14741376 -0.38593423
0.011680895 0.0064730453 0 -0.23852047 -0.14741376 -0.38593423
0.03834955 0.021230878 0.039999999 -0.23852047 -0.14741376 -0.38593423
0.013015901 0.0043134913 0 -0.23852047 -0.14741376 -0.38593423
0.013683553 0.0032337382 0 -0.23852047 -0.14741376 -0.38593423
0.014351317 0.002153981 0 -0.23852047 -0.14741376 -0.38593423
0.015019202 0.0010742043 0 -0.23852047 -0.14741376 -0.38593423
0.015696887 0 1.4679741e-05 -0.23852047 -0.14741376 -0.38593423
0.018246051 0 0.0028628723 -0.23852047 -0.14741376 -0.38593423
0.020833384 0 0.0057535903 -0.23852047 -0.14741376 -0.38593423
0.02345979 0 0.0086878343 -0.23852047 -0.14741376 -0.38593423
0.026126193 0 0.011666638 -0.23852047 -0.14741376 -0.38593423
0.028833548 0 0.014691065 -0.23852047 -0.14741376 -0.38593423
0.031582844 0 0.017762218 -0.23852047 -0.14741376 -0.38593423
0.034375098 0 0.02088123 -0.23852047 -0.14741376 -0.38593423
0.037211366 0 0.024049275 -0.23852047 -0.14741376 -0.38593423
5.5511151e-17 0.07951995 0.034933928 -0.23852047 -0.14741376 -0.38593423
2.7755576e-17 0.077623017 0.03363847 -0.23852047 -0.14741376 -0.38593423
0 0.075738952 0.032351654 -0.23852047 -0.14741376 -0.38593423
2.7755576e-17 0.073867612 0.031073378 -0.23852047 -0.14741376 -0.38593423
2.7755576e-17 0.072008841 0.029803541 -0.23852047 -0.14741376 -0.38593423
0 0.070162483 0.028542038 -0.23852047 -0.14741376 -0.38593423
2.7755576e-17 0.068328395 0.02728877 -0.23852047 -0.14741376 -0.38593423
2.7755576e-17 0.066506431 0.026043642 -0.23852047 -0.14741376 -0.38593423
2.7755576e-17 0.064696446 0.024806553 -0.23852047 -0.14741376 -0.38593423
2.7755576e-17 0.062898301 0.023577414 -0.23852047 -0.14741376 -0.38593423
0 0.06111186 0.022356126 -0.23852047 -0.14741376 -0.38593423
2.7755576e-17 0.059336983 0.0211426 -0.23852047 -0.14741376 -0.38593423
2.7755576e-17 0.057573531 0.019936744 -0.23852047 -0.14741376 -0.38593423
0 0.055821378 0.018738467 -0.23852047 -0.14741376 -0.38593423
2.7755576e-17 0.054080389 0.017547684 -0.23852047 -0.14741376 -0.38593423
0 0.052350435 0.016364308 -0.23852047 -0.14741376 -0.38593423
2.7755576e-17 0.050631393 0.015188251 -0.23852047 -0.14741376 -0.38593423
2.7755576e-17 0.048923135 0.014019431 -0.23852047 -0.14741376 -0.38593423
2.7755576e-17 0.047225535 0.012857763 -0.23852047 -0.14741376 -0.38593423
0 0.045538478 0.011703168 -0.23852047 -0.14741376 -0.38593423
0 0.04386184 0.010555563 -0.23852047 -0.14741376 -0.38593423
0 0.042195503 0.0094148703 -0.23852047 -0.14741376 -0.38593423
2.7755576e-17 0.040539354 0.0082810102 -0.23852047 -0.14741376 -0.38593423
0 0.038893275 0.0071539064 -0.23852047 -0.14741376 -0.38593423
0 0.037257154 0.006033483 -0.23852047 -0.14741376 -0.38593423
0 0.035630882 0.0049196654 -0.23852047 -0.14741376 -0.38593423
0 0.034014348 0.0038123787 -0.23852047 -0.14741376 -0.38593423
0 0.032407444 0.0027115508 -0.23852047 -0.14741376 -0.38593423
2.7755576e-17 0.030810062 0.00161711 -0.23852047 -0.14741376 -0.38593423
0 0.029222099 0.0005289854 -0.23852047 -0.14741376 -0.38593423
0.00034219676 0.027894599 5.5511151e-17 -0.23852047 -0.14741376 -0.38593423
0.0010107914 0.026809214 0 -0.23852047 -0.14741376 -0.38593423
0.0016793099 0.02572415 0 -0.23852047 -0.14741376 -0.38593423
0.0023477618 0.024639394 0 -0.23852047 -0.14741376 -0.38593423
0.0030161564 0.02355493 0 -0.23852047 -0.14741376 -0.38593423
0.003684503 0.022470742 0 -0.23852047 -0.14741376 -0.38593423
0.0043528113 0.021386817 0 -0.23852047 -0.14741376 -0.38593423
0.0050210906 0.020303136 0 -0.23852047 -0.14741376 -0.38593423
0.031000379 0.036490344 0.039999999 -0.23852047 -0.14741376 -0.38593423
0.0063576004 0.018136451 0 -0.23852047 -0.14741376 -0.38593423
0.032475401 0.034099549 0.039999999 -0.23852047 -0.14741376 -0.38593423
0.007694107 0.015970564 0 -0.23852047 -0.14741376 -0.38593423
0.033950459 0.031709574 0.039999999 -0.23852047 -0.14741376 -0.38593423
0.0090306858 0.013805355 5.5511151e-17 -0.23852047 -0.14741376 -0.38593423
0.035425637 0.029320274 0.039999999 -0.23852047 -0.14741376 -0.38593423
0.010367413 0.011640701 0 -0.23852047 -0.14741376 -0.38593423
0.03690102 0.026931521 0.039999999 -0.23852047 -0.14741376 -0.38593423
0.011704363 0.0094764791 0 -0.23852047 -0.14741376 -0.38593423
0.012372945 0.0083944919 0 -0.23852047 -0.14741376 -0.38593423
0.013041611 0.0073125679 0 -0.23852047 -0.14741376 -0.38593423
0.01371037 0.0062306905 0 -0.23852047 -0.14741376 -0.38593423
0.015048207 0.0040670172 0 -0.23852047 -0.14741376 -0.38593423
0.016386531 0.0019033495 0 -0.23852047 -0.14741376 -0.38593423
0.017055899 0.00082147983 5.5511151e-17 -0.23852047 -0.14741376 -0.38593423
0.018178923 2.7755576e-17 0.00068303203 -0.23852047 -0.14741376 -0.38593423
0.020756168 0 0.0035467667 -0.23852047 -0.14741376 -0.38593423
0.023372184 0 0.0064534442 -0.23852047 -0.14741376 -0.38593423
0.026027888 0 0.00940408 -0.23852047 -0.14741376 -0.38593423
0.028724227 0 0.012399722 -0.23852047 -0.14741376 -0.38593423
0.031462174 0 0.015441449 -0.23852047 -0.14741376 -0.38593423
0.034242738 0 0.01853038 -0.23852047 -0.14741376 -0.38593423
0.037066959 0 0.021667663 -0.23852047 -0.14741376 -0.38593423
0.039935909 0 0.024854491 -0.23852047 -0.14741376 -0.38593423
0.00084185734 0.079999998 0.033898752 -0.23852047 -0.14741376 -0.38593423
0 0.077311918 0.031140439 -0.23852047 -0.14741376 -0.38593423
0 0.075436436 0.029867211 -0.23852047 -0.14741376 -0.38593423
0 0.07357356 0.028602382 -0.23852047 -0.14741376 -0.38593423
2.7755576e-17 0.071723141 0.027345851 -0.23852047 -0.14741376 -0.38593423
2.7755576e-17 0.069885038 0.026097517 -0.23852047 -0.14741376 -0.38593423
0 0.068059102 0.024857285 -0.23852047 -0.14741376 -0.38593423
2.7755576e-17 0.066245183 0.023625055 -0.23852047 -0.14741376 -0.38593423
0 0.064443141 0.022400735 -0.23852047 -0.14741376 -0.38593423
0 0.062652841 0.021184232 -0.23852047 -0.14741376 -0.38593423
0 0.060874142 0.019975454 -0.23852047 -0.14741376 -0.38593423
2.7755576e-17 0.059106912 0.01877431 -0.23852047 -0.14741376 -0.38593423
2.7755576e-17 0.057351016 0.017580712 -0.23852047 -0.14741376 -0.38593423
2.7755576e-17 0.055606321 0.016394572 -0.23852047 -0.14741376 -0.38593423
2.7755576e-17 0.053872701 0.015215803 -0.23852047 -0.14741376 -0.38593423
2.7755576e-17 0.052150026 0.01404432 -0.23852047 -0.14741376 -0.38593423
2.7755576e-17 0.050438173 0.012880039 -0.23852047 -0.14741376 -0.38593423
0 0.048737016 0.011722879 -0.23852047 -0.14741376 -0.38593423
2.7755576e-17 0.047046434 0.010572758 -0.23852047 -0.14741376 -0.38593423
2.7755576e-17 0.04536631 0.0094295936 -0.23852047 -0.14741376 -0.38593423
2.7755576e-17 0.043696519 0.0082933102 -0.23852047 -0.14741376 -0.38593423
2.7755576e-17 0.042036951 0.0071638268 -0.23852047 -0.14741376 -0.38593423
0 0.040387489 0.0060410686 -0.23852047 -0.14741376 -0.38593423
2.7755576e-17 0.038748018 0.004924959 -0.23852047 -0.14741376 -0.38593423
0 0.037118427 0.0038154242 -0.23852047 -0.14741376 -0.38593423
0 0.035498608 0.0027123902 -0.23852047 -0.14741376 -0.38593423
0 0.033888452 0.0016157846 -0.23852047 -0.14741376 -0.38593423
0 0.032287851 0.00052553596 -0.23852047 -0.14741376 -0.38593423
0.039970521 0.060543898 0.064021654 -0.23852047 -0.14741376 -0.38593423
0.0010155146 0.029866476 0 -0.23852047 -0.14741376 -0.38593423
0.0016853166 0.028778523 5.5511151e-17 -0.23852047 -0.14741376 -0.38593423
0.0023550419 0.027690915 0 -0.23852047 -0.14741376 -0.38593423
0.0030247001 0.026603639 0 -0.23852047 -0.14741376 -0.38593423
0.0036943008 0.025516676 0 -0.23852047 -0.14741376 -0.38593423
0.004363853 0.024430012 0 -0.23852047 -0.14741376 -0.38593423
0.0050333668 0.023343632 5.5511151e-17 -0.23852047 -0.14741376 -0.38593423
0.0057028509 0.02225752 0 -0.23852047 -0.14741376 -0.38593423
0.0063723158 0.021171659 0 -0.23852047 -0.14741376 -0.38593423
0.00704177 0.020086037 5.5511151e-17 -0.23852047 -0.14741376 -0.38593423
0.0077112233 0.019000636 0 -0.23852047 -0.14741376 -0.38593423
0.033970658 0.035050925 0.039999999 -0.23852047 -0.14741376 -0.38593423
0.0090501653 0.016830441 0 -0.23852047 -0.14741376 -0.38593423
0.0097196726 0.015745614 0 -0.23852047 -0.14741376 -0.38593423
0.010389217 0.014660948 0 -0.23852047 -0.14741376 -0.38593423
0.011058808 0.013576427 5.5511151e-17 -0.23852047 -0.14741376 -0.38593423
0.011728454 0.012492036 0 -0.23852047 -0.14741376 -0.38593423
0.012398167 0.011407758 0 -0.23852047 -0.14741376 -0.38593423
0.013067953 0.01032358 5.5511151e-17 -0.23852047 -0.14741376 -0.38593423
0.013737825 0.0092394864 0 -0.23852047 -0.14741376 -0.38593423
0.014407789 0.0081554605 0 -0.23852047 -0.14741376 -0.38593423
0.015077857 0.0070714881 5.5511151e-17 -0.23852047 -0.14741376 -0.38593423
0.015748037 0.0059875539 0 -0.23852047 -0.14741376 -0.38593423
0.01641834 0.0049036415 0 -0.23852047 -0.14741376 -0.38593423
0.017088775 0.0038197369 0 -0.23852047 -0.14741376 -0.38593423
0.017759349 0.0027358239 0 -0.23852047 -0.14741376 -0.38593423
0.020679511 0 0.0013559572 -0.23852047 -0.14741376 -0.38593423
0.023285219 0 0.0042353924 -0.23852047 -0.14741376 -0.38593423
0.02593031 0 0.0071581942 -0.23852047 -0.14741376 -0.38593423
0.028615717 0 0.010125392 -0.23852047 -0.14741376 -0.38593423
0.03134241 0 0.013138049 -0.23852047 -0.14741376 -0.38593423
0.034111377 0 0.01619726 -0.23852047 -0.14741376 -0.38593423
0.036923651 0 0.01930416 -0.23852047 -0.14741376 -0.38593423
0.039780289 0 0.022459913 -0.23852047 -0.14741376 -0.38593423
0 0.078882895 0.029930165 -0.23852047 -0.14741376 -0.38593423
0.0031850671 0.079999998 0.034198277 -0.23852047 -0.14741376 -0.38593423
0 0.075136282 0.027402183 -0.23852047 -0.14741376 -0.38593423
0.0072608097 0.079999998 0.038694918 -0.23852047 -0.14741376 -0.38593423
0.0087623401 0.079479516 0.039999999 -0.23852047 -0.14741376 -0.38593423
0 0.069609746 0.023671906 -0.23852047 -0.14741376 -0.38593423
0.011281835 0.077970944 0.041760545 -0.23852047 -0.14741376 -0.38593423
0 0.065985933 0.02122505 -0.23852047 -0.14741376 -0.38593423
0.0176278 0.07983043 0.050014801 -0.23852047 -0.14741376 -0.38593423
2.7755576e-17 0.062409248 0.018809317 -0.23852047 -0.14741376 -0.38593423
2.7755576e-17 0.06063823 0.017612893 -0.23852047 -0.14741376 -0.38593423
2.7755576e-17 0.058878582 0.016423978 -0.23852047 -0.14741376 -0.38593423
0 0.057130177 0.015242487 -0.23852047 -0.14741376 -0.38593423
2.7755576e-17 0.055392884 0.014068333 -0.23852047 -0.14741376 -0.38593423
0 0.053666569 0.012901431 -0.23852047 -0.14741376 -0.38593423
2.7755576e-17 0.051951114 0.011741698 -0.23852047 -0.14741376 -0.38593423
2.7755576e-17 0.050246391 0.01058905 -0.23852047 -0.14741376 -0.38593423
2.7755576e-17 0.048552282 0.0094434088 -0.23852047 -0.14741376 -0.38593423
0 0.04686866 0.0083046928 -0.23852047 -0.14741376 -0.38593423
0 0.045195412 0.0071728234 -0.23852047 -0.14741376 -0.38593423
0 0.043532416 0.0060477238 -0.23852047 -0.14741376 -0.38593423
2.7755576e-17 0.041879561 0.0049293167 -0.23852047 -0.14741376 -0.38593423
0 0.040236734 0.0038175276 -0.23852047 -0.14741376 -0.38593423
0 0.03860382 0.0027122817 -0.23852047 -0.14741376 -0.38593423
0 0.036980707 0.0016135061 -0.23852047 -0.14741376 -0.38593423
0 0.035367291 0.00052112865 -0.23852047 -0.14741376 -0.38593423
0.00034965272 0.034029055 0 -0.23852047 -0.14741376 -0.38593423
0.0010208405 0.032937713 0 -0.23852047 -0.14741376 -0.38593423
0.0016919321 0.031846769 0 -0.23852047 -0.14741376 -0.38593423
0.039920647 0.058535859 0.06017353 -0.23852047 -0.14741376 -0.38593423
0.0030338645 0.02966602 5.5511151e-17 -0.23852047 -0.14741376 -0.38593423
0.0037047246 0.02857618 5.5511151e-17 -0.23852047 -0.14741376 -0.38593423
0.0043755262 0.02748668 0 -0.23852047 -0.14741376 -0.38593423
0.0050462796 0.0263975 0 -0.23852047 -0.14741376 -0.38593423
0.0057169939 0.025308628 0 -0.23852047 -0.14741376 -0.38593423
0.0063876789 0.024220046 0 -0.23852047 -0.14741376 -0.38593423
0.0070583434 0.023131739 0 -0.23852047 -0.14741376 -0.38593423
0.0077289976 0.022043692 0 -0.23852047 -0.14741376 -0.38593423
0.0083996505 0.020955889 0 -0.23852047 -0.14741376 -0.38593423
0.0090703117 0.019868314 0 -0.23852047 -0.14741376 -0.38593423
0.0097409915 0.018780952 0 -0.23852047 -0.14741376 -0.38593423
0.036212172 0.034806296 0.039999999 -0.23852047 -0.14741376 -0.38593423
0.011082442 0.01660681 0 -0.23852047 -0.14741376 -0.38593423
0.011753233 0.015519995 5.5511151e-17 -0.23852047 -0.14741376 -0.38593423
0.012424079 0.014433333 0 -0.23852047 -0.14741376 -0.38593423
0.013094991 0.013346806 0 -0.23852047 -0.14741376 -0.38593423
0.013765978 0.012260402 0 -0.23852047 -0.14741376 -0.38593423
0.014437049 0.011174101 5.5511151e-17 -0.23852047 -0.14741376 -0.38593423
0.015108214 0.010087891 0 -0.23852047 -0.14741376 -0.38593423
0.015779482 0.0090017561 0 -0.23852047 -0.14741376 -0.38593423
0.016450865 0.0079156803 0 -0.23852047 -0.14741376 -0.38593423
0.017122369 0.0068296473 0 -0.23852047 -0.14741376 -0.38593423
0.017794004 0.0057436433 0 -0.23852047 -0.14741376 -0.38593423
0.018465782 0.0046576527 0 -0.23852047 -0.14741376 -0.38593423
0.01913771 0.0035716593 5.5511151e-17 -0.23852047 -0.14741376 -0.38593423
0.02048206 0.001399604 0 -0.23852047 -0.14741376 -0.38593423
0.023198886 0 0.0020334695 -0.23852047 -0.14741376 -0.38593423
0.025833445 0 0.0049287654 -0.23852047 -0.14741376 -0.38593423
0.028508009 0 0.0078678578 -0.23852047 -0.14741376 -0.38593423
0.031223534 0 0.010851791 -0.23852047 -0.14741376 -0.38593423
0.033980999 0 0.013881642 -0.23852047 -0.14741376 -0.38593423
0.036781423 0 0.016958524 -0.23852047 -0.14741376 -0.38593423
0.039625857 0 0.020083584 -0.23852047 -0.14741376 -0.38593423
0.0015113406 0.079999998 0.030077044 -0.23852047 -0.14741376 -0.38593423
0 0.076697007 0.026202876 -0.23852047 -0.14741376 -0.38593423
0 0.072992295 0.023717863 -0.23852047 -0.14741376 -0.38593423
0 0.071158379 0.022487443 -0.23852047 -0.14741376 -0.38593423
0 0.069336563 0.021264952 -0.23852047 -0.14741376 -0.38593423
0 0.067526713 0.020050297 -0.23852047 -0.14741376 -0.38593423
0.015319906 0.079418577 0.044841804 -0.23852047 -0.14741376 -0.38593423
0 0.063942321 0.017644124 -0.23852047 -0.14741376 -0.38593423
0.020282963 0.079989582 0.050670009 -0.23852047 -0.14741376 -0.38593423
0 0.060404103 0.015268204 -0.23852047 -0.14741376 -0.38593423
0.024167789 0.079531334 0.054623462 -0.23852047 -0.14741376 -0.38593423
0 0.056911003 0.012921836 -0.23852047 -0.14741376 -0.38593423
0.027496571 0.078536116 0.057605542 -0.23852047 -0.14741376 -0.38593423
0 0.05346198 0.010604342 -0.23852047 -0.14741376 -0.38593423
0 0.051753685 0.0094562145 -0.23852047 -0.14741376 -0.38593423
0.031631626 0.076243691 0.060598817 -0.23852047 -0.14741376 -0.38593423
2.7755576e-17 0.048368916 0.0071807979 -0.23852047 -0.14741376 -0.38593423
0 0.0466922 0.0060533499 -0.23852047 -0.14741376 -0.38593423
2.7755576e-17 0.04502577 0.0049326397 -0.23852047 -0.14741376 -0.38593423
