# .PCD v0.7 - Point Cloud Data file format
VERSION 0.7
FIELDS x y z vp_x vp_y vp_z
SIZE 4 4 4 4 4 4
TYPE F F F F F F
COUNT 1 1 1 1 1 1
WIDTH 673
HEIGHT 1
VIEWPOINT 0 0 0 1 0 0 0
POINTS 673
DATA ascii
0.016122362 0.040404808 0.045868292 -0.14741376 -0.38593423 0.23852047
0.017420521 0.04019212 0.045757141 -0.14741376 -0.38593423 0.23852047
0.018746981 0.040047817 0.045615237 -0.14741376 -0.38593423 0.23852047
0.020125009 0.040029299 0.045416445 -0.14741376 -0.38593423 0.23852047
0.021532731 0.040078245 0.045187056 -0.14741376 -0.38593423 0.23852047
0.022987571 0.040236518 0.044907946 -0.14741376 -0.38593423 0.23852047
0.024506383 0.040543195 0.044561181 -0.14741376 -0.38593423 0.23852047
0.02608129 0.040975209 0.044157043 -0.14741376 -0.38593423 0.23852047
0.027729589 0.041571692 0.043677516 -0.14741376 -0.38593423 0.23852047
0.029479407 0.042396709 0.043093123 -0.14741376 -0.38593423 0.23852047
0.031381201 0.043565936 0.042350695 -0.14741376 -0.38593423 0.23852047
0.033537503 0.045315467 0.041341778 -0.14741376 -0.38593423 0.23852047
0.036014695 0.047788456 0.039999999 -0.14741376 -0.38593423 0.23852047
0.037261229 0.047327764 0.039999999 -0.14741376 -0.38593423 0.23852047
0.038508486 0.046867989 0.039999999 -0.14741376 -0.38593423 0.23852047
0.039756488 0.046409119 0.039999999 -0.14741376 -0.38593423 0.23852047
2.7755576e-17 0.079067297 0.031653702 -0.14741376 -0.38593423 0.23852047
2.7755576e-17 0.074552909 0.033435673 -0.14741376 -0.38593423 0.23852047
2.7755576e-17 0.070117094 0.035187095 -0.14741376 -0.38593423 0.23852047
2.7755576e-17 0.065757766 0.036908783 -0.14741376 -0.38593423 0.23852047
2.7755576e-17 0.061472919 0.038601514 -0.14741376 -0.38593423 0.23852047
0.00014189687 0.057687208 0.040075213 -0.14741376 -0.38593423 0.23852047
0.00064829004 0.055049784 0.041038439 -0.14741376 -0.38593423 0.23852047
0.0013177214 0.052934371 0.041770265 -0.14741376 -0.38593423 0.23852047
0.0020891738 0.051148225 0.04235642 -0.14741376 -0.38593423 0.23852047
0.0029304791 0.049589172 0.042842321 -0.14741376 -0.38593423 0.23852047
0.0038403173 0.048247263 0.043232109 -0.14741376 -0.38593423 0.23852047
0.00479582 0.047051582 0.043557394 -0.14741376 -0.38593423 0.23852047
0.0057830797 0.045959003 0.043837398 -0.14741376 -0.38593423 0.23852047
0.0068093152 0.04498693 0.044064108 -0.14741376 -0.38593423 0.23852047
0.0078743966 0.044131808 0.044238955 -0.14741376 -0.38593423 0.23852047
0.0089586312 0.043336477 0.044387612 -0.14741376 -0.38593423 0.23852047
0.010084067 0.04265935 0.044483542 -0.14741376 -0.38593423 0.23852047
0.011233659 0.042051349 0.044548813 -0.14741376 -0.38593423 0.23852047
0.012406658 0.041508656 0.044585057 -0.14741376 -0.38593423 0.23852047
0.013620469 0.041075706 0.044571985 -0.14741376 -0.38593423 0.23852047
0.014850403 0.04068476 0.044540234 -0.14741376 -0.38593423 0.23852047
0.016123272 0.04040461 0.044458434 -0.14741376 -0.38593423 0.23852047
0.017423371 0.040191811 0.044346206 -0.14741376 -0.38593423 0.23852047
0.018751739 0.040047299 0.044203032 -0.14741376 -0.38593423 0.23852047
0.020131966 0.040029299 0.044002213 -0.14741376 -0.38593423 0.23852047
0.0215421 0.040079266 0.043770324 -0.14741376 -0.38593423 0.23852047
0.022999056 0.040237766 0.043488704 -0.14741376 -0.38593423 0.23852047
0.024520675 0.040546339 0.04313815 -0.14741376 -0.38593423 0.23852047
0.026098758 0.040981095 0.042729404 -0.14741376 -0.38593423 0.23852047
0.027750747 0.041581482 0.042244162 -0.14741376 -0.38593423 0.23852047
0.029505016 0.042412117 0.041652478 -0.14741376 -0.38593423 0.23852047
0.031412479 0.043589711 0.040900316 -0.14741376 -0.38593423 0.23852047
0.033464935 0.045086388 0.039999999 -0.14741376 -0.38593423 0.23852047
0.034703352 0.044627141 0.039999999 -0.14741376 -0.38593423 0.23852047
0.03594245 0.044168785 0.039999999 -0.14741376 -0.38593423 0.23852047
0.037182253 0.043711312 0.039999999 -0.14741376 -0.38593423 0.23852047
0.038422786 0.043254714 0.039999999 -0.14741376 -0.38593423 0.23852047
0.039664071 0.042798981 0.039999999 -0.14741376 -0.38593423 0.23852047
2.7755576e-17 0.079201214 0.030091388 -0.14741376 -0.38593423 0.23852047
2.7755576e-17 0.074678063 0.031890102 -0.14741376 -0.38593423 0.23852047
2.7755576e-17 0.070233777 0.033657916 -0.14741376 -0.38593423 0.23852047
2.7755576e-17 0.065866254 0.035395648 -0.14741376 -0.38593423 0.23852047
2.7755576e-17 0.061573468 0.037104096 -0.14741376 -0.38593423 0.23852047
2.7755576e-17 0.057353467 0.038784023 -0.14741376 -0.38593423 0.23852047
0.00032459915 0.054171324 0.039999999 -0.14741376 -0.38593423 0.23852047
0.0013032708 0.05297064 0.040324379 -0.14741376 -0.38593423 0.23852047
0.0020741543 0.051176552 0.04091822 -0.14741376 -0.38593423 0.23852047
0.0029154394 0.049611352 0.041410264 -0.14741376 -0.38593423 0.23852047
0.0038266426 0.048267432 0.041803617 -0.14741376 -0.38593423 0.23852047
0.0047825826 0.047067169 0.042133156 -0.14741376 -0.38593423 0.23852047
0.0057705515 0.045970868 0.042416681 -0.14741376 -0.38593423 0.23852047
0.0067982883 0.044997375 0.042645477 -0.14741376 -0.38593423 0.23852047
0.007864356 0.044139441 0.042822652 -0.14741376 -0.38593423 0.23852047
0.0089497473 0.043341823 0.042973198 -0.14741376 -0.38593423 0.23852047
0.010076805 0.042663716 0.043070029 -0.14741376 -0.38593423 0.23852047
0.011227768 0.042054072 0.043136273 -0.14741376 -0.38593423 0.23852047
0.012402453 0.041510601 0.043172862 -0.14741376 -0.38593423 0.23852047
0.01361784 0.041076589 0.043159902 -0.14741376 -0.38593423 0.23852047
0.01484949 0.040684961 0.043127947 -0.14741376 -0.38593423 0.23852047
0.016124187 0.040404409 0.043045431 -0.14741376 -0.38593423 0.23852047
0.017426226 0.040191501 0.042932123 -0.14741376 -0.38593423 0.23852047
0.018756505 0.040046781 0.042787675 -0.14741376 -0.38593423 0.23852047
0.02013894 0.040029299 0.042584814 -0.14741376 -0.38593423 0.23852047
0.021551492 0.040080287 0.042350415 -0.14741376 -0.38593423 0.23852047
0.023010569 0.040239017 0.042066265 -0.14741376 -0.38593423 0.23852047
0.024534997 0.040549491 0.0417119 -0.14741376 -0.38593423 0.23852047
0.026116265 0.040986996 0.041298509 -0.14741376 -0.38593423 0.23852047
0.027771953 0.04159129 0.040807512 -0.14741376 -0.38593423 0.23852047
0.029530685 0.042427562 0.040208478 -0.14741376 -0.38593423 0.23852047
0.030946536 0.042419236 0.039999999 -0.14741376 -0.38593423 0.23852047
0.032176986 0.041961461 0.039999999 -0.14741376 -0.38593423 0.23852047
0.033408079 0.041504558 0.039999999 -0.14741376 -0.38593423 0.23852047
0.034639832 0.041048512 0.039999999 -0.14741376 -0.38593423 0.23852047
0.035872277 0.040593319 0.039999999 -0.14741376 -0.38593423 0.23852047
0.03710543 0.040138971 0.039999999 -0.14741376 -0.38593423 0.23852047
0.038339321 0.039685454 0.039999999 -0.14741376 -0.38593423 0.23852047
0.039573971 0.039232768 0.039999999 -0.14741376 -0.38593423 0.23852047
2.7755576e-17 0.079335496 0.028524756 -0.14741376 -0.38593423 0.23852047
2.7755576e-17 0.074803568 0.030340305 -0.14741376 -0.38593423 0.23852047
2.7755576e-17 0.070350781 0.032124598 -0.14741376 -0.38593423 0.23852047
2.7755576e-17 0.065975033 0.033878464 -0.14741376 -0.38593423 0.23852047
2.7755576e-17 0.061674286 0.035602711 -0.14741376 -0.38593423 0.23852047
2.7755576e-17 0.057446573 0.037298117 -0.14741376 -0.38593423 0.23852047
0 0.053290006 0.038965426 -0.14741376 -0.38593423 0.23852047
0.00045089837 0.050533712 0.039999999 -0.14741376 -0.38593423 0.23852047
0.0016660939 0.05005559 0.039999999 -0.14741376 -0.38593423 0.23852047
0.0028813595 0.049578514 0.039999999 -0.14741376 -0.38593423 0.23852047
0.0038129361 0.048287645 0.040371832 -0.14741376 -0.38593423 0.23852047
0.004769315 0.047082789 0.040705658 -0.14741376 -0.38593423 0.23852047
0.0057579949 0.045982763 0.040992733 -0.14741376 -0.38593423 0.23852047
0.0067872363 0.045007847 0.041223623 -0.14741376 -0.38593423 0.23852047
0.0078542922 0.044147093 0.041403145 -0.14741376 -0.38593423 0.23852047
0.0089408429 0.04334718 0.041555598 -0.14741376 -0.38593423 0.23852047
0.010069528 0.042668097 0.041653335 -0.14741376 -0.38593423 0.23852047
0.011221864 0.042056803 0.041720554 -0.14741376 -0.38593423 0.23852047
0.012398237 0.041512553 0.041757502 -0.14741376 -0.38593423 0.23852047
0.013615204 0.04107748 0.041744657 -0.14741376 -0.38593423 0.23852047
0.014848576 0.040685162 0.041712489 -0.14741376 -0.38593423 0.23852047
0.016125102 0.040404208 0.041629259 -0.14741376 -0.38593423 0.23852047
0.017429089 0.040191188 0.041514862 -0.14741376 -0.38593423 0.23852047
0.018761285 0.04004626 0.041369133 -0.14741376 -0.38593423 0.23852047
0.020145928 0.040029299 0.041164219 -0.14741376 -0.38593423 0.23852047
0.021560904 0.040081311 0.040927287 -0.14741376 -0.38593423 0.23852047
0.023022106 0.040240273 0.040640604 -0.14741376 -0.38593423 0.23852047
0.024549352 0.04055265 0.040282402 -0.14741376 -0.38593423 0.23852047
0.026015291 0.040701348 0.039999999 -0.14741376 -0.38593423 0.23852047
0.027236789 0.040243365 0.039999999 -0.14741376 -0.38593423 0.23852047
0.028458843 0.039786238 0.039999999 -0.14741376 -0.38593423 0.23852047
0.029681474 0.039329972 0.039999999 -0.14741376 -0.38593423 0.23852047
0.030904705 0.038874548 0.039999999 -0.14741376 -0.38593423 0.23852047
0.032128561 0.038419962 0.039999999 -0.14741376 -0.38593423 0.23852047
0.033353064 0.037966203 0.039999999 -0.14741376 -0.38593423 0.23852047
0.034578238 0.037513267 0.039999999 -0.14741376 -0.38593423 0.23852047
0.035804108 0.037061144 0.039999999 -0.14741376 -0.38593423 0.23852047
0.037030693 0.036609821 0.039999999 -0.14741376 -0.38593423 0.23852047
0.03825802 0.036159299 0.039999999 -0.14741376 -0.38593423 0.23852047
0.039486114 0.03570956 0.039999999 -0.14741376 -0.38593423 0.23852047
2.7755576e-17 0.079470158 0.026953766 -0.14741376 -0.38593423 0.23852047
2.7755576e-17 0.074929416 0.028786244 -0.14741376 -0.38593423 0.23852047
2.7755576e-17 0.070468098 0.030587105 -0.14741376 -0.38593423 0.23852047
2.7755576e-17 0.066084102 0.032357197 -0.14741376 -0.38593423 0.23852047
2.7755576e-17 0.061775368 0.034097329 -0.14741376 -0.38593423 0.23852047
2.7755576e-17 0.057539929 0.035808295 -0.14741376 -0.38593423 0.23852047
2.7755576e-17 0.053375874 0.037490845 -0.14741376 -0.38593423 0.23852047
2.7755576e-17 0.04928137 0.039145719 -0.14741376 -0.38593423 0.23852047
0.00057671021 0.046941523 0.039999999 -0.14741376 -0.38593423 0.23852047
0.0017851196 0.046467505 0.039999999 -0.14741376 -0.38593423 0.23852047
0.0029936135 0.04599449 0.039999999 -0.14741376 -0.38593423 0.23852047
0.0042022145 0.045522474 0.039999999 -0.14741376 -0.38593423 0.23852047
0.005410945 0.045051448 0.039999999 -0.14741376 -0.38593423 0.23852047
0.0066198283 0.044581402 0.039999999 -0.14741376 -0.38593423 0.23852047
0.0078288866 0.044112325 0.039999999 -0.14741376 -0.38593423 0.23852047
0.008931919 0.043352548 0.040134784 -0.14741376 -0.38593423 0.23852047
0.010062234 0.042672485 0.04023343 -0.14741376 -0.38593423 0.23852047
0.011215947 0.042059541 0.040301636 -0.14741376 -0.38593423 0.23852047
0.012394013 0.041514505 0.040338941 -0.14741376 -0.38593423 0.23852047
0.013612563 0.04107837 0.040326208 -0.14741376 -0.38593423 0.23852047
0.01484766 0.040685367 0.040293835 -0.14741376 -0.38593423 0.23852047
0.01612602 0.040404003 0.040209886 -0.14741376 -0.38593423 0.23852047
0.01743196 0.040190876 0.040094394 -0.14741376 -0.38593423 0.23852047
0.018722037 0.039932858 0.039999999 -0.14741376 -0.38593423 0.23852047
0.019934094 0.039473001 0.039999999 -0.14741376 -0.38593423 0.23852047
0.021146579 0.039014019 0.039999999 -0.14741376 -0.38593423 0.23852047
0.022359509 0.038555901 0.039999999 -0.14741376 -0.38593423 0.23852047
0.023572912 0.038098644 0.039999999 -0.14741376 -0.38593423 0.23852047
0.024786808 0.037642233 0.039999999 -0.14741376 -0.38593423 0.23852047
0.026001221 0.037186664 0.039999999 -0.14741376 -0.38593423 0.23852047
0.027216172 0.036731925 0.039999999 -0.14741376 -0.38593423 0.23852047
0.028431688 0.036278009 0.039999999 -0.14741376 -0.38593423 0.23852047
0.029647788 0.03582491 0.039999999 -0.14741376 -0.38593423 0.23852047
0.030864496 0.035372619 0.039999999 -0.14741376 -0.38593423 0.23852047
0.032081835 0.034921125 0.039999999 -0.14741376 -0.38593423 0.23852047
0.03329983 0.03447042 0.039999999 -0.14741376 -0.38593423 0.23852047
0.034518503 0.034020498 0.039999999 -0.14741376 -0.38593423 0.23852047
0.035737876 0.033571351 0.039999999 -0.14741376 -0.38593423 0.23852047
0.036957975 0.033122972 0.039999999 -0.14741376 -0.38593423 0.23852047
0.03817882 0.032675348 0.039999999 -0.14741376 -0.38593423 0.23852047
0.039400436 0.032228477 0.039999999 -0.14741376 -0.38593423 0.23852047
2.7755576e-17 0.079605192 0.02537838 -0.14741376 -0.38593423 0.23852047
0 0.075055607 0.027227879 -0.14741376 -0.38593423 0.23852047
0 0.070585743 0.029045401 -0.14741376 -0.38593423 0.23852047
2.7755576e-17 0.066193469 0.030831804 -0.14741376 -0.38593423 0.23852047
0 0.061876722 0.032587908 -0.14741376 -0.38593423 0.23852047
2.7755576e-17 0.05763353 0.034314517 -0.14741376 -0.38593423 0.23852047
2.7755576e-17 0.053461969 0.036012392 -0.14741376 -0.38593423 0.23852047
2.7755576e-17 0.049360193 0.037682276 -0.14741376 -0.38593423 0.23852047
2.7755576e-17 0.045326419 0.039324891 -0.14741376 -0.38593423 0.23852047
0.0007020242 0.043393798 0.039999999 -0.14741376 -0.38593423 0.23852047
0.0019037344 0.042923767 0.039999999 -0.14741376 -0.38593423 0.23852047
0.0031055431 0.042454701 0.039999999 -0.14741376 -0.38593423 0.23852047
0.0043074726 0.041986592 0.039999999 -0.14741376 -0.38593423 0.23852047
0.0055095451 0.041519433 0.039999999 -0.14741376 -0.38593423 0.23852047
0.0067117834 0.041053209 0.039999999 -0.14741376 -0.38593423 0.23852047
0.0079142097 0.040587917 0.039999999 -0.14741376 -0.38593423 0.23852047
0.0091168461 0.040123545 0.039999999 -0.14741376 -0.38593423 0.23852047
0.010319715 0.039660089 0.039999999 -0.14741376 -0.38593423 0.23852047
0.011522839 0.039197531 0.039999999 -0.14741376 -0.38593423 0.23852047
0.012726241 0.03873587 0.039999999 -0.14741376 -0.38593423 0.23852047
0.013929943 0.038275097 0.039999999 -0.14741376 -0.38593423 0.23852047
0.015133967 0.037815202 0.039999999 -0.14741376 -0.38593423 0.23852047
0.016338335 0.037356175 0.039999999 -0.14741376 -0.38593423 0.23852047
0.017543072 0.036898006 0.039999999 -0.14741376 -0.38593423 0.23852047
0.018748198 0.036440693 0.039999999 -0.14741376 -0.38593423 0.23852047
0.019953737 0.035984222 0.039999999 -0.14741376 -0.38593423 0.23852047
0.021159708 0.035528585 0.039999999 -0.14741376 -0.38593423 0.23852047
0.02236614 0.035073776 0.039999999 -0.14741376 -0.38593423 0.23852047
0.02357305 0.034619786 0.039999999 -0.14741376 -0.38593423 0.23852047
0.024780462 0.034166604 0.039999999 -0.14741376 -0.38593423 0.23852047
0.0259884 0.033714227 0.039999999 -0.14741376 -0.38593423 0.23852047
0.027196886 0.03326264 0.039999999 -0.14741376 -0.38593423 0.23852047
0.028405942 0.032811843 0.039999999 -0.14741376 -0.38593423 0.23852047
0.02961559 0.03236182 0.039999999 -0.14741376 -0.38593423 0.23852047
0.030825855 0.031912565 0.039999999 -0.14741376 -0.38593423 0.23852047
0.032036759 0.031464074 0.039999999 -0.14741376 -0.38593423 0.23852047
0.033248324 0.031016333 0.039999999 -0.14741376 -0.38593423 0.23852047
0.034460571 0.030569337 0.039999999 -0.14741376 -0.38593423 0.23852047
0.035673529 0.030123079 0.039999999 -0.14741376 -0.38593423 0.23852047
0.036887214 0.029677549 0.039999999 -0.14741376 -0.38593423 0.23852047
0.038101654 0.02923274 0.039999999 -0.14741376 -0.38593423 0.23852047
0.03931687 0.028788643 0.039999999 -0.14741376 -0.38593423 0.23852047
2.7755576e-17 0.079740614 0.023798557 -0.14741376 -0.38593423 0.23852047
2.7755576e-17 0.075182155 0.025665173 -0.14741376 -0.38593423 0.23852047
2.7755576e-17 0.070703708 0.027499449 -0.14741376 -0.38593423 0.23852047
0 0.066303127 0.029302251 -0.14741376 -0.38593423 0.23852047
0 0.061978351 0.031074416 -0.14741376 -0.38593423 0.23852047
0 0.057727382 0.032816749 -0.14741376 -0.38593423 0.23852047
2.7755576e-17 0.053548291 0.034530029 -0.14741376 -0.38593423 0.23852047
2.7755576e-17 0.049439225 0.036215007 -0.14741376 -0.38593423 0.23852047
0 0.045398388 0.037872411 -0.14741376 -0.38593423 0.23852047
2.7755576e-17 0.041424043 0.039502937 -0.14741376 -0.38593423 0.23852047
0.00082682987 0.039889596 0.039999999 -0.14741376 -0.38593423 0.23852047
0.002021926 0.039423443 0.039999999 -0.14741376 -0.38593423 0.23852047
0.0032171342 0.038958214 0.039999999 -0.14741376 -0.38593423 0.23852047
0.0044124764 0.038493905 0.039999999 -0.14741376 -0.38593423 0.23852047
0.0056079752 0.038030498 0.039999999 -0.14741376 -0.38593423 0.23852047
0.0068036518 0.037567995 0.039999999 -0.14741376 -0.38593423 0.23852047
0.0079995291 0.03710638 0.039999999 -0.14741376 -0.38593423 0.23852047
0.0091956286 0.036645643 0.039999999 -0.14741376 -0.38593423 0.23852047
0.010391973 0.036185782 0.039999999 -0.14741376 -0.38593423 0.23852047
0.011588584 0.035726786 0.039999999 -0.14741376 -0.38593423 0.23852047
0.012785484 0.035268646 0.039999999 -0.14741376 -0.38593423 0.23852047
0.013982695 0.034811351 0.039999999 -0.14741376 -0.38593423 0.23852047
0.015180239 0.034354895 0.039999999 -0.14741376 -0.38593423 0.23852047
0.016378138 0.033899274 0.039999999 -0.14741376 -0.38593423 0.23852047
0.017576413 0.033444468 0.039999999 -0.14741376 -0.38593423 0.23852047
0.018775091 0.032990482 0.039999999 -0.14741376 -0.38593423 0.23852047
0.019974187 0.032537296 0.039999999 -0.14741376 -0.38593423 0.23852047
0.02117373 0.032084908 0.039999999 -0.14741376 -0.38593423 0.23852047
0.022373738 0.031633314 0.039999999 -0.14741376 -0.38593423 0.23852047
0.023574235 0.031182494 0.039999999 -0.14741376 -0.38593423 0.23852047
0.024775242 0.030732449 0.039999999 -0.14741376 -0.38593423 0.23852047
0.025976783 0.03028317 0.039999999 -0.14741376 -0.38593423 0.23852047
0.02717888 0.029834645 0.039999999 -0.14741376 -0.38593423 0.23852047
0.028381554 0.029386869 0.039999999 -0.14741376 -0.38593423 0.23852047
0.029584831 0.028939832 0.039999999 -0.14741376 -0.38593423 0.23852047
0.030788727 0.028493527 0.039999999 -0.14741376 -0.38593423 0.23852047
0.03199327 0.028047947 0.039999999 -0.14741376 -0.38593423 0.23852047
0.033198483 0.027603082 0.039999999 -0.14741376 -0.38593423 0.23852047
0.034404386 0.027158925 0.039999999 -0.14741376 -0.38593423 0.23852047
0.035611 0.02671547 0.039999999 -0.14741376 -0.38593423 0.23852047
0.036818352 0.026272705 0.039999999 -0.14741376 -0.38593423 0.23852047
0.03802646 0.025830626 0.039999999 -0.14741376 -0.38593423 0.23852047
0.03923535 0.025389222 0.039999999 -0.14741376 -0.38593423 0.23852047
0 0.079876415 0.022214258 -0.14741376 -0.38593423 0.23852047
2.7755576e-17 0.075309053 0.024098085 -0.14741376 -0.38593423 0.23852047
2.7755576e-17 0.070822001 0.025949208 -0.14741376 -0.38593423 0.23852047
2.7755576e-17 0.06641309 0.0277685 -0.14741376 -0.38593423 0.23852047
2.7755576e-17 0.062080257 0.029556811 -0.14741376 -0.38593423 0.23852047
2.7755576e-17 0.057821486 0.031314954 -0.14741376 -0.38593423 0.23852047
2.7755576e-17 0.053634845 0.03304372 -0.14741376 -0.38593423 0.23852047
2.7755576e-17 0.049518466 0.034743872 -0.14741376 -0.38593423 0.23852047
0 0.045470547 0.036416139 -0.14741376 -0.38593423 0.23852047
2.7755576e-17 0.04148934 0.038061239 -0.14741376 -0.38593423 0.23852047
2.7755576e-17 0.037573166 0.039679855 -0.14741376 -0.38593423 0.23852047
0.00095111708 0.036428016 0.039999999 -0.14741376 -0.38593423 0.23852047
0.0021396826 0.035965633 0.039999999 -0.14741376 -0.38593423 0.23852047
0.0033283734 0.035504133 0.039999999 -0.14741376 -0.38593423 0.23852047
0.0045172111 0.035043512 0.039999999 -0.14741376 -0.38593423 0.23852047
0.0057062181 0.034583755 0.039999999 -0.14741376 -0.38593423 0.23852047
0.006895415 0.034124862 0.039999999 -0.14741376 -0.38593423 0.23852047
0.0080848252 0.033666819 0.039999999 -0.14741376 -0.38593423 0.23852047
0.0092744688 0.033209622 0.039999999 -0.14741376 -0.38593423 0.23852047
0.010464369 0.032753255 0.039999999 -0.14741376 -0.38593423 0.23852047
0.011654547 0.032297716 0.039999999 -0.14741376 -0.38593423 0.23852047
0.012845025 0.031842992 0.039999999 -0.14741376 -0.38593423 0.23852047
0.014035825 0.03138908 0.039999999 -0.14741376 -0.38593423 0.23852047
0.015226967 0.030935969 0.039999999 -0.14741376 -0.38593423 0.23852047
0.016418476 0.030483648 0.039999999 -0.14741376 -0.38593423 0.23852047
0.017610371 0.030032113 0.039999999 -0.14741376 -0.38593423 0.23852047
0.018802674 0.029581355 0.039999999 -0.14741376 -0.38593423 0.23852047
0.01999541 0.029131364 0.039999999 -0.14741376 -0.38593423 0.23852047
0.0211886 0.028682133 0.039999999 -0.14741376 -0.38593423 0.23852047
0.022382263 0.028233653 0.039999999 -0.14741376 -0.38593423 0.23852047
0.023576424 0.027785918 0.039999999 -0.14741376 -0.38593423 0.23852047
0.024771104 0.027338916 0.039999999 -0.14741376 -0.38593423 0.23852047
0.025966324 0.026892643 0.039999999 -0.14741376 -0.38593423 0.23852047
0.027162109 0.026447089 0.039999999 -0.14741376 -0.38593423 0.23852047
0.028358478 0.026002249 0.039999999 -0.14741376 -0.38593423 0.23852047
0.029555455 0.02555811 0.039999999 -0.14741376 -0.38593423 0.23852047
0.030753063 0.025114669 0.039999999 -0.14741376 -0.38593423 0.23852047
0.031951323 0.024671914 0.039999999 -0.14741376 -0.38593423 0.23852047
0.033150256 0.024229839 0.039999999 -0.14741376 -0.38593423 0.23852047
0.034349885 0.023788437 0.039999999 -0.14741376 -0.38593423 0.23852047
0.035550233 0.023347698 0.039999999 -0.14741376 -0.38593423 0.23852047
0.036751322 0.022907617 0.039999999 -0.14741376 -0.38593423 0.23852047
0.037953176 0.022468185 0.039999999 -0.14741376 -0.38593423 0.23852047
0.039155815 0.022029392 0.039999999 -0.14741376 -0.38593423 0.23852047
2.7755576e-17 0.075436316 0.022526577 -0.14741376 -0.38593423 0.23852047
2.7755576e-17 0.070940621 0.024394639 -0.14741376 -0.38593423 0.23852047
2.7755576e-17 0.066523358 0.026230512 -0.14741376 -0.38593423 0.23852047
2.7755576e-17 0.062182441 0.028035056 -0.14741376 -0.38593423 0.23852047
2.7755576e-17 0.057915844 0.029809097 -0.14741376 -0.38593423 0.23852047
0 0.053721629 0.031553432 -0.14741376 -0.38593423 0.23852047
2.7755576e-17 0.049597915 0.033268835 -0.14741376 -0.38593423 0.23852047
2.7755576e-17 0.045542896 0.034956049 -0.14741376 -0.38593423 0.23852047
2.7755576e-17 0.041554809 0.036615796 -0.14741376 -0.38593423 0.23852047
0 0.03763197 0.038248766 -0.14741376 -0.38593423 0.23852047
2.7755576e-17 0.033772741 0.039855633 -0.14741376 -0.38593423 0.23852047
0.0010748758 0.033008166 0.039999999 -0.14741376 -0.38593423 0.23852047
0.0022569923 0.032549445 0.039999999 -0.14741376 -0.38593423 0.23852047
0.0034392469 0.032091573 0.039999999 -0.14741376 -0.38593423 0.23852047
0.0046216613 0.031634536 0.039999999 -0.14741376 -0.38593423 0.23852047
0.0058042565 0.031178331 0.039999999 -0.14741376 -0.38593423 0.23852047
0.0069870544 0.030722948 0.039999999 -0.14741376 -0.38593423 0.23852047
0.0081700766 0.030268377 0.039999999 -0.14741376 -0.38593423 0.23852047
0.0093533443 0.02981461 0.039999999 -0.14741376 -0.38593423 0.23852047
0.010536879 0.029361643 0.039999999 -0.14741376 -0.38593423 0.23852047
0.011720703 0.028909462 0.039999999 -0.14741376 -0.38593423 0.23852047
0.012904838 0.028458061 0.039999999 -0.14741376 -0.38593423 0.23852047
0.014089303 0.028007433 0.039999999 -0.14741376 -0.38593423 0.23852047
0.015274123 0.027557569 0.039999999 -0.14741376 -0.38593423 0.23852047
0.016459318 0.027108459 0.039999999 -0.14741376 -0.38593423 0.23852047
0.017644908 0.026660098 0.039999999 -0.14741376 -0.38593423 0.23852047
0.01883092 0.026212476 0.039999999 -0.14741376 -0.38593423 0.23852047
0.020017369 0.025765585 0.039999999 -0.14741376 -0.38593423 0.23852047
0.02120428 0.025319418 0.039999999 -0.14741376 -0.38593423 0.23852047
0.022391675 0.024873966 0.039999999 -0.14741376 -0.38593423 0.23852047
0.023579577 0.024429223 0.039999999 -0.14741376 -0.38593423 0.23852047
0.024768004 0.023985177 0.039999999 -0.14741376 -0.38593423 0.23852047
0.025956979 0.023541825 0.039999999 -0.14741376 -0.38593423 0.23852047
0.027146526 0.023099154 0.039999999 -0.14741376 -0.38593423 0.23852047
0.028336665 0.022657162 0.039999999 -0.14741376 -0.38593423 0.23852047
0.029527418 0.022215836 0.039999999 -0.14741376 -0.38593423 0.23852047
0.030718809 0.021775171 0.039999999 -0.14741376 -0.38593423 0.23852047
0.031910855 0.021335158 0.039999999 -0.14741376 -0.38593423 0.23852047
0.033103585 0.020895792 0.039999999 -0.14741376 -0.38593423 0.23852047
0.034297016 0.020457061 0.039999999 -0.14741376 -0.38593423 0.23852047
0.035491168 0.020018959 0.039999999 -0.14741376 -0.38593423 0.23852047
0.03668607 0.019581482 0.039999999 -0.14741376 -0.38593423 0.23852047
0.037881743 0.019144615 0.039999999 -0.14741376 -0.38593423 0.23852047
0.039078202 0.018708358 0.039999999 -0.14741376 -0.38593423 0.23852047
2.7755576e-17 0.075563937 0.020950606 -0.14741376 -0.38593423 0.23852047
2.7755576e-17 0.071059577 0.022835702 -0.14741376 -0.38593423 0.23852047
2.7755576e-17 0.066633932 0.024688248 -0.14741376 -0.38593423 0.23852047
2.7755576e-17 0.062284905 0.026509114 -0.14741376 -0.38593423 0.23852047
2.7755576e-17 0.058010459 0.028299138 -0.14741376 -0.38593423 0.23852047
2.7755576e-17 0.053808648 0.030059129 -0.14741376 -0.38593423 0.23852047
2.7755576e-17 0.049677581 0.031789865 -0.14741376 -0.38593423 0.23852047
0 0.045615435 0.033492103 -0.14741376 -0.38593423 0.23852047
0 0.041620448 0.035166573 -0.14741376 -0.38593423 0.23852047
2.7755576e-17 0.037690926 0.036813971 -0.14741376 -0.38593423 0.23852047
2.7755576e-17 0.033825222 0.038434982 -0.14741376 -0.38593423 0.23852047
2.2478298e-05 0.030085169 0.039999999 -0.14741376 -0.38593423 0.23852047
0.0011980963 0.029629191 0.039999999 -0.14741376 -0.38593423 0.23852047
0.0023738437 0.029174032 0.039999999 -0.14741376 -0.38593423 0.23852047
0.0035497416 0.02871968 0.039999999 -0.14741376 -0.38593423 0.23852047
0.0047258111 0.02826613 0.039999999 -0.14741376 -0.38593423 0.23852047
0.0059020743 0.027813373 0.039999999 -0.14741376 -0.38593423 0.23852047
0.0070785512 0.0273614 0.039999999 -0.14741376 -0.38593423 0.23852047
0.0082552638 0.026910204 0.039999999 -0.14741376 -0.38593423 0.23852047
0.0094322329 0.026459776 0.039999999 -0.14741376 -0.38593423 0.23852047
0.010609481 0.026010107 0.039999999 -0.14741376 -0.38593423 0.23852047
0.011787027 0.025561191 0.039999999 -0.14741376 -0.38593423 0.23852047
0.012964895 0.025113018 0.039999999 -0.14741376 -0.38593423 0.23852047
0.014143104 0.024665581 0.039999999 -0.14741376 -0.38593423 0.23852047
0.015321677 0.02421887 0.039999999 -0.14741376 -0.38593423 0.23852047
0.016500633 0.02377288 0.039999999 -0.14741376 -0.38593423 0.23852047
0.017679997 0.0233276 0.039999999 -0.14741376 -0.38593423 0.23852047
0.018859787 0.022883026 0.039999999 -0.14741376 -0.38593423 0.23852047
0.020040026 0.022439146 0.039999999 -0.14741376 -0.38593423 0.23852047
0.021220736 0.021995954 0.039999999 -0.14741376 -0.38593423 0.23852047
0.022401936 0.021553442 0.039999999 -0.14741376 -0.38593423 0.23852047
0.023583651 0.021111604 0.039999999 -0.14741376 -0.38593423 0.23852047
0.024765899 0.020670429 0.039999999 -0.14741376 -0.38593423 0.23852047
0.025948703 0.02022991 0.039999999 -0.14741376 -0.38593423 0.23852047
0.027132086 0.01979004 0.039999999 -0.14741376 -0.38593423 0.23852047
0.028316068 0.01935081 0.039999999 -0.14741376 -0.38593423 0.23852047
0.029500671 0.018912215 0.039999999 -0.14741376 -0.38593423 0.23852047
0.030685917 0.018474245 0.039999999 -0.14741376 -0.38593423 0.23852047
0.031871825 0.018036895 0.039999999 -0.14741376 -0.38593423 0.23852047
0.03305842 0.017600153 0.039999999 -0.14741376 -0.38593423 0.23852047
0.034245726 0.017164014 0.039999999 -0.14741376 -0.38593423 0.23852047
0.035433758 0.016728472 0.039999999 -0.14741376 -0.38593423 0.23852047
0.036622543 0.016293516 0.039999999 -0.14741376 -0.38593423 0.23852047
0.037812099 0.01585914 0.039999999 -0.14741376 -0.38593423 0.23852047
0.039002452 0.015425337 0.039999999 -0.14741376 -0.38593423 0.23852047
0 0.075691916 0.019370131 -0.14741376 -0.38593423 0.23852047
0 0.071178868 0.021272356 -0.14741376 -0.38593423 0.23852047
2.7755576e-17 0.066744819 0.023141669 -0.14741376 -0.38593423 0.23852047
0 0.062387653 0.024978947 -0.14741376 -0.38593423 0.23852047
2.7755576e-17 0.058105335 0.026785042 -0.14741376 -0.38593423 0.23852047
2.7755576e-17 0.053895902 0.028560771 -0.14741376 -0.38593423 0.23852047
0 0.049757455 0.030306924 -0.14741376 -0.38593423 0.23852047
2.7755576e-17 0.045688163 0.032024264 -0.14741376 -0.38593423 0.23852047
2.7755576e-17 0.041686263 0.033713531 -0.14741376 -0.38593423 0.23852047
2.7755576e-17 0.037750036 0.035375439 -0.14741376 -0.38593423 0.23852047
2.7755576e-17 0.033877838 0.03701067 -0.14741376 -0.38593423 0.23852047
0 0.030068066 0.038619891 -0.14741376 -0.38593423 0.23852047
0.00015145415 0.026742732 0.039999999 -0.14741376 -0.38593423 0.23852047
0.0013207688 0.026290253 0.039999999 -0.14741376 -0.38593423 0.23852047
0.0024902252 0.025838554 0.039999999 -0.14741376 -0.38593423 0.23852047
0.0036598444 0.025387626 0.039999999 -0.14741376 -0.38593423 0.23852047
0.0048296475 0.024937466 0.039999999 -0.14741376 -0.38593423 0.23852047
0.0059996545 0.02448806 0.039999999 -0.14741376 -0.38593423 0.23852047
0.0071698879 0.024039403 0.039999999 -0.14741376 -0.38593423 0.23852047
0.0083403671 0.023591485 0.039999999 -0.14741376 -0.38593423 0.23852047
0.0095111141 0.023144299 0.039999999 -0.14741376 -0.38593423 0.23852047
0.01068215 0.022697836 0.039999999 -0.14741376 -0.38593423 0.23852047
0.011853496 0.02225209 0.039999999 -0.14741376 -0.38593423 0.23852047
0.013025171 0.021807054 0.039999999 -0.14741376 -0.38593423 0.23852047
0.014197199 0.021362716 0.039999999 -0.14741376 -0.38593423 0.23852047
0.015369599 0.02091907 0.039999999 -0.14741376 -0.38593423 0.23852047
0.016542392 0.020476108 0.039999999 -0.14741376 -0.38593423 0.23852047
0.017715601 0.020033823 0.039999999 -0.14741376 -0.38593423 0.23852047
0.018889247 0.019592207 0.039999999 -0.14741376 -0.38593423 0.23852047
0.020063348 0.019151252 0.039999999 -0.14741376 -0.38593423 0.23852047
0.021237928 0.01871095 0.039999999 -0.14741376 -0.38593423 0.23852047
0.022413008 0.018271293 0.039999999 -0.14741376 -0.38593423 0.23852047
0.023588607 0.017832274 0.039999999 -0.14741376 -0.38593423 0.23852047
0.02476475 0.017393883 0.039999999 -0.14741376 -0.38593423 0.23852047
0.025941456 0.016956117 0.039999999 -0.14741376 -0.38593423 0.23852047
0.027118746 0.016518964 0.039999999 -0.14741376 -0.38593423 0.23852047
0.028296642 0.016082419 0.039999999 -0.14741376 -0.38593423 0.23852047
0.029475164 0.015646473 0.039999999 -0.14741376 -0.38593423 0.23852047
0.030654337 0.015211117 0.039999999 -0.14741376 -0.38593423 0.23852047
0.031834178 0.014776347 0.039999999 -0.14741376 -0.38593423 0.23852047
0.033014711 0.014342154 0.039999999 -0.14741376 -0.38593423 0.23852047
0.03419596 0.01390853 0.039999999 -0.14741376 -0.38593423 0.23852047
0.035377938 0.013475467 0.039999999 -0.14741376 -0.38593423 0.23852047
0.036560677 0.013042959 0.039999999 -0.14741376 -0.38593423 0.23852047
0.037744194 0.012610999 0.039999999 -0.14741376 -0.38593423 0.23852047
0.038928509 0.012179577 0.039999999 -0.14741376 -0.38593423 0.23852047
0 0.075820275 0.017785113 -0.14741376 -0.38593423 0.23852047
2.7755576e-17 0.071298502 0.019704564 -0.14741376 -0.38593423 0.23852047
2.7755576e-17 0.066856012 0.021590734 -0.14741376 -0.38593423 0.23852047
0 0.062490687 0.023444517 -0.14741376 -0.38593423 0.23852047
2.7755576e-17 0.058200471 0.025266768 -0.14741376 -0.38593423 0.23852047
0 0.053983394 0.02705832 -0.14741376 -0.38593423 0.23852047
2.7755576e-17 0.049837548 0.028819973 -0.14741376 -0.38593423 0.23852047
2.7755576e-17 0.04576109 0.030552499 -0.14741376 -0.38593423 0.23852047
2.7755576e-17 0.041752249 0.032256644 -0.14741376 -0.38593423 0.23852047
2.7755576e-17 0.037809301 0.033933129 -0.14741376 -0.38593423 0.23852047
2.7755576e-17 0.033930589 0.035582654 -0.14741376 -0.38593423 0.23852047
0 0.030114509 0.03720589 -0.14741376 -0.38593423 0.23852047
2.7755576e-17 0.026359506 0.038803488 -0.14741376 -0.38593423 0.23852047
0.00027979567 0.023439612 0.039999999 -0.14741376 -0.38593423 0.23852047
0.0014428841 0.022990532 0.039999999 -0.14741376 -0.38593423 0.23852047
0.0026061262 0.022542199 0.039999999 -0.14741376 -0.38593423 0.23852047
0.003769543 0.022094602 0.039999999 -0.14741376 -0.38593423 0.23852047
0.0049331547 0.021647733 0.039999999 -0.14741376 -0.38593423 0.23852047
0.0060969824 0.021201584 0.039999999 -0.14741376 -0.38593423 0.23852047
0.0072610467 0.020756148 0.039999999 -0.14741376 -0.38593423 0.23852047
0.008425368 0.020311417 0.039999999 -0.14741376 -0.38593423 0.23852047
0.0095899673 0.019867383 0.039999999 -0.14741376 -0.38593423 0.23852047
0.010754866 0.019424036 0.039999999 -0.14741376 -0.38593423 0.23852047
0.011920083 0.018981371 0.039999999 -0.14741376 -0.38593423 0.23852047
0.013085641 0.01853938 0.039999999 -0.14741376 -0.38593423 0.23852047
0.01425156 0.018098054 0.039999999 -0.14741376 -0.38593423 0.23852047
0.015417861 0.017657384 0.039999999 -0.14741376 -0.38593423 0.23852047
0.016584564 0.017217366 0.039999999 -0.14741376 -0.38593423 0.23852047
0.017751692 0.016777989 0.039999999 -0.14741376 -0.38593423 0.23852047
0.018919263 0.016339246 0.039999999 -0.14741376 -0.38593423 0.23852047
0.0200873 0.01590113 0.039999999 -0.14741376 -0.38593423 0.23852047
0.021255821 0.015463633 0.039999999 -0.14741376 -0.38593423 0.23852047
0.022424851 0.015026748 0.039999999 -0.14741376 -0.38593423 0.23852047
0.023594409 0.014590466 0.039999999 -0.14741376 -0.38593423 0.23852047
0.024764515 0.014154782 0.039999999 -0.14741376 -0.38593423 0.23852047
0.025935194 0.013719684 0.039999999 -0.14741376 -0.38593423 0.23852047
0.02710646 0.013285169 0.039999999 -0.14741376 -0.38593423 0.23852047
0.028278342 0.012851228 0.039999999 -0.14741376 -0.38593423 0.23852047
0.029450854 0.012417852 0.039999999 -0.14741376 -0.38593423 0.23852047
0.030624023 0.011985036 0.039999999 -0.14741376 -0.38593423 0.23852047
0.031797867 0.01155277 0.039999999 -0.14741376 -0.38593423 0.23852047
0.032972407 0.011121049 0.039999999 -0.14741376 -0.38593423 0.23852047
0.034147665 0.010689863 0.039999999 -0.14741376 -0.38593423 0.23852047
0.035323665 0.010259206 0.039999999 -0.14741376 -0.38593423 0.23852047
0.036500424 0.0098290723 0.039999999 -0.14741376 -0.38593423 0.23852047
0.037677966 0.0093994522 0.039999999 -0.14741376 -0.38593423 0.23852047
0.038856313 0.0089703389 0.039999999 -0.14741376 -0.38593423 0.23852047
2.7755576e-17 0.075948998 0.01619551 -0.14741376 -0.38593423 0.23852047
2.7755576e-17 0.071418479 0.018132282 -0.14741376 -0.38593423 0.23852047
2.7755576e-17 0.066967525 0.020035407 -0.14741376 -0.38593423 0.23852047
0 0.062594011 0.021905782 -0.14741376 -0.38593423 0.23852047
2.7755576e-17 0.058295872 0.023744281 -0.14741376 -0.38593423 0.23852047
2.7755576e-17 0.054071125 0.025551742 -0.14741376 -0.38593423 0.23852047
2.7755576e-17 0.049917858 0.027328977 -0.14741376 -0.38593423 0.23852047
2.7755576e-17 0.045834213 0.029076768 -0.14741376 -0.38593423 0.23852047
0 0.04181841 0.030795868 -0.14741376 -0.38593423 0.23852047
2.7755576e-17 0.037868723 0.032487012 -0.14741376 -0.38593423 0.23852047
2.7755576e-17 0.03398348 0.034150906 -0.14741376 -0.38593423 0.23852047
2.7755576e-17 0.030161072 0.035788227 -0.14741376 -0.38593423 0.23852047
2.7755576e-17 0.026399937 0.037399635 -0.14741376 -0.38593423 0.23852047
2.7755576e-17 0.022698566 0.038985774 -0.14741376 -0.38593423 0.23852047
0.0004074951 0.020175014 0.039999999 -0.14741376 -0.38593423 0.23852047
0.0015644326 0.019729242 0.039999999 -0.14741376 -0.38593423 0.23852047
0.0027215357 0.019284178 0.039999999 -0.14741376 -0.38593423 0.23852047
0.0038788246 0.018839816 0.039999999 -0.14741376 -0.38593423 0.23852047
0.0050363196 0.018396147 0.039999999 -0.14741376 -0.38593423 0.23852047
0.0061940416 0.017953165 0.039999999 -0.14741376 -0.38593423 0.23852047
0.0073520108 0.017510859 0.039999999 -0.14741376 -0.38593423 0.23852047
0.0085102478 0.017069224 0.039999999 -0.14741376 -0.38593423 0.23852047
0.009668773 0.016628252 0.039999999 -0.14741376 -0.38593423 0.23852047
0.010827607 0.016187934 0.039999999 -0.14741376 -0.38593423 0.23852047
0.011986769 0.015748262 0.039999999 -0.14741376 -0.38593423 0.23852047
0.013146281 0.01530923 0.039999999 -0.14741376 -0.38593423 0.23852047
0.014306163 0.014870829 0.039999999 -0.14741376 -0.38593423 0.23852047
0.015466437 0.014433052 0.039999999 -0.14741376 -0.38593423 0.23852047
0.01662712 0.013995891 0.039999999 -0.14741376 -0.38593423 0.23852047
0.017788237 0.013559339 0.039999999 -0.14741376 -0.38593423 0.23852047
0.018949805 0.013123387 0.039999999 -0.14741376 -0.38593423 0.23852047
0.020111848 0.012688028 0.039999999 -0.14741376 -0.38593423 0.23852047
0.021274382 0.012253256 0.039999999 -0.14741376 -0.38593423 0.23852047
0.022437433 0.011819061 0.039999999 -0.14741376 -0.38593423 0.23852047
0.023601018 0.011385437 0.039999999 -0.14741376 -0.38593423 0.23852047
0.024765158 0.010952378 0.039999999 -0.14741376 -0.38593423 0.23852047
0.025929876 0.010519873 0.039999999 -0.14741376 -0.38593423 0.23852047
0.027095191 0.010087918 0.039999999 -0.14741376 -0.38593423 0.23852047
0.028261123 0.0096565029 0.039999999 -0.14741376 -0.38593423 0.23852047
0.029427696 0.0092256209 0.039999999 -0.14741376 -0.38593423 0.23852047
0.03059493 0.008795267 0.039999999 -0.14741376 -0.38593423 0.23852047
0.031762842 0.0083654309 0.039999999 -0.14741376 -0.38593423 0.23852047
0.032931458 0.007936107 0.039999999 -0.14741376 -0.38593423 0.23852047
0.034100797 0.007507287 0.039999999 -0.14741376 -0.38593423 0.23852047
0.035270881 0.0070789638 0.039999999 -0.14741376 -0.38593423 0.23852047
0.036441732 0.006651131 0.039999999 -0.14741376 -0.38593423 0.23852047
0.037613366 0.0062237806 0.039999999 -0.14741376 -0.38593423 0.23852047
0.038785808 0.0057969051 0.039999999 -0.14741376 -0.38593423 0.23852047
0.039959081 0.0053704977 0.039999999 -0.14741376 -0.38593423 0.23852047
2.7755576e-17 0.076078095 0.01460128 -0.14741376 -0.38593423 0.23852047
0 0.071538799 0.016555473 -0.14741376 -0.38593423 0.23852047
2.7755576e-17 0.067079358 0.018475644 -0.14741376 -0.38593423 0.23852047
2.7755576e-17 0.062697627 0.020362707 -0.14741376 -0.38593423 0.23852047
2.7755576e-17 0.058391538 0.02221754 -0.14741376 -0.38593423 0.23852047
2.7755576e-17 0.054159101 0.024040999 -0.14741376 -0.38593423 0.23852047
2.7755576e-17 0.049998388 0.025833899 -0.14741376 -0.38593423 0.23852047
2.7755576e-17 0.045907535 0.027597036 -0.14741376 -0.38593423 0.23852047
0 0.041884754 0.029331174 -0.14741376 -0.38593423 0.23852047
2.7755576e-17 0.037928302 0.031037053 -0.14741376 -0.38593423 0.23852047
2.7755576e-17 0.03403651 0.032715388 -0.14741376 -0.38593423 0.23852047
2.7755576e-17 0.030207755 0.034366865 -0.14741376 -0.38593423 0.23852047
0 0.02644047 0.035992157 -0.14741376 -0.38593423 0.23852047
0 0.022733141 0.037591908 -0.14741376 -0.38593423 0.23852047
2.7755576e-17 0.019084299 0.039166741 -0.14741376 -0.38593423 0.23852047
0.00053454482 0.016948164 0.039999999 -0.14741376 -0.38593423 0.23852047
0.0016854054 0.016505605 0.039999999 -0.14741376 -0.38593423 0.23852047
0.0028364428 0.01606372 0.039999999 -0.14741376 -0.38593423 0.23852047
0.0039876774 0.015622503 0.039999999 -0.14741376 -0.38593423 0.23852047
0.0051391288 0.015181946 0.039999999 -0.14741376 -0.38593423 0.23852047
0.0062908176 0.01474204 0.039999999 -0.14741376 -0.38593423 0.23852047
0.007442764 0.014302778 0.039999999 -0.14741376 -0.38593423 0.23852047
0.0085949879 0.013864152 0.039999999 -0.14741376 -0.38593423 0.23852047
0.0097475098 0.013426155 0.039999999 -0.14741376 -0.38593423 0.23852047
0.01090035 0.012988778 0.039999999 -0.14741376 -0.38593423 0.23852047
0.012053529 0.012552015 0.039999999 -0.14741376 -0.38593423 0.23852047
0.013207066 0.012115858 0.039999999 -0.14741376 -0.38593423 0.23852047
0.014360982 0.011680298 0.039999999 -0.14741376 -0.38593423 0.23852047
0.015515298 0.01124533 0.039999999 -0.14741376 -0.38593423 0.23852047
0.016670033 0.010810944 0.039999999 -0.14741376 -0.38593423 0.23852047
0.017825207 0.010377134 0.039999999 -0.14741376 -0.38593423 0.23852047
0.018980842 0.0099438932 0.039999999 -0.14741376 -0.38593423 0.23852047
0.020136958 0.0095112119 0.039999999 -0.14741376 -0.38593423 0.23852047
0.021293575 0.0090790847 0.039999999 -0.14741376 -0.38593423 0.23852047
0.022450713 0.0086475024 0.039999999 -0.14741376 -0.38593423 0.23852047
0.023608394 0.0082164593 0.039999999 -0.14741376 -0.38593423 0.23852047
0.024766637 0.0077859471 0.039999999 -0.14741376 -0.38593423 0.23852047
0.025925465 0.0073559587 0.039999999 -0.14741376 -0.38593423 0.23852047
0.027084894 0.0069264872 0.039999999 -0.14741376 -0.38593423 0.23852047
0.028244948 0.0064975242 0.039999999 -0.14741376 -0.38593423 0.23852047
0.029405646 0.0060690637 0.039999999 -0.14741376 -0.38593423 0.23852047
0.030567011 0.0056410972 0.039999999 -0.14741376 -0.38593423 0.23852047
0.031729061 0.0052136187 0.039999999 -0.14741376 -0.38593423 0.23852047
0.032891821 0.0047866199 0.039999999 -0.14741376 -0.38593423 0.23852047
0.034055304 0.0043600937 0.039999999 -0.14741376 -0.38593423 0.23852047
0.035219539 0.0039340337 0.039999999 -0.14741376 -0.38593423 0.23852047
0.036384542 0.0035084321 0.039999999 -0.14741376 -0.38593423 0.23852047
0.037550338 0.0030832817 0.039999999 -0.14741376 -0.38593423 0.23852047
0.038716942 0.0026585755 0.039999999 -0.14741376 -0.38593423 0.23852047
0.039884381 0.0022343064 0.039999999 -0.14741376 -0.38593423 0.23852047
2.7755576e-17 0.076207571 0.01300238 -0.14741376 -0.38593423 0.23852047
2.7755576e-17 0.071659468 0.014974093 -0.14741376 -0.38593423 0.23852047
0 0.067191504 0.016911406 -0.14741376 -0.38593423 0.23852047
2.7755576e-17 0.062801532 0.018815247 -0.14741376 -0.38593423 0.23852047
2.7755576e-17 0.058487475 0.020686509 -0.14741376 -0.38593423 0.23852047
2.7755576e-17 0.05424732 0.02252605 -0.14741376 -0.38593423 0.23852047
2.7755576e-17 0.050079137 0.024334703 -0.14741376 -0.38593423 0.23852047
2.7755576e-17 0.045981057 0.026113268 -0.14741376 -0.38593423 0.23852047
0 0.041951273 0.027862523 -0.14741376 -0.38593423 0.23852047
0 0.037988041 0.029583214 -0.14741376 -0.38593423 0.23852047
2.7755576e-17 0.034089681 0.031276066 -0.14741376 -0.38593423 0.23852047
0 0.030254561 0.032941774 -0.14741376 -0.38593423 0.23852047
0 0.026481111 0.03458102 -0.14741376 -0.38593423 0.23852047
2.7755576e-17 0.022767803 0.036194455 -0.14741376 -0.38593423 0.23852047
2.7755576e-17 0.019113168 0.037782706 -0.14741376 -0.38593423 0.23852047
2.7755576e-17 0.015515782 0.039346393 -0.14741376 -0.38593423 0.23852047
0.0006609374 0.013758306 0.039999999 -0.14741376 -0.38593423 0.23852047
0.0018057934 0.013318871 0.039999999 -0.14741376 -0.38593423 0.23852047
0.0029508371 0.012880078 0.039999999 -0.14741376 -0.38593423 0.23852047
0.0040960885 0.012441917 0.039999999 -0.14741376 -0.38593423 0.23852047
0.0052415677 0.012004383 0.039999999 -0.14741376 -0.38593423 0.23852047
0.0063872947 0.011567468 0.039999999 -0.14741376 -0.38593423 0.23852047
0.007533289 0.011131163 0.039999999 -0.14741376 -0.38593423 0.23852047
0.0086795706 0.01069546 0.039999999 -0.14741376 -0.38593423 0.23852047
0.00982616 0.010260354 0.039999999 -0.14741376 -0.38593423 0.23852047
0.010973076 0.0098258359 0.039999999 -0.14741376 -0.38593423 0.23852047
0.012120341 0.0093918983 0.039999999 -0.14741376 -0.38593423 0.23852047
0.013267973 0.0089585343 0.039999999 -0.14741376 -0.38593423 0.23852047
0.014415991 0.0085257348 0.039999999 -0.14741376 -0.38593423 0.23852047
0.015564418 0.0080934949 0.039999999 -0.14741376 -0.38593423 0.23852047
0.016713273 0.007661805 0.039999999 -0.14741376 -0.38593423 0.23852047
0.017862575 0.007230659 0.039999999 -0.14741376 -0.38593423 0.23852047
0.019012345 0.006800049 0.039999999 -0.14741376 -0.38593423 0.23852047
0.020162603 0.0063699679 0.039999999 -0.14741376 -0.38593423 0.23852047
0.021313369 0.0059404084 0.039999999 -0.14741376 -0.38593423 0.23852047
0.022464663 0.005511363 0.039999999 -0.14741376 -0.38593423 0.23852047
0.023616506 0.0050828243 0.039999999 -0.14741376 -0.38593423 0.23852047
0.024768919 0.0046547856 0.039999999 -0.14741376 -0.38593423 0.23852047
0.02592192 0.0042272387 0.039999999 -0.14741376 -0.38593423 0.23852047
0.027075531 0.0038001775 0.039999999 -0.14741376 -0.38593423 0.23852047
0.028229771 0.003373594 0.039999999 -0.14741376 -0.38593423 0.23852047
0.029384661 0.0029474813 0.039999999 -0.14741376 -0.38593423 0.23852047
0.030540224 0.0025218322 0.039999999 -0.14741376 -0.38593423 0.23852047
0.031696476 0.0020966397 0.039999999 -0.14741376 -0.38593423 0.23852047
0.032853439 0.0016718962 0.039999999 -0.14741376 -0.38593423 0.23852047
0.034011137 0.0012475949 0.039999999 -0.14741376 -0.38593423 0.23852047
0.035169587 0.00082372868 0.039999999 -0.14741376 -0.38593423 0.23852047
0.036328811 0.00040029027 0.039999999 -0.14741376 -0.38593423 0.23852047
0.037499718 0 0.039988309 -0.14741376 -0.38593423 0.23852047
0.038864609 5.5511151e-17 0.039770659 -0.14741376 -0.38593423 0.23852047
2.7755576e-17 0.076337434 0.011398769 -0.14741376 -0.38593423 0.23852047
2.7755576e-17 0.071780488 0.0133881 -0.14741376 -0.38593423 0.23852047
2.7755576e-17 0.067303978 0.015342654 -0.14741376 -0.38593423 0.23852047
2.7755576e-17 0.062905736 0.017263368 -0.14741376 -0.38593423 0.23852047
2.7755576e-17 0.058583681 0.019151146 -0.14741376 -0.38593423 0.23852047
0 0.054335788 0.021006858 -0.14741376 -0.38593423 0.23852047
2.7755576e-17 0.050160114 0.022831349 -0.14741376 -0.38593423 0.23852047
2.7755576e-17 0.04605478 0.024625426 -0.14741376 -0.38593423 0.23852047
2.7755576e-17 0.042017974 0.026389878 -0.14741376 -0.38593423 0.23852047
2.7755576e-17 0.038047943 0.028125461 -0.14741376 -0.38593423 0.23852047
2.7755576e-17 0.034142993 0.029832905 -0.14741376 -0.38593423 0.23852047
2.7755576e-17 0.030301493 0.03151292 -0.14741376 -0.38593423 0.23852047
2.7755576e-17 0.026521856 0.033166192 -0.14741376 -0.38593423 0.23852047
0 0.022802556 0.034793377 -0.14741376 -0.38593423 0.23852047
2.7755576e-17 0.019142114 0.036395118 -0.14741376 -0.38593423 0.23852047
2.7755576e-17 0.015539094 0.037972033 -0.14741376 -0.38593423 0.23852047
2.7755576e-17 0.011992114 0.039524723 -0.14741376 -0.38593423 0.23852047
0.00078666542 0.010604706 0.039999999 -0.14741376 -0.38593423 0.23852047
0.0019255877 0.010168308 0.039999999 -0.14741376 -0.38593423 0.23852047
0.0030647083 0.0097325183 0.039999999 -0.14741376 -0.38593423 0.23852047
0.0042040474 0.0092973299 0.039999999 -0.14741376 -0.38593423 0.23852047
0.0053436244 0.0088627348 0.039999999 -0.14741376 -0.38593423 0.23852047
0.0064834584 0.0084287245 0.039999999 -0.14741376 -0.38593423 0.23852047
0.00762357 0.0079952935 0.039999999 -0.14741376 -0.38593423 0.23852047
0.0087639792 0.0075624324 0.039999999 -0.14741376 -0.38593423 0.23852047
0.0099047041 0.0071301353 0.039999999 -0.14741376 -0.38593423 0.23852047
0.011045766 0.0066983942 0.039999999 -0.14741376 -0.38593423 0.23852047
0.012187184 0.0062672016 0.039999999 -0.14741376 -0.38593423 0.23852047
0.013328978 0.0058365501 0.039999999 -0.14741376 -0.38593423 0.23852047
0.014471168 0.0054064328 0.039999999 -0.14741376 -0.38593423 0.23852047
0.015613773 0.0049768421 0.039999999 -0.14741376 -0.38593423 0.23852047
0.016756814 0.0045477711 0.039999999 -0.14741376 -0.38593423 0.23852047
0.01790031 0.0041192118 0.039999999 -0.14741376 -0.38593423 0.23852047
0.019044282 0.0036911571 0.039999999 -0.14741376 -0.38593423 0.23852047
0.020188747 0.0032636004 0.039999999 -0.14741376 -0.38593423 0.23852047
0.021333728 0.0028365338 0.039999999 -0.14741376 -0.38593423 0.23852047
0.022479245 0.0024099504 0.039999999 -0.14741376 -0.38593423 0.23852047
0.023625316 0.001983843 0.039999999 -0.14741376 -0.38593423 0.23852047
0.024771962 0.0015582045 0.039999999 -0.14741376 -0.38593423 0.23852047
