# .PCD v0.7 - Point Cloud Data file format
VERSION 0.7
FIELDS x y z vp_x vp_y vp_z
SIZE 4 4 4 4 4 4
TYPE F F F F F F
COUNT 1 1 1 1 1 1
WIDTH 685
HEIGHT 1
VIEWPOINT 0 0 0 1 0 0 0
POINTS 685
DATA ascii
0.029481765 0.045524236 0.07 0.14741376 -0.38593423 0.23852047
0.030626139 0.046017945 0.07 0.14741376 -0.38593423 0.23852047
0.031770904 0.046513412 0.07 0.14741376 -0.38593423 0.23852047
0.032916088 0.047010649 0.07 0.14741376 -0.38593423 0.23852047
0.025794789 0.079121329 0.057709571 0.14741376 -0.38593423 0.23852047
0.035207804 0.048010487 0.07 0.14741376 -0.38593423 0.23852047
0.036350437 0.048528582 0.069994003 0.14741376 -0.38593423 0.23852047
0.037268985 0.049937658 0.069643512 0.14741376 -0.38593423 0.23852047
0.038136907 0.051574677 0.069206335 0.14741376 -0.38593423 0.23852047
0.038928438 0.053552106 0.068639308 0.14741376 -0.38593423 0.23852047
0.039594896 0.056081735 0.067861132 0.14741376 -0.38593423 0.23852047
0.039988894 0.059795115 0.066629007 0.14741376 -0.38593423 0.23852047
0.0039854338 0.048033234 0.064017773 0.14741376 -0.38593423 0.23852047
0.006090397 0.045667905 0.065158799 0.14741376 -0.38593423 0.23852047
0.0079208752 0.044096477 0.065979406 0.14741376 -0.38593423 0.23852047
0.0096031809 0.042948678 0.066629045 0.14741376 -0.38593423 0.23852047
0.011189909 0.042071588 0.067169495 0.14741376 -0.38593423 0.23852047
0.012709606 0.041382626 0.067634143 0.14741376 -0.38593423 0.23852047
0.014160268 0.040893815 0.068018429 0.14741376 -0.38593423 0.23852047
0.015567967 0.04052683 0.068353884 0.14741376 -0.38593423 0.23852047
0.016945425 0.040243808 0.068655752 0.14741376 -0.38593423 0.23852047
0.018277008 0.040098943 0.068902574 0.14741376 -0.38593423 0.23852047
0.019582879 0.040029299 0.069119565 0.14741376 -0.38593423 0.23852047
0.020865394 0.040029299 0.069309041 0.14741376 -0.38593423 0.23852047
0.022112738 0.040141344 0.069454275 0.14741376 -0.38593423 0.23852047
0.023348385 0.040288322 0.069585979 0.14741376 -0.38593423 0.23852047
0.02454895 0.04055256 0.069671609 0.14741376 -0.38593423 0.23852047
0.025736861 0.040859155 0.069740944 0.14741376 -0.38593423 0.23852047
0.026900353 0.041251197 0.069777019 0.14741376 -0.38593423 0.23852047
0.028043494 0.041716922 0.069784597 0.14741376 -0.38593423 0.23852047
0.029171763 0.042238917 0.069770642 0.14741376 -0.38593423 0.23852047
0.030270511 0.042872693 0.069713384 0.14741376 -0.38593423 0.23852047
0.031359367 0.043549336 0.069640063 0.14741376 -0.38593423 0.23852047
0.032416284 0.044352811 0.069517776 0.14741376 -0.38593423 0.23852047
0.033454601 0.045236938 0.069364801 0.14741376 -0.38593423 0.23852047
0.034474663 0.046203151 0.06918069 0.14741376 -0.38593423 0.23852047
0.03545313 0.04734464 0.068929091 0.14741376 -0.38593423 0.23852047
0.036404941 0.048608981 0.068630733 0.14741376 -0.38593423 0.23852047
0.037321132 0.050036009 0.068270229 0.14741376 -0.38593423 0.23852047
0.038186852 0.051690929 0.067822382 0.14741376 -0.38593423 0.23852047
0.038974855 0.053692359 0.067241281 0.14741376 -0.38593423 0.23852047
0.039628346 0.05628575 0.066431887 0.14741376 -0.38593423 0.23852047
0.039992698 0.060134724 0.065137081 0.14741376 -0.38593423 0.23852047
0.0040463088 0.047943447 0.062685929 0.14741376 -0.38593423 0.23852047
0.0061380202 0.045622796 0.063817821 0.14741376 -0.38593423 0.23852047
0.0079667177 0.044061624 0.064640731 0.14741376 -0.38593423 0.23852047
0.009648107 0.042921647 0.065292314 0.14741376 -0.38593423 0.23852047
0.011234413 0.042050999 0.065834396 0.14741376 -0.38593423 0.23852047
0.012753985 0.041367672 0.066300407 0.14741376 -0.38593423 0.23852047
0.014206518 0.040878233 0.066687934 0.14741376 -0.38593423 0.23852047
0.015614223 0.040516648 0.067023814 0.14741376 -0.38593423 0.23852047
0.016991803 0.04023876 0.067325942 0.14741376 -0.38593423 0.23852047
0.018325157 0.040093705 0.067574725 0.14741376 -0.38593423 0.23852047
0.019631172 0.040029299 0.067791246 0.14741376 -0.38593423 0.23852047
0.020915421 0.040029299 0.067982137 0.14741376 -0.38593423 0.23852047
0.022162901 0.040146802 0.068126231 0.14741376 -0.38593423 0.23852047
0.023398671 0.04029939 0.068256631 0.14741376 -0.38593423 0.23852047
0.024600916 0.040564001 0.068342671 0.14741376 -0.38593423 0.23852047
0.025788877 0.040876683 0.068410002 0.14741376 -0.38593423 0.23852047
0.026954027 0.041269284 0.06844601 0.14741376 -0.38593423 0.23852047
0.028097117 0.041741729 0.068450838 0.14741376 -0.38593423 0.23852047
0.029227028 0.042264488 0.068436317 0.14741376 -0.38593423 0.23852047
0.030325579 0.042905826 0.068375446 0.14741376 -0.38593423 0.23852047
0.031414054 0.043590911 0.068298034 0.14741376 -0.38593423 0.23852047
0.032472584 0.044395611 0.068174116 0.14741376 -0.38593423 0.23852047
0.033510242 0.045289647 0.068015829 0.14741376 -0.38593423 0.23852047
0.034531362 0.046259496 0.06782864 0.14741376 -0.38593423 0.23852047
0.035509337 0.047410812 0.067570969 0.14741376 -0.38593423 0.23852047
0.036459573 0.048689563 0.067264371 0.14741376 -0.38593423 0.23852047
0.037373397 0.050134592 0.066893727 0.14741376 -0.38593423 0.23852047
0.038235519 0.05181307 0.066432863 0.14741376 -0.38593423 0.23852047
0.039017864 0.053847272 0.06583409 0.14741376 -0.38593423 0.23852047
0.039661892 0.056490339 0.064998619 0.14741376 -0.38593423 0.23852047
0.039967749 0.060595028 0.063593224 0.14741376 -0.38593423 0.23852047
0.0041025905 0.047867715 0.061346214 0.14741376 -0.38593423 0.23852047
0.0061857267 0.045577608 0.062474485 0.14741376 -0.38593423 0.23852047
0.008012644 0.04402671 0.063299641 0.14741376 -0.38593423 0.23852047
0.009693115 0.042894568 0.063953117 0.14741376 -0.38593423 0.23852047
0.011279 0.042030372 0.064496808 0.14741376 -0.38593423 0.23852047
0.012798447 0.041352689 0.064964145 0.14741376 -0.38593423 0.23852047
0.014252856 0.04086262 0.065354936 0.14741376 -0.38593423 0.23852047
0.015660567 0.040506449 0.065691203 0.14741376 -0.38593423 0.23852047
0.017038269 0.040233705 0.065993562 0.14741376 -0.38593423 0.23852047
0.0183734 0.04008846 0.066244312 0.14741376 -0.38593423 0.23852047
0.019679559 0.040029299 0.066460341 0.14741376 -0.38593423 0.23852047
0.020965545 0.040029299 0.066652648 0.14741376 -0.38593423 0.23852047
0.022213163 0.04015227 0.06679558 0.14741376 -0.38593423 0.23852047
0.02344906 0.04031048 0.066924632 0.14741376 -0.38593423 0.23852047
0.024652984 0.04057546 0.067011096 0.14741376 -0.38593423 0.23852047
0.025841 0.040894244 0.067076385 0.14741376 -0.38593423 0.23852047
0.027007811 0.041287407 0.067112319 0.14741376 -0.38593423 0.23852047
0.028150851 0.041766588 0.067114346 0.14741376 -0.38593423 0.23852047
0.029282406 0.042290106 0.067099258 0.14741376 -0.38593423 0.23852047
0.030380761 0.04293903 0.067034721 0.14741376 -0.38593423 0.23852047
0.031468853 0.043632571 0.06695316 0.14741376 -0.38593423 0.23852047
0.032529004 0.044438504 0.066827603 0.14741376 -0.38593423 0.23852047
0.033566009 0.045342464 0.066663936 0.14741376 -0.38593423 0.23852047
0.034586102 0.046323936 0.066470459 0.14741376 -0.38593423 0.23852047
0.035565671 0.04747713 0.06620983 0.14741376 -0.38593423 0.23852047
0.036514331 0.048770327 0.065894887 0.14741376 -0.38593423 0.23852047
0.037425786 0.050233405 0.065513961 0.14741376 -0.38593423 0.23852047
0.038284309 0.051935516 0.06503991 0.14741376 -0.38593423 0.23852047
0.039060984 0.05400259 0.064423218 0.14741376 -0.38593423 0.23852047
0.039695535 0.056695506 0.063561283 0.14741376 -0.38593423 0.23852047
0.039942704 0.061057162 0.062043231 0.14741376 -0.38593423 0.23852047
0.004153837 0.047807384 0.059997912 0.14741376 -0.38593423 0.23852047
0.0062335185 0.045532338 0.061128765 0.14741376 -0.38593423 0.23852047
0.0080586541 0.043991733 0.061956108 0.14741376 -0.38593423 0.23852047
0.0097382069 0.042867437 0.062611446 0.14741376 -0.38593423 0.23852047
0.011323671 0.042009704 0.063156702 0.14741376 -0.38593423 0.23852047
0.012842994 0.04133768 0.063625343 0.14741376 -0.38593423 0.23852047
0.014299283 0.040846974 0.064019404 0.14741376 -0.38593423 0.23852047
0.015707001 0.04049623 0.064356036 0.14741376 -0.38593423 0.23852047
0.017084826 0.040228643 0.064658597 0.14741376 -0.38593423 0.23852047
0.018421736 0.0400832 0.064911321 0.14741376 -0.38593423 0.23852047
0.019728042 0.040029299 0.065126829 0.14741376 -0.38593423 0.23852047
0.021015767 0.040029299 0.065320551 0.14741376 -0.38593423 0.23852047
0.022263523 0.04015775 0.065462284 0.14741376 -0.38593423 0.23852047
0.023499547 0.040321592 0.065589957 0.14741376 -0.38593423 0.23852047
0.024705157 0.040586941 0.065676838 0.14741376 -0.38593423 0.23852047
0.025893228 0.040911842 0.065740049 0.14741376 -0.38593423 0.23852047
0.027061703 0.041305564 0.065775916 0.14741376 -0.38593423 0.23852047
0.028204694 0.041791499 0.065775089 0.14741376 -0.38593423 0.23852047
0.029337898 0.042315781 0.065759443 0.14741376 -0.38593423 0.23852047
0.030436059 0.0429723 0.065691181 0.14741376 -0.38593423 0.23852047
0.031523772 0.04367432 0.065605409 0.14741376 -0.38593423 0.23852047
0.032585543 0.044481486 0.065478213 0.14741376 -0.38593423 0.23852047
0.033621892 0.0453954 0.065309092 0.14741376 -0.38593423 0.23852047
0.034640964 0.046388526 0.065109253 0.14741376 -0.38593423 0.23852047
0.035622131 0.047543596 0.064845644 0.14741376 -0.38593423 0.23852047
0.036569212 0.048851278 0.064522244 0.14741376 -0.38593423 0.23852047
0.037478302 0.050332457 0.06413091 0.14741376 -0.38593423 0.23852047
0.038333219 0.052058265 0.063643493 0.14741376 -0.38593423 0.23852047
0.03910422 0.054158319 0.063008629 0.14741376 -0.38593423 0.23852047
0.039729271 0.056901261 0.062119849 0.14741376 -0.38593423 0.23852047
0.039917555 0.061521143 0.060487043 0.14741376 -0.38593423 0.23852047
0.0042051715 0.047746949 0.058647282 0.14741376 -0.38593423 0.23852047
0.0062813954 0.045486987 0.059780631 0.14741376 -0.38593423 0.23852047
0.0081047481 0.043956693 0.060610108 0.14741376 -0.38593423 0.23852047
0.0097833835 0.042840257 0.06126726 0.14741376 -0.38593423 0.23852047
0.011368426 0.041988999 0.061814055 0.14741376 -0.38593423 0.23852047
0.012887627 0.041322641 0.062283963 0.14741376 -0.38593423 0.23852047
0.014345798 0.040831301 0.06268131 0.14741376 -0.38593423 0.23852047
0.015753524 0.040485989 0.063018277 0.14741376 -0.38593423 0.23852047
0.017131474 0.040223565 0.063321017 0.14741376 -0.38593423 0.23852047
0.018470166 0.040077932 0.063575715 0.14741376 -0.38593423 0.23852047
0.01977662 0.040029299 0.063790664 0.14741376 -0.38593423 0.23852047
0.021066086 0.040029299 0.063985817 0.14741376 -0.38593423 0.23852047
0.022313986 0.040163238 0.06412632 0.14741376 -0.38593423 0.23852047
0.023550138 0.040332727 0.064252585 0.14741376 -0.38593423 0.23852047
0.024757436 0.040598448 0.064339884 0.14741376 -0.38593423 0.23852047
0.025945563 0.040929478 0.064400971 0.14741376 -0.38593423 0.23852047
0.027115704 0.041323762 0.064436764 0.14741376 -0.38593423 0.23852047
0.02825865 0.041816462 0.064433053 0.14741376 -0.38593423 0.23852047
0.029392673 0.042344525 0.064415604 0.14741376 -0.38593423 0.23852047
0.030491473 0.043005642 0.064344801 0.14741376 -0.38593423 0.23852047
0.031578809 0.043716159 0.064254768 0.14741376 -0.38593423 0.23852047
0.032642208 0.044524562 0.064125918 0.14741376 -0.38593423 0.23852047
0.033677902 0.045448452 0.063951276 0.14741376 -0.38593423 0.23852047
0.034695953 0.046453256 0.063744985 0.14741376 -0.38593423 0.23852047
0.035678718 0.047610212 0.063478388 0.14741376 -0.38593423 0.23852047
0.036624223 0.048932415 0.06314642 0.14741376 -0.38593423 0.23852047
0.037530944 0.050431747 0.062744543 0.14741376 -0.38593423 0.23852047
0.038382251 0.052181322 0.062243577 0.14741376 -0.38593423 0.23852047
0.039147567 0.054314461 0.061590299 0.14741376 -0.38593423 0.23852047
0.039763104 0.057107609 0.06067428 0.14741376 -0.38593423 0.23852047
0.039892308 0.06198699 0.058924597 0.14741376 -0.38593423 0.23852047
0.0042565954 0.047686405 0.057294302 0.14741376 -0.38593423 0.23852047
0.006329359 0.045441557 0.058430061 0.14741376 -0.38593423 0.23852047
0.0081509277 0.043921586 0.059261613 0.14741376 -0.38593423 0.23852047
0.0098286457 0.042813025 0.059920542 0.14741376 -0.38593423 0.23852047
0.011413268 0.041968253 0.060468838 0.14741376 -0.38593423 0.23852047
0.012932345 0.041307572 0.060939986 0.14741376 -0.38593423 0.23852047
0.014392402 0.040815599 0.061340638 0.14741376 -0.38593423 0.23852047
0.015800139 0.04047573 0.061677903 0.14741376 -0.38593423 0.23852047
0.017178213 0.04021848 0.061980784 0.14741376 -0.38593423 0.23852047
0.018518692 0.040072653 0.062237483 0.14741376 -0.38593423 0.23852047
0.019825295 0.040029299 0.062451843 0.14741376 -0.38593423 0.23852047
0.021115456 0.040032852 0.062646955 0.14741376 -0.38593423 0.23852047
0.022364549 0.04016874 0.062787659 0.14741376 -0.38593423 0.23852047
0.023600832 0.040343884 0.062912479 0.14741376 -0.38593423 0.23852047
0.024809821 0.040609978 0.063000202 0.14741376 -0.38593423 0.23852047
0.025998008 0.040947147 0.063059129 0.14741376 -0.38593423 0.23852047
0.027169818 0.041341998 0.063094854 0.14741376 -0.38593423 0.23852047
0.028312718 0.041841477 0.063088201 0.14741376 -0.38593423 0.23852047
0.029446566 0.04237695 0.063067451 0.14741376 -0.38593423 0.23852047
0.030547008 0.043039054 0.06299556 0.14741376 -0.38593423 0.23852047
0.031633966 0.043758091 0.062901191 0.14741376 -0.38593423 0.23852047
0.032698993 0.04456773 0.062770687 0.14741376 -0.38593423 0.23852047
0.033734035 0.045501623 0.06259045 0.14741376 -0.38593423 0.23852047
0.034751061 0.046518136 0.062377617 0.14741376 -0.38593423 0.23852047
0.035735432 0.04767698 0.062108018 0.14741376 -0.38593423 0.23852047
0.036679361 0.049013745 0.061767388 0.14741376 -0.38593423 0.23852047
0.037583709 0.050531272 0.061354823 0.14741376 -0.38593423 0.23852047
0.038431406 0.052304689 0.060840134 0.14741376 -0.38593423 0.23852047
0.039191034 0.054471016 0.060168184 0.14741376 -0.38593423 0.23852047
0.039797038 0.057314549 0.059224535 0.14741376 -0.38593423 0.23852047
0.039765533 0.062877581 0.057184987 0.14741376 -0.38593423 0.23852047
0.0043081096 0.047625761 0.055938948 0.14741376 -0.38593423 0.23852047
0.0063774101 0.045396041 0.057077028 0.14741376 -0.38593423 0.23852047
0.008197193 0.043886416 0.057910603 0.14741376 -0.38593423 0.23852047
0.0098739928 0.042785741 0.05857126 0.14741376 -0.38593423 0.23852047
0.011458195 0.041947465 0.059121024 0.14741376 -0.38593423 0.23852047
0.012977152 0.041292474 0.059593387 0.14741376 -0.38593423 0.23852047
0.014439098 0.040799864 0.05999735 0.14741376 -0.38593423 0.23852047
0.015846847 0.040465448 0.060334891 0.14741376 -0.38593423 0.23852047
0.017225046 0.040213387 0.060637888 0.14741376 -0.38593423 0.23852047
0.018567314 0.040067364 0.060896583 0.14741376 -0.38593423 0.23852047
0.019874068 0.040029299 0.061110329 0.14741376 -0.38593423 0.23852047
0.021164401 0.040038176 0.061304655 0.14741376 -0.38593423 0.23852047
0.022415215 0.04017425 0.061446283 0.14741376 -0.38593423 0.23852047
0.02365163 0.040355068 0.06156962 0.14741376 -0.38593423 0.23852047
0.024862314 0.04062153 0.061657768 0.14741376 -0.38593423 0.23852047
0.02605056 0.040964857 0.061714489 0.14741376 -0.38593423 0.23852047
0.027224045 0.04136027 0.061750144 0.14741376 -0.38593423 0.23852047
0.028366901 0.041866545 0.061740514 0.14741376 -0.38593423 0.23852047
0.029500578 0.042409446 0.061716404 0.14741376 -0.38593423 0.23852047
0.03060266 0.04307254 0.061643414 0.14741376 -0.38593423 0.23852047
0.031689242 0.043800112 0.06154466 0.14741376 -0.38593423 0.23852047
0.0327559 0.044610992 0.061412487 0.14741376 -0.38593423 0.23852047
0.033790294 0.04555491 0.061226588 0.14741376 -0.38593423 0.23852047
0.0348063 0.046583161 0.061007135 0.14741376 -0.38593423 0.23852047
0.03579228 0.047743902 0.06073451 0.14741376 -0.38593423 0.23852047
0.036734629 0.049095266 0.060385108 0.14741376 -0.38593423 0.23852047
0.037636608 0.050631043 0.059961729 0.14741376 -0.38593423 0.23852047
0.038480684 0.052428368 0.059433129 0.14741376 -0.38593423 0.23852047
0.039234612 0.054627992 0.058742248 0.14741376 -0.38593423 0.23852047
0.039831068 0.057522092 0.057770576 0.14741376 -0.38593423 0.23852047
0.039576672 0.064029396 0.055330813 0.14741376 -0.38593423 0.23852047
0.0043597152 0.047565006 0.054581191 0.14741376 -0.38593423 0.23852047
0.0064255493 0.045350444 0.05572151 0.14741376 -0.38593423 0.23852047
0.0082435459 0.043851178 0.056557048 0.14741376 -0.38593423 0.23852047
0.0099194273 0.042758405 0.057219397 0.14741376 -0.38593423 0.23852047
0.01150321 0.041926637 0.057770591 0.14741376 -0.38593423 0.23852047
0.013022047 0.041277345 0.058244135 0.14741376 -0.38593423 0.23852047
0.014485884 0.040784098 0.058651425 0.14741376 -0.38593423 0.23852047
0.015893646 0.040455148 0.058989208 0.14741376 -0.38593423 0.23852047
0.017271973 0.04020828 0.059292294 0.14741376 -0.38593423 0.23852047
0.018616034 0.040062062 0.059552997 0.14741376 -0.38593423 0.23852047
0.01992294 0.040029299 0.059766091 0.14741376 -0.38593423 0.23852047
0.021213446 0.04004351 0.059959602 0.14741376 -0.38593423 0.23852047
0.022465985 0.040179774 0.060102161 0.14741376 -0.38593423 0.23852047
0.023702534 0.04036627 0.060223978 0.14741376 -0.38593423 0.23852047
0.024914915 0.040633108 0.060312554 0.14741376 -0.38593423 0.23852047
0.026103223 0.0409826 0.060367033 0.14741376 -0.38593423 0.23852047
0.027278386 0.04137858 0.060402613 0.14741376 -0.38593423 0.23852047
0.028421201 0.041891668 0.060389955 0.14741376 -0.38593423 0.23852047
0.029554702 0.042442013 0.06036244 0.14741376 -0.38593423 0.23852047
0.030658431 0.043106098 0.060288347 0.14741376 -0.38593423 0.23852047
0.03174464 0.043842226 0.060185146 0.14741376 -0.38593423 0.23852047
0.032812934 0.044654351 0.0600513 0.14741376 -0.38593423 0.23852047
0.03384668 0.045608319 0.05985966 0.14741376 -0.38593423 0.23852047
0.034861661 0.046648338 0.059633501 0.14741376 -0.38593423 0.23852047
0.035849255 0.047810979 0.059357841 0.14741376 -0.38593423 0.23852047
0.036790028 0.049176976 0.058999553 0.14741376 -0.38593423 0.23852047
0.037689634 0.050731059 0.058565218 0.14741376 -0.38593423 0.23852047
0.038530089 0.052552361 0.058022529 0.14741376 -0.38593423 0.23852047
0.039278314 0.054785393 0.057312462 0.14741376 -0.38593423 0.23852047
0.039865196 0.057730239 0.056312364 0.14741376 -0.38593423 0.23852047
0.0044114133 0.047504142 0.053221006 0.14741376 -0.38593423 0.23852047
0.0064737783 0.04530476 0.054363482 0.14741376 -0.38593423 0.23852047
0.0082899872 0.043815874 0.055200923 0.14741376 -0.38593423 0.23852047
0.0099649504 0.042731017 0.055864919 0.14741376 -0.38593423 0.23852047
0.011548313 0.041905772 0.056417514 0.14741376 -0.38593423 0.23852047
0.01306703 0.041262191 0.056892209 0.14741376 -0.38593423 0.23852047
0.014532764 0.040768303 0.05730284 0.14741376 -0.38593423 0.23852047
0.015940538 0.040444829 0.057640836 0.14741376 -0.38593423 0.23852047
0.017318996 0.040203165 0.057943977 0.14741376 -0.38593423 0.23852047
0.018664852 0.04005675 0.0582067 0.14741376 -0.38593423 0.23852047
0.019971913 0.040029299 0.058419112 0.14741376 -0.38593423 0.23852047
0.021262592 0.040048856 0.058611769 0.14741376 -0.38593423 0.23852047
0.022516862 0.04018531 0.05875526 0.14741376 -0.38593423 0.23852047
0.023753542 0.040377498 0.058875527 0.14741376 -0.38593423 0.23852047
0.024967628 0.040644709 0.058964528 0.14741376 -0.38593423 0.23852047
0.026155997 0.041000385 0.059016727 0.14741376 -0.38593423 0.23852047
0.027332842 0.041396927 0.059052233 0.14741376 -0.38593423 0.23852047
0.028475614 0.041916844 0.059036501 0.14741376 -0.38593423 0.23852047
0.029608948 0.04247465 0.059005529 0.14741376 -0.38593423 0.23852047
0.030714326 0.043139726 0.05893033 0.14741376 -0.38593423 0.23852047
0.031800162 0.043884434 0.058822621 0.14741376 -0.38593423 0.23852047
0.032870099 0.044697806 0.058687091 0.14741376 -0.38593423 0.23852047
0.033903193 0.045661848 0.058489639 0.14741376 -0.38593423 0.23852047
0.034917153 0.046713665 0.058256686 0.14741376 -0.38593423 0.23852047
0.035906363 0.04787821 0.057977978 0.14741376 -0.38593423 0.23852047
0.036845557 0.049258884 0.057610691 0.14741376 -0.38593423 0.23852047
0.03774279 0.050831318 0.057165261 0.14741376 -0.38593423 0.23852047
0.038579624 0.052676678 0.056608304 0.14741376 -0.38593423 0.23852047
0.03932213 0.054943223 0.055878788 0.14741376 -0.38593423 0.23852047
0.039890334 0.057976551 0.054834325 0.14741376 -0.38593423 0.23852047
0.0011310931 0.053402785 0.049083941 0.14741376 -0.38593423 0.23852047
0.0044632042 0.04744317 0.051858373 0.14741376 -0.38593423 0.23852047
0.0065220967 0.045258991 0.053002913 0.14741376 -0.38593423 0.23852047
0.0083365161 0.043780498 0.053842202 0.14741376 -0.38593423 0.23852047
0.010010561 0.042703573 0.054507803 0.14741376 -0.38593423 0.23852047
0.011593506 0.041884862 0.055061758 0.14741376 -0.38593423 0.23852047
0.013112104 0.041247003 0.055537578 0.14741376 -0.38593423 0.23852047
0.014579738 0.040752474 0.055951566 0.14741376 -0.38593423 0.23852047
0.015987525 0.040434487 0.05628974 0.14741376 -0.38593423 0.23852047
0.017366113 0.040198039 0.056592911 0.14741376 -0.38593423 0.23852047
0.01871377 0.04005143 0.05685766 0.14741376 -0.38593423 0.23852047
0.020020984 0.040029299 0.057069357 0.14741376 -0.38593423 0.23852047
0.02131184 0.040054217 0.057261132 0.14741376 -0.38593423 0.23852047
0.022567842 0.040190857 0.057405561 0.14741376 -0.38593423 0.23852047
0.023804661 0.040388748 0.057524238 0.14741376 -0.38593423 0.23852047
0.02502045 0.040656336 0.057613667 0.14741376 -0.38593423 0.23852047
0.026208883 0.041018203 0.057663541 0.14741376 -0.38593423 0.23852047
0.027387414 0.041415315 0.057698976 0.14741376 -0.38593423 0.23852047
0.028530147 0.041942071 0.057680126 0.14741376 -0.38593423 0.23852047
0.029663311 0.042507358 0.057645641 0.14741376 -0.38593423 0.23852047
0.030770343 0.043173429 0.057569332 0.14741376 -0.38593423 0.23852047
0.031855807 0.043926734 0.057457052 0.14741376 -0.38593423 0.23852047
0.032927386 0.044741359 0.057319831 0.14741376 -0.38593423 0.23852047
0.033959832 0.0457155 0.057116494 0.14741376 -0.38593423 0.23852047
0.034972776 0.046779145 0.056876663 0.14741376 -0.38593423 0.23852047
0.035961293 0.0479546 0.056591112 0.14741376 -0.38593423 0.23852047
0.036901224 0.049340989 0.056218497 0.14741376 -0.38593423 0.23852047
0.03779608 0.05093183 0.055761833 0.14741376 -0.38593423 0.23852047
0.038629286 0.052801315 0.055190414 0.14741376 -0.38593423 0.23852047
0.03936607 0.055101484 0.054441191 0.14741376 -0.38593423 0.23852047
0.039905887 0.058263544 0.053335022 0.14741376 -0.38593423 0.23852047
0.0013152319 0.052940618 0.047872316 0.14741376 -0.38593423 0.23852047
0.0045150891 0.047382087 0.050493259 0.14741376 -0.38593423 0.23852047
0.0065705064 0.045213137 0.05163978 0.14741376 -0.38593423 0.23852047
0.0083831362 0.04374506 0.052480862 0.14741376 -0.38593423 0.23852047
0.010056262 0.042676076 0.053148024 0.14741376 -0.38593423 0.23852047
0.011638789 0.041863915 0.053703308 0.14741376 -0.38593423 0.23852047
0.013157268 0.041231781 0.054180216 0.14741376 -0.38593423 0.23852047
0.014626805 0.040736616 0.054597575 0.14741376 -0.38593423 0.23852047
0.016034609 0.040424123 0.054935899 0.14741376 -0.38593423 0.23852047
0.017413327 0.040192902 0.05523907 0.14741376 -0.38593423 0.23852047
0.018762788 0.040046096 0.055505853 0.14741376 -0.38593423 0.23852047
0.02007016 0.040029299 0.055716805 0.14741376 -0.38593423 0.23852047
0.021361193 0.040059585 0.055907663 0.14741376 -0.38593423 0.23852047
0.022618929 0.040196411 0.056053035 0.14741376 -0.38593423 0.23852047
0.023855885 0.040400021 0.056170084 0.14741376 -0.38593423 0.23852047
0.025073383 0.040667988 0.056259945 0.14741376 -0.38593423 0.23852047
0.026261883 0.041036062 0.056307457 0.14741376 -0.38593423 0.23852047
0.027440876 0.041438118 0.056340951 0.14741376 -0.38593423 0.23852047
0.028584799 0.041967355 0.056320798 0.14741376 -0.38593423 0.23852047
0.029717794 0.04254014 0.056282751 0.14741376 -0.38593423 0.23852047
0.030826483 0.04320721 0.056205325 0.14741376 -0.38593423 0.23852047
0.031911578 0.043969132 0.056088414 0.14741376 -0.38593423 0.23852047
0.032983333 0.044790551 0.055947147 0.14741376 -0.38593423 0.23852047
0.034016602 0.045769274 0.0557402 0.14741376 -0.38593423 0.23852047
0.035028525 0.046844777 0.0554934 0.14741376 -0.38593423 0.23852047
0.036015488 0.048034541 0.055199504 0.14741376 -0.38593423 0.23852047
0.036957022 0.049423292 0.054822933 0.14741376 -0.38593423 0.23852047
0.037849501 0.051032588 0.054354895 0.14741376 -0.38593423 0.23852047
0.038679074 0.052926272 0.053768832 0.14741376 -0.38593423 0.23852047
0.039410129 0.055260181 0.052999638 0.14741376 -0.38593423 0.23852047
0.039921492 0.058551494 0.051830728 0.14741376 -0.38593423 0.23852047
0.0014993724 0.052478448 0.046660677 0.14741376 -0.38593423 0.23852047
0.0045670695 0.047320887 0.049125645 0.14741376 -0.38593423 0.23852047
0.0066190083 0.045167193 0.050274059 0.14741376 -0.38593423 0.23852047
0.0084298458 0.04370955 0.051116873 0.14741376 -0.38593423 0.23852047
0.010102052 0.042648528 0.051785551 0.14741376 -0.38593423 0.23852047
0.011684162 0.041842923 0.052342128 0.14741376 -0.38593423 0.23852047
0.013202524 0.041216534 0.052820098 0.14741376 -0.38593423 0.23852047
0.014673009 0.040723804 0.053239502 0.14741376 -0.38593423 0.23852047
0.016081788 0.040413741 0.053579286 0.14741376 -0.38593423 0.23852047
0.017460641 0.040187757 0.053882424 0.14741376 -0.38593423 0.23852047
0.018811908 0.040040754 0.054151248 0.14741376 -0.38593423 0.23852047
0.020119436 0.040029299 0.054361425 0.14741376 -0.38593423 0.23852047
0.02141065 0.040064964 0.054551333 0.14741376 -0.38593423 0.23852047
0.022670126 0.040201981 0.054697651 0.14741376 -0.38593423 0.23852047
0.02390722 0.04041132 0.054813039 0.14741376 -0.38593423 0.23852047
0.025126431 0.040679663 0.054903332 0.14741376 -0.38593423 0.23852047
0.026314998 0.041053962 0.054948438 0.14741376 -0.38593423 0.23852047
0.027493972 0.041462682 0.054979227 0.14741376 -0.38593423 0.23852047
0.028639568 0.041992698 0.054958489 0.14741376 -0.38593423 0.23852047
0.029772397 0.042572994 0.054916829 0.14741376 -0.38593423 0.23852047
0.03088275 0.043241061 0.054838281 0.14741376 -0.38593423 0.23852047
0.031967472 0.044011623 0.054716676 0.14741376 -0.38593423 0.23852047
0.033038598 0.044842899 0.054570012 0.14741376 -0.38593423 0.23852047
0.034073506 0.045823172 0.054360721 0.14741376 -0.38593423 0.23852047
0.035084408 0.046910565 0.054106861 0.14741376 -0.38593423 0.23852047
0.036069818 0.048114676 0.053804517 0.14741376 -0.38593423 0.23852047
0.037012957 0.049505796 0.053423975 0.14741376 -0.38593423 0.23852047
0.037903056 0.051133603 0.052944418 0.14741376 -0.38593423 0.23852047
0.038728997 0.053051561 0.052343521 0.14741376 -0.38593423 0.23852047
0.039454307 0.055419318 0.051554084 0.14741376 -0.38593423 0.23852047
0.03993715 0.058840405 0.050321393 0.14741376 -0.38593423 0.23852047
0.0016835175 0.052016262 0.045449011 0.14741376 -0.38593423 0.23852047
0.0046191458 0.04725958 0.047755506 0.14741376 -0.38593423 0.23852047
0.0066676028 0.045121163 0.048905723 0.14741376 -0.38593423 0.23852047
0.0084766475 0.04367397 0.049750209 0.14741376 -0.38593423 0.23852047
0.010147935 0.04262092 0.050420363 0.14741376 -0.38593423 0.23852047
0.011729627 0.041821886 0.050978195 0.14741376 -0.38593423 0.23852047
0.013247873 0.041201252 0.051457196 0.14741376 -0.38593423 0.23852047
0.014718425 0.040713809 0.051877398 0.14741376 -0.38593423 0.23852047
0.016129065 0.040403333 0.052219871 0.14741376 -0.38593423 0.23852047
0.017508052 0.040182598 0.052522946 0.14741376 -0.38593423 0.23852047
0.01886113 0.040035397 0.052793827 0.14741376 -0.38593423 0.23852047
0.020168819 0.040029299 0.053003188 0.14741376 -0.38593423 0.23852047
0.021460211 0.040070359 0.053192113 0.14741376 -0.38593423 0.23852047
0.02272143 0.040207565 0.053339384 0.14741376 -0.38593423 0.23852047
0.023958666 0.040422644 0.053453073 0.14741376 -0.38593423 0.23852047
0.025179593 0.040691365 0.053543802 0.14741376 -0.38593423 0.23852047
0.026368229 0.041071896 0.053586457 0.14741376 -0.38593423 0.23852047
0.027547186 0.041487303 0.053614493 0.14741376 -0.38593423 0.23852047
0.02869446 0.042018093 0.053593174 0.14741376 -0.38593423 0.23852047
0.029827125 0.042605922 0.053547848 0.14741376 -0.38593423 0.23852047
0.030939141 0.043274991 0.053468172 0.14741376 -0.38593423 0.23852047
0.032023497 0.044054214 0.05334181 0.14741376 -0.38593423 0.23852047
0.033093993 0.04489537 0.053189676 0.14741376 -0.38593423 0.23852047
0.03413054 0.045877196 0.052978028 0.14741376 -0.38593423 0.23852047
0.035140425 0.04697651 0.052717026 0.14741376 -0.38593423 0.23852047
0.036124278 0.048195004 0.052406121 0.14741376 -0.38593423 0.23852047
0.03706903 0.049588501 0.052021582 0.14741376 -0.38593423 0.23852047
0.037956748 0.051234875 0.051530365 0.14741376 -0.38593423 0.23852047
0.03877905 0.053177182 0.050914444 0.14741376 -0.38593423 0.23852047
0.039498612 0.055578899 0.050104503 0.14741376 -0.38593423 0.23852047
0.039952863 0.059130292 0.048806977 0.14741376 -0.38593423 0.23852047
0.0018569855 0.051586177 0.044223037 0.14741376 -0.38593423 0.23852047
0.0046713194 0.047198158 0.046382807 0.14741376 -0.38593423 0.23852047
0.0067162914 0.045075044 0.047534741 0.14741376 -0.38593423 0.23852047
0.0085235424 0.043638323 0.048380844 0.14741376 -0.38593423 0.23852047
0.01019391 0.042593259 0.049052428 0.14741376 -0.38593423 0.23852047
0.011775184 0.041800808 0.049611483 0.14741376 -0.38593423 0.23852047
0.013293315 0.041185942 0.050091483 0.14741376 -0.38593423 0.23852047
0.014763935 0.040703792 0.050512452 0.14741376 -0.38593423 0.23852047
0.01617644 0.040392905 0.050857626 0.14741376 -0.38593423 0.23852047
0.017555563 0.040177431 0.051160611 0.14741376 -0.38593423 0.23852047
0.018910455 0.040030032 0.051433552 0.14741376 -0.38593423 0.23852047
0.020218303 0.040029299 0.051642071 0.14741376 -0.38593423 0.23852047
0.021509878 0.04007576 0.051829983 0.14741376 -0.38593423 0.23852047
0.022772843 0.040213156 0.051978204 0.14741376 -0.38593423 0.23852047
0.024010222 0.040433992 0.052090157 0.14741376 -0.38593423 0.23852047
0.02523287 0.040703088 0.052181322 0.14741376 -0.38593423 0.23852047
0.026421577 0.041089874 0.052221492 0.14741376 -0.38593423 0.23852047
0.027600517 0.041511975 0.052246731 0.14741376 -0.38593423 0.23852047
0.028749473 0.042043544 0.052224819 0.14741376 -0.38593423 0.23852047
0.029881975 0.042638924 0.052175775 0.14741376 -0.38593423 0.23852047
0.03099566 0.043308996 0.052094962 0.14741376 -0.38593423 0.23852047
0.032079648 0.044096902 0.051963788 0.14741376 -0.38593423 0.23852047
0.033149518 0.044947963 0.051806111 0.14741376 -0.38593423 0.23852047
0.034187708 0.045931347 0.051592097 0.14741376 -0.38593423 0.23852047
0.035196576 0.047042616 0.051323857 0.14741376 -0.38593423 0.23852047
0.036178876 0.04827553 0.051004283 0.14741376 -0.38593423 0.23852047
0.037125241 0.049671412 0.050615728 0.14741376 -0.38593423 0.23852047
0.038010579 0.051336404 0.050112706 0.14741376 -0.38593423 0.23852047
0.038829233 0.053303137 0.049481571 0.14741376 -0.38593423 0.23852047
0.039540436 0.055749599 0.04864626 0.14741376 -0.38593423 0.23852047
0.039968628 0.059421159 0.047287431 0.14741376 -0.38593423 0.23852047
0.037120782 0.076924212 0.039999999 0.14741376 -0.38593423 0.23852047
0.038368143 0.077457368 0.039999999 0.14741376 -0.38593423 0.23852047
0.039616264 0.077992059 0.039999999 0.14741376 -0.38593423 0.23852047
0.0019386237 0.051432189 0.042873275 0.14741376 -0.38593423 0.23852047
0.0047235908 0.04713662 0.045007534 0.14741376 -0.38593423 0.23852047
0.0067650746 0.045028836 0.046161093 0.14741376 -0.38593423 0.23852047
0.0085705295 0.043602601 0.047008753 0.14741376 -0.38593423 0.23852047
0.010239977 0.042565543 0.047681723 0.14741376 -0.38593423 0.23852047
0.011820836 0.041779689 0.048241965 0.14741376 -0.38593423 0.23852047
0.013338852 0.041170597 0.048722927 0.14741376 -0.38593423 0.23852047
0.01480954 0.040693756 0.049144637 0.14741376 -0.38593423 0.23852047
0.016223915 0.04038246 0.049492527 0.14741376 -0.38593423 0.23852047
0.017603174 0.040172249 0.049795389 0.14741376 -0.38593423 0.23852047
0.018958485 0.040029299 0.050068345 0.14741376 -0.38593423 0.23852047
0.020267894 0.040029299 0.050278045 0.14741376 -0.38593423 0.23852047
0.021559654 0.040081177 0.050464906 0.14741376 -0.38593423 0.23852047
0.022824369 0.040218763 0.050614089 0.14741376 -0.38593423 0.23852047
0.024061892 0.040445361 0.050724264 0.14741376 -0.38593423 0.23852047
0.025286263 0.040714841 0.050815869 0.14741376 -0.38593423 0.23852047
0.02647504 0.041107889 0.050853506 0.14741376 -0.38593423 0.23852047
0.02765397 0.041536704 0.050875902 0.14741376 -0.38593423 0.23852047
0.028804611 0.042069055 0.050853401 0.14741376 -0.38593423 0.23852047
0.029936951 0.042672001 0.050800581 0.14741376 -0.38593423 0.23852047
0.031052308 0.043343082 0.050718632 0.14741376 -0.38593423 0.23852047
0.03213593 0.044139687 0.050582573 0.14741376 -0.38593423 0.23852047
0.03320517 0.04500068 0.050419282 0.14741376 -0.38593423 0.23852047
0.034245014 0.045985624 0.050202888 0.14741376 -0.38593423 0.23852047
0.035252862 0.047108877 0.049927324 0.14741376 -0.38593423 0.23852047
0.036233604 0.048356257 0.04959897 0.14741376 -0.38593423 0.23852047
0.037178457 0.049766909 0.049201 0.14741376 -0.38593423 0.23852047
0.038064547 0.051438194 0.048691407 0.14741376 -0.38593423 0.23852047
0.038879555 0.053429425 0.048044864 0.14741376 -0.38593423 0.23852047
0.039574079 0.055954792 0.047169108 0.14741376 -0.38593423 0.23852047
0.039984446 0.059713017 0.045762707 0.14741376 -0.38593423 0.23852047
0.038012367 0.073563278 0.039999999 0.14741376 -0.38593423 0.23852047
0.039252736 0.074091904 0.039999999 0.14741376 -0.38593423 0.23852047
0.039999999 0.07674934 0.039083034 0.14741376 -0.38593423 0.23852047
0.0020203826 0.051277976 0.041521516 0.14741376 -0.38593423 0.23852047
0.0047759609 0.047074962 0.04362965 0.14741376 -0.38593423 0.23852047
0.0068139536 0.044982538 0.044784751 0.14741376 -0.38593423 0.23852047
0.0086176116 0.043566808 0.045633905 0.14741376 -0.38593423 0.23852047
0.010286139 0.042537767 0.046308219 0.14741376 -0.38593423 0.23852047
0.011866582 0.041758522 0.04686961 0.14741376 -0.38593423 0.23852047
0.013384484 0.041155223 0.047351509 0.14741376 -0.38593423 0.23852047
0.014855243 0.040683698 0.047773927 0.14741376 -0.38593423 0.23852047
0.016271489 0.040371988 0.048124541 0.14741376 -0.38593423 0.23852047
0.017650887 0.04016706 0.04842725 0.14741376 -0.38593423 0.23852047
0.019006394 0.040029299 0.048699871 0.14741376 -0.38593423 0.23852047
0.020317594 0.040029299 0.04891108 0.14741376 -0.38593423 0.23852047
0.021609537 0.040086601 0.049096856 0.14741376 -0.38593423 0.23852047
0.022876007 0.040224381 0.049247 0.14741376 -0.38593423 0.23852047
0.024113676 0.040456761 0.049355369 0.14741376 -0.38593423 0.23852047
0.025339773 0.040726617 0.049447414 0.14741376 -0.38593423 0.23852047
0.026528625 0.041125942 0.049482476 0.14741376 -0.38593423 0.23852047
0.027707541 0.041561492 0.049501982 0.14741376 -0.38593423 0.23852047
0.028859872 0.042094622 0.049478885 0.14741376 -0.38593423 0.23852047
0.029992051 0.042705152 0.049422238 0.14741376 -0.38593423 0.23852047
0.031109085 0.043377243 0.049339145 0.14741376 -0.38593423 0.23852047
0.032192346 0.044182573 0.049198143 0.14741376 -0.38593423 0.23852047
0.03326096 0.045053519 0.049029164 0.14741376 -0.38593423 0.23852047
0.034302451 0.046040032 0.048810378 0.14741376 -0.38593423 0.23852047
0.035309285 0.047175303 0.048527397 0.14741376 -0.38593423 0.23852047
0.03628847 0.048437186 0.04819015 0.14741376 -0.38593423 0.23852047
0.037230972 0.049865961 0.047781203 0.14741376 -0.38593423 0.23852047
0.038118653 0.051540244 0.047266435 0.14741376 -0.38593423 0.23852047
0.03893001 0.053556059 0.046604291 0.14741376 -0.38593423 0.23852047
0.039607827 0.056160606 0.045687456 0.14741376 -0.38593423 0.23852047
0.039999496 0.06000929 0.04423127 0.14741376 -0.38593423 0.23852047
0.03889294 0.070243865 0.039999999 0.14741376 -0.38593423 0.23852047
0.039999999 0.071306095 0.039766114 0.14741376 -0.38593423 0.23852047
0.039999999 0.07715968 0.037453074 0.14741376 -0.38593423 0.23852047
0.00076425029 0.051012896 0.039999999 0.14741376 -0.38593423 0.23852047
0.0021022633 0.051123533 0.040167745 0.14741376 -0.38593423 0.23852047
0.0048284316 0.04701319 0.042249139 0.14741376 -0.38593423 0.23852047
0.0068629291 0.044936147 0.043405686 0.14741376 -0.38593423 0.23852047
0.0086647887 0.043530945 0.044256277 0.14741376 -0.38593423 0.23852047
0.010332396 0.04250994 0.044931885 0.14741376 -0.38593423 0.23852047
0.011912423 0.041737314 0.045494389 0.14741376 -0.38593423 0.23852047
0.013430213 0.041139811 0.045977194 0.14741376 -0.38593423 0.23852047
0.014901043 0.040673617 0.046400294 0.14741376 -0.38593423 0.23852047
0.016319165 0.040361494 0.046753649 0.14741376 -0.38593423 0.23852047
0.017698703 0.040161859 0.047056172 0.14741376 -0.38593423 0.23852047
0.019054409 0.040029299 0.047328424 0.14741376 -0.38593423 0.23852047
0.020367401 0.040029299 0.047541149 0.14741376 -0.38593423 0.23852047
0.021659531 0.04009204 0.047725808 0.14741376 -0.38593423 0.23852047
0.022927757 0.04023001 0.047876921 0.14741376 -0.38593423 0.23852047
0.024165573 0.040468182 0.047983438 0.14741376 -0.38593423 0.23852047
0.025392098 0.040742982 0.048073888 0.14741376 -0.38593423 0.23852047
0.02658233 0.041144039 0.048108369 0.14741376 -0.38593423 0.23852047
0.027761236 0.041586332 0.048124939 0.14741376 -0.38593423 0.23852047
0.02891526 0.042120244 0.048101246 0.14741376 -0.38593423 0.23852047
0.030047279 0.042738382 0.048040718 0.14741376 -0.38593423 0.23852047
0.031165995 0.043411482 0.047956474 0.14741376 -0.38593423 0.23852047
0.032248892 0.044225559 0.047810461 0.14741376 -0.38593423 0.23852047
0.03331688 0.045106489 0.047635723 0.14741376 -0.38593423 0.23852047
0.034360029 0.04609457 0.047414534 0.14741376 -0.38593423 0.23852047
0.035365846 0.047241889 0.047124047 0.14741376 -0.38593423 0.23852047
0.036343478 0.048518319 0.046777796 0.14741376 -0.38593423 0.23852047
0.037283625 0.049965274 0.046357725 0.14741376 -0.38593423 0.23852047
0.038170852 0.05165077 0.045834146 0.14741376 -0.38593423 0.23852047
0.03897668 0.053698938 0.045152817 0.14741376 -0.38593423 0.23852047
0.039641678 0.056367051 0.044201262 0.14741376 -0.38593423 0.23852047
0.03997431 0.060473979 0.042621072 0.14741376 -0.38593423 0.23852047
0.039762709 0.066965163 0.039999999 0.14741376 -0.38593423 0.23852047
0.039999999 0.071700022 0.038154516 0.14741376 -0.38593423 0.23852047
0.039999999 0.07757163 0.035816755 0.14741376 -0.38593423 0.23852047
0.00063163746 0.04741656 0.039999999 0.14741376 -0.38593423 0.23852047
0.0018399461 0.047892623 0.039999999 0.14741376 -0.38593423 0.23852047
0.0030482386 0.048369721 0.039999999 0.14741376 -0.38593423 0.23852047
0.0048810034 0.046951298 0.040865965 0.14741376 -0.38593423 0.23852047
0.0069120023 0.044889666 0.042023871 0.14741376 -0.38593423 0.23852047
0.0087120626 0.043495007 0.042875838 0.14741376 -0.38593423 0.23852047
0.010378749 0.042482048 0.0435527 0.14741376 -0.38593423 0.23852047
0.011958361 0.041716062 0.044116281 0.14741376 -0.38593423 0.23852047
0.013476038 0.04112437 0.044599958 0.14741376 -0.38593423 0.23852047
0.014946941 0.040663514 0.04502371 0.14741376 -0.38593423 0.23852047
0.016366944 0.040350977 0.045379814 0.14741376 -0.38593423 0.23852047
0.017746624 0.040156644 0.045682125 0.14741376 -0.38593423 0.23852047
0.019102531 0.040029299 0.045953978 0.14741376 -0.38593423 0.23852047
0.020417316 0.040029299 0.046168219 0.14741376 -0.38593423 0.23852047
0.021709634 0.04009749 0.046351731 0.14741376 -0.38593423 0.23852047
0.022979623 0.040235654 0.046503812 0.14741376 -0.38593423 0.23852047
0.024217587 0.04047963 0.046608441 0.14741376 -0.38593423 0.23852047
0.02544421 0.040760543 0.046696745 0.14741376 -0.38593423 0.23852047
0.026636155 0.041162174 0.046731159 0.14741376 -0.38593423 0.23852047
0.027815051 0.041611232 0.046744745 0.14741376 -0.38593423 0.23852047
0.028970774 0.04214593 0.046720453 0.14741376 -0.38593423 0.23852047
0.030102635 0.04277169 0.04665599 0.14741376 -0.38593423 0.23852047
0.031223036 0.043445803 0.046570588 0.14741376 -0.38593423 0.23852047
0.032305568 0.044268649 0.046419501 0.14741376 -0.38593423 0.23852047
0.033372935 0.045159586 0.046238925 0.14741376 -0.38593423 0.23852047
0.034417745 0.046149239 0.046015322 0.14741376 -0.38593423 0.23852047
0.035422549 0.047308639 0.045717232 0.14741376 -0.38593423 0.23852047
0.036398619 0.048599657 0.045361869 0.14741376 -0.38593423 0.23852047
0.037336417 0.050064843 0.044930536 0.14741376 -0.38593423 0.23852047
0.038220037 0.051774215 0.044392448 0.14741376 -0.38593423 0.23852047
0.039020177 0.053855613 0.043691345 0.14741376 -0.38593423 0.23852047
0.039675634 0.056574136 0.042710491 0.14741376 -0.38593423 0.23852047
0.039949019 0.060940642 0.041004054 0.14741376 -0.38593423 0.23852047
0.039999999 0.066344939 0.038843937 0.14741376 -0.38593423 0.23852047
0.039999999 0.072095469 0.036536682 0.14741376 -0.38593423 0.23852047
0.00049960997 0.043864802 0.039999999 0.14741376 -0.38593423 0.23852047
0.0017011905 0.044336792 0.039999999 0.14741376 -0.38593423 0.23852047
0.0029027397 0.044809774 0.039999999 0.14741376 -0.38593423 0.23852047
0.0041042799 0.045283757 0.039999999 0.14741376 -0.38593423 0.23852047
0.0053058341 0.045758754 0.039999999 0.14741376 -0.38593423 0.23852047
0.0069611743 0.044843089 0.040639281 0.14741376 -0.38593423 0.23852047
0.0087594334 0.043458994 0.041492563 0.14741376 -0.38593423 0.23852047
0.010425199 0.042454101 0.042170629 0.14741376 -0.38593423 0.23852047
0.012004395 0.041694764 0.042735253 0.14741376 -0.38593423 0.23852047
0.013521962 0.041108899 0.043219771 0.14741376 -0.38593423 0.23852047
0.014992938 0.040653389 0.043644145 0.14741376 -0.38593423 0.23852047
0.016414825 0.040340438 0.04400301 0.14741376 -0.38593423 0.23852047
0.017794646 0.040151421 0.044305075 0.14741376 -0.38593423 0.23852047
0.019150756 0.040029299 0.0445765 0.14741376 -0.38593423 0.23852047
0.020467341 0.040029299 0.044792268 0.14741376 -0.38593423 0.23852047
0.021759849 0.040102955 0.044974595 0.14741376 -0.38593423 0.23852047
0.023031604 0.040241309 0.045127653 0.14741376 -0.38593423 0.23852047
0.024269717 0.040491104 0.045230355 0.14741376 -0.38593423 0.23852047
0.02549644 0.040778141 0.045316473 0.14741376 -0.38593423 0.23852047
0.026690103 0.041180354 0.045350816 0.14741376 -0.38593423 0.23852047
0.027868994 0.041636188 0.04536137 0.14741376 -0.38593423 0.23852047
0.029026415 0.042171672 0.045336477 0.14741376 -0.38593423 0.23852047
0.030158121 0.042805072 0.045268022 0.14741376 -0.38593423 0.23852047
0.0312782 0.043487635 0.045178112 0.14741376 -0.38593423 0.23852047
0.032362383 0.04431184 0.045025233 0.14741376 -0.38593423 0.23852047
0.033429127 0.045212809 0.044838745 0.14741376 -0.38593423 0.23852047
0.034475602 0.046204042 0.044612713 0.14741376 -0.38593423 0.23852047
0.035479389 0.047375556 0.04430693 0.14741376 -0.38593423 0.23852047
0.036453906 0.0486812 0.043942336 0.14741376 -0.38593423 0.23852047
0.037389345 0.050164673 0.043499596 0.14741376 -0.38593423 0.23852047
0.03826936 0.051897999 0.042946812 0.14741376 -0.38593423 0.23852047
0.0390638 0.054012742 0.042225666 0.14741376 -0.38593423 0.23852047
0.039709695 0.056781862 0.041215092 0.14741376 -0.38593423 0.23852047
0.039999999 0.061091412 0.039521657 0.14741376 -0.38593423 0.23852047
0.039999999 0.066724464 0.037244175 0.14741376 -0.38593423 0.23852047
0.039999999 0.072492458 0.034912553 0.14741376 -0.38593423 0.23852047
0.039999999 0.078400381 0.032524798 0.14741376 -0.38593423 0.23852047
0.00036817638 0.040356684 0.039999999 0.14741376 -0.38593423 0.23852047
0.0015631147 0.040824715 0.039999999 0.14741376 -0.38593423 0.23852047
0.0027580073 0.041293696 0.039999999 0.14741376 -0.38593423 0.23852047
0.0039528762 0.041763641 0.039999999 0.14741376 -0.38593423 0.23852047
0.0051477435 0.042234555 0.039999999 0.14741376 -0.38593423 0.23852047
0.0063426313 0.042706445 0.039999999 0.14741376 -0.38593423 0.23852047
0.0075375619 0.043179326 0.039999999 0.14741376 -0.38593423 0.23852047
0.0088049555 0.043428935 0.040103637 0.14741376 -0.38593423 0.23852047
0.010471746 0.042426098 0.040785652 0.14741376 -0.38593423 0.23852047
0.012050529 0.041673422 0.041351277 0.14741376 -0.38593423 0.23852047
0.013567985 0.04109339 0.041836604 0.14741376 -0.38593423 0.23852047
0.015039037 0.040643245 0.042261571 0.14741376 -0.38593423 0.23852047
0.016462812 0.040329877 0.042623211 0.14741376 -0.38593423 0.23852047
0.017842777 0.040146183 0.042924996 0.14741376 -0.38593423 0.23852047
0.019199088 0.040029299 0.043195959 0.14741376 -0.38593423 0.23852047
0.020517476 0.040029299 0.043413267 0.14741376 -0.38593423 0.23852047
0.021810178 0.040108431 0.043594372 0.14741376 -0.38593423 0.23852047
0.0230837 0.040246975 0.043748409 0.14741376 -0.38593423 0.23852047
0.024321966 0.040502604 0.043849148 0.14741376 -0.38593423 0.23852047
0.02554879 0.040795781 0.043933034 0.14741376 -0.38593423 0.23852047
0.026744176 0.041198574 0.043967307 0.14741376 -0.38593423 0.23852047
0.027923059 0.041661199 0.043974787 0.14741376 -0.38593423 0.23852047
0.029082187 0.042197473 0.043949284 0.14741376 -0.38593423 0.23852047
0.030213736 0.042838536 0.043876786 0.14741376 -0.38593423 0.23852047
0.031333473 0.043529652 0.043782264 0.14741376 -0.38593423 0.23852047
0.032419335 0.044355132 0.043627623 0.14741376 -0.38593423 0.23852047
0.033485454 0.045266163 0.043435145 0.14741376 -0.38593423 0.23852047
0.034532972 0.046261389 0.043205585 0.14741376 -0.38593423 0.23852047
0.035536371 0.047442637 0.042893104 0.14741376 -0.38593423 0.23852047
0.036509331 0.048762951 0.042519167 0.14741376 -0.38593423 0.23852047
0.037442412 0.050264765 0.042064875 0.14741376 -0.38593423 0.23852047
0.038318817 0.052022122 0.041497201 0.14741376 -0.38593423 0.23852047
0.03910755 0.054170325 0.040755741 0.14741376 -0.38593423 0.23852047
0.039898194 0.056355346 0.039999999 0.14741376 -0.38593423 0.23852047
0.039999999 0.061455563 0.03793956 0.14741376 -0.38593423 0.23852047
0.036942758 0.079999998 0.029863743 0.14741376 -0.38593423 0.23852047
0.039999999 0.072890997 0.033282071 0.14741376 -0.38593423 0.23852047
0.039726634 0.079999998 0.030340569 0.14741376 -0.38593423 0.23852047
0.000237345 0.036891293 0.039999999 0.14741376 -0.38593423 0.23852047
0.0014257254 0.037355475 0.039999999 0.14741376 -0.38593423 0.23852047
0.002614046 0.03782057 0.039999999 0.14741376 -0.38593423 0.23852047
0.0038023284 0.038286585 0.039999999 0.14741376 -0.38593423 0.23852047
0.0049905945 0.038753528 0.039999999 0.14741376 -0.38593423 0.23852047
0.0061788661 0.03922141 0.039999999 0.14741376 -0.38593423 0.23852047
0.0073671653 0.039690241 0.039999999 0.14741376 -0.38593423 0.23852047
0.0085555138 0.040160026 0.039999999 0.14741376 -0.38593423 0.23852047
0.0097439326 0.040630776 0.039999999 0.14741376 -0.38593423 0.23852047
0.010932445 0.041102502 0.039999999 0.14741376 -0.38593423 0.23852047
0.012121072 0.041575212 0.039999999 0.14741376 -0.38593423 0.23852047
0.013614108 0.041077849 0.040450428 0.14741376 -0.38593423 0.23852047
0.015085236 0.040633075 0.040875956 0.14741376 -0.38593423 0.23852047
0.016510902 0.040319294 0.041240383 0.14741376 -0.38593423 0.23852047
0.017891014 0.040140938 0.041541863 0.14741376 -0.38593423 0.23852047
0.01924753 0.040029299 0.041812334 0.14741376 -0.38593423 0.23852047
0.020567724 0.040029299 0.04203118 0.14741376 -0.38593423 0.23852047
0.021860618 0.040113918 0.04221103 0.14741376 -0.38593423 0.23852047
0.023135914 0.040252656 0.042366054 0.14741376 -0.38593423 0.23852047
0.024374334 0.04051413 0.042464785 0.14741376 -0.38593423 0.23852047
0.02560126 0.040813461 0.042546403 0.14741376 -0.38593423 0.23852047
0.026798371 0.041216835 0.042580608 0.14741376 -0.38593423 0.23852047
0.027977251 0.041686274 0.042584959 0.14741376 -0.38593423 0.23852047
0.029138088 0.042223338 0.042558849 0.14741376 -0.38593423 0.23852047
0.030269485 0.042872079 0.042482246 0.14741376 -0.38593423 0.23852047
