# .PCD v0.7 - Point Cloud Data file format
VERSION 0.7
FIELDS x y z vp_x vp_y vp_z
SIZE 4 4 4 4 4 4
TYPE F F F F F F
COUNT 1 1 1 1 1 1
WIDTH 971
HEIGHT 1
VIEWPOINT 0 0 0 1 0 0 0
POINTS 971
DATA ascii
0.03210352 0.044115048 0.06943699 0 -0.47704095 0
0.033551242 0.045328479 0.069610134 0 -0.47704095 0
0.035025842 0.046841618 0.069823749 0 -0.47704095 0
0.00069627928 0.054876946 0.06932015 0 -0.47704095 0
0.0020743147 0.05117625 0.068838343 0 -0.47704095 0
0.0034418984 0.048834886 0.068534151 0 -0.47704095 0
0.0048023127 0.047043938 0.068302155 0 -0.47704095 0
0.0061575538 0.045604292 0.068116397 0 -0.47704095 0
0.0075088688 0.044409689 0.067963034 0 -0.47704095 0
0.0088571357 0.043397542 0.067833908 0 -0.47704095 0
0.010204184 0.042587079 0.067731522 0 -0.47704095 0
0.011549983 0.041904997 0.067646325 0 -0.47704095 0
0.012894789 0.041320227 0.067574263 0 -0.47704095 0
0.014240321 0.040866844 0.067519791 0 -0.47704095 0
0.01558696 0.04052265 0.067480005 0 -0.47704095 0
0.01693419 0.04024503 0.067449361 0 -0.47704095 0
0.018284816 0.040098093 0.067436211 0 -0.47704095 0
0.01963789 0.040029299 0.067433715 0 -0.47704095 0
0.020993669 0.040029299 0.067440651 0 -0.47704095 0
0.022355719 0.040167779 0.06746611 0 -0.47704095 0
0.023721749 0.040370498 0.067500427 0 -0.47704095 0
0.025093982 0.040672522 0.067548163 0 -0.47704095 0
0.026474956 0.041107859 0.06761378 0 -0.47704095 0
0.027863437 0.041633617 0.067691669 0 -0.47704095 0
0.029261893 0.042280618 0.067785874 0 -0.47704095 0
0.030675273 0.043116231 0.067905195 0 -0.47704095 0
0.03210352 0.044115048 0.068046331 0 -0.47704095 0
0.033551242 0.045328479 0.068215996 0 -0.47704095 0
0.035025842 0.046841618 0.068425342 0 -0.47704095 0
0.036540437 0.048808835 0.068694539 0 -0.47704095 0
0.038121369 0.05154537 0.069064833 0 -0.47704095 0
0.00069627928 0.054876946 0.06790442 0 -0.47704095 0
0.0020743147 0.05117625 0.067432456 0 -0.47704095 0
0.0034418984 0.048834886 0.067134477 0 -0.47704095 0
0.0048023127 0.047043938 0.066907212 0 -0.47704095 0
0.0061575538 0.045604292 0.066725254 0 -0.47704095 0
0.0075088688 0.044409689 0.066575021 0 -0.47704095 0
0.0088571357 0.043397542 0.066448532 0 -0.47704095 0
0.010204184 0.042587079 0.066348232 0 -0.47704095 0
0.011549983 0.041904997 0.066264778 0 -0.47704095 0
0.012894789 0.041320227 0.066194192 0 -0.47704095 0
0.014240321 0.040866844 0.066140831 0 -0.47704095 0
0.01558696 0.04052265 0.066101857 0 -0.47704095 0
0.01693419 0.04024503 0.066071838 0 -0.47704095 0
0.018284816 0.040098093 0.066058956 0 -0.47704095 0
0.01963789 0.040029299 0.066056512 0 -0.47704095 0
0.020993669 0.040029299 0.066063307 0 -0.47704095 0
0.022355719 0.040167779 0.066088252 0 -0.47704095 0
0.023721749 0.040370498 0.066121861 0 -0.47704095 0
0.025093982 0.040672522 0.066168629 0 -0.47704095 0
0.026474956 0.041107859 0.066232897 0 -0.47704095 0
0.027863437 0.041633617 0.066309199 0 -0.47704095 0
0.029261893 0.042280618 0.066401482 0 -0.47704095 0
0.030675273 0.043116231 0.066518366 0 -0.47704095 0
0.03210352 0.044115048 0.066656612 0 -0.47704095 0
0.033551242 0.045328479 0.066822819 0 -0.47704095 0
0.035025842 0.046841618 0.067027882 0 -0.47704095 0
0.036540437 0.048808835 0.067291588 0 -0.47704095 0
0.038121369 0.05154537 0.067654319 0 -0.47704095 0
0.00069627928 0.054876946 0.066489637 0 -0.47704095 0
0.0020743147 0.05117625 0.066027507 0 -0.47704095 0
0.0034418984 0.048834886 0.065735735 0 -0.47704095 0
0.0048023127 0.047043938 0.065513209 0 -0.47704095 0
0.0061575538 0.045604292 0.065335035 0 -0.47704095 0
0.0075088688 0.044409689 0.065187931 0 -0.47704095 0
0.0088571357 0.043397542 0.06506408 0 -0.47704095 0
0.010204184 0.042587079 0.064965874 0 -0.47704095 0
0.011549983 0.041904997 0.064884156 0 -0.47704095 0
0.012894789 0.041320227 0.064815037 0 -0.47704095 0
0.014240321 0.040866844 0.064762786 0 -0.47704095 0
0.01558696 0.04052265 0.064724632 0 -0.47704095 0
0.01693419 0.04024503 0.064695232 0 -0.47704095 0
0.018284816 0.040098093 0.064682625 0 -0.47704095 0
0.01963789 0.040029299 0.064680226 0 -0.47704095 0
0.020993669 0.040029299 0.06468688 0 -0.47704095 0
0.022355719 0.040167779 0.064711303 0 -0.47704095 0
0.023721749 0.040370498 0.064744219 0 -0.47704095 0
0.025093982 0.040672522 0.06479001 0 -0.47704095 0
0.026474956 0.041107859 0.064852938 0 -0.47704095 0
0.027863437 0.041633617 0.064927652 0 -0.47704095 0
0.029261893 0.042280618 0.065018013 0 -0.47704095 0
0.030675273 0.043116231 0.065132461 0 -0.47704095 0
0.03210352 0.044115048 0.065267831 0 -0.47704095 0
0.033551242 0.045328479 0.065430574 0 -0.47704095 0
0.035025842 0.046841618 0.065631367 0 -0.47704095 0
0.036540437 0.048808835 0.065889575 0 -0.47704095 0
0.038121369 0.05154537 0.066244744 0 -0.47704095 0
0.00069627928 0.054876946 0.065075777 0 -0.47704095 0
0.0020743147 0.05117625 0.064623475 0 -0.47704095 0
0.0034418984 0.048834886 0.064337909 0 -0.47704095 0
0.0048023127 0.047043938 0.064120114 0 -0.47704095 0
0.0061575538 0.045604292 0.063945733 0 -0.47704095 0
0.0075088688 0.044409689 0.063801758 0 -0.47704095 0
0.0088571357 0.043397542 0.063680537 0 -0.47704095 0
0.010204184 0.042587079 0.063584417 0 -0.47704095 0
0.011549983 0.041904997 0.063504435 0 -0.47704095 0
0.012894789 0.041320227 0.063436791 0 -0.47704095 0
0.014240321 0.040866844 0.063385651 0 -0.47704095 0
0.01558696 0.04052265 0.063348301 0 -0.47704095 0
0.01693419 0.04024503 0.063319534 0 -0.47704095 0
0.018284816 0.040098093 0.063307188 0 -0.47704095 0
0.01963789 0.040029299 0.063304842 0 -0.47704095 0
0.020993669 0.040029299 0.063311353 0 -0.47704095 0
0.022355719 0.040167779 0.063335262 0 -0.47704095 0
0.023721749 0.040370498 0.063367471 0 -0.47704095 0
0.025093982 0.040672522 0.063412294 0 -0.47704095 0
0.026474956 0.041107859 0.063473888 0 -0.47704095 0
0.027863437 0.041633617 0.063547008 0 -0.47704095 0
0.029261893 0.042280618 0.063635446 0 -0.47704095 0
0.030675273 0.043116231 0.063747458 0 -0.47704095 0
0.03210352 0.044115048 0.063879952 0 -0.47704095 0
0.033551242 0.045328479 0.06403923 0 -0.47704095 0
0.035025842 0.046841618 0.064235754 0 -0.47704095 0
0.036540437 0.048808835 0.064488478 0 -0.47704095 0
0.038121369 0.05154537 0.064836092 0 -0.47704095 0
0.00069627928 0.054876946 0.063662827 0 -0.47704095 0
0.0020743147 0.05117625 0.063220344 0 -0.47704095 0
0.0034418984 0.048834886 0.062940978 0 -0.47704095 0
0.0048023127 0.047043938 0.062727913 0 -0.47704095 0
0.0061575538 0.045604292 0.06255731 0 -0.47704095 0
0.0075088688 0.044409689 0.062416464 0 -0.47704095 0
0.0088571357 0.043397542 0.062297877 0 -0.47704095 0
0.010204184 0.042587079 0.062203847 0 -0.47704095 0
0.011549983 0.041904997 0.062125601 0 -0.47704095 0
0.012894789 0.041320227 0.062059425 0 -0.47704095 0
0.014240321 0.040866844 0.062009394 0 -0.47704095 0
0.01558696 0.04052265 0.061972857 0 -0.47704095 0
0.01693419 0.04024503 0.061944712 0 -0.47704095 0
0.018284816 0.040098093 0.061932638 0 -0.47704095 0
0.01963789 0.040029299 0.061930344 0 -0.47704095 0
0.020993669 0.040029299 0.061936714 0 -0.47704095 0
0.022355719 0.040167779 0.061960101 0 -0.47704095 0
0.023721749 0.040370498 0.061991613 0 -0.47704095 0
0.025093982 0.040672522 0.062035456 0 -0.47704095 0
0.026474956 0.041107859 0.062095713 0 -0.47704095 0
0.027863437 0.041633617 0.06216725 0 -0.47704095 0
0.029261893 0.042280618 0.062253766 0 -0.47704095 0
0.030675273 0.043116231 0.062363349 0 -0.47704095 0
0.03210352 0.044115048 0.062492963 0 -0.47704095 0
0.033551242 0.045328479 0.062648788 0 -0.47704095 0
0.035025842 0.046841618 0.062841043 0 -0.47704095 0
0.036540437 0.048808835 0.063088275 0 -0.47704095 0
0.038121369 0.05154537 0.063428342 0 -0.47704095 0
0.00069627928 0.054876946 0.062250759 0 -0.47704095 0
0.0020743147 0.05117625 0.061818089 0 -0.47704095 0
0.0034418984 0.048834886 0.061544918 0 -0.47704095 0
0.0048023127 0.047043938 0.061336581 0 -0.47704095 0
0.0061575538 0.045604292 0.061169766 0 -0.47704095 0
0.0075088688 0.044409689 0.061032042 0 -0.47704095 0
0.0088571357 0.043397542 0.060916085 0 -0.47704095 0
0.010204184 0.042587079 0.060824141 0 -0.47704095 0
0.011549983 0.041904997 0.060747631 0 -0.47704095 0
0.012894789 0.041320227 0.060682923 0 -0.47704095 0
0.014240321 0.040866844 0.060634002 0 -0.47704095 0
0.01558696 0.04052265 0.060598277 0 -0.47704095 0
0.01693419 0.04024503 0.060570754 0 -0.47704095 0
0.018284816 0.040098093 0.060558945 0 -0.47704095 0
0.01963789 0.040029299 0.060556702 0 -0.47704095 0
0.020993669 0.040029299 0.060562931 0 -0.47704095 0
0.022355719 0.040167779 0.060585801 0 -0.47704095 0
0.023721749 0.040370498 0.060616612 0 -0.47704095 0
0.025093982 0.040672522 0.060659483 0 -0.47704095 0
0.026474956 0.041107859 0.060718406 0 -0.47704095 0
0.027863437 0.041633617 0.060788356 0 -0.47704095 0
0.029261893 0.042280618 0.060872953 0 -0.47704095 0
0.030675273 0.043116231 0.060980104 0 -0.47704095 0
0.03210352 0.044115048 0.061106846 0 -0.47704095 0
0.033551242 0.045328479 0.06125921 0 -0.47704095 0
0.035025842 0.046841618 0.061447203 0 -0.47704095 0
0.036540437 0.048808835 0.061688952 0 -0.47704095 0
0.038121369 0.05154537 0.062021475 0 -0.47704095 0
0.00069627928 0.054876946 0.060839556 0 -0.47704095 0
0.0020743147 0.05117625 0.060416695 0 -0.47704095 0
0.0034418984 0.048834886 0.060149718 0 -0.47704095 0
0.0048023127 0.047043938 0.059946101 0 -0.47704095 0
0.0061575538 0.045604292 0.059783068 0 -0.47704095 0
0.0075088688 0.044409689 0.059648469 0 -0.47704095 0
0.0088571357 0.043397542 0.059535138 0 -0.47704095 0
0.010204184 0.042587079 0.059445277 0 -0.47704095 0
0.011549983 0.041904997 0.059370503 0 -0.47704095 0
0.012894789 0.041320227 0.059307262 0 -0.47704095 0
0.014240321 0.040866844 0.059259452 0 -0.47704095 0
0.01558696 0.04052265 0.059224535 0 -0.47704095 0
0.01693419 0.04024503 0.059197634 0 -0.47704095 0
0.018284816 0.040098093 0.059186097 0 -0.47704095 0
0.01963789 0.040029299 0.059183903 0 -0.47704095 0
0.020993669 0.040029299 0.05918999 0 -0.47704095 0
0.022355719 0.040167779 0.059212342 0 -0.47704095 0
0.023721749 0.040370498 0.059242457 0 -0.47704095 0
0.025093982 0.040672522 0.059284355 0 -0.47704095 0
0.026474956 0.041107859 0.059341941 0 -0.47704095 0
0.027863437 0.041633617 0.059410304 0 -0.47704095 0
0.029261893 0.042280618 0.059492987 0 -0.47704095 0
0.030675273 0.043116231 0.059597708 0 -0.47704095 0
0.03210352 0.044115048 0.059721574 0 -0.47704095 0
0.033551242 0.045328479 0.059870485 0 -0.47704095 0
0.035025842 0.046841618 0.060054217 0 -0.47704095 0
0.036540437 0.048808835 0.060290486 0 -0.47704095 0
0.038121369 0.05154537 0.060615472 0 -0.47704095 0
0.00069627928 0.054876946 0.059429199 0 -0.47704095 0
0.0020743147 0.05117625 0.059016138 0 -0.47704095 0
0.0034418984 0.048834886 0.058755349 0 -0.47704095 0
0.0048023127 0.047043938 0.058556456 0 -0.47704095 0
0.0061575538 0.045604292 0.058397204 0 -0.47704095 0
0.0075088688 0.044409689 0.058265723 0 -0.47704095 0
0.0088571357 0.043397542 0.058155019 0 -0.47704095 0
0.010204184 0.042587079 0.05806724 0 -0.47704095 0
0.011549983 0.041904997 0.057994202 0 -0.47704095 0
0.012894789 0.041320227 0.057932425 0 -0.47704095 0
0.014240321 0.040866844 0.057885721 0 -0.47704095 0
0.01558696 0.04052265 0.057851616 0 -0.47704095 0
0.01693419 0.04024503 0.057825342 0 -0.47704095 0
0.018284816 0.040098093 0.057814069 0 -0.47704095 0
0.01963789 0.040029299 0.057811927 0 -0.47704095 0
0.020993669 0.040029299 0.057817873 0 -0.47704095 0
0.022355719 0.040167779 0.057839703 0 -0.47704095 0
0.023721749 0.040370498 0.057869121 0 -0.47704095 0
0.025093982 0.040672522 0.057910051 0 -0.47704095 0
0.026474956 0.041107859 0.057966299 0 -0.47704095 0
0.027863437 0.041633617 0.058033079 0 -0.47704095 0
0.029261893 0.042280618 0.058113843 0 -0.47704095 0
0.030675273 0.043116231 0.05821614 0 -0.47704095 0
0.03210352 0.044115048 0.058337133 0 -0.47704095 0
0.033551242 0.045328479 0.058482595 0 -0.47704095 0
0.035025842 0.046841618 0.058662064 0 -0.47704095 0
0.036540437 0.048808835 0.058892854 0 -0.47704095 0
0.038121369 0.05154537 0.059210308 0 -0.47704095 0
0.00069627928 0.054876946 0.058019668 0 -0.47704095 0
0.0020743147 0.05117625 0.057616401 0 -0.47704095 0
0.0034418984 0.048834886 0.0573618 0 -0.47704095 0
0.0048023127 0.047043938 0.057167623 0 -0.47704095 0
0.0061575538 0.045604292 0.057012148 0 -0.47704095 0
0.0075088688 0.044409689 0.056883786 0 -0.47704095 0
0.0088571357 0.043397542 0.056775708 0 -0.47704095 0
0.010204184 0.042587079 0.056690011 0 -0.47704095 0
0.011549983 0.041904997 0.056618702 0 -0.47704095 0
0.012894789 0.041320227 0.056558393 0 -0.47704095 0
0.014240321 0.040866844 0.056512799 0 -0.47704095 0
0.01558696 0.04052265 0.056479499 0 -0.47704095 0
0.01693419 0.04024503 0.056453846 0 -0.47704095 0
0.018284816 0.040098093 0.056442842 0 -0.47704095 0
0.01963789 0.040029299 0.056440752 0 -0.47704095 0
0.020993669 0.040029299 0.05644656 0 -0.47704095 0
0.022355719 0.040167779 0.056467872 0 -0.47704095 0
0.023721749 0.040370498 0.05649659 0 -0.47704095 0
0.025093982 0.040672522 0.056536548 0 -0.47704095 0
0.026474956 0.041107859 0.056591466 0 -0.47704095 0
0.027863437 0.041633617 0.056656659 0 -0.47704095 0
0.029261893 0.042280618 0.056735508 0 -0.47704095 0
0.030675273 0.043116231 0.056835376 0 -0.47704095 0
0.03210352 0.044115048 0.056953501 0 -0.47704095 0
0.033551242 0.045328479 0.057095513 0 -0.47704095 0
0.035025842 0.046841618 0.057270728 0 -0.47704095 0
0.036540437 0.048808835 0.057496041 0 -0.47704095 0
0.038121369 0.05154537 0.057805967 0 -0.47704095 0
0.00069627928 0.054876946 0.056610938 0 -0.47704095 0
0.0020743147 0.05117625 0.056217466 0 -0.47704095 0
0.0034418984 0.048834886 0.055969045 0 -0.47704095 0
0.0048023127 0.047043938 0.05577958 0 -0.47704095 0
0.0061575538 0.045604292 0.055627882 0 -0.47704095 0
0.0075088688 0.044409689 0.055502634 0 -0.47704095 0
0.0088571357 0.043397542 0.055397183 0 -0.47704095 0
0.010204184 0.042587079 0.055313569 0 -0.47704095 0
0.011549983 0.041904997 0.055243991 0 -0.47704095 0
0.012894789 0.041320227 0.055185143 0 -0.47704095 0
0.014240321 0.040866844 0.055140655 0 -0.47704095 0
0.01558696 0.04052265 0.055108167 0 -0.47704095 0
0.01693419 0.04024503 0.055083137 0 -0.47704095 0
0.018284816 0.040098093 0.055072401 0 -0.47704095 0
0.01963789 0.040029299 0.055070359 0 -0.47704095 0
0.020993669 0.040029299 0.055076025 0 -0.47704095 0
0.022355719 0.040167779 0.05509682 0 -0.47704095 0
0.023721749 0.040370498 0.055124842 0 -0.47704095 0
0.025093982 0.040672522 0.055163831 0 -0.47704095 0
0.026474956 0.041107859 0.055217411 0 -0.47704095 0
0.027863437 0.041633617 0.055281024 0 -0.47704095 0
0.029261893 0.042280618 0.055357959 0 -0.47704095 0
0.030675273 0.043116231 0.055455402 0 -0.47704095 0
0.03210352 0.044115048 0.055570658 0 -0.47704095 0
0.033551242 0.045328479 0.055709224 0 -0.47704095 0
0.035025842 0.046841618 0.055880181 0 -0.47704095 0
0.036540437 0.048808835 0.056100029 0 -0.47704095 0
0.038121369 0.05154537 0.05640243 0 -0.47704095 0
0.00069627928 0.054876946 0.055202994 0 -0.47704095 0
0.0020743147 0.05117625 0.054819308 0 -0.47704095 0
0.0034418984 0.048834886 0.054577067 0 -0.47704095 0
0.0048023127 0.047043938 0.054392315 0 -0.47704095 0
0.0061575538 0.045604292 0.054244388 0 -0.47704095 0
0.0075088688 0.044409689 0.054122258 0 -0.47704095 0
0.0088571357 0.043397542 0.054019425 0 -0.47704095 0
0.010204184 0.042587079 0.05393789 0 -0.47704095 0
0.011549983 0.041904997 0.053870045 0 -0.47704095 0
0.012894789 0.041320227 0.05381266 0 -0.47704095 0
0.014240321 0.040866844 0.053769279 0 -0.47704095 0
0.01558696 0.04052265 0.053737599 0 -0.47704095 0
0.01693419 0.04024503 0.053713191 0 -0.47704095 0
0.018284816 0.040098093 0.053702723 0 -0.47704095 0
0.01963789 0.040029299 0.053700734 0 -0.47704095 0
0.020993669 0.040029299 0.053706255 0 -0.47704095 0
0.022355719 0.040167779 0.053726535 0 -0.47704095 0
0.023721749 0.040370498 0.05375386 0 -0.47704095 0
0.025093982 0.040672522 0.053791877 0 -0.47704095 0
0.026474956 0.041107859 0.053844128 0 -0.47704095 0
0.027863437 0.041633617 0.053906158 0 -0.47704095 0
0.029261893 0.042280618 0.053981178 0 -0.47704095 0
0.030675273 0.043116231 0.054076198 0 -0.47704095 0
0.03210352 0.044115048 0.05418859 0 -0.47704095 0
0.033551242 0.045328479 0.054323707 0 -0.47704095 0
0.035025842 0.046841618 0.054490414 0 -0.47704095 0
0.036540437 0.048808835 0.054704793 0 -0.47704095 0
0.038121369 0.05154537 0.054999672 0 -0.47704095 0
0.00069627928 0.054876946 0.053795818 0 -0.47704095 0
0.0020743147 0.05117625 0.053421911 0 -0.47704095 0
0.0034418984 0.048834886 0.053185843 0 -0.47704095 0
0.0048023127 0.047043938 0.0530058 0 -0.47704095 0
0.0061575538 0.045604292 0.052861646 0 -0.47704095 0
0.0075088688 0.044409689 0.052742627 0 -0.47704095 0
0.0088571357 0.043397542 0.052642416 0 -0.47704095 0
0.010204184 0.042587079 0.052562959 0 -0.47704095 0
0.011549983 0.041904997 0.052496843 0 -0.47704095 0
0.012894789 0.041320227 0.052440923 0 -0.47704095 0
0.014240321 0.040866844 0.052398648 0 -0.47704095 0
0.01558696 0.04052265 0.052367773 0 -0.47704095 0
0.01693419 0.04024503 0.052343991 0 -0.47704095 0
0.018284816 0.040098093 0.052333787 0 -0.47704095 0
0.01963789 0.040029299 0.05233185 0 -0.47704095 0
0.020993669 0.040029299 0.052337233 0 -0.47704095 0
0.022355719 0.040167779 0.052356992 0 -0.47704095 0
0.023721749 0.040370498 0.05238362 0 -0.47704095 0
0.025093982 0.040672522 0.052420668 0 -0.47704095 0
0.026474956 0.041107859 0.052471589 0 -0.47704095 0
0.027863437 0.041633617 0.052532036 0 -0.47704095 0
0.029261893 0.042280618 0.052605145 0 -0.47704095 0
0.030675273 0.043116231 0.052697744 0 -0.47704095 0
0.03210352 0.044115048 0.052807268 0 -0.47704095 0
0.033551242 0.045328479 0.052938942 0 -0.47704095 0
0.035025842 0.046841618 0.053101398 0 -0.47704095 0
0.036540437 0.048808835 0.053310312 0 -0.47704095 0
0.038121369 0.05154537 0.053597674 0 -0.47704095 0
0.00069627928 0.054876946 0.052389383 0 -0.47704095 0
0.0020743147 0.05117625 0.052025255 0 -0.47704095 0
0.0034418984 0.048834886 0.051795356 0 -0.47704095 0
0.0048023127 0.047043938 0.051620021 0 -0.47704095 0
0.0061575538 0.045604292 0.051479634 0 -0.47704095 0
0.0075088688 0.044409689 0.051363729 0 -0.47704095 0
0.0088571357 0.043397542 0.051266138 0 -0.47704095 0
0.010204184 0.042587079 0.05118876 0 -0.47704095 0
0.011549983 0.041904997 0.051124372 0 -0.47704095 0
0.012894789 0.041320227 0.051069912 0 -0.47704095 0
0.014240321 0.040866844 0.051028743 0 -0.47704095 0
0.01558696 0.04052265 0.050998677 0 -0.47704095 0
0.01693419 0.04024503 0.050975513 0 -0.47704095 0
0.018284816 0.040098093 0.050965577 0 -0.47704095 0
0.01963789 0.040029299 0.050963689 0 -0.47704095 0
0.020993669 0.040029299 0.05096893 0 -0.47704095 0
0.022355719 0.040167779 0.050988175 0 -0.47704095 0
0.023721749 0.040370498 0.051014107 0 -0.47704095 0
0.025093982 0.040672522 0.05105019 0 -0.47704095 0
0.026474956 0.041107859 0.051099773 0 -0.47704095 0
0.027863437 0.041633617 0.051158644 0 -0.47704095 0
0.029261893 0.042280618 0.051229842 0 -0.47704095 0
0.030675273 0.043116231 0.051320016 0 -0.47704095 0
0.03210352 0.044115048 0.051426679 0 -0.47704095 0
0.033551242 0.045328479 0.051554911 0 -0.47704095 0
0.035025842 0.046841618 0.05171312 0 -0.47704095 0
0.036540437 0.048808835 0.051916573 0 -0.47704095 0
0.038121369 0.05154537 0.052196421 0 -0.47704095 0
0.00069627928 0.054876946 0.050983675 0 -0.47704095 0
0.0020743147 0.05117625 0.050629314 0 -0.47704095 0
0.0034418984 0.048834886 0.050405588 0 -0.47704095 0
0.0048023127 0.047043938 0.050234959 0 -0.47704095 0
0.0061575538 0.045604292 0.050098337 0 -0.47704095 0
0.0075088688 0.044409689 0.049985539 0 -0.47704095 0
0.0088571357 0.043397542 0.04989057 0 -0.47704095 0
0.010204184 0.042587079 0.049815267 0 -0.47704095 0
0.011549983 0.041904997 0.049752604 0 -0.47704095 0
0.012894789 0.041320227 0.049699608 0 -0.47704095 0
0.014240321 0.040866844 0.049659543 0 -0.47704095 0
0.01558696 0.04052265 0.049630281 0 -0.47704095 0
0.01693419 0.04024503 0.049607743 0 -0.47704095 0
0.018284816 0.040098093 0.049598072 0 -0.47704095 0
0.01963789 0.040029299 0.049596235 0 -0.47704095 0
0.020993669 0.040029299 0.049601335 0 -0.47704095 0
0.022355719 0.040167779 0.049620066 0 -0.47704095 0
0.023721749 0.040370498 0.049645301 0 -0.47704095 0
0.025093982 0.040672522 0.049680412 0 -0.47704095 0
0.026474956 0.041107859 0.049728669 0 -0.47704095 0
0.027863437 0.041633617 0.04978596 0 -0.47704095 0
0.029261893 0.042280618 0.049855243 0 -0.47704095 0
0.030675273 0.043116231 0.049943004 0 -0.47704095 0
0.03210352 0.044115048 0.050046802 0 -0.47704095 0
0.033551242 0.045328479 0.050171591 0 -0.47704095 0
0.035025842 0.046841618 0.050325558 0 -0.47704095 0
0.036540437 0.048808835 0.050523549 0 -0.47704095 0
0.038121369 0.05154537 0.05079589 0 -0.47704095 0
0.00069627928 0.054876946 0.04957867 0 -0.47704095 0
0.0020743147 0.05117625 0.049234077 0 -0.47704095 0
0.0034418984 0.048834886 0.049016517 0 -0.47704095 0
0.0048023127 0.047043938 0.048850589 0 -0.47704095 0
0.0061575538 0.045604292 0.04871773 0 -0.47704095 0
0.0075088688 0.044409689 0.048608042 0 -0.47704095 0
0.0088571357 0.043397542 0.048515689 0 -0.47704095 0
0.010204184 0.042587079 0.048442461 0 -0.47704095 0
0.011549983 0.041904997 0.04838153 0 -0.47704095 0
0.012894789 0.041320227 0.04832999 0 -0.47704095 0
0.014240321 0.040866844 0.048291031 0 -0.47704095 0
0.01558696 0.04052265 0.048262578 0 -0.47704095 0
0.01693419 0.04024503 0.048240658 0 -0.47704095 0
0.018284816 0.040098093 0.048231252 0 -0.47704095 0
0.01963789 0.040029299 0.048229467 0 -0.47704095 0
0.020993669 0.040029299 0.048234429 0 -0.47704095 0
0.022355719 0.040167779 0.048252638 0 -0.47704095 0
0.023721749 0.040370498 0.048277181 0 -0.47704095 0
0.025093982 0.040672522 0.048311327 0 -0.47704095 0
0.026474956 0.041107859 0.04835825 0 -0.47704095 0
0.027863437 0.041633617 0.048413962 0 -0.47704095 0
0.029261893 0.042280618 0.048481338 0 -0.47704095 0
0.030675273 0.043116231 0.048566677 0 -0.47704095 0
0.03210352 0.044115048 0.048667617 0 -0.47704095 0
0.033551242 0.045328479 0.048788968 0 -0.47704095 0
0.035025842 0.046841618 0.048938692 0 -0.47704095 0
0.036540437 0.048808835 0.04913123 0 -0.47704095 0
0.038121369 0.05154537 0.049396064 0 -0.47704095 0
0.00069627928 0.054876946 0.048174355 0 -0.47704095 0
0.0020743147 0.05117625 0.047839522 0 -0.47704095 0
0.0034418984 0.048834886 0.04762812 0 -0.47704095 0
0.0048023127 0.047043938 0.047466893 0 -0.47704095 0
0.0061575538 0.045604292 0.0473378 0 -0.47704095 0
0.0075088688 0.044409689 0.04723122 0 -0.47704095 0
0.0088571357 0.043397542 0.047141481 0 -0.47704095 0
0.010204184 0.042587079 0.047070328 0 -0.47704095 0
0.011549983 0.041904997 0.047011118 0 -0.47704095 0
0.012894789 0.041320227 0.046961043 0 -0.47704095 0
0.014240321 0.040866844 0.046923187 0 -0.47704095 0
0.01558696 0.04052265 0.046895538 0 -0.47704095 0
0.01693419 0.04024503 0.04687424 0 -0.47704095 0
0.018284816 0.040098093 0.046865102 0 -0.47704095 0
0.01963789 0.040029299 0.046863366 0 -0.47704095 0
0.020993669 0.040029299 0.046868186 0 -0.47704095 0
0.022355719 0.040167779 0.046885882 0 -0.47704095 0
0.023721749 0.040370498 0.046909727 0 -0.47704095 0
0.025093982 0.040672522 0.046942905 0 -0.47704095 0
0.026474956 0.041107859 0.046988502 0 -0.47704095 0
0.027863437 0.041633617 0.047042634 0 -0.47704095 0
0.029261893 0.042280618 0.047108103 0 -0.47704095 0
0.030675273 0.043116231 0.047191028 0 -0.47704095 0
0.03210352 0.044115048 0.047289107 0 -0.47704095 0
0.033551242 0.045328479 0.04740702 0 -0.47704095 0
0.035025842 0.046841618 0.0475525 0 -0.47704095 0
0.036540437 0.048808835 0.047739584 0 -0.47704095 0
0.038121369 0.05154537 0.04799692 0 -0.47704095 0
0.00069627928 0.054876946 0.046770703 0 -0.47704095 0
0.0020743147 0.05117625 0.046445627 0 -0.47704095 0
0.0034418984 0.048834886 0.046240386 0 -0.47704095 0
0.0048023127 0.047043938 0.046083853 0 -0.47704095 0
0.0061575538 0.045604292 0.045958523 0 -0.47704095 0
0.0075088688 0.044409689 0.045855049 0 -0.47704095 0
0.0088571357 0.043397542 0.045767926 0 -0.47704095 0
0.010204184 0.042587079 0.045698844 0 -0.47704095 0
0.011549983 0.041904997 0.045641363 0 -0.47704095 0
0.012894789 0.041320227 0.045592744 0 -0.47704095 0
0.014240321 0.040866844 0.04555599 0 -0.47704095 0
0.01558696 0.04052265 0.045529146 0 -0.47704095 0
0.01693419 0.04024503 0.045508467 0 -0.47704095 0
0.018284816 0.040098093 0.045499597 0 -0.47704095 0
0.01963789 0.040029299 0.045497913 0 -0.47704095 0
0.020993669 0.040029299 0.045502592 0 -0.47704095 0
0.022355719 0.040167779 0.045519773 0 -0.47704095 0
0.023721749 0.040370498 0.045542926 0 -0.47704095 0
0.025093982 0.040672522 0.045575134 0 -0.47704095 0
0.026474956 0.041107859 0.045619402 0 -0.47704095 0
0.027863437 0.041633617 0.045671958 0 -0.47704095 0
0.029261893 0.042280618 0.045735519 0 -0.47704095 0
0.030675273 0.043116231 0.045816027 0 -0.47704095 0
0.03210352 0.044115048 0.045911249 0 -0.47704095 0
0.033551242 0.045328479 0.046025727 0 -0.47704095 0
0.035025842 0.046841618 0.046166968 0 -0.47704095 0
0.036540437 0.048808835 0.046348602 0 -0.47704095 0
0.038121369 0.05154537 0.046598438 0 -0.47704095 0
0.00069627928 0.054876946 0.045367699 0 -0.47704095 0
0.0020743147 0.05117625 0.045052372 0 -0.47704095 0
0.0034418984 0.048834886 0.044853289 0 -0.47704095 0
0.0048023127 0.047043938 0.044701453 0 -0.47704095 0
0.0061575538 0.045604292 0.044579882 0 -0.47704095 0
0.0075088688 0.044409689 0.044479508 0 -0.47704095 0
0.0088571357 0.043397542 0.044395 0 -0.47704095 0
0.010204184 0.042587079 0.044327993 0 -0.47704095 0
0.011549983 0.041904997 0.044272233 0 -0.47704095 0
0.012894789 0.041320227 0.044225074 0 -0.47704095 0
0.014240321 0.040866844 0.04418942 0 -0.47704095 0
0.01558696 0.04052265 0.044163384 0 -0.47704095 0
0.01693419 0.04024503 0.044143327 0 -0.47704095 0
0.018284816 0.040098093 0.044134721 0 -0.47704095 0
0.01963789 0.040029299 0.044133086 0 -0.47704095 0
0.020993669 0.040029299 0.044137627 0 -0.47704095 0
0.022355719 0.040167779 0.04415429 0 -0.47704095 0
0.023721749 0.040370498 0.04417675 0 -0.47704095 0
0.025093982 0.040672522 0.044207994 0 -0.47704095 0
0.026474956 0.041107859 0.044250935 0 -0.47704095 0
0.027863437 0.041633617 0.044301912 0 -0.47704095 0
0.029261893 0.042280618 0.044363566 0 -0.47704095 0
0.030675273 0.043116231 0.044441659 0 -0.47704095 0
0.03210352 0.044115048 0.044534024 0 -0.47704095 0
0.033551242 0.045328479 0.044645067 0 -0.47704095 0
0.035025842 0.046841618 0.044782072 0 -0.47704095 0
0.036540437 0.048808835 0.044958256 0 -0.47704095 0
0.038121369 0.05154537 0.045200597 0 -0.47704095 0
0.00063348049 0.0069022197 0.039999999 0 -0.47704095 0
0.001873345 0 0.039429773 0 -0.47704095 0
0.0031673806 0.006892269 0.039999999 0 -0.47704095 0
0.0044343024 0.0068823188 0.039999999 0 -0.47704095 0
0.0056202663 5.5511151e-17 0.039432202 0 -0.47704095 0
0.0069680465 0.0068524671 0.039999999 0 -0.47704095 0
0.0082348511 0.0068325666 0.039999999 0 -0.47704095 0
0.0093678804 0 0.03943707 0 -0.47704095 0
0.010617319 0 0.039439231 0 -0.47704095 0
0.012034891 0.0067529674 0.039999999 0 -0.47704095 0
0.013116651 5.5511151e-17 0.039444368 0 -0.47704095 0
0.014366579 5.5511151e-17 0.039447345 0 -0.47704095 0
0.015616703 0 0.03945059 0 -0.47704095 0
0.017100416 0.0066004135 0.039999999 0 -0.47704095 0
0.018366527 0.0065539875 0.039999999 0 -0.47704095 0
0.019632511 0.006504247 0.039999999 0 -0.47704095 0
0.020898361 0.0064511918 0.039999999 0 -0.47704095 0
0.021870883 0 0.039470885 0 -0.47704095 0
0.023122553 0 0.039475758 0 -0.47704095 0
0.024374539 5.5511151e-17 0.039480902 0 -0.47704095 0
0.025960241 0.0062058386 0.039999999 0 -0.47704095 0
0.026879532 0 0.039492011 0 -0.47704095 0
0.028490147 0.0060632876 0.039999999 0 -0.47704095 0
0.029386006 5.5511151e-17 0.039504208 0 -0.47704095 0
0.03063984 0 0.039510712 0 -0.47704095 0
0.031894095 0 0.039517492 0 -0.47704095 0
0.033547547 0.0057384563 0.039999999 0 -0.47704095 0
0.034403943 0 0.039531875 0 -0.47704095 0
0.03565957 0 0.039539475 0 -0.47704095 0
0.036915686 0 0.03954735 0 -0.47704095 0
0.038172312 5.5511151e-17 0.039555501 0 -0.47704095 0
0.039429467 0 0.039563924 0 -0.47704095 0
0.00065434328 0.022840228 0.039999999 0 -0.47704095 0
0.001873345 0 0.038172606 0 -0.47704095 0
0.0031222701 0 0.038173132 0 -0.47704095 0
0.0043712384 0 0.038173918 0 -0.47704095 0
0.0056202663 0 0.038174964 0 -0.47704095 0
0.006869371 0 0.038176272 0 -0.47704095 0
0.0081185699 0 0.03817784 0 -0.47704095 0
0.0093678804 5.5511151e-17 0.038179673 0 -0.47704095 0
0.010617319 0 0.038181767 0 -0.47704095 0
0.011866904 5.5511151e-17 0.038184121 0 -0.47704095 0
0.013739482 0.022651803 0.039999999 0 -0.47704095 0
0.014366579 0 0.03818962 0 -0.47704095 0
0.015616703 5.5511151e-17 0.038192764 0 -0.47704095 0
0.016867042 0 0.038196169 0 -0.47704095 0
0.018117612 0 0.038199835 0 -0.47704095 0
0.019368431 5.5511151e-17 0.038203765 0 -0.47704095 0
0.020619515 0 0.038207956 0 -0.47704095 0
0.021870883 0 0.038212411 0 -0.47704095 0
0.023122553 5.5511151e-17 0.038217127 0 -0.47704095 0
0.024374539 0 0.038222112 0 -0.47704095 0
0.025626859 5.5511151e-17 0.038227353 0 -0.47704095 0
0.026879532 5.5511151e-17 0.038232863 0 -0.47704095 0
0.028132576 5.5511151e-17 0.038238633 0 -0.47704095 0
0.029386006 5.5511151e-17 0.038244668 0 -0.47704095 0
0.032040849 0.021812741 0.039999999 0 -0.47704095 0
0.033346735 0.021727148 0.039999999 0 -0.47704095 0
0.03465239 0.021638138 0.039999999 0 -0.47704095 0
0.034403943 5.5511151e-17 0.038271457 0 -0.47704095 0
0.03565957 5.5511151e-17 0.038278814 0 -0.47704095 0
0.036915686 0 0.03828644 0 -0.47704095 0
0.038172312 5.5511151e-17 0.038294327 0 -0.47704095 0
0.039429467 5.5511151e-17 0.038302485 0 -0.47704095 0
0.00067661743 0.039856408 0.039999999 0 -0.47704095 0
0.001873345 5.5511151e-17 0.036915973 0 -0.47704095 0
0.0031222701 0 0.036916479 0 -0.47704095 0
0.0043712384 0 0.036917236 0 -0.47704095 0
0.0056202663 5.5511151e-17 0.036918249 0 -0.47704095 0
0.006869371 0 0.036919516 0 -0.47704095 0
0.0081185699 0 0.036921032 0 -0.47704095 0
0.0093678804 5.5511151e-17 0.036922805 0 -0.47704095 0
0.010617319 0 0.036924828 0 -0.47704095 0
0.011866904 5.5511151e-17 0.036927108 0 -0.47704095 0
0.013116651 0 0.036929641 0 -0.47704095 0
0.014366579 0 0.036932424 0 -0.47704095 0
0.015616703 5.5511151e-17 0.036935464 0 -0.47704095 0
0.016867042 0 0.036938757 0 -0.47704095 0
0.018117612 0 0.036942303 0 -0.47704095 0
0.019368431 5.5511151e-17 0.036946103 0 -0.47704095 0
0.020619515 5.5511151e-17 0.036950156 0 -0.47704095 0
0.021870883 0 0.036954463 0 -0.47704095 0
0.023122553 0 0.036959026 0 -0.47704095 0
0.024374539 0 0.036963843 0 -0.47704095 0
0.025626859 0 0.036968917 0 -0.47704095 0
0.026879532 5.5511151e-17 0.036974244 0 -0.47704095 0
0.028132576 0 0.036979824 0 -0.47704095 0
0.029386006 0 0.036985662 0 -0.47704095 0
0.03063984 0 0.036991753 0 -0.47704095 0
0.031894095 0 0.036998101 0 -0.47704095 0
0.033148792 0 0.037004706 0 -0.47704095 0
0.034403943 5.5511151e-17 0.037011568 0 -0.47704095 0
0.03565957 0 0.037018683 0 -0.47704095 0
0.036915686 0 0.037026055 0 -0.47704095 0
0.038172312 5.5511151e-17 0.037033685 0 -0.47704095 0
0.039429467 0 0.037041571 0 -0.47704095 0
0.0006244455 0 0.0356596 0 -0.47704095 0
0.001873345 0 0.035659846 0 -0.47704095 0
0.0031222701 5.5511151e-17 0.035660334 0 -0.47704095 0
0.0050423411 0.073238641 0.041136 0 -0.47704095 0
0.0056202663 0 0.035662044 0 -0.47704095 0
0.006869371 0 0.035663266 0 -0.47704095 0
0.0081185699 0 0.035664733 0 -0.47704095 0
0.010895523 0.077792212 0.041482657 0 -0.47704095 0
0.010617319 0 0.035668399 0 -0.47704095 0
0.011866904 5.5511151e-17 0.035670601 0 -0.47704095 0
0.015300214 0.079414241 0.04161163 0 -0.47704095 0
0.016767938 0.079736888 0.0416389 0 -0.47704095 0
0.015616703 0 0.035678674 0 -0.47704095 0
0.016867042 0 0.035681851 0 -0.47704095 0
0.021154536 0.079962902 0.041666944 0 -0.47704095 0
0.019368431 5.5511151e-17 0.035688948 0 -0.47704095 0
0.020619515 5.5511151e-17 0.035692867 0 -0.47704095 0
0.021870883 0 0.035697028 0 -0.47704095 0
0.023122553 0 0.035701435 0 -0.47704095 0
0.024374539 5.5511151e-17 0.035706088 0 -0.47704095 0
0.025626859 5.5511151e-17 0.035710987 0 -0.47704095 0
0.026879532 0 0.035716131 0 -0.47704095 0
0.028132576 5.5511151e-17 0.035721526 0 -0.47704095 0
0.029386006 0 0.035727162 0 -0.47704095 0
0.03063984 0 0.035733048 0 -0.47704095 0
0.031894095 0 0.03573918 0 -0.47704095 0
0.033148792 0 0.035745561 0 -0.47704095 0
0.034403943 5.5511151e-17 0.035752185 0 -0.47704095 0
0.03565957 0 0.035759062 0 -0.47704095 0
0.036915686 0 0.035766181 0 -0.47704095 0
0.038172312 5.5511151e-17 0.035773553 0 -0.47704095 0
0.039429467 0 0.035781171 0 -0.47704095 0
0.00072601554 0.077593751 0.039999999 0 -0.47704095 0
0.001873345 5.5511151e-17 0.034404211 0 -0.47704095 0
0.0036300528 0.077582352 0.039999999 0 -0.47704095 0
0.0043712384 0 0.034405388 0 -0.47704095 0
0.0056202663 0 0.03440633 0 -0.47704095 0
0.006869371 0 0.034407511 0 -0.47704095 0
0.0081185699 5.5511151e-17 0.034408927 0 -0.47704095 0
0.010895523 0.077792212 0.040021993 0 -0.47704095 0
0.010617319 5.5511151e-17 0.034412462 0 -0.47704095 0
0.011866904 0 0.034414586 0 -0.47704095 0
0.013116651 5.5511151e-17 0.034416948 0 -0.47704095 0
0.016767938 0.079736888 0.040172733 0 -0.47704095 0
0.018232234 0.079896189 0.04018753 0 -0.47704095 0
0.016867042 0 0.034425441 0 -0.47704095 0
0.018117612 0 0.034428746 0 -0.47704095 0
0.019368431 5.5511151e-17 0.034432288 0 -0.47704095 0
0.020619515 0 0.034436066 0 -0.47704095 0
0.021870883 0 0.034440082 0 -0.47704095 0
0.023122553 0 0.034444336 0 -0.47704095 0
0.024374539 0 0.034448825 0 -0.47704095 0
0.025626859 0 0.034453552 0 -0.47704095 0
0.026879532 0 0.034458514 0 -0.47704095 0
0.028132576 0 0.034463719 0 -0.47704095 0
0.029386006 0 0.034469157 0 -0.47704095 0
0.03063984 0 0.034474835 0 -0.47704095 0
0.031894095 0 0.034480751 0 -0.47704095 0
0.033148792 5.5511151e-17 0.034486905 0 -0.47704095 0
0.034403943 5.5511151e-17 0.034493297 0 -0.47704095 0
0.03565957 5.5511151e-17 0.034499932 0 -0.47704095 0
0.036915686 0 0.034506802 0 -0.47704095 0
0.038172312 5.5511151e-17 0.034513913 0 -0.47704095 0
0.039429467 0 0.034521263 0 -0.47704095 0
0.0006244455 0 0.033148821 0 -0.47704095 0
0.001873345 5.5511151e-17 0.033149049 0 -0.47704095 0
0.0043712384 0 0.033150185 0 -0.47704095 0
0.0081185699 0 0.033153594 0 -0.47704095 0
0.0093678804 0 0.033155184 0 -0.47704095 0
0.010617319 5.5511151e-17 0.033157002 0 -0.47704095 0
0.013116651 0 0.03316132 0 -0.47704095 0
0.014366579 0 0.033163819 0 -0.47704095 0
0.015616703 0 0.03316655 0 -0.47704095 0
0.016867042 0 0.033169508 0 -0.47704095 0
0.018117612 0 0.033172689 0 -0.47704095 0
0.019368431 0 0.033176102 0 -0.47704095 0
0.020619515 0 0.033179745 0 -0.47704095 0
0.023122553 5.5511151e-17 0.03318771 0 -0.47704095 0
0.025626859 5.5511151e-17 0.033196591 0 -0.47704095 0
0.026879532 0 0.033201374 0 -0.47704095 0
0.028132576 0 0.033206385 0 -0.47704095 0
0.03063984 5.5511151e-17 0.033217099 0 -0.47704095 0
0.031894095 0 0.033222798 0 -0.47704095 0
0.034403943 0 0.033234887 0 -0.47704095 0
0.03565957 0 0.033241276 0 -0.47704095 0
0.036915686 5.5511151e-17 0.033247899 0 -0.47704095 0
0.038172312 5.5511151e-17 0.03325475 0 -0.47704095 0
0.039429467 0 0.033261832 0 -0.47704095 0
0.0006244455 0 0.031894125 0 -0.47704095 0
0.001873345 0 0.031894341 0 -0.47704095 0
0.0031222701 0 0.031894781 0 -0.47704095 0
0.0043712384 0 0.031895436 0 -0.47704095 0
0.0056202663 0 0.031896312 0 -0.47704095 0
0.006869371 0 0.031897403 0 -0.47704095 0
0.0081185699 0 0.031898715 0 -0.47704095 0
0.0093678804 0 0.031900246 0 -0.47704095 0
0.010617319 5.5511151e-17 0.031901997 0 -0.47704095 0
0.013116651 0 0.03190615 0 -0.47704095 0
0.015616703 0 0.031911183 0 -0.47704095 0
0.016867042 0 0.031914026 0 -0.47704095 0
0.018117612 0 0.031917091 0 -0.47704095 0
0.019368431 0 0.031920373 0 -0.47704095 0
0.020619515 5.5511151e-17 0.031923875 0 -0.47704095 0
0.021870883 0 0.031927601 0 -0.47704095 0
0.024374539 5.5511151e-17 0.031935703 0 -0.47704095 0
0.025626859 0 0.031940084 0 -0.47704095 0
0.026879532 0 0.031944688 0 -0.47704095 0
0.028132576 0 0.031949509 0 -0.47704095 0
0.029386006 0 0.031954553 0 -0.47704095 0
0.03063984 0 0.031959817 0 -0.47704095 0
0.031894095 5.5511151e-17 0.0319653 0 -0.47704095 0
0.033148792 0 0.031971008 0 -0.47704095 0
0.034403943 0 0.031976935 0 -0.47704095 0
0.03565957 5.5511151e-17 0.031983081 0 -0.47704095 0
0.036915686 0 0.031989451 0 -0.47704095 0
0.038172312 0 0.031996042 0 -0.47704095 0
0.039429467 5.5511151e-17 0.032002859 0 -0.47704095 0
0.001873345 5.5511151e-17 0.030640077 0 -0.47704095 0
0.0031222701 0 0.030640496 0 -0.47704095 0
0.006869371 0 0.030643018 0 -0.47704095 0
0.0093678804 0 0.030645749 0 -0.47704095 0
0.010617319 0 0.030647429 0 -0.47704095 0
0.011866904 0 0.030649319 0 -0.47704095 0
0.013116651 0 0.03065142 0 -0.47704095 0
0.014366579 0 0.030653732 0 -0.47704095 0
0.015616703 0 0.030656254 0 -0.47704095 0
0.016867042 0 0.030658986 0 -0.47704095 0
0.019368431 0 0.030665085 0 -0.47704095 0
0.020619515 5.5511151e-17 0.030668449 0 -0.47704095 0
0.023122553 0 0.030675812 0 -0.47704095 0
0.024374539 0 0.030679811 0 -0.47704095 0
0.025626859 5.5511151e-17 0.03068402 0 -0.47704095 0
0.026879532 5.5511151e-17 0.030688442 0 -0.47704095 0
0.028132576 0 0.030693075 0 -0.47704095 0
0.029386006 5.5511151e-17 0.030697919 0 -0.47704095 0
0.033148792 0 0.030713726 0 -0.47704095 0
0.034403943 5.5511151e-17 0.03071942 0 -0.47704095 0
0.03565957 0 0.030725326 0 -0.47704095 0
0.036915686 0 0.030731445 0 -0.47704095 0
0.038172312 0 0.030737778 0 -0.47704095 0
0.039429467 0 0.030744324 0 -0.47704095 0
0.001873345 0 0.029386234 0 -0.47704095 0
0.0043712384 0 0.029387239 0 -0.47704095 0
0.0056202663 0 0.029388046 0 -0.47704095 0
0.006869371 5.5511151e-17 0.029389054 0 -0.47704095 0
0.0081185699 0 0.029390261 0 -0.47704095 0
0.0093678804 5.5511151e-17 0.029391672 0 -0.47704095 0
0.011866904 0 0.029395098 0 -0.47704095 0
0.013116651 0 0.029397111 0 -0.47704095 0
0.014366579 0 0.02939933 0 -0.47704095 0
0.015616703 0 0.029401748 0 -0.47704095 0
0.018117612 0 0.029407192 0 -0.47704095 0
0.019368431 0 0.029410217 0 -0.47704095 0
0.020619515 0 0.029413445 0 -0.47704095 0
0.023122553 0 0.029420506 0 -0.47704095 0
0.024374539 5.5511151e-17 0.029424341 0 -0.47704095 0
0.025626859 0 0.029428378 0 -0.47704095 0
0.028132576 0 0.029437061 0 -0.47704095 0
0.03063984 5.5511151e-17 0.029446557 0 -0.47704095 0
0.031894095 0 0.029451611 0 -0.47704095 0
0.033148792 5.5511151e-17 0.029456867 0 -0.47704095 0
0.034403943 0 0.029462328 0 -0.47704095 0
0.03565957 5.5511151e-17 0.029467992 0 -0.47704095 0
0.036915686 0 0.029473862 0 -0.47704095 0
0.039999999 0.022840656 0.030891431 0 -0.47704095 0
0.039429467 5.5511151e-17 0.029486215 0 -0.47704095 0
0.0031222701 0 0.028133178 0 -0.47704095 0
0.0043712384 0 0.028133757 0 -0.47704095 0
0.0056202663 0 0.028134529 0 -0.47704095 0
0.006869371 5.5511151e-17 0.028135493 0 -0.47704095 0
0.0081185699 0 0.02813665 0 -0.47704095 0
0.0093678804 0 0.028138001 0 -0.47704095 0
0.011866904 5.5511151e-17 0.028141279 0 -0.47704095 0
0.013116651 0 0.028143208 0 -0.47704095 0
0.014366579 0 0.02814533 0 -0.47704095 0
0.015616703 5.5511151e-17 0.028147647 0 -0.47704095 0
0.016867042 5.5511151e-17 0.028150156 0 -0.47704095 0
0.019368431 5.5511151e-17 0.028155753 0 -0.47704095 0
0.020619515 0 0.028158844 0 -0.47704095 0
0.021870883 0 0.028162127 0 -0.47704095 0
0.024374539 0 0.028169276 0 -0.47704095 0
0.026879532 0 0.0281772 0 -0.47704095 0
0.028132576 0 0.028181454 0 -0.47704095 0
0.029386006 0 0.028185902 0 -0.47704095 0
0.031894095 0 0.028195383 0 -0.47704095 0
0.033148792 0 0.028200416 0 -0.47704095 0
0.034403943 5.5511151e-17 0.028205642 0 -0.47704095 0
0.03565957 0 0.028211066 0 -0.47704095 0
0.036915686 0 0.028216684 0 -0.47704095 0
0.039999999 0.022840656 0.029573789 0 -0.47704095 0
0.039429467 0 0.02822851 0 -0.47704095 0
0.001873345 0 0.026879741 0 -0.47704095 0
0.0031222701 0 0.026880108 0 -0.47704095 0
0.0043712384 0 0.026880661 0 -0.47704095 0
0.0056202663 0 0.026881399 0 -0.47704095 0
0.006869371 0 0.026882319 0 -0.47704095 0
0.0081185699 0 0.026883425 0 -0.47704095 0
0.0093678804 0 0.026884716 0 -0.47704095 0
0.011866904 5.5511151e-17 0.026887849 0 -0.47704095 0
0.014366579 0 0.02689172 0 -0.47704095 0
0.015616703 0 0.026893932 0 -0.47704095 0
0.016867042 0 0.02689633 0 -0.47704095 0
0.018117612 0 0.026898911 0 -0.47704095 0
0.020619515 5.5511151e-17 0.026904631 0 -0.47704095 0
0.021870883 5.5511151e-17 0.026907768 0 -0.47704095 0
0.023122553 0 0.026911089 0 -0.47704095 0
0.024374539 0 0.026914598 0 -0.47704095 0
0.028132576 0 0.026926234 0 -0.47704095 0
0.029386006 0 0.026930483 0 -0.47704095 0
0.03063984 5.5511151e-17 0.02693492 0 -0.47704095 0
0.031894095 0 0.026939541 0 -0.47704095 0
0.033148792 0 0.02694435 0 -0.47704095 0
0.039999999 0.077594228 0.031332854 0 -0.47704095 0
0.03565957 0 0.026954528 0 -0.47704095 0
0.036915686 0 0.026959896 0 -0.47704095 0
0.039429467 0 0.026971193 0 -0.47704095 0
0.0006244455 0 0.025626881 0 -0.47704095 0
0.001873345 0 0.025627058 0 -0.47704095 0
0.0031222701 5.5511151e-17 0.025627408 0 -0.47704095 0
0.0043712384 0 0.025627935 0 -0.47704095 0
0.0056202663 0 0.025628638 0 -0.47704095 0
0.006869371 5.5511151e-17 0.025629517 0 -0.47704095 0
0.0081185699 5.5511151e-17 0.025630571 0 -0.47704095 0
0.0093678804 0 0.0256318 0 -0.47704095 0
0.011866904 0 0.025634788 0 -0.47704095 0
0.013116651 5.5511151e-17 0.025636544 0 -0.47704095 0
0.014366579 0 0.025638478 0 -0.47704095 0
0.016867042 5.5511151e-17 0.025642874 0 -0.47704095 0
0.018117612 0 0.025645334 0 -0.47704095 0
0.019368431 5.5511151e-17 0.025647974 0 -0.47704095 0
0.020619515 0 0.025650788 0 -0.47704095 0
0.021870883 0 0.025653778 0 -0.47704095 0
0.023122553 0 0.025656946 0 -0.47704095 0
0.024374539 5.5511151e-17 0.025660289 0 -0.47704095 0
0.025626859 0 0.025663812 0 -0.47704095 0
0.03063984 5.5511151e-17 0.025679665 0 -0.47704095 0
0.031894095 5.5511151e-17 0.025684072 0 -0.47704095 0
0.033148792 0 0.025688656 0 -0.47704095 0
0.034403943 0 0.025693418 0 -0.47704095 0
0.03565957 0 0.025698358 0 -0.47704095 0
0.039999999 0.039856851 0.027851006 0 -0.47704095 0
0.039999999 0.022840656 0.026939707 0 -0.47704095 0
0.039429467 0 0.025714248 0 -0.47704095 0
0.0006244455 0 0.02437456 0 -0.47704095 0
0.001873345 0 0.024374727 0 -0.47704095 0
0.0031222701 0 0.024375061 0 -0.47704095 0
0.0043712384 5.5511151e-17 0.024375562 0 -0.47704095 0
0.0056202663 0 0.02437623 0 -0.47704095 0
0.006869371 5.5511151e-17 0.024377065 0 -0.47704095 0
0.0093678804 0 0.024379238 0 -0.47704095 0
0.011866904 5.5511151e-17 0.024382079 0 -0.47704095 0
0.013116651 0 0.02438375 0 -0.47704095 0
0.015616703 5.5511151e-17 0.024387596 0 -0.47704095 0
0.016867042 5.5511151e-17 0.02438977 0 -0.47704095 0
0.019368431 0 0.02439462 0 -0.47704095 0
0.020619515 5.5511151e-17 0.024397297 0 -0.47704095 0
0.021870883 0 0.024400141 0 -0.47704095 0
0.024374539 5.5511151e-17 0.024406334 0 -0.47704095 0
0.025626859 0 0.024409683 0 -0.47704095 0
0.026879532 5.5511151e-17 0.024413202 0 -0.47704095 0
0.028132576 0 0.024416886 0 -0.47704095 0
0.03063984 0 0.024424763 0 -0.47704095 0
0.031894095 0 0.024428954 0 -0.47704095 0
0.033148792 0 0.024433315 0 -0.47704095 0
0.034403943 5.5511151e-17 0.024437845 0 -0.47704095 0
0.039999999 0.058064707 0.027417654 0 -0.47704095 0
0.039999999 0.039856851 0.026489997 0 -0.47704095 0
0.038172312 5.5511151e-17 0.02445245 0 -0.47704095 0
0.039429467 0 0.024457656 0 -0.47704095 0
0.0006244455 0 0.023122571 0 -0.47704095 0
0.001873345 5.5511151e-17 0.02312273 0 -0.47704095 0
0.0081185699 0 0.0231259 0 -0.47704095 0
0.0093678804 0 0.02312701 0 -0.47704095 0
0.014366579 0 0.023133036 0 -0.47704095 0
0.015616703 0 0.023134939 0 -0.47704095 0
0.019368431 0 0.023141602 0 -0.47704095 0
0.020619515 0 0.023144143 0 -0.47704095 0
0.021870883 0 0.02314684 0 -0.47704095 0
0.023122553 0 0.023149699 0 -0.47704095 0
0.024374539 0 0.023152716 0 -0.47704095 0
0.025626859 0 0.023155892 0 -0.47704095 0
0.026879532 5.5511151e-17 0.02315923 0 -0.47704095 0
0.028132576 5.5511151e-17 0.023162726 0 -0.47704095 0
0.029386006 0 0.023166381 0 -0.47704095 0
0.03063984 0 0.023170197 0 -0.47704095 0
0.031894095 0 0.023174174 0 -0.47704095 0
0.033148792 0 0.023178311 0 -0.47704095 0
0.034403943 5.5511151e-17 0.023182606 0 -0.47704095 0
0.03565957 0 0.023187064 0 -0.47704095 0
0.036915686 0 0.023191683 0 -0.47704095 0
0.038172312 0 0.023196461 0 -0.47704095 0
0.039999999 0.0069026346 0.023537118 0 -0.47704095 0
0.0006244455 5.5511151e-17 0.021870902 0 -0.47704095 0
0.001873345 5.5511151e-17 0.021871053 0 -0.47704095 0
0.0056202663 0 0.021872401 0 -0.47704095 0
0.006869371 0 0.021873152 0 -0.47704095 0
0.0081185699 0 0.021874052 0 -0.47704095 0
0.0093678804 0 0.0218751 0 -0.47704095 0
0.010617319 5.5511151e-17 0.0218763 0 -0.47704095 0
0.011866904 5.5511151e-17 0.02187765 0 -0.47704095 0
0.014366579 0 0.0218808 0 -0.47704095 0
0.015616703 5.5511151e-17 0.021882599 0 -0.47704095 0
0.016867042 0 0.021884551 0 -0.47704095 0
0.018117612 0 0.021886652 0 -0.47704095 0
0.019368431 0 0.021888902 0 -0.47704095 0
0.020619515 0 0.021891305 0 -0.47704095 0
0.021870883 0 0.021893857 0 -0.47704095 0
0.023122553 0 0.02189656 0 -0.47704095 0
0.024374539 0 0.021899415 0 -0.47704095 0
0.025626859 5.5511151e-17 0.02190242 0 -0.47704095 0
0.029386006 0 0.02191234 0 -0.47704095 0
0.03063984 0 0.02191595 0 -0.47704095 0
0.033148792 0 0.021923624 0 -0.47704095 0
0.039999999 0.077594228 0.025494387 0 -0.47704095 0
0.03565957 0 0.021931903 0 -0.47704095 0
0.036915686 0 0.021936271 0 -0.47704095 0
0.038172312 0 0.021940792 0 -0.47704095 0
0.039999999 0.0069026346 0.022263009 0 -0.47704095 0
0.0006244455 0 0.020619534 0 -0.47704095 0
0.001873345 0 0.020619676 0 -0.47704095 0
0.0031222701 0 0.020619957 0 -0.47704095 0
0.0043712384 0 0.020620381 0 -0.47704095 0
0.0056202663 5.5511151e-17 0.020620948 0 -0.47704095 0
0.006869371 5.5511151e-17 0.020621654 0 -0.47704095 0
0.0093678804 5.5511151e-17 0.020623492 0 -0.47704095 0
0.010617319 0 0.020624623 0 -0.47704095 0
0.011866904 0 0.020625895 0 -0.47704095 0
0.014366579 0 0.020628864 0 -0.47704095 0
0.015616703 5.5511151e-17 0.020630561 0 -0.47704095 0
0.016867042 0 0.020632401 0 -0.47704095 0
0.018117612 0 0.020634381 0 -0.47704095 0
0.019368431 0 0.020636505 0 -0.47704095 0
0.020619515 0 0.020638768 0 -0.47704095 0
0.021870883 5.5511151e-17 0.020641174 0 -0.47704095 0
0.023122553 0 0.020643724 0 -0.47704095 0
0.024374539 5.5511151e-17 0.020646414 0 -0.47704095 0
0.025626859 0 0.020649247 0 -0.47704095 0
0.026879532 0 0.020652223 0 -0.47704095 0
0.028132576 0 0.02065534 0 -0.47704095 0
0.029386006 0 0.020658601 0 -0.47704095 0
0.031894095 5.5511151e-17 0.020665549 0 -0.47704095 0
0.039999999 0.077594228 0.024035696 0 -0.47704095 0
0.039999999 0.058064707 0.023193823 0 -0.47704095 0
0.036915686 0 0.020681163 0 -0.47704095 0
0.039999999 0.022840656 0.02167584 0 -0.47704095 0
0.039429467 5.5511151e-17 0.02068983 0 -0.47704095 0
0.001873345 0 0.01936858 0 -0.47704095 0
0.0031222701 5.5511151e-17 0.019368846 0 -0.47704095 0
0.0043712384 5.5511151e-17 0.019369245 0 -0.47704095 0
0.0056202663 0 0.019369775 0 -0.47704095 0
0.006869371 0 0.019370439 0 -0.47704095 0
0.0081185699 0 0.019371236 0 -0.47704095 0
0.010617319 0 0.019373227 0 -0.47704095 0
0.011866904 0 0.019374423 0 -0.47704095 0
0.015616703 0 0.019378807 0 -0.47704095 0
0.016867042 5.5511151e-17 0.019380534 0 -0.47704095 0
0.019368431 0 0.019384388 0 -0.47704095 0
0.020619515 0 0.019386515 0 -0.47704095 0
0.021870883 0 0.019388776 0 -0.47704095 0
0.023122553 5.5511151e-17 0.01939117 0 -0.47704095 0
0.025626859 5.5511151e-17 0.019396359 0 -0.47704095 0
0.026879532 0 0.019399153 0 -0.47704095 0
0.028132576 0 0.019402081 0 -0.47704095 0
0.029386006 0 0.019405143 0 -0.47704095 0
0.031894095 5.5511151e-17 0.019411672 0 -0.47704095 0
0.033148792 5.5511151e-17 0.019415136 0 -0.47704095 0
0.039999999 0.077594228 0.022577336 0 -0.47704095 0
0.039999999 0.058064707 0.021786543 0 -0.47704095 0
