# .PCD v0.7 - Point Cloud Data file format
VERSION 0.7
FIELDS x y z vp_x vp_y vp_z
SIZE 4 4 4 4 4 4
TYPE F F F F F F
COUNT 1 1 1 1 1 1
WIDTH 873
HEIGHT 1
VIEWPOINT 0 0 0 1 0 0 0
POINTS 873
DATA ascii
0.02935341 0.074265353 0.07 0 -0.25019264 -0.4048202
0.026311904 0.026436117 0 0 -0.25019264 -0.4048202
0.02759818 0.026440037 0 0 -0.25019264 -0.4048202
0.028884852 0.026444146 5.5511151e-17 0 -0.25019264 -0.4048202
0.030171938 0.026448442 0 0 -0.25019264 -0.4048202
0.031459458 0.026452925 0 0 -0.25019264 -0.4048202
0.032747429 0.026457598 0 0 -0.25019264 -0.4048202
0.038948838 0.066396698 0.058434445 0 -0.25019264 -0.4048202
0.035324804 0.026467508 5.5511151e-17 0 -0.25019264 -0.4048202
0.039999999 0.052056264 0.037434123 0 -0.25019264 -0.4048202
0.039999999 0.04177577 0.022383198 0 -0.25019264 -0.4048202
0.00064218265 0.027954316 0 0 -0.25019264 -0.4048202
0.0019265572 0.027954513 0 0 -0.25019264 -0.4048202
0.0032109593 0.027954908 0 0 -0.25019264 -0.4048202
0.0044954075 0.0279555 5.5511151e-17 0 -0.25019264 -0.4048202
0.0057799201 0.02795629 0 0 -0.25019264 -0.4048202
0.0070645157 0.027957279 5.5511151e-17 0 -0.25019264 -0.4048202
0.0083492128 0.027958464 0 0 -0.25019264 -0.4048202
0.0096340291 0.027959846 0 0 -0.25019264 -0.4048202
0.012807054 0.07605879 0.07 0 -0.25019264 -0.4048202
0.012204096 0.027963206 5.5511151e-17 0 -0.25019264 -0.4048202
0.013489383 0.027965182 5.5511151e-17 0 -0.25019264 -0.4048202
0.014774864 0.027967356 0 0 -0.25019264 -0.4048202
0.016060555 0.027969729 0 0 -0.25019264 -0.4048202
0.017346479 0.0279723 0 0 -0.25019264 -0.4048202
0.018632652 0.027975067 0 0 -0.25019264 -0.4048202
0.021205818 0.027981199 0 0 -0.25019264 -0.4048202
0.022492848 0.027984561 0 0 -0.25019264 -0.4048202
0.023780202 0.027988125 0 0 -0.25019264 -0.4048202
0.029402547 0.076094516 0.07 0 -0.25019264 -0.4048202
0.026355956 0.027995845 0 0 -0.25019264 -0.4048202
0.032381766 0.075673424 0.069373384 0 -0.25019264 -0.4048202
0.028933225 0.028004361 0 0 -0.25019264 -0.4048202
0.030222474 0.028008917 0 0 -0.25019264 -0.4048202
0.036422532 0.071365081 0.063080966 0 -0.25019264 -0.4048202
0.032802299 0.028018631 0 0 -0.25019264 -0.4048202
0.034092911 0.028023787 5.5511151e-17 0 -0.25019264 -0.4048202
0.035384014 0.028029142 0 0 -0.25019264 -0.4048202
0.036675628 0.028034698 0 0 -0.25019264 -0.4048202
0.039999999 0.042932913 0.021668045 0 -0.25019264 -0.4048202
0.039260462 0.028046412 0 0 -0.25019264 -0.4048202
0.00064325827 0.029517276 0 0 -0.25019264 -0.4048202
0.0022026368 0.069065787 0.057237659 0 -0.25019264 -0.4048202
0.0032163374 0.029517904 0 0 -0.25019264 -0.4048202
0.0045029372 0.02951853 5.5511151e-17 0 -0.25019264 -0.4048202
0.0067296894 0.074937642 0.06573274 0 -0.25019264 -0.4048202
0.0070763496 0.029520411 0 0 -0.25019264 -0.4048202
0.0083631994 0.029521665 0 0 -0.25019264 -0.4048202
0.0096501689 0.029523127 0 0 -0.25019264 -0.4048202
0.012224544 0.029526681 0 0 -0.25019264 -0.4048202
0.013511986 0.029528771 0 0 -0.25019264 -0.4048202
0.014799622 0.029531069 0 0 -0.25019264 -0.4048202
0.016087471 0.02953358 5.5511151e-17 0 -0.25019264 -0.4048202
0.017375551 0.029536298 0 0 -0.25019264 -0.4048202
0.018663883 0.029539226 5.5511151e-17 0 -0.25019264 -0.4048202
0.019952482 0.029542364 5.5511151e-17 0 -0.25019264 -0.4048202
0.021241369 0.029545711 0 0 -0.25019264 -0.4048202
0.022530563 0.029549269 5.5511151e-17 0 -0.25019264 -0.4048202
0.02382008 0.029553035 5.5511151e-17 0 -0.25019264 -0.4048202
0.025109941 0.029557014 0 0 -0.25019264 -0.4048202
0.030855715 0.076775208 0.068321429 0 -0.25019264 -0.4048202
0.027690768 0.029565601 0 0 -0.25019264 -0.4048202
0.028981771 0.029570209 0 0 -0.25019264 -0.4048202
0.034993406 0.07319656 0.063119799 0 -0.25019264 -0.4048202
0.031565052 0.02958006 0 0 -0.25019264 -0.4048202
0.032857366 0.029585302 0 0 -0.25019264 -0.4048202
0.034150157 0.029590756 0 0 -0.25019264 -0.4048202
0.035443436 0.02959642 0 0 -0.25019264 -0.4048202
0.036737233 0.029602297 0 0 -0.25019264 -0.4048202
0.038031559 0.029608386 0 0 -0.25019264 -0.4048202
0.039326437 0.029614687 0 0 -0.25019264 -0.4048202
0.00064433774 0.031085903 0 0 -0.25019264 -0.4048202
0.0019330225 0.031086123 0 0 -0.25019264 -0.4048202
0.0032217351 0.031086564 0 0 -0.25019264 -0.4048202
0.0045104944 0.031087225 0 0 -0.25019264 -0.4048202
0.0057993182 0.031088106 0 0 -0.25019264 -0.4048202
0.0070882263 0.031089209 5.5511151e-17 0 -0.25019264 -0.4048202
0.0083772363 0.031090531 0 0 -0.25019264 -0.4048202
0.0096663665 0.031092074 0 0 -0.25019264 -0.4048202
0.010955636 0.031093838 5.5511151e-17 0 -0.25019264 -0.4048202
0.012245065 0.031095823 0 0 -0.25019264 -0.4048202
0.01353467 0.031098027 0 0 -0.25019264 -0.4048202
0.01482447 0.031100454 0 0 -0.25019264 -0.4048202
0.016114483 0.031103101 0 0 -0.25019264 -0.4048202
0.01740473 0.031105967 0 0 -0.25019264 -0.4048202
0.018695228 0.031109057 0 0 -0.25019264 -0.4048202
0.019985994 0.031112367 0 0 -0.25019264 -0.4048202
0.021277051 0.031115899 0 0 -0.25019264 -0.4048202
0.022568414 0.031119652 0 0 -0.25019264 -0.4048202
0.023860103 0.031123625 0 0 -0.25019264 -0.4048202
0.02931555 0.077694558 0.067009546 0 -0.25019264 -0.4048202
0.026444536 0.03113224 0 0 -0.25019264 -0.4048202
0.027737314 0.03113688 0 0 -0.25019264 -0.4048202
0.029030496 0.031141743 0 0 -0.25019264 -0.4048202
0.030324098 0.031146826 0 0 -0.25019264 -0.4048202
0.031618137 0.031152135 0 0 -0.25019264 -0.4048202
0.037428539 0.069761403 0.055544898 0 -0.25019264 -0.4048202
0.034207609 0.031163417 0 0 -0.25019264 -0.4048202
0.035503078 0.031169392 5.5511151e-17 0 -0.25019264 -0.4048202
0.036799062 0.031175593 0 0 -0.25019264 -0.4048202
0.038095579 0.031182015 0 0 -0.25019264 -0.4048202
0.03939265 0.031188661 5.5511151e-17 0 -0.25019264 -0.4048202
0.00064542121 0.032660246 0 0 -0.25019264 -0.4048202
0.0019362728 0.032660477 0 0 -0.25019264 -0.4048202
0.0036703004 0.071501985 0.055589322 0 -0.25019264 -0.4048202
0.0051685963 0.07338728 0.058286421 0 -0.25019264 -0.4048202
0.0058090705 0.032662567 0 0 -0.25019264 -0.4048202
0.0081906822 0.076108634 0.06217777 0 -0.25019264 -0.4048202
0.0083913244 0.032665119 0 0 -0.25019264 -0.4048202
0.0096826237 0.032666743 0 0 -0.25019264 -0.4048202
0.010974064 0.032668598 0 0 -0.25019264 -0.4048202
0.012265661 0.032670684 0 0 -0.25019264 -0.4048202
0.013557437 0.032673005 0 0 -0.25019264 -0.4048202
0.014849409 0.032675561 0 0 -0.25019264 -0.4048202
0.016141593 0.032678343 0 0 -0.25019264 -0.4048202
0.017434014 0.032681365 0 0 -0.25019264 -0.4048202
0.018726686 0.032684613 0 0 -0.25019264 -0.4048202
0.02001963 0.032688096 0 0 -0.25019264 -0.4048202
0.021312863 0.032691814 0 0 -0.25019264 -0.4048202
0.026302723 0.078950182 0.066191196 0 -0.25019264 -0.4048202
0.027762366 0.078413144 0.06541574 0 -0.25019264 -0.4048202
0.025194487 0.032704361 0 0 -0.25019264 -0.4048202
0.030627968 0.076912232 0.063252926 0 -0.25019264 -0.4048202
0.027784031 0.032713894 0 0 -0.25019264 -0.4048202
0.029079398 0.032719012 0 0 -0.25019264 -0.4048202
0.030375186 0.032724362 0 0 -0.25019264 -0.4048202
0.031671416 0.03272995 0 0 -0.25019264 -0.4048202
0.032968104 0.032735769 0 0 -0.25019264 -0.4048202
0.034265272 0.032741822 0 0 -0.25019264 -0.4048202
0.039529804 0.064308748 0.045155682 0 -0.25019264 -0.4048202
0.036861118 0.032754637 5.5511151e-17 0 -0.25019264 -0.4048202
0.038159836 0.032761395 5.5511151e-17 0 -0.25019264 -0.4048202
0.039459106 0.032768391 0 0 -0.25019264 -0.4048202
0.00064650859 0.034240361 5.5511151e-17 0 -0.25019264 -0.4048202
0.0021766722 0.069016814 0.049495313 0 -0.25019264 -0.4048202
0.0032325897 0.034241091 0 0 -0.25019264 -0.4048202
0.0045256913 0.034241822 0 0 -0.25019264 -0.4048202
0.0058188583 0.034242794 0 0 -0.25019264 -0.4048202
0.0071121096 0.034244012 5.5511151e-17 0 -0.25019264 -0.4048202
0.0084054638 0.034245476 5.5511151e-17 0 -0.25019264 -0.4048202
0.0096989404 0.034247182 0 0 -0.25019264 -0.4048202
0.012707184 0.07861656 0.063144147 0 -0.25019264 -0.4048202
0.012286333 0.034251325 0 0 -0.25019264 -0.4048202
0.013580287 0.034253761 0 0 -0.25019264 -0.4048202
0.014874438 0.03425644 0 0 -0.25019264 -0.4048202
0.018766193 0.079954274 0.065031081 0 -0.25019264 -0.4048202
0.020269839 0.079975531 0.0650561 0 -0.25019264 -0.4048202
0.021767292 0.079896234 0.064937614 0 -0.25019264 -0.4048202
0.020053387 0.034269609 0 0 -0.25019264 -0.4048202
0.021348804 0.034273509 0 0 -0.25019264 -0.4048202
0.022644533 0.034277659 5.5511151e-17 0 -0.25019264 -0.4048202
0.023940587 0.034282051 0 0 -0.25019264 -0.4048202
0.025236992 0.034286689 0 0 -0.25019264 -0.4048202
0.026533762 0.034291573 0 0 -0.25019264 -0.4048202
0.027830917 0.034296699 0 0 -0.25019264 -0.4048202
0.029128479 0.034302074 0 0 -0.25019264 -0.4048202
0.030426463 0.034307692 5.5511151e-17 0 -0.25019264 -0.4048202
0.035936408 0.072082102 0.053740378 0 -0.25019264 -0.4048202
0.033023778 0.034319669 5.5511151e-17 0 -0.25019264 -0.4048202
0.034323145 0.034326028 0 0 -0.25019264 -0.4048202
0.035623014 0.034332633 0 0 -0.25019264 -0.4048202
0.036923401 0.034339484 0 0 -0.25019264 -0.4048202
0.038224325 0.034346584 5.5511151e-17 0 -0.25019264 -0.4048202
0.039525807 0.034353931 0 0 -0.25019264 -0.4048202
0.00064759998 0.035826296 0 0 -0.25019264 -0.4048202
0.0021681478 0.069000736 0.046953421 0 -0.25019264 -0.4048202
0.0036414433 0.07145942 0.050432537 0 -0.25019264 -0.4048202
0.005127877 0.073339343 0.05309207 0 -0.25019264 -0.4048202
0.0058286823 0.035828851 5.5511151e-17 0 -0.25019264 -0.4048202
0.0071241171 0.035830125 0 0 -0.25019264 -0.4048202
0.0084196562 0.03583166 0 0 -0.25019264 -0.4048202
0.0097153168 0.035833444 0 0 -0.25019264 -0.4048202
0.011011119 0.03583549 5.5511151e-17 0 -0.25019264 -0.4048202
0.012307081 0.035837788 0 0 -0.25019264 -0.4048202
0.013603222 0.03584034 0 0 -0.25019264 -0.4048202
0.01489956 0.035843153 0 0 -0.25019264 -0.4048202
0.016196115 0.035846218 0 0 -0.25019264 -0.4048202
0.017492905 0.035849538 0 0 -0.25019264 -0.4048202
0.018789951 0.035853118 5.5511151e-17 0 -0.25019264 -0.4048202
0.02008727 0.035856951 0 0 -0.25019264 -0.4048202
0.02138488 0.035861041 0 0 -0.25019264 -0.4048202
0.022682801 0.035865389 0 0 -0.25019264 -0.4048202
0.023981053 0.035869993 0 0 -0.25019264 -0.4048202
0.025279654 0.035874855 0 0 -0.25019264 -0.4048202
0.026578622 0.03587997 0 0 -0.25019264 -0.4048202
0.027877979 0.035885345 0 0 -0.25019264 -0.4048202
0.02917774 0.035890978 5.5511151e-17 0 -0.25019264 -0.4048202
0.030477928 0.035896868 0 0 -0.25019264 -0.4048202
0.031778559 0.035903014 5.5511151e-17 0 -0.25019264 -0.4048202
0.037068877 0.070411727 0.048819046 0 -0.25019264 -0.4048202
0.034381233 0.035916086 0 0 -0.25019264 -0.4048202
0.035683315 0.035923008 0 0 -0.25019264 -0.4048202
0.036985915 0.03593019 0 0 -0.25019264 -0.4048202
0.038289055 0.03593763 5.5511151e-17 0 -0.25019264 -0.4048202
0.039592754 0.03594533 0 0 -0.25019264 -0.4048202
0.00064869545 0.037418112 0 0 -0.25019264 -0.4048202
0.0019460958 0.03741838 0 0 -0.25019264 -0.4048202
0.0032435246 0.037418913 5.5511151e-17 0 -0.25019264 -0.4048202
0.0051077474 0.073315643 0.050524246 0 -0.25019264 -0.4048202
0.0058385422 0.037420783 0 0 -0.25019264 -0.4048202
0.0071361694 0.037422121 0 0 -0.25019264 -0.4048202
0.0084339008 0.037423722 0 0 -0.25019264 -0.4048202
0.0097317537 0.037425593 5.5511151e-17 0 -0.25019264 -0.4048202
0.01102975 0.037427727 0 0 -0.25019264 -0.4048202
0.012327906 0.037430134 0 0 -0.25019264 -0.4048202
0.013626241 0.037432805 0 0 -0.25019264 -0.4048202
0.014924776 0.037435744 5.5511151e-17 0 -0.25019264 -0.4048202
0.018620662 0.079938442 0.059814889 0 -0.25019264 -0.4048202
0.017522516 0.037442427 0 0 -0.25019264 -0.4048202
0.018821759 0.037446171 0 0 -0.25019264 -0.4048202
0.023080483 0.079753377 0.059536293 0 -0.25019264 -0.4048202
0.021421088 0.037454464 5.5511151e-17 0 -0.25019264 -0.4048202
0.022721212 0.037459012 0 0 -0.25019264 -0.4048202
0.024021668 0.037463825 0 0 -0.25019264 -0.4048202
0.028881177 0.077895522 0.056891546 0 -0.25019264 -0.4048202
0.030292334 0.077114172 0.055783395 0 -0.25019264 -0.4048202
0.027925214 0.037479889 0 0 -0.25019264 -0.4048202
0.029227186 0.037485782 0 0 -0.25019264 -0.4048202
0.030529585 0.037491944 5.5511151e-17 0 -0.25019264 -0.4048202
0.031832431 0.037498374 0 0 -0.25019264 -0.4048202
0.033135742 0.037505075 0 0 -0.25019264 -0.4048202
0.034439538 0.037512049 0 0 -0.25019264 -0.4048202
0.035743836 0.037519291 0 0 -0.25019264 -0.4048202
0.03704866 0.037526805 0 0 -0.25019264 -0.4048202
0.039999999 0.049882483 0.017372973 0 -0.25019264 -0.4048202
0.039659951 0.037542645 5.5511151e-17 0 -0.25019264 -0.4048202
0.00064979499 0.039015859 5.5511151e-17 0 -0.25019264 -0.4048202
0.0019493945 0.039016139 0 0 -0.25019264 -0.4048202
0.0032490224 0.039016698 0 0 -0.25019264 -0.4048202
0.0045486977 0.039017536 5.5511151e-17 0 -0.25019264 -0.4048202
0.0058484394 0.03901865 0 0 -0.25019264 -0.4048202
0.0071482668 0.039020047 0 0 -0.25019264 -0.4048202
0.0084481984 0.039021719 0 0 -0.25019264 -0.4048202
0.011057502 0.07786715 0.054369777 0 -0.25019264 -0.4048202
0.01104845 0.039025903 5.5511151e-17 0 -0.25019264 -0.4048202
0.012348808 0.039028417 0 0 -0.25019264 -0.4048202
0.013649347 0.039031208 5.5511151e-17 0 -0.25019264 -0.4048202
0.014950085 0.039034277 0 0 -0.25019264 -0.4048202
0.016251042 0.039037626 0 0 -0.25019264 -0.4048202
0.017552236 0.039041258 0 0 -0.25019264 -0.4048202
0.018853687 0.039045166 0 0 -0.25019264 -0.4048202
0.020155413 0.039049357 0 0 -0.25019264 -0.4048202
0.021457434 0.039053828 5.5511151e-17 0 -0.25019264 -0.4048202
0.022759767 0.039058577 0 0 -0.25019264 -0.4048202
0.024062434 0.039063606 5.5511151e-17 0 -0.25019264 -0.4048202
0.025365453 0.039068919 0 0 -0.25019264 -0.4048202
0.026668845 0.03907451 0 0 -0.25019264 -0.4048202
0.027972626 0.039080385 0 0 -0.25019264 -0.4048202
0.029276816 0.039086539 5.5511151e-17 0 -0.25019264 -0.4048202
0.030581435 0.039092977 0 0 -0.25019264 -0.4048202
0.031886503 0.039099693 0 0 -0.25019264 -0.4048202
0.033192039 0.039106693 0 0 -0.25019264 -0.4048202
0.034498058 0.039113972 0 0 -0.25019264 -0.4048202
0.035804588 0.039121538 5.5511151e-17 0 -0.25019264 -0.4048202
0.03711164 0.039129384 0 0 -0.25019264 -0.4048202
0.038419239 0.039137516 0 0 -0.25019264 -0.4048202
0.039727401 0.039145928 5.5511151e-17 0 -0.25019264 -0.4048202
0.00065089867 0.040619597 0 0 -0.25019264 -0.4048202
0.0019527054 0.040619887 5.5511151e-17 0 -0.25019264 -0.4048202
0.003254541 0.040620469 0 0 -0.25019264 -0.4048202
0.004556424 0.04062134 0 0 -0.25019264 -0.4048202
0.0058583738 0.040622506 5.5511151e-17 0 -0.25019264 -0.4048202
0.0071604089 0.040623959 5.5511151e-17 0 -0.25019264 -0.4048202
0.0084625492 0.040625706 0 0 -0.25019264 -0.4048202
0.0097648129 0.040627744 0 0 -0.25019264 -0.4048202
0.01106722 0.040630072 0 0 -0.25019264 -0.4048202
0.012369789 0.040632691 0 0 -0.25019264 -0.4048202
0.013672539 0.040635601 0 0 -0.25019264 -0.4048202
0.01497549 0.040638804 0 0 -0.25019264 -0.4048202
0.01627866 0.040642295 5.5511151e-17 0 -0.25019264 -0.4048202
0.017582066 0.040646084 0 0 -0.25019264 -0.4048202
0.018885734 0.040650159 0 0 -0.25019264 -0.4048202
0.020189675 0.040654529 0 0 -0.25019264 -0.4048202
0.021493914 0.040659189 0 0 -0.25019264 -0.4048202
0.022798467 0.040664144 0 0 -0.25019264 -0.4048202
0.024103355 0.040669389 0 0 -0.25019264 -0.4048202
0.025408596 0.040674929 0 0 -0.25019264 -0.4048202
0.026714209 0.040680762 0 0 -0.25019264 -0.4048202
0.028020214 0.040686887 0 0 -0.25019264 -0.4048202
0.029326633 0.040693305 0 0 -0.25019264 -0.4048202
0.030633479 0.040700018 0 0 -0.25019264 -0.4048202
0.035449211 0.072659969 0.04446619 0 -0.25019264 -0.4048202
0.036704216 0.070949592 0.042074788 0 -0.25019264 -0.4048202
0.034556802 0.040721916 0 0 -0.25019264 -0.4048202
0.035865564 0.040729806 0 0 -0.25019264 -0.4048202
0.037174858 0.04073799 0 0 -0.25019264 -0.4048202
0.038484696 0.040746469 0 0 -0.25019264 -0.4048202
0.039795101 0.040755242 0 0 -0.25019264 -0.4048202
0.00065200648 0.042229377 0 0 -0.25019264 -0.4048202
0.0019560291 0.042229678 0 0 -0.25019264 -0.4048202
0.0032600802 0.042230286 0 0 -0.25019264 -0.4048202
0.0045641791 0.042231195 0 0 -0.25019264 -0.4048202
0.005868345 0.042232405 0 0 -0.25019264 -0.4048202
0.0071725971 0.042233922 5.5511151e-17 0 -0.25019264 -0.4048202
0.0084769549 0.04223574 0 0 -0.25019264 -0.4048202
0.0097814361 0.042237859 0 0 -0.25019264 -0.4048202
0.011086062 0.042240284 0 0 -0.25019264 -0.4048202
0.012390849 0.042243011 0 0 -0.25019264 -0.4048202
0.013695819 0.042246044 0 0 -0.25019264 -0.4048202
0.01500099 0.042249378 0 0 -0.25019264 -0.4048202
0.01630638 0.042253017 0 0 -0.25019264 -0.4048202
0.01761201 0.042256959 0 0 -0.25019264 -0.4048202
0.02135529 0.079941057 0.052157175 0 -0.25019264 -0.4048202
0.020224066 0.042265754 0 0 -0.25019264 -0.4048202
0.021530531 0.042270608 0 0 -0.25019264 -0.4048202
0.022837311 0.042275768 0 0 -0.25019264 -0.4048202
0.024144428 0.042281233 0 0 -0.25019264 -0.4048202
0.025451899 0.042287 0 0 -0.25019264 -0.4048202
0.026759746 0.042293072 0 0 -0.25019264 -0.4048202
0.028067984 0.042299453 0 0 -0.25019264 -0.4048202
0.029376637 0.042306136 0 0 -0.25019264 -0.4048202
0.030685721 0.042313125 5.5511151e-17 0 -0.25019264 -0.4048202
0.031995259 0.042320423 0 0 -0.25019264 -0.4048202
0.033305265 0.042328022 0 0 -0.25019264 -0.4048202
0.034615766 0.042335931 0 0 -0.25019264 -0.4048202
0.039476674 0.0712495 0.039999999 0 -0.25019264 -0.4048202
0.039999999 0.064048558 0.030022476 0 -0.25019264 -0.4048202
0.038550403 0.042361502 0 0 -0.25019264 -0.4048202
0.039999999 0.043375675 0.0013906687 0 -0.25019264 -0.4048202
0.00065311848 0.043845255 5.5511151e-17 0 -0.25019264 -0.4048202
0.0019593651 0.043845572 0 0 -0.25019264 -0.4048202
0.0032656405 0.043846201 0 0 -0.25019264 -0.4048202
0.004571964 0.043847147 0 0 -0.25019264 -0.4048202
0.0058783544 0.043848407 0 0 -0.25019264 -0.4048202
0.0071848319 0.043849982 0 0 -0.25019264 -0.4048202
0.0084914146 0.043851871 0 0 -0.25019264 -0.4048202
0.0097981216 0.04385408 0 0 -0.25019264 -0.4048202
0.011104974 0.043856598 0 0 -0.25019264 -0.4048202
0.012411989 0.043859437 5.5511151e-17 0 -0.25019264 -0.4048202
0.01537866 0.079431511 0.048967052 0 -0.25019264 -0.4048202
0.015026586 0.043866057 0 0 -0.25019264 -0.4048202
0.016334208 0.043869842 0 0 -0.25019264 -0.4048202
0.019808825 0.079990506 0.049719065 0 -0.25019264 -0.4048202
0.01895019 0.043878358 5.5511151e-17 0 -0.25019264 -0.4048202
0.022732269 0.079791255 0.049430642 0 -0.25019264 -0.4048202
0.021567289 0.04388814 0 0 -0.25019264 -0.4048202
0.022876304 0.043893505 0 0 -0.25019264 -0.4048202
0.024185658 0.043899186 5.5511151e-17 0 -0.25019264 -0.4048202
0.028458929 0.078090876 0.047055971 0 -0.25019264 -0.4048202
0.029855587 0.077376954 0.046063583 0 -0.25019264 -0.4048202
0.028115934 0.043918137 0 0 -0.25019264 -0.4048202
0.032587633 0.075516924 0.043482635 0 -0.25019264 -0.4048202
0.033914648 0.074327298 0.041834202 0 -0.25019264 -0.4048202
0.035216779 0.073002979 0.039999999 0 -0.25019264 -0.4048202
0.033362202 0.043947853 0 0 -0.25019264 -0.4048202
0.034674954 0.043956079 0 0 -0.25019264 -0.4048202
0.039544184 0.073030092 0.039999999 0 -0.25019264 -0.4048202
0.03730201 0.043973487 0 0 -0.25019264 -0.4048202
0.038616356 0.04398267 0 0 -0.25019264 -0.4048202
0.039931275 0.043992173 0 0 -0.25019264 -0.4048202
0.00065423473 0.045467291 0 0 -0.25019264 -0.4048202
0.0019627139 0.045467619 5.5511151e-17 0 -0.25019264 -0.4048202
0.0032712219 0.045468275 5.5511151e-17 0 -0.25019264 -0.4048202
0.0045797783 0.045469254 0 0 -0.25019264 -0.4048202
0.0064703738 0.074692011 0.040009826 0 -0.25019264 -0.4048202
0.0071971128 0.045472201 0 0 -0.25019264 -0.4048202
0.0085059293 0.045474164 0 0 -0.25019264 -0.4048202
0.0098148715 0.045476459 5.5511151e-17 0 -0.25019264 -0.4048202
0.011123958 0.045479078 0 0 -0.25019264 -0.4048202
0.013842615 0.078999154 0.045889664 0 -0.25019264 -0.4048202
0.013742643 0.045485299 0 0 -0.25019264 -0.4048202
0.015052281 0.045488901 0 0 -0.25019264 -0.4048202
0.01636214 0.045492832 0 0 -0.25019264 -0.4048202
0.019733917 0.079992801 0.04722707 0 -0.25019264 -0.4048202
0.018982602 0.045501679 0 0 -0.25019264 -0.4048202
0.020293243 0.045506593 5.5511151e-17 0 -0.25019264 -0.4048202
0.021604186 0.045511838 0 0 -0.25019264 -0.4048202
0.022915445 0.045517411 0 0 -0.25019264 -0.4048202
0.024227045 0.045523316 0 0 -0.25019264 -0.4048202
0.025539001 0.045529548 0 0 -0.25019264 -0.4048202
0.026851336 0.045536108 0 0 -0.25019264 -0.4048202
0.028164068 0.045543 0 0 -0.25019264 -0.4048202
0.032472756 0.075604253 0.041138712 0 -0.25019264 -0.4048202
0.0307908 0.045557771 0 0 -0.25019264 -0.4048202
0.032104839 0.045565654 0 0 -0.25019264 -0.4048202
0.036721498 0.074798346 0.039999999 0 -0.25019264 -0.4048202
0.034734365 0.045582414 5.5511151e-17 0 -0.25019264 -0.4048202
0.036049891 0.045591287 0 0 -0.25019264 -0.4048202
0.037365951 0.045600496 0 0 -0.25019264 -0.4048202
0.039999999 0.055684369 0.013787212 0 -0.25019264 -0.4048202
0.03999975 0.045619909 0 0 -0.25019264 -0.4048202
0.00065535528 0.047095545 5.5511151e-17 0 -0.25019264 -0.4048202
0.0021603422 0.076470755 0.039999999 0 -0.25019264 -0.4048202
0.0032768247 0.047096562 0 0 -0.25019264 -0.4048202
0.0045876224 0.047097582 0 0 -0.25019264 -0.4048202
0.0058984882 0.047098938 0 0 -0.25019264 -0.4048202
0.0072094407 0.047100637 0 0 -0.25019264 -0.4048202
0.0085204998 0.047102675 0 0 -0.25019264 -0.4048202
0.0098316856 0.047105052 0 0 -0.25019264 -0.4048202
0.011143016 0.047107771 0 0 -0.25019264 -0.4048202
0.012454512 0.04711083 0 0 -0.25019264 -0.4048202
0.013766191 0.047114227 0 0 -0.25019264 -0.4048202
0.016731957 0.079729363 0.044403907 0 -0.25019264 -0.4048202
0.018196719 0.079892322 0.044619631 0 -0.25019264 -0.4048202
0.017702529 0.047126461 0 0 -0.25019264 -0.4048202
0.019015139 0.047131222 0 0 -0.25019264 -0.4048202
0.022561878 0.079809792 0.044485684 0 -0.25019264 -0.4048202
0.021641225 0.047141764 5.5511151e-17 0 -0.25019264 -0.4048202
0.022954738 0.047147546 0 0 -0.25019264 -0.4048202
0.02426859 0.04715367 5.5511151e-17 0 -0.25019264 -0.4048202
0.025582803 0.047160137 0 0 -0.25019264 -0.4048202
0.026897395 0.047166947 0 0 -0.25019264 -0.4048202
0.03101185 0.076681264 0.040169582 0 -0.25019264 -0.4048202
0.029527795 0.047181588 5.5511151e-17 0 -0.25019264 -0.4048202
0.030843642 0.047189426 0 0 -0.25019264 -0.4048202
0.035337649 0.076582521 0.039999999 0 -0.25019264 -0.4048202
0.033476729 0.047206126 0 0 -0.25019264 -0.4048202
0.034794006 0.047214992 0 0 -0.25019264 -0.4048202
0.036111802 0.047224201 0 0 -0.25019264 -0.4048202
0.037430137 0.047233753 5.5511151e-17 0 -0.25019264 -0.4048202
0.038749024 0.047243651 0 0 -0.25019264 -0.4048202
0.00072134647 0.078266412 0.039999999 0 -0.25019264 -0.4048202
0.0019694502 0.048730418 5.5511151e-17 0 -0.25019264 -0.4048202
0.0032824492 0.048731122 0 0 -0.25019264 -0.4048202
0.0045954972 0.04873218 0 0 -0.25019264 -0.4048202
0.0059086131 0.048733588 0 0 -0.25019264 -0.4048202
0.0072218166 0.048735347 0 0 -0.25019264 -0.4048202
0.0085351272 0.048737459 0 0 -0.25019264 -0.4048202
0.0098485639 0.048739925 5.5511151e-17 0 -0.25019264 -0.4048202
0.011162147 0.048742741 0 0 -0.25019264 -0.4048202
0.012475895 0.048745912 0 0 -0.25019264 -0.4048202
0.013789828 0.048749432 0 0 -0.25019264 -0.4048202
0.015103966 0.048753306 0 0 -0.25019264 -0.4048202
0.016418329 0.048757534 5.5511151e-17 0 -0.25019264 -0.4048202
0.017732933 0.048762113 0 0 -0.25019264 -0.4048202
0.0190478 0.048767049 0 0 -0.25019264 -0.4048202
0.020362953 0.048772335 5.5511151e-17 0 -0.25019264 -0.4048202
0.021678405 0.048777975 0 0 -0.25019264 -0.4048202
0.022994179 0.048783969 5.5511151e-17 0 -0.25019264 -0.4048202
0.024310296 0.048790317 0 0 -0.25019264 -0.4048202
0.025626773 0.048797019 0 0 -0.25019264 -0.4048202
0.026943631 0.048804075 0 0 -0.25019264 -0.4048202
0.02826089 0.048811488 0 0 -0.25019264 -0.4048202
0.029578568 0.048819251 0 0 -0.25019264 -0.4048202
0.030896688 0.048827376 0 0 -0.25019264 -0.4048202
0.032215264 0.048835851 5.5511151e-17 0 -0.25019264 -0.4048202
0.033534322 0.048844684 0 0 -0.25019264 -0.4048202
0.034853879 0.048853874 5.5511151e-17 0 -0.25019264 -0.4048202
0.036173955 0.048863418 0 0 -0.25019264 -0.4048202
0.03749457 0.04887332 0 0 -0.25019264 -0.4048202
0.038815744 0.04888358 0 0 -0.25019264 -0.4048202
0.00065760931 0.050370924 0 0 -0.25019264 -0.4048202
0.0019728378 0.050371289 0 0 -0.25019264 -0.4048202
0.0032880956 0.050372016 0 0 -0.25019264 -0.4048202
0.0046034022 0.050373111 5.5511151e-17 0 -0.25019264 -0.4048202
0.0059187771 0.050374568 0 0 -0.25019264 -0.4048202
0.00723424 0.050376389 0 0 -0.25019264 -0.4048202
0.0085498104 0.050378576 0 0 -0.25019264 -0.4048202
0.0098655075 0.050381131 0 0 -0.25019264 -0.4048202
0.011181352 0.050384045 0 0 -0.25019264 -0.4048202
0.012497362 0.050387327 0 0 -0.25019264 -0.4048202
0.013813557 0.050390974 0 0 -0.25019264 -0.4048202
0.016620114 0.079999998 0.039870925 0 -0.25019264 -0.4048202
0.016446585 0.050399363 0 0 -0.25019264 -0.4048202
0.017763454 0.050404105 0 0 -0.25019264 -0.4048202
0.01908059 0.050409216 0 0 -0.25019264 -0.4048202
0.02039801 0.050414689 5.5511151e-17 0 -0.25019264 -0.4048202
0.02171573 0.05042053 0 0 -0.25019264 -0.4048202
0.023033775 0.050426736 0 0 -0.25019264 -0.4048202
0.024352165 0.050433308 5.5511151e-17 0 -0.25019264 -0.4048202
0.025670916 0.050440248 0 0 -0.25019264 -0.4048202
0.026990049 0.050447557 0 0 -0.25019264 -0.4048202
0.028309584 0.050455231 0 0 -0.25019264 -0.4048202
0.02962954 0.05046327 0 0 -0.25019264 -0.4048202
0.030949939 0.050471682 0 0 -0.25019264 -0.4048202
0.0322708 0.050480459 0 0 -0.25019264 -0.4048202
0.033592142 0.050489604 0 0 -0.25019264 -0.4048202
0.034913983 0.050499119 0 0 -0.25019264 -0.4048202
0.036236349 0.050509002 0 0 -0.25019264 -0.4048202
0.039999999 0.070060678 0.026306784 0 -0.25019264 -0.4048202
0.038882721 0.050529879 0 0 -0.25019264 -0.4048202
0.00065874291 0.052018169 0 0 -0.25019264 -0.4048202
0.0019762386 0.052018549 0 0 -0.25019264 -0.4048202
0.0032937638 0.052019302 0 0 -0.25019264 -0.4048202
0.004611338 0.052020434 5.5511151e-17 0 -0.25019264 -0.4048202
0.0064778668 0.079999998 0.037476957 0 -0.25019264 -0.4048202
0.0072467118 0.052023828 5.5511151e-17 0 -0.25019264 -0.4048202
0.0085645504 0.052026089 0 0 -0.25019264 -0.4048202
0.0098825172 0.052028731 0 0 -0.25019264 -0.4048202
0.011200631 0.052031748 0 0 -0.25019264 -0.4048202
0.012518912 0.052035142 0 0 -0.25019264 -0.4048202
0.01511755 0.079999998 0.03745212 0 -0.25019264 -0.4048202
0.016557993 0.079999998 0.037446044 0 -0.25019264 -0.4048202
0.016474951 0.052047592 0 0 -0.25019264 -0.4048202
0.019439451 0.079999998 0.037432242 0 -0.25019264 -0.4048202
0.019113507 0.052057784 0 0 -0.25019264 -0.4048202
0.020433202 0.052063446 0 0 -0.25019264 -0.4048202
0.021753201 0.052069489 0 0 -0.25019264 -0.4048202
0.025205098 0.079999998 0.037397988 0 -0.25019264 -0.4048202
0.024394196 0.052082706 0 0 -0.25019264 -0.4048202
0.025715228 0.052089889 0 0 -0.25019264 -0.4048202
0.027036645 0.052097447 0 0 -0.25019264 -0.4048202
0.028358465 0.052105386 0 0 -0.25019264 -0.4048202
0.02968071 0.052113704 5.5511151e-17 0 -0.25019264 -0.4048202
0.031003399 0.052122403 0 0 -0.25019264 -0.4048202
0.032326549 0.052131481 0 0 -0.25019264 -0.4048202
0.033650186 0.052140944 5.5511151e-17 0 -0.25019264 -0.4048202
0.034974322 0.052150786 0 0 -0.25019264 -0.4048202
0.036298987 0.052161012 5.5511151e-17 0 -0.25019264 -0.4048202
0.039999999 0.071264647 0.025562691 0 -0.25019264 -0.4048202
0.038949959 0.052182607 0 0 -0.25019264 -0.4048202
0.00065988099 0.05367187 0 0 -0.25019264 -0.4048202
0.0021511756 0.079999998 0.0350748 0 -0.25019264 -0.4048202
0.0032994542 0.05367304 0 0 -0.25019264 -0.4048202
0.0046193046 0.053674206 0 0 -0.25019264 -0.4048202
0.0059392243 0.053675767 0 0 -0.25019264 -0.4048202
0.0078880517 0.079999998 0.035066903 0 -0.25019264 -0.4048202
0.0093224496 0.079999998 0.035063516 0 -0.25019264 -0.4048202
0.0098995939 0.053682782 0 0 -0.25019264 -0.4048202
0.011219987 0.0536859 0 0 -0.25019264 -0.4048202
0.012540546 0.053689409 0 0 -0.25019264 -0.4048202
0.015061233 0.079999998 0.035044331 0 -0.25019264 -0.4048202
0.015182248 0.053697597 0 0 -0.25019264 -0.4048202
0.016503431 0.05370228 0 0 -0.25019264 -0.4048202
0.017824858 0.05370735 0 0 -0.25019264 -0.4048202
0.02080269 0.079999998 0.035016101 0 -0.25019264 -0.4048202
0.02223859 0.079999998 0.035007633 0 -0.25019264 -0.4048202
0.021790819 0.053724911 5.5511151e-17 0 -0.25019264 -0.4048202
0.023113433 0.053731546 0 0 -0.25019264 -0.4048202
0.026547838 0.079999998 0.034978822 0 -0.25019264 -0.4048202
0.02798482 0.079999998 0.034968086 0 -0.25019264 -0.4048202
0.027083425 0.053753804 0 0 -0.25019264 -0.4048202
0.02840754 0.053762011 0 0 -0.25019264 -0.4048202
0.02973208 0.053770609 0 0 -0.25019264 -0.4048202
0.031057067 0.053779602 0 0 -0.25019264 -0.4048202
0.035174724 0.079999998 0.034905884 0 -0.25019264 -0.4048202
0.033708457 0.053798765 0 0 -0.25019264 -0.4048202
0.035034899 0.053808939 0 0 -0.25019264 -0.4048202
0.036361866 0.053819507 0 0 -0.25019264 -0.4048202
0.03768938 0.053830471 0 0 -0.25019264 -0.4048202
0.039017461 0.053841829 0 0 -0.25019264 -0.4048202
0.00066102349 0.05533208 0 0 -0.25019264 -0.4048202
0.0019830805 0.055332482 0 0 -0.25019264 -0.4048202
0.003305167 0.055333287 0 0 -0.25019264 -0.4048202
0.0046273032 0.055334494 0 0 -0.25019264 -0.4048202
0.006429784 0.079999998 0.032679226 0 -0.25019264 -0.4048202
0.0072718025 0.055338118 0 0 -0.25019264 -0.4048202
0.0085942056 0.055340532 0 0 -0.25019264 -0.4048202
0.0099167377 0.055343349 5.5511151e-17 0 -0.25019264 -0.4048202
0.011239418 0.055346571 0 0 -0.25019264 -0.4048202
0.012562267 0.055350196 0 0 -0.25019264 -0.4048202
0.013885303 0.055354223 0 0 -0.25019264 -0.4048202
0.015208548 0.055358652 0 0 -0.25019264 -0.4048202
0.016532021 0.055363484 0 0 -0.25019264 -0.4048202
0.017855741 0.055368721 5.5511151e-17 0 -0.25019264 -0.4048202
0.019179728 0.055374362 5.5511151e-17 0 -0.25019264 -0.4048202
0.020504003 0.055380408 0 0 -0.25019264 -0.4048202
0.021828586 0.055386856 5.5511151e-17 0 -0.25019264 -0.4048202
0.025017852 0.079999998 0.032596756 0 -0.25019264 -0.4048202
0.026449192 0.079999998 0.032586366 0 -0.25019264 -0.4048202
0.025804378 0.055408631 0 0 -0.25019264 -0.4048202
0.02713039 0.055416699 0 0 -0.25019264 -0.4048202
0.030745029 0.079999998 0.032551724 0 -0.25019264 -0.4048202
0.032177631 0.079999998 0.032539017 0 -0.25019264 -0.4048202
0.03361059 0.079999998 0.032525729 0 -0.25019264 -0.4048202
0.03243871 0.055453029 0 0 -0.25019264 -0.4048202
0.033766959 0.055463128 0 0 -0.25019264 -0.4048202
0.035095714 0.055473637 0 0 -0.25019264 -0.4048202
0.036424998 0.055484548 5.5511151e-17 0 -0.25019264 -0.4048202
0.03775483 0.055495873 5.5511151e-17 0 -0.25019264 -0.4048202
0.039085232 0.055507604 5.5511151e-17 0 -0.25019264 -0.4048202
0.00066217058 0.056998864 5.5511151e-17 0 -0.25019264 -0.4048202
0.0019865215 0.056999281 0 0 -0.25019264 -0.4048202
0.0033109025 0.057000112 0 0 -0.25019264 -0.4048202
0.0046353331 0.057001356 0 0 -0.25019264 -0.4048202
0.0064059924 0.079999998 0.030305253 0 -0.25019264 -0.4048202
0.0072844224 0.057005096 0 0 -0.25019264 -0.4048202
0.0092534712 0.079999998 0.030298783 0 -0.25019264 -0.4048202
0.010677355 0.079999998 0.030294664 0 -0.25019264 -0.4048202
0.012101356 0.079999998 0.030289957 0 -0.25019264 -0.4048202
0.013525489 0.079999998 0.03028466 0 -0.25019264 -0.4048202
0.013909408 0.057021711 5.5511151e-17 0 -0.25019264 -0.4048202
0.016374215 0.079999998 0.030272301 0 -0.25019264 -0.4048202
0.016560724 0.05703127 0 0 -0.25019264 -0.4048202
0.017886745 0.057036676 0 0 -0.25019264 -0.4048202
0.019213036 0.057042494 5.5511151e-17 0 -0.25019264 -0.4048202
0.020539615 0.057048734 0 0 -0.25019264 -0.4048202
0.021866502 0.057055388 0 0 -0.25019264 -0.4048202
0.0249252 0.079999998 0.030221073 0 -0.25019264 -0.4048202
0.024521284 0.05706995 5.5511151e-17 0 -0.25019264 -0.4048202
0.027777549 0.079999998 0.030199274 0 -0.25019264 -0.4048202
0.027177539 0.057086185 0 0 -0.25019264 -0.4048202
0.030631116 0.079999998 0.030175108 0 -0.25019264 -0.4048202
0.029835433 0.057104092 0 0 -0.25019264 -0.4048202
0.033486027 0.079999998 0.030148573 0 -0.25019264 -0.4048202
0.034914028 0.079999998 0.030134417 0 -0.25019264 -0.4048202
0.033825692 0.057134096 5.5511151e-17 0 -0.25019264 -0.4048202
0.035156772 0.057144936 0 0 -0.25019264 -0.4048202
0.03648838 0.057156201 0 0 -0.25019264 -0.4048202
0.03782054 0.057167884 0 0 -0.25019264 -0.4048202
0.03915327 0.057179987 0 0 -0.25019264 -0.4048202
0.00066332216 0.058672287 0 0 -0.25019264 -0.4048202
0.0019899765 0.058672715 0 0 -0.25019264 -0.4048202
0.0033166606 0.058673572 0 0 -0.25019264 -0.4048202
0.0049639889 0.079999998 0.027950007 0 -0.25019264 -0.4048202
0.0063823638 0.079999998 0.027947608 0 -0.25019264 -0.4048202
0.0078008086 0.079999998 0.027944608 0 -0.25019264 -0.4048202
0.0099512292 0.058684278 0 0 -0.25019264 -0.4048202
0.011278513 0.058687706 5.5511151e-17 0 -0.25019264 -0.4048202
0.012605965 0.058691561 0 0 -0.25019264 -0.4048202
0.013933608 0.058695845 0 0 -0.25019264 -0.4048202
0.01526146 0.058700558 0 0 -0.25019264 -0.4048202
0.016589543 0.058705702 5.5511151e-17 0 -0.25019264 -0.4048202
0.017917873 0.058711275 0 0 -0.25019264 -0.4048202
0.019246476 0.058717277 5.5511151e-17 0 -0.25019264 -0.4048202
0.020575367 0.058723707 0 0 -0.25019264 -0.4048202
0.021904569 0.058730569 0 0 -0.25019264 -0.4048202
0.023234101 0.058737863 0 0 -0.25019264 -0.4048202
0.024563983 0.058745585 5.5511151e-17 0 -0.25019264 -0.4048202
0.025894236 0.05875374 0 0 -0.25019264 -0.4048202
0.027224878 0.058762323 5.5511151e-17 0 -0.25019264 -0.4048202
0.028555932 0.058771342 0 0 -0.25019264 -0.4048202
0.029887417 0.058780789 0 0 -0.25019264 -0.4048202
0.031219352 0.058790669 5.5511151e-17 0 -0.25019264 -0.4048202
0.032551758 0.058800984 0 0 -0.25019264 -0.4048202
0.033884659 0.058811728 0 0 -0.25019264 -0.4048202
0.035218071 0.058822908 5.5511151e-17 0 -0.25019264 -0.4048202
0.036552016 0.058834523 0 0 -0.25019264 -0.4048202
0.039999999 0.076086238 0.022582784 0 -0.25019264 -0.4048202
0.039221581 0.058859054 0 0 -0.25019264 -0.4048202
0.0006644784 0.060352404 0 0 -0.25019264 -0.4048202
0.0021195638 0.079999998 0.025611592 0 -0.25019264 -0.4048202
0.0033224421 0.06035373 0 0 -0.25019264 -0.4048202
0.0046514892 0.060355052 0 0 -0.25019264 -0.4048202
0.0059806062 0.060356818 0 0 -0.25019264 -0.4048202
0.0077721258 0.079999998 0.02560303 0 -0.25019264 -0.4048202
0.0086391307 0.060361672 0 0 -0.25019264 -0.4048202
0.0099685788 0.06036476 5.5511151e-17 0 -0.25019264 -0.4048202
0.011298177 0.060368292 0 0 -0.25019264 -0.4048202
0.012627946 0.060372267 0 0 -0.25019264 -0.4048202
0.013957905 0.060376681 5.5511151e-17 0 -0.25019264 -0.4048202
0.016253797 0.079999998 0.025571829 0 -0.25019264 -0.4048202
0.016618475 0.060386837 0 0 -0.25019264 -0.4048202
0.017949127 0.060392577 0 0 -0.25019264 -0.4048202
0.01928005 0.060398765 0 0 -0.25019264 -0.4048202
0.020611264 0.060405392 0 0 -0.25019264 -0.4048202
0.021942789 0.060412463 0 0 -0.25019264 -0.4048202
0.023274645 0.060419977 0 0 -0.25019264 -0.4048202
0.024606854 0.060427934 0 0 -0.25019264 -0.4048202
0.02757312 0.079999998 0.025495902 0 -0.25019264 -0.4048202
0.028989218 0.079999998 0.025483647 0 -0.25019264 -0.4048202
0.028605791 0.060454473 0 0 -0.25019264 -0.4048202
0.029939609 0.060464211 5.5511151e-17 0 -0.25019264 -0.4048202
0.031273879 0.060474392 0 0 -0.25019264 -0.4048202
0.032608625 0.06048502 0 0 -0.25019264 -0.4048202
0.033943862 0.060496092 0 0 -0.25019264 -0.4048202
0.037492953 0.079999998 0.025397185 0 -0.25019264 -0.4048202
0.036615904 0.06051958 5.5511151e-17 0 -0.25019264 -0.4048202
0.037952747 0.060531992 0 0 -0.25019264 -0.4048202
0.039290164 0.060544856 0 0 -0.25019264 -0.4048202
0.00066563929 0.062039286 0 0 -0.25019264 -0.4048202
0.0019969279 0.06203974 5.5511151e-17 0 -0.25019264 -0.4048202
0.0033282468 0.062040649 5.5511151e-17 0 -0.25019264 -0.4048202
0.0046596159 0.062042013 5.5511151e-17 0 -0.25019264 -0.4048202
0.0059910552 0.062043831 5.5511151e-17 0 -0.25019264 -0.4048202
0.0073225857 0.062046103 0 0 -0.25019264 -0.4048202
0.0091517689 0.079999998 0.023273643 0 -0.25019264 -0.4048202
0.0099859983 0.062052011 5.5511151e-17 0 -0.25019264 -0.4048202
0.011317921 0.062055647 5.5511151e-17 0 -0.25019264 -0.4048202
0.012650015 0.062059738 0 0 -0.25019264 -0.4048202
0.0139823 0.062064283 0 0 -0.25019264 -0.4048202
0.015314797 0.062069286 0 0 -0.25019264 -0.4048202
0.017603153 0.079999998 0.023238117 0 -0.25019264 -0.4048202
0.017980507 0.062080655 0 0 -0.25019264 -0.4048202
0.019313758 0.062087025 0 0 -0.25019264 -0.4048202
0.020647304 0.06209385 0 0 -0.25019264 -0.4048202
0.021981161 0.062101129 5.5511151e-17 0 -0.25019264 -0.4048202
0.023315353 0.062108867 0 0 -0.25019264 -0.4048202
0.024649898 0.062117063 0 0 -0.25019264 -0.4048202
0.025984814 0.062125713 5.5511151e-17 0 -0.25019264 -0.4048202
0.027320126 0.062134825 5.5511151e-17 0 -0.25019264 -0.4048202
0.030294042 0.079999998 0.023142662 0 -0.25019264 -0.4048202
0.029992012 0.062154416 5.5511151e-17 0 -0.25019264 -0.4048202
0.03132863 0.062164903 0 0 -0.25019264 -0.4048202
0.032665718 0.062175844 5.5511151e-17 0 -0.25019264 -0.4048202
0.034003306 0.062187247 0 0 -0.25019264 -0.4048202
0.035341412 0.062199112 5.5511151e-17 0 -0.25019264 -0.4048202
0.03668005 0.062211432 0 0 -0.25019264 -0.4048202
0.039999999 0.078500696 0.021090565 0 -0.25019264 -0.4048202
0.039359026 0.062237464 0 0 -0.25019264 -0.4048202
0.00066680484 0.063732989 5.5511151e-17 0 -0.25019264 -0.4048202
0.0020004248 0.063733459 0 0 -0.25019264 -0.4048202
0.0033340747 0.063734397 0 0 -0.25019264 -0.4048202
0.0046677752 0.063735798 5.5511151e-17 0 -0.25019264 -0.4048202
0.006001547 0.063737668 0 0 -0.25019264 -0.4048202
0.0073354091 0.063740008 0 0 -0.25019264 -0.4048202
0.0086693829 0.063742816 0 0 -0.25019264 -0.4048202
0.010003488 0.063746087 0 0 -0.25019264 -0.4048202
0.011337744 0.063749827 0 0 -0.25019264 -0.4048202
0.012672173 0.063754037 0 0 -0.25019264 -0.4048202
0.014006793 0.063758716 0 0 -0.25019264 -0.4048202
0.015341627 0.063763864 0 0 -0.25019264 -0.4048202
0.016676692 0.063769482 0 0 -0.25019264 -0.4048202
0.01894279 0.079999998 0.020919247 0 -0.25019264 -0.4048202
0.019347604 0.063782118 5.5511151e-17 0 -0.25019264 -0.4048202
0.02068349 0.063789144 0 0 -0.25019264 -0.4048202
0.02201969 0.063796639 0 0 -0.25019264 -0.4048202
0.024560897 0.079999998 0.02087988 0 -0.25019264 -0.4048202
0.024693115 0.063813031 0 0 -0.25019264 -0.4048202
0.026030378 0.063821934 0 0 -0.25019264 -0.4048202
0.027368039 0.063831314 0 0 -0.25019264 -0.4048202
0.028706115 0.063841157 0 0 -0.25019264 -0.4048202
0.030044628 0.063851476 0 0 -0.25019264 -0.4048202
0.032996245 0.079999998 0.020801716 0 -0.25019264 -0.4048202
0.032723047 0.063873529 0 0 -0.25019264 -0.4048202
0.034062989 0.063885264 0 0 -0.25019264 -0.4048202
0.035403457 0.063897468 0 0 -0.25019264 -0.4048202
0.038626686 0.079999998 0.020736828 0 -0.25019264 -0.4048202
0.038086023 0.063923307 0 0 -0.25019264 -0.4048202
0.039428167 0.063936934 0 0 -0.25019264 -0.4048202
0.00066797517 0.065433592 0 0 -0.25019264 -0.4048202
0.0020039356 0.065434068 5.5511151e-17 0 -0.25019264 -0.4048202
0.0033399267 0.065435037 0 0 -0.25019264 -0.4048202
0.0046759681 0.065436475 0 0 -0.25019264 -0.4048202
0.0060120812 0.065438397 5.5511151e-17 0 -0.25019264 -0.4048202
0.0073482851 0.065440804 0 0 -0.25019264 -0.4048202
0.0086846007 0.065443695 0 0 -0.25019264 -0.4048202
0.010021049 0.065447055 0 0 -0.25019264 -0.4048202
0.011357649 0.065450907 0 0 -0.25019264 -0.4048202
0.012694421 0.065455236 0 0 -0.25019264 -0.4048202
0.014031387 0.065460049 5.5511151e-17 0 -0.25019264 -0.4048202
0.015368567 0.065465346 0 0 -0.25019264 -0.4048202
0.016705979 0.06547112 0 0 -0.25019264 -0.4048202
0.018043647 0.065477379 0 0 -0.25019264 -0.4048202
0.019381588 0.065484121 0 0 -0.25019264 -0.4048202
0.020719824 0.065491341 0 0 -0.25019264 -0.4048202
0.022058377 0.065499045 0 0 -0.25019264 -0.4048202
0.023397265 0.065507241 0 0 -0.25019264 -0.4048202
0.024736509 0.065515913 0 0 -0.25019264 -0.4048202
0.026076129 0.06552507 5.5511151e-17 0 -0.25019264 -0.4048202
0.027416147 0.065534711 0 0 -0.25019264 -0.4048202
0.028756583 0.065544836 0 0 -0.25019264 -0.4048202
0.030097459 0.065555446 5.5511151e-17 0 -0.25019264 -0.4048202
0.03143879 0.065566547 0 0 -0.25019264 -0.4048202
0.032780606 0.065578125 0 0 -0.25019264 -0.4048202
0.034122918 0.065590195 0 0 -0.25019264 -0.4048202
0.035465755 0.06560275 0 0 -0.25019264 -0.4048202
0.036809128 0.065615796 0 0 -0.25019264 -0.4048202
0.038153067 0.065629326 5.5511151e-17 0 -0.25019264 -0.4048202
0.039497588 0.065643348 5.5511151e-17 0 -0.25019264 -0.4048202
0.00066915026 0.067141145 0 0 -0.25019264 -0.4048202
0.0020074609 0.067141637 0 0 -0.25019264 -0.4048202
0.0033458024 0.067142628 5.5511151e-17 0 -0.25019264 -0.4048202
0.0046841945 0.067144111 0 0 -0.25019264 -0.4048202
0.0060226582 0.067146093 5.5511151e-17 0 -0.25019264 -0.4048202
0.0073612137 0.067148559 5.5511151e-17 0 -0.25019264 -0.4048202
0.0086998809 0.067151524 0 0 -0.25019264 -0.4048202
0.010038681 0.067154989 5.5511151e-17 0 -0.25019264 -0.4048202
0.011377634 0.067158945 0 0 -0.25019264 -0.4048202
0.012716761 0.067163393 5.5511151e-17 0 -0.25019264 -0.4048202
0.014056082 0.06716834 5.5511151e-17 0 -0.25019264 -0.4048202
0.015395616 0.067173786 0 0 -0.25019264 -0.4048202
0.016735386 0.067179717 0 0 -0.25019264 -0.4048202
0.018805187 0.079999998 0.016344203 0 -0.25019264 -0.4048202
0.01941571 0.067193083 0 0 -0.25019264 -0.4048202
0.020756308 0.067200504 5.5511151e-17 0 -0.25019264 -0.4048202
0.022097221 0.067208432 0 0 -0.25019264 -0.4048202
0.02343847 0.067216851 5.5511151e-17 0 -0.25019264 -0.4048202
0.026122067 0.067235179 0 0 -0.25019264 -0.4048202
0.027464453 0.067245089 0 0 -0.25019264 -0.4048202
0.028807258 0.067255497 0 0 -0.25019264 -0.4048202
0.030150505 0.067266405 5.5511151e-17 0 -0.25019264 -0.4048202
0.031494211 0.067277811 0 0 -0.25019264 -0.4048202
0.0328384 0.067289717 0 0 -0.25019264 -0.4048202
0.034183092 0.067302123 0 0 -0.25019264 -0.4048202
0.035528306 0.067315027 5.5511151e-17 0 -0.25019264 -0.4048202
0.038345627 0.079999998 0.016155478 0 -0.25019264 -0.4048202
0.038220387 0.067342341 0 0 -0.25019264 -0.4048202
0.039567295 0.067356758 0 0 -0.25019264 -0.4048202
0.00067033019 0.068855725 0 0 -0.25019264 -0.4048202
0.0020110009 0.068856232 0 0 -0.25019264 -0.4048202
0.0033517024 0.068857245 0 0 -0.25019264 -0.4048202
0.0048563145 0.079999998 0.014136261 0 -0.25019264 -0.4048202
0.006033279 0.068860799 0 0 -0.25019264 -0.4048202
0.0073741954 0.06886334 0 0 -0.25019264 -0.4048202
0.010056387 0.068869948 0 0 -0.25019264 -0.4048202
0.011397703 0.068874009 0 0 -0.25019264 -0.4048202
0.012739193 0.068878584 0 0 -0.25019264 -0.4048202
0.014080877 0.068883665 0 0 -0.25019264 -0.4048202
0.015959814 0.079999998 0.014096237 0 -0.25019264 -0.4048202
0.017348351 0.079999998 0.014088228 0 -0.25019264 -0.4048202
0.018107304 0.068901964 5.5511151e-17 0 -0.25019264 -0.4048202
0.019449973 0.068909079 0 0 -0.25019264 -0.4048202
0.020792941 0.068916708 0 0 -0.25019264 -0.4048202
0.022136224 0.068924844 0 0 -0.25019264 -0.4048202
0.024294071 0.079999998 0.01403816 0 -0.25019264 -0.4048202
0.024823831 0.068942651 0 0 -0.25019264 -0.4048202
0.026168194 0.068952322 5.5511151e-17 0 -0.25019264 -0.4048202
0.027512956 0.068962507 5.5511151e-17 0 -0.25019264 -0.4048202
0.028858142 0.068973199 0 0 -0.25019264 -0.4048202
0.030203769 0.068984404 0 0 -0.25019264 -0.4048202
0.03154986 0.068996124 0 0 -0.25019264 -0.4048202
0.032896433 0.069008358 0 0 -0.25019264 -0.4048202
0.034243513 0.069021106 0 0 -0.25019264 -0.4048202
0.035591118 0.06903436 5.5511151e-17 0 -0.25019264 -0.4048202
0.036939267 0.069048136 5.5511151e-17 0 -0.25019264 -0.4048202
0.038287986 0.069062427 0 0 -0.25019264 -0.4048202
0.039637294 0.069077231 0 0 -0.25019264 -0.4048202
0.00067151501 0.07057739 0 0 -0.25019264 -0.4048202
0.0020145555 0.070577912 0 0 -0.25019264 -0.4048202
0.0033576265 0.070578955 0 0 -0.25019264 -0.4048202
0.0047007492 0.07058052 5.5511151e-17 0 -0.25019264 -0.4048202
0.0060439436 0.070582606 0 0 -0.25019264 -0.4048202
0.0073872311 0.070585214 0 0 -0.25019264 -0.4048202
0.0087306313 0.070588343 0 0 -0.25019264 -0.4048202
0.010074166 0.070591994 5.5511151e-17 0 -0.25019264 -0.4048202
0.011417854 0.070596166 0 0 -0.25019264 -0.4048202
0.012761717 0.07060086 5.5511151e-17 0 -0.25019264 -0.4048202
0.014105775 0.070606083 0 0 -0.25019264 -0.4048202
0.01545005 0.07061182 0 0 -0.25019264 -0.4048202
0.016794562 0.070618086 0 0 -0.25019264 -0.4048202
0.018139331 0.070624873 0 0 -0.25019264 -0.4048202
0.020053307 0.079999998 0.011820415 0 -0.25019264 -0.4048202
0.021437412 0.079999998 0.011810243 0 -0.25019264 -0.4048202
0.02217539 0.070648365 0 0 -0.25019264 -0.4048202
0.024206311 0.079999998 0.011787861 0 -0.25019264 -0.4048202
0.024867762 0.070666656 5.5511151e-17 0 -0.25019264 -0.4048202
0.02621451 0.070676588 0 0 -0.25019264 -0.4048202
0.027561663 0.070687041 5.5511151e-17 0 -0.25019264 -0.4048202
0.028909236 0.070698023 0 0 -0.25019264 -0.4048202
0.030257255 0.070709527 0 0 -0.25019264 -0.4048202
0.031605739 0.070721559 0 0 -0.25019264 -0.4048202
0.032954708 0.070734121 0 0 -0.25019264 -0.4048202
0.034304183 0.070747204 0 0 -0.25019264 -0.4048202
0.035654187 0.070760824 0 0 -0.25019264 -0.4048202
0.037004743 0.070774965 0 0 -0.25019264 -0.4048202
0.038355865 0.070789635 0 0 -0.25019264 -0.4048202
0.039707579 0.070804842 0 0 -0.25019264 -0.4048202
0.00067270477 0.072306216 0 0 -0.25019264 -0.4048202
0.0020181246 0.072306752 0 0 -0.25019264 -0.4048202
0.0033635756 0.072307825 5.5511151e-17 0 -0.25019264 -0.4048202
0.004709078 0.072309427 0 0 -0.25019264 -0.4048202
0.0060546529 0.072311573 0 0 -0.25019264 -0.4048202
0.0075766798 0.079999998 0.0096473852 0 -0.25019264 -0.4048202
0.0087461015 0.072317459 0 0 -0.25019264 -0.4048202
0.010092017 0.072321206 5.5511151e-17 0 -0.25019264 -0.4048202
0.011438088 0.07232549 0 0 -0.25019264 -0.4048202
0.012784335 0.072330303 0 0 -0.25019264 -0.4048202
0.014130778 0.07233566 5.5511151e-17 0 -0.25019264 -0.4048202
0.015477438 0.072341554 5.5511151e-17 0 -0.25019264 -0.4048202
0.016824335 0.072347984 0 0 -0.25019264 -0.4048202
0.018171491 0.072354943 0 0 -0.25019264 -0.4048202
0.019518927 0.072362445 0 0 -0.25019264 -0.4048202
0.021360217 0.079999998 0.0095751211 0 -0.25019264 -0.4048202
0.022214718 0.07237906 5.5511151e-17 0 -0.25019264 -0.4048202
0.024119128 0.079999998 0.009552395 0 -0.25019264 -0.4048202
0.024911877 0.072397828 0 0 -0.25019264 -0.4048202
0.026261022 0.07240802 0 0 -0.25019264 -0.4048202
0.02761057 0.072418749 0 0 -0.25019264 -0.4048202
0.028960543 0.072430022 0 0 -0.25019264 -0.4048202
0.03102104 0.079999998 0.0094834873 0 -0.25019264 -0.4048202
0.031661849 0.072454177 5.5511151e-17 0 -0.25019264 -0.4048202
0.033013225 0.072467066 0 0 -0.25019264 -0.4048202
0.03436511 0.0724805 0 0 -0.25019264 -0.4048202
0.035717521 0.072494477 0 0 -0.25019264 -0.4048202
0.037070487 0.072508991 0 0 -0.25019264 -0.4048202
0.038424026 0.072524048 0 0 -0.25019264 -0.4048202
0.039999999 0.074339531 0.0022576877 0 -0.25019264 -0.4048202
0.00067389949 0.074042268 0 0 -0.25019264 -0.4048202
0.0020217088 0.074042819 0 0 -0.25019264 -0.4048202
0.0033695493 0.074043915 0 0 -0.25019264 -0.4048202
0.0047174417 0.074045561 5.5511151e-17 0 -0.25019264 -0.4048202
0.006176752 0.079999998 0.0074314815 0 -0.25019264 -0.4048202
0.0074134651 0.074050508 0 0 -0.25019264 -0.4048202
0.0087616369 0.074053802 0 0 -0.25019264 -0.4048202
0.010109944 0.074057646 0 0 -0.25019264 -0.4048202
0.011458408 0.074062034 0 0 -0.25019264 -0.4048202
0.012807047 0.074066982 0 0 -0.25019264 -0.4048202
0.014155883 0.074072473 0 0 -0.25019264 -0.4048202
0.015504939 0.074078515 0 0 -0.25019264 -0.4048202
0.016854232 0.074085109 0 0 -0.25019264 -0.4048202
0.018203786 0.074092254 0 0 -0.25019264 -0.4048202
0.019553619 0.07409995 0 0 -0.25019264 -0.4048202
