# .PCD v0.7 - Point Cloud Data file format
VERSION 0.7
FIELDS x y z vp_x vp_y vp_z
SIZE 4 4 4 4 4 4
TYPE F F F F F F
COUNT 1 1 1 1 1 1
WIDTH 811
HEIGHT 1
VIEWPOINT 0 0 0 1 0 0 0
POINTS 811
DATA ascii
0.039999999 0.012679805 0.03963412 0.4048202 0 0.25019264
0.039999999 0.013783132 0.039635323 0.4048202 0 0.25019264
0.039999999 0.014886643 0.039636631 0.4048202 0 0.25019264
0.039999999 0.015990352 0.039638035 0.4048202 0 0.25019264
0.039999999 0.017094275 0.039639544 0.4048202 0 0.25019264
0.039999999 0.018198427 0.039641149 0.4048202 0 0.25019264
0.039999999 0.019302823 0.039642856 0.4048202 0 0.25019264
0.039999999 0.020407474 0.039644666 0.4048202 0 0.25019264
0.039999999 0.021512398 0.039646573 0.4048202 0 0.25019264
0.039999999 0.022617612 0.039648585 0.4048202 0 0.25019264
0.039999999 0.023723127 0.039650697 0.4048202 0 0.25019264
0.039999999 0.024828959 0.03965291 0.4048202 0 0.25019264
0.039999999 0.025935125 0.039655223 0.4048202 0 0.25019264
0.039999999 0.027041635 0.039657637 0.4048202 0 0.25019264
0.039999999 0.02814851 0.039660156 0.4048202 0 0.25019264
0.039999999 0.029255759 0.039662771 0.4048202 0 0.25019264
0.039999999 0.030363401 0.03966549 0.4048202 0 0.25019264
0.039999999 0.03147145 0.03966831 0.4048202 0 0.25019264
0.039999999 0.032579921 0.039671235 0.4048202 0 0.25019264
0.039999999 0.033688828 0.03967426 0.4048202 0 0.25019264
0.039999999 0.03479819 0.039677385 0.4048202 0 0.25019264
0.039999999 0.035908017 0.039680611 0.4048202 0 0.25019264
0.039999999 0.037018325 0.039683942 0.4048202 0 0.25019264
0.039999999 0.038129132 0.039687373 0.4048202 0 0.25019264
0.039999999 0.03924045 0.039690908 0.4048202 0 0.25019264
0.039999999 0.040352296 0.039694548 0.4048202 0 0.25019264
0.039999999 0.041464686 0.039698284 0.4048202 0 0.25019264
0.039999999 0.042577632 0.039702129 0.4048202 0 0.25019264
0.039999999 0.043691155 0.039706074 0.4048202 0 0.25019264
0.039999999 0.044805262 0.039710119 0.4048202 0 0.25019264
0.039999999 0.045919977 0.039714273 0.4048202 0 0.25019264
0.039999999 0.047035307 0.039718527 0.4048202 0 0.25019264
0.039999999 0.048151277 0.039722886 0.4048202 0 0.25019264
0.039999999 0.049267892 0.039727345 0.4048202 0 0.25019264
0.039999999 0.050385177 0.039731909 0.4048202 0 0.25019264
0.039999999 0.05150314 0.03973658 0.4048202 0 0.25019264
0.039999999 0.0526218 0.039741352 0.4048202 0 0.25019264
0.039999999 0.053741172 0.039746229 0.4048202 0 0.25019264
0.039999999 0.054861274 0.039751209 0.4048202 0 0.25019264
0.039999999 0.05598212 0.039756294 0.4048202 0 0.25019264
0.039999999 0.057103723 0.039761487 0.4048202 0 0.25019264
0.039999999 0.058226101 0.039766781 0.4048202 0 0.25019264
0.039999999 0.059349272 0.039772183 0.4048202 0 0.25019264
0.039999999 0.060473248 0.039777685 0.4048202 0 0.25019264
0.039999999 0.061598048 0.039783299 0.4048202 0 0.25019264
0.039999999 0.062723681 0.039789014 0.4048202 0 0.25019264
0.039999999 0.063850172 0.039794836 0.4048202 0 0.25019264
0.039999999 0.064977534 0.039800763 0.4048202 0 0.25019264
0.039999999 0.066105783 0.039806798 0.4048202 0 0.25019264
0.039999999 0.067234933 0.039812941 0.4048202 0 0.25019264
0.039999999 0.068365008 0.039819188 0.4048202 0 0.25019264
0.039999999 0.069496006 0.03982554 0.4048202 0 0.25019264
0.039999999 0.070627965 0.039832003 0.4048202 0 0.25019264
0.039999999 0.071760885 0.039838571 0.4048202 0 0.25019264
0.039999999 0.072894797 0.039845247 0.4048202 0 0.25019264
0.039999999 0.074029699 0.039852031 0.4048202 0 0.25019264
0.039999999 0.075165629 0.039858922 0.4048202 0 0.25019264
0.039999999 0.076302581 0.039865922 0.4048202 0 0.25019264
0.039999999 0.07744059 0.03987303 0.4048202 0 0.25019264
0.039999999 0.078579664 0.039880246 0.4048202 0 0.25019264
0.039999999 0.079719827 0.039887574 0.4048202 0 0.25019264
0.039999999 0.00055201171 0.038352299 0.4048202 0 0.25019264
0.039999999 0.0016560425 0.038352389 0.4048202 0 0.25019264
0.039999999 0.0027600955 0.038352571 0.4048202 0 0.25019264
0.039999999 0.0038641854 0.038352847 0.4048202 0 0.25019264
0.039999999 0.004968327 0.038353216 0.4048202 0 0.25019264
0.039999999 0.0060725347 0.038353674 0.4048202 0 0.25019264
0.039999999 0.0071768239 0.038354225 0.4048202 0 0.25019264
0.039999999 0.0082812086 0.03835487 0.4048202 0 0.25019264
0.039999999 0.0093857041 0.038355604 0.4048202 0 0.25019264
0.039999999 0.010490325 0.038356431 0.4048202 0 0.25019264
0.039999999 0.011595087 0.038357351 0.4048202 0 0.25019264
0.039999999 0.012700004 0.038358364 0.4048202 0 0.25019264
0.039999999 0.01380509 0.038359467 0.4048202 0 0.25019264
0.039999999 0.014910362 0.038360663 0.4048202 0 0.25019264
0.039999999 0.016015831 0.038361948 0.4048202 0 0.25019264
0.039999999 0.017121516 0.03836333 0.4048202 0 0.25019264
0.039999999 0.018227432 0.038364802 0.4048202 0 0.25019264
0.039999999 0.01933359 0.038366366 0.4048202 0 0.25019264
0.039999999 0.020440007 0.03836802 0.4048202 0 0.25019264
0.039999999 0.021546697 0.038369771 0.4048202 0 0.25019264
0.039999999 0.022653677 0.038371611 0.4048202 0 0.25019264
0.039999999 0.02376096 0.038373545 0.4048202 0 0.25019264
0.039999999 0.024868563 0.038375571 0.4048202 0 0.25019264
0.039999999 0.025976498 0.038377691 0.4048202 0 0.25019264
0.039999999 0.027084781 0.038379904 0.4048202 0 0.25019264
0.039999999 0.028193427 0.038382206 0.4048202 0 0.25019264
0.039999999 0.029302454 0.038384605 0.4048202 0 0.25019264
0.039999999 0.030411873 0.038387097 0.4048202 0 0.25019264
0.039999999 0.0315217 0.038389679 0.4048202 0 0.25019264
0.039999999 0.032631952 0.038392358 0.4048202 0 0.25019264
0.039999999 0.03374264 0.038395125 0.4048202 0 0.25019264
0.039999999 0.034853783 0.03839799 0.4048202 0 0.25019264
0.039999999 0.035965398 0.038400944 0.4048202 0 0.25019264
0.039999999 0.037077494 0.038403995 0.4048202 0 0.25019264
0.039999999 0.038190089 0.038407139 0.4048202 0 0.25019264
0.039999999 0.039303198 0.038410377 0.4048202 0 0.25019264
0.039999999 0.04041684 0.038413707 0.4048202 0 0.25019264
0.039999999 0.041531023 0.038417134 0.4048202 0 0.25019264
0.039999999 0.042645771 0.038420651 0.4048202 0 0.25019264
0.039999999 0.043761089 0.038424265 0.4048202 0 0.25019264
0.039999999 0.044877004 0.038427975 0.4048202 0 0.25019264
0.039999999 0.045993522 0.038431775 0.4048202 0 0.25019264
0.039999999 0.047110662 0.038435671 0.4048202 0 0.25019264
0.039999999 0.048228439 0.038439665 0.4048202 0 0.25019264
0.039999999 0.049346868 0.038443748 0.4048202 0 0.25019264
0.039999999 0.050465968 0.038447931 0.4048202 0 0.25019264
0.039999999 0.051585749 0.038452208 0.4048202 0 0.25019264
0.039999999 0.05270623 0.038456578 0.4048202 0 0.25019264
0.039999999 0.053827427 0.038461044 0.4048202 0 0.25019264
0.039999999 0.054949354 0.038465608 0.4048202 0 0.25019264
0.039999999 0.05607203 0.038470265 0.4048202 0 0.25019264
0.039999999 0.057195466 0.038475022 0.4048202 0 0.25019264
0.039999999 0.058319684 0.038479868 0.4048202 0 0.25019264
0.039999999 0.059444692 0.038484816 0.4048202 0 0.25019264
0.039999999 0.060570512 0.03848986 0.4048202 0 0.25019264
0.039999999 0.061697155 0.038494997 0.4048202 0 0.25019264
0.039999999 0.062824644 0.038500234 0.4048202 0 0.25019264
0.039999999 0.063952982 0.038505565 0.4048202 0 0.25019264
0.039999999 0.065082207 0.038510997 0.4048202 0 0.25019264
0.039999999 0.066212311 0.038516525 0.4048202 0 0.25019264
0.039999999 0.067343324 0.038522147 0.4048202 0 0.25019264
0.039999999 0.068475261 0.038527869 0.4048202 0 0.25019264
0.039999999 0.069608137 0.038533691 0.4048202 0 0.25019264
0.039999999 0.070741974 0.038539607 0.4048202 0 0.25019264
0.039999999 0.071876772 0.038545623 0.4048202 0 0.25019264
0.039999999 0.073012561 0.03855174 0.4048202 0 0.25019264
0.039999999 0.074149355 0.038557954 0.4048202 0 0.25019264
0.039999999 0.075287171 0.038564265 0.4048202 0 0.25019264
0.039999999 0.076426029 0.038570676 0.4048202 0 0.25019264
0.039999999 0.077565931 0.038577188 0.4048202 0 0.25019264
0.039999999 0.078706913 0.0385838 0.4048202 0 0.25019264
0.039999999 0.079848982 0.038590509 0.4048202 0 0.25019264
0.039999999 0.00055289199 0.037073214 0.4048202 0 0.25019264
0.039999999 0.0016586833 0.037073299 0.4048202 0 0.25019264
0.039999999 0.002764497 0.037073463 0.4048202 0 0.25019264
0.039999999 0.0038703475 0.037073713 0.4048202 0 0.25019264
0.039999999 0.0049762498 0.037074048 0.4048202 0 0.25019264
0.039999999 0.0060822191 0.037074465 0.4048202 0 0.25019264
0.039999999 0.0071882694 0.037074964 0.4048202 0 0.25019264
0.039999999 0.0082944166 0.037075549 0.4048202 0 0.25019264
0.039999999 0.0094006751 0.037076216 0.4048202 0 0.25019264
0.039999999 0.010507058 0.037076969 0.4048202 0 0.25019264
0.039999999 0.011613583 0.037077803 0.4048202 0 0.25019264
0.039999999 0.012720264 0.03707872 0.4048202 0 0.25019264
0.039999999 0.013827115 0.037079722 0.4048202 0 0.25019264
0.039999999 0.014934152 0.037080806 0.4048202 0 0.25019264
0.039999999 0.016041389 0.037081975 0.4048202 0 0.25019264
0.039999999 0.017148841 0.037083227 0.4048202 0 0.25019264
0.039999999 0.018256523 0.037084561 0.4048202 0 0.25019264
0.039999999 0.01936445 0.03708598 0.4048202 0 0.25019264
0.039999999 0.020472638 0.037087485 0.4048202 0 0.25019264
0.039999999 0.0215811 0.037089072 0.4048202 0 0.25019264
0.039999999 0.022689853 0.037090745 0.4048202 0 0.25019264
0.039999999 0.023798909 0.037092499 0.4048202 0 0.25019264
0.039999999 0.024908286 0.03709434 0.4048202 0 0.25019264
0.039999999 0.026017997 0.037096262 0.4048202 0 0.25019264
0.039999999 0.027128058 0.03709827 0.4048202 0 0.25019264
0.039999999 0.028238485 0.03710036 0.4048202 0 0.25019264
0.039999999 0.02934929 0.037102535 0.4048202 0 0.25019264
0.039999999 0.030460492 0.037104797 0.4048202 0 0.25019264
0.039999999 0.031572104 0.037107144 0.4048202 0 0.25019264
0.039999999 0.03268414 0.037109572 0.4048202 0 0.25019264
0.039999999 0.033796616 0.037112087 0.4048202 0 0.25019264
0.039999999 0.03490955 0.037114684 0.4048202 0 0.25019264
0.039999999 0.036022954 0.037117369 0.4048202 0 0.25019264
0.039999999 0.037136842 0.037120137 0.4048202 0 0.25019264
0.039999999 0.038251232 0.037122991 0.4048202 0 0.25019264
0.039999999 0.039366141 0.037125926 0.4048202 0 0.25019264
0.039999999 0.040481579 0.037128951 0.4048202 0 0.25019264
0.039999999 0.041597564 0.037132058 0.4048202 0 0.25019264
0.039999999 0.042714115 0.037135255 0.4048202 0 0.25019264
0.039999999 0.04383124 0.037138533 0.4048202 0 0.25019264
0.039999999 0.044948962 0.037141901 0.4048202 0 0.25019264
0.039999999 0.04606729 0.03714535 0.4048202 0 0.25019264
0.039999999 0.047186244 0.037148885 0.4048202 0 0.25019264
0.039999999 0.048305836 0.03715251 0.4048202 0 0.25019264
0.039999999 0.049426086 0.037156217 0.4048202 0 0.25019264
0.039999999 0.050547004 0.037160013 0.4048202 0 0.25019264
0.039999999 0.05166861 0.037163895 0.4048202 0 0.25019264
0.039999999 0.052790921 0.037167862 0.4048202 0 0.25019264
0.039999999 0.053913947 0.037171915 0.4048202 0 0.25019264
0.039999999 0.055037707 0.037176058 0.4048202 0 0.25019264
0.039999999 0.056162219 0.037180286 0.4048202 0 0.25019264
0.039999999 0.057287496 0.0371846 0.4048202 0 0.25019264
0.039999999 0.05841355 0.037189003 0.4048202 0 0.25019264
0.039999999 0.059540406 0.037193492 0.4048202 0 0.25019264
0.039999999 0.060668074 0.037198067 0.4048202 0 0.25019264
0.039999999 0.061796568 0.037202731 0.4048202 0 0.25019264
0.039999999 0.062925912 0.037207484 0.4048202 0 0.25019264
0.039999999 0.064056113 0.037212323 0.4048202 0 0.25019264
0.039999999 0.065187193 0.037217252 0.4048202 0 0.25019264
0.039999999 0.066319168 0.03722227 0.4048202 0 0.25019264
0.039999999 0.067452051 0.037227374 0.4048202 0 0.25019264
0.039999999 0.068585865 0.03723257 0.4048202 0 0.25019264
0.039999999 0.069720618 0.037237853 0.4048202 0 0.25019264
0.039999999 0.070856325 0.037243221 0.4048202 0 0.25019264
0.039999999 0.071993016 0.037248682 0.4048202 0 0.25019264
0.039999999 0.073130697 0.037254233 0.4048202 0 0.25019264
0.039999999 0.074269384 0.037259873 0.4048202 0 0.25019264
0.039999999 0.075409099 0.037265602 0.4048202 0 0.25019264
0.039999999 0.07654985 0.037271421 0.4048202 0 0.25019264
0.039999999 0.077691667 0.037277333 0.4048202 0 0.25019264
0.039999999 0.078834556 0.037283331 0.4048202 0 0.25019264
0.039999999 0.079978533 0.037289422 0.4048202 0 0.25019264
0.039999999 0.00055377488 0.035790212 0.4048202 0 0.25019264
0.039999999 0.0016613321 0.035790287 0.4048202 0 0.25019264
0.039999999 0.0027689117 0.035790436 0.4048202 0 0.25019264
0.039999999 0.0038765285 0.035790663 0.4048202 0 0.25019264
0.039999999 0.0049841972 0.035790961 0.4048202 0 0.25019264
0.039999999 0.0060919328 0.035791334 0.4048202 0 0.25019264
0.039999999 0.0071997503 0.035791785 0.4048202 0 0.25019264
0.039999999 0.0083076647 0.03579231 0.4048202 0 0.25019264
0.039999999 0.0094156908 0.035792906 0.4048202 0 0.25019264
0.039999999 0.010523843 0.03579358 0.4048202 0 0.25019264
0.039999999 0.011632137 0.035794329 0.4048202 0 0.25019264
0.039999999 0.012740587 0.035795152 0.4048202 0 0.25019264
0.039999999 0.013849208 0.035796054 0.4048202 0 0.25019264
0.039999999 0.014958016 0.035797026 0.4048202 0 0.25019264
0.039999999 0.016067024 0.035798077 0.4048202 0 0.25019264
0.039999999 0.01717625 0.035799198 0.4048202 0 0.25019264
0.039999999 0.018285705 0.035800397 0.4048202 0 0.25019264
0.039999999 0.019395407 0.035801671 0.4048202 0 0.25019264
0.039999999 0.020505369 0.03580302 0.4048202 0 0.25019264
0.039999999 0.021615608 0.035804447 0.4048202 0 0.25019264
0.039999999 0.022726137 0.035805948 0.4048202 0 0.25019264
0.039999999 0.023836974 0.03580752 0.4048202 0 0.25019264
0.039999999 0.024948131 0.035809174 0.4048202 0 0.25019264
0.039999999 0.026059624 0.035810899 0.4048202 0 0.25019264
0.039999999 0.027171468 0.035812702 0.4048202 0 0.25019264
0.039999999 0.028283678 0.03581458 0.4048202 0 0.25019264
0.039999999 0.029396271 0.035816532 0.4048202 0 0.25019264
0.039999999 0.03050926 0.035818562 0.4048202 0 0.25019264
0.039999999 0.031622659 0.035820667 0.4048202 0 0.25019264
0.039999999 0.032736488 0.035822846 0.4048202 0 0.25019264
0.039999999 0.033850759 0.035825104 0.4048202 0 0.25019264
0.039999999 0.034965485 0.035827436 0.4048202 0 0.25019264
0.039999999 0.036080685 0.035829842 0.4048202 0 0.25019264
0.039999999 0.037196372 0.035832327 0.4048202 0 0.25019264
0.039999999 0.038312566 0.03583489 0.4048202 0 0.25019264
0.039999999 0.039429273 0.035837527 0.4048202 0 0.25019264
0.039999999 0.040546518 0.035840239 0.4048202 0 0.25019264
0.039999999 0.04166431 0.03584303 0.4048202 0 0.25019264
0.039999999 0.042782668 0.035845898 0.4048202 0 0.25019264
0.039999999 0.043901607 0.035848841 0.4048202 0 0.25019264
0.039999999 0.045021143 0.035851862 0.4048202 0 0.25019264
0.039999999 0.046141289 0.035854958 0.4048202 0 0.25019264
0.039999999 0.047262061 0.035858132 0.4048202 0 0.25019264
0.039999999 0.048383474 0.035861384 0.4048202 0 0.25019264
0.039999999 0.049505547 0.035864715 0.4048202 0 0.25019264
0.039999999 0.050628293 0.035868119 0.4048202 0 0.25019264
0.039999999 0.051751729 0.035871603 0.4048202 0 0.25019264
0.039999999 0.052875873 0.035875164 0.4048202 0 0.25019264
0.039999999 0.054000735 0.035878804 0.4048202 0 0.25019264
0.039999999 0.055126332 0.035882521 0.4048202 0 0.25019264
0.039999999 0.056252684 0.035886317 0.4048202 0 0.25019264
0.039999999 0.057379805 0.035890188 0.4048202 0 0.25019264
0.039999999 0.058507711 0.035894141 0.4048202 0 0.25019264
0.039999999 0.059636414 0.035898171 0.4048202 0 0.25019264
0.039999999 0.060765937 0.035902277 0.4048202 0 0.25019264
0.039999999 0.061896291 0.035906464 0.4048202 0 0.25019264
0.039999999 0.063027494 0.035910729 0.4048202 0 0.25019264
0.039999999 0.064159565 0.035915073 0.4048202 0 0.25019264
0.039999999 0.065292507 0.035919499 0.4048202 0 0.25019264
0.039999999 0.066426359 0.035924003 0.4048202 0 0.25019264
0.039999999 0.06756112 0.035928585 0.4048202 0 0.25019264
0.039999999 0.068696804 0.035933245 0.4048202 0 0.25019264
0.039999999 0.069833443 0.035937987 0.4048202 0 0.25019264
0.039999999 0.070971042 0.035942808 0.4048202 0 0.25019264
0.039999999 0.072109625 0.03594771 0.4048202 0 0.25019264
0.039999999 0.073249198 0.035952691 0.4048202 0 0.25019264
0.039999999 0.074389786 0.035957754 0.4048202 0 0.25019264
0.039999999 0.075531401 0.035962898 0.4048202 0 0.25019264
0.039999999 0.076674059 0.035968121 0.4048202 0 0.25019264
0.039999999 0.07781779 0.035973426 0.4048202 0 0.25019264
0.039999999 0.078962594 0.035978809 0.4048202 0 0.25019264
0.039999999 0.00055466057 0.034503255 0.4048202 0 0.25019264
0.039999999 0.0016639892 0.034503322 0.4048202 0 0.25019264
0.039999999 0.0027733401 0.034503456 0.4048202 0 0.25019264
0.039999999 0.0038827285 0.034503654 0.4048202 0 0.25019264
0.039999999 0.0049921689 0.034503918 0.4048202 0 0.25019264
0.039999999 0.0061016767 0.03450425 0.4048202 0 0.25019264
0.039999999 0.0072112666 0.034504648 0.4048202 0 0.25019264
0.039999999 0.0083209537 0.03450511 0.4048202 0 0.25019264
0.039999999 0.0094307531 0.034505643 0.4048202 0 0.25019264
0.039999999 0.010540679 0.034506239 0.4048202 0 0.25019264
0.039999999 0.011650747 0.034506902 0.4048202 0 0.25019264
0.039999999 0.012760973 0.034507629 0.4048202 0 0.25019264
0.039999999 0.013871369 0.034508426 0.4048202 0 0.25019264
0.039999999 0.014981953 0.034509286 0.4048202 0 0.25019264
0.039999999 0.016092738 0.034510214 0.4048202 0 0.25019264
0.039999999 0.017203741 0.034511212 0.4048202 0 0.25019264
0.039999999 0.018314976 0.03451227 0.4048202 0 0.25019264
0.039999999 0.019426458 0.034513399 0.4048202 0 0.25019264
0.039999999 0.020538202 0.034514595 0.4048202 0 0.25019264
0.039999999 0.021650223 0.034515854 0.4048202 0 0.25019264
0.039999999 0.022762535 0.034517184 0.4048202 0 0.25019264
0.039999999 0.023875156 0.034518577 0.4048202 0 0.25019264
0.039999999 0.024988098 0.034520037 0.4048202 0 0.25019264
0.039999999 0.026101379 0.034521569 0.4048202 0 0.25019264
0.039999999 0.027215011 0.034523163 0.4048202 0 0.25019264
0.039999999 0.028329013 0.034524824 0.4048202 0 0.25019264
0.039999999 0.029443396 0.034526553 0.4048202 0 0.25019264
0.039999999 0.030558178 0.034528349 0.4048202 0 0.25019264
0.039999999 0.031673376 0.034530211 0.4048202 0 0.25019264
0.039999999 0.032788999 0.034532141 0.4048202 0 0.25019264
0.039999999 0.033905067 0.034534138 0.4048202 0 0.25019264
0.039999999 0.035021596 0.034536205 0.4048202 0 0.25019264
0.039999999 0.036138598 0.034538336 0.4048202 0 0.25019264
0.039999999 0.037256088 0.034540534 0.4048202 0 0.25019264
0.039999999 0.038374085 0.034542803 0.4048202 0 0.25019264
0.039999999 0.039492603 0.034545135 0.4048202 0 0.25019264
0.039999999 0.040611658 0.034547538 0.4048202 0 0.25019264
0.039999999 0.041731264 0.034550007 0.4048202 0 0.25019264
0.039999999 0.042851437 0.034552544 0.4048202 0 0.25019264
0.039999999 0.043972194 0.034555152 0.4048202 0 0.25019264
0.039999999 0.045093548 0.034557827 0.4048202 0 0.25019264
0.039999999 0.046215516 0.034560569 0.4048202 0 0.25019264
0.039999999 0.047338109 0.034563377 0.4048202 0 0.25019264
0.039999999 0.048461352 0.034566253 0.4048202 0 0.25019264
0.039999999 0.049585257 0.0345692 0.4048202 0 0.25019264
0.039999999 0.050709836 0.034572218 0.4048202 0 0.25019264
0.039999999 0.051835109 0.034575302 0.4048202 0 0.25019264
0.039999999 0.052961089 0.034578454 0.4048202 0 0.25019264
0.039999999 0.054087792 0.034581672 0.4048202 0 0.25019264
0.039999999 0.055215232 0.034584966 0.4048202 0 0.25019264
0.039999999 0.056343433 0.034588322 0.4048202 0 0.25019264
0.039999999 0.057472404 0.034591753 0.4048202 0 0.25019264
0.039999999 0.058602162 0.034595247 0.4048202 0 0.25019264
0.039999999 0.059732724 0.034598816 0.4048202 0 0.25019264
0.039999999 0.060864106 0.034602452 0.4048202 0 0.25019264
0.039999999 0.061996326 0.034606159 0.4048202 0 0.25019264
0.039999999 0.063129395 0.034609932 0.4048202 0 0.25019264
0.039999999 0.064263329 0.034613781 0.4048202 0 0.25019264
0.039999999 0.065398157 0.034617696 0.4048202 0 0.25019264
0.039999999 0.066533878 0.034621682 0.4048202 0 0.25019264
0.039999999 0.067670524 0.034625739 0.4048202 0 0.25019264
0.039999999 0.068808094 0.034629863 0.4048202 0 0.25019264
0.039999999 0.069946624 0.034634061 0.4048202 0 0.25019264
0.039999999 0.071086116 0.03463833 0.4048202 0 0.25019264
0.039999999 0.072226591 0.034642667 0.4048202 0 0.25019264
0.039999999 0.073368065 0.034647077 0.4048202 0 0.25019264
0.039999999 0.074510559 0.034651559 0.4048202 0 0.25019264
0.039999999 0.075654082 0.034656111 0.4048202 0 0.25019264
0.039999999 0.076798663 0.034660734 0.4048202 0 0.25019264
0.039999999 0.077944309 0.034665432 0.4048202 0 0.25019264
0.039999999 0.079091035 0.034670196 0.4048202 0 0.25019264
0.039999999 0.00055554893 0.033212312 0.4048202 0 0.25019264
0.039999999 0.0016666544 0.033212367 0.4048202 0 0.25019264
0.039999999 0.0027777823 0.033212483 0.4048202 0 0.25019264
0.039999999 0.0038889477 0.033212654 0.4048202 0 0.25019264
0.039999999 0.0050001657 0.033212885 0.4048202 0 0.25019264
0.039999999 0.006111451 0.033213176 0.4048202 0 0.25019264
0.039999999 0.0072228187 0.033213519 0.4048202 0 0.25019264
0.039999999 0.0083342837 0.033213925 0.4048202 0 0.25019264
0.039999999 0.0094458619 0.033214383 0.4048202 0 0.25019264
0.039999999 0.010557568 0.033214904 0.4048202 0 0.25019264
0.039999999 0.011669415 0.033215478 0.4048202 0 0.25019264
0.039999999 0.012781421 0.033216111 0.4048202 0 0.25019264
0.039999999 0.013893599 0.033216804 0.4048202 0 0.25019264
0.039999999 0.015005965 0.033217553 0.4048202 0 0.25019264
0.039999999 0.016118534 0.033218361 0.4048202 0 0.25019264
0.039999999 0.017231319 0.033219226 0.4048202 0 0.25019264
0.039999999 0.018344339 0.03322015 0.4048202 0 0.25019264
0.039999999 0.019457607 0.033221129 0.4048202 0 0.25019264
0.039999999 0.020571137 0.033222169 0.4048202 0 0.25019264
0.039999999 0.021684945 0.033223264 0.4048202 0 0.25019264
0.039999999 0.022799047 0.033224419 0.4048202 0 0.25019264
0.039999999 0.023913458 0.033225629 0.4048202 0 0.25019264
0.039999999 0.025028192 0.0332269 0.4048202 0 0.25019264
0.039999999 0.026143264 0.03322823 0.4048202 0 0.25019264
0.039999999 0.027258692 0.033229616 0.4048202 0 0.25019264
0.039999999 0.028374488 0.033231061 0.4048202 0 0.25019264
0.039999999 0.029490668 0.033232566 0.4048202 0 0.25019264
0.039999999 0.03060725 0.033234127 0.4048202 0 0.25019264
0.039999999 0.031724244 0.033235747 0.4048202 0 0.25019264
0.039999999 0.032841671 0.033237424 0.4048202 0 0.25019264
0.039999999 0.033959545 0.03323916 0.4048202 0 0.25019264
0.039999999 0.035077877 0.033240955 0.4048202 0 0.25019264
0.039999999 0.036196686 0.033242811 0.4048202 0 0.25019264
0.039999999 0.037315991 0.033244722 0.4048202 0 0.25019264
0.039999999 0.038435798 0.033246692 0.4048202 0 0.25019264
0.039999999 0.039556131 0.033248723 0.4048202 0 0.25019264
0.039999999 0.040677 0.033250809 0.4048202 0 0.25019264
0.039999999 0.041798424 0.033252958 0.4048202 0 0.25019264
0.039999999 0.042920418 0.033255164 0.4048202 0 0.25019264
0.039999999 0.044042997 0.033257429 0.4048202 0 0.25019264
0.039999999 0.045166176 0.033259753 0.4048202 0 0.25019264
0.039999999 0.046289973 0.033262137 0.4048202 0 0.25019264
0.039999999 0.0474144 0.033264581 0.4048202 0 0.25019264
0.039999999 0.048539475 0.033267085 0.4048202 0 0.25019264
0.039999999 0.049665213 0.033269644 0.4048202 0 0.25019264
0.039999999 0.050791632 0.033272266 0.4048202 0 0.25019264
0.039999999 0.051918745 0.033274949 0.4048202 0 0.25019264
0.039999999 0.053046569 0.033277687 0.4048202 0 0.25019264
0.039999999 0.05417512 0.033280488 0.4048202 0 0.25019264
0.039999999 0.055304412 0.033283349 0.4048202 0 0.25019264
0.039999999 0.056434464 0.03328627 0.4048202 0 0.25019264
0.039999999 0.05756529 0.03328925 0.4048202 0 0.25019264
0.039999999 0.058696911 0.03329229 0.4048202 0 0.25019264
0.039999999 0.059829336 0.033295393 0.4048202 0 0.25019264
0.039999999 0.060962584 0.033298556 0.4048202 0 0.25019264
0.039999999 0.06209667 0.033301778 0.4048202 0 0.25019264
0.039999999 0.063231617 0.03330506 0.4048202 0 0.25019264
0.039999999 0.064367428 0.033308402 0.4048202 0 0.25019264
0.039999999 0.065504134 0.033311807 0.4048202 0 0.25019264
0.039999999 0.066641741 0.033315271 0.4048202 0 0.25019264
0.039999999 0.067780271 0.033318799 0.4048202 0 0.25019264
0.039999999 0.068919733 0.033322386 0.4048202 0 0.25019264
0.039999999 0.070060156 0.033326037 0.4048202 0 0.25019264
0.039999999 0.071201548 0.033329748 0.4048202 0 0.25019264
0.039999999 0.072343931 0.033333521 0.4048202 0 0.25019264
0.039999999 0.073487312 0.033337355 0.4048202 0 0.25019264
0.039999999 0.074631713 0.033341251 0.4048202 0 0.25019264
0.039999999 0.075777158 0.033345208 0.4048202 0 0.25019264
0.039999999 0.076923653 0.033349227 0.4048202 0 0.25019264
0.039999999 0.078071222 0.03335331 0.4048202 0 0.25019264
0.039999999 0.079219878 0.033357456 0.4048202 0 0.25019264
0.039999999 0.00055644015 0.031917337 0.4048202 0 0.25019264
0.039999999 0.001669328 0.031917386 0.4048202 0 0.25019264
0.039999999 0.0027822384 0.031917483 0.4048202 0 0.25019264
0.039999999 0.0038951864 0.031917632 0.4048202 0 0.25019264
0.039999999 0.0050081871 0.031917825 0.4048202 0 0.25019264
0.039999999 0.0061212555 0.031918071 0.4048202 0 0.25019264
0.039999999 0.0072344067 0.031918366 0.4048202 0 0.25019264
0.039999999 0.0083476556 0.031918708 0.4048202 0 0.25019264
0.039999999 0.0094610183 0.031919099 0.4048202 0 0.25019264
0.039999999 0.010574508 0.031919539 0.4048202 0 0.25019264
0.039999999 0.011688141 0.031920027 0.4048202 0 0.25019264
0.039999999 0.012801933 0.031920567 0.4048202 0 0.25019264
0.039999999 0.013915897 0.031921152 0.4048202 0 0.25019264
0.039999999 0.015030051 0.031921789 0.4048202 0 0.25019264
0.039999999 0.016144408 0.031922475 0.4048202 0 0.25019264
0.039999999 0.017258983 0.031923208 0.4048202 0 0.25019264
0.039999999 0.018373793 0.031923991 0.4048202 0 0.25019264
0.039999999 0.019488851 0.031924825 0.4048202 0 0.25019264
0.039999999 0.020604173 0.031925704 0.4048202 0 0.25019264
0.039999999 0.021719776 0.031926636 0.4048202 0 0.25019264
0.039999999 0.022835672 0.031927615 0.4048202 0 0.25019264
0.039999999 0.023951877 0.031928644 0.4048202 0 0.25019264
0.039999999 0.02506841 0.031929724 0.4048202 0 0.25019264
0.039999999 0.02618528 0.031930853 0.4048202 0 0.25019264
0.039999999 0.027302507 0.03193203 0.4048202 0 0.25019264
0.039999999 0.028420106 0.031933255 0.4048202 0 0.25019264
0.039999999 0.029538089 0.03193453 0.4048202 0 0.25019264
0.039999999 0.030656474 0.031935856 0.4048202 0 0.25019264
0.039999999 0.031775277 0.03193723 0.4048202 0 0.25019264
0.039999999 0.032894511 0.031938657 0.4048202 0 0.25019264
0.039999999 0.034014191 0.031940129 0.4048202 0 0.25019264
0.039999999 0.035134338 0.031941652 0.4048202 0 0.25019264
0.039999999 0.036254961 0.031943228 0.4048202 0 0.25019264
0.039999999 0.03737608 0.031944849 0.4048202 0 0.25019264
0.039999999 0.038497705 0.031946521 0.4048202 0 0.25019264
0.039999999 0.039619856 0.031948246 0.4048202 0 0.25019264
0.039999999 0.04074255 0.031950019 0.4048202 0 0.25019264
0.039999999 0.041865796 0.031951841 0.4048202 0 0.25019264
0.039999999 0.042989615 0.031953715 0.4048202 0 0.25019264
0.039999999 0.044114023 0.031955637 0.4048202 0 0.25019264
0.039999999 0.045239035 0.031957611 0.4048202 0 0.25019264
0.039999999 0.046364665 0.031959634 0.4048202 0 0.25019264
0.039999999 0.047490928 0.031961709 0.4048202 0 0.25019264
0.039999999 0.048617844 0.031963833 0.4048202 0 0.25019264
0.039999999 0.049745422 0.031966008 0.4048202 0 0.25019264
0.039999999 0.050873686 0.031968232 0.4048202 0 0.25019264
0.039999999 0.052002646 0.031970508 0.4048202 0 0.25019264
0.039999999 0.053132318 0.031972833 0.4048202 0 0.25019264
0.039999999 0.054262724 0.031975213 0.4048202 0 0.25019264
0.039999999 0.055393871 0.031977639 0.4048202 0 0.25019264
0.039999999 0.056525782 0.03198012 0.4048202 0 0.25019264
0.039999999 0.057658471 0.031982649 0.4048202 0 0.25019264
0.039999999 0.058791954 0.031985231 0.4048202 0 0.25019264
0.039999999 0.059926249 0.031987865 0.4048202 0 0.25019264
0.039999999 0.061061371 0.031990547 0.4048202 0 0.25019264
0.039999999 0.062197331 0.031993281 0.4048202 0 0.25019264
0.039999999 0.063334152 0.031996068 0.4048202 0 0.25019264
0.039999999 0.064471856 0.031998906 0.4048202 0 0.25019264
0.039999999 0.065610446 0.032001797 0.4048202 0 0.25019264
0.039999999 0.066749938 0.03200474 0.4048202 0 0.25019264
0.039999999 0.067890361 0.032007731 0.4048202 0 0.25019264
0.039999999 0.06903173 0.032010779 0.4048202 0 0.25019264
0.039999999 0.070174053 0.032013875 0.4048202 0 0.25019264
0.039999999 0.071317345 0.032017026 0.4048202 0 0.25019264
0.039999999 0.072461635 0.03202023 0.4048202 0 0.25019264
0.039999999 0.073606931 0.032023482 0.4048202 0 0.25019264
0.039999999 0.074753255 0.03202679 0.4048202 0 0.25019264
0.039999999 0.075900622 0.03203015 0.4048202 0 0.25019264
0.039999999 0.077049047 0.032033563 0.4048202 0 0.25019264
0.039999999 0.078198545 0.032037027 0.4048202 0 0.25019264
0.039999999 0.079349138 0.032040548 0.4048202 0 0.25019264
0.039999999 0.0005573341 0.030618303 0.4048202 0 0.25019264
0.039999999 0.0016720099 0.030618342 0.4048202 0 0.25019264
0.039999999 0.0027867083 0.030618422 0.4048202 0 0.25019264
0.039999999 0.0039014446 0.030618543 0.4048202 0 0.25019264
0.039999999 0.0050162338 0.030618703 0.4048202 0 0.25019264
0.039999999 0.0061310907 0.030618904 0.4048202 0 0.25019264
0.039999999 0.007246031 0.030619144 0.4048202 0 0.25019264
0.039999999 0.0083610695 0.030619426 0.4048202 0 0.25019264
0.039999999 0.0094762221 0.030619746 0.4048202 0 0.25019264
0.039999999 0.010591502 0.030620107 0.4048202 0 0.25019264
0.039999999 0.011706927 0.03062051 0.4048202 0 0.25019264
0.039999999 0.01282251 0.030620951 0.4048202 0 0.25019264
0.039999999 0.013938267 0.030621434 0.4048202 0 0.25019264
0.039999999 0.015054213 0.030621955 0.4048202 0 0.25019264
0.039999999 0.016170364 0.030622518 0.4048202 0 0.25019264
0.039999999 0.017286735 0.030623121 0.4048202 0 0.25019264
0.039999999 0.018403338 0.030623764 0.4048202 0 0.25019264
0.039999999 0.019520193 0.030624446 0.4048202 0 0.25019264
0.039999999 0.020637315 0.03062517 0.4048202 0 0.25019264
0.039999999 0.021754716 0.030625934 0.4048202 0 0.25019264
0.039999999 0.022872413 0.030626738 0.4048202 0 0.25019264
0.039999999 0.023990419 0.030627582 0.4048202 0 0.25019264
0.039999999 0.025108753 0.030628469 0.4048202 0 0.25019264
0.039999999 0.026227428 0.030629395 0.4048202 0 0.25019264
0.039999999 0.02734646 0.030630359 0.4048202 0 0.25019264
0.039999999 0.028465865 0.030631367 0.4048202 0 0.25019264
0.039999999 0.029585658 0.030632414 0.4048202 0 0.25019264
0.039999999 0.030705854 0.030633502 0.4048202 0 0.25019264
0.039999999 0.031826466 0.03063463 0.4048202 0 0.25019264
0.039999999 0.032947514 0.0306358 0.4048202 0 0.25019264
0.039999999 0.034069013 0.030637009 0.4048202 0 0.25019264
0.039999999 0.035190973 0.030638261 0.4048202 0 0.25019264
0.039999999 0.036313418 0.030639552 0.4048202 0 0.25019264
0.039999999 0.037436355 0.030640883 0.4048202 0 0.25019264
0.039999999 0.038559806 0.030642256 0.4048202 0 0.25019264
0.039999999 0.039683782 0.030643672 0.4048202 0 0.25019264
0.039999999 0.040808301 0.030645126 0.4048202 0 0.25019264
0.039999999 0.04193338 0.030646622 0.4048202 0 0.25019264
0.039999999 0.043059032 0.030648161 0.4048202 0 0.25019264
0.039999999 0.044185277 0.030649738 0.4048202 0 0.25019264
0.039999999 0.045312122 0.030651357 0.4048202 0 0.25019264
0.039999999 0.046439592 0.030653019 0.4048202 0 0.25019264
0.039999999 0.047567699 0.030654721 0.4048202 0 0.25019264
0.039999999 0.048696455 0.030656464 0.4048202 0 0.25019264
0.039999999 0.049825884 0.030658249 0.4048202 0 0.25019264
0.039999999 0.050955996 0.030660076 0.4048202 0 0.25019264
0.039999999 0.052086812 0.030661944 0.4048202 0 0.25019264
0.039999999 0.053218339 0.030663854 0.4048202 0 0.25019264
0.039999999 0.054350603 0.030665806 0.4048202 0 0.25019264
0.039999999 0.055483613 0.030667799 0.4048202 0 0.25019264
0.039999999 0.05661739 0.030669833 0.4048202 0 0.25019264
0.039999999 0.05775195 0.030671909 0.4048202 0 0.25019264
0.039999999 0.058887303 0.030674029 0.4048202 0 0.25019264
0.039999999 0.060023472 0.03067619 0.4048202 0 0.25019264
0.039999999 0.061160471 0.030678393 0.4048202 0 0.25019264
0.039999999 0.062298317 0.030680638 0.4048202 0 0.25019264
0.039999999 0.063437022 0.030682925 0.4048202 0 0.25019264
0.039999999 0.064576611 0.030685255 0.4048202 0 0.25019264
0.039999999 0.065717094 0.030687626 0.4048202 0 0.25019264
0.039999999 0.066858485 0.030690042 0.4048202 0 0.25019264
0.039999999 0.068000808 0.030692499 0.4048202 0 0.25019264
0.039999999 0.069144078 0.030694999 0.4048202 0 0.25019264
0.039999999 0.070288308 0.030697541 0.4048202 0 0.25019264
0.039999999 0.071433514 0.030700127 0.4048202 0 0.25019264
0.039999999 0.072579719 0.030702757 0.4048202 0 0.25019264
0.039999999 0.073726937 0.030705428 0.4048202 0 0.25019264
0.039999999 0.074875183 0.030708142 0.4048202 0 0.25019264
0.039999999 0.07602448 0.0307109 0.4048202 0 0.25019264
0.039999999 0.077174835 0.030713702 0.4048202 0 0.25019264
0.039999999 0.07832627 0.030716546 0.4048202 0 0.25019264
0.039999999 0.0794788 0.030719435 0.4048202 0 0.25019264
0.039999999 0.00055823091 0.029315166 0.4048202 0 0.25019264
0.039999999 0.0016747003 0.029315198 0.4048202 0 0.25019264
0.039999999 0.0027911924 0.029315259 0.4048202 0 0.25019264
0.039999999 0.0039077224 0.029315354 0.4048202 0 0.25019264
0.039999999 0.0050243055 0.029315479 0.4048202 0 0.25019264
0.039999999 0.0061409571 0.029315636 0.4048202 0 0.25019264
0.039999999 0.0072576921 0.029315824 0.4048202 0 0.25019264
0.039999999 0.0083745262 0.029316043 0.4048202 0 0.25019264
0.039999999 0.0094914734 0.029316293 0.4048202 0 0.25019264
0.039999999 0.01060855 0.029316576 0.4048202 0 0.25019264
0.039999999 0.011725771 0.029316889 0.4048202 0 0.25019264
0.039999999 0.012843152 0.029317234 0.4048202 0 0.25019264
0.039999999 0.013960706 0.02931761 0.4048202 0 0.25019264
0.039999999 0.015078451 0.029318016 0.4048202 0 0.25019264
0.039999999 0.016196402 0.029318456 0.4048202 0 0.25019264
0.039999999 0.017314572 0.029318925 0.4048202 0 0.25019264
0.039999999 0.018432979 0.029319428 0.4048202 0 0.25019264
0.039999999 0.019551637 0.029319961 0.4048202 0 0.25019264
0.039999999 0.020670561 0.029320525 0.4048202 0 0.25019264
0.039999999 0.021789765 0.029321121 0.4048202 0 0.25019264
0.039999999 0.022909269 0.029321749 0.4048202 0 0.25019264
0.039999999 0.024029082 0.029322408 0.4048202 0 0.25019264
0.039999999 0.025149224 0.029323099 0.4048202 0 0.25019264
0.039999999 0.02626971 0.02932382 0.4048202 0 0.25019264
0.039999999 0.027390553 0.029324574 0.4048202 0 0.25019264
0.039999999 0.028511772 0.02932536 0.4048202 0 0.25019264
0.039999999 0.029633379 0.029326176 0.4048202 0 0.25019264
0.039999999 0.030755389 0.029327026 0.4048202 0 0.25019264
0.039999999 0.031877819 0.029327907 0.4048202 0 0.25019264
0.039999999 0.033000689 0.029328819 0.4048202 0 0.25019264
0.039999999 0.034124006 0.029329764 0.4048202 0 0.25019264
0.039999999 0.035247792 0.029330738 0.4048202 0 0.25019264
0.039999999 0.036372058 0.029331746 0.4048202 0 0.25019264
0.039999999 0.037496824 0.029332787 0.4048202 0 0.25019264
0.039999999 0.038622104 0.029333858 0.4048202 0 0.25019264
0.039999999 0.039747912 0.029334961 0.4048202 0 0.25019264
0.039999999 0.040874265 0.029336097 0.4048202 0 0.25019264
0.039999999 0.04200118 0.029337265 0.4048202 0 0.25019264
0.039999999 0.043128669 0.029338464 0.4048202 0 0.25019264
0.039999999 0.044256754 0.029339695 0.4048202 0 0.25019264
0.039999999 0.045385443 0.029340958 0.4048202 0 0.25019264
0.039999999 0.046514757 0.029342255 0.4048202 0 0.25019264
0.039999999 0.047644712 0.029343583 0.4048202 0 0.25019264
0.039999999 0.048775319 0.029344944 0.4048202 0 0.25019264
0.039999999 0.0499066 0.029346336 0.4048202 0 0.25019264
0.039999999 0.051038571 0.029347761 0.4048202 0 0.25019264
0.039999999 0.052171241 0.029349219 0.4048202 0 0.25019264
0.039999999 0.053304635 0.029350709 0.4048202 0 0.25019264
0.039999999 0.054438762 0.029352231 0.4048202 0 0.25019264
0.039999999 0.055573642 0.029353786 0.4048202 0 0.25019264
0.039999999 0.05670929 0.029355375 0.4048202 0 0.25019264
0.039999999 0.057845723 0.029356996 0.4048202 0 0.25019264
0.039999999 0.058982953 0.029358648 0.4048202 0 0.25019264
0.039999999 0.060121004 0.029360335 0.4048202 0 0.25019264
0.039999999 0.061259888 0.029362055 0.4048202 0 0.25019264
0.039999999 0.062399618 0.029363805 0.4048202 0 0.25019264
0.039999999 0.06354022 0.02936559 0.4048202 0 0.25019264
0.039999999 0.064681701 0.029367408 0.4048202 0 0.25019264
0.039999999 0.065824077 0.029369259 0.4048202 0 0.25019264
0.039999999 0.066967376 0.029371144 0.4048202 0 0.25019264
0.039999999 0.068111606 0.029373061 0.4048202 0 0.25019264
0.039999999 0.069256783 0.029375011 0.4048202 0 0.25019264
0.039999999 0.070402928 0.029376997 0.4048202 0 0.25019264
0.039999999 0.071550056 0.029379014 0.4048202 0 0.25019264
0.039999999 0.072698183 0.029381065 0.4048202 0 0.25019264
0.039999999 0.073847324 0.029383149 0.4048202 0 0.25019264
0.039999999 0.0749975 0.029385267 0.4048202 0 0.25019264
0.039999999 0.076148726 0.02938742 0.4048202 0 0.25019264
0.039999999 0.077301025 0.029389605 0.4048202 0 0.25019264
0.039999999 0.078454405 0.029391825 0.4048202 0 0.25019264
0.039999999 0.079608887 0.029394079 0.4048202 0 0.25019264
0.039999999 0.00055913057 0.028007893 0.4048202 0 0.25019264
0.039999999 0.0016773993 0.028007915 0.4048202 0 0.25019264
0.039999999 0.0027956909 0.02800796 0.4048202 0 0.25019264
0.039999999 0.0039140205 0.028008027 0.4048202 0 0.25019264
0.039999999 0.0050324034 0.028008116 0.4048202 0 0.25019264
0.039999999 0.0061508552 0.028008228 0.4048202 0 0.25019264
0.039999999 0.0072693904 0.028008364 0.4048202 0 0.25019264
0.039999999 0.0083880248 0.028008521 0.4048202 0 0.25019264
0.039999999 0.0095067732 0.028008699 0.4048202 0 0.25019264
0.039999999 0.010625652 0.028008902 0.4048202 0 0.25019264
0.039999999 0.011744675 0.028009126 0.4048202 0 0.25019264
0.039999999 0.012863859 0.028009374 0.4048202 0 0.25019264
0.039999999 0.013983217 0.028009644 0.4048202 0 0.25019264
0.039999999 0.015102767 0.028009934 0.4048202 0 0.25019264
0.039999999 0.016222522 0.028010249 0.4048202 0 0.25019264
0.039999999 0.017342499 0.028010586 0.4048202 0 0.25019264
0.039999999 0.018462714 0.028010946 0.4048202 0 0.25019264
0.039999999 0.019583179 0.028011328 0.4048202 0 0.25019264
0.039999999 0.020703912 0.028011732 0.4048202 0 0.25019264
0.039999999 0.021824928 0.02801216 0.4048202 0 0.25019264
0.039999999 0.02294624 0.028012609 0.4048202 0 0.25019264
0.039999999 0.024067869 0.028013082 0.4048202 0 0.25019264
0.039999999 0.025189824 0.028013576 0.4048202 0 0.25019264
0.039999999 0.026312126 0.028014094 0.4048202 0 0.25019264
0.039999999 0.027434787 0.028014634 0.4048202 0 0.25019264
0.039999999 0.028557822 0.028015198 0.4048202 0 0.25019264
0.039999999 0.029681249 0.028015783 0.4048202 0 0.25019264
0.039999999 0.030805083 0.02801639 0.4048202 0 0.25019264
0.039999999 0.031929336 0.028017022 0.4048202 0 0.25019264
0.039999999 0.033054031 0.028017676 0.4048202 0 0.25019264
0.039999999 0.034179177 0.028018352 0.4048202 0 0.25019264
0.039999999 0.035304789 0.028019052 0.4048202 0 0.25019264
0.039999999 0.036430888 0.028019773 0.4048202 0 0.25019264
0.039999999 0.037557486 0.028020518 0.4048202 0 0.25019264
0.039999999 0.038684599 0.028021287 0.4048202 0 0.25019264
0.039999999 0.039812248 0.028022077 0.4048202 0 0.25019264
0.039999999 0.040940437 0.028022891 0.4048202 0 0.25019264
0.039999999 0.042069193 0.028023727 0.4048202 0 0.25019264
0.039999999 0.04319853 0.028024588 0.4048202 0 0.25019264
0.039999999 0.044328459 0.028025469 0.4048202 0 0.25019264
0.039999999 0.045458999 0.028026376 0.4048202 0 0.25019264
0.039999999 0.046590164 0.028027304 0.4048202 0 0.25019264
0.039999999 0.047721971 0.028028255 0.4048202 0 0.25019264
0.039999999 0.048854437 0.028029231 0.4048202 0 0.25019264
0.039999999 0.049987577 0.028030228 0.4048202 0 0.25019264
0.039999999 0.05112141 0.02803125 0.4048202 0 0.25019264
0.039999999 0.052255947 0.028032294 0.4048202 0 0.25019264
0.039999999 0.053391207 0.028033363 0.4048202 0 0.25019264
0.039999999 0.054527204 0.028034454 0.4048202 0 0.25019264
0.039999999 0.055663958 0.028035568 0.4048202 0 0.25019264
0.039999999 0.056801483 0.028036706 0.4048202 0 0.25019264
0.039999999 0.057939794 0.028037867 0.4048202 0 0.25019264
0.039999999 0.059078913 0.028039051 0.4048202 0 0.25019264
0.039999999 0.060218848 0.02804026 0.4048202 0 0.25019264
0.039999999 0.061359622 0.028041491 0.4048202 0 0.25019264
0.039999999 0.062501252 0.028042747 0.4048202 0 0.25019264
0.039999999 0.063643746 0.028044026 0.4048202 0 0.25019264
0.039999999 0.064787127 0.028045328 0.4048202 0 0.25019264
0.039999999 0.06593141 0.028046655 0.4048202 0 0.25019264
0.039999999 0.067076616 0.028048005 0.4048202 0 0.25019264
0.039999999 0.068222761 0.02804938 0.4048202 0 0.25019264
0.039999999 0.069369853 0.028050778 0.4048202 0 0.25019264
0.039999999 0.07051792 0.0280522 0.4048202 0 0.25019264
0.039999999 0.071666971 0.028053645 0.4048202 0 0.25019264
0.039999999 0.072817028 0.028055115 0.4048202 0 0.25019264
0.039999999 0.073968098 0.028056609 0.4048202 0 0.25019264
0.039999999 0.075120218 0.028058127 0.4048202 0 0.25019264
0.039999999 0.076273382 0.028059669 0.4048202 0 0.25019264
0.039999999 0.077427626 0.028061235 0.4048202 0 0.25019264
0.039999999 0.078582957 0.028062826 0.4048202 0 0.25019264
0.039999999 0.079739392 0.028064441 0.4048202 0 0.25019264
0.039999999 0.00056003308 0.026696444 0.4048202 0 0.25019264
0.039999999 0.0016801069 0.026696457 0.4048202 0 0.25019264
0.039999999 0.0028002036 0.026696485 0.4048202 0 0.25019264
0.039999999 0.0039203386 0.026696524 0.4048202 0 0.25019264
0.039999999 0.0050405269 0.026696578 0.4048202 0 0.25019264
0.039999999 0.0061607845 0.026696647 0.4048202 0 0.25019264
0.039999999 0.007281126 0.026696727 0.4048202 0 0.25019264
0.039999999 0.0084015671 0.026696822 0.4048202 0 0.25019264
0.039999999 0.0095221223 0.02669693 0.4048202 0 0.25019264
0.039999999 0.010642809 0.026697051 0.4048202 0 0.25019264
0.039999999 0.01176364 0.026697187 0.4048202 0 0.25019264
0.039999999 0.012884632 0.026697336 0.4048202 0 0.25019264
0.039999999 0.014005801 0.026697498 0.4048202 0 0.25019264
0.039999999 0.01512716 0.026697673 0.4048202 0 0.25019264
0.039999999 0.016248727 0.026697863 0.4048202 0 0.25019264
0.039999999 0.017370516 0.026698066 0.4048202 0 0.25019264
0.039999999 0.018492542 0.026698282 0.4048202 0 0.25019264
0.039999999 0.019614821 0.026698511 0.4048202 0 0.25019264
0.039999999 0.02073737 0.026698755 0.4048202 0 0.25019264
0.039999999 0.021860201 0.026699012 0.4048202 0 0.25019264
0.039999999 0.022983333 0.026699282 0.4048202 0 0.25019264
0.039999999 0.024106778 0.026699567 0.4048202 0 0.25019264
0.039999999 0.025230555 0.026699865 0.4048202 0 0.25019264
0.039999999 0.026354678 0.026700176 0.4048202 0 0.25019264
0.039999999 0.027479161 0.026700502 0.4048202 0 0.25019264
0.039999999 0.028604021 0.026700841 0.4048202 0 0.25019264
0.039999999 0.029729275 0.026701193 0.4048202 0 0.25019264
0.039999999 0.030854935 0.026701558 0.4048202 0 0.25019264
0.039999999 0.031981017 0.026701938 0.4048202 0 0.25019264
0.039999999 0.033107542 0.026702333 0.4048202 0 0.25019264
0.039999999 0.03423452 0.026702739 0.4048202 0 0.25019264
0.039999999 0.035361972 0.02670316 0.4048202 0 0.25019264
0.039999999 0.036489904 0.026703596 0.4048202 0 0.25019264
0.039999999 0.037618343 0.026704043 0.4048202 0 0.25019264
0.039999999 0.038747299 0.026704505 0.4048202 0 0.25019264
0.039999999 0.039876785 0.026704982 0.4048202 0 0.25019264
0.039999999 0.041006826 0.026705472 0.4048202 0 0.25019264
0.039999999 0.042137429 0.026705975 0.4048202 0 0.25019264
0.039999999 0.043268614 0.026706493 0.4048202 0 0.25019264
0.039999999 0.044400394 0.026707023 0.4048202 0 0.25019264
0.039999999 0.045532789 0.026707569 0.4048202 0 0.25019264
0.039999999 0.04666581 0.026708128 0.4048202 0 0.25019264
0.039999999 0.047799479 0.026708702 0.4048202 0 0.25019264
0.039999999 0.048933808 0.026709288 0.4048202 0 0.25019264
0.039999999 0.050068814 0.026709888 0.4048202 0 0.25019264
0.039999999 0.051204514 0.026710503 0.4048202 0 0.25019264
0.039999999 0.052340921 0.026711132 0.4048202 0 0.25019264
0.039999999 0.053478055 0.026711775 0.4048202 0 0.25019264
0.039999999 0.05461593 0.026712431 0.4048202 0 0.25019264
0.039999999 0.055754565 0.026713103 0.4048202 0 0.25019264
0.039999999 0.056893975 0.026713787 0.4048202 0 0.25019264
0.039999999 0.058034174 0.026714487 0.4048202 0 0.25019264
0.039999999 0.059175178 0.0267152 0.4048202 0 0.25019264
0.039999999 0.06031701 0.026715927 0.4048202 0 0.25019264
0.039999999 0.061459679 0.026716668 0.4048202 0 0.25019264
0.039999999 0.062603205 0.026717424 0.4048202 0 0.25019264
0.039999999 0.063747607 0.026718194 0.4048202 0 0.25019264
0.039999999 0.064892896 0.026718978 0.4048202 0 0.25019264
0.039999999 0.066039093 0.026719777 0.4048202 0 0.25019264
0.039999999 0.067186214 0.026720589 0.4048202 0 0.25019264
0.039999999 0.068334274 0.026721416 0.4048202 0 0.25019264
0.039999999 0.069483288 0.026722258 0.4048202 0 0.25019264
0.039999999 0.070633277 0.026723115 0.4048202 0 0.25019264
0.039999999 0.071784265 0.026723985 0.4048202 0 0.25019264
0.039999999 0.072936252 0.026724869 0.4048202 0 0.25019264
0.039999999 0.074089266 0.026725769 0.4048202 0 0.25019264
0.039999999 0.075243324 0.026726682 0.4048202 0 0.25019264
0.039999999 0.07639844 0.026727611 0.4048202 0 0.25019264
0.039999999 0.077554636 0.026728554 0.4048202 0 0.25019264
0.039999999 0.078711919 0.026729511 0.4048202 0 0.25019264
0.039999999 0.079870321 0.026730483 0.4048202 0 0.25019264
0.039999999 0.0005609385 0.025380781 0.4048202 0 0.25019264
0.039999999 0.0016828231 0.025380785 0.4048202 0 0.25019264
0.039999999 0.0028047308 0.025380794 0.4048202 0 0.25019264
0.039999999 0.0039266767 0.025380809 0.4048202 0 0.25019264
0.039999999 0.0050486769 0.025380826 0.4048202 0 0.25019264
0.039999999 0.0061707455 0.025380848 0.4048202 0 0.25019264
0.039999999 0.0072928988 0.025380876 0.4048202 0 0.25019264
0.039999999 0.0084151523 0.025380908 0.4048202 0 0.25019264
0.039999999 0.0095375208 0.025380943 0.4048202 0 0.25019264
0.039999999 0.010660021 0.025380984 0.4048202 0 0.25019264
0.039999999 0.011782666 0.025381029 0.4048202 0 0.25019264
0.039999999 0.012905472 0.025381079 0.4048202 0 0.25019264
0.039999999 0.014028456 0.025381133 0.4048202 0 0.25019264
0.039999999 0.015151632 0.025381193 0.4048202 0 0.25019264
0.039999999 0.016275015 0.025381256 0.4048202 0 0.25019264
0.039999999 0.017398622 0.025381323 0.4048202 0 0.25019264
0.039999999 0.018522467 0.025381396 0.4048202 0 0.25019264
0.039999999 0.019646566 0.025381472 0.4048202 0 0.25019264
0.039999999 0.020770935 0.025381554 0.4048202 0 0.25019264
0.039999999 0.021895589 0.02538164 0.4048202 0 0.25019264
0.039999999 0.023020543 0.025381731 0.4048202 0 0.25019264
0.039999999 0.024145814 0.025381826 0.4048202 0 0.25019264
0.039999999 0.025271418 0.025381925 0.4048202 0 0.25019264
0.039999999 0.026397366 0.025382029 0.4048202 0 0.25019264
0.039999999 0.027523678 0.025382139 0.4048202 0 0.25019264
0.039999999 0.028650369 0.025382251 0.4048202 0 0.25019264
0.039999999 0.029777454 0.02538237 0.4048202 0 0.25019264
0.039999999 0.030904949 0.025382493 0.4048202 0 0.25019264
0.039999999 0.032032866 0.025382619 0.4048202 0 0.25019264
0.039999999 0.033161227 0.02538275 0.4048202 0 0.25019264
0.039999999 0.034290045 0.025382886 0.4048202 0 0.25019264
0.039999999 0.035419334 0.025383027 0.4048202 0 0.25019264
0.039999999 0.036549114 0.025383173 0.4048202 0 0.25019264
0.039999999 0.037679397 0.025383323 0.4048202 0 0.25019264
0.039999999 0.038810197 0.025383478 0.4048202 0 0.25019264
0.039999999 0.039941534 0.025383636 0.4048202 0 0.25019264
0.039999999 0.041073423 0.0253838 0.4048202 0 0.25019264
0.039999999 0.042205881 0.025383968 0.4048202 0 0.25019264
