# .PCD v0.7 - Point Cloud Data file format
VERSION 0.7
FIELDS x y z vp_x vp_y vp_z
SIZE 4 4 4 4 4 4
TYPE F F F F F F
COUNT 1 1 1 1 1 1
WIDTH 796
HEIGHT 1
VIEWPOINT 0 0 0 1 0 0 0
POINTS 796
DATA ascii
0.039999999 0.05487445 0.031614389 0.4048202 0 -0.25019264
0.039999999 0.056093577 0.03163347 0.4048202 0 -0.25019264
0.039999999 0.057313569 0.031652983 0.4048202 0 -0.25019264
0.039999999 0.05853444 0.031672917 0.4048202 0 -0.25019264
0.00098070002 0.066147432 0.061842356 0.4048202 0 -0.25019264
0.039999999 0.060978901 0.031714074 0.4048202 0 -0.25019264
0.0019990415 0.068681769 0.061101906 0.4048202 0 -0.25019264
0.0026554065 0.069919802 0.060618542 0.4048202 0 -0.25019264
0.039999999 0.064652689 0.031779032 0.4048202 0 -0.25019264
0.039999999 0.065879263 0.031801548 0.4048202 0 -0.25019264
0.039999999 0.067106843 0.031824496 0.4048202 0 -0.25019264
0.039999999 0.068335466 0.031847876 0.4048202 0 -0.25019264
0.039999999 0.069565147 0.031871691 0.4048202 0 -0.25019264
0.039999999 0.070795909 0.031895939 0.4048202 0 -0.25019264
0.039999999 0.072027765 0.031920627 0.4048202 0 -0.25019264
0.039999999 0.073260739 0.03194575 0.4048202 0 -0.25019264
0.039999999 0.074494854 0.031971313 0.4048202 0 -0.25019264
0.039999999 0.07573013 0.031997312 0.4048202 0 -0.25019264
0.039999999 0.076966576 0.032023754 0.4048202 0 -0.25019264
0.039999999 0.078204229 0.032050632 0.4048202 0 -0.25019264
0.039999999 0.079443097 0.032077957 0.4048202 0 -0.25019264
0.039999999 0.00059882173 0.029667668 0.4048202 0 -0.25019264
0.039999999 0.0017964743 0.029668067 0.4048202 0 -0.25019264
0.039999999 0.0029941539 0.029668862 0.4048202 0 -0.25019264
0.039999999 0.0041918787 0.029670054 0.4048202 0 -0.25019264
0.039999999 0.0053896667 0.029671645 0.4048202 0 -0.25019264
0.039999999 0.0065875361 0.029673634 0.4048202 0 -0.25019264
0.039999999 0.0077855047 0.02967602 0.4048202 0 -0.25019264
0.039999999 0.0089835906 0.029678803 0.4048202 0 -0.25019264
0.039999999 0.010181813 0.029681986 0.4048202 0 -0.25019264
0.039999999 0.011380187 0.029685566 0.4048202 0 -0.25019264
0.039999999 0.012578734 0.029689545 0.4048202 0 -0.25019264
0.039999999 0.013777471 0.029693922 0.4048202 0 -0.25019264
0.039999999 0.014976416 0.029698698 0.4048202 0 -0.25019264
0.039999999 0.016175587 0.029703872 0.4048202 0 -0.25019264
0.039999999 0.017375002 0.029709447 0.4048202 0 -0.25019264
0.039999999 0.018574679 0.029715419 0.4048202 0 -0.25019264
0.026604127 0.020500744 0.039999999 0.4048202 0 -0.25019264
0.039999999 0.020974893 0.029728564 0.4048202 0 -0.25019264
0.026622966 0.022988586 0.039999999 0.4048202 0 -0.25019264
0.039999999 0.023376377 0.029743306 0.4048202 0 -0.25019264
0.039999999 0.024577638 0.029751278 0.4048202 0 -0.25019264
0.039999999 0.025779273 0.029759653 0.4048202 0 -0.25019264
0.026667129 0.027967367 0.039999999 0.4048202 0 -0.25019264
0.039999999 0.02818373 0.029777601 0.4048202 0 -0.25019264
0.039999999 0.029386589 0.029787179 0.4048202 0 -0.25019264
0.039999999 0.030589893 0.029797157 0.4048202 0 -0.25019264
0.026719954 0.032951001 0.039999999 0.4048202 0 -0.25019264
0.039999999 0.032997914 0.029818324 0.4048202 0 -0.25019264
0.039999999 0.034202661 0.029829511 0.4048202 0 -0.25019264
0.039999999 0.035407931 0.029841103 0.4048202 0 -0.25019264
0.039999999 0.036613736 0.029853098 0.4048202 0 -0.25019264
0.039999999 0.037820101 0.029865498 0.4048202 0 -0.25019264
0.039999999 0.039027035 0.029878303 0.4048202 0 -0.25019264
0.039999999 0.040234566 0.029891513 0.4048202 0 -0.25019264
0.039999999 0.041442707 0.029905129 0.4048202 0 -0.25019264
0.039999999 0.042651482 0.029919153 0.4048202 0 -0.25019264
0.039999999 0.043860901 0.029933583 0.4048202 0 -0.25019264
0.039999999 0.045070991 0.029948421 0.4048202 0 -0.25019264
0.039999999 0.04628177 0.029963665 0.4048202 0 -0.25019264
0.039999999 0.047493249 0.02997932 0.4048202 0 -0.25019264
0.00096277392 0.053917136 0.059976626 0.4048202 0 -0.25019264
0.00057523453 0.055312902 0.060292516 0.4048202 0 -0.25019264
0.039999999 0.051132116 0.03002874 0.4048202 0 -0.25019264
0.039999999 0.052346613 0.030046035 0.4048202 0 -0.25019264
3.0901014e-05 0.059430059 0.060768165 0.4048202 0 -0.25019264
0.039999999 0.054778021 0.030081861 0.4048202 0 -0.25019264
0.039999999 0.055994973 0.030100392 0.4048202 0 -0.25019264
0.039999999 0.057212781 0.030119337 0.4048202 0 -0.25019264
0.00059087778 0.064743437 0.060421042 0.4048202 0 -0.25019264
0.039999999 0.059651054 0.030158473 0.4048202 0 -0.25019264
0.039999999 0.060871556 0.030178666 0.4048202 0 -0.25019264
0.039999999 0.06209299 0.030199274 0.4048202 0 -0.25019264
0.039999999 0.063315384 0.0302203 0.4048202 0 -0.25019264
0.039999999 0.064538747 0.030241745 0.4048202 0 -0.25019264
0.004177541 0.072220527 0.057802193 0.4048202 0 -0.25019264
0.039999999 0.066988483 0.030285891 0.4048202 0 -0.25019264
0.039999999 0.068214886 0.030308595 0.4048202 0 -0.25019264
0.039999999 0.069442347 0.030331722 0.4048202 0 -0.25019264
0.039999999 0.07067088 0.030355271 0.4048202 0 -0.25019264
0.039999999 0.071900509 0.030379241 0.4048202 0 -0.25019264
0.039999999 0.073131248 0.030403638 0.4048202 0 -0.25019264
0.039999999 0.07436312 0.03042846 0.4048202 0 -0.25019264
0.039999999 0.075596146 0.030453708 0.4048202 0 -0.25019264
0.039999999 0.07683035 0.030479383 0.4048202 0 -0.25019264
0.030960742 0.079999998 0.037460428 0.4048202 0 -0.25019264
0.039999999 0.079302348 0.030532019 0.4048202 0 -0.25019264
0.039999999 0.00059777976 0.028153561 0.4048202 0 -0.25019264
0.024473747 0.0018696708 0.039999999 0.4048202 0 -0.25019264
0.039999999 0.0029889438 0.028154718 0.4048202 0 -0.25019264
0.039999999 0.0041845841 0.028155876 0.4048202 0 -0.25019264
0.039999999 0.0053802878 0.02815742 0.4048202 0 -0.25019264
0.039999999 0.006576072 0.02815935 0.4048202 0 -0.25019264
0.039999999 0.0077719553 0.028161665 0.4048202 0 -0.25019264
0.039999999 0.0089679556 0.028164368 0.4048202 0 -0.25019264
0.039999999 0.01016409 0.028167456 0.4048202 0 -0.25019264
0.039999999 0.011360379 0.02817093 0.4048202 0 -0.25019264
0.039999999 0.012556838 0.028174791 0.4048202 0 -0.25019264
0.039999999 0.013753486 0.02817904 0.4048202 0 -0.25019264
0.039999999 0.014950342 0.028183674 0.4048202 0 -0.25019264
0.039999999 0.016147422 0.028188696 0.4048202 0 -0.25019264
0.039999999 0.017344745 0.028194105 0.4048202 0 -0.25019264
0.039999999 0.018542329 0.028199902 0.4048202 0 -0.25019264
0.039999999 0.019740194 0.028206086 0.4048202 0 -0.25019264
0.039999999 0.020938355 0.028212657 0.4048202 0 -0.25019264
0.039999999 0.022136834 0.028219618 0.4048202 0 -0.25019264
0.039999999 0.023335643 0.028226966 0.4048202 0 -0.25019264
0.039999999 0.024534807 0.028234702 0.4048202 0 -0.25019264
0.039999999 0.025734341 0.028242828 0.4048202 0 -0.25019264
0.039999999 0.026934262 0.028251342 0.4048202 0 -0.25019264
0.039999999 0.02813459 0.028260248 0.4048202 0 -0.25019264
0.039999999 0.029335342 0.028269541 0.4048202 0 -0.25019264
0.024644857 0.03182181 0.039999999 0.4048202 0 -0.25019264
0.039999999 0.031738196 0.028289301 0.4048202 0 -0.25019264
0.039999999 0.032940336 0.028299768 0.4048202 0 -0.25019264
0.039999999 0.034142971 0.028310625 0.4048202 0 -0.25019264
0.039999999 0.035346124 0.028321873 0.4048202 0 -0.25019264
0.039999999 0.03654981 0.028333513 0.4048202 0 -0.25019264
0.039999999 0.037754051 0.028345548 0.4048202 0 -0.25019264
0.039999999 0.038958866 0.028357973 0.4048202 0 -0.25019264
0.039999999 0.04016427 0.028370794 0.4048202 0 -0.25019264
0.039999999 0.041370284 0.028384008 0.4048202 0 -0.25019264
0.0051410082 0.046645198 0.055017237 0.4048202 0 -0.25019264
0.039999999 0.043784209 0.028411621 0.4048202 0 -0.25019264
0.039999999 0.044992164 0.028426019 0.4048202 0 -0.25019264
0.039999999 0.046200797 0.028440814 0.4048202 0 -0.25019264
0.039999999 0.047410138 0.028456006 0.4048202 0 -0.25019264
0.039999999 0.048620198 0.028471595 0.4048202 0 -0.25019264
0.00060318678 0.055212229 0.058582164 0.4048202 0 -0.25019264
0.039999999 0.051042557 0.028503966 0.4048202 0 -0.25019264
0.039999999 0.052254893 0.02852075 0.4048202 0 -0.25019264
0.039999999 0.053468026 0.028537933 0.4048202 0 -0.25019264
0.039999999 0.054681979 0.028555516 0.4048202 0 -0.25019264
0.039999999 0.055896763 0.0285735 0.4048202 0 -0.25019264
0.039999999 0.057112403 0.028591886 0.4048202 0 -0.25019264
0.039999999 0.058328919 0.028610675 0.4048202 0 -0.25019264
0.039999999 0.059546325 0.028629865 0.4048202 0 -0.25019264
0.039999999 0.060764641 0.028649461 0.4048202 0 -0.25019264
0.039999999 0.061983891 0.02866946 0.4048202 0 -0.25019264
0.039999999 0.063204095 0.028689863 0.4048202 0 -0.25019264
0.039999999 0.06442526 0.028710674 0.4048202 0 -0.25019264
0.039999999 0.065647423 0.028731892 0.4048202 0 -0.25019264
0.039999999 0.066870593 0.028753515 0.4048202 0 -0.25019264
0.039999999 0.06809479 0.028775549 0.4048202 0 -0.25019264
0.039999999 0.069320038 0.028797992 0.4048202 0 -0.25019264
0.0088144783 0.076576792 0.052671444 0.4048202 0 -0.25019264
0.039999999 0.07177376 0.028844105 0.4048202 0 -0.25019264
0.039999999 0.073002279 0.028867781 0.4048202 0 -0.25019264
0.039999999 0.074231915 0.028891869 0.4048202 0 -0.25019264
0.039999999 0.075462706 0.02891637 0.4048202 0 -0.25019264
0.039999999 0.076694667 0.028941285 0.4048202 0 -0.25019264
0.039999999 0.077927813 0.028966617 0.4048202 0 -0.25019264
0.036138851 0.079999998 0.031947177 0.4048202 0 -0.25019264
0.039999999 0.00059674197 0.026645489 0.4048202 0 -0.25019264
0.039999999 0.0017902348 0.026645863 0.4048202 0 -0.25019264
0.039999999 0.0029837545 0.026646612 0.4048202 0 -0.25019264
0.022404388 0.0043787947 0.039999999 0.4048202 0 -0.25019264
0.039999999 0.0053709461 0.026649233 0.4048202 0 -0.25019264
0.039999999 0.0065646539 0.026651103 0.4048202 0 -0.25019264
0.039999999 0.00775846 0.026653349 0.4048202 0 -0.25019264
0.022415763 0.0093838852 0.039999999 0.4048202 0 -0.25019264
0.039999999 0.01014644 0.026658965 0.4048202 0 -0.25019264
0.039999999 0.011340649 0.026662335 0.4048202 0 -0.25019264
0.039999999 0.012535029 0.026666079 0.4048202 0 -0.25019264
0.039999999 0.013729597 0.026670199 0.4048202 0 -0.25019264
0.039999999 0.014924371 0.026674693 0.4048202 0 -0.25019264
0.02244835 0.016894879 0.039999999 0.4048202 0 -0.25019264
0.039999999 0.017314609 0.026684809 0.4048202 0 -0.25019264
0.039999999 0.018510109 0.026690431 0.4048202 0 -0.25019264
0.039999999 0.019705888 0.026696429 0.4048202 0 -0.25019264
0.039999999 0.020901963 0.026702801 0.4048202 0 -0.25019264
0.039999999 0.022098353 0.026709551 0.4048202 0 -0.25019264
0.039999999 0.023295075 0.026716677 0.4048202 0 -0.25019264
0.022509955 0.025666337 0.039999999 0.4048202 0 -0.25019264
0.039999999 0.025689587 0.026732059 0.4048202 0 -0.25019264
0.022532234 0.028174797 0.039999999 0.4048202 0 -0.25019264
0.039999999 0.028085647 0.026748953 0.4048202 0 -0.25019264
0.039999999 0.029284302 0.026757967 0.4048202 0 -0.25019264
0.022569558 0.031939838 0.039999999 0.4048202 0 -0.25019264
0.039999999 0.031682953 0.02677713 0.4048202 0 -0.25019264
0.039999999 0.032882988 0.026787279 0.4048202 0 -0.25019264
0.039999999 0.034083519 0.026797807 0.4048202 0 -0.25019264
0.022626631 0.036964875 0.039999999 0.4048202 0 -0.25019264
0.022642206 0.038222115 0.039999999 0.4048202 0 -0.25019264
0.039999999 0.03768827 0.026831675 0.4048202 0 -0.25019264
0.039999999 0.038890965 0.026843727 0.4048202 0 -0.25019264
0.039999999 0.040094253 0.02685616 0.4048202 0 -0.25019264
0.039999999 0.041298144 0.026868975 0.4048202 0 -0.25019264
0.0052177021 0.046554908 0.053298742 0.4048202 0 -0.25019264
0.0039932779 0.048021663 0.054243591 0.4048202 0 -0.25019264
0.039999999 0.04491365 0.026909716 0.4048202 0 -0.25019264
0.039999999 0.046120152 0.026924063 0.4048202 0 -0.25019264
0.039999999 0.047327355 0.026938796 0.4048202 0 -0.25019264
0.0010170866 0.053721521 0.056568444 0.4048202 0 -0.25019264
0.039999999 0.049743939 0.026969416 0.4048202 0 -0.25019264
0.039999999 0.050953355 0.026985306 0.4048202 0 -0.25019264
0.039999999 0.052163541 0.027001582 0.4048202 0 -0.25019264
0.039999999 0.053374525 0.027018245 0.4048202 0 -0.25019264
0.039999999 0.054586321 0.027035298 0.4048202 0 -0.25019264
0.039999999 0.055798952 0.027052738 0.4048202 0 -0.25019264
0.039999999 0.057012428 0.027070569 0.4048202 0 -0.25019264
0.00053057692 0.064526252 0.057087503 0.4048202 0 -0.25019264
0.0008883116 0.065814681 0.056836214 0.4048202 0 -0.25019264
0.039999999 0.060658157 0.027126402 0.4048202 0 -0.25019264
0.039999999 0.061875232 0.027145796 0.4048202 0 -0.25019264
0.039999999 0.063093252 0.027165582 0.4048202 0 -0.25019264
0.039999999 0.064312235 0.027185764 0.4048202 0 -0.25019264
0.039999999 0.065532207 0.027206339 0.4048202 0 -0.25019264
0.039999999 0.066753186 0.02722731 0.4048202 0 -0.25019264
0.039999999 0.067975186 0.027248677 0.4048202 0 -0.25019264
0.039999999 0.069198228 0.02727044 0.4048202 0 -0.25019264
0.039999999 0.070422336 0.0272926 0.4048202 0 -0.25019264
0.010312256 0.077477947 0.049897738 0.4048202 0 -0.25019264
0.039999999 0.072873823 0.027338119 0.4048202 0 -0.25019264
0.039999999 0.074101247 0.027361477 0.4048202 0 -0.25019264
0.039999999 0.07532981 0.027385237 0.4048202 0 -0.25019264
0.039999999 0.076559536 0.027409399 0.4048202 0 -0.25019264
0.02963767 0.079999998 0.035319652 0.4048202 0 -0.25019264
0.039999999 0.079022557 0.027458932 0.4048202 0 -0.25019264
0.039999999 0.00059570826 0.025143398 0.4048202 0 -0.25019264
0.039999999 0.0017871336 0.025143761 0.4048202 0 -0.25019264
0.039999999 0.0029785857 0.025144488 0.4048202 0 -0.25019264
0.039999999 0.0041700825 0.025145575 0.4048202 0 -0.25019264
0.039999999 0.0053616418 0.025147026 0.4048202 0 -0.25019264
0.039999999 0.0065532811 0.025148839 0.4048202 0 -0.25019264
0.039999999 0.0077450182 0.025151016 0.4048202 0 -0.25019264
0.039999999 0.0089368718 0.025153555 0.4048202 0 -0.25019264
0.039999999 0.010128859 0.025156457 0.4048202 0 -0.25019264
0.039999999 0.011320998 0.025159722 0.4048202 0 -0.25019264
0.039999999 0.012513306 0.025163352 0.4048202 0 -0.25019264
0.039999999 0.013705802 0.025167344 0.4048202 0 -0.25019264
0.039999999 0.014898503 0.025171699 0.4048202 0 -0.25019264
0.039999999 0.016091427 0.025176419 0.4048202 0 -0.25019264
0.039999999 0.017284593 0.025181502 0.4048202 0 -0.25019264
0.039999999 0.018478017 0.02518695 0.4048202 0 -0.25019264
0.039999999 0.01967172 0.025192762 0.4048202 0 -0.25019264
0.039999999 0.020865716 0.025198938 0.4048202 0 -0.25019264
0.039999999 0.022060025 0.025205478 0.4048202 0 -0.25019264
0.039999999 0.023254665 0.025212385 0.4048202 0 -0.25019264
0.039999999 0.024449654 0.025219655 0.4048202 0 -0.25019264
0.039999999 0.02564501 0.025227292 0.4048202 0 -0.25019264
0.039999999 0.026840752 0.025235293 0.4048202 0 -0.25019264
0.039999999 0.028036896 0.025243662 0.4048202 0 -0.25019264
0.039999999 0.029233463 0.025252396 0.4048202 0 -0.25019264
0.039999999 0.030430468 0.025261499 0.4048202 0 -0.25019264
0.039999999 0.031627931 0.025270967 0.4048202 0 -0.25019264
0.039999999 0.032825869 0.025280802 0.4048202 0 -0.25019264
0.039999999 0.034024302 0.025291005 0.4048202 0 -0.25019264
0.039999999 0.035223246 0.025301578 0.4048202 0 -0.25019264
0.039999999 0.036422722 0.025312517 0.4048202 0 -0.25019264
0.039999999 0.037622746 0.025323827 0.4048202 0 -0.25019264
0.039999999 0.038823336 0.025335504 0.4048202 0 -0.25019264
0.039999999 0.040024515 0.025347553 0.4048202 0 -0.25019264
0.039999999 0.041226294 0.025359971 0.4048202 0 -0.25019264
0.039999999 0.042428698 0.02537276 0.4048202 0 -0.25019264
0.039999999 0.043631744 0.02538592 0.4048202 0 -0.25019264
0.0030769135 0.049373198 0.05329185 0.4048202 0 -0.25019264
0.0022733219 0.050800886 0.053914238 0.4048202 0 -0.25019264
0.039999999 0.047244906 0.025427632 0.4048202 0 -0.25019264
0.0010440749 0.053624321 0.054874897 0.4048202 0 -0.25019264
0.039999999 0.049657226 0.025457306 0.4048202 0 -0.25019264
0.00035422892 0.056392059 0.055429827 0.4048202 0 -0.25019264
0.039999999 0.052072559 0.025488475 0.4048202 0 -0.25019264
0.039999999 0.053281397 0.025504623 0.4048202 0 -0.25019264
0.039999999 0.054491047 0.025521148 0.4048202 0 -0.25019264
0.039999999 0.055701528 0.025538048 0.4048202 0 -0.25019264
0.039999999 0.056912854 0.025555326 0.4048202 0 -0.25019264
0.039999999 0.058125045 0.025572982 0.4048202 0 -0.25019264
0.039999999 0.059338119 0.025591018 0.4048202 0 -0.25019264
0.039999999 0.060552102 0.025609432 0.4048202 0 -0.25019264
0.039999999 0.061767004 0.025628226 0.4048202 0 -0.25019264
0.039999999 0.06298285 0.0256474 0.4048202 0 -0.25019264
0.039999999 0.064199664 0.025666956 0.4048202 0 -0.25019264
0.039999999 0.065417454 0.025686894 0.4048202 0 -0.25019264
0.039999999 0.066636242 0.025707215 0.4048202 0 -0.25019264
0.039999999 0.067856051 0.02572792 0.4048202 0 -0.25019264
0.039999999 0.069076903 0.025749009 0.4048202 0 -0.25019264
0.0085261352 0.076363653 0.049578447 0.4048202 0 -0.25019264
0.039999999 0.071521804 0.025792345 0.4048202 0 -0.25019264
0.039999999 0.072745889 0.025814593 0.4048202 0 -0.25019264
0.039999999 0.0739711 0.025837228 0.4048202 0 -0.25019264
0.039999999 0.075197443 0.025860252 0.4048202 0 -0.25019264
0.039999999 0.076424941 0.025883665 0.4048202 0 -0.25019264
0.039999999 0.077653624 0.02590747 0.4048202 0 -0.25019264
0.039999999 0.078883506 0.025931666 0.4048202 0 -0.25019264
0.039999999 0.00059467863 0.023647232 0.4048202 0 -0.25019264
0.039999999 0.0017840447 0.023647584 0.4048202 0 -0.25019264
0.039999999 0.0029734373 0.023648286 0.4048202 0 -0.25019264
0.039999999 0.0041628745 0.023649339 0.4048202 0 -0.25019264
0.039999999 0.0053523737 0.023650745 0.4048202 0 -0.25019264
0.039999999 0.006541953 0.0236525 0.4048202 0 -0.25019264
0.039999999 0.0077316295 0.023654608 0.4048202 0 -0.25019264
0.039999999 0.0089214221 0.023657067 0.4048202 0 -0.25019264
0.039999999 0.010111348 0.023659877 0.4048202 0 -0.25019264
0.039999999 0.011301424 0.023663038 0.4048202 0 -0.25019264
0.039999999 0.01249167 0.023666553 0.4048202 0 -0.25019264
0.039999999 0.013682101 0.023670418 0.4048202 0 -0.25019264
0.039999999 0.014872737 0.023674637 0.4048202 0 -0.25019264
0.039999999 0.016063597 0.023679206 0.4048202 0 -0.25019264
0.039999999 0.017254695 0.023684129 0.4048202 0 -0.25019264
0.039999999 0.018446052 0.023689404 0.4048202 0 -0.25019264
0.039999999 0.019637683 0.023695031 0.4048202 0 -0.25019264
0.039999999 0.020829611 0.023701012 0.4048202 0 -0.25019264
0.039999999 0.022021849 0.023707345 0.4048202 0 -0.25019264
0.039999999 0.023214417 0.023714032 0.4048202 0 -0.25019264
0.039999999 0.024407331 0.023721073 0.4048202 0 -0.25019264
0.039999999 0.02560061 0.023728468 0.4048202 0 -0.25019264
0.039999999 0.026794275 0.023736216 0.4048202 0 -0.25019264
0.039999999 0.027988341 0.023744319 0.4048202 0 -0.25019264
0.039999999 0.029182825 0.023752777 0.4048202 0 -0.25019264
0.039999999 0.030377747 0.023761589 0.4048202 0 -0.25019264
0.039999999 0.031573124 0.023770757 0.4048202 0 -0.25019264
0.039999999 0.032768976 0.023780283 0.4048202 0 -0.25019264
0.039999999 0.033965319 0.023790162 0.4048202 0 -0.25019264
0.039999999 0.035162173 0.023800399 0.4048202 0 -0.25019264
0.039999999 0.036359556 0.023810992 0.4048202 0 -0.25019264
0.039999999 0.037557483 0.023821943 0.4048202 0 -0.25019264
0.039999999 0.038755976 0.023833251 0.4048202 0 -0.25019264
0.039999999 0.039955053 0.023844916 0.4048202 0 -0.25019264
0.039999999 0.041154731 0.023856942 0.4048202 0 -0.25019264
0.039999999 0.042355027 0.023869324 0.4048202 0 -0.25019264
0.039999999 0.043555964 0.023882069 0.4048202 0 -0.25019264
0.039999999 0.044757556 0.023895171 0.4048202 0 -0.25019264
0.039999999 0.045959823 0.023908634 0.4048202 0 -0.25019264
0.039999999 0.047162782 0.023922458 0.4048202 0 -0.25019264
0.0010819797 0.053526055 0.053180002 0.4048202 0 -0.25019264
0.039999999 0.049570858 0.02395119 0.4048202 0 -0.25019264
0.00037068929 0.056291655 0.053747129 0.4048202 0 -0.25019264
0.0001462678 0.05766055 0.053932719 0.4048202 0 -0.25019264
0.039999999 0.053188641 0.023997009 0.4048202 0 -0.25019264
1.937886e-05 0.060357425 0.054063186 0.4048202 0 -0.25019264
0.039999999 0.055604491 0.024029374 0.4048202 0 -0.25019264
0.039999999 0.056813672 0.024046104 0.4048202 0 -0.25019264
0.039999999 0.058023717 0.0240632 0.4048202 0 -0.25019264
0.039999999 0.059234641 0.024080662 0.4048202 0 -0.25019264
0.039999999 0.060446467 0.024098493 0.4048202 0 -0.25019264
0.0017400491 0.06812562 0.052884452 0.4048202 0 -0.25019264
0.039999999 0.062872894 0.024135258 0.4048202 0 -0.25019264
0.039999999 0.064087532 0.024154194 0.4048202 0 -0.25019264
0.039999999 0.065303154 0.0241735 0.4048202 0 -0.25019264
0.0047887089 0.072940044 0.050676025 0.4048202 0 -0.25019264
0.039999999 0.067737393 0.024213225 0.4048202 0 -0.25019264
0.0069998521 0.075193547 0.049057126 0.4048202 0 -0.25019264
0.039999999 0.070175782 0.024254438 0.4048202 0 -0.25019264
0.039999999 0.071396574 0.024275605 0.4048202 0 -0.25019264
0.039999999 0.072618462 0.024297146 0.4048202 0 -0.25019264
0.039999999 0.073841467 0.024319064 0.4048202 0 -0.25019264
0.039999999 0.075065605 0.024341358 0.4048202 0 -0.25019264
0.039999999 0.076290891 0.024364028 0.4048202 0 -0.25019264
0.039999999 0.077517353 0.024387076 0.4048202 0 -0.25019264
0.039999999 0.078745008 0.024410505 0.4048202 0 -0.25019264
0.039999999 0.079973876 0.024434311 0.4048202 0 -0.25019264
0.039999999 0.00059365301 0.022156933 0.4048202 0 -0.25019264
0.039999999 0.0017809679 0.022157274 0.4048202 0 -0.25019264
0.039999999 0.0029683092 0.022157954 0.4048202 0 -0.25019264
0.039999999 0.004155695 0.022158973 0.4048202 0 -0.25019264
0.039999999 0.0053431424 0.022160333 0.4048202 0 -0.25019264
0.039999999 0.0065306695 0.022162031 0.4048202 0 -0.25019264
0.039999999 0.0077182935 0.022164069 0.4048202 0 -0.25019264
0.039999999 0.0089060329 0.02216645 0.4048202 0 -0.25019264
0.039999999 0.010093905 0.022169169 0.4048202 0 -0.25019264
0.039999999 0.011281927 0.022172228 0.4048202 0 -0.25019264
0.039999999 0.012470118 0.022175627 0.4048202 0 -0.25019264
0.039999999 0.013658494 0.022179367 0.4048202 0 -0.25019264
0.039999999 0.014847074 0.022183448 0.4048202 0 -0.25019264
0.039999999 0.016035875 0.02218787 0.4048202 0 -0.25019264
0.039999999 0.017224915 0.022192633 0.4048202 0 -0.25019264
0.039999999 0.018414212 0.022197736 0.4048202 0 -0.25019264
0.039999999 0.019603783 0.022203181 0.4048202 0 -0.25019264
0.039999999 0.020793647 0.022208966 0.4048202 0 -0.25019264
0.039999999 0.021983823 0.022215094 0.4048202 0 -0.25019264
0.039999999 0.023174325 0.022221563 0.4048202 0 -0.25019264
0.039999999 0.024365174 0.022228375 0.4048202 0 -0.25019264
0.039999999 0.025556386 0.022235529 0.4048202 0 -0.25019264
0.039999999 0.026747979 0.022243027 0.4048202 0 -0.25019264
0.039999999 0.027939973 0.022250867 0.4048202 0 -0.25019264
0.039999999 0.029132387 0.022259049 0.4048202 0 -0.25019264
0.039999999 0.030325234 0.022267576 0.4048202 0 -0.25019264
0.039999999 0.031518534 0.022276446 0.4048202 0 -0.25019264
0.039999999 0.032712307 0.022285661 0.4048202 0 -0.25019264
0.039999999 0.033906572 0.02229522 0.4048202 0 -0.25019264
0.039999999 0.035101339 0.022305124 0.4048202 0 -0.25019264
0.039999999 0.036296636 0.022315374 0.4048202 0 -0.25019264
0.039999999 0.037492476 0.022325968 0.4048202 0 -0.25019264
0.039999999 0.038688879 0.02233691 0.4048202 0 -0.25019264
0.039999999 0.039885864 0.022348195 0.4048202 0 -0.25019264
0.039999999 0.041083448 0.022359829 0.4048202 0 -0.25019264
0.039999999 0.042281646 0.022371812 0.4048202 0 -0.25019264
0.039999999 0.043480482 0.022384141 0.4048202 0 -0.25019264
0.039999999 0.04467997 0.022396816 0.4048202 0 -0.25019264
0.039999999 0.045880131 0.022409841 0.4048202 0 -0.25019264
0.039999999 0.047080982 0.022423217 0.4048202 0 -0.25019264
0.039999999 0.048282541 0.022436941 0.4048202 0 -0.25019264
0.039999999 0.04948483 0.022451015 0.4048202 0 -0.25019264
0.039999999 0.050687864 0.02246544 0.4048202 0 -0.25019264
0.039999999 0.051891666 0.022480216 0.4048202 0 -0.25019264
0.039999999 0.053096246 0.022495344 0.4048202 0 -0.25019264
0.039999999 0.054301631 0.022510825 0.4048202 0 -0.25019264
8.571033e-05 0.061580844 0.052364361 0.4048202 0 -0.25019264
0.00023756686 0.062896341 0.052268792 0.4048202 0 -0.25019264
0.00045160763 0.064201914 0.052127108 0.4048202 0 -0.25019264
0.039999999 0.05913157 0.02257628 0.4048202 0 -0.25019264
0.039999999 0.060341246 0.02259353 0.4048202 0 -0.25019264
0.039999999 0.061551839 0.022611136 0.4048202 0 -0.25019264
0.039999999 0.062763371 0.022629099 0.4048202 0 -0.25019264
0.039999999 0.063975848 0.022647418 0.4048202 0 -0.25019264
0.039999999 0.065189302 0.022666097 0.4048202 0 -0.25019264
0.039999999 0.066403754 0.022685133 0.4048202 0 -0.25019264
0.039999999 0.067619212 0.022704531 0.4048202 0 -0.25019264
0.039999999 0.068835698 0.022724286 0.4048202 0 -0.25019264
0.039999999 0.070053242 0.022744404 0.4048202 0 -0.25019264
0.039999999 0.071271852 0.022764882 0.4048202 0 -0.25019264
0.011625133 0.078129768 0.044017345 0.4048202 0 -0.25019264
0.039999999 0.073712356 0.022806928 0.4048202 0 -0.25019264
0.039999999 0.074934289 0.022828495 0.4048202 0 -0.25019264
0.039999999 0.076157376 0.02285043 0.4048202 0 -0.25019264
0.039999999 0.077381626 0.022872727 0.4048202 0 -0.25019264
0.033535317 0.079999998 0.027734565 0.4048202 0 -0.25019264
0.039999999 0.079833716 0.022918426 0.4048202 0 -0.25019264
0.039999999 0.0005926314 0.02067245 0.4048202 0 -0.25019264
0.039999999 0.0017779031 0.020672778 0.4048202 0 -0.25019264
0.039999999 0.0029632011 0.020673435 0.4048202 0 -0.25019264
0.039999999 0.0041485433 0.020674421 0.4048202 0 -0.25019264
0.039999999 0.005333947 0.020675736 0.4048202 0 -0.25019264
0.039999999 0.0065194299 0.020677377 0.4048202 0 -0.25019264
0.039999999 0.0077050095 0.020679347 0.4048202 0 -0.25019264
0.039999999 0.0088907033 0.020681648 0.4048202 0 -0.25019264
0.039999999 0.01007653 0.020684276 0.4048202 0 -0.25019264
0.039999999 0.011262506 0.020687234 0.4048202 0 -0.25019264
0.039999999 0.01244865 0.020690519 0.4048202 0 -0.25019264
0.039999999 0.013634978 0.020694135 0.4048202 0 -0.25019264
0.039999999 0.014821509 0.02069808 0.4048202 0 -0.25019264
0.039999999 0.016008262 0.020702355 0.4048202 0 -0.25019264
0.039999999 0.017195251 0.020706957 0.4048202 0 -0.25019264
0.039999999 0.018382495 0.020711891 0.4048202 0 -0.25019264
0.039999999 0.019570015 0.020717155 0.4048202 0 -0.25019264
0.039999999 0.020757824 0.020722749 0.4048202 0 -0.25019264
0.039999999 0.021945944 0.020728672 0.4048202 0 -0.25019264
0.039999999 0.02313439 0.020734925 0.4048202 0 -0.25019264
0.039999999 0.02432318 0.020741511 0.4048202 0 -0.25019264
0.039999999 0.025512334 0.020748425 0.4048202 0 -0.25019264
0.039999999 0.026701866 0.020755673 0.4048202 0 -0.25019264
0.039999999 0.027891798 0.020763252 0.4048202 0 -0.25019264
0.039999999 0.029082144 0.020771163 0.4048202 0 -0.25019264
0.039999999 0.030272925 0.020779405 0.4048202 0 -0.25019264
0.039999999 0.031464159 0.020787979 0.4048202 0 -0.25019264
0.039999999 0.032655861 0.020796886 0.4048202 0 -0.25019264
0.039999999 0.033848051 0.020806126 0.4048202 0 -0.25019264
0.039999999 0.035040747 0.0208157 0.4048202 0 -0.25019264
0.039999999 0.036233965 0.020825608 0.4048202 0 -0.25019264
0.039999999 0.037427727 0.020835849 0.4048202 0 -0.25019264
0.039999999 0.038622048 0.020846425 0.4048202 0 -0.25019264
0.039999999 0.039816946 0.020857336 0.4048202 0 -0.25019264
0.039999999 0.041012444 0.020868581 0.4048202 0 -0.25019264
0.039999999 0.042208552 0.020880163 0.4048202 0 -0.25019264
0.039999999 0.043405294 0.02089208 0.4048202 0 -0.25019264
0.039999999 0.044602688 0.020904334 0.4048202 0 -0.25019264
0.039999999 0.045800753 0.020916926 0.4048202 0 -0.25019264
0.039999999 0.046999503 0.020929854 0.4048202 0 -0.25019264
0.039999999 0.048198961 0.02094312 0.4048202 0 -0.25019264
0.039999999 0.049399141 0.020956725 0.4048202 0 -0.25019264
0.039999999 0.050600067 0.020970669 0.4048202 0 -0.25019264
0.039999999 0.051801752 0.020984953 0.4048202 0 -0.25019264
0.039999999 0.053004216 0.020999575 0.4048202 0 -0.25019264
0.039999999 0.054207481 0.02101454 0.4048202 0 -0.25019264
7.9966805e-05 0.061474912 0.050708052 0.4048202 0 -0.25019264
0.039999999 0.056616481 0.021045491 0.4048202 0 -0.25019264
0.039999999 0.057822257 0.02106148 0.4048202 0 -0.25019264
0.039999999 0.059028905 0.02107781 0.4048202 0 -0.25019264
0.0011523935 0.066650674 0.049982291 0.4048202 0 -0.25019264
0.0016516383 0.06790372 0.049629852 0.4048202 0 -0.25019264
0.039999999 0.062654279 0.021128869 0.4048202 0 -0.25019264
0.039999999 0.063864611 0.021146577 0.4048202 0 -0.25019264
0.039999999 0.065075904 0.021164631 0.4048202 0 -0.25019264
0.039999999 0.066288196 0.021183033 0.4048202 0 -0.25019264
0.039999999 0.067501493 0.021201782 0.4048202 0 -0.25019264
0.039999999 0.068715811 0.02122088 0.4048202 0 -0.25019264
0.039999999 0.069931179 0.021240326 0.4048202 0 -0.25019264
0.039999999 0.071147613 0.02126012 0.4048202 0 -0.25019264
0.039999999 0.072365128 0.021280266 0.4048202 0 -0.25019264
0.039999999 0.073583752 0.021300763 0.4048202 0 -0.25019264
0.039999999 0.074803494 0.021321611 0.4048202 0 -0.25019264
0.039999999 0.076024383 0.021342812 0.4048202 0 -0.25019264
0.039999999 0.077246435 0.021364367 0.4048202 0 -0.25019264
0.039999999 0.078469664 0.021386275 0.4048202 0 -0.25019264
0.039999999 0.079694107 0.021408537 0.4048202 0 -0.25019264
0.039999999 0.00059161376 0.019193726 0.4048202 0 -0.25019264
0.039999999 0.0017748502 0.019194042 0.4048202 0 -0.25019264
0.039999999 0.0029581129 0.019194677 0.4048202 0 -0.25019264
0.039999999 0.0041414192 0.019195629 0.4048202 0 -0.25019264
0.039999999 0.005324787 0.019196898 0.4048202 0 -0.25019264
0.039999999 0.006508234 0.019198485 0.4048202 0 -0.25019264
0.039999999 0.0076917768 0.019200388 0.4048202 0 -0.25019264
0.039999999 0.0088754343 0.019202609 0.4048202 0 -0.25019264
0.039999999 0.010059223 0.019205147 0.4048202 0 -0.25019264
0.039999999 0.011243161 0.019208003 0.4048202 0 -0.25019264
0.039999999 0.012427265 0.019211177 0.4048202 0 -0.25019264
0.039999999 0.013611554 0.019214669 0.4048202 0 -0.25019264
0.039999999 0.014796045 0.019218478 0.4048202 0 -0.25019264
0.039999999 0.015980754 0.019222606 0.4048202 0 -0.25019264
0.039999999 0.017165702 0.019227052 0.4048202 0 -0.25019264
0.039999999 0.018350903 0.019231817 0.4048202 0 -0.25019264
0.039999999 0.019536378 0.0192369 0.4048202 0 -0.25019264
0.039999999 0.020722141 0.019242302 0.4048202 0 -0.25019264
0.039999999 0.021908212 0.019248022 0.4048202 0 -0.25019264
0.039999999 0.023094611 0.019254062 0.4048202 0 -0.25019264
0.039999999 0.024281351 0.019260421 0.4048202 0 -0.25019264
0.039999999 0.025468452 0.019267101 0.4048202 0 -0.25019264
0.039999999 0.026655931 0.019274099 0.4048202 0 -0.25019264
0.039999999 0.027843807 0.019281419 0.4048202 0 -0.25019264
0.039999999 0.029032098 0.019289058 0.4048202 0 -0.25019264
0.039999999 0.03022082 0.019297017 0.4048202 0 -0.25019264
0.039999999 0.031409994 0.019305298 0.4048202 0 -0.25019264
0.039999999 0.032599632 0.019313902 0.4048202 0 -0.25019264
0.039999999 0.033789758 0.019322826 0.4048202 0 -0.25019264
0.039999999 0.034980386 0.01933207 0.4048202 0 -0.25019264
0.039999999 0.036171537 0.019341638 0.4048202 0 -0.25019264
0.039999999 0.037363227 0.019351529 0.4048202 0 -0.25019264
0.039999999 0.038555473 0.019361744 0.4048202 0 -0.25019264
0.039999999 0.039748296 0.019372281 0.4048202 0 -0.25019264
0.039999999 0.040941715 0.01938314 0.4048202 0 -0.25019264
0.039999999 0.042135745 0.019394325 0.4048202 0 -0.25019264
0.039999999 0.043330401 0.019405834 0.4048202 0 -0.25019264
0.039999999 0.044525709 0.01941767 0.4048202 0 -0.25019264
0.039999999 0.045721684 0.019429829 0.4048202 0 -0.25019264
0.039999999 0.04691834 0.019442314 0.4048202 0 -0.25019264
0.039999999 0.048115704 0.019455127 0.4048202 0 -0.25019264
0.039999999 0.049313787 0.019468267 0.4048202 0 -0.25019264
0.039999999 0.050512608 0.019481732 0.4048202 0 -0.25019264
0.039999999 0.051712189 0.019495526 0.4048202 0 -0.25019264
0.039999999 0.052912548 0.019509649 0.4048202 0 -0.25019264
0.039999999 0.054113701 0.019524099 0.4048202 0 -0.25019264
0.039999999 0.055315666 0.019538879 0.4048202 0 -0.25019264
0.039999999 0.056518469 0.019553989 0.4048202 0 -0.25019264
0.039999999 0.057722118 0.019569431 0.4048202 0 -0.25019264
0.039999999 0.058926638 0.019585202 0.4048202 0 -0.25019264
0.039999999 0.060132049 0.019601306 0.4048202 0 -0.25019264
0.039999999 0.061338365 0.019617742 0.4048202 0 -0.25019264
0.039999999 0.062545612 0.019634509 0.4048202 0 -0.25019264
0.039999999 0.063753799 0.019651612 0.4048202 0 -0.25019264
0.039999999 0.064962953 0.019669048 0.4048202 0 -0.25019264
0.039999999 0.066173092 0.019686818 0.4048202 0 -0.25019264
0.039999999 0.067384236 0.019704925 0.4048202 0 -0.25019264
0.039999999 0.068596393 0.019723367 0.4048202 0 -0.25019264
0.039999999 0.069809601 0.019742146 0.4048202 0 -0.25019264
0.039999999 0.071023859 0.019761264 0.4048202 0 -0.25019264
0.011213478 0.077939317 0.04108325 0.4048202 0 -0.25019264
0.039999999 0.073455647 0.019800512 0.4048202 0 -0.25019264
0.039999999 0.074673213 0.019820645 0.4048202 0 -0.25019264
0.039999999 0.075891912 0.01984112 0.4048202 0 -0.25019264
0.026335634 0.079999998 0.029976847 0.4048202 0 -0.25019264
0.039999999 0.078332812 0.019883092 0.4048202 0 -0.25019264
0.039999999 0.079555042 0.019904593 0.4048202 0 -0.25019264
0.039999999 0.00059060007 0.017720709 0.4048202 0 -0.25019264
0.039999999 0.001771809 0.017721014 0.4048202 0 -0.25019264
0.039999999 0.0029530441 0.017721625 0.4048202 0 -0.25019264
0.039999999 0.004134323 0.017722543 0.4048202 0 -0.25019264
0.039999999 0.0053156628 0.017723769 0.4048202 0 -0.25019264
0.039999999 0.0064970809 0.017725298 0.4048202 0 -0.25019264
0.039999999 0.0076785954 0.017727135 0.4048202 0 -0.25019264
0.039999999 0.008860223 0.017729279 0.4048202 0 -0.25019264
0.039999999 0.010041982 0.017731728 0.4048202 0 -0.25019264
0.039999999 0.01122389 0.017734483 0.4048202 0 -0.25019264
0.039999999 0.012405963 0.017737545 0.4048202 0 -0.25019264
0.039999999 0.01358822 0.017740915 0.4048202 0 -0.25019264
0.039999999 0.014770677 0.01774459 0.4048202 0 -0.25019264
0.039999999 0.015953355 0.017748572 0.4048202 0 -0.25019264
0.039999999 0.017136266 0.017752862 0.4048202 0 -0.25019264
0.039999999 0.018319432 0.017757459 0.4048202 0 -0.25019264
0.039999999 0.019502869 0.017762361 0.4048202 0 -0.25019264
0.039999999 0.020686597 0.017767573 0.4048202 0 -0.25019264
0.039999999 0.021870628 0.017773094 0.4048202 0 -0.25019264
0.039999999 0.023054985 0.01777892 0.4048202 0 -0.25019264
0.039999999 0.024239684 0.017785056 0.4048202 0 -0.25019264
0.039999999 0.025424739 0.0177915 0.4048202 0 -0.25019264
0.039999999 0.026610175 0.017798252 0.4048202 0 -0.25019264
0.039999999 0.027796004 0.017805314 0.4048202 0 -0.25019264
0.039999999 0.028982244 0.017812684 0.4048202 0 -0.25019264
0.039999999 0.030168917 0.017820364 0.4048202 0 -0.25019264
0.039999999 0.031356037 0.017828353 0.4048202 0 -0.25019264
0.039999999 0.032543622 0.017836653 0.4048202 0 -0.25019264
0.039999999 0.033731692 0.017845262 0.4048202 0 -0.25019264
0.039999999 0.03492026 0.017854182 0.4048202 0 -0.25019264
0.039999999 0.036109351 0.017863413 0.4048202 0 -0.25019264
0.039999999 0.037298977 0.017872956 0.4048202 0 -0.25019264
0.039999999 0.038489159 0.017882809 0.4048202 0 -0.25019264
0.039999999 0.039679915 0.017892975 0.4048202 0 -0.25019264
0.039999999 0.040871263 0.017903455 0.4048202 0 -0.25019264
0.039999999 0.042063218 0.017914245 0.4048202 0 -0.25019264
0.039999999 0.043255799 0.01792535 0.4048202 0 -0.25019264
0.039999999 0.044449028 0.017936766 0.4048202 0 -0.25019264
0.039999999 0.04564292 0.017948499 0.4048202 0 -0.25019264
0.039999999 0.046837494 0.017960545 0.4048202 0 -0.25019264
0.039999999 0.048032768 0.017972905 0.4048202 0 -0.25019264
0.039999999 0.049228761 0.017985582 0.4048202 0 -0.25019264
0.039999999 0.050425492 0.017998574 0.4048202 0 -0.25019264
0.039999999 0.051622976 0.018011881 0.4048202 0 -0.25019264
0.039999999 0.052821234 0.018025506 0.4048202 0 -0.25019264
0.039999999 0.054020282 0.018039448 0.4048202 0 -0.25019264
0.039999999 0.055220142 0.018053709 0.4048202 0 -0.25019264
0.039999999 0.056420833 0.018068286 0.4048202 0 -0.25019264
0.039999999 0.057622369 0.018083183 0.4048202 0 -0.25019264
0.039999999 0.058824774 0.018098399 0.4048202 0 -0.25019264
0.039999999 0.060028061 0.018113935 0.4048202 0 -0.25019264
0.039999999 0.061232254 0.018129792 0.4048202 0 -0.25019264
0.039999999 0.062437367 0.018145969 0.4048202 0 -0.25019264
0.039999999 0.063643426 0.018162468 0.4048202 0 -0.25019264
0.039999999 0.064850442 0.01817929 0.4048202 0 -0.25019264
0.039999999 0.066058435 0.018196436 0.4048202 0 -0.25019264
0.039999999 0.067267433 0.018213904 0.4048202 0 -0.25019264
0.039999999 0.068477444 0.018231696 0.4048202 0 -0.25019264
0.039999999 0.069688492 0.018249813 0.4048202 0 -0.25019264
0.039999999 0.070900597 0.018268257 0.4048202 0 -0.25019264
0.039999999 0.072113775 0.018287025 0.4048202 0 -0.25019264
0.039999999 0.073328048 0.018306123 0.4048202 0 -0.25019264
0.039999999 0.074543439 0.018325547 0.4048202 0 -0.25019264
0.039999999 0.075759962 0.018345298 0.4048202 0 -0.25019264
0.039999999 0.07697764 0.018365381 0.4048202 0 -0.25019264
0.039999999 0.078196488 0.018385792 0.4048202 0 -0.25019264
0.039999999 0.079416528 0.018406535 0.4048202 0 -0.25019264
0.039999999 0.00058959029 0.016253343 0.4048202 0 -0.25019264
0.039999999 0.0017687795 0.016253637 0.4048202 0 -0.25019264
0.039999999 0.0029479947 0.016254228 0.4048202 0 -0.25019264
0.039999999 0.0041272538 0.016255112 0.4048202 0 -0.25019264
0.039999999 0.0053065731 0.016256293 0.4048202 0 -0.25019264
0.039999999 0.0064859712 0.016257767 0.4048202 0 -0.25019264
0.039999999 0.0076654647 0.016259538 0.4048202 0 -0.25019264
0.039999999 0.0088450713 0.016261602 0.4048202 0 -0.25019264
0.039999999 0.010024808 0.016263964 0.4048202 0 -0.25019264
0.039999999 0.011204693 0.016266618 0.4048202 0 -0.25019264
0.039999999 0.012384742 0.01626957 0.4048202 0 -0.25019264
0.039999999 0.013564976 0.016272817 0.4048202 0 -0.25019264
0.039999999 0.014745409 0.01627636 0.4048202 0 -0.25019264
0.039999999 0.015926059 0.016280197 0.4048202 0 -0.25019264
0.039999999 0.017106945 0.016284332 0.4048202 0 -0.25019264
0.039999999 0.018288083 0.016288761 0.4048202 0 -0.25019264
0.039999999 0.01946949 0.016293488 0.4048202 0 -0.25019264
0.039999999 0.020651186 0.01629851 0.4048202 0 -0.25019264
0.039999999 0.021833187 0.01630383 0.4048202 0 -0.25019264
0.039999999 0.02301551 0.016309446 0.4048202 0 -0.25019264
0.039999999 0.024198174 0.01631536 0.4048202 0 -0.25019264
0.039999999 0.025381196 0.01632157 0.4048202 0 -0.25019264
0.039999999 0.026564592 0.016328078 0.4048202 0 -0.25019264
0.039999999 0.027748384 0.016334884 0.4048202 0 -0.25019264
0.039999999 0.028932584 0.016341986 0.4048202 0 -0.25019264
0.039999999 0.030117212 0.016349388 0.4048202 0 -0.25019264
0.039999999 0.031302288 0.016357088 0.4048202 0 -0.25019264
0.039999999 0.032487825 0.016365087 0.4048202 0 -0.25019264
0.039999999 0.033673845 0.016373385 0.4048202 0 -0.25019264
0.039999999 0.034860365 0.016381981 0.4048202 0 -0.25019264
0.039999999 0.036047403 0.016390879 0.4048202 0 -0.25019264
0.039999999 0.037234973 0.016400075 0.4048202 0 -0.25019264
0.039999999 0.038423099 0.016409572 0.4048202 0 -0.25019264
0.039999999 0.039611794 0.01641937 0.4048202 0 -0.25019264
0.039999999 0.040801078 0.016429469 0.4048202 0 -0.25019264
0.039999999 0.041990969 0.016439868 0.4048202 0 -0.25019264
0.039999999 0.043181486 0.016450569 0.4048202 0 -0.25019264
0.039999999 0.044372644 0.016461574 0.4048202 0 -0.25019264
0.039999999 0.045564461 0.01647288 0.4048202 0 -0.25019264
0.039999999 0.04675696 0.01648449 0.4048202 0 -0.25019264
0.039999999 0.047950156 0.016496403 0.4048202 0 -0.25019264
0.039999999 0.049144067 0.016508618 0.4048202 0 -0.25019264
0.039999999 0.050338708 0.016521141 0.4048202 0 -0.25019264
0.039999999 0.051534105 0.016533965 0.4048202 0 -0.25019264
0.039999999 0.05273027 0.016547097 0.4048202 0 -0.25019264
0.039999999 0.053927228 0.016560534 0.4048202 0 -0.25019264
0.039999999 0.055124987 0.016574277 0.4048202 0 -0.25019264
0.039999999 0.056323577 0.016588327 0.4048202 0 -0.25019264
0.039999999 0.057523005 0.016602682 0.4048202 0 -0.25019264
0.039999999 0.058723301 0.016617347 0.4048202 0 -0.25019264
0.039999999 0.059924476 0.01663232 0.4048202 0 -0.25019264
0.039999999 0.061126549 0.016647602 0.4048202 0 -0.25019264
0.039999999 0.062329546 0.016663194 0.4048202 0 -0.25019264
0.039999999 0.063533477 0.016679095 0.4048202 0 -0.25019264
0.039999999 0.064738363 0.016695306 0.4048202 0 -0.25019264
0.039999999 0.065944225 0.016711829 0.4048202 0 -0.25019264
0.039999999 0.067151085 0.016728664 0.4048202 0 -0.25019264
0.039999999 0.06835895 0.016745811 0.4048202 0 -0.25019264
0.039999999 0.069567852 0.016763272 0.4048202 0 -0.25019264
0.039999999 0.070777811 0.016781045 0.4048202 0 -0.25019264
0.039999999 0.071988836 0.016799135 0.4048202 0 -0.25019264
0.039999999 0.073200949 0.016817538 0.4048202 0 -0.25019264
0.039999999 0.074414171 0.016836258 0.4048202 0 -0.25019264
0.039999999 0.075628527 0.016855294 0.4048202 0 -0.25019264
0.039999999 0.076844022 0.016874647 0.4048202 0 -0.25019264
0.039999999 0.078060694 0.016894318 0.4048202 0 -0.25019264
0.039999999 0.079278551 0.016914308 0.4048202 0 -0.25019264
0.039999999 0.00058858434 0.014791579 0.4048202 0 -0.25019264
0.039999999 0.0017657616 0.014791862 0.4048202 0 -0.25019264
0.039999999 0.0029429649 0.01479243 0.4048202 0 -0.25019264
0.039999999 0.0041202116 0.014793282 0.4048202 0 -0.25019264
0.039999999 0.0052975183 0.014794418 0.4048202 0 -0.25019264
0.039999999 0.0064749033 0.014795838 0.4048202 0 -0.25019264
0.039999999 0.0076523838 0.014797542 0.4048202 0 -0.25019264
0.039999999 0.0088299764 0.01479953 0.4048202 0 -0.25019264
0.039999999 0.010007699 0.014801802 0.4048202 0 -0.25019264
0.039999999 0.011185569 0.01480436 0.4048202 0 -0.25019264
0.039999999 0.012363603 0.0148072 0.4048202 0 -0.25019264
0.039999999 0.01354182 0.014810326 0.4048202 0 -0.25019264
0.039999999 0.014720236 0.014813736 0.4048202 0 -0.25019264
0.039999999 0.015898868 0.014817431 0.4048202 0 -0.25019264
0.039999999 0.017077735 0.01482141 0.4048202 0 -0.25019264
0.039999999 0.018256852 0.014825676 0.4048202 0 -0.25019264
0.039999999 0.01943624 0.014830225 0.4048202 0 -0.25019264
0.039999999 0.020615913 0.014835061 0.4048202 0 -0.25019264
0.039999999 0.021795889 0.014840182 0.4048202 0 -0.25019264
0.039999999 0.022976188 0.014845588 0.4048202 0 -0.25019264
0.039999999 0.024156826 0.01485128 0.4048202 0 -0.25019264
0.039999999 0.025337819 0.01485726 0.4048202 0 -0.25019264
0.039999999 0.026519187 0.014863524 0.4048202 0 -0.25019264
0.039999999 0.027700944 0.014870076 0.4048202 0 -0.25019264
0.039999999 0.028883113 0.014876914 0.4048202 0 -0.25019264
0.039999999 0.030065706 0.014884039 0.4048202 0 -0.25019264
0.039999999 0.031248745 0.014891451 0.4048202 0 -0.25019264
0.039999999 0.032432243 0.014899151 0.4048202 0 -0.25019264
0.039999999 0.033616226 0.014907139 0.4048202 0 -0.25019264
0.039999999 0.034800701 0.014915416 0.4048202 0 -0.25019264
0.039999999 0.035985693 0.01492398 0.4048202 0 -0.25019264
0.039999999 0.037171219 0.014932834 0.4048202 0 -0.25019264
0.039999999 0.038357291 0.014941976 0.4048202 0 -0.25019264
0.039999999 0.039543934 0.014951408 0.4048202 0 -0.25019264
0.039999999 0.040731166 0.01496113 0.4048202 0 -0.25019264
0.039999999 0.041919 0.014971142 0.4048202 0 -0.25019264
0.039999999 0.043107454 0.014981443 0.4048202 0 -0.25019264
0.039999999 0.044296551 0.014992037 0.4048202 0 -0.25019264
0.039999999 0.045486305 0.015002921 0.4048202 0 -0.25019264
0.039999999 0.046676733 0.015014097 0.4048202 0 -0.25019264
0.039999999 0.047867857 0.015025564 0.4048202 0 -0.25019264
0.039999999 0.049059693 0.015037325 0.4048202 0 -0.25019264
0.039999999 0.050252263 0.015049378 0.4048202 0 -0.25019264
0.039999999 0.051445577 0.015061726 0.4048202 0 -0.25019264
0.039999999 0.052639659 0.015074366 0.4048202 0 -0.25019264
0.039999999 0.053834528 0.015087301 0.4048202 0 -0.25019264
0.039999999 0.055030197 0.01510053 0.4048202 0 -0.25019264
0.039999999 0.056226693 0.015114055 0.4048202 0 -0.25019264
0.039999999 0.057424024 0.015127876 0.4048202 0 -0.25019264
0.039999999 0.058622219 0.015141993 0.4048202 0 -0.25019264
0.039999999 0.059821289 0.015156407 0.4048202 0 -0.25019264
0.039999999 0.061021253 0.015171117 0.4048202 0 -0.25019264
0.039999999 0.062222134 0.015186126 0.4048202 0 -0.25019264
0.039999999 0.063423946 0.015201434 0.4048202 0 -0.25019264
0.039999999 0.064626716 0.01521704 0.4048202 0 -0.25019264
0.039999999 0.065830454 0.015232946 0.4048202 0 -0.25019264
0.039999999 0.067035183 0.015249152 0.4048202 0 -0.25019264
0.039999999 0.068240918 0.015265658 0.4048202 0 -0.25019264
0.039999999 0.069447681 0.015282466 0.4048202 0 -0.25019264
0.039999999 0.070655495 0.015299576 0.4048202 0 -0.25019264
0.039999999 0.071864374 0.015316989 0.4048202 0 -0.25019264
0.039999999 0.073074333 0.015334705 0.4048202 0 -0.25019264
0.039999999 0.074285403 0.015352725 0.4048202 0 -0.25019264
0.039999999 0.075497597 0.01537105 0.4048202 0 -0.25019264
0.039999999 0.076710932 0.01538968 0.4048202 0 -0.25019264
0.039999999 0.077925429 0.015408616 0.4048202 0 -0.25019264
0.039999999 0.079141103 0.015427859 0.4048202 0 -0.25019264
0.039999999 0.00058758218 0.013335363 0.4048202 0 -0.25019264
0.039999999 0.0017627551 0.013335636 0.4048202 0 -0.25019264
0.039999999 0.0029379539 0.013336182 0.4048202 0 -0.25019264
0.039999999 0.0041131959 0.013337001 0.4048202 0 -0.25019264
0.039999999 0.005288498 0.013338094 0.4048202 0 -0.25019264
0.039999999 0.0064638779 0.013339458 0.4048202 0 -0.25019264
0.039999999 0.0076393527 0.013341097 0.4048202 0 -0.25019264
0.039999999 0.0088149393 0.013343008 0.4048202 0 -0.25019264
0.039999999 0.0099906558 0.013345193 0.4048202 0 -0.25019264
0.039999999 0.011166519 0.013347652 0.4048202 0 -0.25019264
0.039999999 0.012342544 0.013350383 0.4048202 0 -0.25019264
0.039999999 0.013518753 0.013353389 0.4048202 0 -0.25019264
0.039999999 0.014695158 0.013356667 0.4048202 0 -0.25019264
0.039999999 0.01587178 0.01336022 0.4048202 0 -0.25019264
0.039999999 0.017048636 0.013364047 0.4048202 0 -0.25019264
0.039999999 0.018225741 0.013368147 0.4048202 0 -0.25019264
0.039999999 0.019403115 0.013372522 0.4048202 0 -0.25019264
0.039999999 0.020580772 0.013377171 0.4048202 0 -0.25019264
0.039999999 0.021758733 0.013382095 0.4048202 0 -0.25019264
0.039999999 0.022937015 0.013387294 0.4048202 0 -0.25019264
0.039999999 0.024115633 0.013392767 0.4048202 0 -0.25019264
0.039999999 0.025294606 0.013398515 0.4048202 0 -0.25019264
0.039999999 0.026473952 0.013404539 0.4048202 0 -0.25019264
0.039999999 0.027653687 0.013410838 0.4048202 0 -0.25019264
0.039999999 0.028833829 0.013417413 0.4048202 0 -0.25019264
0.039999999 0.030014396 0.013424264 0.4048202 0 -0.25019264
0.039999999 0.031195406 0.013431391 0.4048202 0 -0.25019264
0.039999999 0.032376874 0.013438795 0.4048202 0 -0.25019264
0.039999999 0.033558823 0.013446475 0.4048202 0 -0.25019264
0.039999999 0.034741264 0.013454433 0.4048202 0 -0.25019264
0.039999999 0.035924219 0.013462667 0.4048202 0 -0.25019264
0.039999999 0.037107702 0.01347118 0.4048202 0 -0.25019264
0.039999999 0.038291737 0.01347997 0.4048202 0 -0.25019264
0.039999999 0.039476335 0.013489039 0.4048202 0 -0.25019264
0.039999999 0.040661518 0.013498386 0.4048202 0 -0.25019264
0.039999999 0.041847304 0.013508013 0.4048202 0 -0.25019264
0.039999999 0.043033708 0.013517918 0.4048202 0 -0.25019264
0.039999999 0.044220749 0.013528103 0.4048202 0 -0.25019264
0.039999999 0.045408446 0.013538568 0.4048202 0 -0.25019264
0.039999999 0.046596814 0.013549314 0.4048202 0 -0.25019264
0.039999999 0.047785874 0.01356034 0.4048202 0 -0.25019264
0.039999999 0.048975646 0.013571647 0.4048202 0 -0.25019264
