# .PCD v0.7 - Point Cloud Data file format
VERSION 0.7
FIELDS x y z vp_x vp_y vp_z
SIZE 4 4 4 4 4 4
TYPE F F F F F F
COUNT 1 1 1 1 1 1
WIDTH 1030
HEIGHT 1
VIEWPOINT 0 0 0 1 0 0 0
POINTS 1030
DATA ascii
0.037094306 0.04698443 5.5511151e-17 0 0 -0.47704095
0.037103999 0.048245765 0 0 0 -0.47704095
0.037113953 0.049507767 5.5511151e-17 0 0 -0.47704095
0.037124168 0.050770454 5.5511151e-17 0 0 -0.47704095
0.039999999 0.056048844 0.036809091 0 0 -0.47704095
0.037145376 0.053297956 0 0 0 -0.47704095
0.037156373 0.054562811 0 0 0 -0.47704095
0.037167631 0.055828419 5.5511151e-17 0 0 -0.47704095
0.039999999 0.061426695 0.036193982 0 0 -0.47704095
0.037190929 0.058361985 0 0 0 -0.47704095
0.037202973 0.059629977 0 0 0 -0.47704095
0.037215278 0.060898799 0 0 0 -0.47704095
0.037227847 0.062168472 0 0 0 -0.47704095
0.03724068 0.063439012 0 0 0 -0.47704095
0.037253778 0.064710431 0 0 0 -0.47704095
0.039999999 0.070821375 0.034982163 0 0 -0.47704095
0.039999999 0.072161607 0.034794997 0 0 -0.47704095
0.037294663 0.068530194 0 0 0 -0.47704095
0.03730882 0.069805339 0 0 0 -0.47704095
0.037323248 0.07108146 5.5511151e-17 0 0 -0.47704095
0.03733794 0.072358578 5.5511151e-17 0 0 -0.47704095
0.037352901 0.073636718 5.5511151e-17 0 0 -0.47704095
0.03736813 0.074915886 0 0 0 -0.47704095
0.037383627 0.076196104 0 0 0 -0.47704095
0.037399396 0.077477396 0 0 0 -0.47704095
0.037415434 0.078759775 0 0 0 -0.47704095
0.0356596 0.0006244455 0 0 0 -0.47704095
0.035659846 0.001873345 0 0 0 -0.47704095
0.035660334 0.0031222701 5.5511151e-17 0 0 -0.47704095
0.038651258 0.0047377674 0.039999999 0 0 -0.47704095
0.035662044 0.0056202663 0 0 0 -0.47704095
0.035663266 0.006869371 0 0 0 -0.47704095
0.035664733 0.0081185699 0 0 0 -0.47704095
0.038657084 0.01015338 0.039999999 0 0 -0.47704095
0.035668399 0.010617319 0 0 0 -0.47704095
0.035670601 0.011866904 0 0 0 -0.47704095
0.03866424 0.014216486 0.039999999 0 0 -0.47704095
0.038667157 0.01557122 0.039999999 0 0 -0.47704095
0.038670339 0.016926168 0.039999999 0 0 -0.47704095
0.035681851 0.016867042 0 0 0 -0.47704095
0.035685278 0.018117612 0 0 0 -0.47704095
0.035688948 0.019368431 5.5511151e-17 0 0 -0.47704095
0.035692867 0.020619515 5.5511151e-17 0 0 -0.47704095
0.035697028 0.021870883 0 0 0 -0.47704095
0.035701435 0.023122553 0 0 0 -0.47704095
0.035706088 0.024374539 5.5511151e-17 0 0 -0.47704095
0.035710987 0.025626859 5.5511151e-17 0 0 -0.47704095
0.035716131 0.026879532 0 0 0 -0.47704095
0.035721526 0.028132576 5.5511151e-17 0 0 -0.47704095
0.035727162 0.029386006 0 0 0 -0.47704095
0.035733048 0.03063984 0 0 0 -0.47704095
0.03573918 0.031894095 5.5511151e-17 0 0 -0.47704095
0.035745561 0.033148792 0 0 0 -0.47704095
0.035752185 0.034403943 0 0 0 -0.47704095
0.035759062 0.03565957 5.5511151e-17 0 0 -0.47704095
0.035766181 0.036915686 0 0 0 -0.47704095
0.035773553 0.038172312 5.5511151e-17 0 0 -0.47704095
0.035781171 0.039429467 0 0 0 -0.47704095
0.035789039 0.040687162 0 0 0 -0.47704095
0.035797153 0.041945424 0 0 0 -0.47704095
0.03580552 0.043204263 5.5511151e-17 0 0 -0.47704095
0.038817156 0.048191991 0.039999999 0 0 -0.47704095
0.035822999 0.045723747 0 0 0 -0.47704095
0.035832111 0.04698443 5.5511151e-17 0 0 -0.47704095
0.035841476 0.048245765 0 0 0 -0.47704095
0.035851091 0.049507767 0 0 0 -0.47704095
0.039589573 0.056049272 0.049599953 0 0 -0.47704095
0.039883718 0.0578545 0.053363185 0 0 -0.47704095
0.035881445 0.053297956 0 0 0 -0.47704095
0.039959557 0.060746178 0.054060984 0 0 -0.47704095
0.03590294 0.055828419 0 0 0 -0.47704095
0.039721295 0.063147388 0.050570812 0 0 -0.47704095
0.035925444 0.058361985 5.5511151e-17 0 0 -0.47704095
0.035937078 0.059629977 0 0 0 -0.47704095
0.035948966 0.060898799 0 0 0 -0.47704095
0.03596111 0.062168472 0 0 0 -0.47704095
0.03898989 0.068758383 0.039999999 0 0 -0.47704095
0.035986155 0.064710431 5.5511151e-17 0 0 -0.47704095
0.035999063 0.065982759 0 0 0 -0.47704095
0.036012229 0.067256004 5.5511151e-17 0 0 -0.47704095
0.036025651 0.068530194 5.5511151e-17 0 0 -0.47704095
0.036039326 0.069805339 0 0 0 -0.47704095
0.039076336 0.077041663 0.039999999 0 0 -0.47704095
0.036067456 0.072358578 0 0 0 -0.47704095
0.036081906 0.073636718 0 0 0 -0.47704095
0.036096618 0.074915886 0 0 0 -0.47704095
0.03611159 0.076196104 5.5511151e-17 0 0 -0.47704095
0.037303079 0.079999998 0.015532074 0 0 -0.47704095
0.036711439 0.079999998 0.0075119087 0 0 -0.47704095
0.037288755 0.00067680539 0.039999999 0 0 -0.47704095
0.034404211 0.001873345 5.5511151e-17 0 0 -0.47704095
0.037289523 0.0033840733 0.039999999 0 0 -0.47704095
0.034405388 0.0043712384 0 0 0 -0.47704095
0.03440633 0.0056202663 0 0 0 -0.47704095
0.034407511 0.006869371 5.5511151e-17 0 0 -0.47704095
0.034408927 0.0081185699 5.5511151e-17 0 0 -0.47704095
0.037295911 0.01015338 0.039999999 0 0 -0.47704095
0.034412462 0.010617319 5.5511151e-17 0 0 -0.47704095
0.034414586 0.011866904 0 0 0 -0.47704095
0.034416948 0.013116651 0 0 0 -0.47704095
0.037305631 0.01557122 0.039999999 0 0 -0.47704095
0.037308697 0.016926168 0.039999999 0 0 -0.47704095
0.034425441 0.016867042 5.5511151e-17 0 0 -0.47704095
0.037315607 0.019636778 0.039999999 0 0 -0.47704095
0.034432288 0.019368431 5.5511151e-17 0 0 -0.47704095
0.037323538 0.022348467 0.039999999 0 0 -0.47704095
0.034440082 0.021870883 0 0 0 -0.47704095
0.034444336 0.023122553 0 0 0 -0.47704095
0.034448825 0.024374539 0 0 0 -0.47704095
0.037342489 0.027775679 0.039999999 0 0 -0.47704095
0.034458514 0.026879532 0 0 0 -0.47704095
0.034463719 0.028132576 5.5511151e-17 0 0 -0.47704095
0.034469157 0.029386006 0 0 0 -0.47704095
0.034474835 0.03063984 0 0 0 -0.47704095
0.034480751 0.031894095 0 0 0 -0.47704095
0.034486905 0.033148792 5.5511151e-17 0 0 -0.47704095
0.034493297 0.034403943 5.5511151e-17 0 0 -0.47704095
0.034499932 0.03565957 0 0 0 -0.47704095
0.034506802 0.036915686 5.5511151e-17 0 0 -0.47704095
0.034513913 0.038172312 5.5511151e-17 0 0 -0.47704095
0.034521263 0.039429467 0 0 0 -0.47704095
0.034528852 0.040687162 0 0 0 -0.47704095
0.034536682 0.041945424 0 0 0 -0.47704095
0.034544755 0.043204263 0 0 0 -0.47704095
0.034553066 0.044463698 0 0 0 -0.47704095
0.034561615 0.045723747 0 0 0 -0.47704095
0.034570411 0.04698443 0 0 0 -0.47704095
0.034579445 0.048245765 0 0 0 -0.47704095
0.034588721 0.049507767 0 0 0 -0.47704095
0.034598239 0.050770454 0 0 0 -0.47704095
0.034608003 0.052033845 0 0 0 -0.47704095
0.034628253 0.054562811 0 0 0 -0.47704095
0.034638744 0.055828419 0 0 0 -0.47704095
0.03464948 0.057094805 0 0 0 -0.47704095
0.034660459 0.058361985 0 0 0 -0.47704095
0.034671683 0.059629977 5.5511151e-17 0 0 -0.47704095
0.034683149 0.060898799 0 0 0 -0.47704095
0.034694865 0.062168472 0 0 0 -0.47704095
0.034706824 0.063439012 5.5511151e-17 0 0 -0.47704095
0.03763023 0.070136413 0.039999999 0 0 -0.47704095
0.037643727 0.071515426 0.039999999 0 0 -0.47704095
0.034744184 0.067256004 0 0 0 -0.47704095
0.034757134 0.068530194 0 0 0 -0.47704095
0.034770329 0.069805339 0 0 0 -0.47704095
0.0377004 0.077041663 0.039999999 0 0 -0.47704095
0.034797467 0.072358578 0 0 0 -0.47704095
0.037730355 0.079811171 0.039999999 0 0 -0.47704095
0.034825604 0.074915886 0 0 0 -0.47704095
0.036579344 0.079999998 0.023815038 0 0 -0.47704095
0.03485474 0.077477396 5.5511151e-17 0 0 -0.47704095
0.034869686 0.078759775 0 0 0 -0.47704095
0.033148821 0.0006244455 0 0 0 -0.47704095
0.033149049 0.001873345 5.5511151e-17 0 0 -0.47704095
0.035929095 0.0033840733 0.039999999 0 0 -0.47704095
0.033150185 0.0043712384 0 0 0 -0.47704095
0.033151094 0.0056202663 0 0 0 -0.47704095
0.03315223 0.006869371 0 0 0 -0.47704095
0.033153594 0.0081185699 0 0 0 -0.47704095
0.033155184 0.0093678804 0 0 0 -0.47704095
0.033157002 0.010617319 5.5511151e-17 0 0 -0.47704095
0.03593944 0.012861948 0.039999999 0 0 -0.47704095
0.03316132 0.013116651 0 0 0 -0.47704095
0.033163819 0.014366579 0 0 0 -0.47704095
0.03316655 0.015616703 0 0 0 -0.47704095
0.033169508 0.016867042 0 0 0 -0.47704095
0.033172689 0.018117612 0 0 0 -0.47704095
0.033176102 0.019368431 0 0 0 -0.47704095
0.033179745 0.020619515 0 0 0 -0.47704095
0.033183612 0.021870883 0 0 0 -0.47704095
0.03318771 0.023122553 0 0 0 -0.47704095
0.035975195 0.026418349 0.039999999 0 0 -0.47704095
0.033196591 0.025626859 5.5511151e-17 0 0 -0.47704095
0.033201374 0.026879532 0 0 0 -0.47704095
0.033206385 0.028132576 0 0 0 -0.47704095
0.03599643 0.031850029 0.039999999 0 0 -0.47704095
0.033217099 0.03063984 5.5511151e-17 0 0 -0.47704095
0.033222798 0.031894095 0 0 0 -0.47704095
0.036014963 0.035928328 0.039999999 0 0 -0.47704095
0.033234887 0.034403943 0 0 0 -0.47704095
0.033241276 0.03565957 0 0 0 -0.47704095
0.033247899 0.036915686 5.5511151e-17 0 0 -0.47704095
0.03325475 0.038172312 5.5511151e-17 0 0 -0.47704095
0.033261832 0.039429467 0 0 0 -0.47704095
0.033269145 0.040687162 0 0 0 -0.47704095
0.033276688 0.041945424 5.5511151e-17 0 0 -0.47704095
0.033284463 0.043204263 5.5511151e-17 0 0 -0.47704095
0.036487926 0.048731379 0.045786969 0 0 -0.47704095
0.033300713 0.045723747 0 0 0 -0.47704095
0.03331789 0.048245765 0 0 0 -0.47704095
0.033345405 0.052033845 0 0 0 -0.47704095
0.033364918 0.054562811 5.5511151e-17 0 0 -0.47704095
0.033395946 0.058361985 5.5511151e-17 0 0 -0.47704095
0.033406761 0.059629977 5.5511151e-17 0 0 -0.47704095
0.037847489 0.068971202 0.06323386 0 0 -0.47704095
0.033429101 0.062168472 0 0 0 -0.47704095
0.037095472 0.070372492 0.052137587 0 0 -0.47704095
0.033452384 0.064710431 0 0 0 -0.47704095
0.033464383 0.065982759 5.5511151e-17 0 0 -0.47704095
0.033476621 0.067256004 0 0 0 -0.47704095
0.033489097 0.068530194 0 0 0 -0.47704095
0.033501811 0.069805339 0 0 0 -0.47704095
0.033514764 0.07108146 5.5511151e-17 0 0 -0.47704095
0.033527959 0.072358578 0 0 0 -0.47704095
0.033541393 0.073636718 0 0 0 -0.47704095
0.033555068 0.074915886 0 0 0 -0.47704095
0.033568986 0.076196104 5.5511151e-17 0 0 -0.47704095
0.033583142 0.077477396 5.5511151e-17 0 0 -0.47704095
0.033597544 0.078759775 0 0 0 -0.47704095
0.031894125 0.0006244455 0 0 0 -0.47704095
0.031894341 0.001873345 0 0 0 -0.47704095
0.031894781 0.0031222701 0 0 0 -0.47704095
0.031895436 0.0043712384 0 0 0 -0.47704095
0.034570824 0.0060915267 0.039999999 0 0 -0.47704095
0.031897403 0.006869371 0 0 0 -0.47704095
0.031898715 0.0081185699 0 0 0 -0.47704095
0.031900246 0.0093678804 0 0 0 -0.47704095
0.031901997 0.010617319 5.5511151e-17 0 0 -0.47704095
0.034579117 0.012861948 0.039999999 0 0 -0.47704095
0.03190615 0.013116651 0 0 0 -0.47704095
0.034584098 0.01557122 0.039999999 0 0 -0.47704095
0.031911183 0.015616703 0 0 0 -0.47704095
0.031914026 0.016867042 0 0 0 -0.47704095
0.031917091 0.018117612 0 0 0 -0.47704095
0.031920373 0.019368431 0 0 0 -0.47704095
0.031923875 0.020619515 5.5511151e-17 0 0 -0.47704095
0.031927601 0.021870883 0 0 0 -0.47704095
0.034609009 0.025061384 0.039999999 0 0 -0.47704095
0.031935703 0.024374539 5.5511151e-17 0 0 -0.47704095
0.031940084 0.025626859 0 0 0 -0.47704095
0.031944688 0.026879532 0 0 0 -0.47704095
0.031949509 0.028132576 0 0 0 -0.47704095
0.031954553 0.029386006 0 0 0 -0.47704095
0.031959817 0.03063984 0 0 0 -0.47704095
0.0319653 0.031894095 5.5511151e-17 0 0 -0.47704095
0.031971008 0.033148792 0 0 0 -0.47704095
0.031976935 0.034403943 0 0 0 -0.47704095
0.031983081 0.03565957 5.5511151e-17 0 0 -0.47704095
0.031989451 0.036915686 0 0 0 -0.47704095
0.031996042 0.038172312 0 0 0 -0.47704095
0.032002859 0.039429467 5.5511151e-17 0 0 -0.47704095
0.03469393 0.044098794 0.039999999 0 0 -0.47704095
0.034701798 0.045462556 0.039999999 0 0 -0.47704095
0.032024633 0.043204263 0 0 0 -0.47704095
0.032032337 0.044463698 0 0 0 -0.47704095
0.032040268 0.045723747 5.5511151e-17 0 0 -0.47704095
0.032048419 0.04698443 5.5511151e-17 0 0 -0.47704095
0.032056794 0.048245765 0 0 0 -0.47704095
0.032065395 0.049507767 5.5511151e-17 0 0 -0.47704095
0.032074217 0.050770454 0 0 0 -0.47704095
0.032092541 0.053297956 5.5511151e-17 0 0 -0.47704095
0.032121718 0.057094805 0 0 0 -0.47704095
0.032131899 0.058361985 0 0 0 -0.47704095
0.032142304 0.059629977 0 0 0 -0.47704095
0.032152936 0.060898799 0 0 0 -0.47704095
0.032163795 0.062168472 0 0 0 -0.47704095
0.036292262 0.071557224 0.061046354 0 0 -0.47704095
0.032186199 0.064710431 0 0 0 -0.47704095
0.032197744 0.065982759 5.5511151e-17 0 0 -0.47704095
0.032209516 0.067256004 5.5511151e-17 0 0 -0.47704095
0.034923304 0.074276462 0.039999999 0 0 -0.47704095
0.032233752 0.069805339 0 0 0 -0.47704095
0.032246217 0.07108146 5.5511151e-17 0 0 -0.47704095
0.032258913 0.072358578 0 0 0 -0.47704095
0.032271836 0.073636718 0 0 0 -0.47704095
0.032284994 0.074915886 0 0 0 -0.47704095
0.032298386 0.076196104 5.5511151e-17 0 0 -0.47704095
0.032312006 0.077477396 5.5511151e-17 0 0 -0.47704095
0.032325864 0.078759775 5.5511151e-17 0 0 -0.47704095
0.033209026 0.00067680539 0.039999999 0 0 -0.47704095
0.030640077 0.001873345 5.5511151e-17 0 0 -0.47704095
0.030640496 0.0031222701 0 0 0 -0.47704095
0.033210393 0.0047377674 0.039999999 0 0 -0.47704095
0.033211302 0.0060915267 0.039999999 0 0 -0.47704095
0.030643018 0.006869371 0 0 0 -0.47704095
0.033213809 0.0087993145 0.039999999 0 0 -0.47704095
0.030645749 0.0093678804 0 0 0 -0.47704095
0.030647429 0.010617319 0 0 0 -0.47704095
0.030649319 0.011866904 0 0 0 -0.47704095
0.03065142 0.013116651 0 0 0 -0.47704095
0.030653732 0.014366579 0 0 0 -0.47704095
0.030656254 0.015616703 0 0 0 -0.47704095
0.030658986 0.016867042 0 0 0 -0.47704095
0.033232942 0.019636778 0.039999999 0 0 -0.47704095
0.030665085 0.019368431 0 0 0 -0.47704095
0.030668449 0.020619515 0 0 0 -0.47704095
0.033243883 0.023704764 0.039999999 0 0 -0.47704095
0.030675812 0.023122553 0 0 0 -0.47704095
0.030679811 0.024374539 0 0 0 -0.47704095
0.03068402 0.025626859 5.5511151e-17 0 0 -0.47704095
0.030688442 0.026879532 5.5511151e-17 0 0 -0.47704095
0.030693075 0.028132576 0 0 0 -0.47704095
0.030697919 0.029386006 5.5511151e-17 0 0 -0.47704095
0.033277426 0.033209 0.039999999 0 0 -0.47704095
0.033283137 0.034568425 0.039999999 0 0 -0.47704095
0.030713726 0.033148792 0 0 0 -0.47704095
0.03071942 0.034403943 5.5511151e-17 0 0 -0.47704095
0.030725326 0.03565957 0 0 0 -0.47704095
0.030731445 0.036915686 0 0 0 -0.47704095
0.030737778 0.038172312 0 0 0 -0.47704095
0.030744324 0.039429467 0 0 0 -0.47704095
0.030751083 0.040687162 0 0 0 -0.47704095
0.030758057 0.041945424 5.5511151e-17 0 0 -0.47704095
0.030765245 0.043204263 0 0 0 -0.47704095
0.030772647 0.044463698 0 0 0 -0.47704095
0.030780263 0.045723747 0 0 0 -0.47704095
0.030788094 0.04698443 5.5511151e-17 0 0 -0.47704095
0.03079614 0.048245765 0 0 0 -0.47704095
0.030804401 0.049507767 0 0 0 -0.47704095
0.030812878 0.050770454 0 0 0 -0.47704095
0.030821573 0.052033845 0 0 0 -0.47704095
0.030839609 0.054562811 5.5511151e-17 0 0 -0.47704095
0.030848952 0.055828419 0 0 0 -0.47704095
0.030858511 0.057094805 0 0 0 -0.47704095
0.03086829 0.058361985 0 0 0 -0.47704095
0.030898932 0.062168472 5.5511151e-17 0 0 -0.47704095
0.030909583 0.063439012 5.5511151e-17 0 0 -0.47704095
0.034981862 0.073210157 0.062659405 0 0 -0.47704095
0.030931545 0.065982759 0 0 0 -0.47704095
0.030942855 0.067256004 5.5511151e-17 0 0 -0.47704095
0.030954387 0.068530194 5.5511151e-17 0 0 -0.47704095
0.03096614 0.069805339 0 0 0 -0.47704095
0.030978113 0.07108146 0 0 0 -0.47704095
0.030990308 0.072358578 0 0 0 -0.47704095
0.033602312 0.079811171 0.039999999 0 0 -0.47704095
0.033120204 0.079999998 0.03237405 0 0 -0.47704095
0.03102823 0.076196104 5.5511151e-17 0 0 -0.47704095
0.032051995 0.079999998 0.015532074 0 0 -0.47704095
0.031543642 0.079999998 0.0075119087 0 0 -0.47704095
0.031850059 0.00067680539 0.039999999 0 0 -0.47704095
0.029386234 0.001873345 5.5511151e-17 0 0 -0.47704095
0.031850711 0.0033840733 0.039999999 0 0 -0.47704095
0.029387239 0.0043712384 0 0 0 -0.47704095
0.029388046 0.0056202663 0 0 0 -0.47704095
0.029389054 0.006869371 5.5511151e-17 0 0 -0.47704095
0.029390261 0.0081185699 0 0 0 -0.47704095
0.029391672 0.0093678804 0 0 0 -0.47704095
0.031857919 0.011507585 0.039999999 0 0 -0.47704095
0.029395098 0.011866904 0 0 0 -0.47704095
0.029397111 0.013116651 5.5511151e-17 0 0 -0.47704095
0.02939933 0.014366579 0 0 0 -0.47704095
0.029401748 0.015616703 0 0 0 -0.47704095
0.029404368 0.016867042 0 0 0 -0.47704095
0.029407192 0.018117612 0 0 0 -0.47704095
0.029410217 0.019368431 0 0 0 -0.47704095
0.029413445 0.020619515 0 0 0 -0.47704095
0.031883486 0.023704764 0.039999999 0 0 -0.47704095
0.029420506 0.023122553 0 0 0 -0.47704095
0.029424341 0.024374539 5.5511151e-17 0 0 -0.47704095
0.029428378 0.025626859 0 0 0 -0.47704095
0.031900551 0.029133389 0.039999999 0 0 -0.47704095
0.029437061 0.028132576 0 0 0 -0.47704095
0.031910401 0.031850029 0.039999999 0 0 -0.47704095
0.029446557 0.03063984 5.5511151e-17 0 0 -0.47704095
0.029451611 0.031894095 0 0 0 -0.47704095
0.029456867 0.033148792 5.5511151e-17 0 0 -0.47704095
0.029462328 0.034403943 0 0 0 -0.47704095
0.029467992 0.03565957 5.5511151e-17 0 0 -0.47704095
0.029473862 0.036915686 0 0 0 -0.47704095
0.031951837 0.04137307 0.039999999 0 0 -0.47704095
0.029486215 0.039429467 0 0 0 -0.47704095
0.029492697 0.040687162 0 0 0 -0.47704095
0.029513378 0.044463698 0 0 0 -0.47704095
0.029520681 0.045723747 0 0 0 -0.47704095
0.029528193 0.04698443 0 0 0 -0.47704095
0.029543834 0.049507767 0 0 0 -0.47704095
0.029560301 0.052033845 5.5511151e-17 0 0 -0.47704095
0.029568845 0.053297956 0 0 0 -0.47704095
0.029586559 0.055828419 0 0 0 -0.47704095
0.029595729 0.057094805 0 0 0 -0.47704095
0.029605107 0.058361985 0 0 0 -0.47704095
0.029614693 0.059629977 0 0 0 -0.47704095
0.02962449 0.060898799 0 0 0 -0.47704095
0.029634494 0.062168472 5.5511151e-17 0 0 -0.47704095
0.029644711 0.063439012 0 0 0 -0.47704095
0.029665774 0.065982759 0 0 0 -0.47704095
0.029676622 0.067256004 0 0 0 -0.47704095
0.029687682 0.068530194 0 0 0 -0.47704095
0.029698953 0.069805339 5.5511151e-17 0 0 -0.47704095
0.029710436 0.07108146 0 0 0 -0.47704095
0.029722132 0.072358578 5.5511151e-17 0 0 -0.47704095
0.029734042 0.073636718 0 0 0 -0.47704095
0.029746165 0.074915886 5.5511151e-17 0 0 -0.47704095
0.029758502 0.076196104 0 0 0 -0.47704095
0.029771052 0.077477396 0 0 0 -0.47704095
0.029783819 0.078759775 0 0 0 -0.47704095
0.030491525 0.00067680539 0.039999999 0 0 -0.47704095
0.030491734 0.0020304255 0.039999999 0 0 -0.47704095
0.028133178 0.0031222701 0 0 0 -0.47704095
0.028133757 0.0043712384 0 0 0 -0.47704095
0.028134529 0.0056202663 0 0 0 -0.47704095
0.028135493 0.006869371 5.5511151e-17 0 0 -0.47704095
0.030495916 0.0087993145 0.039999999 0 0 -0.47704095
0.028138001 0.0093678804 0 0 0 -0.47704095
0.03049905 0.011507585 0.039999999 0 0 -0.47704095
0.028141279 0.011866904 5.5511151e-17 0 0 -0.47704095
0.028143208 0.013116651 0 0 0 -0.47704095
0.02814533 0.014366579 0 0 0 -0.47704095
0.028147647 0.015616703 5.5511151e-17 0 0 -0.47704095
0.028150156 0.016867042 5.5511151e-17 0 0 -0.47704095
0.030513482 0.019636778 0.039999999 0 0 -0.47704095
0.028155753 0.019368431 5.5511151e-17 0 0 -0.47704095
0.028158844 0.020619515 0 0 0 -0.47704095
0.028162127 0.021870883 0 0 0 -0.47704095
0.030527297 0.025061384 0.039999999 0 0 -0.47704095
0.028169276 0.024374539 0 0 0 -0.47704095
0.030535465 0.027775679 0.039999999 0 0 -0.47704095
0.0281772 0.026879532 0 0 0 -0.47704095
0.028181454 0.028132576 0 0 0 -0.47704095
0.028185902 0.029386006 0 0 0 -0.47704095
0.030554328 0.033209 0.039999999 0 0 -0.47704095
0.028195383 0.031894095 0 0 0 -0.47704095
0.028200416 0.033148792 0 0 0 -0.47704095
0.028205642 0.034403943 5.5511151e-17 0 0 -0.47704095
0.028211066 0.03565957 0 0 0 -0.47704095
0.028216684 0.036915686 0 0 0 -0.47704095
0.030588962 0.04137307 0.039999999 0 0 -0.47704095
0.02822851 0.039429467 0 0 0 -0.47704095
0.028234717 0.040687162 0 0 0 -0.47704095
0.028247718 0.043204263 5.5511151e-17 0 0 -0.47704095
0.028254515 0.044463698 0 0 0 -0.47704095
0.028268697 0.04698443 0 0 0 -0.47704095
0.028276086 0.048245765 0 0 0 -0.47704095
0.028307617 0.053297956 0 0 0 -0.47704095
0.028315997 0.054562811 0 0 0 -0.47704095
0.028333353 0.057094805 0 0 0 -0.47704095
0.028342331 0.058361985 5.5511151e-17 0 0 -0.47704095
0.028351508 0.059629977 5.5511151e-17 0 0 -0.47704095
0.028380247 0.063439012 0 0 0 -0.47704095
0.028390227 0.064710431 5.5511151e-17 0 0 -0.47704095
0.02840041 0.065982759 0 0 0 -0.47704095
0.028410796 0.067256004 0 0 0 -0.47704095
0.028421383 0.068530194 0 0 0 -0.47704095
0.028432174 0.069805339 5.5511151e-17 0 0 -0.47704095
0.028443169 0.07108146 5.5511151e-17 0 0 -0.47704095
0.028454365 0.072358578 0 0 0 -0.47704095
0.028465766 0.073636718 0 0 0 -0.47704095
0.028477373 0.074915886 5.5511151e-17 0 0 -0.47704095
0.029911432 0.079999998 0.023815038 0 0 -0.47704095
0.029429175 0.079999998 0.015532074 0 0 -0.47704095
0.02851342 0.078759775 0 0 0 -0.47704095
0.029133413 0.00067680539 0.039999999 0 0 -0.47704095
0.026879741 0.001873345 0 0 0 -0.47704095
0.026880108 0.0031222701 5.5511151e-17 0 0 -0.47704095
0.026880661 0.0043712384 0 0 0 -0.47704095
0.026881399 0.0056202663 0 0 0 -0.47704095
0.026882319 0.006869371 0 0 0 -0.47704095
0.026883425 0.0081185699 0 0 0 -0.47704095
0.026884716 0.0093678804 0 0 0 -0.47704095
0.026886189 0.010617319 0 0 0 -0.47704095
0.026887849 0.011866904 5.5511151e-17 0 0 -0.47704095
0.029144399 0.014216486 0.039999999 0 0 -0.47704095
0.02689172 0.014366579 0 0 0 -0.47704095
0.029148996 0.016926168 0.039999999 0 0 -0.47704095
0.02689633 0.016867042 0 0 0 -0.47704095
0.026898911 0.018117612 0 0 0 -0.47704095
0.026901679 0.019368431 0 0 0 -0.47704095
0.026904631 0.020619515 5.5511151e-17 0 0 -0.47704095
0.026907768 0.021870883 5.5511151e-17 0 0 -0.47704095
0.026911089 0.023122553 0 0 0 -0.47704095
0.026914598 0.024374539 0 0 0 -0.47704095
0.029175395 0.027775679 0.039999999 0 0 -0.47704095
0.029179599 0.029133389 0.039999999 0 0 -0.47704095
0.026926234 0.028132576 0 0 0 -0.47704095
0.026930483 0.029386006 0 0 0 -0.47704095
0.02693492 0.03063984 5.5511151e-17 0 0 -0.47704095
0.026939541 0.031894095 0 0 0 -0.47704095
0.02920364 0.035928328 0.039999999 0 0 -0.47704095
0.029209055 0.037288722 0.039999999 0 0 -0.47704095
0.026954528 0.03565957 0 0 0 -0.47704095
0.026959896 0.036915686 0 0 0 -0.47704095
0.02922651 0.04137307 0.039999999 0 0 -0.47704095
0.026971193 0.039429467 0 0 0 -0.47704095
0.026977124 0.040687162 0 0 0 -0.47704095
0.026983241 0.041945424 0 0 0 -0.47704095
0.026989546 0.043204263 0 0 0 -0.47704095
0.027002722 0.045723747 0 0 0 -0.47704095
0.027009591 0.04698443 0 0 0 -0.47704095
0.027023898 0.049507767 0 0 0 -0.47704095
0.027031336 0.050770454 5.5511151e-17 0 0 -0.47704095
0.027038962 0.052033845 0 0 0 -0.47704095
0.027046777 0.053297956 5.5511151e-17 0 0 -0.47704095
0.027054785 0.054562811 5.5511151e-17 0 0 -0.47704095
0.02706298 0.055828419 0 0 0 -0.47704095
0.027071368 0.057094805 0 0 0 -0.47704095
0.027079945 0.058361985 0 0 0 -0.47704095
0.027088715 0.059629977 0 0 0 -0.47704095
0.027097674 0.060898799 0 0 0 -0.47704095
0.027116172 0.063439012 0 0 0 -0.47704095
0.027125709 0.064710431 0 0 0 -0.47704095
0.027135437 0.065982759 0 0 0 -0.47704095
0.027145362 0.067256004 0 0 0 -0.47704095
0.027155478 0.068530194 5.5511151e-17 0 0 -0.47704095
0.027165787 0.069805339 0 0 0 -0.47704095
0.027176291 0.07108146 0 0 0 -0.47704095
0.02718699 0.072358578 5.5511151e-17 0 0 -0.47704095
0.027197883 0.073636718 0 0 0 -0.47704095
0.027208973 0.074915886 0 0 0 -0.47704095
0.027220257 0.076196104 0 0 0 -0.47704095
0.027231738 0.077477396 0 0 0 -0.47704095
0.027243415 0.078759775 0 0 0 -0.47704095
0.025626881 0.0006244455 0 0 0 -0.47704095
0.025627058 0.001873345 0 0 0 -0.47704095
0.025627408 0.0031222701 5.5511151e-17 0 0 -0.47704095
0.025627935 0.0043712384 0 0 0 -0.47704095
0.025628638 0.0056202663 0 0 0 -0.47704095
0.025629517 0.006869371 5.5511151e-17 0 0 -0.47704095
0.025630571 0.0081185699 5.5511151e-17 0 0 -0.47704095
0.0256318 0.0093678804 0 0 0 -0.47704095
0.025633207 0.010617319 0 0 0 -0.47704095
0.025634788 0.011866904 0 0 0 -0.47704095
0.025636544 0.013116651 5.5511151e-17 0 0 -0.47704095
0.025638478 0.014366579 0 0 0 -0.47704095
0.027790558 0.016926168 0.039999999 0 0 -0.47704095
0.025642874 0.016867042 0 0 0 -0.47704095
0.025645334 0.018117612 0 0 0 -0.47704095
0.025647974 0.019368431 5.5511151e-17 0 0 -0.47704095
0.025650788 0.020619515 0 0 0 -0.47704095
0.025653778 0.021870883 0 0 0 -0.47704095
0.025656946 0.023122553 0 0 0 -0.47704095
0.025660289 0.024374539 5.5511151e-17 0 0 -0.47704095
0.025663812 0.025626859 0 0 0 -0.47704095
0.027819736 0.029133389 0.039999999 0 0 -0.47704095
0.027823936 0.030491499 0.039999999 0 0 -0.47704095
0.027828326 0.031850029 0.039999999 0 0 -0.47704095
0.025679665 0.03063984 5.5511151e-17 0 0 -0.47704095
0.025684072 0.031894095 5.5511151e-17 0 0 -0.47704095
0.025688656 0.033148792 0 0 0 -0.47704095
0.025693418 0.034403943 0 0 0 -0.47704095
0.025698358 0.03565957 0 0 0 -0.47704095
0.027858719 0.040011078 0.039999999 0 0 -0.47704095
0.02786446 0.04137307 0.039999999 0 0 -0.47704095
0.025714248 0.039429467 0 0 0 -0.47704095
0.025719902 0.040687162 0 0 0 -0.47704095
0.025725735 0.041945424 5.5511151e-17 0 0 -0.47704095
0.025731746 0.043204263 0 0 0 -0.47704095
0.025737938 0.044463698 0 0 0 -0.47704095
0.025757587 0.048245765 0 0 0 -0.47704095
0.025764497 0.049507767 5.5511151e-17 0 0 -0.47704095
0.02578631 0.053297956 5.5511151e-17 0 0 -0.47704095
0.025801757 0.055828419 0 0 0 -0.47704095
0.025809754 0.057094805 5.5511151e-17 0 0 -0.47704095
0.025834836 0.060898799 5.5511151e-17 0 0 -0.47704095
0.025843561 0.062168472 5.5511151e-17 0 0 -0.47704095
0.025870839 0.065982759 5.5511151e-17 0 0 -0.47704095
0.025889944 0.068530194 0 0 0 -0.47704095
0.028898491 0.077887513 0.055232577 0 0 -0.47704095
0.025909787 0.07108146 0 0 0 -0.47704095
0.025919987 0.072358578 0 0 0 -0.47704095
0.025930373 0.073636718 0 0 0 -0.47704095
0.025940945 0.074915886 5.5511151e-17 0 0 -0.47704095
0.025951704 0.076196104 5.5511151e-17 0 0 -0.47704095
0.025962649 0.077477396 0 0 0 -0.47704095
0.026382789 0.079999998 0.0075119087 0 0 -0.47704095
0.02437456 0.0006244455 0 0 0 -0.47704095
0.024374727 0.001873345 0 0 0 -0.47704095
0.024375061 0.0031222701 0 0 0 -0.47704095
0.024375562 0.0043712384 5.5511151e-17 0 0 -0.47704095
0.02437623 0.0056202663 0 0 0 -0.47704095
0.024377065 0.006869371 5.5511151e-17 0 0 -0.47704095
0.026422175 0.0087993145 0.039999999 0 0 -0.47704095
0.024379238 0.0093678804 0 0 0 -0.47704095
0.026424892 0.011507585 0.039999999 0 0 -0.47704095
0.024382079 0.011866904 5.5511151e-17 0 0 -0.47704095
0.02438375 0.013116651 0 0 0 -0.47704095
0.026430327 0.01557122 0.039999999 0 0 -0.47704095
0.024387596 0.015616703 5.5511151e-17 0 0 -0.47704095
0.02438977 0.016867042 5.5511151e-17 0 0 -0.47704095
0.026437396 0.019636778 0.039999999 0 0 -0.47704095
0.02439462 0.019368431 0 0 0 -0.47704095
0.024397297 0.020619515 5.5511151e-17 0 0 -0.47704095
0.024400141 0.021870883 0 0 0 -0.47704095
0.026449366 0.025061384 0.039999999 0 0 -0.47704095
0.024406334 0.024374539 5.5511151e-17 0 0 -0.47704095
0.024409683 0.025626859 0 0 0 -0.47704095
0.024413202 0.026879532 5.5511151e-17 0 0 -0.47704095
0.024416886 0.028132576 5.5511151e-17 0 0 -0.47704095
0.026468426 0.031850029 0.039999999 0 0 -0.47704095
0.024424763 0.03063984 0 0 0 -0.47704095
0.024428954 0.031894095 0 0 0 -0.47704095
0.024433315 0.033148792 0 0 0 -0.47704095
0.024437845 0.034403943 5.5511151e-17 0 0 -0.47704095
0.026492057 0.038649634 0.039999999 0 0 -0.47704095
0.026497332 0.040011078 0.039999999 0 0 -0.47704095
0.02445245 0.038172312 5.5511151e-17 0 0 -0.47704095
0.024457656 0.039429467 0 0 0 -0.47704095
0.024463033 0.040687162 0 0 0 -0.47704095
0.024468582 0.041945424 0 0 0 -0.47704095
0.024486246 0.045723747 0 0 0 -0.47704095
0.024492476 0.04698443 0 0 0 -0.47704095
0.024498878 0.048245765 0 0 0 -0.47704095
0.024505449 0.049507767 0 0 0 -0.47704095
0.024512194 0.050770454 0 0 0 -0.47704095
0.024533458 0.054562811 5.5511151e-17 0 0 -0.47704095
0.02454089 0.055828419 0 0 0 -0.47704095
0.024548495 0.057094805 0 0 0 -0.47704095
0.024556274 0.058361985 0 0 0 -0.47704095
0.024564225 0.059629977 5.5511151e-17 0 0 -0.47704095
0.02458065 0.062168472 0 0 0 -0.47704095
0.024589123 0.063439012 5.5511151e-17 0 0 -0.47704095
0.024606595 0.065982759 0 0 0 -0.47704095
0.024615593 0.067256004 0 0 0 -0.47704095
0.024624767 0.068530194 0 0 0 -0.47704095
0.024634115 0.069805339 0 0 0 -0.47704095
0.024643641 0.07108146 0 0 0 -0.47704095
0.024653342 0.072358578 0 0 0 -0.47704095
0.024663221 0.073636718 5.5511151e-17 0 0 -0.47704095
0.024673276 0.074915886 0 0 0 -0.47704095
0.024693919 0.077477396 5.5511151e-17 0 0 -0.47704095
0.024704508 0.078759775 0 0 0 -0.47704095
0.023122571 0.0006244455 0 0 0 -0.47704095
0.02312273 0.001873345 5.5511151e-17 0 0 -0.47704095
0.02506192 0.0033840733 0.039999999 0 0 -0.47704095
0.025062436 0.0047377674 0.039999999 0 0 -0.47704095
0.025063124 0.0060915267 0.039999999 0 0 -0.47704095
0.025063982 0.0074453694 0.039999999 0 0 -0.47704095
0.0231259 0.0081185699 0 0 0 -0.47704095
0.02312701 0.0093678804 0 0 0 -0.47704095
0.02506759 0.011507585 0.039999999 0 0 -0.47704095
0.025069136 0.012861948 0.039999999 0 0 -0.47704095
0.025070855 0.014216486 0.039999999 0 0 -0.47704095
0.023133036 0.014366579 0 0 0 -0.47704095
0.023134939 0.015616703 0 0 0 -0.47704095
0.025077045 0.018281348 0.039999999 0 0 -0.47704095
0.025079452 0.019636778 0.039999999 0 0 -0.47704095
0.023141602 0.019368431 0 0 0 -0.47704095
0.023144143 0.020619515 0 0 0 -0.47704095
0.02314684 0.021870883 0 0 0 -0.47704095
0.023149699 0.023122553 5.5511151e-17 0 0 -0.47704095
0.023152716 0.024374539 0 0 0 -0.47704095
0.023155892 0.025626859 0 0 0 -0.47704095
0.02315923 0.026879532 0 0 0 -0.47704095
0.023162726 0.028132576 5.5511151e-17 0 0 -0.47704095
0.023166381 0.029386006 0 0 0 -0.47704095
0.023170197 0.03063984 0 0 0 -0.47704095
0.023174174 0.031894095 0 0 0 -0.47704095
0.023178311 0.033148792 0 0 0 -0.47704095
0.023182606 0.034403943 5.5511151e-17 0 0 -0.47704095
0.023187064 0.03565957 0 0 0 -0.47704095
0.023191683 0.036915686 0 0 0 -0.47704095
0.023196461 0.038172312 0 0 0 -0.47704095
0.023206502 0.040687162 5.5511151e-17 0 0 -0.47704095
0.023211764 0.041945424 0 0 0 -0.47704095
0.023217188 0.043204263 5.5511151e-17 0 0 -0.47704095
0.023228522 0.045723747 0 0 0 -0.47704095
0.023240505 0.048245765 0 0 0 -0.47704095
0.023259697 0.052033845 5.5511151e-17 0 0 -0.47704095
0.023266422 0.053297956 0 0 0 -0.47704095
0.02328036 0.055828419 0 0 0 -0.47704095
0.023287574 0.057094805 0 0 0 -0.47704095
0.023294954 0.058361985 0 0 0 -0.47704095
0.023302495 0.059629977 0 0 0 -0.47704095
0.023310205 0.060898799 5.5511151e-17 0 0 -0.47704095
0.023334319 0.064710431 0 0 0 -0.47704095
0.023342689 0.065982759 0 0 0 -0.47704095
0.023351224 0.067256004 5.5511151e-17 0 0 -0.47704095
0.023368796 0.069805339 0 0 0 -0.47704095
0.023377832 0.07108146 0 0 0 -0.47704095
0.023387035 0.072358578 0 0 0 -0.47704095
0.023396406 0.073636718 0 0 0 -0.47704095
0.023405945 0.074915886 5.5511151e-17 0 0 -0.47704095
0.023415653 0.076196104 5.5511151e-17 0 0 -0.47704095
0.023425529 0.077477396 5.5511151e-17 0 0 -0.47704095
0.023435574 0.078759775 0 0 0 -0.47704095
0.021870902 0.0006244455 0 0 0 -0.47704095
0.021871053 0.001873345 5.5511151e-17 0 0 -0.47704095
0.02370527 0.0033840733 0.039999999 0 0 -0.47704095
0.023705758 0.0047377674 0.039999999 0 0 -0.47704095
0.021872401 0.0056202663 0 0 0 -0.47704095
0.021873152 0.006869371 0 0 0 -0.47704095
0.021874052 0.0081185699 0 0 0 -0.47704095
0.0218751 0.0093678804 0 0 0 -0.47704095
0.0218763 0.010617319 5.5511151e-17 0 0 -0.47704095
0.02187765 0.011866904 5.5511151e-17 0 0 -0.47704095
0.023713721 0.014216486 0.039999999 0 0 -0.47704095
0.023715511 0.01557122 0.039999999 0 0 -0.47704095
0.021882599 0.015616703 5.5511151e-17 0 0 -0.47704095
0.023719575 0.018281348 0.039999999 0 0 -0.47704095
0.021886652 0.018117612 0 0 0 -0.47704095
0.021888902 0.019368431 0 0 0 -0.47704095
0.021891305 0.020619515 0 0 0 -0.47704095
0.021893857 0.021870883 0 0 0 -0.47704095
0.02189656 0.023122553 0 0 0 -0.47704095
0.021899415 0.024374539 0 0 0 -0.47704095
0.02190242 0.025626859 5.5511151e-17 0 0 -0.47704095
0.023742363 0.029133389 0.039999999 0 0 -0.47704095
0.021908883 0.028132576 0 0 0 -0.47704095
0.02191234 0.029386006 0 0 0 -0.47704095
0.02191595 0.03063984 0 0 0 -0.47704095
0.023757685 0.034568425 0.039999999 0 0 -0.47704095
0.021923624 0.033148792 0 0 0 -0.47704095
0.02376633 0.037288722 0.039999999 0 0 -0.47704095
0.021931903 0.03565957 0 0 0 -0.47704095
0.021936271 0.036915686 0 0 0 -0.47704095
0.021940792 0.038172312 0 0 0 -0.47704095
0.02195029 0.040687162 0 0 0 -0.47704095
0.021955267 0.041945424 0 0 0 -0.47704095
0.021960398 0.043204263 5.5511151e-17 0 0 -0.47704095
0.021965681 0.044463698 5.5511151e-17 0 0 -0.47704095
0.021971118 0.045723747 5.5511151e-17 0 0 -0.47704095
0.021976708 0.04698443 5.5511151e-17 0 0 -0.47704095
0.021982452 0.048245765 0 0 0 -0.47704095
0.021994399 0.050770454 5.5511151e-17 0 0 -0.47704095
0.022006964 0.053297956 0 0 0 -0.47704095
0.02201348 0.054562811 5.5511151e-17 0 0 -0.47704095
0.022020148 0.055828419 0 0 0 -0.47704095
0.022026973 0.057094805 0 0 0 -0.47704095
0.022033952 0.058361985 0 0 0 -0.47704095
0.022041086 0.059629977 0 0 0 -0.47704095
0.022048378 0.060898799 0 0 0 -0.47704095
0.022063429 0.063439012 0 0 0 -0.47704095
0.022071188 0.064710431 0 0 0 -0.47704095
0.022079105 0.065982759 0 0 0 -0.47704095
0.022087177 0.067256004 0 0 0 -0.47704095
0.022095408 0.068530194 0 0 0 -0.47704095
0.022103798 0.069805339 0 0 0 -0.47704095
0.022112345 0.07108146 0 0 0 -0.47704095
0.022121049 0.072358578 0 0 0 -0.47704095
0.022129914 0.073636718 0 0 0 -0.47704095
0.022138936 0.074915886 0 0 0 -0.47704095
0.022148117 0.076196104 0 0 0 -0.47704095
0.022157459 0.077477396 0 0 0 -0.47704095
0.020619534 0.0006244455 0 0 0 -0.47704095
0.020619676 0.001873345 0 0 0 -0.47704095
0.020619957 0.0031222701 0 0 0 -0.47704095
0.020620381 0.0043712384 0 0 0 -0.47704095
0.020620948 0.0056202663 5.5511151e-17 0 0 -0.47704095
0.020621654 0.006869371 5.5511151e-17 0 0 -0.47704095
0.022351703 0.0087993145 0.039999999 0 0 -0.47704095
0.020623492 0.0093678804 5.5511151e-17 0 0 -0.47704095
0.020624623 0.010617319 0 0 0 -0.47704095
0.020625895 0.011866904 0 0 0 -0.47704095
0.022356914 0.014216486 0.039999999 0 0 -0.47704095
0.020628864 0.014366579 0 0 0 -0.47704095
0.020630561 0.015616703 5.5511151e-17 0 0 -0.47704095
0.020632401 0.016867042 0 0 0 -0.47704095
0.020634381 0.018117612 0 0 0 -0.47704095
0.020636505 0.019368431 0 0 0 -0.47704095
0.020638768 0.020619515 0 0 0 -0.47704095
0.020641174 0.021870883 0 0 0 -0.47704095
0.020643724 0.023122553 0 0 0 -0.47704095
0.020646414 0.024374539 5.5511151e-17 0 0 -0.47704095
0.020649247 0.025626859 0 0 0 -0.47704095
0.020652223 0.026879532 0 0 0 -0.47704095
0.02065534 0.028132576 0 0 0 -0.47704095
0.020658601 0.029386006 0 0 0 -0.47704095
0.022394517 0.033209 0.039999999 0 0 -0.47704095
0.020665549 0.031894095 5.5511151e-17 0 0 -0.47704095
0.022402359 0.035928328 0.039999999 0 0 -0.47704095
0.022406511 0.037288722 0.039999999 0 0 -0.47704095
0.022410819 0.038649634 0.039999999 0 0 -0.47704095
0.020681163 0.036915686 0 0 0 -0.47704095
0.02068983 0.039429467 5.5511151e-17 0 0 -0.47704095
0.020694379 0.040687162 0 0 0 -0.47704095
0.020699071 0.041945424 0 0 0 -0.47704095
0.020703908 0.043204263 0 0 0 -0.47704095
0.020708889 0.044463698 5.5511151e-17 0 0 -0.47704095
0.020724699 0.048245765 0 0 0 -0.47704095
0.020730259 0.049507767 0 0 0 -0.47704095
0.020735964 0.050770454 0 0 0 -0.47704095
0.020741815 0.052033845 0 0 0 -0.47704095
0.020747811 0.053297956 0 0 0 -0.47704095
0.02076024 0.055828419 0 0 0 -0.47704095
0.020773254 0.058361985 0 0 0 -0.47704095
0.02077998 0.059629977 0 0 0 -0.47704095
0.020786854 0.060898799 0 0 0 -0.47704095
0.020793876 0.062168472 5.5511151e-17 0 0 -0.47704095
0.02080836 0.064710431 0 0 0 -0.47704095
0.020815823 0.065982759 0 0 0 -0.47704095
0.020823434 0.067256004 5.5511151e-17 0 0 -0.47704095
0.020839104 0.069805339 0 0 0 -0.47704095
0.020847162 0.07108146 0 0 0 -0.47704095
0.020855369 0.072358578 0 0 0 -0.47704095
0.022613153 0.079811171 0.039999999 0 0 -0.47704095
0.02228871 0.079999998 0.03237405 0 0 -0.47704095
0.021923313 0.079999998 0.023815038 0 0 -0.47704095
0.021569846 0.079999998 0.015532074 0 0 -0.47704095
0.020898651 0.078759775 0 0 0 -0.47704095
0.020992497 0.00067680539 0.039999999 0 0 -0.47704095
0.01936858 0.001873345 0 0 0 -0.47704095
0.019368846 0.0031222701 5.5511151e-17 0 0 -0.47704095
0.019369245 0.0043712384 5.5511151e-17 0 0 -0.47704095
0.019369775 0.0056202663 0 0 0 -0.47704095
0.019370439 0.006869371 0 0 0 -0.47704095
0.019371236 0.0081185699 0 0 0 -0.47704095
0.020996526 0.01015338 0.039999999 0 0 -0.47704095
0.019373227 0.010617319 5.5511151e-17 0 0 -0.47704095
0.019374423 0.011866904 0 0 0 -0.47704095
0.021000413 0.014216486 0.039999999 0 0 -0.47704095
0.021001996 0.01557122 0.039999999 0 0 -0.47704095
0.019378807 0.015616703 0 0 0 -0.47704095
0.019380534 0.016867042 5.5511151e-17 0 0 -0.47704095
0.021007612 0.019636778 0.039999999 0 0 -0.47704095
0.019384388 0.019368431 0 0 0 -0.47704095
0.019386515 0.020619515 0 0 0 -0.47704095
0.02101453 0.023704764 0.039999999 0 0 -0.47704095
0.01939117 0.023122553 5.5511151e-17 0 0 -0.47704095
0.021019863 0.026418349 0.039999999 0 0 -0.47704095
0.019396359 0.025626859 5.5511151e-17 0 0 -0.47704095
0.019399153 0.026879532 0 0 0 -0.47704095
0.019402081 0.028132576 0 0 0 -0.47704095
0.019405143 0.029386006 0 0 0 -0.47704095
0.021035735 0.033209 0.039999999 0 0 -0.47704095
0.019411672 0.031894095 5.5511151e-17 0 0 -0.47704095
0.019415136 0.033148792 5.5511151e-17 0 0 -0.47704095
0.021047002 0.037288722 0.039999999 0 0 -0.47704095
0.021051047 0.038649634 0.039999999 0 0 -0.47704095
0.02105524 0.040011078 0.039999999 0 0 -0.47704095
0.019430341 0.038172312 0 0 0 -0.47704095
0.019434478 0.039429467 0 0 0 -0.47704095
0.01944316 0.041945424 5.5511151e-17 0 0 -0.47704095
0.019447703 0.043204263 0 0 0 -0.47704095
0.019472456 0.049507767 0 0 0 -0.47704095
0.019477814 0.050770454 0 0 0 -0.47704095
0.019483309 0.052033845 0 0 0 -0.47704095
0.019488942 0.053297956 0 0 0 -0.47704095
0.019500617 0.055828419 0 0 0 -0.47704095
0.019506659 0.057094805 5.5511151e-17 0 0 -0.47704095
0.019512841 0.058361985 0 0 0 -0.47704095
0.019525615 0.060898799 5.5511151e-17 0 0 -0.47704095
0.019532211 0.062168472 0 0 0 -0.47704095
0.019538945 0.063439012 0 0 0 -0.47704095
0.019545816 0.064710431 5.5511151e-17 0 0 -0.47704095
0.019559978 0.067256004 0 0 0 -0.47704095
0.019574694 0.069805339 0 0 0 -0.47704095
0.019582264 0.07108146 0 0 0 -0.47704095
0.019589974 0.072358578 0 0 0 -0.47704095
0.019597823 0.073636718 0 0 0 -0.47704095
0.019605814 0.074915886 0 0 0 -0.47704095
0.02059312 0.079999998 0.023815038 0 0 -0.47704095
0.019622216 0.077477396 0 0 0 -0.47704095
0.019630631 0.078759775 5.5511151e-17 0 0 -0.47704095
0.018117627 0.0006244455 0 0 0 -0.47704095
0.018117752 0.001873345 5.5511151e-17 0 0 -0.47704095
0.018118 0.0031222701 0 0 0 -0.47704095
0.018118372 0.0043712384 0 0 0 -0.47704095
0.01811887 0.0056202663 0 0 0 -0.47704095
0.01811949 0.006869371 5.5511151e-17 0 0 -0.47704095
0.018120235 0.0081185699 0 0 0 -0.47704095
0.018121105 0.0093678804 0 0 0 -0.47704095
0.019641642 0.011507585 0.039999999 0 0 -0.47704095
0.018123217 0.011866904 5.5511151e-17 0 0 -0.47704095
0.018124459 0.013116651 5.5511151e-17 0 0 -0.47704095
0.018125826 0.014366579 0 0 0 -0.47704095
0.018127318 0.015616703 5.5511151e-17 0 0 -0.47704095
0.018128933 0.016867042 0 0 0 -0.47704095
0.018130673 0.018117612 0 0 0 -0.47704095
0.019652957 0.020992478 0.039999999 0 0 -0.47704095
0.018134529 0.020619515 0 0 0 -0.47704095
0.019657405 0.023704764 0.039999999 0 0 -0.47704095
0.018138882 0.023122553 0 0 0 -0.47704095
0.018141247 0.024374539 0 0 0 -0.47704095
0.018143736 0.025626859 0 0 0 -0.47704095
0.018146351 0.026879532 0 0 0 -0.47704095
0.018149089 0.028132576 0 0 0 -0.47704095
0.019673999 0.031850029 0.039999999 0 0 -0.47704095
0.018154945 0.03063984 5.5511151e-17 0 0 -0.47704095
0.01815806 0.031894095 0 0 0 -0.47704095
0.018161301 0.033148792 0 0 0 -0.47704095
0.018164668 0.034403943 0 0 0 -0.47704095
0.018168161 0.03565957 0 0 0 -0.47704095
0.018171778 0.036915686 5.5511151e-17 0 0 -0.47704095
0.018175524 0.038172312 5.5511151e-17 0 0 -0.47704095
0.018183392 0.040687162 0 0 0 -0.47704095
0.018187514 0.041945424 0 0 0 -0.47704095
0.018191764 0.043204263 0 0 0 -0.47704095
0.018196141 0.044463698 0 0 0 -0.47704095
0.018200645 0.045723747 5.5511151e-17 0 0 -0.47704095
0.018205276 0.04698443 0 0 0 -0.47704095
0.018210033 0.048245765 0 0 0 -0.47704095
0.018214919 0.049507767 0 0 0 -0.47704095
0.018219931 0.050770454 0 0 0 -0.47704095
0.018225072 0.052033845 0 0 0 -0.47704095
0.01823034 0.053297956 5.5511151e-17 0 0 -0.47704095
0.018235736 0.054562811 0 0 0 -0.47704095
0.018252697 0.058361985 0 0 0 -0.47704095
0.018258607 0.059629977 0 0 0 -0.47704095
0.018264646 0.060898799 0 0 0 -0.47704095
0.018270815 0.062168472 5.5511151e-17 0 0 -0.47704095
0.018277114 0.063439012 5.5511151e-17 0 0 -0.47704095
0.018283542 0.064710431 5.5511151e-17 0 0 -0.47704095
0.018296788 0.067256004 0 0 0 -0.47704095
0.018310556 0.069805339 0 0 0 -0.47704095
0.018317636 0.07108146 0 0 0 -0.47704095
0.018324846 0.072358578 5.5511151e-17 0 0 -0.47704095
0.018332189 0.073636718 0 0 0 -0.47704095
0.019584272 0.079999998 0.03237405 0 0 -0.47704095
0.018347271 0.076196104 5.5511151e-17 0 0 -0.47704095
0.018952632 0.079999998 0.015532074 0 0 -0.47704095
0.01836288 0.078759775 0 0 0 -0.47704095
0.016867056 0.0006244455 0 0 0 -0.47704095
0.016867172 0.001873345 0 0 0 -0.47704095
0.016867403 0.0031222701 0 0 0 -0.47704095
0.016867749 0.0043712384 5.5511151e-17 0 0 -0.47704095
0.018282617 0.0060915267 0.039999999 0 0 -0.47704095
0.016868791 0.006869371 5.5511151e-17 0 0 -0.47704095
0.016869484 0.0081185699 0 0 0 -0.47704095
0.016870294 0.0093678804 5.5511151e-17 0 0 -0.47704095
0.01687122 0.010617319 5.5511151e-17 0 0 -0.47704095
0.018287003 0.012861948 0.039999999 0 0 -0.47704095
0.018288257 0.014216486 0.039999999 0 0 -0.47704095
0.01687469 0.014366579 0 0 0 -0.47704095
0.016876077 0.015616703 0 0 0 -0.47704095
0.016877582 0.016867042 0 0 0 -0.47704095
0.016879203 0.018117612 0 0 0 -0.47704095
0.016880939 0.019368431 0 0 0 -0.47704095
0.01688279 0.020619515 0 0 0 -0.47704095
0.01830055 0.023704764 0.039999999 0 0 -0.47704095
0.016886843 0.023122553 0 0 0 -0.47704095
0.016889045 0.024374539 5.5511151e-17 0 0 -0.47704095
0.016891362 0.025626859 5.5511151e-17 0 0 -0.47704095
0.016893797 0.026879532 0 0 0 -0.47704095
0.01831311 0.030491499 0.039999999 0 0 -0.47704095
0.016899014 0.029386006 0 0 0 -0.47704095
0.016901797 0.03063984 0 0 0 -0.47704095
0.016904699 0.031894095 5.5511151e-17 0 0 -0.47704095
0.016907714 0.033148792 0 0 0 -0.47704095
0.016910849 0.034403943 0 0 0 -0.47704095
0.016914101 0.03565957 0 0 0 -0.47704095
0.016917469 0.036915686 0 0 0 -0.47704095
0.01692456 0.039429467 0 0 0 -0.47704095
0.01692828 0.040687162 5.5511151e-17 0 0 -0.47704095
0.016932119 0.041945424 5.5511151e-17 0 0 -0.47704095
0.016936077 0.043204263 0 0 0 -0.47704095
0.01694015 0.044463698 5.5511151e-17 0 0 -0.47704095
0.016944343 0.045723747 0 0 0 -0.47704095
0.016953085 0.048245765 0 0 0 -0.47704095
0.016957631 0.049507767 0 0 0 -0.47704095
0.016962299 0.050770454 0 0 0 -0.47704095
0.016967084 0.052033845 5.5511151e-17 0 0 -0.47704095
0.016971989 0.053297956 5.5511151e-17 0 0 -0.47704095
0.016977012 0.054562811 5.5511151e-17 0 0 -0.47704095
0.016982157 0.055828419 5.5511151e-17 0 0 -0.47704095
0.016987419 0.057094805 0 0 0 -0.47704095
0.016992802 0.058361985 0 0 0 -0.47704095
0.016998304 0.059629977 0 0 0 -0.47704095
0.017003927 0.060898799 0 0 0 -0.47704095
0.017015534 0.063439012 0 0 0 -0.47704095
0.017021518 0.064710431 0 0 0 -0.47704095
0.017027624 0.065982759 0 0 0 -0.47704095
0.017033851 0.067256004 0 0 0 -0.47704095
0.017040199 0.068530194 0 0 0 -0.47704095
0.017046668 0.069805339 5.5511151e-17 0 0 -0.47704095
0.019187646 0.079978019 0.059706457 0 0 -0.47704095
0.017059973 0.072358578 5.5511151e-17 0 0 -0.47704095
0.017066808 0.073636718 0 0 0 -0.47704095
0.017073767 0.074915886 0 0 0 -0.47704095
0.017933564 0.079999998 0.023815038 0 0 -0.47704095
0.017088052 0.077477396 0 0 0 -0.47704095
0.01709538 0.078759775 5.5511151e-17 0 0 -0.47704095
0.016926182 0.00067680539 0.039999999 0 0 -0.47704095
0.015616824 0.001873345 5.5511151e-17 0 0 -0.47704095
0.015617038 0.0031222701 0 0 0 -0.47704095
0.015617358 0.0043712384 0 0 0 -0.47704095
0.015617787 0.0056202663 0 0 0 -0.47704095
0.016927922 0.0074453694 0.039999999 0 0 -0.47704095
0.015618965 0.0081185699 0 0 0 -0.47704095
0.015619714 0.0093678804 0 0 0 -0.47704095
0.015620571 0.010617319 0 0 0 -0.47704095
0.015621535 0.011866904 5.5511151e-17 0 0 -0.47704095
0.015622606 0.013116651 0 0 0 -0.47704095
0.015623784 0.014366579 5.5511151e-17 0 0 -0.47704095
0.015625069 0.015616703 5.5511151e-17 0 0 -0.47704095
0.015626462 0.016867042 0 0 0 -0.47704095
0.015627962 0.018117612 0 0 0 -0.47704095
0.015629569 0.019368431 5.5511151e-17 0 0 -0.47704095
0.016941972 0.022348467 0.039999999 0 0 -0.47704095
0.015633108 0.021870883 0 0 0 -0.47704095
0.015635038 0.023122553 0 0 0 -0.47704095
0.015637076 0.024374539 0 0 0 -0.47704095
0.015639221 0.025626859 0 0 0 -0.47704095
0.015641475 0.026879532 0 0 0 -0.47704095
0.015643835 0.028132576 0 0 0 -0.47704095
0.015646305 0.029386006 0 0 0 -0.47704095
0.015648883 0.03063984 5.5511151e-17 0 0 -0.47704095
0.015651567 0.031894095 5.5511151e-17 0 0 -0.47704095
0.016966984 0.035928328 0.039999999 0 0 -0.47704095
0.015657263 0.034403943 0 0 0 -0.47704095
0.016973391 0.038649634 0.039999999 0 0 -0.47704095
0.015663393 0.036915686 0 0 0 -0.47704095
0.015666621 0.038172312 0 0 0 -0.47704095
0.015669957 0.039429467 0 0 0 -0.47704095
0.015673403 0.040687162 0 0 0 -0.47704095
0.01568062 0.043204263 0 0 0 -0.47704095
0.015684392 0.044463698 0 0 0 -0.47704095
0.015688274 0.045723747 0 0 0 -0.47704095
0.015692266 0.04698443 5.5511151e-17 0 0 -0.47704095
0.015696367 0.048245765 0 0 0 -0.47704095
0.015700577 0.049507767 0 0 0 -0.47704095
0.015709329 0.052033845 5.5511151e-17 0 0 -0.47704095
0.015723284 0.055828419 0 0 0 -0.47704095
0.015728157 0.057094805 5.5511151e-17 0 0 -0.47704095
0.015733141 0.058361985 0 0 0 -0.47704095
0.015743442 0.060898799 0 0 0 -0.47704095
0.015748758 0.062168472 0 0 0 -0.47704095
0.015759729 0.064710431 0 0 0 -0.47704095
0.015765382 0.065982759 0 0 0 -0.47704095
0.015777024 0.068530194 0 0 0 -0.47704095
0.015783014 0.069805339 5.5511151e-17 0 0 -0.47704095
0.015789116 0.07108146 0 0 0 -0.47704095
0.01742148 0.079807982 0.049111936 0 0 -0.47704095
0.015801661 0.073636718 0 0 0 -0.47704095
0.015808104 0.074915886 0 0 0 -0.47704095
0.01581466 0.076196104 0 0 0 -0.47704095
0.01582133 0.077477396 0 0 0 -0.47704095
0.015828114 0.078759775 0 0 0 -0.47704095
0.014366591 0.0006244455 0 0 0 -0.47704095
0.01436669 0.001873345 5.5511151e-17 0 0 -0.47704095
0.014366887 0.0031222701 5.5511151e-17 0 0 -0.47704095
0.014367182 0.0043712384 5.5511151e-17 0 0 -0.47704095
0.014367576 0.0056202663 5.5511151e-17 0 0 -0.47704095
0.014368068 0.006869371 0 0 0 -0.47704095
0.014368659 0.0081185699 5.5511151e-17 0 0 -0.47704095
0.014369349 0.0093678804 0 0 0 -0.47704095
0.014370137 0.010617319 0 0 0 -0.47704095
0.014371024 0.011866904 0 0 0 -0.47704095
0.014372009 0.013116651 0 0 0 -0.47704095
0.01557828 0.01557122 0.039999999 0 0 -0.47704095
0.014374275 0.015616703 5.5511151e-17 0 0 -0.47704095
0.014375556 0.016867042 0 0 0 -0.47704095
0.014376936 0.018117612 5.5511151e-17 0 0 -0.47704095
0.014378415 0.019368431 0 0 0 -0.47704095
0.014379993 0.020619515 5.5511151e-17 0 0 -0.47704095
0.015587577 0.023704764 0.039999999 0 0 -0.47704095
0.015589501 0.025061384 0.039999999 0 0 -0.47704095
0.01438532 0.024374539 0 0 0 -0.47704095
0.014387294 0.025626859 0 0 0 -0.47704095
0.014389367 0.026879532 0 0 0 -0.47704095
0.01439154 0.028132576 5.5511151e-17 0 0 -0.47704095
0.014393811 0.029386006 5.5511151e-17 0 0 -0.47704095
0.014396182 0.03063984 0 0 0 -0.47704095
