# .PCD v0.7 - Point Cloud Data file format
VERSION 0.7
FIELDS x y z vp_x vp_y vp_z
SIZE 4 4 4 4 4 4
TYPE F F F F F F
COUNT 1 1 1 1 1 1
WIDTH 747
HEIGHT 1
VIEWPOINT 0 0 0 1 0 0 0
POINTS 747
DATA ascii
0.024394086 0.061389647 0 -0.23852047 0.14741376 -0.38593423
0.023738317 0.060320843 0 -0.23852047 0.14741376 -0.38593423
0.023082938 0.059252825 0 -0.23852047 0.14741376 -0.38593423
0.021773314 0.057119079 5.5511151e-17 -0.23852047 0.14741376 -0.38593423
0.021119049 0.056053318 0 -0.23852047 0.14741376 -0.38593423
0.020465137 0.054988284 0 -0.23852047 0.14741376 -0.38593423
0.019811569 0.053923957 0 -0.23852047 0.14741376 -0.38593423
0.019158335 0.052860327 5.5511151e-17 -0.23852047 0.14741376 -0.38593423
0.017852837 0.050735082 0 -0.23852047 0.14741376 -0.38593423
0.017200554 0.049673438 0 -0.23852047 0.14741376 -0.38593423
0.016548568 0.048612431 0 -0.23852047 0.14741376 -0.38593423
0.015896872 0.047552042 0 -0.23852047 0.14741376 -0.38593423
0.014594315 0.045433067 0 -0.23852047 0.14741376 -0.38593423
0.013943434 0.044374447 0 -0.23852047 0.14741376 -0.38593423
0.013292807 0.04331639 0 -0.23852047 0.14741376 -0.38593423
0.012642425 0.042258877 5.5511151e-17 -0.23852047 0.14741376 -0.38593423
0.011992279 0.041201901 0 -0.23852047 0.14741376 -0.38593423
0.037239294 0.029027652 0.039999999 -0.23852047 0.14741376 -0.38593423
0.01069266 0.039089475 0 -0.23852047 0.14741376 -0.38593423
0.010043168 0.038034003 0 -0.23852047 0.14741376 -0.38593423
0.0093938773 0.036979005 0 -0.23852047 0.14741376 -0.38593423
0.034372486 0.024369199 0.039999999 -0.23852047 0.14741376 -0.38593423
0.0080958614 0.034870367 0 -0.23852047 0.14741376 -0.38593423
0.0074471193 0.033816703 5.5511151e-17 -0.23852047 0.14741376 -0.38593423
0.0067985421 0.032763451 0 -0.23852047 0.14741376 -0.38593423
0.0061501213 0.031710606 0 -0.23852047 0.14741376 -0.38593423
0.0055018486 0.030658145 0 -0.23852047 0.14741376 -0.38593423
0.0048537147 0.029606055 0 -0.23852047 0.14741376 -0.38593423
0.0042057107 0.028554326 0 -0.23852047 0.14741376 -0.38593423
0.0035578283 0.027502941 0 -0.23852047 0.14741376 -0.38593423
0.0029100582 0.026451886 0 -0.23852047 0.14741376 -0.38593423
0.0022623923 0.025401147 5.5511151e-17 -0.23852047 0.14741376 -0.38593423
0.0016148216 0.02435071 0 -0.23852047 0.14741376 -0.38593423
0.0009673374 0.02330056 0 -0.23852047 0.14741376 -0.38593423
0.00031993087 0.022250682 0 -0.23852047 0.14741376 -0.38593423
2.7755576e-17 0.02102758 0.0005304832 -0.23852047 0.14741376 -0.38593423
0.023645654 0.0069616647 0.039999999 -0.23852047 0.14741376 -0.38593423
2.7755576e-17 0.018224075 0.0026422713 -0.23852047 0.14741376 -0.38593423
0 0.016811175 0.0037067307 -0.23852047 0.14741376 -0.38593423
0 0.015390738 0.0047769807 -0.23852047 0.14741376 -0.38593423
0.020788673 0.002331516 0.039999999 -0.23852047 0.14741376 -0.38593423
0 0.012526923 0.0069351033 -0.23852047 0.14741376 -0.38593423
0 0.011083381 0.0080231018 -0.23852047 0.14741376 -0.38593423
2.7755576e-17 0.0096319709 0.0091171442 -0.23852047 0.14741376 -0.38593423
0 0.0081726061 0.010217295 -0.23852047 0.14741376 -0.38593423
0 0.0067052017 0.011323621 -0.23852047 0.14741376 -0.38593423
2.7755576e-17 0.0052296687 0.01243619 -0.23852047 0.14741376 -0.38593423
0 0.0037459191 0.013555069 -0.23852047 0.14741376 -0.38593423
2.7755576e-17 0.0022538621 0.014680327 -0.23852047 0.14741376 -0.38593423
2.7755576e-17 0.00075340632 0.015812034 -0.23852047 0.14741376 -0.38593423
0.038150247 0.079999998 0.00067920354 -0.23852047 0.14741376 -0.38593423
0.036997877 0.079031125 0 -0.23852047 0.14741376 -0.38593423
0.03633213 0.077944882 0 -0.23852047 0.14741376 -0.38593423
0.03566695 0.076859683 0 -0.23852047 0.14741376 -0.38593423
0.034338236 0.074692369 0 -0.23852047 0.14741376 -0.38593423
0.033011649 0.072529048 5.5511151e-17 -0.23852047 0.14741376 -0.38593423
0.032349132 0.071448848 0 -0.23852047 0.14741376 -0.38593423
0.031687118 0.070369601 0 -0.23852047 0.14741376 -0.38593423
0.031025602 0.069291294 0 -0.23852047 0.14741376 -0.38593423
0.030364569 0.068213902 0 -0.23852047 0.14741376 -0.38593423
0.02970401 0.067137413 0 -0.23852047 0.14741376 -0.38593423
0.029043918 0.066061817 0 -0.23852047 0.14741376 -0.38593423
0.027066348 0.062840208 0 -0.23852047 0.14741376 -0.38593423
0.026408026 0.061768018 0 -0.23852047 0.14741376 -0.38593423
0.025750125 0.060696635 0 -0.23852047 0.14741376 -0.38593423
0.025092633 0.05962605 0 -0.23852047 0.14741376 -0.38593423
0.024435541 0.058556251 0 -0.23852047 0.14741376 -0.38593423
0.023778841 0.057487212 0 -0.23852047 0.14741376 -0.38593423
0.023122525 0.056418929 0 -0.23852047 0.14741376 -0.38593423
0.022466579 0.05535138 5.5511151e-17 -0.23852047 0.14741376 -0.38593423
0.021810999 0.054284554 5.5511151e-17 -0.23852047 0.14741376 -0.38593423
0.021155773 0.053218435 5.5511151e-17 -0.23852047 0.14741376 -0.38593423
0.020500891 0.052153002 0 -0.23852047 0.14741376 -0.38593423
0.019192129 0.050024159 0 -0.23852047 0.14741376 -0.38593423
0.018538231 0.048960712 0 -0.23852047 0.14741376 -0.38593423
0.017884642 0.047897898 5.5511151e-17 -0.23852047 0.14741376 -0.38593423
0.017231351 0.046835702 5.5511151e-17 -0.23852047 0.14741376 -0.38593423
0.016578352 0.045774106 0 -0.23852047 0.14741376 -0.38593423
0.015925635 0.044713099 0 -0.23852047 0.14741376 -0.38593423
0.015273191 0.043652661 0 -0.23852047 0.14741376 -0.38593423
0.039419044 0.029390978 0.039999999 -0.23852047 0.14741376 -0.38593423
0.012665967 0.039416347 0 -0.23852047 0.14741376 -0.38593423
0.037981376 0.027055571 0.039999999 -0.23852047 0.14741376 -0.38593423
0.011363759 0.037301246 0 -0.23852047 0.14741376 -0.38593423
0.010712976 0.036244407 0 -0.23852047 0.14741376 -0.38593423
0.010062394 0.035188023 5.5511151e-17 -0.23852047 0.14741376 -0.38593423
0.0094120046 0.034132082 0 -0.23852047 0.14741376 -0.38593423
0.008761799 0.033076566 5.5511151e-17 -0.23852047 0.14741376 -0.38593423
0.0081117684 0.032021463 0 -0.23852047 0.14741376 -0.38593423
0.0074619041 0.030966759 0 -0.23852047 0.14741376 -0.38593423
0.032239605 0.017734058 0.039999999 -0.23852047 0.14741376 -0.38593423
0.0061626383 0.028858485 5.5511151e-17 -0.23852047 0.14741376 -0.38593423
0.0055132196 0.027804887 0 -0.23852047 0.14741376 -0.38593423
0.03008941 0.01424565 0.039999999 -0.23852047 0.14741376 -0.38593423
0.0042147655 0.025698697 0 -0.23852047 0.14741376 -0.38593423
0.0035657131 0.024646079 0 -0.23852047 0.14741376 -0.38593423
0.0029167649 0.023593757 0 -0.23852047 0.14741376 -0.38593423
0.0022679127 0.022541719 5.5511151e-17 -0.23852047 0.14741376 -0.38593423
0.0016191475 0.021489948 0 -0.23852047 0.14741376 -0.38593423
0.00097046042 0.020438435 0 -0.23852047 0.14741376 -0.38593423
0.0003218429 0.019387159 0 -0.23852047 0.14741376 -0.38593423
0.024360783 0.0049579097 0.039999999 -0.23852047 0.14741376 -0.38593423
2.7755576e-17 0.016751045 0.0015844149 -0.23852047 0.14741376 -0.38593423
0 0.015335542 0.0026451759 -0.23852047 0.14741376 -0.38593423
0 0.013912473 0.0037117035 -0.23852047 0.14741376 -0.38593423
2.7755576e-17 0.012481757 0.0047840588 -0.23852047 0.14741376 -0.38593423
0 0.011043311 0.0058623045 -0.23852047 0.14741376 -0.38593423
0 0.0095970528 0.0069465037 -0.23852047 0.14741376 -0.38593423
2.7755576e-17 0.0081428979 0.0080367206 -0.23852047 0.14741376 -0.38593423
0 0.006680761 0.0091330204 -0.23852047 0.14741376 -0.38593423
2.7755576e-17 0.0052105538 0.010235469 -0.23852047 0.14741376 -0.38593423
2.7755576e-17 0.0037321893 0.011344133 -0.23852047 0.14741376 -0.38593423
2.7755576e-17 0.002245578 0.012459081 -0.23852047 0.14741376 -0.38593423
0.0012207599 0 0.015625115 -0.23852047 0.14741376 -0.38593423
0.039058428 0.07945475 5.5511151e-17 -0.23852047 0.14741376 -0.38593423
0.038390167 0.078365684 0 -0.23852047 0.14741376 -0.38593423
0.037722491 0.077277675 5.5511151e-17 -0.23852047 0.14741376 -0.38593423
0.037055392 0.07619071 0 -0.23852047 0.14741376 -0.38593423
0.03572287 0.074019864 0 -0.23852047 0.14741376 -0.38593423
0.035057433 0.072935946 0 -0.23852047 0.14741376 -0.38593423
0.033728156 0.070771046 0 -0.23852047 0.14741376 -0.38593423
0.033064295 0.069690026 0 -0.23852047 0.14741376 -0.38593423
0.032400943 0.068609938 0 -0.23852047 0.14741376 -0.38593423
0.031738084 0.067530774 0 -0.23852047 0.14741376 -0.38593423
0.031075714 0.066452518 5.5511151e-17 -0.23852047 0.14741376 -0.38593423
0.030413823 0.065375142 0 -0.23852047 0.14741376 -0.38593423
0.0297524 0.064298645 0 -0.23852047 0.14741376 -0.38593423
0.029091435 0.063222997 0 -0.23852047 0.14741376 -0.38593423
0.039999999 0.058452975 0.016725533 -0.23852047 0.14741376 -0.38593423
0.027770843 0.06107422 0 -0.23852047 0.14741376 -0.38593423
0.027111197 0.060001053 0 -0.23852047 0.14741376 -0.38593423
0.026451973 0.058928683 0 -0.23852047 0.14741376 -0.38593423
0.025793161 0.057857089 0 -0.23852047 0.14741376 -0.38593423
0.025134752 0.056786265 0 -0.23852047 0.14741376 -0.38593423
0.024476735 0.055716187 5.5511151e-17 -0.23852047 0.14741376 -0.38593423
0.023819104 0.054646842 0 -0.23852047 0.14741376 -0.38593423
0.023161845 0.053578217 0 -0.23852047 0.14741376 -0.38593423
0.022504954 0.052510295 0 -0.23852047 0.14741376 -0.38593423
0.021848418 0.051443063 0 -0.23852047 0.14741376 -0.38593423
0.021192228 0.050376505 0 -0.23852047 0.14741376 -0.38593423
0.019880857 0.048245352 0 -0.23852047 0.14741376 -0.38593423
0.019225655 0.047180723 0 -0.23852047 0.14741376 -0.38593423
0.018570762 0.04611671 0 -0.23852047 0.14741376 -0.38593423
0.017916173 0.045053296 0 -0.23852047 0.14741376 -0.38593423
0.017261876 0.043990467 0 -0.23852047 0.14741376 -0.38593423
0.01660786 0.042928208 0 -0.23852047 0.14741376 -0.38593423
0.01595412 0.041866504 5.5511151e-17 -0.23852047 0.14741376 -0.38593423
0.015300646 0.04080534 0 -0.23852047 0.14741376 -0.38593423
0.014647428 0.039744698 5.5511151e-17 -0.23852047 0.14741376 -0.38593423
0.013994457 0.038684569 0 -0.23852047 0.14741376 -0.38593423
0.013341724 0.037624937 0 -0.23852047 0.14741376 -0.38593423
0.012689221 0.036565784 0 -0.23852047 0.14741376 -0.38593423
0.012036938 0.035507102 0 -0.23852047 0.14741376 -0.38593423
0.011384867 0.03444887 0 -0.23852047 0.14741376 -0.38593423
0.010732998 0.033391073 0 -0.23852047 0.14741376 -0.38593423
0.035847556 0.020406274 0.039999999 -0.23852047 0.14741376 -0.38593423
0.0094298329 0.03127674 0 -0.23852047 0.14741376 -0.38593423
0.008778519 0.030220171 0 -0.23852047 0.14741376 -0.38593423
0.0081273718 0.029163983 0 -0.23852047 0.14741376 -0.38593423
0.0074763829 0.028108159 0 -0.23852047 0.14741376 -0.38593423
0.032254331 0.01457791 0.039999999 -0.23852047 0.14741376 -0.38593423
0.031536192 0.013413414 0.039999999 -0.23852047 0.14741376 -0.38593423
0.0055242758 0.024942735 5.5511151e-17 -0.23852047 0.14741376 -0.38593423
0.0048738308 0.02388823 5.5511151e-17 -0.23852047 0.14741376 -0.38593423
0.0042234999 0.022834018 0 -0.23852047 0.14741376 -0.38593423
0.003573274 0.021780083 0 -0.23852047 0.14741376 -0.38593423
0.0029231445 0.020726414 0 -0.23852047 0.14741376 -0.38593423
0.0022731025 0.019672997 0 -0.23852047 0.14741376 -0.38593423
0.026512727 0.0052710171 0.039999999 -0.23852047 0.14741376 -0.38593423
0.00097324589 0.017566854 0 -0.23852047 0.14741376 -0.38593423
0.00032341373 0.016514102 0 -0.23852047 0.14741376 -0.38593423
2.7755576e-17 0.015280746 0.00052879495 -0.23852047 0.14741376 -0.38593423
0.02364409 0.0006239537 0.039999999 -0.23852047 0.14741376 -0.38593423
0 0.012436918 0.0026486595 -0.23852047 0.14741376 -0.38593423
2.7755576e-17 0.011003533 0.0037172651 -0.23852047 0.14741376 -0.38593423
0 0.0095623909 0.0047917357 -0.23852047 0.14741376 -0.38593423
0 0.0081134085 0.0058721341 -0.23852047 0.14741376 -0.38593423
0 0.0066564996 0.0069585247 -0.23852047 0.14741376 -0.38593423
0 0.0051915795 0.0080509717 -0.23852047 0.14741376 -0.38593423
0 0.003718561 0.0091495411 -0.23852047 0.14741376 -0.38593423
0 0.0022373553 0.010254298 -0.23852047 0.14741376 -0.38593423
2.7755576e-17 0.0007478731 0.011365313 -0.23852047 0.14741376 -0.38593423
0.039787695 0.077697739 0 -0.23852047 0.14741376 -0.38593423
0.039118078 0.076607965 0 -0.23852047 0.14741376 -0.38593423
0.038449045 0.075519234 0 -0.23852047 0.14741376 -0.38593423
0.037780594 0.074431531 0 -0.23852047 0.14741376 -0.38593423
0.037112705 0.073344842 0 -0.23852047 0.14741376 -0.38593423
0.036445376 0.07225915 5.5511151e-17 -0.23852047 0.14741376 -0.38593423
0.035112347 0.070090696 0 -0.23852047 0.14741376 -0.38593423
0.033116743 0.066845097 0 -0.23852047 0.14741376 -0.38593423
0.03245255 0.065765053 0 -0.23852047 0.14741376 -0.38593423
0.031788848 0.064685903 0 -0.23852047 0.14741376 -0.38593423
0.031125627 0.063607618 0 -0.23852047 0.14741376 -0.38593423
0.030462876 0.06253019 0 -0.23852047 0.14741376 -0.38593423
0.029138748 0.060377833 0 -0.23852047 0.14741376 -0.38593423
0.02847735 0.059302874 0 -0.23852047 0.14741376 -0.38593423
0.027816387 0.058228709 5.5511151e-17 -0.23852047 0.14741376 -0.38593423
0.027155844 0.057155322 0 -0.23852047 0.14741376 -0.38593423
0.026495717 0.056082699 0 -0.23852047 0.14741376 -0.38593423
0.025835995 0.055010822 0 -0.23852047 0.14741376 -0.38593423
0.025176667 0.053939678 0 -0.23852047 0.14741376 -0.38593423
0.024517724 0.052869249 0 -0.23852047 0.14741376 -0.38593423
0.023859158 0.051799521 0 -0.23852047 0.14741376 -0.38593423
0.023200959 0.050730482 0 -0.23852047 0.14741376 -0.38593423
0.022543119 0.049662113 5.5511151e-17 -0.23852047 0.14741376 -0.38593423
0.021885628 0.0485944 0 -0.23852047 0.14741376 -0.38593423
0.021228475 0.047527328 0 -0.23852047 0.14741376 -0.38593423
0.020571653 0.046460882 0 -0.23852047 0.14741376 -0.38593423
0.019915152 0.04539505 0 -0.23852047 0.14741376 -0.38593423
0.019258965 0.044329811 5.5511151e-17 -0.23852047 0.14741376 -0.38593423
0.018603079 0.043265153 0 -0.23852047 0.14741376 -0.38593423
0.017947488 0.042201065 0 -0.23852047 0.14741376 -0.38593423
0.017292179 0.041137528 5.5511151e-17 -0.23852047 0.14741376 -0.38593423
0.016637148 0.040074527 0 -0.23852047 0.14741376 -0.38593423
0.015982384 0.039012048 0 -0.23852047 0.14741376 -0.38593423
0.015327876 0.037950076 5.5511151e-17 -0.23852047 0.14741376 -0.38593423
0.014673618 0.036888599 0 -0.23852047 0.14741376 -0.38593423
0.014019599 0.035827596 0 -0.23852047 0.14741376 -0.38593423
0.013365811 0.034767061 5.5511151e-17 -0.23852047 0.14741376 -0.38593423
0.012712244 0.033706974 5.5511151e-17 -0.23852047 0.14741376 -0.38593423
0.012058889 0.032647319 5.5511151e-17 -0.23852047 0.14741376 -0.38593423
0.011405738 0.031588085 0 -0.23852047 0.14741376 -0.38593423
0.010752782 0.030529257 0 -0.23852047 0.14741376 -0.38593423
0.035868183 0.017246667 0.039999999 -0.23852047 0.14741376 -0.38593423
0.0094474182 0.028412756 0 -0.23852047 0.14741376 -0.38593423
0.0087949922 0.027355054 0 -0.23852047 0.14741376 -0.38593423
0.0081427256 0.0262977 0 -0.23852047 0.14741376 -0.38593423
0.0074906093 0.025240678 0 -0.23852047 0.14741376 -0.38593423
0.0068386337 0.024183976 0 -0.23852047 0.14741376 -0.38593423
0.031549376 0.010245984 0.039999999 -0.23852047 0.14741376 -0.38593423
0.0055350708 0.022071466 0 -0.23852047 0.14741376 -0.38593423
0.0048834658 0.021015631 0 -0.23852047 0.14741376 -0.38593423
0.0042319666 0.019960057 5.5511151e-17 -0.23852047 0.14741376 -0.38593423
0.0035805639 0.018904729 0 -0.23852047 0.14741376 -0.38593423
0.0029292495 0.017849632 0 -0.23852047 0.14741376 -0.38593423
0.0022780141 0.016794752 0 -0.23852047 0.14741376 -0.38593423
0.0016268493 0.015740076 0 -0.23852047 0.14741376 -0.38593423
0.00097574585 0.014685588 0 -0.23852047 0.14741376 -0.38593423
0.0003246952 0.013631275 5.5511151e-17 -0.23852047 0.14741376 -0.38593423
0 0.012392404 0.00052870653 -0.23852047 0.14741376 -0.38593423
0 0.010964044 0.0015877832 -0.23852047 0.14741376 -0.38593423
0 0.0095279813 0.0026526374 -0.23852047 0.14741376 -0.38593423
2.7755576e-17 0.0080841333 0.003723331 -0.23852047 0.14741376 -0.38593423
0 0.006632416 0.0047999271 -0.23852047 0.14741376 -0.38593423
0 0.0051727444 0.005882489 -0.23852047 0.14741376 -0.38593423
2.7755576e-17 0.0037050326 0.0069710813 -0.23852047 0.14741376 -0.38593423
2.7755576e-17 0.0022291932 0.0080657694 -0.23852047 0.14741376 -0.38593423
0 0.00074513716 0.0091666188 -0.23852047 0.14741376 -0.38593423
0.039847966 0.074845217 0 -0.23852047 0.14741376 -0.38593423
0.039177585 0.073755734 5.5511151e-17 -0.23852047 0.14741376 -0.38593423
0.038507782 0.072667271 0 -0.23852047 0.14741376 -0.38593423
0.037838552 0.071579799 0 -0.23852047 0.14741376 -0.38593423
0.037169877 0.070493311 0 -0.23852047 0.14741376 -0.38593423
0.036501754 0.069407791 0 -0.23852047 0.14741376 -0.38593423
0.035834171 0.06832321 5.5511151e-17 -0.23852047 0.14741376 -0.38593423
0.03516712 0.067239568 0 -0.23852047 0.14741376 -0.38593423
0.034500588 0.066156842 0 -0.23852047 0.14741376 -0.38593423
0.033834565 0.06507501 0 -0.23852047 0.14741376 -0.38593423
0.033169046 0.063994065 5.5511151e-17 -0.23852047 0.14741376 -0.38593423
0.032504018 0.062913992 5.5511151e-17 -0.23852047 0.14741376 -0.38593423
0.031175399 0.060756389 0 -0.23852047 0.14741376 -0.38593423
0.030511789 0.05967883 0 -0.23852047 0.14741376 -0.38593423
0.029848631 0.058602076 0 -0.23852047 0.14741376 -0.38593423
0.029185917 0.057526112 0 -0.23852047 0.14741376 -0.38593423
0.028523639 0.056450926 0 -0.23852047 0.14741376 -0.38593423
0.027861785 0.055376496 0 -0.23852047 0.14741376 -0.38593423
0.026539316 0.053229865 0 -0.23852047 0.14741376 -0.38593423
0.025878681 0.052157626 0 -0.23852047 0.14741376 -0.38593423
0.024558565 0.050015233 5.5511151e-17 -0.23852047 0.14741376 -0.38593423
0.023899065 0.048945047 0 -0.23852047 0.14741376 -0.38593423
0.023239924 0.047875512 0 -0.23852047 0.14741376 -0.38593423
0.022581134 0.046806619 0 -0.23852047 0.14741376 -0.38593423
0.021922685 0.045738351 0 -0.23852047 0.14741376 -0.38593423
0.021264568 0.04467069 5.5511151e-17 -0.23852047 0.14741376 -0.38593423
0.020606773 0.043603621 5.5511151e-17 -0.23852047 0.14741376 -0.38593423
0.019949293 0.04253713 0 -0.23852047 0.14741376 -0.38593423
0.018635236 0.040405829 0 -0.23852047 0.14741376 -0.38593423
0.017322322 0.038276661 0 -0.23852047 0.14741376 -0.38593423
0.016666273 0.037212841 0 -0.23852047 0.14741376 -0.38593423
0.01601048 0.036149513 0 -0.23852047 0.14741376 -0.38593423
0.015354939 0.035086658 0 -0.23852047 0.14741376 -0.38593423
0.014044569 0.032962311 0 -0.23852047 0.14741376 -0.38593423
0.013389722 0.031900793 0 -0.23852047 0.14741376 -0.38593423
0.012735088 0.030839689 0 -0.23852047 0.14741376 -0.38593423
0.01208066 0.029778987 0 -0.23852047 0.14741376 -0.38593423
0.011426427 0.028718673 0 -0.23852047 0.14741376 -0.38593423
0.010772382 0.027658731 0 -0.23852047 0.14741376 -0.38593423
0.010118513 0.026599146 0 -0.23852047 0.14741376 -0.38593423
0.0094648134 0.025539903 0 -0.23852047 0.14741376 -0.38593423
0.0088112736 0.024480991 5.5511151e-17 -0.23852047 0.14741376 -0.38593423
0.0081578847 0.023422392 0 -0.23852047 0.14741376 -0.38593423
0.0075046374 0.022364093 0 -0.23852047 0.14741376 -0.38593423
0.0068515232 0.021306077 5.5511151e-17 -0.23852047 0.14741376 -0.38593423
0.031562336 0.0070683234 0.039999999 -0.23852047 0.14741376 -0.38593423
0.030841794 0.0059012333 0.039999999 -0.23852047 0.14741376 -0.38593423
0.0048928894 0.018133601 5.5511151e-17 -0.23852047 0.14741376 -0.38593423
0.029401053 0.0035678372 0.039999999 -0.23852047 0.14741376 -0.38593423
0.0035876357 0.016019776 0 -0.23852047 0.14741376 -0.38593423
0.0029351327 0.014963171 0 -0.23852047 0.14741376 -0.38593423
0.027240649 6.9466107e-05 0.039999999 -0.23852047 0.14741376 -0.38593423
0.024564201 0 0.036855865 -0.23852047 0.14741376 -0.38593423
0.021806456 0 0.033563506 -0.23852047 0.14741376 -0.38593423
0.00032573962 0.010738441 0 -0.23852047 0.14741376 -0.38593423
0 0.0094938204 0.00052900938 -0.23852047 0.14741376 -0.38593423
2.7755576e-17 0.0080550704 0.0015901101 -0.23852047 0.14741376 -0.38593423
0 0.0066085071 0.0026570249 -0.23852047 0.14741376 -0.38593423
0 0.0051540467 0.0037298161 -0.23852047 0.14741376 -0.38593423
0.006126564 0 0.014845046 -0.23852047 0.14741376 -0.38593423
2.7755576e-17 0.002221091 0.0058932826 -0.23852047 0.14741376 -0.38593423
0 0.00074242137 0.0069840872 -0.23852047 0.14741376 -0.38593423
0.039908156 0.07198713 0 -0.23852047 0.14741376 -0.38593423
0.039237011 0.070897877 0 -0.23852047 0.14741376 -0.38593423
0.038566437 0.069809601 0 -0.23852047 0.14741376 -0.38593423
0.037896428 0.068722293 0 -0.23852047 0.14741376 -0.38593423
0.03588967 0.065465972 0 -0.23852047 0.14741376 -0.38593423
0.035221811 0.064382352 0 -0.23852047 0.14741376 -0.38593423
0.034554463 0.063299619 0 -0.23852047 0.14741376 -0.38593423
0.033221271 0.06113673 0 -0.23852047 0.14741376 -0.38593423
0.032555405 0.060056549 5.5511151e-17 -0.23852047 0.14741376 -0.38593423
0.031890012 0.058977187 5.5511151e-17 -0.23852047 0.14741376 -0.38593423
0.029896593 0.055743869 0 -0.23852047 0.14741376 -0.38593423
0.028569844 0.053592142 5.5511151e-17 -0.23852047 0.14741376 -0.38593423
0.0279071 0.052517373 5.5511151e-17 -0.23852047 0.14741376 -0.38593423
0.027244763 0.05144332 0 -0.23852047 0.14741376 -0.38593423
0.026582828 0.050369963 0 -0.23852047 0.14741376 -0.38593423
0.02592128 0.049297288 0 -0.23852047 0.14741376 -0.38593423
0.025260113 0.04822528 0 -0.23852047 0.14741376 -0.38593423
0.024599316 0.047153924 5.5511151e-17 -0.23852047 0.14741376 -0.38593423
0.023938879 0.046083201 0 -0.23852047 0.14741376 -0.38593423
0.023278795 0.0450131 0 -0.23852047 0.14741376 -0.38593423
0.022619056 0.043943606 0 -0.23852047 0.14741376 -0.38593423
0.021959648 0.042874701 0 -0.23852047 0.14741376 -0.38593423
0.021300564 0.041806374 0 -0.23852047 0.14741376 -0.38593423
0.020641796 0.040738605 0 -0.23852047 0.14741376 -0.38593423
0.019983333 0.039671384 5.5511151e-17 -0.23852047 0.14741376 -0.38593423
0.019325167 0.038604692 5.5511151e-17 -0.23852047 0.14741376 -0.38593423
0.018667288 0.037538517 0 -0.23852047 0.14741376 -0.38593423
0.018009689 0.036472842 0 -0.23852047 0.14741376 -0.38593423
0.017352358 0.035407655 5.5511151e-17 -0.23852047 0.14741376 -0.38593423
0.016695287 0.034342937 0 -0.23852047 0.14741376 -0.38593423
0.016038466 0.033278678 0 -0.23852047 0.14741376 -0.38593423
0.015381888 0.032214858 5.5511151e-17 -0.23852047 0.14741376 -0.38593423
0.013413514 0.029025909 0 -0.23852047 0.14741376 -0.38593423
0.012757813 0.027963711 5.5511151e-17 -0.23852047 0.14741376 -0.38593423
0.012102308 0.026901882 0 -0.23852047 0.14741376 -0.38593423
0.037354767 0.013239983 0.039999999 -0.23852047 0.14741376 -0.38593423
0.010791851 0.024779269 5.5511151e-17 -0.23852047 0.14741376 -0.38593423
0.010136882 0.023718458 0 -0.23852047 0.14741376 -0.38593423
0.0094820736 0.022657957 0 -0.23852047 0.14741376 -0.38593423
0.0088274162 0.02159775 0 -0.23852047 0.14741376 -0.38593423
0.0081729013 0.020537825 0 -0.23852047 0.14741376 -0.38593423
0.007518521 0.019478166 5.5511151e-17 -0.23852047 0.14741376 -0.38593423
0.0068642651 0.018418759 5.5511151e-17 -0.23852047 0.14741376 -0.38593423
0.0062101246 0.017359588 0 -0.23852047 0.14741376 -0.38593423
0.0055560912 0.016300643 5.5511151e-17 -0.23852047 0.14741376 -0.38593423
0.0049021556 0.015241904 0 -0.23852047 0.14741376 -0.38593423
0.0042483089 0.014183359 0 -0.23852047 0.14741376 -0.38593423
0.027258161 0 0.037720092 -0.23852047 0.14741376 -0.38593423
0.024468217 0 0.034407783 -0.23852047 0.14741376 -0.38593423
0.0022872144 0.011008746 0 -0.23852047 0.14741376 -0.38593423
0.0016336346 0.0099508325 0 -0.23852047 0.14741376 -0.38593423
0.00098009931 0.0088930409 0 -0.23852047 0.14741376 -0.38593423
0.013734492 0 0.021664759 -0.23852047 0.14741376 -0.38593423
0.011152552 0 0.01859959 -0.23852047 0.14741376 -0.38593423
0 0.0051354845 0.0015927519 -0.23852047 0.14741376 -0.38593423
2.7755576e-17 0.0036782718 0.0026617362 -0.23852047 0.14741376 -0.38593423
0 0.0022130478 0.0037366347 -0.23852047 0.14741376 -0.38593423
2.7755576e-17 0.00073972542 0.004817511 -0.23852047 0.14741376 -0.38593423
0.039968323 0.069123283 0 -0.23852047 0.14741376 -0.38593423
0.039296415 0.06803418 0 -0.23852047 0.14741376 -0.38593423
0.038625073 0.066946022 0 -0.23852047 0.14741376 -0.38593423
0.037954282 0.065858796 0 -0.23852047 0.14741376 -0.38593423
0.037284039 0.064772479 5.5511151e-17 -0.23852047 0.14741376 -0.38593423
0.036614332 0.063687064 0 -0.23852047 0.14741376 -0.38593423
0.035945147 0.062602527 0 -0.23852047 0.14741376 -0.38593423
0.03527648 0.061518855 0 -0.23852047 0.14741376 -0.38593423
0.034608316 0.060436036 0 -0.23852047 0.14741376 -0.38593423
0.033940651 0.059354048 0 -0.23852047 0.14741376 -0.38593423
0.03327347 0.05827288 0 -0.23852047 0.14741376 -0.38593423
0.031274751 0.055034131 0 -0.23852047 0.14741376 -0.38593423
0.030609421 0.05395608 0 -0.23852047 0.14741376 -0.38593423
0.02994453 0.052878771 0 -0.23852047 0.14741376 -0.38593423
0.029280065 0.051802188 0 -0.23852047 0.14741376 -0.38593423
0.02861602 0.050726313 0 -0.23852047 0.14741376 -0.38593423
0.027952386 0.049651131 0 -0.23852047 0.14741376 -0.38593423
0.027289152 0.048576631 0 -0.23852047 0.14741376 -0.38593423
0.025963848 0.046429604 0 -0.23852047 0.14741376 -0.38593423
0.024640033 0.044285111 5.5511151e-17 -0.23852047 0.14741376 -0.38593423
0.023978662 0.043213774 0 -0.23852047 0.14741376 -0.38593423
0.02265694 0.041072853 0 -0.23852047 0.14741376 -0.38593423
0.021996573 0.040003236 0 -0.23852047 0.14741376 -0.38593423
0.021336522 0.038934164 0 -0.23852047 0.14741376 -0.38593423
0.020676777 0.037865616 0 -0.23852047 0.14741376 -0.38593423
0.020017331 0.036797583 0 -0.23852047 0.14741376 -0.38593423
0.019358173 0.035730049 0 -0.23852047 0.14741376 -0.38593423
0.018699296 0.034662995 0 -0.23852047 0.14741376 -0.38593423
0.017382342 0.032530282 5.5511151e-17 -0.23852047 0.14741376 -0.38593423
0.016724249 0.031464588 0 -0.23852047 0.14741376 -0.38593423
0.016066398 0.030399319 0 -0.23852047 0.14741376 -0.38593423
0.014094212 0.027205905 0 -0.23852047 0.14741376 -0.38593423
0.013437242 0.026142182 5.5511151e-17 -0.23852047 0.14741376 -0.38593423
0.01278047 0.025078809 0 -0.23852047 0.14741376 -0.38593423
0.012123886 0.024015771 0 -0.23852047 0.14741376 -0.38593423
0.011467481 0.022953054 0 -0.23852047 0.14741376 -0.38593423
0.010811246 0.021890644 0 -0.23852047 0.14741376 -0.38593423
0.010155173 0.020828525 0 -0.23852047 0.14741376 -0.38593423
0.035205159 0.0065367492 0.039999999 -0.23852047 0.14741376 -0.38593423
0.008843476 0.0187051 5.5511151e-17 -0.23852047 0.14741376 -0.38593423
0.0081878323 0.017643766 0 -0.23852047 0.14741376 -0.38593423
0.0075323149 0.016582666 5.5511151e-17 -0.23852047 0.14741376 -0.38593423
0.0068769138 0.015521783 0 -0.23852047 0.14741376 -0.38593423
0.0062216199 0.014461105 0 -0.23852047 0.14741376 -0.38593423
0.02997384 0 0.038591411 -0.23852047 0.14741376 -0.38593423
0.027151229 0 0.035258923 -0.23852047 0.14741376 -0.38593423
0.0042562927 0.011280147 0 -0.23852047 0.14741376 -0.38593423
0.0036013385 0.010220139 0 -0.23852047 0.14741376 -0.38593423
0.0029464471 0.0091602625 0 -0.23852047 0.14741376 -0.38593423
0.016293857 0 0.022440514 -0.23852047 0.14741376 -0.38593423
0.001636816 0.0070408452 0 -0.23852047 0.14741376 -0.38593423
0.00098205858 0.0059812753 0 -0.23852047 0.14741376 -0.38593423
0.00032732787 0.0049217786 0 -0.23852047 0.14741376 -0.38593423
2.7755576e-17 0.0036650365 0.00053044804 -0.23852047 0.14741376 -0.38593423
0.0036220462 0 0.0074804472 -0.23852047 0.14741376 -0.38593423
0.001198563 0 0.0046194014 -0.23852047 0.14741376 -0.38593423
0.039355855 0.065164447 5.5511151e-17 -0.23852047 0.14741376 -0.38593423
0.038683742 0.064076334 0 -0.23852047 0.14741376 -0.38593423
0.038012177 0.062989108 0 -0.23852047 0.14741376 -0.38593423
0.033993721 0.056483708 0 -0.23852047 0.14741376 -0.38593423
0.033325709 0.055402312 0 -0.23852047 0.14741376 -0.38593423
0.032658167 0.054321688 0 -0.23852047 0.14741376 -0.38593423
0.031991087 0.053241815 0 -0.23852047 0.14741376 -0.38593423
0.030658262 0.051084276 5.5511151e-17 -0.23852047 0.14741376 -0.38593423
0.0299925 0.050006572 0 -0.23852047 0.14741376 -0.38593423
0.02932716 0.048929561 0 -0.23852047 0.14741376 -0.38593423
0.028662233 0.047853228 0 -0.23852047 0.14741376 -0.38593423
0.027997706 0.046777554 0 -0.23852047 0.14741376 -0.38593423
0.026669823 0.044628132 0 -0.23852047 0.14741376 -0.38593423
0.026006445 0.043554351 0 -0.23852047 0.14741376 -0.38593423
0.025343435 0.042481169 0 -0.23852047 0.14741376 -0.38593423
0.024680778 0.041408576 0 -0.23852047 0.14741376 -0.38593423
0.024018466 0.040336549 0 -0.23852047 0.14741376 -0.38593423
0.022694847 0.038194146 0 -0.23852047 0.14741376 -0.38593423
0.022033516 0.03712374 0 -0.23852047 0.14741376 -0.38593423
0.020711776 0.03498444 0 -0.23852047 0.14741376 -0.38593423
0.020051343 0.033915516 0 -0.23852047 0.14741376 -0.38593423
0.019391194 0.032847058 5.5511151e-17 -0.23852047 0.14741376 -0.38593423
0.018731315 0.031779047 0 -0.23852047 0.14741376 -0.38593423
0.018071698 0.030711474 0 -0.23852047 0.14741376 -0.38593423
0.017412335 0.02964432 0 -0.23852047 0.14741376 -0.38593423
0.016753217 0.02857757 0 -0.23852047 0.14741376 -0.38593423
0.016094333 0.027511211 0 -0.23852047 0.14741376 -0.38593423
0.015435674 0.026445229 0 -0.23852047 0.14741376 -0.38593423
0.014777233 0.025379606 0 -0.23852047 0.14741376 -0.38593423
0.014118998 0.024314329 0 -0.23852047 0.14741376 -0.38593423
0.039577477 0.010380415 0.039999999 -0.23852047 0.14741376 -0.38593423
0.012803117 0.022184754 0 -0.23852047 0.14741376 -0.38593423
0.01214545 0.021120427 5.5511151e-17 -0.23852047 0.14741376 -0.38593423
0.011487955 0.020056386 0 -0.23852047 0.14741376 -0.38593423
0.010830623 0.018992618 0 -0.23852047 0.14741376 -0.38593423
0.010173443 0.017929109 5.5511151e-17 -0.23852047 0.14741376 -0.38593423
0.0095164077 0.016865842 0 -0.23852047 0.14741376 -0.38593423
0.0088595068 0.015802803 5.5511151e-17 -0.23852047 0.14741376 -0.38593423
0.0082027316 0.014739978 0 -0.23852047 0.14741376 -0.38593423
0.032711539 0 0.039469868 -0.23852047 0.14741376 -0.38593423
0.0068895239 0.012614912 5.5511151e-17 -0.23852047 0.14741376 -0.38593423
0.0062330728 0.011552641 5.5511151e-17 -0.23852047 0.14741376 -0.38593423
0.0055767116 0.010490526 5.5511151e-17 -0.23852047 0.14741376 -0.38593423
0.0049204314 0.0094285524 0 -0.23852047 0.14741376 -0.38593423
0.0042642229 0.008366704 5.5511151e-17 -0.23852047 0.14741376 -0.38593423
0.0036080773 0.0073049678 5.5511151e-17 -0.23852047 0.14741376 -0.38593423
0.0029519857 0.006243329 0 -0.23852047 0.14741376 -0.38593423
0.0022959388 0.0051817731 0 -0.23852047 0.14741376 -0.38593423
0.0085455403 2.7755576e-17 0.011097218 -0.23852047 0.14741376 -0.38593423
0.00098394393 0.0030588505 5.5511151e-17 -0.23852047 0.14741376 -0.38593423
0.00032797796 0.0019974553 0 -0.23852047 0.14741376 -0.38593423
0 0.00073439203 0.00053141196 -0.23852047 0.14741376 -0.38593423
0.0394154 0.062288478 0 -0.23852047 0.14741376 -0.38593423
0.038742516 0.061200324 0 -0.23852047 0.14741376 -0.38593423
0.037398357 0.059026591 0 -0.23852047 0.14741376 -0.38593423
0.036727063 0.057940979 0 -0.23852047 0.14741376 -0.38593423
0.035385996 0.055772178 5.5511151e-17 -0.23852047 0.14741376 -0.38593423
0.0347162 0.05468896 0 -0.23852047 0.14741376 -0.38593423
0.034046888 0.053606514 0 -0.23852047 0.14741376 -0.38593423
0.033378046 0.052524816 0 -0.23852047 0.14741376 -0.38593423
0.032709666 0.051443852 5.5511151e-17 -0.23852047 0.14741376 -0.38593423
0.032041736 0.050363611 5.5511151e-17 -0.23852047 0.14741376 -0.38593423
0.03137425 0.049284078 0 -0.23852047 0.14741376 -0.38593423
0.030707197 0.04820523 0 -0.23852047 0.14741376 -0.38593423
0.030040566 0.047127057 0 -0.23852047 0.14741376 -0.38593423
0.029374348 0.046049543 0 -0.23852047 0.14741376 -0.38593423
0.028708534 0.044972673 0 -0.23852047 0.14741376 -0.38593423
0.028043116 0.043896429 0 -0.23852047 0.14741376 -0.38593423
0.027378082 0.0428208 0 -0.23852047 0.14741376 -0.38593423
0.026713423 0.041745767 0 -0.23852047 0.14741376 -0.38593423
0.026049132 0.040671315 0 -0.23852047 0.14741376 -0.38593423
0.025385195 0.039597433 0 -0.23852047 0.14741376 -0.38593423
0.024721608 0.038524099 0 -0.23852047 0.14741376 -0.38593423
0.024058357 0.037451304 0 -0.23852047 0.14741376 -0.38593423
0.02207054 0.034235984 0 -0.23852047 0.14741376 -0.38593423
0.021408549 0.033165183 0 -0.23852047 0.14741376 -0.38593423
0.020746848 0.032094844 0 -0.23852047 0.14741376 -0.38593423
0.02008543 0.031024951 0 -0.23852047 0.14741376 -0.38593423
0.019424284 0.029955488 0 -0.23852047 0.14741376 -0.38593423
0.018763402 0.028886443 5.5511151e-17 -0.23852047 0.14741376 -0.38593423
0.018102774 0.027817799 0 -0.23852047 0.14741376 -0.38593423
0.016782245 0.025681654 0 -0.23852047 0.14741376 -0.38593423
0.016122326 0.024614124 0 -0.23852047 0.14741376 -0.38593423
0.015462624 0.023546938 5.5511151e-17 -0.23852047 0.14741376 -0.38593423
0.01480313 0.022480076 0 -0.23852047 0.14741376 -0.38593423
0.014143837 0.021413529 0 -0.23852047 0.14741376 -0.38593423
0.013484732 0.020347279 0 -0.23852047 0.14741376 -0.38593423
0.012825809 0.019281311 0 -0.23852047 0.14741376 -0.38593423
0.038149469 0.0048249201 0.039999999 -0.23852047 0.14741376 -0.38593423
0.01150847 0.017150166 5.5511151e-17 -0.23852047 0.14741376 -0.38593423
0.036695942 0.0024734358 0.039999999 -0.23852047 0.14741376 -0.38593423
0.010191747 0.015019975 0 -0.23852047 0.14741376 -0.38593423
0.0095335925 0.0139552 0 -0.23852047 0.14741376 -0.38593423
0.0088755656 0.01289062 5.5511151e-17 -0.23852047 0.14741376 -0.38593423
0.029738655 0 0.033661965 -0.23852047 0.14741376 -0.38593423
0.0075598536 0.010761986 5.5511151e-17 -0.23852047 0.14741376 -0.38593423
0.0069021513 0.0096979029 0 -0.23852047 0.14741376 -0.38593423
0.0062445393 0.0086339554 0 -0.23852047 0.14741376 -0.38593423
0.0055870083 0.0075701284 0 -0.23852047 0.14741376 -0.38593423
0.016170874 0 0.017820545 -0.23852047 0.14741376 -0.38593423
0.0042721545 0.0054427814 5.5511151e-17 -0.23852047 0.14741376 -0.38593423
0.0036148133 0.0043792315 5.5511151e-17 -0.23852047 0.14741376 -0.38593423
0.0029575173 0.0033157445 0 -0.23852047 0.14741376 -0.38593423
0.0060367994 0 0.0059881038 -0.23852047 0.14741376 -0.38593423
0.0016430243 0.0011889007 0 -0.23852047 0.14741376 -0.38593423
0.00098580937 0.00012551478 0 -0.23852047 0.14741376 -0.38593423
0.039475106 0.059406053 0 -0.23852047 0.14741376 -0.38593423
0.038801454 0.058317788 0 -0.23852047 0.14741376 -0.38593423
0.038128331 0.057230353 0 -0.23852047 0.14741376 -0.38593423
0.03745573 0.056143731 0 -0.23852047 0.14741376 -0.38593423
0.036112055 0.053972859 0 -0.23852047 0.14741376 -0.38593423
0.035440963 0.05288858 0 -0.23852047 0.14741376 -0.38593423
0.034100216 0.050722253 0 -0.23852047 0.14741376 -0.38593423
0.033430543 0.049640175 0 -0.23852047 0.14741376 -0.38593423
0.032092545 0.04747811 0 -0.23852047 0.14741376 -0.38593423
0.031424202 0.046398092 0 -0.23852047 0.14741376 -0.38593423
0.030756285 0.04531873 0 -0.23852047 0.14741376 -0.38593423
0.030088784 0.044240009 5.5511151e-17 -0.23852047 0.14741376 -0.38593423
0.029421689 0.043161914 0 -0.23852047 0.14741376 -0.38593423
0.028754989 0.042084429 0 -0.23852047 0.14741376 -0.38593423
0.028088676 0.041007537 0 -0.23852047 0.14741376 -0.38593423
0.026091961 0.037780277 0 -0.23852047 0.14741376 -0.38593423
0.025427101 0.036705609 0 -0.23852047 0.14741376 -0.38593423
0.024098387 0.034557816 0 -0.23852047 0.14741376 -0.38593423
0.023434516 0.03348466 0 -0.23852047 0.14741376 -0.38593423
0.022770958 0.032411974 0 -0.23852047 0.14741376 -0.38593423
0.021444734 0.030267963 0 -0.23852047 0.14741376 -0.38593423
0.020119645 0.028125662 0 -0.23852047 0.14741376 -0.38593423
0.019457502 0.027055116 0 -0.23852047 0.14741376 -0.38593423
0.018795615 0.025984952 0 -0.23852047 0.14741376 -0.38593423
0.018133974 0.024915155 0 -0.23852047 0.14741376 -0.38593423
0.017472569 0.023845714 0 -0.23852047 0.14741376 -0.38593423
0.016811393 0.022776607 0 -0.23852047 0.14741376 -0.38593423
0.016150435 0.021707825 0 -0.23852047 0.14741376 -0.38593423
0.015489687 0.020639353 0 -0.23852047 0.14741376 -0.38593423
0.014829139 0.019571172 0 -0.23852047 0.14741376 -0.38593423
0.014168782 0.018503269 0 -0.23852047 0.14741376 -0.38593423
0.013508608 0.017435631 5.5511151e-17 -0.23852047 0.14741376 -0.38593423
0.012848605 0.016368242 0 -0.23852047 0.14741376 -0.38593423
0.012188766 0.015301087 0 -0.23852047 0.14741376 -0.38593423
0.011529082 0.014234152 0 -0.23852047 0.14741376 -0.38593423
0.010869543 0.01316742 0 -0.23852047 0.14741376 -0.38593423
0.010210141 0.012100879 5.5511151e-17 -0.23852047 0.14741376 -0.38593423
0.0095508648 0.011034514 0 -0.23852047 0.14741376 -0.38593423
0.0088917073 0.0099683087 5.5511151e-17 -0.23852047 0.14741376 -0.38593423
0.0082326578 0.0089022489 0 -0.23852047 0.14741376 -0.38593423
0.0075737089 0.0078363204 0 -0.23852047 0.14741376 -0.38593423
0.0069148508 0.0067705079 0 -0.23852047 0.14741376 -0.38593423
0.0062560737 0.0057047973 0 -0.23852047 0.14741376 -0.38593423
0.013529489 0 0.012540159 -0.23852047 0.14741376 -0.38593423
0.0049387291 0.0035736228 0 -0.23852047 0.14741376 -0.38593423
0.0042801425 0.002508129 0 -0.23852047 0.14741376 -0.38593423
0.0036216015 0.0014426784 5.5511151e-17 -0.23852047 0.14741376 -0.38593423
0.0029630966 0.00037725596 0 -0.23852047 0.14741376 -0.38593423
0.03818671 0.054340858 0 -0.23852047 0.14741376 -0.38593423
0.037513323 0.053253978 0 -0.23852047 0.14741376 -0.38593423
0.036840443 0.052167863 0 -0.23852047 0.14741376 -0.38593423
0.036168054 0.051082496 0 -0.23852047 0.14741376 -0.38593423
0.035496153 0.049997855 5.5511151e-17 -0.23852047 0.14741376 -0.38593423
0.034153763 0.047830712 5.5511151e-17 -0.23852047 0.14741376 -0.38593423
0.033483256 0.046748176 0 -0.23852047 0.14741376 -0.38593423
0.032813195 0.045666307 0 -0.23852047 0.14741376 -0.38593423
0.03214357 0.04458509 5.5511151e-17 -0.23852047 0.14741376 -0.38593423
0.031474371 0.043504514 0 -0.23852047 0.14741376 -0.38593423
0.030805591 0.04242456 5.5511151e-17 -0.23852047 0.14741376 -0.38593423
0.030137219 0.041345213 5.5511151e-17 -0.23852047 0.14741376 -0.38593423
0.028801655 0.039188277 0 -0.23852047 0.14741376 -0.38593423
0.028134447 0.038110655 0 -0.23852047 0.14741376 -0.38593423
0.026801128 0.035957038 0 -0.23852047 0.14741376 -0.38593423
0.026134999 0.034881011 0 -0.23852047 0.14741376 -0.38593423
0.024803754 0.032730434 0 -0.23852047 0.14741376 -0.38593423
0.02413862 0.031655859 0 -0.23852047 0.14741376 -0.38593423
0.023473797 0.030581739 0 -0.23852047 0.14741376 -0.38593423
0.022809278 0.029508056 0 -0.23852047 0.14741376 -0.38593423
0.022145055 0.028434798 5.5511151e-17 -0.23852047 0.14741376 -0.38593423
0.021481114 0.02736195 0 -0.23852047 0.14741376 -0.38593423
0.020817449 0.026289495 0 -0.23852047 0.14741376 -0.38593423
0.02015405 0.025217418 0 -0.23852047 0.14741376 -0.38593423
0.019490907 0.024145706 0 -0.23852047 0.14741376 -0.38593423
0.018828012 0.023074342 0 -0.23852047 0.14741376 -0.38593423
0.018165356 0.022003312 5.5511151e-17 -0.23852047 0.14741376 -0.38593423
0.017502926 0.020932602 5.5511151e-17 -0.23852047 0.14741376 -0.38593423
0.016840719 0.019862195 0 -0.23852047 0.14741376 -0.38593423
0.01617872 0.018792078 5.5511151e-17 -0.23852047 0.14741376 -0.38593423
0.015516923 0.017722234 0 -0.23852047 0.14741376 -0.38593423
0.014855318 0.016652651 0 -0.23852047 0.14741376 -0.38593423
0.013532646 0.014514201 0 -0.23852047 0.14741376 -0.38593423
0.012871561 0.013445307 5.5511151e-17 -0.23852047 0.14741376 -0.38593423
0.012210631 0.012376611 0 -0.23852047 0.14741376 -0.38593423
0.011549847 0.011308102 0 -0.23852047 0.14741376 -0.38593423
0.029507129 0 0.028809212 -0.23852047 0.14741376 -0.38593423
0.01022868 0.009171579 0 -0.23852047 0.14741376 -0.38593423
0.0095682796 0.0081035364 0 -0.23852047 0.14741376 -0.38593423
0.0089079877 0.0070356191 5.5511151e-17 -0.23852047 0.14741376 -0.38593423
0.0082477964 0.005967814 0 -0.23852047 0.14741376 -0.38593423
0.0075876964 0.0049001048 0 -0.23852047 0.14741376 -0.38593423
0.0069276784 0.0038324778 0 -0.23852047 0.14741376 -0.38593423
0.0062677329 0.0027649177 0 -0.23852047 0.14741376 -0.38593423
0.0056078508 0.0016974098 5.5511151e-17 -0.23852047 0.14741376 -0.38593423
0.0049480237 0.00062993949 5.5511151e-17 -0.23852047 0.14741376 -0.38593423
0.039595254 0.053621016 0 -0.23852047 0.14741376 -0.38593423
0.038920056 0.052532297 0 -0.23852047 0.14741376 -0.38593423
0.038245376 0.051444337 5.5511151e-17 -0.23852047 0.14741376 -0.38593423
0.037571203 0.050357122 0 -0.23852047 0.14741376 -0.38593423
0.039999999 0.048165094 0.0043473938 -0.23852047 0.14741376 -0.38593423
0.036224335 0.048184868 0 -0.23852047 0.14741376 -0.38593423
0.035551623 0.047099791 0 -0.23852047 0.14741376 -0.38593423
0.034879379 0.0460154 0 -0.23852047 0.14741376 -0.38593423
0.03420759 0.044931673 5.5511151e-17 -0.23852047 0.14741376 -0.38593423
0.033536248 0.0438486 0 -0.23852047 0.14741376 -0.38593423
0.032865345 0.042766158 0 -0.23852047 0.14741376 -0.38593423
0.031524818 0.040603124 0 -0.23852047 0.14741376 -0.38593423
0.030855171 0.039522495 0 -0.23852047 0.14741376 -0.38593423
0.030185925 0.03844244 5.5511151e-17 -0.23852047 0.14741376 -0.38593423
0.029517069 0.037362944 0 -0.23852047 0.14741376 -0.38593423
0.028848594 0.036283989 0 -0.23852047 0.14741376 -0.38593423
0.028180487 0.035205562 0 -0.23852047 0.14741376 -0.38593423
0.027512744 0.034127645 0 -0.23852047 0.14741376 -0.38593423
0.026845353 0.033050224 0 -0.23852047 0.14741376 -0.38593423
0.026178302 0.031973287 0 -0.23852047 0.14741376 -0.38593423
0.025511585 0.030896815 0 -0.23852047 0.14741376 -0.38593423
0.024845192 0.029820792 0 -0.23852047 0.14741376 -0.38593423
0.024179112 0.028745206 0 -0.23852047 0.14741376 -0.38593423
0.023513338 0.027670041 5.5511151e-17 -0.23852047 0.14741376 -0.38593423
0.021517746 0.024446912 0 -0.23852047 0.14741376 -0.38593423
0.020853097 0.023373276 0 -0.23852047 0.14741376 -0.38593423
0.019524559 0.021227024 0 -0.23852047 0.14741376 -0.38593423
0.018860653 0.020154377 5.5511151e-17 -0.23852047 0.14741376 -0.38593423
0.018196978 0.01908203 5.5511151e-17 -0.23852047 0.14741376 -0.38593423
0.017533522 0.01800997 0 -0.23852047 0.14741376 -0.38593423
0.016870279 0.016938178 0 -0.23852047 0.14741376 -0.38593423
0.016207237 0.015866641 0 -0.23852047 0.14741376 -0.38593423
0.015544388 0.014795344 0 -0.23852047 0.14741376 -0.38593423
0.014219231 0.012653411 5.5511151e-17 -0.23852047 0.14741376 -0.38593423
0.013556904 0.011582744 0 -0.23852047 0.14741376 -0.38593423
0.012894734 0.010512259 0 -0.23852047 0.14741376 -0.38593423
0.01223271 0.0094419392 0 -0.23852047 0.14741376 -0.38593423
0.026628911 0 0.023237241 -0.23852047 0.14741376 -0.38593423
0.010909064 0.0073017362 0 -0.23852047 0.14741376 -0.38593423
0.010247424 0.0062318235 0 -0.23852047 0.14741376 -0.38593423
0.018589154 0 0.014004743 -0.23852047 0.14741376 -0.38593423
0.0089244656 0.0040923022 0 -0.23852047 0.14741376 -0.38593423
0.013429263 0 0.0080790957 -0.23852047 0.14741376 -0.38593423
0.0076018726 0.0019530874 0 -0.23852047 0.14741376 -0.38593423
0.0069406903 0.0008835576 0 -0.23852047 0.14741376 -0.38593423
0.038979851 0.04962891 0 -0.23852047 0.14741376 -0.38593423
0.038304389 0.04854057 0 -0.23852047 0.14741376 -0.38593423
0.037629429 0.047452942 0 -0.23852047 0.14741376 -0.38593423
0.036954958 0.04636601 0 -0.23852047 0.14741376 -0.38593423
0.036280964 0.045279756 5.5511151e-17 -0.23852047 0.14741376 -0.38593423
0.035607439 0.044194169 0 -0.23852047 0.14741376 -0.38593423
0.034934375 0.043109227 0 -0.23852047 0.14741376 -0.38593423
0.034261759 0.042024918 0 -0.23852047 0.14741376 -0.38593423
0.033589583 0.040941224 0 -0.23852047 0.14741376 -0.38593423
0.032917839 0.039858133 0 -0.23852047 0.14741376 -0.38593423
0.032246515 0.038775627 0 -0.23852047 0.14741376 -0.38593423
0.031575602 0.037693691 0 -0.23852047 0.14741376 -0.38593423
0.03090509 0.03661231 0 -0.23852047 0.14741376 -0.38593423
0.030234968 0.035531469 0 -0.23852047 0.14741376 -0.38593423
0.02956523 0.034451149 0 -0.23852047 0.14741376 -0.38593423
0.028895864 0.03337134 0 -0.23852047 0.14741376 -0.38593423
0.02822686 0.032292023 0 -0.23852047 0.14741376 -0.38593423
0.027558211 0.031213187 0 -0.23852047 0.14741376 -0.38593423
0.026889903 0.03013481 0 -0.23852047 0.14741376 -0.38593423
0.026221931 0.029056881 0 -0.23852047 0.14741376 -0.38593423
0.025554284 0.027979381 0 -0.23852047 0.14741376 -0.38593423
0.024219926 0.025825622 0 -0.23852047 0.14741376 -0.38593423
0.023553196 0.024749327 5.5511151e-17 -0.23852047 0.14741376 -0.38593423
0.022886753 0.023673406 5.5511151e-17 -0.23852047 0.14741376 -0.38593423
0.022220587 0.02259784 0 -0.23852047 0.14741376 -0.38593423
0.02155469 0.021522613 0 -0.23852047 0.14741376 -0.38593423
0.020889051 0.020447714 5.5511151e-17 -0.23852047 0.14741376 -0.38593423
0.020223662 0.019373124 0 -0.23852047 0.14741376 -0.38593423
0.019558514 0.018298831 0 -0.23852047 0.14741376 -0.38593423
0.018893596 0.017224818 0 -0.23852047 0.14741376 -0.38593423
0.0182289 0.016151071 0 -0.23852047 0.14741376 -0.38593423
0.017564414 0.015077574 0 -0.23852047 0.14741376 -0.38593423
0.016900133 0.014004312 0 -0.23852047 0.14741376 -0.38593423
0.016236044 0.012931271 5.5511151e-17 -0.23852047 0.14741376 -0.38593423
0.015572141 0.011858436 0 -0.23852047 0.14741376 -0.38593423
0.014908412 0.010785791 0 -0.23852047 0.14741376 -0.38593423
0.014244848 0.0097133229 0 -0.23852047 0.14741376 -0.38593423
0.013581442 0.0086410139 0 -0.23852047 0.14741376 -0.38593423
0.012918182 0.0075688516 0 -0.23852047 0.14741376 -0.38593423
0.01225506 0.0064968197 0 -0.23852047 0.14741376 -0.38593423
0.011592067 0.0054249042 0 -0.23852047 0.14741376 -0.38593423
0.018519515 0 0.011743312 -0.23852047 0.14741376 -0.38593423
0.01026643 0.0032813607 0 -0.23852047 0.14741376 -0.38593423
0.0096037667 0.0022097034 0 -0.23852047 0.14741376 -0.38593423
0.01086658 0 0.0030027735 -0.23852047 0.14741376 -0.38593423
0.008278708 6.6543056e-05 0 -0.23852047 0.14741376 -0.38593423
0.039716795 0.04780763 0 -0.23852047 0.14741376 -0.38593423
0.039040051 0.046718139 0 -0.23852047 0.14741376 -0.38593423
0.038363814 0.045629341 0 -0.23852047 0.14741376 -0.38593423
0.037688065 0.044541221 0 -0.23852047 0.14741376 -0.38593423
0.037012797 0.04345376 0 -0.23852047 0.14741376 -0.38593423
0.036337998 0.042366944 0 -0.23852047 0.14741376 -0.38593423
0.034989778 0.040195189 0 -0.23852047 0.14741376 -0.38593423
0.033643324 0.038025826 0 -0.23852047 0.14741376 -0.38593423
0.032970734 0.036942005 0 -0.23852047 0.14741376 -0.38593423
0.032298561 0.035858732 0 -0.23852047 0.14741376 -0.38593423
0.031626787 0.034775998 0 -0.23852047 0.14741376 -0.38593423
0.030955406 0.033693783 0 -0.23852047 0.14741376 -0.38593423
0.03028441 0.03261207 0 -0.23852047 0.14741376 -0.38593423
0.029613787 0.03153085 0 -0.23852047 0.14741376 -0.38593423
0.028943529 0.030450104 0 -0.23852047 0.14741376 -0.38593423
0.028273625 0.029369818 0 -0.23852047 0.14741376 -0.38593423
0.027604068 0.028289974 0 -0.23852047 0.14741376 -0.38593423
0.026934845 0.027210558 5.5511151e-17 -0.23852047 0.14741376 -0.38593423
0.026265947 0.026131555 0 -0.23852047 0.14741376 -0.38593423
0.025597367 0.02505295 5.5511151e-17 -0.23852047 0.14741376 -0.38593423
0.024929095 0.023974726 5.5511151e-17 -0.23852047 0.14741376 -0.38593423
0.024261121 0.022896871 0 -0.23852047 0.14741376 -0.38593423
0.023593433 0.021819366 0 -0.23852047 0.14741376 -0.38593423
0.021592006 0.018588815 0 -0.23852047 0.14741376 -0.38593423
0.020925378 0.017512567 0 -0.23852047 0.14741376 -0.38593423
0.020258989 0.016436595 0 -0.23852047 0.14741376 -0.38593423
0.019592835 0.015360885 0 -0.23852047 0.14741376 -0.38593423
0.0189269 0.014285421 0 -0.23852047 0.14741376 -0.38593423
0.018261179 0.013210188 5.5511151e-17 -0.23852047 0.14741376 -0.38593423
0.037651319 0 0.031305186 -0.23852047 0.14741376 -0.38593423
0.034778304 0 0.028042546 -0.23852047 0.14741376 -0.38593423
0.015600241 0.0089112632 0 -0.23852047 0.14741376 -0.38593423
