# .PCD v0.7 - Point Cloud Data file format
VERSION 0.7
FIELDS x y z vp_x vp_y vp_z
SIZE 4 4 4 4 4 4
TYPE F F F F F F
COUNT 1 1 1 1 1 1
WIDTH 801
HEIGHT 1
VIEWPOINT 0 0 0 1 0 0 0
POINTS 801
DATA ascii
0.0015382877 0.067619227 0.061575662 -0.25019264 0.4048202 0
0.0010591187 0.066416569 0.061674953 -0.25019264 0.4048202 0
0.00068161375 0.065070234 0.061800413 -0.25019264 0.4048202 0
0.00035960498 0.063640736 0.061940908 -0.25019264 0.4048202 0
0.00011377094 0.062098399 0.062101737 -0.25019264 0.4048202 0
1.8386627e-05 0.060339123 0.06230161 -0.25019264 0.4048202 0
9.0211062e-05 0.058336142 0.062545143 -0.25019264 0.4048202 0
0.00042674609 0.055949729 0.06285727 -0.25019264 0.4048202 0
0.0014675788 0.052558243 0.063349403 -0.25019264 0.4048202 0
0.032272447 0.075756535 0.062299617 -0.25019264 0.4048202 0
0.029000152 0.077840477 0.061766483 -0.25019264 0.4048202 0
0.026692301 0.07881891 0.061444517 -0.25019264 0.4048202 0
0.024728861 0.079407841 0.06119765 -0.25019264 0.4048202 0
0.022971774 0.079765201 0.060995743 -0.25019264 0.4048202 0
0.021378057 0.079938583 0.060829587 -0.25019264 0.4048202 0
0.019902099 0.079979792 0.060689267 -0.25019264 0.4048202 0
0.018510927 0.079926506 0.060567588 -0.25019264 0.4048202 0
0.017199054 0.07978379 0.060463484 -0.25019264 0.4048202 0
0.01595903 0.079559244 0.06037543 -0.25019264 0.4048202 0
0.0147559 0.079294443 0.060295623 -0.25019264 0.4048202 0
0.013637219 0.078929938 0.060234997 -0.25019264 0.4048202 0
0.012533699 0.078550123 0.060177863 -0.25019264 0.4048202 0
0.011508515 0.078075819 0.060138769 -0.25019264 0.4048202 0
0.010495669 0.077588297 0.060102679 -0.25019264 0.4048202 0
0.0095493449 0.077018932 0.060082152 -0.25019264 0.4048202 0
0.0086171469 0.076432839 0.06006518 -0.25019264 0.4048202 0
0.0077456436 0.075770311 0.060062643 -0.25019264 0.4048202 0
0.0068891416 0.07508868 0.060064007 -0.25019264 0.4048202 0
0.006090567 0.074332252 0.06007937 -0.25019264 0.4048202 0
0.00530911 0.073552705 0.060099278 -0.25019264 0.4048202 0
0.0045837816 0.072698787 0.060132984 -0.25019264 0.4048202 0
0.0038811921 0.071813025 0.060172718 -0.25019264 0.4048202 0
0.0032316232 0.070854984 0.06022574 -0.25019264 0.4048202 0
0.0026170188 0.069847398 0.060287882 -0.25019264 0.4048202 0
0.0020483655 0.068774804 0.060361866 -0.25019264 0.4048202 0
0.0015382877 0.067619227 0.060450848 -0.25019264 0.4048202 0
0.0010591187 0.066416569 0.060548324 -0.25019264 0.4048202 0
0.00068161375 0.065070234 0.060671493 -0.25019264 0.4048202 0
0.00035960498 0.063640736 0.060809422 -0.25019264 0.4048202 0
0.00011377094 0.062098399 0.060967311 -0.25019264 0.4048202 0
1.8386627e-05 0.060339123 0.061163533 -0.25019264 0.4048202 0
9.0211062e-05 0.058336142 0.061402619 -0.25019264 0.4048202 0
0.00042674609 0.055949729 0.061709043 -0.25019264 0.4048202 0
0.0014675788 0.052558243 0.062192187 -0.25019264 0.4048202 0
0.032272447 0.075756535 0.061141275 -0.25019264 0.4048202 0
0.029000152 0.077840477 0.060618054 -0.25019264 0.4048202 0
0.026692301 0.07881891 0.060302075 -0.25019264 0.4048202 0
0.024728861 0.079407841 0.060059793 -0.25019264 0.4048202 0
0.022971774 0.079765201 0.059861641 -0.25019264 0.4048202 0
0.021378057 0.079938583 0.059698578 -0.25019264 0.4048202 0
0.019901183 0.079980895 0.059560664 -0.25019264 0.4048202 0
0.018510927 0.079926506 0.059441451 -0.25019264 0.4048202 0
0.017199054 0.07978379 0.059339281 -0.25019264 0.4048202 0
0.01595903 0.079559244 0.059252866 -0.25019264 0.4048202 0
0.0147559 0.079294443 0.059174541 -0.25019264 0.4048202 0
0.013637219 0.078929938 0.059115041 -0.25019264 0.4048202 0
0.012533699 0.078550123 0.059058968 -0.25019264 0.4048202 0
0.011508515 0.078075819 0.059020605 -0.25019264 0.4048202 0
0.010495669 0.077588297 0.058985185 -0.25019264 0.4048202 0
0.0095493449 0.077018932 0.058965042 -0.25019264 0.4048202 0
0.0086171469 0.076432839 0.058948386 -0.25019264 0.4048202 0
0.0077456436 0.075770311 0.058945894 -0.25019264 0.4048202 0
0.0068891416 0.07508868 0.058947232 -0.25019264 0.4048202 0
0.006090567 0.074332252 0.058962308 -0.25019264 0.4048202 0
0.00530911 0.073552705 0.058981847 -0.25019264 0.4048202 0
0.0045837816 0.072698787 0.059014924 -0.25019264 0.4048202 0
0.0038811921 0.071813025 0.05905392 -0.25019264 0.4048202 0
0.0032316232 0.070854984 0.059105959 -0.25019264 0.4048202 0
0.0026170188 0.069847398 0.059166942 -0.25019264 0.4048202 0
0.0020483655 0.068774804 0.059239551 -0.25019264 0.4048202 0
0.0015382877 0.067619227 0.059326883 -0.25019264 0.4048202 0
0.0010591187 0.066416569 0.059422545 -0.25019264 0.4048202 0
0.00068161375 0.065070234 0.059543423 -0.25019264 0.4048202 0
0.00035960498 0.063640736 0.059678789 -0.25019264 0.4048202 0
0.00011377094 0.062098399 0.059833743 -0.25019264 0.4048202 0
1.8386627e-05 0.060339123 0.060026314 -0.25019264 0.4048202 0
9.0211062e-05 0.058336142 0.060260955 -0.25019264 0.4048202 0
0.00042674609 0.055949729 0.060561683 -0.25019264 0.4048202 0
0.0014675788 0.052558243 0.061035842 -0.25019264 0.4048202 0
0.032272447 0.075756535 0.05998379 -0.25019264 0.4048202 0
0.029000152 0.077840477 0.059470471 -0.25019264 0.4048202 0
0.026692301 0.07881891 0.059160475 -0.25019264 0.4048202 0
0.024728861 0.079407841 0.058922783 -0.25019264 0.4048202 0
0.022971774 0.079765201 0.058728382 -0.25019264 0.4048202 0
0.021378057 0.079938583 0.058568403 -0.25019264 0.4048202 0
0.019900266 0.079981998 0.058432903 -0.25019264 0.4048202 0
0.018510927 0.079926506 0.058316141 -0.25019264 0.4048202 0
0.017199054 0.07978379 0.058215909 -0.25019264 0.4048202 0
0.01595903 0.079559244 0.058131129 -0.25019264 0.4048202 0
0.0147559 0.079294443 0.058054287 -0.25019264 0.4048202 0
0.013637219 0.078929938 0.057995912 -0.25019264 0.4048202 0
0.012533699 0.078550123 0.057940904 -0.25019264 0.4048202 0
0.011508515 0.078075819 0.057903264 -0.25019264 0.4048202 0
0.010495669 0.077588297 0.057868518 -0.25019264 0.4048202 0
0.0095493449 0.077018932 0.057848752 -0.25019264 0.4048202 0
0.0086171469 0.076432839 0.057832412 -0.25019264 0.4048202 0
0.0077456436 0.075770311 0.057829969 -0.25019264 0.4048202 0
0.0068891416 0.07508868 0.05783128 -0.25019264 0.4048202 0
0.006090567 0.074332252 0.057846073 -0.25019264 0.4048202 0
0.00530911 0.073552705 0.05786524 -0.25019264 0.4048202 0
0.0045837816 0.072698787 0.057897694 -0.25019264 0.4048202 0
0.0038811921 0.071813025 0.057935949 -0.25019264 0.4048202 0
0.0032316232 0.070854984 0.057987001 -0.25019264 0.4048202 0
0.0026170188 0.069847398 0.058046833 -0.25019264 0.4048202 0
0.0020483655 0.068774804 0.058118068 -0.25019264 0.4048202 0
0.0015382877 0.067619227 0.058203742 -0.25019264 0.4048202 0
0.0010591187 0.066416569 0.058297597 -0.25019264 0.4048202 0
0.00068161375 0.065070234 0.058416184 -0.25019264 0.4048202 0
0.00035960498 0.063640736 0.058548987 -0.25019264 0.4048202 0
0.00011377094 0.062098399 0.058701009 -0.25019264 0.4048202 0
1.8386627e-05 0.060339123 0.058889937 -0.25019264 0.4048202 0
9.0211062e-05 0.058336142 0.059120134 -0.25019264 0.4048202 0
0.00042674609 0.055949729 0.059415169 -0.25019264 0.4048202 0
0.0014675788 0.052558243 0.05988035 -0.25019264 0.4048202 0
0.032272447 0.075756535 0.058827139 -0.25019264 0.4048202 0
0.029000152 0.077840477 0.058323722 -0.25019264 0.4048202 0
0.026692301 0.07881891 0.058019701 -0.25019264 0.4048202 0
0.024728861 0.079407841 0.057786591 -0.25019264 0.4048202 0
0.022971774 0.079765201 0.057595938 -0.25019264 0.4048202 0
0.021378057 0.079938583 0.057439044 -0.25019264 0.4048202 0
0.019899352 0.0799831 0.057305962 -0.25019264 0.4048202 0
0.018510927 0.079926506 0.057191651 -0.25019264 0.4048202 0
0.017199054 0.07978379 0.057093348 -0.25019264 0.4048202 0
0.01595903 0.079559244 0.057010204 -0.25019264 0.4048202 0
0.0147559 0.079294443 0.056934845 -0.25019264 0.4048202 0
0.013637219 0.078929938 0.056877594 -0.25019264 0.4048202 0
0.012533699 0.078550123 0.056823645 -0.25019264 0.4048202 0
0.011508515 0.078075819 0.056786735 -0.25019264 0.4048202 0
0.010495669 0.077588297 0.056752656 -0.25019264 0.4048202 0
0.0095493449 0.077018932 0.056733273 -0.25019264 0.4048202 0
0.0086171469 0.076432839 0.056717247 -0.25019264 0.4048202 0
0.0077456436 0.075770311 0.056714851 -0.25019264 0.4048202 0
0.0068891416 0.07508868 0.056716137 -0.25019264 0.4048202 0
0.006090567 0.074332252 0.056730643 -0.25019264 0.4048202 0
0.00530911 0.073552705 0.056749444 -0.25019264 0.4048202 0
0.0045837816 0.072698787 0.05678127 -0.25019264 0.4048202 0
0.0038811921 0.071813025 0.056818787 -0.25019264 0.4048202 0
0.0032316232 0.070854984 0.056868855 -0.25019264 0.4048202 0
0.0026170188 0.069847398 0.056927532 -0.25019264 0.4048202 0
0.0020483655 0.068774804 0.056997392 -0.25019264 0.4048202 0
0.0015382877 0.067619227 0.05708142 -0.25019264 0.4048202 0
0.0010591187 0.066416569 0.057173461 -0.25019264 0.4048202 0
0.00068161375 0.065070234 0.057289764 -0.25019264 0.4048202 0
0.00035960498 0.063640736 0.057420004 -0.25019264 0.4048202 0
0.00011377094 0.062098399 0.057569094 -0.25019264 0.4048202 0
1.8386627e-05 0.060339123 0.057754379 -0.25019264 0.4048202 0
9.0211062e-05 0.058336142 0.057980139 -0.25019264 0.4048202 0
0.00042674609 0.055949729 0.058269482 -0.25019264 0.4048202 0
0.0014675788 0.052558243 0.058725696 -0.25019264 0.4048202 0
0.032272447 0.075756535 0.057671312 -0.25019264 0.4048202 0
0.029000152 0.077840477 0.057177782 -0.25019264 0.4048202 0
0.026692301 0.07881891 0.056879736 -0.25019264 0.4048202 0
0.024728861 0.079407841 0.056651209 -0.25019264 0.4048202 0
0.022971774 0.079765201 0.056464303 -0.25019264 0.4048202 0
0.021378057 0.079938583 0.05631049 -0.25019264 0.4048202 0
0.019898437 0.079984196 0.056179833 -0.25019264 0.4048202 0
0.018510927 0.079926506 0.056067955 -0.25019264 0.4048202 0
0.017199054 0.07978379 0.055971585 -0.25019264 0.4048202 0
0.01595903 0.079559244 0.055890076 -0.25019264 0.4048202 0
0.0147559 0.079294443 0.055816196 -0.25019264 0.4048202 0
0.013637219 0.078929938 0.055760071 -0.25019264 0.4048202 0
0.012533699 0.078550123 0.055707183 -0.25019264 0.4048202 0
0.011508515 0.078075819 0.055670995 -0.25019264 0.4048202 0
0.010495669 0.077588297 0.055637587 -0.25019264 0.4048202 0
0.0095493449 0.077018932 0.055618584 -0.25019264 0.4048202 0
0.0086171469 0.076432839 0.055602875 -0.25019264 0.4048202 0
0.0077456436 0.075770311 0.055600524 -0.25019264 0.4048202 0
0.0068891416 0.07508868 0.055601787 -0.25019264 0.4048202 0
0.006090567 0.074332252 0.05561601 -0.25019264 0.4048202 0
0.00530911 0.073552705 0.055634439 -0.25019264 0.4048202 0
0.0045837816 0.072698787 0.055665638 -0.25019264 0.4048202 0
0.0038811921 0.071813025 0.055702422 -0.25019264 0.4048202 0
0.0032316232 0.070854984 0.055751503 -0.25019264 0.4048202 0
0.0026170188 0.069847398 0.055809028 -0.25019264 0.4048202 0
0.0020483655 0.068774804 0.055877518 -0.25019264 0.4048202 0
0.0015382877 0.067619227 0.055959892 -0.25019264 0.4048202 0
0.0010591187 0.066416569 0.056050122 -0.25019264 0.4048202 0
0.00068161375 0.065070234 0.056164142 -0.25019264 0.4048202 0
0.00035960498 0.063640736 0.056291826 -0.25019264 0.4048202 0
0.00011377094 0.062098399 0.056437984 -0.25019264 0.4048202 0
1.8386627e-05 0.060339123 0.056619629 -0.25019264 0.4048202 0
9.0211062e-05 0.058336142 0.056840952 -0.25019264 0.4048202 0
0.00042674609 0.055949729 0.057124611 -0.25019264 0.4048202 0
0.0014675788 0.052558243 0.057571862 -0.25019264 0.4048202 0
0.032272447 0.075756535 0.05651629 -0.25019264 0.4048202 0
0.029000152 0.077840477 0.056032643 -0.25019264 0.4048202 0
0.026692301 0.07881891 0.055740565 -0.25019264 0.4048202 0
0.024728861 0.079407841 0.055516616 -0.25019264 0.4048202 0
0.022971774 0.079765201 0.05533345 -0.25019264 0.4048202 0
0.021378057 0.079938583 0.055182721 -0.25019264 0.4048202 0
0.019897524 0.079985298 0.055054493 -0.25019264 0.4048202 0
0.018510927 0.079926506 0.054945044 -0.25019264 0.4048202 0
0.017199054 0.07978379 0.054850604 -0.25019264 0.4048202 0
0.01595903 0.079559244 0.054770727 -0.25019264 0.4048202 0
0.0147559 0.079294443 0.054698326 -0.25019264 0.4048202 0
0.013637219 0.078929938 0.054643326 -0.25019264 0.4048202 0
0.012533699 0.078550123 0.054591496 -0.25019264 0.4048202 0
0.011508515 0.078075819 0.054556035 -0.25019264 0.4048202 0
0.010495669 0.077588297 0.054523293 -0.25019264 0.4048202 0
0.0095493449 0.077018932 0.054504674 -0.25019264 0.4048202 0
0.0086171469 0.076432839 0.054489277 -0.25019264 0.4048202 0
0.0077456436 0.075770311 0.054486975 -0.25019264 0.4048202 0
0.0068891416 0.07508868 0.054488208 -0.25019264 0.4048202 0
0.006090567 0.074332252 0.054502148 -0.25019264 0.4048202 0
0.00530911 0.073552705 0.054520208 -0.25019264 0.4048202 0
0.0045837816 0.072698787 0.054550782 -0.25019264 0.4048202 0
0.0038811921 0.071813025 0.054586828 -0.25019264 0.4048202 0
0.0032316232 0.070854984 0.054634929 -0.25019264 0.4048202 0
0.0026170188 0.069847398 0.054691304 -0.25019264 0.4048202 0
0.0020483655 0.068774804 0.054758418 -0.25019264 0.4048202 0
0.0015382877 0.067619227 0.054839142 -0.25019264 0.4048202 0
0.0010591187 0.066416569 0.054927569 -0.25019264 0.4048202 0
0.00068161375 0.065070234 0.055039302 -0.25019264 0.4048202 0
0.00035960498 0.063640736 0.05516443 -0.25019264 0.4048202 0
0.00011377094 0.062098399 0.05530766 -0.25019264 0.4048202 0
1.8386627e-05 0.060339123 0.05548567 -0.25019264 0.4048202 0
9.0211062e-05 0.058336142 0.05570256 -0.25019264 0.4048202 0
0.00042674609 0.055949729 0.055980537 -0.25019264 0.4048202 0
0.0014675788 0.052558243 0.056418829 -0.25019264 0.4048202 0
0.032272447 0.075756535 0.055362053 -0.25019264 0.4048202 0
0.029000152 0.077840477 0.054888286 -0.25019264 0.4048202 0
0.026692301 0.07881891 0.054602172 -0.25019264 0.4048202 0
0.024728861 0.079407841 0.054382794 -0.25019264 0.4048202 0
0.022971774 0.079765201 0.054203372 -0.25019264 0.4048202 0
0.021378057 0.079938583 0.054055721 -0.25019264 0.4048202 0
0.01989661 0.079986393 0.053929929 -0.25019264 0.4048202 0
0.018510927 0.079926506 0.053822897 -0.25019264 0.4048202 0
0.017199054 0.07978379 0.053730387 -0.25019264 0.4048202 0
0.01595903 0.079559244 0.053652138 -0.25019264 0.4048202 0
0.0147559 0.079294443 0.053581219 -0.25019264 0.4048202 0
0.013637219 0.078929938 0.053527344 -0.25019264 0.4048202 0
0.012533699 0.078550123 0.053476572 -0.25019264 0.4048202 0
0.011508515 0.078075819 0.053441834 -0.25019264 0.4048202 0
0.010495669 0.077588297 0.053409763 -0.25019264 0.4048202 0
0.0095493449 0.077018932 0.05339152 -0.25019264 0.4048202 0
0.0086171469 0.076432839 0.05337644 -0.25019264 0.4048202 0
0.0077456436 0.075770311 0.053374182 -0.25019264 0.4048202 0
0.0068891416 0.07508868 0.053375393 -0.25019264 0.4048202 0
0.006090567 0.074332252 0.053389046 -0.25019264 0.4048202 0
0.00530911 0.073552705 0.053406738 -0.25019264 0.4048202 0
0.0045837816 0.072698787 0.053436689 -0.25019264 0.4048202 0
0.0038811921 0.071813025 0.053471997 -0.25019264 0.4048202 0
0.0032316232 0.070854984 0.053519115 -0.25019264 0.4048202 0
0.0026170188 0.069847398 0.053574339 -0.25019264 0.4048202 0
0.0020483655 0.068774804 0.053640082 -0.25019264 0.4048202 0
0.0015382877 0.067619227 0.053719159 -0.25019264 0.4048202 0
0.0010591187 0.066416569 0.05380578 -0.25019264 0.4048202 0
0.00068161375 0.065070234 0.053915232 -0.25019264 0.4048202 0
0.00035960498 0.063640736 0.054037802 -0.25019264 0.4048202 0
0.00011377094 0.062098399 0.054178111 -0.25019264 0.4048202 0
1.8386627e-05 0.060339123 0.054352481 -0.25019264 0.4048202 0
9.0211062e-05 0.058336142 0.054564942 -0.25019264 0.4048202 0
0.00042674609 0.055949729 0.054837242 -0.25019264 0.4048202 0
0.0014675788 0.052558243 0.055266585 -0.25019264 0.4048202 0
0.032272447 0.075756535 0.054208588 -0.25019264 0.4048202 0
0.029000152 0.077840477 0.053744692 -0.25019264 0.4048202 0
0.026692301 0.07881891 0.053464539 -0.25019264 0.4048202 0
0.024728861 0.079407841 0.053249735 -0.25019264 0.4048202 0
0.022971774 0.079765201 0.053074051 -0.25019264 0.4048202 0
0.021378057 0.079938583 0.052929476 -0.25019264 0.4048202 0
0.019895697 0.079987496 0.052806124 -0.25019264 0.4048202 0
0.018510927 0.079926506 0.052701503 -0.25019264 0.4048202 0
0.017199054 0.07978379 0.052610919 -0.25019264 0.4048202 0
0.01595903 0.079559244 0.052534301 -0.25019264 0.4048202 0
0.0147559 0.079294443 0.052464858 -0.25019264 0.4048202 0
0.013637219 0.078929938 0.052412104 -0.25019264 0.4048202 0
0.012533699 0.078550123 0.05236239 -0.25019264 0.4048202 0
0.011508515 0.078075819 0.052328374 -0.25019264 0.4048202 0
0.010495669 0.077588297 0.052296974 -0.25019264 0.4048202 0
0.0095493449 0.077018932 0.052279111 -0.25019264 0.4048202 0
0.0086171469 0.076432839 0.052264344 -0.25019264 0.4048202 0
0.0077456436 0.075770311 0.052262135 -0.25019264 0.4048202 0
0.0068891416 0.07508868 0.052263319 -0.25019264 0.4048202 0
0.006090567 0.074332252 0.05227669 -0.25019264 0.4048202 0
0.00530911 0.073552705 0.052294012 -0.25019264 0.4048202 0
0.0045837816 0.072698787 0.052323341 -0.25019264 0.4048202 0
0.0038811921 0.071813025 0.052357912 -0.25019264 0.4048202 0
0.0032316232 0.070854984 0.05240405 -0.25019264 0.4048202 0
0.0026170188 0.069847398 0.052458119 -0.25019264 0.4048202 0
0.0020483655 0.068774804 0.052522495 -0.25019264 0.4048202 0
0.0015382877 0.067619227 0.052599926 -0.25019264 0.4048202 0
0.0010591187 0.066416569 0.052684739 -0.25019264 0.4048202 0
0.00068161375 0.065070234 0.052791912 -0.25019264 0.4048202 0
0.00035960498 0.063640736 0.05291193 -0.25019264 0.4048202 0
0.00011377094 0.062098399 0.053049311 -0.25019264 0.4048202 0
1.8386627e-05 0.060339123 0.053220052 -0.25019264 0.4048202 0
9.0211062e-05 0.058336142 0.053428084 -0.25019264 0.4048202 0
0.00042674609 0.055949729 0.053694714 -0.25019264 0.4048202 0
0.0014675788 0.052558243 0.054115109 -0.25019264 0.4048202 0
0.032272447 0.075756535 0.053055879 -0.25019264 0.4048202 0
0.029000152 0.077840477 0.052601848 -0.25019264 0.4048202 0
0.026692301 0.07881891 0.052327652 -0.25019264 0.4048202 0
0.024728861 0.079407841 0.052117415 -0.25019264 0.4048202 0
0.022971774 0.079765201 0.051945467 -0.25019264 0.4048202 0
0.021378057 0.079938583 0.051803965 -0.25019264 0.4048202 0
0.019894786 0.079988591 0.051683065 -0.25019264 0.4048202 0
0.018510927 0.079926506 0.051580839 -0.25019264 0.4048202 0
0.017199054 0.07978379 0.051492181 -0.25019264 0.4048202 0
0.01595903 0.079559244 0.051417194 -0.25019264 0.4048202 0
0.0147559 0.079294443 0.051349226 -0.25019264 0.4048202 0
0.013637219 0.078929938 0.051297594 -0.25019264 0.4048202 0
0.012533699 0.078550123 0.051248938 -0.25019264 0.4048202 0
0.011508515 0.078075819 0.051215649 -0.25019264 0.4048202 0
0.010495669 0.077588297 0.051184911 -0.25019264 0.4048202 0
0.0095493449 0.077018932 0.051167432 -0.25019264 0.4048202 0
0.0086171469 0.076432839 0.051152978 -0.25019264 0.4048202 0
0.0077456436 0.075770311 0.051150817 -0.25019264 0.4048202 0
0.0068891416 0.07508868 0.051151976 -0.25019264 0.4048202 0
0.006090567 0.074332252 0.051165059 -0.25019264 0.4048202 0
0.00530911 0.073552705 0.051182013 -0.25019264 0.4048202 0
0.0045837816 0.072698787 0.05121072 -0.25019264 0.4048202 0
0.0038811921 0.071813025 0.051244557 -0.25019264 0.4048202 0
0.0032316232 0.070854984 0.051289711 -0.25019264 0.4048202 0
0.0026170188 0.069847398 0.051342633 -0.25019264 0.4048202 0
0.0020483655 0.068774804 0.051405642 -0.25019264 0.4048202 0
0.0015382877 0.067619227 0.051481422 -0.25019264 0.4048202 0
0.0010591187 0.066416569 0.051564433 -0.25019264 0.4048202 0
0.00068161375 0.065070234 0.051669326 -0.25019264 0.4048202 0
0.00035960498 0.063640736 0.051786792 -0.25019264 0.4048202 0
0.00011377094 0.062098399 0.051921252 -0.25019264 0.4048202 0
1.8386627e-05 0.060339123 0.052088361 -0.25019264 0.4048202 0
9.0211062e-05 0.058336142 0.052291971 -0.25019264 0.4048202 0
0.00042674609 0.055949729 0.052552931 -0.25019264 0.4048202 0
0.0014675788 0.052558243 0.052964386 -0.25019264 0.4048202 0
0.032272447 0.075756535 0.051903907 -0.25019264 0.4048202 0
0.029000152 0.077840477 0.051459733 -0.25019264 0.4048202 0
0.026692301 0.07881891 0.051191494 -0.25019264 0.4048202 0
0.024728861 0.079407841 0.050985817 -0.25019264 0.4048202 0
0.022971774 0.079765201 0.050817605 -0.25019264 0.4048202 0
0.021378057 0.079938583 0.050679173 -0.25019264 0.4048202 0
0.019893875 0.079989687 0.050560728 -0.25019264 0.4048202 0
0.018510927 0.079926506 0.050460894 -0.25019264 0.4048202 0
0.017199054 0.07978379 0.050374161 -0.25019264 0.4048202 0
0.01595903 0.079559244 0.050300803 -0.25019264 0.4048202 0
0.0147559 0.079294443 0.05023431 -0.25019264 0.4048202 0
0.013637219 0.078929938 0.050183799 -0.25019264 0.4048202 0
0.012533699 0.078550123 0.050136201 -0.25019264 0.4048202 0
0.011508515 0.078075819 0.050103631 -0.25019264 0.4048202 0
0.010495669 0.077588297 0.050073564 -0.25019264 0.4048202 0
0.0095493449 0.077018932 0.050056461 -0.25019264 0.4048202 0
0.0086171469 0.076432839 0.050042324 -0.25019264 0.4048202 0
0.0077456436 0.075770311 0.050040208 -0.25019264 0.4048202 0
0.0068891416 0.07508868 0.050041344 -0.25019264 0.4048202 0
0.006090567 0.074332252 0.050054144 -0.25019264 0.4048202 0
0.00530911 0.073552705 0.050070729 -0.25019264 0.4048202 0
0.0045837816 0.072698787 0.05009881 -0.25019264 0.4048202 0
0.0038811921 0.071813025 0.050131913 -0.25019264 0.4048202 0
0.0032316232 0.070854984 0.050176088 -0.25019264 0.4048202 0
0.0026170188 0.069847398 0.050227862 -0.25019264 0.4048202 0
0.0020483655 0.068774804 0.050289501 -0.25019264 0.4048202 0
0.0015382877 0.067619227 0.050363634 -0.25019264 0.4048202 0
0.0010591187 0.066416569 0.050444845 -0.25019264 0.4048202 0
0.00068161375 0.065070234 0.050547458 -0.25019264 0.4048202 0
0.00035960498 0.063640736 0.050662376 -0.25019264 0.4048202 0
0.00011377094 0.062098399 0.050793916 -0.25019264 0.4048202 0
1.8386627e-05 0.060339123 0.050957397 -0.25019264 0.4048202 0
9.0211062e-05 0.058336142 0.051156588 -0.25019264 0.4048202 0
0.00042674609 0.055949729 0.051411878 -0.25019264 0.4048202 0
0.0014675788 0.052558243 0.0518144 -0.25019264 0.4048202 0
0.032272447 0.075756535 0.050752658 -0.25019264 0.4048202 0
0.029000152 0.077840477 0.050318334 -0.25019264 0.4048202 0
0.026692301 0.07881891 0.050056044 -0.25019264 0.4048202 0
0.024728861 0.079407841 0.04985493 -0.25019264 0.4048202 0
0.022971774 0.079765201 0.049690448 -0.25019264 0.4048202 0
0.021378057 0.079938583 0.049555089 -0.25019264 0.4048202 0
0.019892965 0.079990782 0.049439106 -0.25019264 0.4048202 0
0.018510927 0.079926506 0.049341653 -0.25019264 0.4048202 0
0.017199054 0.07978379 0.049256843 -0.25019264 0.4048202 0
0.01595903 0.079559244 0.049185108 -0.25019264 0.4048202 0
0.0147559 0.079294443 0.049120095 -0.25019264 0.4048202 0
0.013637219 0.078929938 0.049070705 -0.25019264 0.4048202 0
0.012533699 0.078550123 0.049024157 -0.25019264 0.4048202 0
0.011508515 0.078075819 0.048992313 -0.25019264 0.4048202 0
0.010495669 0.077588297 0.048962913 -0.25019264 0.4048202 0
0.0095493449 0.077018932 0.048946191 -0.25019264 0.4048202 0
0.0086171469 0.076432839 0.048932362 -0.25019264 0.4048202 0
0.0077456436 0.075770311 0.048930295 -0.25019264 0.4048202 0
0.0068891416 0.07508868 0.048931405 -0.25019264 0.4048202 0
0.006090567 0.074332252 0.048943922 -0.25019264 0.4048202 0
0.00530911 0.073552705 0.048960142 -0.25019264 0.4048202 0
0.0045837816 0.072698787 0.048987597 -0.25019264 0.4048202 0
0.0038811921 0.071813025 0.049019966 -0.25019264 0.4048202 0
0.0032316232 0.070854984 0.049063161 -0.25019264 0.4048202 0
0.0026170188 0.069847398 0.049113784 -0.25019264 0.4048202 0
0.0020483655 0.068774804 0.049174059 -0.25019264 0.4048202 0
0.0015382877 0.067619227 0.04924655 -0.25019264 0.4048202 0
0.0010591187 0.066416569 0.049325958 -0.25019264 0.4048202 0
0.00068161375 0.065070234 0.049426295 -0.25019264 0.4048202 0
0.00035960498 0.063640736 0.049538661 -0.25019264 0.4048202 0
0.00011377094 0.062098399 0.049667288 -0.25019264 0.4048202 0
1.8386627e-05 0.060339123 0.04982714 -0.25019264 0.4048202 0
9.0211062e-05 0.058336142 0.050021913 -0.25019264 0.4048202 0
0.00042674609 0.055949729 0.050271541 -0.25019264 0.4048202 0
0.0014675788 0.052558243 0.050665136 -0.25019264 0.4048202 0
0.032272447 0.075756535 0.049602114 -0.25019264 0.4048202 0
0.029000152 0.077840477 0.049177635 -0.25019264 0.4048202 0
0.026692301 0.07881891 0.048921291 -0.25019264 0.4048202 0
0.024728861 0.079407841 0.048724737 -0.25019264 0.4048202 0
0.022971774 0.079765201 0.048563983 -0.25019264 0.4048202 0
0.021378057 0.079938583 0.048431695 -0.25019264 0.4048202 0
0.019892054 0.079991877 0.048318174 -0.25019264 0.4048202 0
0.018510927 0.079926506 0.048223093 -0.25019264 0.4048202 0
0.017199054 0.07978379 0.048140209 -0.25019264 0.4048202 0
0.01595903 0.079559244 0.048070099 -0.25019264 0.4048202 0
0.0147559 0.079294443 0.048006557 -0.25019264 0.4048202 0
0.013637219 0.078929938 0.047958288 -0.25019264 0.4048202 0
0.012533699 0.078550123 0.047912799 -0.25019264 0.4048202 0
0.011508515 0.078075819 0.047881674 -0.25019264 0.4048202 0
0.010495669 0.077588297 0.047852941 -0.25019264 0.4048202 0
0.0095493449 0.077018932 0.047836598 -0.25019264 0.4048202 0
0.0086171469 0.076432839 0.047823083 -0.25019264 0.4048202 0
0.0077456436 0.075770311 0.047821064 -0.25019264 0.4048202 0
0.0068891416 0.07508868 0.047822148 -0.25019264 0.4048202 0
0.006090567 0.074332252 0.047834381 -0.25019264 0.4048202 0
0.00530911 0.073552705 0.047850233 -0.25019264 0.4048202 0
0.0045837816 0.072698787 0.047877066 -0.25019264 0.4048202 0
0.0038811921 0.071813025 0.047908701 -0.25019264 0.4048202 0
0.0032316232 0.070854984 0.047950916 -0.25019264 0.4048202 0
0.0026170188 0.069847398 0.048000395 -0.25019264 0.4048202 0
0.0020483655 0.068774804 0.0480593 -0.25019264 0.4048202 0
0.0015382877 0.067619227 0.048130147 -0.25019264 0.4048202 0
0.0010591187 0.066416569 0.048207756 -0.25019264 0.4048202 0
0.00068161375 0.065070234 0.048305821 -0.25019264 0.4048202 0
0.00035960498 0.063640736 0.048415639 -0.25019264 0.4048202 0
0.00011377094 0.062098399 0.048541348 -0.25019264 0.4048202 0
1.8386627e-05 0.060339123 0.048697576 -0.25019264 0.4048202 0
9.0211062e-05 0.058336142 0.048887935 -0.25019264 0.4048202 0
0.00042674609 0.055949729 0.049131904 -0.25019264 0.4048202 0
0.0014675788 0.052558243 0.049516577 -0.25019264 0.4048202 0
0.032272447 0.075756535 0.048452254 -0.25019264 0.4048202 0
0.029000152 0.077840477 0.048037622 -0.25019264 0.4048202 0
0.026692301 0.07881891 0.047787219 -0.25019264 0.4048202 0
0.024728861 0.079407841 0.047595222 -0.25019264 0.4048202 0
0.022971774 0.079765201 0.047438193 -0.25019264 0.4048202 0
0.021378057 0.079938583 0.04730897 -0.25019264 0.4048202 0
0.019891145 0.079992972 0.047197923 -0.25019264 0.4048202 0
0.018510927 0.079926506 0.047105204 -0.25019264 0.4048202 0
0.017199054 0.07978379 0.047024243 -0.25019264 0.4048202 0
0.01595903 0.079559244 0.046955761 -0.25019264 0.4048202 0
0.0147559 0.079294443 0.04689369 -0.25019264 0.4048202 0
0.013637219 0.078929938 0.046846539 -0.25019264 0.4048202 0
0.012533699 0.078550123 0.046802104 -0.25019264 0.4048202 0
0.011508515 0.078075819 0.046771701 -0.25019264 0.4048202 0
0.010495669 0.077588297 0.046743631 -0.25019264 0.4048202 0
0.0095493449 0.077018932 0.046727668 -0.25019264 0.4048202 0
0.0086171469 0.076432839 0.04671447 -0.25019264 0.4048202 0
0.0077456436 0.075770311 0.046712495 -0.25019264 0.4048202 0
0.0068891416 0.07508868 0.046713553 -0.25019264 0.4048202 0
0.006090567 0.074332252 0.046725504 -0.25019264 0.4048202 0
0.00530911 0.073552705 0.046740986 -0.25019264 0.4048202 0
0.0045837816 0.072698787 0.046767201 -0.25019264 0.4048202 0
0.0038811921 0.071813025 0.046798103 -0.25019264 0.4048202 0
0.0032316232 0.070854984 0.046839338 -0.25019264 0.4048202 0
0.0026170188 0.069847398 0.04688767 -0.25019264 0.4048202 0
0.0020483655 0.068774804 0.046945207 -0.25019264 0.4048202 0
0.0015382877 0.067619227 0.047014415 -0.25019264 0.4048202 0
0.0010591187 0.066416569 0.047090225 -0.25019264 0.4048202 0
0.00068161375 0.065070234 0.047186013 -0.25019264 0.4048202 0
0.00035960498 0.063640736 0.047293287 -0.25019264 0.4048202 0
0.00011377094 0.062098399 0.047416084 -0.25019264 0.4048202 0
1.8386627e-05 0.060339123 0.04756869 -0.25019264 0.4048202 0
9.0211062e-05 0.058336142 0.047754634 -0.25019264 0.4048202 0
0.00042674609 0.055949729 0.047992948 -0.25019264 0.4048202 0
0.0014675788 0.052558243 0.048368704 -0.25019264 0.4048202 0
0.032272447 0.075756535 0.047303073 -0.25019264 0.4048202 0
0.029000152 0.077840477 0.046898272 -0.25019264 0.4048202 0
0.026692301 0.07881891 0.046653807 -0.25019264 0.4048202 0
0.024728861 0.079407841 0.046466365 -0.25019264 0.4048202 0
0.022971774 0.079765201 0.046313062 -0.25019264 0.4048202 0
0.021378057 0.079938583 0.046186902 -0.25019264 0.4048202 0
0.019890236 0.07999406 0.046078335 -0.25019264 0.4048202 0
0.018510927 0.079926506 0.045987971 -0.25019264 0.4048202 0
0.017199054 0.07978379 0.045908928 -0.25019264 0.4048202 0
0.01595903 0.079559244 0.04584207 -0.25019264 0.4048202 0
0.0147559 0.079294443 0.045781475 -0.25019264 0.4048202 0
0.013637219 0.078929938 0.045735437 -0.25019264 0.4048202 0
0.012533699 0.078550123 0.045692056 -0.25019264 0.4048202 0
0.011508515 0.078075819 0.045662377 -0.25019264 0.4048202 0
0.010495669 0.077588297 0.045634974 -0.25019264 0.4048202 0
0.0095493449 0.077018932 0.045619387 -0.25019264 0.4048202 0
0.0086171469 0.076432839 0.045606501 -0.25019264 0.4048202 0
0.0077456436 0.075770311 0.045604575 -0.25019264 0.4048202 0
0.0068891416 0.07508868 0.045605611 -0.25019264 0.4048202 0
0.006090567 0.074332252 0.045617275 -0.25019264 0.4048202 0
0.00530911 0.073552705 0.045632392 -0.25019264 0.4048202 0
0.0045837816 0.072698787 0.045657981 -0.25019264 0.4048202 0
0.0038811921 0.071813025 0.045688152 -0.25019264 0.4048202 0
0.0032316232 0.070854984 0.045728412 -0.25019264 0.4048202 0
0.0026170188 0.069847398 0.045775592 -0.25019264 0.4048202 0
0.0020483655 0.068774804 0.04583177 -0.25019264 0.4048202 0
0.0015382877 0.067619227 0.045899332 -0.25019264 0.4048202 0
0.0010591187 0.066416569 0.045973346 -0.25019264 0.4048202 0
0.00068161375 0.065070234 0.046066865 -0.25019264 0.4048202 0
0.00035960498 0.063640736 0.046171591 -0.25019264 0.4048202 0
0.00011377094 0.062098399 0.046291474 -0.25019264 0.4048202 0
1.8386627e-05 0.060339123 0.046440464 -0.25019264 0.4048202 0
9.0211062e-05 0.058336142 0.046621997 -0.25019264 0.4048202 0
0.00042674609 0.055949729 0.04685466 -0.25019264 0.4048202 0
0.0014675788 0.052558243 0.0472215 -0.25019264 0.4048202 0
0.032272447 0.075756535 0.046154547 -0.25019264 0.4048202 0
0.029000152 0.077840477 0.045759574 -0.25019264 0.4048202 0
0.026692301 0.07881891 0.045521047 -0.25019264 0.4048202 0
0.024728861 0.079407841 0.045338154 -0.25019264 0.4048202 0
0.022971774 0.079765201 0.045188572 -0.25019264 0.4048202 0
0.021378057 0.079938583 0.045065477 -0.25019264 0.4048202 0
0.019889327 0.079995155 0.044959392 -0.25019264 0.4048202 0
0.018510927 0.079926506 0.044871375 -0.25019264 0.4048202 0
0.017199054 0.07978379 0.04479425 -0.25019264 0.4048202 0
0.01595903 0.079559244 0.044729017 -0.25019264 0.4048202 0
0.0147559 0.079294443 0.044669889 -0.25019264 0.4048202 0
0.013637219 0.078929938 0.044624973 -0.25019264 0.4048202 0
0.012533699 0.078550123 0.044582646 -0.25019264 0.4048202 0
0.011508515 0.078075819 0.044553686 -0.25019264 0.4048202 0
0.010495669 0.077588297 0.04452695 -0.25019264 0.4048202 0
0.0095493449 0.077018932 0.044511743 -0.25019264 0.4048202 0
0.0086171469 0.076432839 0.044499166 -0.25019264 0.4048202 0
0.0077456436 0.075770311 0.044497289 -0.25019264 0.4048202 0
0.0068891416 0.07508868 0.044498298 -0.25019264 0.4048202 0
0.006090567 0.074332252 0.044509679 -0.25019264 0.4048202 0
0.00530911 0.073552705 0.044524428 -0.25019264 0.4048202 0
0.0045837816 0.072698787 0.044549398 -0.25019264 0.4048202 0
0.0038811921 0.071813025 0.044578835 -0.25019264 0.4048202 0
0.0032316232 0.070854984 0.044618115 -0.25019264 0.4048202 0
0.0026170188 0.069847398 0.044664156 -0.25019264 0.4048202 0
0.0020483655 0.068774804 0.044718966 -0.25019264 0.4048202 0
0.0015382877 0.067619227 0.044784889 -0.25019264 0.4048202 0
0.0010591187 0.066416569 0.044857103 -0.25019264 0.4048202 0
0.00068161375 0.065070234 0.044948351 -0.25019264 0.4048202 0
0.00035960498 0.063640736 0.045050539 -0.25019264 0.4048202 0
0.00011377094 0.062098399 0.045167509 -0.25019264 0.4048202 0
1.8386627e-05 0.060339123 0.045312881 -0.25019264 0.4048202 0
9.0211062e-05 0.058336142 0.045490004 -0.25019264 0.4048202 0
0.00042674609 0.055949729 0.04571702 -0.25019264 0.4048202 0
0.0014675788 0.052558243 0.046074953 -0.25019264 0.4048202 0
0.032272447 0.075756535 0.045006659 -0.25019264 0.4048202 0
0.029000152 0.077840477 0.044621509 -0.25019264 0.4048202 0
0.026692301 0.07881891 0.044388913 -0.25019264 0.4048202 0
0.024728861 0.079407841 0.044210572 -0.25019264 0.4048202 0
0.022971774 0.079765201 0.044064708 -0.25019264 0.4048202 0
0.021378057 0.079938583 0.043944675 -0.25019264 0.4048202 0
0.019888418 0.079996251 0.043841083 -0.25019264 0.4048202 0
0.018510927 0.079926506 0.043755401 -0.25019264 0.4048202 0
0.017199054 0.07978379 0.043680195 -0.25019264 0.4048202 0
0.01595903 0.079559244 0.043616582 -0.25019264 0.4048202 0
0.0147559 0.079294443 0.043558925 -0.25019264 0.4048202 0
0.013637219 0.078929938 0.043515127 -0.25019264 0.4048202 0
0.012533699 0.078550123 0.043473855 -0.25019264 0.4048202 0
0.011508515 0.078075819 0.043445613 -0.25019264 0.4048202 0
0.010495669 0.077588297 0.04341954 -0.25019264 0.4048202 0
0.0095493449 0.077018932 0.04340471 -0.25019264 0.4048202 0
0.0086171469 0.076432839 0.04339245 -0.25019264 0.4048202 0
0.0077456436 0.075770311 0.043390617 -0.25019264 0.4048202 0
0.0068891416 0.07508868 0.0433916 -0.25019264 0.4048202 0
0.006090567 0.074332252 0.043402702 -0.25019264 0.4048202 0
0.00530911 0.073552705 0.043417081 -0.25019264 0.4048202 0
0.0045837816 0.072698787 0.043441433 -0.25019264 0.4048202 0
0.0038811921 0.071813025 0.043470137 -0.25019264 0.4048202 0
0.0032316232 0.070854984 0.04350844 -0.25019264 0.4048202 0
0.0026170188 0.069847398 0.043553334 -0.25019264 0.4048202 0
0.0020483655 0.068774804 0.04360678 -0.25019264 0.4048202 0
0.0015382877 0.067619227 0.043671064 -0.25019264 0.4048202 0
0.0010591187 0.066416569 0.043741483 -0.25019264 0.4048202 0
0.00068161375 0.065070234 0.043830462 -0.25019264 0.4048202 0
0.00035960498 0.063640736 0.043930106 -0.25019264 0.4048202 0
0.00011377094 0.062098399 0.044044171 -0.25019264 0.4048202 0
1.8386627e-05 0.060339123 0.044185925 -0.25019264 0.4048202 0
9.0211062e-05 0.058336142 0.044358645 -0.25019264 0.4048202 0
0.00042674609 0.055949729 0.044580013 -0.25019264 0.4048202 0
0.0014675788 0.052558243 0.044929046 -0.25019264 0.4048202 0
0.032272447 0.075756535 0.043859396 -0.25019264 0.4048202 0
0.029000152 0.077840477 0.043484062 -0.25019264 0.4048202 0
0.026692301 0.07881891 0.043257397 -0.25019264 0.4048202 0
0.024728861 0.079407841 0.043083601 -0.25019264 0.4048202 0
0.022971774 0.079765201 0.042941455 -0.25019264 0.4048202 0
0.021378057 0.079938583 0.042824481 -0.25019264 0.4048202 0
0.019887824 0.079996966 0.042723436 -0.25019264 0.4048202 0
0.018510927 0.079926506 0.042640034 -0.25019264 0.4048202 0
0.017199054 0.07978379 0.042566743 -0.25019264 0.4048202 0
0.01595903 0.079559244 0.042504754 -0.25019264 0.4048202 0
0.0147559 0.079294443 0.042448569 -0.25019264 0.4048202 0
0.013637219 0.078929938 0.042405885 -0.25019264 0.4048202 0
0.012533699 0.078550123 0.042365663 -0.25019264 0.4048202 0
0.011508515 0.078075819 0.04233814 -0.25019264 0.4048202 0
0.010495669 0.077588297 0.042312734 -0.25019264 0.4048202 0
0.0095493449 0.077018932 0.042298283 -0.25019264 0.4048202 0
0.0086171469 0.076432839 0.042286336 -0.25019264 0.4048202 0
0.0077456436 0.075770311 0.042284548 -0.25019264 0.4048202 0
0.0068891416 0.07508868 0.042285506 -0.25019264 0.4048202 0
0.006090567 0.074332252 0.042296324 -0.25019264 0.4048202 0
0.00530911 0.073552705 0.042310338 -0.25019264 0.4048202 0
0.0045837816 0.072698787 0.042334069 -0.25019264 0.4048202 0
0.0038811921 0.071813025 0.042362042 -0.25019264 0.4048202 0
0.0032316232 0.070854984 0.042399369 -0.25019264 0.4048202 0
0.0026170188 0.069847398 0.042443115 -0.25019264 0.4048202 0
0.0020483655 0.068774804 0.042495202 -0.25019264 0.4048202 0
0.0015382877 0.067619227 0.042557847 -0.25019264 0.4048202 0
0.0010591187 0.066416569 0.04262647 -0.25019264 0.4048202 0
0.00068161375 0.065070234 0.04271318 -0.25019264 0.4048202 0
0.00035960498 0.063640736 0.042810287 -0.25019264 0.4048202 0
0.00011377094 0.062098399 0.042921443 -0.25019264 0.4048202 0
1.8386627e-05 0.060339123 0.043059584 -0.25019264 0.4048202 0
9.0211062e-05 0.058336142 0.0432279 -0.25019264 0.4048202 0
0.00042674609 0.055949729 0.043443624 -0.25019264 0.4048202 0
0.0014675788 0.052558243 0.043783762 -0.25019264 0.4048202 0
0.032272447 0.075756535 0.042712737 -0.25019264 0.4048202 0
0.029000152 0.077840477 0.042347219 -0.25019264 0.4048202 0
0.026692301 0.07881891 0.04212648 -0.25019264 0.4048202 0
0.024728861 0.079407841 0.041957226 -0.25019264 0.4048202 0
0.022971774 0.079765201 0.041818798 -0.25019264 0.4048202 0
0.021378057 0.079938583 0.041704882 -0.25019264 0.4048202 0
0.019887824 0.079996966 0.041606478 -0.25019264 0.4048202 0
0.018510927 0.079926506 0.041525256 -0.25019264 0.4048202 0
0.017199054 0.07978379 0.041453883 -0.25019264 0.4048202 0
0.01595903 0.079559244 0.041393511 -0.25019264 0.4048202 0
0.0147559 0.079294443 0.041338794 -0.25019264 0.4048202 0
0.013637219 0.078929938 0.041297231 -0.25019264 0.4048202 0
0.012533699 0.078550123 0.041258059 -0.25019264 0.4048202 0
0.011508515 0.078075819 0.041231256 -0.25019264 0.4048202 0
0.010495669 0.077588297 0.041206513 -0.25019264 0.4048202 0
0.0095493449 0.077018932 0.041192438 -0.25019264 0.4048202 0
0.0086171469 0.076432839 0.041180804 -0.25019264 0.4048202 0
0.0077456436 0.075770311 0.041179065 -0.25019264 0.4048202 0
0.0068891416 0.07508868 0.04118 -0.25019264 0.4048202 0
0.006090567 0.074332252 0.041190531 -0.25019264 0.4048202 0
0.00530911 0.073552705 0.041204181 -0.25019264 0.4048202 0
0.0045837816 0.072698787 0.041227289 -0.25019264 0.4048202 0
0.0038811921 0.071813025 0.041254532 -0.25019264 0.4048202 0
0.0032316232 0.070854984 0.041290883 -0.25019264 0.4048202 0
0.0026170188 0.069847398 0.041333485 -0.25019264 0.4048202 0
0.0020483655 0.068774804 0.041384213 -0.25019264 0.4048202 0
0.0015382877 0.067619227 0.041445218 -0.25019264 0.4048202 0
0.0010591187 0.066416569 0.041512046 -0.25019264 0.4048202 0
0.00068161375 0.065070234 0.041596491 -0.25019264 0.4048202 0
0.00035960498 0.063640736 0.041691057 -0.25019264 0.4048202 0
0.00011377094 0.062098399 0.041799307 -0.25019264 0.4048202 0
1.8386627e-05 0.060339123 0.041933838 -0.25019264 0.4048202 0
9.0211062e-05 0.058336142 0.042097755 -0.25019264 0.4048202 0
0.00042674609 0.055949729 0.042307839 -0.25019264 0.4048202 0
0.0014675788 0.052558243 0.042639084 -0.25019264 0.4048202 0
0.032272447 0.075756535 0.041566674 -0.25019264 0.4048202 0
0.029000152 0.077840477 0.041210961 -0.25019264 0.4048202 0
0.026692301 0.07881891 0.040996145 -0.25019264 0.4048202 0
0.024728861 0.079407841 0.040831432 -0.25019264 0.4048202 0
0.022971774 0.079765201 0.040696718 -0.25019264 0.4048202 0
0.021378057 0.079938583 0.040585861 -0.25019264 0.4048202 0
0.019887824 0.079996966 0.040490098 -0.25019264 0.4048202 0
0.018510927 0.079926506 0.040411051 -0.25019264 0.4048202 0
0.017199054 0.07978379 0.040341593 -0.25019264 0.4048202 0
0.01595903 0.079559244 0.040282845 -0.25019264 0.4048202 0
0.0147559 0.079294443 0.040229596 -0.25019264 0.4048202 0
0.013637219 0.078929938 0.040189143 -0.25019264 0.4048202 0
0.011366198 0.079999998 0.039972603 -0.25019264 0.4048202 0
0.00996737 0.079999998 0.03988865 -0.25019264 0.4048202 0
0.0085743954 0.079999998 0.039805319 -0.25019264 0.4048202 0
0.0071872189 0.079999998 0.03972261 -0.25019264 0.4048202 0
0.0058057858 0.079999998 0.039640512 -0.25019264 0.4048202 0
0.0044300421 0.079999998 0.039559025 -0.25019264 0.4048202 0
0.003059933 0.079999998 0.039478146 -0.25019264 0.4048202 0
0.0016954059 0.079999998 0.039397862 -0.25019264 0.4048202 0
0.00033640818 0.079999998 0.039318174 -0.25019264 0.4048202 0
0 0.078674108 0.039399248 -0.25019264 0.4048202 0
0 0.07689999 0.039534304 -0.25019264 0.4048202 0
0 0.075113654 0.039670561 -0.25019264 0.4048202 0
0 0.073314942 0.039808039 -0.25019264 0.4048202 0
0 0.071503714 0.039946742 -0.25019264 0.4048202 0
0.0015382877 0.067619227 0.040333163 -0.25019264 0.4048202 0
0.0010591187 0.066416569 0.040398199 -0.25019264 0.4048202 0
0.00068161375 0.065070234 0.040480379 -0.25019264 0.4048202 0
0.00035960498 0.063640736 0.040572405 -0.25019264 0.4048202 0
0.00011377094 0.062098399 0.040677752 -0.25019264 0.4048202 0
1.8386627e-05 0.060339123 0.04080867 -0.25019264 0.4048202 0
9.0211062e-05 0.058336142 0.040968191 -0.25019264 0.4048202 0
0.00042674609 0.055949729 0.041172639 -0.25019264 0.4048202 0
0.0014675788 0.052558243 0.041494992 -0.25019264 0.4048202 0
0.03011019 0.079999998 0.039989933 -0.25019264 0.4048202 0
0.028629895 0.079999998 0.039899927 -0.25019264 0.4048202 0
0.027156239 0.079999998 0.039810602 -0.25019264 0.4048202 0
0.025689159 0.079999998 0.039721943 -0.25019264 0.4048202 0
0.024228586 0.079999998 0.039633948 -0.25019264 0.4048202 0
0.02277446 0.079999998 0.039546616 -0.25019264 0.4048202 0
0.021326719 0.079999998 0.039459936 -0.25019264 0.4048202 0
0.0198853 0.079999998 0.039373908 -0.25019264 0.4048202 0
0.018450143 0.079999998 0.039288521 -0.25019264 0.4048202 0
0.017021187 0.079999998 0.03920377 -0.25019264 0.4048202 0
0.015598373 0.079999998 0.03911965 -0.25019264 0.4048202 0
0.014181643 0.079999998 0.039036162 -0.25019264 0.4048202 0
0.012770937 0.079999998 0.038953293 -0.25019264 0.4048202 0
0.011366198 0.079999998 0.038871042 -0.25019264 0.4048202 0
0.00996737 0.079999998 0.038789403 -0.25019264 0.4048202 0
0.0085743954 0.079999998 0.03870837 -0.25019264 0.4048202 0
0.0071872189 0.079999998 0.038627937 -0.25019264 0.4048202 0
0.0058057858 0.079999998 0.038548104 -0.25019264 0.4048202 0
0.0044300421 0.079999998 0.038468864 -0.25019264 0.4048202 0
0.003059933 0.079999998 0.038390212 -0.25019264 0.4048202 0
0.0016954059 0.079999998 0.038312141 -0.25019264 0.4048202 0
0.00033640818 0.079999998 0.038234647 -0.25019264 0.4048202 0
0 0.078674108 0.038313486 -0.25019264 0.4048202 0
0 0.07689999 0.038444821 -0.25019264 0.4048202 0
0 0.075113654 0.038577326 -0.25019264 0.4048202 0
0 0.073314942 0.038711011 -0.25019264 0.4048202 0
0 0.071503714 0.038845893 -0.25019264 0.4048202 0
0 0.069679804 0.038981989 -0.25019264 0.4048202 0
0 0.067843065 0.039119311 -0.25019264 0.4048202 0
0 0.065993316 0.039257873 -0.25019264 0.4048202 0
0 0.064130411 0.03939769 -0.25019264 0.4048202 0
0 0.062254172 0.039538778 -0.25019264 0.4048202 0
0 0.060364436 0.039681155 -0.25019264 0.4048202 0
0 0.058461029 0.039824832 -0.25019264 0.4048202 0
0 0.056543771 0.039969832 -0.25019264 0.4048202 0
0.0014675788 0.052558243 0.04035148 -0.25019264 0.4048202 0
0.039135076 0.079999998 0.039396074 -0.25019264 0.4048202 0
0.037613552 0.079999998 0.039304554 -0.25019264 0.4048202 0
0.036099069 0.079999998 0.039213724 -0.25019264 0.4048202 0
0.034591559 0.079999998 0.039123584 -0.25019264 0.4048202 0
0.033090957 0.079999998 0.039034121 -0.25019264 0.4048202 0
0.03159719 0.079999998 0.038945336 -0.25019264 0.4048202 0
0.03011019 0.079999998 0.038857218 -0.25019264 0.4048202 0
0.028629895 0.079999998 0.038769763 -0.25019264 0.4048202 0
0.027156239 0.079999998 0.038682964 -0.25019264 0.4048202 0
0.025689159 0.079999998 0.038596816 -0.25019264 0.4048202 0
0.024228586 0.079999998 0.038511317 -0.25019264 0.4048202 0
0.02277446 0.079999998 0.038426459 -0.25019264 0.4048202 0
0.021326719 0.079999998 0.038342234 -0.25019264 0.4048202 0
0.0198853 0.079999998 0.038258638 -0.25019264 0.4048202 0
0.018450143 0.079999998 0.038175672 -0.25019264 0.4048202 0
0.017021187 0.079999998 0.038093321 -0.25019264 0.4048202 0
0.015598373 0.079999998 0.038011584 -0.25019264 0.4048202 0
0.014181643 0.079999998 0.037930459 -0.25019264 0.4048202 0
0.012770937 0.079999998 0.03784994 -0.25019264 0.4048202 0
0.011366198 0.079999998 0.037770018 -0.25019264 0.4048202 0
0.00996737 0.079999998 0.037690692 -0.25019264 0.4048202 0
0.0085743954 0.079999998 0.037611954 -0.25019264 0.4048202 0
0.0071872189 0.079999998 0.037533801 -0.25019264 0.4048202 0
0.0058057858 0.079999998 0.037456229 -0.25019264 0.4048202 0
0.0044300421 0.079999998 0.037379231 -0.25019264 0.4048202 0
0.003059933 0.079999998 0.037302807 -0.25019264 0.4048202 0
0.0016954059 0.079999998 0.037226949 -0.25019264 0.4048202 0
0.00033640818 0.079999998 0.03715165 -0.25019264 0.4048202 0
0 0.078674108 0.037228256 -0.25019264 0.4048202 0
0 0.07689999 0.03735587 -0.25019264 0.4048202 0
0 0.075113654 0.03748462 -0.25019264 0.4048202 0
0 0.073314942 0.037614521 -0.25019264 0.4048202 0
0 0.071503714 0.037745584 -0.25019264 0.4048202 0
0 0.069679804 0.037877824 -0.25019264 0.4048202 0
0 0.067843065 0.038011253 -0.25019264 0.4048202 0
0 0.065993316 0.038145892 -0.25019264 0.4048202 0
0 0.064130411 0.038281746 -0.25019264 0.4048202 0
0 0.062254172 0.038418841 -0.25019264 0.4048202 0
0 0.060364436 0.038557183 -0.25019264 0.4048202 0
0 0.058461029 0.038696792 -0.25019264 0.4048202 0
0 0.056543771 0.038837686 -0.25019264 0.4048202 0
0 0.054612491 0.038979873 -0.25019264 0.4048202 0
0 0.052667003 0.039123379 -0.25019264 0.4048202 0
0 0.050707124 0.039268211 -0.25019264 0.4048202 0
0 0.048732668 0.039414391 -0.25019264 0.4048202 0
0 0.046743441 0.039561938 -0.25019264 0.4048202 0
0 0.044739254 0.039710864 -0.25019264 0.4048202 0
0 0.042719904 0.039861195 -0.25019264 0.4048202 0
0.039135076 0.079999998 0.038248196 -0.25019264 0.4048202 0
0.037613552 0.079999998 0.038159341 -0.25019264 0.4048202 0
0.036099069 0.079999998 0.038071159 -0.25019264 0.4048202 0
0.034591559 0.079999998 0.037983645 -0.25019264 0.4048202 0
0.033090957 0.079999998 0.03789679 -0.25019264 0.4048202 0
0.03159719 0.079999998 0.03781059 -0.25019264 0.4048202 0
0.03011019 0.079999998 0.037725039 -0.25019264 0.4048202 0
0.028629895 0.079999998 0.037640132 -0.25019264 0.4048202 0
0.027156239 0.079999998 0.037555862 -0.25019264 0.4048202 0
0.025689159 0.079999998 0.037472226 -0.25019264 0.4048202 0
0.024228586 0.079999998 0.037389215 -0.25019264 0.4048202 0
0.02277446 0.079999998 0.03730683 -0.25019264 0.4048202 0
0.021326719 0.079999998 0.03722506 -0.25019264 0.4048202 0
0.0198853 0.079999998 0.037143901 -0.25019264 0.4048202 0
0.018450143 0.079999998 0.037063349 -0.25019264 0.4048202 0
0.017021187 0.079999998 0.036983401 -0.25019264 0.4048202 0
0.015598373 0.079999998 0.036904044 -0.25019264 0.4048202 0
0.014181643 0.079999998 0.036825284 -0.25019264 0.4048202 0
0.012770937 0.079999998 0.036747109 -0.25019264 0.4048202 0
0.011366198 0.079999998 0.036669515 -0.25019264 0.4048202 0
0.00996737 0.079999998 0.036592498 -0.25019264 0.4048202 0
0.0085743954 0.079999998 0.036516055 -0.25019264 0.4048202 0
0.0071872189 0.079999998 0.036440182 -0.25019264 0.4048202 0
0.0058057858 0.079999998 0.036364868 -0.25019264 0.4048202 0
0.0044300421 0.079999998 0.036290117 -0.25019264 0.4048202 0
0.003059933 0.079999998 0.036215916 -0.25019264 0.4048202 0
0.0016954059 0.079999998 0.036142271 -0.25019264 0.4048202 0
0.00033640818 0.079999998 0.036069166 -0.25019264 0.4048202 0
0 0.078674108 0.036143541 -0.25019264 0.4048202 0
0 0.07689999 0.036267437 -0.25019264 0.4048202 0
0 0.075113654 0.036392435 -0.25019264 0.4048202 0
0 0.073314942 0.036518551 -0.25019264 0.4048202 0
0 0.071503714 0.036645792 -0.25019264 0.4048202 0
0 0.069679804 0.036774181 -0.25019264 0.4048202 0
0 0.067843065 0.036903724 -0.25019264 0.4048202 0
0 0.065993316 0.037034437 -0.25019264 0.4048202 0
0 0.064130411 0.037166335 -0.25019264 0.4048202 0
0 0.062254172 0.037299436 -0.25019264 0.4048202 0
0 0.060364436 0.037433747 -0.25019264 0.4048202 0
0 0.058461029 0.037569288 -0.25019264 0.4048202 0
0 0.056543771 0.037706073 -0.25019264 0.4048202 0
0 0.054612491 0.037844121 -0.25019264 0.4048202 0
0 0.052667003 0.037983444 -0.25019264 0.4048202 0
