# .PCD v0.7 - Point Cloud Data file format
VERSION 0.7
FIELDS x y z vp_x vp_y vp_z
SIZE 4 4 4 4 4 4
TYPE F F F F F F
COUNT 1 1 1 1 1 1
WIDTH 732
HEIGHT 1
VIEWPOINT 0 0 0 1 0 0 0
POINTS 732
DATA ascii
0 0.05483729 0.034298033 -0.38593423 -0.23852047 -0.14741376
0 0.053140908 0.033956278 -0.38593423 -0.23852047 -0.14741376
0 0.051451582 0.033616114 -0.38593423 -0.23852047 -0.14741376
0 0.049769245 0.03327753 -0.38593423 -0.23852047 -0.14741376
0 0.048093822 0.032940511 -0.38593423 -0.23852047 -0.14741376
0 0.046425257 0.032605041 -0.38593423 -0.23852047 -0.14741376
0.036362182 0.071454093 0.049200762 -0.38593423 -0.23852047 -0.14741376
0 0.043108422 0.031938694 -0.38593423 -0.23852047 -0.14741376
0 0.041460026 0.031607792 -0.38593423 -0.23852047 -0.14741376
0 0.039818224 0.031278383 -0.38593423 -0.23852047 -0.14741376
0 0.038182959 0.030950455 -0.38593423 -0.23852047 -0.14741376
0 0.036554169 0.030623997 -0.38593423 -0.23852047 -0.14741376
0 0.034931786 0.030298989 -0.38593423 -0.23852047 -0.14741376
0 0.033315759 0.029975425 -0.38593423 -0.23852047 -0.14741376
0 0.03170602 0.02965329 -0.38593423 -0.23852047 -0.14741376
5.5511151e-17 0.030102514 0.029332569 -0.38593423 -0.23852047 -0.14741376
0 0.028505182 0.029013252 -0.38593423 -0.23852047 -0.14741376
0 0.026913965 0.028695324 -0.38593423 -0.23852047 -0.14741376
0 0.025328809 0.028378773 -0.38593423 -0.23852047 -0.14741376
0 0.023749653 0.02806359 -0.38593423 -0.23852047 -0.14741376
0 0.022176445 0.02774976 -0.38593423 -0.23852047 -0.14741376
0 0.020609125 0.027437272 -0.38593423 -0.23852047 -0.14741376
5.5511151e-17 0.019047644 0.027126111 -0.38593423 -0.23852047 -0.14741376
5.5511151e-17 0.017491942 0.026816269 -0.38593423 -0.23852047 -0.14741376
0 0.015941968 0.026507735 -0.38593423 -0.23852047 -0.14741376
0 0.01439767 0.026200494 -0.38593423 -0.23852047 -0.14741376
0 0.012858993 0.025894538 -0.38593423 -0.23852047 -0.14741376
5.5511151e-17 0.011325886 0.025589852 -0.38593423 -0.23852047 -0.14741376
0 0.0097982967 0.025286429 -0.38593423 -0.23852047 -0.14741376
0 0.0082761757 0.024984254 -0.38593423 -0.23852047 -0.14741376
0 0.0067594703 0.024683319 -0.38593423 -0.23852047 -0.14741376
0 0.0052481322 0.024383612 -0.38593423 -0.23852047 -0.14741376
0 0.0037421107 0.024085123 -0.38593423 -0.23852047 -0.14741376
0.036546543 0.025040613 0.039999999 -0.38593423 -0.23852047 -0.14741376
0 0.00074582436 0.023491753 -0.38593423 -0.23852047 -0.14741376
0.001208459 0 0.023731081 -0.38593423 -0.23852047 -0.14741376
0.0036418978 2.7755576e-17 0.024510339 -0.38593423 -0.23852047 -0.14741376
0.006097645 0 0.025296906 -0.38593423 -0.23852047 -0.14741376
0.039999999 0.018998889 0.039911073 -0.38593423 -0.23852047 -0.14741376
0.011077444 0 0.026892416 -0.38593423 -0.23852047 -0.14741376
0.016150687 0 0.028518533 -0.38593423 -0.23852047 -0.14741376
0.018723264 0 0.02934337 -0.38593423 -0.23852047 -0.14741376
0.021320319 0 0.030176222 -0.38593423 -0.23852047 -0.14741376
0.023942238 2.7755576e-17 0.031017218 -0.38593423 -0.23852047 -0.14741376
0.026589414 0 0.031866487 -0.38593423 -0.23852047 -0.14741376
0.029262256 2.7755576e-17 0.032724161 -0.38593423 -0.23852047 -0.14741376
0.031961177 0 0.033590376 -0.38593423 -0.23852047 -0.14741376
0.034686591 0 0.034465268 -0.38593423 -0.23852047 -0.14741376
0.03743894 0 0.035348978 -0.38593423 -0.23852047 -0.14741376
0 0.079291321 0.037752118 -0.38593423 -0.23852047 -0.14741376
0 0.077490546 0.037390139 -0.38593423 -0.23852047 -0.14741376
0 0.075697839 0.037029952 -0.38593423 -0.23852047 -0.14741376
0 0.07391312 0.036671538 -0.38593423 -0.23852047 -0.14741376
0 0.072136305 0.036314879 -0.38593423 -0.23852047 -0.14741376
0 0.070367329 0.035959955 -0.38593423 -0.23852047 -0.14741376
5.5511151e-17 0.068606108 0.035606757 -0.38593423 -0.23852047 -0.14741376
0 0.066852562 0.035255261 -0.38593423 -0.23852047 -0.14741376
0 0.06510663 0.03490546 -0.38593423 -0.23852047 -0.14741376
0 0.063368224 0.034557328 -0.38593423 -0.23852047 -0.14741376
0 0.061637279 0.034210857 -0.38593423 -0.23852047 -0.14741376
0 0.059913721 0.033866029 -0.38593423 -0.23852047 -0.14741376
5.5511151e-17 0.05819748 0.033522829 -0.38593423 -0.23852047 -0.14741376
0 0.056488484 0.033181239 -0.38593423 -0.23852047 -0.14741376
0 0.054786667 0.03284125 -0.38593423 -0.23852047 -0.14741376
5.5511151e-17 0.053091954 0.032502841 -0.38593423 -0.23852047 -0.14741376
0 0.051404282 0.032166 -0.38593423 -0.23852047 -0.14741376
5.5511151e-17 0.049723584 0.031830717 -0.38593423 -0.23852047 -0.14741376
0.034557361 0.073709898 0.047517013 -0.38593423 -0.23852047 -0.14741376
0.035505552 0.072593644 0.047593787 -0.38593423 -0.23852047 -0.14741376
5.5511151e-17 0.044722658 0.030834042 -0.38593423 -0.23852047 -0.14741376
0 0.043069191 0.030504828 -0.38593423 -0.23852047 -0.14741376
0 0.041422371 0.030177101 -0.38593423 -0.23852047 -0.14741376
0 0.039782137 0.029850844 -0.38593423 -0.23852047 -0.14741376
5.5511151e-17 0.038148422 0.029526046 -0.38593423 -0.23852047 -0.14741376
0 0.036521167 0.02920269 -0.38593423 -0.23852047 -0.14741376
0.039736856 0.063052475 0.047032539 -0.38593423 -0.23852047 -0.14741376
0 0.033285797 0.028560258 -0.38593423 -0.23852047 -0.14741376
0 0.031677563 0.028241158 -0.38593423 -0.23852047 -0.14741376
0 0.030075548 0.027923448 -0.38593423 -0.23852047 -0.14741376
0 0.028479697 0.027607121 -0.38593423 -0.23852047 -0.14741376
0 0.026889948 0.02729216 -0.38593423 -0.23852047 -0.14741376
0 0.025306249 0.026978556 -0.38593423 -0.23852047 -0.14741376
0 0.02372854 0.026666295 -0.38593423 -0.23852047 -0.14741376
0 0.022156768 0.026355365 -0.38593423 -0.23852047 -0.14741376
0 0.020590873 0.026045755 -0.38593423 -0.23852047 -0.14741376
5.5511151e-17 0.019030806 0.025737453 -0.38593423 -0.23852047 -0.14741376
0 0.017476508 0.025430448 -0.38593423 -0.23852047 -0.14741376
0 0.015927928 0.025124727 -0.38593423 -0.23852047 -0.14741376
0 0.014385012 0.024820281 -0.38593423 -0.23852047 -0.14741376
0 0.012847709 0.024517097 -0.38593423 -0.23852047 -0.14741376
0 0.011315965 0.024215164 -0.38593423 -0.23852047 -0.14741376
0 0.0097897295 0.023914471 -0.38593423 -0.23852047 -0.14741376
0.036973476 0.031912003 0.039999999 -0.38593423 -0.23852047 -0.14741376
0 0.0067535806 0.023316765 -0.38593423 -0.23852047 -0.14741376
0 0.0052435673 0.023019729 -0.38593423 -0.23852047 -0.14741376
0.039188508 0.028338345 0.039999999 -0.38593423 -0.23852047 -0.14741376
0 0.0022394152 0.022429241 -0.38593423 -0.23852047 -0.14741376
5.5511151e-17 0.00074517907 0.022135766 -0.38593423 -0.23852047 -0.14741376
0.001207412 0 0.022372989 -0.38593423 -0.23852047 -0.14741376
0.039999999 0.022262601 0.039064731 -0.38593423 -0.23852047 -0.14741376
0.0060923137 0 0.023925006 -0.38593423 -0.23852047 -0.14741376
0.039999999 0.019003807 0.038425863 -0.38593423 -0.23852047 -0.14741376
0.039999999 0.01738267 0.0381083 -0.38593423 -0.23852047 -0.14741376
0.013590144 0 0.026308373 -0.38593423 -0.23852047 -0.14741376
0.0161363 2.7755576e-17 0.027118044 -0.38593423 -0.23852047 -0.14741376
0.039999999 0.01255171 0.037162963 -0.38593423 -0.23852047 -0.14741376
0.021301148 0 0.028760932 -0.38593423 -0.23852047 -0.14741376
0.023920605 0 0.029594395 -0.38593423 -0.23852047 -0.14741376
0.026565274 0 0.030436041 -0.38593423 -0.23852047 -0.14741376
0.02923556 0 0.031286001 -0.38593423 -0.23852047 -0.14741376
0.031931877 2.7755576e-17 0.032144409 -0.38593423 -0.23852047 -0.14741376
0.039999999 0.0030314114 0.035304461 -0.38593423 -0.23852047 -0.14741376
0.039999999 0.0014624988 0.034998763 -0.38593423 -0.23852047 -0.14741376
0 0.079215951 0.03624884 -0.38593423 -0.23852047 -0.14741376
0 0.077417053 0.035890579 -0.38593423 -0.23852047 -0.14741376
0 0.075626209 0.03553408 -0.38593423 -0.23852047 -0.14741376
0 0.07384333 0.035179324 -0.38593423 -0.23852047 -0.14741376
0 0.072068349 0.034826294 -0.38593423 -0.23852047 -0.14741376
5.5511151e-17 0.070301183 0.034474976 -0.38593423 -0.23852047 -0.14741376
0 0.068541758 0.03412535 -0.38593423 -0.23852047 -0.14741376
0 0.066789992 0.033777405 -0.38593423 -0.23852047 -0.14741376
0 0.065045819 0.033431124 -0.38593423 -0.23852047 -0.14741376
0 0.06330917 0.033086486 -0.38593423 -0.23852047 -0.14741376
5.5511151e-17 0.061579961 0.032743484 -0.38593423 -0.23852047 -0.14741376
0 0.059858125 0.032402094 -0.38593423 -0.23852047 -0.14741376
0 0.05814359 0.032062307 -0.38593423 -0.23852047 -0.14741376
0 0.056436285 0.031724107 -0.38593423 -0.23852047 -0.14741376
0 0.054736145 0.031387478 -0.38593423 -0.23852047 -0.14741376
0 0.053043101 0.031052409 -0.38593423 -0.23852047 -0.14741376
0 0.051357079 0.030718882 -0.38593423 -0.23852047 -0.14741376
5.5511151e-17 0.049678016 0.030386882 -0.38593423 -0.23852047 -0.14741376
0 0.048005849 0.030056398 -0.38593423 -0.23852047 -0.14741376
5.5511151e-17 0.046340507 0.029727414 -0.38593423 -0.23852047 -0.14741376
0 0.044681925 0.029399917 -0.38593423 -0.23852047 -0.14741376
0 0.043030042 0.029073894 -0.38593423 -0.23852047 -0.14741376
0 0.041384794 0.02874933 -0.38593423 -0.23852047 -0.14741376
0 0.039746121 0.028426215 -0.38593423 -0.23852047 -0.14741376
5.5511151e-17 0.038113952 0.028104531 -0.38593423 -0.23852047 -0.14741376
5.5511151e-17 0.036488235 0.027784269 -0.38593423 -0.23852047 -0.14741376
0 0.034868903 0.027465414 -0.38593423 -0.23852047 -0.14741376
0 0.033255901 0.027147954 -0.38593423 -0.23852047 -0.14741376
0 0.031649165 0.026831876 -0.38593423 -0.23852047 -0.14741376
0 0.030048639 0.02651717 -0.38593423 -0.23852047 -0.14741376
5.5511151e-17 0.028454263 0.026203819 -0.38593423 -0.23852047 -0.14741376
0 0.02686598 0.025891814 -0.38593423 -0.23852047 -0.14741376
5.5511151e-17 0.025283735 0.025581144 -0.38593423 -0.23852047 -0.14741376
0 0.02370747 0.025271796 -0.38593423 -0.23852047 -0.14741376
0 0.02213713 0.024963757 -0.38593423 -0.23852047 -0.14741376
5.5511151e-17 0.020572657 0.024657015 -0.38593423 -0.23852047 -0.14741376
0 0.019014001 0.024351561 -0.38593423 -0.23852047 -0.14741376
0 0.017461104 0.024047382 -0.38593423 -0.23852047 -0.14741376
5.5511151e-17 0.015913915 0.023744466 -0.38593423 -0.23852047 -0.14741376
0 0.01437238 0.023442803 -0.38593423 -0.23852047 -0.14741376
0 0.012836446 0.023142383 -0.38593423 -0.23852047 -0.14741376
0 0.011306063 0.022843193 -0.38593423 -0.23852047 -0.14741376
0 0.009781179 0.022545222 -0.38593423 -0.23852047 -0.14741376
5.5511151e-17 0.0082617421 0.022248462 -0.38593423 -0.23852047 -0.14741376
5.5511151e-17 0.0067477031 0.021952899 -0.38593423 -0.23852047 -0.14741376
0 0.0052390117 0.021658527 -0.38593423 -0.23852047 -0.14741376
0 0.0037356191 0.02136533 -0.38593423 -0.23852047 -0.14741376
0 0.0022374764 0.0210733 -0.38593423 -0.23852047 -0.14741376
0 0.00074453501 0.02078243 -0.38593423 -0.23852047 -0.14741376
0.001206367 0 0.021017553 -0.38593423 -0.23852047 -0.14741376
0.0036355644 0 0.021783108 -0.38593423 -0.23852047 -0.14741376
0.0060869926 0 0.022555813 -0.38593423 -0.23852047 -0.14741376
0.0085609928 2.7755576e-17 0.023335777 -0.38593423 -0.23852047 -0.14741376
0.011057912 0 0.024123115 -0.38593423 -0.23852047 -0.14741376
0.013578109 0 0.024917938 -0.38593423 -0.23852047 -0.14741376
0.016121943 2.7755576e-17 0.025720365 -0.38593423 -0.23852047 -0.14741376
0.018689785 0 0.026530514 -0.38593423 -0.23852047 -0.14741376
0.039999999 0.010963763 0.035381578 -0.38593423 -0.23852047 -0.14741376
0.023899017 2.7755576e-17 0.028174462 -0.38593423 -0.23852047 -0.14741376
0.026541185 0 0.029008513 -0.38593423 -0.23852047 -0.14741376
0.031902637 0 0.030701416 -0.38593423 -0.23852047 -0.14741376
0.034622751 0 0.031560533 -0.38593423 -0.23852047 -0.14741376
0.037369691 2.7755576e-17 0.032428276 -0.38593423 -0.23852047 -0.14741376
0 0.079140738 0.034748737 -0.38593423 -0.23852047 -0.14741376
0 0.077343717 0.034394179 -0.38593423 -0.23852047 -0.14741376
0 0.075554729 0.034041353 -0.38593423 -0.23852047 -0.14741376
0 0.07377369 0.033690244 -0.38593423 -0.23852047 -0.14741376
5.5511151e-17 0.072000533 0.03334083 -0.38593423 -0.23852047 -0.14741376
0 0.07023517 0.032993101 -0.38593423 -0.23852047 -0.14741376
0 0.068477534 0.032647036 -0.38593423 -0.23852047 -0.14741376
5.5511151e-17 0.066727556 0.032302625 -0.38593423 -0.23852047 -0.14741376
0 0.064985141 0.03195985 -0.38593423 -0.23852047 -0.14741376
0 0.063250236 0.031618696 -0.38593423 -0.23852047 -0.14741376
0 0.061522759 0.031279143 -0.38593423 -0.23852047 -0.14741376
0 0.05980264 0.030941185 -0.38593423 -0.23852047 -0.14741376
5.5511151e-17 0.058089811 0.0306048 -0.38593423 -0.23852047 -0.14741376
0 0.056384198 0.030269975 -0.38593423 -0.23852047 -0.14741376
0 0.05468573 0.029936697 -0.38593423 -0.23852047 -0.14741376
0 0.052994344 0.029604951 -0.38593423 -0.23852047 -0.14741376
0 0.051309973 0.029274723 -0.38593423 -0.23852047 -0.14741376
0 0.049632546 0.028945997 -0.38593423 -0.23852047 -0.14741376
0 0.047961995 0.028618762 -0.38593423 -0.23852047 -0.14741376
0 0.046298262 0.028293004 -0.38593423 -0.23852047 -0.14741376
0 0.044641275 0.027968708 -0.38593423 -0.23852047 -0.14741376
5.5511151e-17 0.042990975 0.027645862 -0.38593423 -0.23852047 -0.14741376
0 0.041347295 0.027324451 -0.38593423 -0.23852047 -0.14741376
0 0.039710175 0.027004462 -0.38593423 -0.23852047 -0.14741376
5.5511151e-17 0.038079552 0.026685884 -0.38593423 -0.23852047 -0.14741376
0 0.036455367 0.026368704 -0.38593423 -0.23852047 -0.14741376
0 0.034837555 0.026052907 -0.38593423 -0.23852047 -0.14741376
0 0.033226062 0.025738483 -0.38593423 -0.23852047 -0.14741376
0 0.031620823 0.025425419 -0.38593423 -0.23852047 -0.14741376
5.5511151e-17 0.030021781 0.025113702 -0.38593423 -0.23852047 -0.14741376
0.039545845 0.055782601 0.042450033 -0.38593423 -0.23852047 -0.14741376
0 0.02684206 0.024494262 -0.38593423 -0.23852047 -0.14741376
5.5511151e-17 0.025261266 0.024186514 -0.38593423 -0.23852047 -0.14741376
0.036319073 0.04836192 0.039999999 -0.38593423 -0.23852047 -0.14741376
0 0.022117529 0.023574907 -0.38593423 -0.23852047 -0.14741376
0 0.020554477 0.023271024 -0.38593423 -0.23852047 -0.14741376
0 0.01899723 0.022968408 -0.38593423 -0.23852047 -0.14741376
0 0.01744573 0.022667045 -0.38593423 -0.23852047 -0.14741376
0 0.015899928 0.022366924 -0.38593423 -0.23852047 -0.14741376
0 0.014359772 0.022068035 -0.38593423 -0.23852047 -0.14741376
0 0.012825206 0.021770367 -0.38593423 -0.23852047 -0.14741376
0 0.011296181 0.021473911 -0.38593423 -0.23852047 -0.14741376
5.5511151e-17 0.0097726444 0.021178653 -0.38593423 -0.23852047 -0.14741376
0 0.0082545467 0.020884585 -0.38593423 -0.23852047 -0.14741376
0.039999999 0.032161951 0.038004555 -0.38593423 -0.23852047 -0.14741376
0 0.005234465 0.020299973 -0.38593423 -0.23852047 -0.14741376
0 0.0037323828 0.02000941 -0.38593423 -0.23852047 -0.14741376
0 0.0022355414 0.019719996 -0.38593423 -0.23852047 -0.14741376
0 0.00074389222 0.019431718 -0.38593423 -0.23852047 -0.14741376
0.039999999 0.023901779 0.036407441 -0.38593423 -0.23852047 -0.14741376
0.039999999 0.022266833 0.036091764 -0.38593423 -0.23852047 -0.14741376
0.0060816817 0 0.021189298 -0.38593423 -0.23852047 -0.14741376
0.0085534891 0 0.021962291 -0.38593423 -0.23852047 -0.14741376
0.011048176 0 0.022742573 -0.38593423 -0.23852047 -0.14741376
0.013566097 0 0.02353026 -0.38593423 -0.23852047 -0.14741376
0.016107615 0 0.024325468 -0.38593423 -0.23852047 -0.14741376
0.018673096 0 0.025128311 -0.38593423 -0.23852047 -0.14741376
0.021262921 0 0.025938911 -0.38593423 -0.23852047 -0.14741376
0.023877472 0 0.026757391 -0.38593423 -0.23852047 -0.14741376
0.039999999 0.0077971308 0.033304472 -0.38593423 -0.23852047 -0.14741376
0.029182335 2.7755576e-17 0.028418491 -0.38593423 -0.23852047 -0.14741376
0.031873457 2.7755576e-17 0.029261369 -0.38593423 -0.23852047 -0.14741376
0.03459093 0 0.030112641 -0.38593423 -0.23852047 -0.14741376
0.037335176 0 0.030972447 -0.38593423 -0.23852047 -0.14741376
5.5511151e-17 0.079065688 0.033251777 -0.38593423 -0.23852047 -0.14741376
0 0.07727053 0.032900907 -0.38593423 -0.23852047 -0.14741376
5.5511151e-17 0.075483389 0.032551743 -0.38593423 -0.23852047 -0.14741376
0 0.073704191 0.032204263 -0.38593423 -0.23852047 -0.14741376
0 0.071932852 0.031858452 -0.38593423 -0.23852047 -0.14741376
5.5511151e-17 0.0701693 0.031514298 -0.38593423 -0.23852047 -0.14741376
5.5511151e-17 0.068413451 0.031171784 -0.38593423 -0.23852047 -0.14741376
5.5511151e-17 0.06666524 0.030830894 -0.38593423 -0.23852047 -0.14741376
0 0.06492459 0.030491613 -0.38593423 -0.23852047 -0.14741376
5.5511151e-17 0.063191429 0.030153925 -0.38593423 -0.23852047 -0.14741376
0 0.061465677 0.029817816 -0.38593423 -0.23852047 -0.14741376
0.025281733 0.079286158 0.041071419 -0.38593423 -0.23852047 -0.14741376
5.5511151e-17 0.058036141 0.029150274 -0.38593423 -0.23852047 -0.14741376
0 0.056332212 0.028818812 -0.38593423 -0.23852047 -0.14741376
0 0.05463542 0.028488873 -0.38593423 -0.23852047 -0.14741376
0 0.052945692 0.028160438 -0.38593423 -0.23852047 -0.14741376
0 0.05126296 0.027833497 -0.38593423 -0.23852047 -0.14741376
0 0.049587164 0.027508035 -0.38593423 -0.23852047 -0.14741376
0 0.04791823 0.027184037 -0.38593423 -0.23852047 -0.14741376
5.5511151e-17 0.046256103 0.026861493 -0.38593423 -0.23852047 -0.14741376
0.036442824 0.071335144 0.042966448 -0.38593423 -0.23852047 -0.14741376
0 0.042951982 0.026220702 -0.38593423 -0.23852047 -0.14741376
5.5511151e-17 0.041309871 0.025902433 -0.38593423 -0.23852047 -0.14741376
0 0.039674304 0.025585562 -0.38593423 -0.23852047 -0.14741376
0 0.038045224 0.025270078 -0.38593423 -0.23852047 -0.14741376
0 0.036422566 0.024955967 -0.38593423 -0.23852047 -0.14741376
0 0.03480627 0.02464322 -0.38593423 -0.23852047 -0.14741376
0 0.033196282 0.024331819 -0.38593423 -0.23852047 -0.14741376
0.039976805 0.05957206 0.04177982 -0.38593423 -0.23852047 -0.14741376
0 0.029994978 0.023713019 -0.38593423 -0.23852047 -0.14741376
5.5511151e-17 0.028403547 0.023405595 -0.38593423 -0.23852047 -0.14741376
0 0.026818186 0.023099471 -0.38593423 -0.23852047 -0.14741376
0 0.025238842 0.022794638 -0.38593423 -0.23852047 -0.14741376
0 0.023665454 0.022491081 -0.38593423 -0.23852047 -0.14741376
0.039999999 0.049109664 0.03976718 -0.38593423 -0.23852047 -0.14741376
0 0.020536333 0.021887757 -0.38593423 -0.23852047 -0.14741376
0 0.01898049 0.021587968 -0.38593423 -0.23852047 -0.14741376
0.039999999 0.04395831 0.038774583 -0.38593423 -0.23852047 -0.14741376
0 0.015885971 0.020992074 -0.38593423 -0.23852047 -0.14741376
0 0.014347188 0.020695951 -0.38593423 -0.23852047 -0.14741376
0.039999999 0.038863447 0.037794124 -0.38593423 -0.23852047 -0.14741376
0 0.011286318 0.020107294 -0.38593423 -0.23852047 -0.14741376
0.039999999 0.035497487 0.037147071 -0.38593423 -0.23852047 -0.14741376
0 0.0082473652 0.019523352 -0.38593423 -0.23852047 -0.14741376
0 0.0067359814 0.019233126 -0.38593423 -0.23852047 -0.14741376
0 0.0052299271 0.018944047 -0.38593423 -0.23852047 -0.14741376
0 0.0037291527 0.018656107 -0.38593423 -0.23852047 -0.14741376
0 0.00223361 0.018369297 -0.38593423 -0.23852047 -0.14741376
0 0.00074325071 0.018083602 -0.38593423 -0.23852047 -0.14741376
0.0012042831 0 0.018314555 -0.38593423 -0.23852047 -0.14741376
0.0036292558 0 0.0190665 -0.38593423 -0.23852047 -0.14741376
0.039999999 0.020640966 0.034297902 -0.38593423 -0.23852047 -0.14741376
0.0085460003 2.7755576e-17 0.020591481 -0.38593423 -0.23852047 -0.14741376
0.011038458 2.7755576e-17 0.021364734 -0.38593423 -0.23852047 -0.14741376
0.013554109 2.7755576e-17 0.02214531 -0.38593423 -0.23852047 -0.14741376
0.016093314 0 0.022933323 -0.38593423 -0.23852047 -0.14741376
0.01865644 0 0.023728888 -0.38593423 -0.23852047 -0.14741376
0.021243865 2.7755576e-17 0.024532124 -0.38593423 -0.23852047 -0.14741376
0.023855969 0 0.025343154 -0.38593423 -0.23852047 -0.14741376
0.029155802 2.7755576e-17 0.026989084 -0.38593423 -0.23852047 -0.14741376
0.031844337 0 0.02782424 -0.38593423 -0.23852047 -0.14741376
0.034559172 0 0.028667698 -0.38593423 -0.23852047 -0.14741376
0.037300728 2.7755576e-17 0.029519593 -0.38593423 -0.23852047 -0.14741376
5.5511151e-17 0.078990787 0.031757932 -0.38593423 -0.23852047 -0.14741376
5.5511151e-17 0.0771975 0.031410735 -0.38593423 -0.23852047 -0.14741376
5.5511151e-17 0.075412206 0.031065214 -0.38593423 -0.23852047 -0.14741376
0 0.073634841 0.030721352 -0.38593423 -0.23852047 -0.14741376
0 0.071865313 0.030379133 -0.38593423 -0.23852047 -0.14741376
0 0.070103563 0.030038541 -0.38593423 -0.23852047 -0.14741376
0 0.068349503 0.029699562 -0.38593423 -0.23852047 -0.14741376
0 0.066603057 0.029362179 -0.38593423 -0.23852047 -0.14741376
0 0.064864159 0.02902638 -0.38593423 -0.23852047 -0.14741376
5.5511151e-17 0.063132733 0.028692147 -0.38593423 -0.23852047 -0.14741376
0 0.061408713 0.028359465 -0.38593423 -0.23852047 -0.14741376
0 0.059692018 0.028028322 -0.38593423 -0.23852047 -0.14741376
0 0.057982583 0.027698703 -0.38593423 -0.23852047 -0.14741376
5.5511151e-17 0.056280334 0.027370593 -0.38593423 -0.23852047 -0.14741376
0 0.054585207 0.027043978 -0.38593423 -0.23852047 -0.14741376
0 0.052897133 0.026718844 -0.38593423 -0.23852047 -0.14741376
5.5511151e-17 0.051216044 0.026395177 -0.38593423 -0.23852047 -0.14741376
0 0.049541876 0.026072964 -0.38593423 -0.23852047 -0.14741376
0 0.047874555 0.025752192 -0.38593423 -0.23852047 -0.14741376
0 0.046214025 0.025432847 -0.38593423 -0.23852047 -0.14741376
0 0.04456022 0.025114918 -0.38593423 -0.23852047 -0.14741376
0 0.042913072 0.02479839 -0.38593423 -0.23852047 -0.14741376
0 0.041272521 0.024483249 -0.38593423 -0.23852047 -0.14741376
0.038542125 0.067417428 0.041305002 -0.38593423 -0.23852047 -0.14741376
0 0.038010962 0.023857083 -0.38593423 -0.23852047 -0.14741376
0 0.036389828 0.023546033 -0.38593423 -0.23852047 -0.14741376
5.5511151e-17 0.034775048 0.023236321 -0.38593423 -0.23852047 -0.14741376
0.039930802 0.061276741 0.040552389 -0.38593423 -0.23852047 -0.14741376
0 0.031564306 0.022620864 -0.38593423 -0.23852047 -0.14741376
5.5511151e-17 0.029968226 0.022315094 -0.38593423 -0.23852047 -0.14741376
0 0.028378263 0.022010617 -0.38593423 -0.23852047 -0.14741376
0 0.026794359 0.021707417 -0.38593423 -0.23852047 -0.14741376
5.5511151e-17 0.02521646 0.021405486 -0.38593423 -0.23852047 -0.14741376
0 0.023644507 0.021104811 -0.38593423 -0.23852047 -0.14741376
0 0.022078447 0.020805381 -0.38593423 -0.23852047 -0.14741376
5.5511151e-17 0.020518225 0.020507185 -0.38593423 -0.23852047 -0.14741376
5.5511151e-17 0.018963784 0.020210212 -0.38593423 -0.23852047 -0.14741376
0 0.017415073 0.01991445 -0.38593423 -0.23852047 -0.14741376
0 0.015872039 0.01961989 -0.38593423 -0.23852047 -0.14741376
0 0.01433463 0.019326521 -0.38593423 -0.23852047 -0.14741376
0 0.012802792 0.019034332 -0.38593423 -0.23852047 -0.14741376
0.039999999 0.037166581 0.035964593 -0.38593423 -0.23852047 -0.14741376
0 0.0097556263 0.018453451 -0.38593423 -0.23852047 -0.14741376
0 0.0082401969 0.018164737 -0.38593423 -0.23852047 -0.14741376
0.039999999 0.032149039 0.035008676 -0.38593423 -0.23852047 -0.14741376
0.039999999 0.03048834 0.034692544 -0.38593423 -0.23852047 -0.14741376
0 0.0037259287 0.017305395 -0.38593423 -0.23852047 -0.14741376
5.5511151e-17 0.0022316822 0.017021177 -0.38593423 -0.23852047 -0.14741376
0.0012032442 0 0.016966937 -0.38593423 -0.23852047 -0.14741376
0.0036261105 0 0.017712113 -0.38593423 -0.23852047 -0.14741376
0.0060710916 0 0.018464206 -0.38593423 -0.23852047 -0.14741376
0.0085385265 0 0.019223323 -0.38593423 -0.23852047 -0.14741376
0.011028759 2.7755576e-17 0.019989571 -0.38593423 -0.23852047 -0.14741376
0.013542145 0 0.02076306 -0.38593423 -0.23852047 -0.14741376
0.01607904 0 0.021543905 -0.38593423 -0.23852047 -0.14741376
0.018639816 0 0.022332218 -0.38593423 -0.23852047 -0.14741376
0.021224845 0 0.023128117 -0.38593423 -0.23852047 -0.14741376
0.023834512 0 0.023931721 -0.38593423 -0.23852047 -0.14741376
0.039999999 0.0062469444 0.030092852 -0.38593423 -0.23852047 -0.14741376
0.031815276 0 0.026389999 -0.38593423 -0.23852047 -0.14741376
0.034527477 2.7755576e-17 0.027225671 -0.38593423 -0.23852047 -0.14741376
0.037266355 0 0.028069686 -0.38593423 -0.23852047 -0.14741376
5.5511151e-17 0.07891605 0.030267168 -0.38593423 -0.23852047 -0.14741376
0 0.077124618 0.029923633 -0.38593423 -0.23852047 -0.14741376
0 0.075341173 0.029581742 -0.38593423 -0.23852047 -0.14741376
0 0.073565625 0.029241484 -0.38593423 -0.23852047 -0.14741376
0 0.071797915 0.028902842 -0.38593423 -0.23852047 -0.14741376
0 0.070037961 0.0285658 -0.38593423 -0.23852047 -0.14741376
0 0.066541001 0.027896455 -0.38593423 -0.23852047 -0.14741376
0 0.064803854 0.027564121 -0.38593423 -0.23852047 -0.14741376
0 0.063074164 0.027233331 -0.38593423 -0.23852047 -0.14741376
5.5511151e-17 0.059636872 0.026576312 -0.38593423 -0.23852047 -0.14741376
0 0.057929128 0.026250055 -0.38593423 -0.23852047 -0.14741376
0 0.056228559 0.025925284 -0.38593423 -0.23852047 -0.14741376
0 0.054535098 0.025601981 -0.38593423 -0.23852047 -0.14741376
0 0.052848674 0.025280135 -0.38593423 -0.23852047 -0.14741376
0 0.05116922 0.024959732 -0.38593423 -0.23852047 -0.14741376
0 0.049496673 0.024640758 -0.38593423 -0.23852047 -0.14741376
0 0.047830965 0.024323201 -0.38593423 -0.23852047 -0.14741376
0 0.046172034 0.024007047 -0.38593423 -0.23852047 -0.14741376
0 0.044519812 0.023692282 -0.38593423 -0.23852047 -0.14741376
0 0.042874236 0.023378894 -0.38593423 -0.23852047 -0.14741376
0.03833323 0.069022208 0.039999999 -0.38593423 -0.23852047 -0.14741376
0 0.039602775 0.022756202 -0.38593423 -0.23852047 -0.14741376
5.5511151e-17 0.037976764 0.022446873 -0.38593423 -0.23852047 -0.14741376
0 0.036357157 0.022138871 -0.38593423 -0.23852047 -0.14741376
0 0.034743886 0.021832183 -0.38593423 -0.23852047 -0.14741376
5.5511151e-17 0.033136901 0.0215268 -0.38593423 -0.23852047 -0.14741376
0 0.031536132 0.021222711 -0.38593423 -0.23852047 -0.14741376
0 0.029941527 0.0209199 -0.38593423 -0.23852047 -0.14741376
0 0.02835303 0.020618359 -0.38593423 -0.23852047 -0.14741376
0 0.026770579 0.020318072 -0.38593423 -0.23852047 -0.14741376
0 0.025194122 0.020019034 -0.38593423 -0.23852047 -0.14741376
0 0.023623602 0.01972123 -0.38593423 -0.23852047 -0.14741376
0 0.022058962 0.019424649 -0.38593423 -0.23852047 -0.14741376
0 0.02050015 0.019129282 -0.38593423 -0.23852047 -0.14741376
5.5511151e-17 0.01894711 0.018835114 -0.38593423 -0.23852047 -0.14741376
0 0.01739979 0.018542141 -0.38593423 -0.23852047 -0.14741376
0 0.015858136 0.018250346 -0.38593423 -0.23852047 -0.14741376
0 0.014322095 0.017959721 -0.38593423 -0.23852047 -0.14741376
0.039999999 0.038838759 0.034780324 -0.38593423 -0.23852047 -0.14741376
0 0.011266649 0.01738194 -0.38593423 -0.23852047 -0.14741376
0 0.009747141 0.017094763 -0.38593423 -0.23852047 -0.14741376
5.5511151e-17 0.0082330434 0.016808715 -0.38593423 -0.23852047 -0.14741376
0 0.006724305 0.016523786 -0.38593423 -0.23852047 -0.14741376
0 0.005220877 0.016239967 -0.38593423 -0.23852047 -0.14741376
0 0.003722711 0.015957246 -0.38593423 -0.23852047 -0.14741376
0 0.0022297583 0.015675616 -0.38593423 -0.23852047 -0.14741376
0 0.00074197125 0.015395065 -0.38593423 -0.23852047 -0.14741376
0.039999999 0.023903891 0.031960875 -0.38593423 -0.23852047 -0.14741376
0.039999999 0.022273149 0.031653598 -0.38593423 -0.23852047 -0.14741376
0.0060658115 2.7755576e-17 0.017105574 -0.38593423 -0.23852047 -0.14741376
0.0085310657 0 0.017857788 -0.38593423 -0.23852047 -0.14741376
0.011019079 0 0.018617056 -0.38593423 -0.23852047 -0.14741376
0.016064797 0 0.020157186 -0.38593423 -0.23852047 -0.14741376
0.018623225 0 0.020938274 -0.38593423 -0.23852047 -0.14741376
0.021205865 0 0.02172686 -0.38593423 -0.23852047 -0.14741376
0.039999999 0.0094226561 0.029236354 -0.38593423 -0.23852047 -0.14741376
0.039999999 0.0078400401 0.028939171 -0.38593423 -0.23852047 -0.14741376
0.029102895 0 0.024138821 -0.38593423 -0.23852047 -0.14741376
0.03178627 0 0.02495862 -0.38593423 -0.23852047 -0.14741376
0.034495845 0 0.025786534 -0.38593423 -0.23852047 -0.14741376
0.037232045 0 0.026622696 -0.38593423 -0.23852047 -0.14741376
0.039995305 2.7755576e-17 0.027467242 -0.38593423 -0.23852047 -0.14741376
5.5511151e-17 0.078841455 0.028779458 -0.38593423 -0.23852047 -0.14741376
0 0.077051885 0.028439568 -0.38593423 -0.23852047 -0.14741376
0 0.075270273 0.028101297 -0.38593423 -0.23852047 -0.14741376
0 0.073496558 0.02776463 -0.38593423 -0.23852047 -0.14741376
0 0.071730651 0.027429549 -0.38593423 -0.23852047 -0.14741376
0 0.069972485 0.027096042 -0.38593423 -0.23852047 -0.14741376
0 0.068221986 0.026764093 -0.38593423 -0.23852047 -0.14741376
0 0.066479072 0.026433688 -0.38593423 -0.23852047 -0.14741376
0 0.064743668 0.026104812 -0.38593423 -0.23852047 -0.14741376
5.5511151e-17 0.063015714 0.025777448 -0.38593423 -0.23852047 -0.14741376
0 0.061295126 0.025451586 -0.38593423 -0.23852047 -0.14741376
0 0.059581839 0.02512721 -0.38593423 -0.23852047 -0.14741376
5.5511151e-17 0.057875786 0.024804305 -0.38593423 -0.23852047 -0.14741376
5.5511151e-17 0.05617689 0.024482859 -0.38593423 -0.23852047 -0.14741376
5.5511151e-17 0.054485086 0.024162857 -0.38593423 -0.23852047 -0.14741376
5.5511151e-17 0.052800313 0.023844287 -0.38593423 -0.23852047 -0.14741376
0 0.051122494 0.023527136 -0.38593423 -0.23852047 -0.14741376
0 0.049451564 0.023211388 -0.38593423 -0.23852047 -0.14741376
0 0.047787465 0.022897033 -0.38593423 -0.23852047 -0.14741376
0 0.046130124 0.022584056 -0.38593423 -0.23852047 -0.14741376
0 0.044479482 0.022272445 -0.38593423 -0.23852047 -0.14741376
0 0.042835478 0.02196219 -0.38593423 -0.23852047 -0.14741376
5.5511151e-17 0.041198041 0.021653274 -0.38593423 -0.23852047 -0.14741376
0.039999999 0.068389393 0.038836695 -0.38593423 -0.23852047 -0.14741376
0 0.037942637 0.021039419 -0.38593423 -0.23852047 -0.14741376
0 0.036324549 0.020734454 -0.38593423 -0.23852047 -0.14741376
0 0.034712788 0.020430783 -0.38593423 -0.23852047 -0.14741376
0 0.033107296 0.020128392 -0.38593423 -0.23852047 -0.14741376
0 0.03150801 0.019827271 -0.38593423 -0.23852047 -0.14741376
5.5511151e-17 0.02991488 0.019527407 -0.38593423 -0.23852047 -0.14741376
0 0.028327843 0.019228792 -0.38593423 -0.23852047 -0.14741376
0 0.026746845 0.018931411 -0.38593423 -0.23852047 -0.14741376
0.039999999 0.052502111 0.035845339 -0.38593423 -0.23852047 -0.14741376
5.5511151e-17 0.023602737 0.01834031 -0.38593423 -0.23852047 -0.14741376
0 0.022039516 0.018046569 -0.38593423 -0.23852047 -0.14741376
5.5511151e-17 0.02048211 0.01775402 -0.38593423 -0.23852047 -0.14741376
0 0.018930469 0.01746265 -0.38593423 -0.23852047 -0.14741376
0 0.017384535 0.017172452 -0.38593423 -0.23852047 -0.14741376
0 0.015844258 0.016883412 -0.38593423 -0.23852047 -0.14741376
0 0.014309584 0.016595524 -0.38593423 -0.23852047 -0.14741376
0 0.012780463 0.016308773 -0.38593423 -0.23852047 -0.14741376
0 0.011256843 0.016023153 -0.38593423 -0.23852047 -0.14741376
0 0.0097386725 0.015738651 -0.38593423 -0.23852047 -0.14741376
5.5511151e-17 0.0082259029 0.015455258 -0.38593423 -0.23852047 -0.14741376
0 0.0067184833 0.015172964 -0.38593423 -0.23852047 -0.14741376
5.5511151e-17 0.0052163647 0.01489176 -0.38593423 -0.23852047 -0.14741376
0 0.0037194993 0.014611636 -0.38593423 -0.23852047 -0.14741376
0 0.0022278379 0.014332582 -0.38593423 -0.23852047 -0.14741376
0 0.00074133335 0.01405459 -0.38593423 -0.23852047 -0.14741376
0.0012011721 0 0.014279337 -0.38593423 -0.23852047 -0.14741376
0.0036198378 0 0.015011044 -0.38593423 -0.23852047 -0.14741376
0.0060605416 0 0.015749516 -0.38593423 -0.23852047 -0.14741376
0.0085236207 0 0.016494855 -0.38593423 -0.23852047 -0.14741376
0.011009417 0 0.017247166 -0.38593423 -0.23852047 -0.14741376
0.013518285 0 0.018006559 -0.38593423 -0.23852047 -0.14741376
0.016050579 2.7755576e-17 0.018773142 -0.38593423 -0.23852047 -0.14741376
0.018606666 0 0.019547027 -0.38593423 -0.23852047 -0.14741376
0.02118692 0 0.020328328 -0.38593423 -0.23852047 -0.14741376
0.023791719 0 0.021117164 -0.38593423 -0.23852047 -0.14741376
0.02907652 0 0.022717912 -0.38593423 -0.23852047 -0.14741376
0.031757325 2.7755576e-17 0.023530072 -0.38593423 -0.23852047 -0.14741376
0.034464281 2.7755576e-17 0.024350256 -0.38593423 -0.23852047 -0.14741376
0.03719781 2.7755576e-17 0.025178596 -0.38593423 -0.23852047 -0.14741376
0.039958343 2.7755576e-17 0.026015222 -0.38593423 -0.23852047 -0.14741376
5.5511151e-17 0.078767024 0.02729477 -0.38593423 -0.23852047 -0.14741376
0 0.076979294 0.026958512 -0.38593423 -0.23852047 -0.14741376
0 0.075199522 0.026623847 -0.38593423 -0.23852047 -0.14741376
0 0.073427625 0.026290756 -0.38593423 -0.23852047 -0.14741376
0 0.071663529 0.025959225 -0.38593423 -0.23852047 -0.14741376
0 0.069907151 0.025629241 -0.38593423 -0.23852047 -0.14741376
0 0.068158418 0.025300788 -0.38593423 -0.23852047 -0.14741376
0 0.066417262 0.024973853 -0.38593423 -0.23852047 -0.14741376
0 0.064683601 0.024648417 -0.38593423 -0.23852047 -0.14741376
0 0.062957376 0.024324471 -0.38593423 -0.23852047 -0.14741376
0 0.061238501 0.024001999 -0.38593423 -0.23852047 -0.14741376
5.5511151e-17 0.059526917 0.023680987 -0.38593423 -0.23852047 -0.14741376
0 0.057822544 0.023361422 -0.38593423 -0.23852047 -0.14741376
0 0.05612532 0.02304329 -0.38593423 -0.23852047 -0.14741376
0 0.054435179 0.022726577 -0.38593423 -0.23852047 -0.14741376
0 0.052752044 0.022411272 -0.38593423 -0.23852047 -0.14741376
0 0.051075853 0.022097358 -0.38593423 -0.23852047 -0.14741376
5.5511151e-17 0.049406543 0.021784827 -0.38593423 -0.23852047 -0.14741376
0 0.047744047 0.021473661 -0.38593423 -0.23852047 -0.14741376
0 0.046088297 0.021163851 -0.38593423 -0.23852047 -0.14741376
0 0.044439234 0.020855384 -0.38593423 -0.23852047 -0.14741376
0 0.042796794 0.020548247 -0.38593423 -0.23852047 -0.14741376
0.039999999 0.070148379 0.037619088 -0.38593423 -0.23852047 -0.14741376
0.039999999 0.066558957 0.036948364 -0.38593423 -0.23852047 -0.14741376
0 0.036292002 0.019332757 -0.38593423 -0.23852047 -0.14741376
5.5511151e-17 0.034681745 0.019032089 -0.38593423 -0.23852047 -0.14741376
0 0.033077747 0.01873268 -0.38593423 -0.23852047 -0.14741376
0 0.031479947 0.018434519 -0.38593423 -0.23852047 -0.14741376
0 0.029888285 0.018137593 -0.38593423 -0.23852047 -0.14741376
0 0.028302707 0.017841892 -0.38593423 -0.23852047 -0.14741376
0 0.026723156 0.017547404 -0.38593423 -0.23852047 -0.14741376
0 0.025149576 0.01725412 -0.38593423 -0.23852047 -0.14741376
5.5511151e-17 0.023581911 0.016962027 -0.38593423 -0.23852047 -0.14741376
5.5511151e-17 0.022020105 0.016671116 -0.38593423 -0.23852047 -0.14741376
5.5511151e-17 0.020464106 0.016381374 -0.38593423 -0.23852047 -0.14741376
0.039999999 0.045595538 0.033039365 -0.38593423 -0.23852047 -0.14741376
5.5511151e-17 0.017369309 0.01580536 -0.38593423 -0.23852047 -0.14741376
0.039999999 0.0421925 0.032406177 -0.38593423 -0.23852047 -0.14741376
0 0.014297097 0.015233904 -0.38593423 -0.23852047 -0.14741376
5.5511151e-17 0.01276933 0.01494986 -0.38593423 -0.23852047 -0.14741376
5.5511151e-17 0.011247055 0.014666924 -0.38593423 -0.23852047 -0.14741376
0 0.0097302198 0.014385087 -0.38593423 -0.23852047 -0.14741376
5.5511151e-17 0.0082187755 0.01410434 -0.38593423 -0.23852047 -0.14741376
0 0.0067126723 0.013824673 -0.38593423 -0.23852047 -0.14741376
5.5511151e-17 0.0052118613 0.013546076 -0.38593423 -0.23852047 -0.14741376
0 0.0037162935 0.013268539 -0.38593423 -0.23852047 -0.14741376
0 0.0022259213 0.012992053 -0.38593423 -0.23852047 -0.14741376
0 0.00074069662 0.01271661 -0.38593423 -0.23852047 -0.14741376
0.0012001389 0 0.012939303 -0.38593423 -0.23852047 -0.14741376
0.0036167104 2.7755576e-17 0.013664311 -0.38593423 -0.23852047 -0.14741376
0.0060552815 2.7755576e-17 0.014396007 -0.38593423 -0.23852047 -0.14741376
0.0085161887 0 0.015134493 -0.38593423 -0.23852047 -0.14741376
0.010999775 0 0.015879873 -0.38593423 -0.23852047 -0.14741376
0.013506388 0 0.016632253 -0.38593423 -0.23852047 -0.14741376
0.016036389 2.7755576e-17 0.017391743 -0.38593423 -0.23852047 -0.14741376
0.018590139 0 0.018158453 -0.38593423 -0.23852047 -0.14741376
0.021168012 0 0.018932495 -0.38593423 -0.23852047 -0.14741376
0.023770384 0 0.019713985 -0.38593423 -0.23852047 -0.14741376
0.026397649 0 0.020503039 -0.38593423 -0.23852047 -0.14741376
0.039999999 0.0062936144 0.025751466 -0.38593423 -0.23852047 -0.14741376
0.031728435 0 0.022104328 -0.38593423 -0.23852047 -0.14741376
0.037163638 0 0.023737356 -0.38593423 -0.23852047 -0.14741376
0.039921455 2.7755576e-17 0.024566093 -0.38593423 -0.23852047 -0.14741376
0 0.078692734 0.025813077 -0.38593423 -0.23852047 -0.14741376
0 0.07690686 0.025480438 -0.38593423 -0.23852047 -0.14741376
0 0.07512892 0.025149362 -0.38593423 -0.23852047 -0.14741376
0 0.073358834 0.024819836 -0.38593423 -0.23852047 -0.14741376
0 0.071596533 0.024491843 -0.38593423 -0.23852047 -0.14741376
0 0.069841944 0.024165368 -0.38593423 -0.23852047 -0.14741376
5.5511151e-17 0.068094984 0.023840398 -0.38593423 -0.23852047 -0.14741376
0 0.066355579 0.023516918 -0.38593423 -0.23852047 -0.14741376
0 0.064623661 0.023194913 -0.38593423 -0.23852047 -0.14741376
0 0.061181992 0.022555277 -0.38593423 -0.23852047 -0.14741376
0 0.059472099 0.022237618 -0.38593423 -0.23852047 -0.14741376
5.5511151e-17 0.05776941 0.021921379 -0.38593423 -0.23852047 -0.14741376
0 0.056073856 0.021606548 -0.38593423 -0.23852047 -0.14741376
5.5511151e-17 0.054385364 0.021293113 -0.38593423 -0.23852047 -0.14741376
5.5511151e-17 0.051029306 0.020670373 -0.38593423 -0.23852047 -0.14741376
0 0.049361609 0.020361045 -0.38593423 -0.23852047 -0.14741376
0 0.047700714 0.020053059 -0.38593423 -0.23852047 -0.14741376
0 0.046046551 0.019746404 -0.38593423 -0.23852047 -0.14741376
0 0.044399064 0.019441068 -0.38593423 -0.23852047 -0.14741376
0 0.042758185 0.01913704 -0.38593423 -0.23852047 -0.14741376
5.5511151e-17 0.041123852 0.018834306 -0.38593423 -0.23852047 -0.14741376
5.5511151e-17 0.039496005 0.018532854 -0.38593423 -0.23852047 -0.14741376
0.039999999 0.066521436 0.035401031 -0.38593423 -0.23852047 -0.14741376
0 0.036259521 0.017933751 -0.38593423 -0.23852047 -0.14741376
0 0.034650765 0.017636076 -0.38593423 -0.23852047 -0.14741376
0.039999999 0.061194889 0.034415439 -0.38593423 -0.23852047 -0.14741376
0 0.031451933 0.017044425 -0.38593423 -0.23852047 -0.14741376
0 0.029861739 0.016750427 -0.38593423 -0.23852047 -0.14741376
0 0.028277619 0.01645763 -0.38593423 -0.23852047 -0.14741376
0 0.026699513 0.016166028 -0.38593423 -0.23852047 -0.14741376
0.039999999 0.052453041 0.032799665 -0.38593423 -0.23852047 -0.14741376
0 0.023561124 0.015586352 -0.38593423 -0.23852047 -0.14741376
0 0.022000732 0.01529826 -0.38593423 -0.23852047 -0.14741376
0 0.020446135 0.015011317 -0.38593423 -0.23852047 -0.14741376
0 0.018897278 0.014725514 -0.38593423 -0.23852047 -0.14741376
0 0.017354112 0.014440839 -0.38593423 -0.23852047 -0.14741376
0 0.015816581 0.014157283 -0.38593423 -0.23852047 -0.14741376
0 0.014284633 0.013874835 -0.38593423 -0.23852047 -0.14741376
0 0.012758219 0.013593487 -0.38593423 -0.23852047 -0.14741376
0 0.011237285 0.013313228 -0.38593423 -0.23852047 -0.14741376
5.5511151e-17 0.009721783 0.013034048 -0.38593423 -0.23852047 -0.14741376
5.5511151e-17 0.0082116621 0.012755938 -0.38593423 -0.23852047 -0.14741376
0 0.0067068725 0.012478887 -0.38593423 -0.23852047 -0.14741376
0 0.0052073658 0.012202888 -0.38593423 -0.23852047 -0.14741376
0 0.0037130937 0.01192793 -0.38593423 -0.23852047 -0.14741376
0 0.0022240079 0.011654004 -0.38593423 -0.23852047 -0.14741376
0.039999999 0.025538124 0.027839331 -0.38593423 -0.23852047 -0.14741376
0.039999999 0.023905993 0.027539263 -0.38593423 -0.23852047 -0.14741376
0.0036135886 2.7755576e-17 0.012320078 -0.38593423 -0.23852047 -0.14741376
0.0060500312 2.7755576e-17 0.013045021 -0.38593423 -0.23852047 -0.14741376
0.039999999 0.019042809 0.026645673 -0.38593423 -0.23852047 -0.14741376
0.010990149 0 0.01451515 -0.38593423 -0.23852047 -0.14741376
0.013494516 0 0.015260544 -0.38593423 -0.23852047 -0.14741376
0.016022226 0 0.016012965 -0.38593423 -0.23852047 -0.14741376
0.018573644 2.7755576e-17 0.016772524 -0.38593423 -0.23852047 -0.14741376
0.02114914 0 0.017539332 -0.38593423 -0.23852047 -0.14741376
0.023749093 2.7755576e-17 0.018313501 -0.38593423 -0.23852047 -0.14741376
0.029023925 0 0.019884398 -0.38593423 -0.23852047 -0.14741376
0.031699602 0 0.020681363 -0.38593423 -0.23852047 -0.14741376
0.034401331 0 0.021486172 -0.38593423 -0.23852047 -0.14741376
0.037129533 0 0.022298951 -0.38593423 -0.23852047 -0.14741376
0 0.078618594 0.024334347 -0.38593423 -0.23852047 -0.14741376
0 0.076834559 0.024005314 -0.38593423 -0.23852047 -0.14741376
0 0.075058453 0.023677817 -0.38593423 -0.23852047 -0.14741376
0 0.073290177 0.023351841 -0.38593423 -0.23852047 -0.14741376
5.5511151e-17 0.071529679 0.023027372 -0.38593423 -0.23852047 -0.14741376
0 0.069776863 0.022704393 -0.38593423 -0.23852047 -0.14741376
5.5511151e-17 0.068031669 0.022382893 -0.38593423 -0.23852047 -0.14741376
5.5511151e-17 0.066294014 0.022062855 -0.38593423 -0.23852047 -0.14741376
5.5511151e-17 0.064563833 0.021744268 -0.38593423 -0.23852047 -0.14741376
0 0.06284105 0.021427117 -0.38593423 -0.23852047 -0.14741376
5.5511151e-17 0.061125591 0.02111139 -0.38593423 -0.23852047 -0.14741376
5.5511151e-17 0.059417393 0.02079707 -0.38593423 -0.23852047 -0.14741376
0 0.057716381 0.020484148 -0.38593423 -0.23852047 -0.14741376
0 0.05265579 0.019553622 -0.38593423 -0.23852047 -0.14741376
0 0.050982852 0.019246154 -0.38593423 -0.23852047 -0.14741376
0.039999999 0.079149537 0.036181688 -0.38593423 -0.23852047 -0.14741376
0 0.047657464 0.018635198 -0.38593423 -0.23852047 -0.14741376
0 0.046004888 0.018331688 -0.38593423 -0.23852047 -0.14741376
0.039999999 0.073677897 0.035176773 -0.38593423 -0.23852047 -0.14741376
0 0.042719651 0.017728541 -0.38593423 -0.23852047 -0.14741376
0 0.041086864 0.017428879 -0.38593423 -0.23852047 -0.14741376
0 0.039460551 0.017130479 -0.38593423 -0.23852047 -0.14741376
0 0.037840649 0.016833326 -0.38593423 -0.23852047 -0.14741376
0 0.0362271 0.016537409 -0.38593423 -0.23852047 -0.14741376
0 0.034619842 0.016242718 -0.38593423 -0.23852047 -0.14741376
0 0.03301882 0.01594924 -0.38593423 -0.23852047 -0.14741376
0 0.031423975 0.015656967 -0.38593423 -0.23852047 -0.14741376
5.5511151e-17 0.029835245 0.015365885 -0.38593423 -0.23852047 -0.14741376
0 0.028252577 0.015075983 -0.38593423 -0.23852047 -0.14741376
0 0.026675913 0.014787253 -0.38593423 -0.23852047 -0.14741376
5.5511151e-17 0.025105199 0.014499682 -0.38593423 -0.23852047 -0.14741376
5.5511151e-17 0.023540378 0.01421326 -0.38593423 -0.23852047 -0.14741376
0 0.021981394 0.013927978 -0.38593423 -0.23852047 -0.14741376
0 0.020428197 0.013643824 -0.38593423 -0.23852047 -0.14741376
0 0.01888073 0.013360789 -0.38593423 -0.23852047 -0.14741376
5.5511151e-17 0.017338943 0.013078862 -0.38593423 -0.23852047 -0.14741376
0.039999999 0.042162012 0.02940312 -0.38593423 -0.23852047 -0.14741376
0 0.014272192 0.012518293 -0.38593423 -0.23852047 -0.14741376
0 0.012747127 0.012239631 -0.38593423 -0.23852047 -0.14741376
0 0.011227533 0.011962039 -0.38593423 -0.23852047 -0.14741376
5.5511151e-17 0.009713361 0.011685506 -0.38593423 -0.23852047 -0.14741376
0 0.0082045607 0.011410024 -0.38593423 -0.23852047 -0.14741376
5.5511151e-17 0.0067010834 0.011135582 -0.38593423 -0.23852047 -0.14741376
0.039999999 0.030463489 0.027266618 -0.38593423 -0.23852047 -0.14741376
0 0.0037098997 0.010589783 -0.38593423 -0.23852047 -0.14741376
0 0.0022220982 0.010318408 -0.38593423 -0.23852047 -0.14741376
0 0.00073942664 0.010048036 -0.38593423 -0.23852047 -0.14741376
0.0036104729 2.7755576e-17 0.01097832 -0.38593423 -0.23852047 -0.14741376
0.0060447906 0 0.011696533 -0.38593423 -0.23852047 -0.14741376
0.039999999 0.019047644 0.025185416 -0.38593423 -0.23852047 -0.14741376
0.010980542 0 0.013152972 -0.38593423 -0.23852047 -0.14741376
0.013482664 0 0.013891402 -0.38593423 -0.23852047 -0.14741376
0.039999999 0.014237271 0.024309566 -0.38593423 -0.23852047 -0.14741376
0.039999999 0.012644401 0.024019692 -0.38593423 -0.23852047 -0.14741376
0.021130303 0 0.016148811 -0.38593423 -0.23852047 -0.14741376
0.02372784 0 0.016915688 -0.38593423 -0.23852047 -0.14741376
0.026350176 0 0.017689956 -0.38593423 -0.23852047 -0.14741376
0.028997703 2.7755576e-17 0.018471736 -0.38593423 -0.23852047 -0.14741376
0.031670824 0 0.019261146 -0.38593423 -0.23852047 -0.14741376
0.034369949 0 0.02005831 -0.38593423 -0.23852047 -0.14741376
0.037095498 2.7755576e-17 0.020863349 -0.38593423 -0.23852047 -0.14741376
0.039847896 0 0.021676391 -0.38593423 -0.23852047 -0.14741376
0 0.078544602 0.022858553 -0.38593423 -0.23852047 -0.14741376
5.5511151e-17 0.076762408 0.022533111 -0.38593423 -0.23852047 -0.14741376
0 0.074988119 0.022209181 -0.38593423 -0.23852047 -0.14741376
0 0.073221661 0.021886742 -0.38593423 -0.23852047 -0.14741376
0 0.071462944 0.021565782 -0.38593423 -0.23852047 -0.14741376
0 0.069711909 0.021246288 -0.38593423 -0.23852047 -0.14741376
0 0.06796848 0.020928245 -0.38593423 -0.23852047 -0.14741376
5.5511151e-17 0.064504117 0.020296456 -0.38593423 -0.23852047 -0.14741376
0 0.062783055 0.019982684 -0.38593423 -0.23852047 -0.14741376
0 0.061069299 0.019670311 -0.38593423 -0.23852047 -0.14741376
0 0.059362788 0.019359319 -0.38593423 -0.23852047 -0.14741376
0 0.057663452 0.019049698 -0.38593423 -0.23852047 -0.14741376
0 0.05597122 0.018741436 -0.38593423 -0.23852047 -0.14741376
0 0.054286025 0.018434519 -0.38593423 -0.23852047 -0.14741376
5.5511151e-17 0.052607805 0.018128935 -0.38593423 -0.23852047 -0.14741376
0 0.050936483 0.01782467 -0.38593423 -0.23852047 -0.14741376
5.5511151e-17 0.049272005 0.017521713 -0.38593423 -0.23852047 -0.14741376
0 0.047614299 0.017220052 -0.38593423 -0.23852047 -0.14741376
0 0.045963302 0.016919674 -0.38593423 -0.23852047 -0.14741376
0 0.044318952 0.016620569 -0.38593423 -0.23852047 -0.14741376
0 0.042681187 0.016322723 -0.38593423 -0.23852047 -0.14741376
0 0.041049946 0.016026124 -0.38593423 -0.23852047 -0.14741376
0 0.039425164 0.015730763 -0.38593423 -0.23852047 -0.14741376
0.039999999 0.06644661 0.032315191 -0.38593423 -0.23852047 -0.14741376
0 0.036194742 0.015143706 -0.38593423 -0.23852047 -0.14741376
0 0.034588981 0.014851986 -0.38593423 -0.23852047 -0.14741376
0 0.032989442 0.014561459 -0.38593423 -0.23852047 -0.14741376
0 0.031396069 0.014272113 -0.38593423 -0.23852047 -0.14741376
5.5511151e-17 0.029808801 0.013983938 -0.38593423 -0.23852047 -0.14741376
0 0.028227583 0.013696922 -0.38593423 -0.23852047 -0.14741376
0 0.026652358 0.013411054 -0.38593423 -0.23852047 -0.14741376
0 0.025083072 0.013126326 -0.38593423 -0.23852047 -0.14741376
5.5511151e-17 0.023519669 0.012842726 -0.38593423 -0.23852047 -0.14741376
0 0.021962093 0.012560244 -0.38593423 -0.23852047 -0.14741376
0 0.020410294 0.012278869 -0.38593423 -0.23852047 -0.14741376
0 0.018864213 0.011998592 -0.38593423 -0.23852047 -0.14741376
0 0.017323801 0.011719403 -0.38593423 -0.23852047 -0.14741376
0 0.015789006 0.011441292 -0.38593423 -0.23852047 -0.14741376
0 0.014259775 0.01116425 -0.38593423 -0.23852047 -0.14741376
0 0.012736056 0.010888266 -0.38593423 -0.23852047 -0.14741376
5.5511151e-17 0.0112178 0.010613332 -0.38593423 -0.23852047 -0.14741376
0.039999999 0.035432182 0.026689705 -0.38593423 -0.23852047 -0.14741376
5.5511151e-17 0.0081974734 0.010066574 -0.38593423 -0.23852047 -0.14741376
0 0.0066953045 0.0097947307 -0.38593423 -0.23852047 -0.14741376
0 0.0051984 0.0095239002 -0.38593423 -0.23852047 -0.14741376
0 0.0037067118 0.0092540737 -0.38593423 -0.23852047 -0.14741376
0.039999999 0.027171662 0.025195153 -0.38593423 -0.23852047 -0.14741376
0 0.0007387934 0.0087173926 -0.38593423 -0.23852047 -0.14741376
0.001197051 0 0.008933966 -0.38593423 -0.23852047 -0.14741376
0.0036073625 0 0.0096390108 -0.38593423 -0.23852047 -0.14741376
0.0060395598 0 0.010350519 -0.38593423 -0.23852047 -0.14741376
0.0084939767 0 0.011068585 -0.38593423 -0.23852047 -0.14741376
0.010970952 0 0.011793314 -0.38593423 -0.23852047 -0.14741376
0.013470835 0 0.012524804 -0.38593423 -0.23852047 -0.14741376
0.039999999 0.014246144 0.022859935 -0.38593423 -0.23852047 -0.14741376
