# .PCD v0.7 - Point Cloud Data file format
VERSION 0.7
FIELDS x y z vp_x vp_y vp_z
SIZE 4 4 4 4 4 4
TYPE F F F F F F
COUNT 1 1 1 1 1 1
WIDTH 835
HEIGHT 1
VIEWPOINT 0 0 0 1 0 0 0
POINTS 835
DATA ascii
0.013461987 0.041129105 0.062004 -0.25019264 -0.4048202 0
0.014784378 0.040699292 0.062040478 -0.25019264 -0.4048202 0
0.016181784 0.040391732 0.062094547 -0.25019264 -0.4048202 0
0.017633021 0.040169004 0.062161066 -0.25019264 -0.4048202 0
0.019137936 0.040029299 0.062239833 -0.25019264 -0.4048202 0
0.02073198 0.040029299 0.062338855 -0.25019264 -0.4048202 0
0.022420252 0.040174797 0.062459044 -0.25019264 -0.4048202 0
0.024212157 0.040478434 0.062602282 -0.25019264 -0.4048202 0
0.026144331 0.040996455 0.062776595 -0.25019264 -0.4048202 0
0.028279923 0.041826304 0.062995896 -0.25019264 -0.4048202 0
0.030739663 0.04315497 0.063286811 -0.25019264 -0.4048202 0
0.034038465 0.045789979 0.063763969 -0.25019264 -0.4048202 0
0.0017787418 0.068222739 0.062724419 -0.25019264 -0.4048202 0
0.00011667579 0.062151976 0.062006131 -0.25019264 -0.4048202 0
4.8581463e-05 0.059103962 0.061688185 -0.25019264 -0.4048202 0
0.00030609866 0.056685634 0.061453611 -0.25019264 -0.4048202 0
0.00075976149 0.054648306 0.061269596 -0.25019264 -0.4048202 0
0.0013446398 0.052866809 0.061119642 -0.25019264 -0.4048202 0
0.0020243104 0.051270567 0.060994446 -0.25019264 -0.4048202 0
0.002786174 0.049833547 0.060890634 -0.25019264 -0.4048202 0
0.0036315466 0.048555177 0.060808212 -0.25019264 -0.4048202 0
0.0045252582 0.047370113 0.0607385 -0.25019264 -0.4048202 0
0.0054620048 0.04626729 0.060680062 -0.25019264 -0.4048202 0
0.0064750575 0.045303546 0.0606406 -0.25019264 -0.4048202 0
0.0075209215 0.044400524 0.060609631 -0.25019264 -0.4048202 0
0.0086089829 0.043573368 0.060589239 -0.25019264 -0.4048202 0
0.0097590955 0.042854868 0.060583904 -0.25019264 -0.4048202 0
0.01093893 0.042187706 0.060585927 -0.25019264 -0.4048202 0
0.012174908 0.041615874 0.060601313 -0.25019264 -0.4048202 0
0.013461987 0.041129105 0.060628727 -0.25019264 -0.4048202 0
0.014784378 0.040699292 0.060664397 -0.25019264 -0.4048202 0
0.016181784 0.040391732 0.060717266 -0.25019264 -0.4048202 0
0.017633021 0.040169004 0.060782306 -0.25019264 -0.4048202 0
0.019137936 0.040029299 0.060859326 -0.25019264 -0.4048202 0
0.02073198 0.040029299 0.060956154 -0.25019264 -0.4048202 0
0.022420252 0.040174797 0.061073679 -0.25019264 -0.4048202 0
0.024212157 0.040478434 0.061213739 -0.25019264 -0.4048202 0
0.026144331 0.040996455 0.061384186 -0.25019264 -0.4048202 0
0.028279923 0.041826304 0.061598621 -0.25019264 -0.4048202 0
0.030739663 0.04315497 0.061883081 -0.25019264 -0.4048202 0
0.034038465 0.045789979 0.062349658 -0.25019264 -0.4048202 0
0.0017787418 0.068222739 0.061302479 -0.25019264 -0.4048202 0
0.00011667579 0.062151976 0.060600474 -0.25019264 -0.4048202 0
4.8581463e-05 0.059103962 0.060289737 -0.25019264 -0.4048202 0
0.00030609866 0.056685634 0.060060479 -0.25019264 -0.4048202 0
0.00075976149 0.054648306 0.059880637 -0.25019264 -0.4048202 0
0.0013446398 0.052866809 0.05973408 -0.25019264 -0.4048202 0
0.0020243104 0.051270567 0.059611723 -0.25019264 -0.4048202 0
0.002786174 0.049833547 0.059510265 -0.25019264 -0.4048202 0
0.0036315466 0.048555177 0.059429709 -0.25019264 -0.4048202 0
0.0045252582 0.047370113 0.059361577 -0.25019264 -0.4048202 0
0.0054620048 0.04626729 0.059304465 -0.25019264 -0.4048202 0
0.0064750575 0.045303546 0.0592659 -0.25019264 -0.4048202 0
0.0075209215 0.044400524 0.059235636 -0.25019264 -0.4048202 0
0.0086089829 0.043573368 0.059215702 -0.25019264 -0.4048202 0
0.0097590955 0.042854868 0.05921049 -0.25019264 -0.4048202 0
0.01093893 0.042187706 0.059212465 -0.25019264 -0.4048202 0
0.012174908 0.041615874 0.059227504 -0.25019264 -0.4048202 0
0.013461987 0.041129105 0.059254292 -0.25019264 -0.4048202 0
0.014784378 0.040699292 0.059289154 -0.25019264 -0.4048202 0
0.016181784 0.040391732 0.059340827 -0.25019264 -0.4048202 0
0.017633021 0.040169004 0.059404392 -0.25019264 -0.4048202 0
0.019137936 0.040029299 0.059479669 -0.25019264 -0.4048202 0
0.02073198 0.040029299 0.059574299 -0.25019264 -0.4048202 0
0.022420252 0.040174797 0.05968916 -0.25019264 -0.4048202 0
0.024212157 0.040478434 0.059826043 -0.25019264 -0.4048202 0
0.026144331 0.040996455 0.05999263 -0.25019264 -0.4048202 0
0.028279923 0.041826304 0.0602022 -0.25019264 -0.4048202 0
0.030739663 0.04315497 0.060480215 -0.25019264 -0.4048202 0
0.034038465 0.045789979 0.060936213 -0.25019264 -0.4048202 0
0.0017787418 0.068222739 0.059881393 -0.25019264 -0.4048202 0
0.00011667579 0.062151976 0.05919566 -0.25019264 -0.4048202 0
4.8581463e-05 0.059103962 0.058892123 -0.25019264 -0.4048202 0
0.00030609866 0.056685634 0.058668181 -0.25019264 -0.4048202 0
0.00075976149 0.054648306 0.058492508 -0.25019264 -0.4048202 0
0.0013446398 0.052866809 0.058349349 -0.25019264 -0.4048202 0
0.0020243104 0.051270567 0.05822983 -0.25019264 -0.4048202 0
0.002786174 0.049833547 0.058130719 -0.25019264 -0.4048202 0
0.0036315466 0.048555177 0.058052037 -0.25019264 -0.4048202 0
0.0045252582 0.047370113 0.057985481 -0.25019264 -0.4048202 0
0.0054620048 0.04626729 0.057929695 -0.25019264 -0.4048202 0
0.0064750575 0.045303546 0.057892021 -0.25019264 -0.4048202 0
0.0075209215 0.044400524 0.057862457 -0.25019264 -0.4048202 0
0.0086089829 0.043573368 0.057842989 -0.25019264 -0.4048202 0
0.0097590955 0.042854868 0.057837896 -0.25019264 -0.4048202 0
0.01093893 0.042187706 0.057839826 -0.25019264 -0.4048202 0
0.012174908 0.041615874 0.057854515 -0.25019264 -0.4048202 0
0.013461987 0.041129105 0.057880685 -0.25019264 -0.4048202 0
0.014784378 0.040699292 0.057914738 -0.25019264 -0.4048202 0
0.016181784 0.040391732 0.057965212 -0.25019264 -0.4048202 0
0.017633021 0.040169004 0.058027305 -0.25019264 -0.4048202 0
0.019137936 0.040029299 0.058100834 -0.25019264 -0.4048202 0
0.02073198 0.040029299 0.058193274 -0.25019264 -0.4048202 0
0.022420252 0.040174797 0.058305468 -0.25019264 -0.4048202 0
0.024212157 0.040478434 0.05843918 -0.25019264 -0.4048202 0
0.026144331 0.040996455 0.058601905 -0.25019264 -0.4048202 0
0.028279923 0.041826304 0.058806617 -0.25019264 -0.4048202 0
0.030739663 0.04315497 0.059078187 -0.25019264 -0.4048202 0
0.034038465 0.045789979 0.059523616 -0.25019264 -0.4048202 0
0.0017787418 0.068222739 0.058461133 -0.25019264 -0.4048202 0
0.00011667579 0.062151976 0.057791665 -0.25019264 -0.4048202 0
4.8581463e-05 0.059103962 0.05749533 -0.25019264 -0.4048202 0
0.00030609866 0.056685634 0.0572767 -0.25019264 -0.4048202 0
0.00075976149 0.054648306 0.057105191 -0.25019264 -0.4048202 0
0.0013446398 0.052866809 0.056965429 -0.25019264 -0.4048202 0
0.0020243104 0.051270567 0.056848742 -0.25019264 -0.4048202 0
0.002786174 0.049833547 0.056751985 -0.25019264 -0.4048202 0
0.0036315466 0.048555177 0.056675166 -0.25019264 -0.4048202 0
0.0045252582 0.047370113 0.056610193 -0.25019264 -0.4048202 0
0.0054620048 0.04626729 0.056555726 -0.25019264 -0.4048202 0
0.0064750575 0.045303546 0.05651895 -0.25019264 -0.4048202 0
0.0075209215 0.044400524 0.056490086 -0.25019264 -0.4048202 0
0.0086089829 0.043573368 0.056471076 -0.25019264 -0.4048202 0
0.0097590955 0.042854868 0.056466106 -0.25019264 -0.4048202 0
0.01093893 0.042187706 0.056467991 -0.25019264 -0.4048202 0
0.012174908 0.041615874 0.05648233 -0.25019264 -0.4048202 0
0.013461987 0.041129105 0.056507878 -0.25019264 -0.4048202 0
0.014784378 0.040699292 0.056541126 -0.25019264 -0.4048202 0
0.016181784 0.040391732 0.056590401 -0.25019264 -0.4048202 0
0.017633021 0.040169004 0.056651022 -0.25019264 -0.4048202 0
0.019137936 0.040029299 0.056722809 -0.25019264 -0.4048202 0
0.02073198 0.040029299 0.056813054 -0.25019264 -0.4048202 0
0.022420252 0.040174797 0.056922588 -0.25019264 -0.4048202 0
0.024212157 0.040478434 0.05705313 -0.25019264 -0.4048202 0
0.026144331 0.040996455 0.057211995 -0.25019264 -0.4048202 0
0.028279923 0.041826304 0.057411853 -0.25019264 -0.4048202 0
0.030739663 0.04315497 0.057676978 -0.25019264 -0.4048202 0
0.034038465 0.045789979 0.058111843 -0.25019264 -0.4048202 0
0.0017787418 0.068222739 0.057041686 -0.25019264 -0.4048202 0
0.00011667579 0.062151976 0.056388475 -0.25019264 -0.4048202 0
4.8581463e-05 0.059103962 0.056099333 -0.25019264 -0.4048202 0
0.00030609866 0.056685634 0.055886012 -0.25019264 -0.4048202 0
0.00075976149 0.054648306 0.055718668 -0.25019264 -0.4048202 0
0.0013446398 0.052866809 0.055582296 -0.25019264 -0.4048202 0
0.0020243104 0.051270567 0.055468444 -0.25019264 -0.4048202 0
0.002786174 0.049833547 0.055374037 -0.25019264 -0.4048202 0
0.0036315466 0.048555177 0.055299081 -0.25019264 -0.4048202 0
0.0045252582 0.047370113 0.055235688 -0.25019264 -0.4048202 0
0.0054620048 0.04626729 0.055182543 -0.25019264 -0.4048202 0
0.0064750575 0.045303546 0.055146657 -0.25019264 -0.4048202 0
0.0075209215 0.044400524 0.055118494 -0.25019264 -0.4048202 0
0.0086089829 0.043573368 0.055099949 -0.25019264 -0.4048202 0
0.0097590955 0.042854868 0.055095099 -0.25019264 -0.4048202 0
0.01093893 0.042187706 0.055096935 -0.25019264 -0.4048202 0
0.012174908 0.041615874 0.055110928 -0.25019264 -0.4048202 0
0.013461987 0.041129105 0.055135857 -0.25019264 -0.4048202 0
0.014784378 0.040699292 0.055168297 -0.25019264 -0.4048202 0
0.016181784 0.040391732 0.055216376 -0.25019264 -0.4048202 0
0.017633021 0.040169004 0.055275526 -0.25019264 -0.4048202 0
0.019137936 0.040029299 0.055345569 -0.25019264 -0.4048202 0
0.02073198 0.040029299 0.055433623 -0.25019264 -0.4048202 0
0.022420252 0.040174797 0.055540498 -0.25019264 -0.4048202 0
0.024212157 0.040478434 0.05566787 -0.25019264 -0.4048202 0
0.026144331 0.040996455 0.055822875 -0.25019264 -0.4048202 0
0.028279923 0.041826304 0.056017883 -0.25019264 -0.4048202 0
0.030739663 0.04315497 0.056276571 -0.25019264 -0.4048202 0
0.034038465 0.045789979 0.056700878 -0.25019264 -0.4048202 0
0.0017787418 0.068222739 0.055623032 -0.25019264 -0.4048202 0
0.00011667579 0.062151976 0.054986063 -0.25019264 -0.4048202 0
4.8581463e-05 0.059103962 0.054704115 -0.25019264 -0.4048202 0
0.00030609866 0.056685634 0.054496098 -0.25019264 -0.4048202 0
0.00075976149 0.054648306 0.054332916 -0.25019264 -0.4048202 0
0.0013446398 0.052866809 0.054199938 -0.25019264 -0.4048202 0
0.0020243104 0.051270567 0.054088917 -0.25019264 -0.4048202 0
0.002786174 0.049833547 0.053996854 -0.25019264 -0.4048202 0
0.0036315466 0.048555177 0.053923767 -0.25019264 -0.4048202 0
0.0045252582 0.047370113 0.053861946 -0.25019264 -0.4048202 0
0.0054620048 0.04626729 0.053810123 -0.25019264 -0.4048202 0
0.0064750575 0.045303546 0.053775132 -0.25019264 -0.4048202 0
0.0075209215 0.044400524 0.053747669 -0.25019264 -0.4048202 0
0.0086089829 0.043573368 0.053729586 -0.25019264 -0.4048202 0
0.0097590955 0.042854868 0.053724855 -0.25019264 -0.4048202 0
0.01093893 0.042187706 0.053726647 -0.25019264 -0.4048202 0
0.012174908 0.041615874 0.053740293 -0.25019264 -0.4048202 0
0.013461987 0.041129105 0.0537646 -0.25019264 -0.4048202 0
0.014784378 0.040699292 0.053796232 -0.25019264 -0.4048202 0
0.016181784 0.040391732 0.053843118 -0.25019264 -0.4048202 0
0.017633021 0.040169004 0.053900793 -0.25019264 -0.4048202 0
0.019137936 0.040029299 0.053969096 -0.25019264 -0.4048202 0
0.02073198 0.040029299 0.054054961 -0.25019264 -0.4048202 0
0.022420252 0.040174797 0.054159179 -0.25019264 -0.4048202 0
0.024212157 0.040478434 0.054283381 -0.25019264 -0.4048202 0
0.026144331 0.040996455 0.054434534 -0.25019264 -0.4048202 0
0.028279923 0.041826304 0.054624688 -0.25019264 -0.4048202 0
0.030739663 0.04315497 0.054876942 -0.25019264 -0.4048202 0
0.034038465 0.045789979 0.055290699 -0.25019264 -0.4048202 0
0.0017787418 0.068222739 0.054205146 -0.25019264 -0.4048202 0
0.00011667579 0.062151976 0.053584415 -0.25019264 -0.4048202 0
4.8581463e-05 0.059103962 0.053309653 -0.25019264 -0.4048202 0
0.00030609866 0.056685634 0.053106938 -0.25019264 -0.4048202 0
0.00075976149 0.054648306 0.052947916 -0.25019264 -0.4048202 0
0.0013446398 0.052866809 0.052818328 -0.25019264 -0.4048202 0
0.0020243104 0.051270567 0.052710138 -0.25019264 -0.4048202 0
0.002786174 0.049833547 0.052620422 -0.25019264 -0.4048202 0
0.0036315466 0.048555177 0.052549195 -0.25019264 -0.4048202 0
0.0045252582 0.047370113 0.052488953 -0.25019264 -0.4048202 0
0.0054620048 0.04626729 0.052438449 -0.25019264 -0.4048202 0
0.0064750575 0.045303546 0.052404352 -0.25019264 -0.4048202 0
0.0075209215 0.044400524 0.052377589 -0.25019264 -0.4048202 0
0.0086089829 0.043573368 0.052359965 -0.25019264 -0.4048202 0
0.0097590955 0.042854868 0.052355357 -0.25019264 -0.4048202 0
0.01093893 0.042187706 0.052357104 -0.25019264 -0.4048202 0
0.012174908 0.041615874 0.052370399 -0.25019264 -0.4048202 0
0.013461987 0.041129105 0.052394088 -0.25019264 -0.4048202 0
0.014784378 0.040699292 0.052424915 -0.25019264 -0.4048202 0
0.016181784 0.040391732 0.052470602 -0.25019264 -0.4048202 0
0.017633021 0.040169004 0.052526809 -0.25019264 -0.4048202 0
0.019137936 0.040029299 0.052593369 -0.25019264 -0.4048202 0
0.02073198 0.040029299 0.052677047 -0.25019264 -0.4048202 0
0.022420252 0.040174797 0.052778609 -0.25019264 -0.4048202 0
0.024212157 0.040478434 0.052899644 -0.25019264 -0.4048202 0
0.026144331 0.040996455 0.053046942 -0.25019264 -0.4048202 0
0.028279923 0.041826304 0.053232253 -0.25019264 -0.4048202 0
0.030739663 0.04315497 0.053478077 -0.25019264 -0.4048202 0
0.034038465 0.045789979 0.053881284 -0.25019264 -0.4048202 0
0.0017787418 0.068222739 0.052788012 -0.25019264 -0.4048202 0
0.00011667579 0.062151976 0.052183509 -0.25019264 -0.4048202 0
4.8581463e-05 0.059103962 0.051915929 -0.25019264 -0.4048202 0
0.00030609866 0.056685634 0.051718514 -0.25019264 -0.4048202 0
0.00075976149 0.054648306 0.05156365 -0.25019264 -0.4048202 0
0.0013446398 0.052866809 0.051437449 -0.25019264 -0.4048202 0
0.0020243104 0.051270567 0.051332086 -0.25019264 -0.4048202 0
0.002786174 0.049833547 0.051244717 -0.25019264 -0.4048202 0
0.0036315466 0.048555177 0.051175356 -0.25019264 -0.4048202 0
0.0045252582 0.047370113 0.051116686 -0.25019264 -0.4048202 0
0.0054620048 0.04626729 0.051067505 -0.25019264 -0.4048202 0
0.0064750575 0.045303546 0.051034298 -0.25019264 -0.4048202 0
0.0075209215 0.044400524 0.051008236 -0.25019264 -0.4048202 0
0.0086089829 0.043573368 0.05099107 -0.25019264 -0.4048202 0
0.0097590955 0.042854868 0.050986581 -0.25019264 -0.4048202 0
0.01093893 0.042187706 0.050988283 -0.25019264 -0.4048202 0
0.012174908 0.041615874 0.051001232 -0.25019264 -0.4048202 0
0.013461987 0.041129105 0.051024303 -0.25019264 -0.4048202 0
0.014784378 0.040699292 0.051054321 -0.25019264 -0.4048202 0
0.016181784 0.040391732 0.051098816 -0.25019264 -0.4048202 0
0.017633021 0.040169004 0.051153552 -0.25019264 -0.4048202 0
0.019137936 0.040029299 0.051218372 -0.25019264 -0.4048202 0
0.02073198 0.040029299 0.051299863 -0.25019264 -0.4048202 0
0.022420252 0.040174797 0.051398769 -0.25019264 -0.4048202 0
0.024212157 0.040478434 0.051516641 -0.25019264 -0.4048202 0
0.026144331 0.040996455 0.051660087 -0.25019264 -0.4048202 0
0.028279923 0.041826304 0.051840551 -0.25019264 -0.4048202 0
0.030739663 0.04315497 0.05207995 -0.25019264 -0.4048202 0
0.034038465 0.045789979 0.052472614 -0.25019264 -0.4048202 0
0.0017787418 0.068222739 0.051371604 -0.25019264 -0.4048202 0
0.00011667579 0.062151976 0.050783325 -0.25019264 -0.4048202 0
4.8581463e-05 0.059103962 0.050522923 -0.25019264 -0.4048202 0
0.00030609866 0.056685634 0.050330807 -0.25019264 -0.4048202 0
0.00075976149 0.054648306 0.0501801 -0.25019264 -0.4048202 0
0.0013446398 0.052866809 0.050057285 -0.25019264 -0.4048202 0
0.0020243104 0.051270567 0.04995475 -0.25019264 -0.4048202 0
0.002786174 0.049833547 0.049869724 -0.25019264 -0.4048202 0
0.0036315466 0.048555177 0.049802221 -0.25019264 -0.4048202 0
0.0045252582 0.047370113 0.049745128 -0.25019264 -0.4048202 0
0.0054620048 0.04626729 0.049697265 -0.25019264 -0.4048202 0
0.0064750575 0.045303546 0.049664948 -0.25019264 -0.4048202 0
0.0075209215 0.044400524 0.049639586 -0.25019264 -0.4048202 0
0.0086089829 0.043573368 0.049622882 -0.25019264 -0.4048202 0
0.0097590955 0.042854868 0.049618512 -0.25019264 -0.4048202 0
0.01093893 0.042187706 0.04962017 -0.25019264 -0.4048202 0
0.012174908 0.041615874 0.049632769 -0.25019264 -0.4048202 0
0.013461987 0.041129105 0.049655221 -0.25019264 -0.4048202 0
0.014784378 0.040699292 0.049684435 -0.25019264 -0.4048202 0
0.016181784 0.040391732 0.049727738 -0.25019264 -0.4048202 0
0.017633021 0.040169004 0.049781006 -0.25019264 -0.4048202 0
0.019137936 0.040029299 0.049844086 -0.25019264 -0.4048202 0
0.02073198 0.040029299 0.049923386 -0.25019264 -0.4048202 0
0.022420252 0.040174797 0.05001964 -0.25019264 -0.4048202 0
0.024212157 0.040478434 0.05013435 -0.25019264 -0.4048202 0
0.026144331 0.040996455 0.050273947 -0.25019264 -0.4048202 0
0.028279923 0.041826304 0.050449569 -0.25019264 -0.4048202 0
0.030739663 0.04315497 0.050682545 -0.25019264 -0.4048202 0
0.034038465 0.045789979 0.051064674 -0.25019264 -0.4048202 0
0.0017787418 0.068222739 0.049955912 -0.25019264 -0.4048202 0
0.00011667579 0.062151976 0.049383841 -0.25019264 -0.4048202 0
4.8581463e-05 0.059103962 0.049130619 -0.25019264 -0.4048202 0
0.00030609866 0.056685634 0.048943795 -0.25019264 -0.4048202 0
0.00075976149 0.054648306 0.048797242 -0.25019264 -0.4048202 0
0.0013446398 0.052866809 0.04867781 -0.25019264 -0.4048202 0
0.0020243104 0.051270567 0.048578102 -0.25019264 -0.4048202 0
0.002786174 0.049833547 0.048495419 -0.25019264 -0.4048202 0
0.0036315466 0.048555177 0.048429776 -0.25019264 -0.4048202 0
0.0045252582 0.047370113 0.048374254 -0.25019264 -0.4048202 0
0.0054620048 0.04626729 0.048327714 -0.25019264 -0.4048202 0
0.0064750575 0.045303546 0.048296288 -0.25019264 -0.4048202 0
0.0075209215 0.044400524 0.048271623 -0.25019264 -0.4048202 0
0.0086089829 0.043573368 0.04825538 -0.25019264 -0.4048202 0
0.0097590955 0.042854868 0.04825113 -0.25019264 -0.4048202 0
0.01093893 0.042187706 0.048252743 -0.25019264 -0.4048202 0
0.012174908 0.041615874 0.048264995 -0.25019264 -0.4048202 0
0.013461987 0.041129105 0.048286829 -0.25019264 -0.4048202 0
0.014784378 0.040699292 0.048315238 -0.25019264 -0.4048202 0
0.016181784 0.040391732 0.048357345 -0.25019264 -0.4048202 0
0.017633021 0.040169004 0.048409145 -0.25019264 -0.4048202 0
0.019137936 0.040029299 0.048470486 -0.25019264 -0.4048202 0
0.02073198 0.040029299 0.048547603 -0.25019264 -0.4048202 0
0.022420252 0.040174797 0.048641205 -0.25019264 -0.4048202 0
0.024212157 0.040478434 0.048752751 -0.25019264 -0.4048202 0
0.026144331 0.040996455 0.048888505 -0.25019264 -0.4048202 0
0.028279923 0.041826304 0.049059287 -0.25019264 -0.4048202 0
0.030739663 0.04315497 0.04928584 -0.25019264 -0.4048202 0
0.034038465 0.045789979 0.049657438 -0.25019264 -0.4048202 0
0.0017787418 0.068222739 0.048540909 -0.25019264 -0.4048202 0
0.00011667579 0.062151976 0.047985043 -0.25019264 -0.4048202 0
4.8581463e-05 0.059103962 0.047738992 -0.25019264 -0.4048202 0
0.00030609866 0.056685634 0.047557462 -0.25019264 -0.4048202 0
0.00075976149 0.054648306 0.047415059 -0.25019264 -0.4048202 0
0.0013446398 0.052866809 0.047299009 -0.25019264 -0.4048202 0
0.0020243104 0.051270567 0.047202125 -0.25019264 -0.4048202 0
0.002786174 0.049833547 0.047121786 -0.25019264 -0.4048202 0
0.0036315466 0.048555177 0.047058001 -0.25019264 -0.4048202 0
0.0045252582 0.047370113 0.047004052 -0.25019264 -0.4048202 0
0.0054620048 0.04626729 0.04695883 -0.25019264 -0.4048202 0
0.0064750575 0.045303546 0.04692829 -0.25019264 -0.4048202 0
0.0075209215 0.044400524 0.046904325 -0.25019264 -0.4048202 0
0.0086089829 0.043573368 0.046888545 -0.25019264 -0.4048202 0
0.0097590955 0.042854868 0.046884418 -0.25019264 -0.4048202 0
0.01093893 0.042187706 0.046885982 -0.25019264 -0.4048202 0
0.012174908 0.041615874 0.046897888 -0.25019264 -0.4048202 0
0.013461987 0.041129105 0.046919104 -0.25019264 -0.4048202 0
0.014784378 0.040699292 0.046946704 -0.25019264 -0.4048202 0
0.016181784 0.040391732 0.046987619 -0.25019264 -0.4048202 0
0.017633021 0.040169004 0.047037955 -0.25019264 -0.4048202 0
0.019137936 0.040029299 0.04709756 -0.25019264 -0.4048202 0
0.02073198 0.040029299 0.047172491 -0.25019264 -0.4048202 0
0.022420252 0.040174797 0.04726344 -0.25019264 -0.4048202 0
0.024212157 0.040478434 0.047371827 -0.25019264 -0.4048202 0
0.026144331 0.040996455 0.047503736 -0.25019264 -0.4048202 0
0.028279923 0.041826304 0.047669679 -0.25019264 -0.4048202 0
0.030739663 0.04315497 0.047889818 -0.25019264 -0.4048202 0
0.034038465 0.045789979 0.048250891 -0.25019264 -0.4048202 0
0.0017787418 0.068222739 0.047126576 -0.25019264 -0.4048202 0
0.00011667579 0.062151976 0.046586908 -0.25019264 -0.4048202 0
4.8581463e-05 0.059103962 0.046348024 -0.25019264 -0.4048202 0
0.00030609866 0.056685634 0.046171784 -0.25019264 -0.4048202 0
0.00075976149 0.054648306 0.046033528 -0.25019264 -0.4048202 0
0.0013446398 0.052866809 0.045920864 -0.25019264 -0.4048202 0
0.0020243104 0.051270567 0.0458268 -0.25019264 -0.4048202 0
0.002786174 0.049833547 0.0457488 -0.25019264 -0.4048202 0
0.0036315466 0.048555177 0.045686878 -0.25019264 -0.4048202 0
0.0045252582 0.047370113 0.045634501 -0.25019264 -0.4048202 0
0.0054620048 0.04626729 0.045590594 -0.25019264 -0.4048202 0
0.0064750575 0.045303546 0.045560949 -0.25019264 -0.4048202 0
0.0075209215 0.044400524 0.04553768 -0.25019264 -0.4048202 0
0.0086089829 0.043573368 0.045522358 -0.25019264 -0.4048202 0
0.0097590955 0.042854868 0.04551835 -0.25019264 -0.4048202 0
0.01093893 0.042187706 0.04551987 -0.25019264 -0.4048202 0
0.012174908 0.041615874 0.045531429 -0.25019264 -0.4048202 0
0.013461987 0.041129105 0.045552023 -0.25019264 -0.4048202 0
0.014784378 0.040699292 0.045578822 -0.25019264 -0.4048202 0
0.016181784 0.040391732 0.045618545 -0.25019264 -0.4048202 0
0.017633021 0.040169004 0.045667414 -0.25019264 -0.4048202 0
0.019137936 0.040029299 0.045725282 -0.25019264 -0.4048202 0
0.02073198 0.040029299 0.04579803 -0.25019264 -0.4048202 0
0.022420252 0.040174797 0.04588633 -0.25019264 -0.4048202 0
0.024212157 0.040478434 0.045991559 -0.25019264 -0.4048202 0
0.026144331 0.040996455 0.046119623 -0.25019264 -0.4048202 0
0.028279923 0.041826304 0.046280731 -0.25019264 -0.4048202 0
0.030739663 0.04315497 0.046494458 -0.25019264 -0.4048202 0
0.034038465 0.045789979 0.046845008 -0.25019264 -0.4048202 0
0.0017787418 0.068222739 0.045712896 -0.25019264 -0.4048202 0
0.00011667579 0.062151976 0.045189414 -0.25019264 -0.4048202 0
4.8581463e-05 0.059103962 0.044957697 -0.25019264 -0.4048202 0
0.00030609866 0.056685634 0.044786744 -0.25019264 -0.4048202 0
0.00075976149 0.054648306 0.044652637 -0.25019264 -0.4048202 0
0.0013446398 0.052866809 0.044543348 -0.25019264 -0.4048202 0
0.0020243104 0.051270567 0.044452108 -0.25019264 -0.4048202 0
0.002786174 0.049833547 0.044376452 -0.25019264 -0.4048202 0
0.0036315466 0.048555177 0.044316381 -0.25019264 -0.4048202 0
0.0045252582 0.047370113 0.044265576 -0.25019264 -0.4048202 0
0.0054620048 0.04626729 0.044222988 -0.25019264 -0.4048202 0
0.0064750575 0.045303546 0.044194233 -0.25019264 -0.4048202 0
0.0075209215 0.044400524 0.044171661 -0.25019264 -0.4048202 0
0.0086089829 0.043573368 0.044156797 -0.25019264 -0.4048202 0
0.0097590955 0.042854868 0.044152912 -0.25019264 -0.4048202 0
0.01093893 0.042187706 0.044154383 -0.25019264 -0.4048202 0
0.012174908 0.041615874 0.044165596 -0.25019264 -0.4048202 0
0.013461987 0.041129105 0.044185575 -0.25019264 -0.4048202 0
0.014784378 0.040699292 0.04421157 -0.25019264 -0.4048202 0
0.016181784 0.040391732 0.044250105 -0.25019264 -0.4048202 0
0.017633021 0.040169004 0.044297505 -0.25019264 -0.4048202 0
0.019137936 0.040029299 0.044353638 -0.25019264 -0.4048202 0
0.02073198 0.040029299 0.044424202 -0.25019264 -0.4048202 0
0.022420252 0.040174797 0.044509854 -0.25019264 -0.4048202 0
0.024212157 0.040478434 0.044611927 -0.25019264 -0.4048202 0
0.026144331 0.040996455 0.044736151 -0.25019264 -0.4048202 0
0.028279923 0.041826304 0.044892423 -0.25019264 -0.4048202 0
0.030739663 0.04315497 0.045099739 -0.25019264 -0.4048202 0
0.034038465 0.045789979 0.045439772 -0.25019264 -0.4048202 0
0.0017787418 0.068222739 0.044299848 -0.25019264 -0.4048202 0
0.00011667579 0.062151976 0.043792546 -0.25019264 -0.4048202 0
4.8581463e-05 0.059103962 0.043567993 -0.25019264 -0.4048202 0
0.00030609866 0.056685634 0.043402322 -0.25019264 -0.4048202 0
0.00075976149 0.054648306 0.043272361 -0.25019264 -0.4048202 0
0.0013446398 0.052866809 0.043166451 -0.25019264 -0.4048202 0
0.0020243104 0.051270567 0.043078031 -0.25019264 -0.4048202 0
0.002786174 0.049833547 0.043004714 -0.25019264 -0.4048202 0
0.0036315466 0.048555177 0.042946503 -0.25019264 -0.4048202 0
0.0045252582 0.047370113 0.042897265 -0.25019264 -0.4048202 0
0.0054620048 0.04626729 0.042855993 -0.25019264 -0.4048202 0
0.0064750575 0.045303546 0.042828124 -0.25019264 -0.4048202 0
0.0075209215 0.044400524 0.042806253 -0.25019264 -0.4048202 0
0.0086089829 0.043573368 0.042791851 -0.25019264 -0.4048202 0
0.0097590955 0.042854868 0.042788081 -0.25019264 -0.4048202 0
0.01093893 0.042187706 0.042789511 -0.25019264 -0.4048202 0
0.012174908 0.041615874 0.042800378 -0.25019264 -0.4048202 0
0.013461987 0.041129105 0.042819738 -0.25019264 -0.4048202 0
0.014784378 0.040699292 0.042844929 -0.25019264 -0.4048202 0
0.016181784 0.040391732 0.042882271 -0.25019264 -0.4048202 0
0.017633021 0.040169004 0.042928208 -0.25019264 -0.4048202 0
0 0.0084194411 0.039928369 -0.25019264 -0.4048202 0
0 0.0059880554 0.039756596 -0.25019264 -0.4048202 0
0 0.0035774834 0.039586563 -0.25019264 -0.4048202 0
0 0.0011874269 0.039418247 -0.25019264 -0.4048202 0
0.00073290872 5.5511151e-17 0.039366607 -0.25019264 -0.4048202 0
0.0022023025 0 0.039430726 -0.25019264 -0.4048202 0
0.0036765009 0 0.039495327 -0.25019264 -0.4048202 0
0.005155548 0 0.039560415 -0.25019264 -0.4048202 0
0.006639488 0 0.039625984 -0.25019264 -0.4048202 0
0.010132552 0.0031408027 0.039999999 -0.25019264 -0.4048202 0
0.0096222265 0 0.039758604 -0.25019264 -0.4048202 0
0.011121116 0 0.039825656 -0.25019264 -0.4048202 0
0.012625079 0 0.03989321 -0.25019264 -0.4048202 0
0.014134164 0 0.039961267 -0.25019264 -0.4048202 0
0.0017787418 0.068222739 0.042887408 -0.25019264 -0.4048202 0
0.00011667579 0.062151976 0.042396285 -0.25019264 -0.4048202 0
4.8581463e-05 0.059103962 0.042178888 -0.25019264 -0.4048202 0
0.00030609866 0.056685634 0.042018499 -0.25019264 -0.4048202 0
0.00075976149 0.054648306 0.041892681 -0.25019264 -0.4048202 0
0.0013446398 0.052866809 0.04179015 -0.25019264 -0.4048202 0
0.0020243104 0.051270567 0.04170455 -0.25019264 -0.4048202 0
0.002786174 0.049833547 0.041633569 -0.25019264 -0.4048202 0
0.0036315466 0.048555177 0.041577213 -0.25019264 -0.4048202 0
0.0045252582 0.047370113 0.041529547 -0.25019264 -0.4048202 0
0.0054620048 0.04626729 0.04148959 -0.25019264 -0.4048202 0
0.0064750575 0.045303546 0.041462611 -0.25019264 -0.4048202 0
0.0075209215 0.044400524 0.041441437 -0.25019264 -0.4048202 0
0.0086089829 0.043573368 0.041427493 -0.25019264 -0.4048202 0
0 0.026048273 0.039868712 -0.25019264 -0.4048202 0
0 0.023462323 0.039689902 -0.25019264 -0.4048202 0
0 0.020899447 0.039512962 -0.25019264 -0.4048202 0
0 0.018359303 0.039337859 -0.25019264 -0.4048202 0
0 0.015841557 0.039164569 -0.25019264 -0.4048202 0
0 0.013345879 0.038993064 -0.25019264 -0.4048202 0
0 0.010871945 0.038823318 -0.25019264 -0.4048202 0
0 0.0084194411 0.038655311 -0.25019264 -0.4048202 0
0 0.0059880554 0.03848901 -0.25019264 -0.4048202 0
0 0.0035774834 0.038324401 -0.25019264 -0.4048202 0
0 0.0011874269 0.038161449 -0.25019264 -0.4048202 0
0.00073290872 0 0.038111456 -0.25019264 -0.4048202 0
0.014278489 0.019369185 0.039999999 -0.25019264 -0.4048202 0
0.0036765009 0 0.038236074 -0.25019264 -0.4048202 0
0.005155548 0 0.038299084 -0.25019264 -0.4048202 0
0.017601874 0.017278973 0.039999999 -0.25019264 -0.4048202 0
0.0081283655 0 0.038426522 -0.25019264 -0.4048202 0
0.0096222265 0 0.038490955 -0.25019264 -0.4048202 0
0.011121116 0 0.038555872 -0.25019264 -0.4048202 0
0.012625079 0 0.038621273 -0.25019264 -0.4048202 0
0.014134164 0 0.038687158 -0.25019264 -0.4048202 0
0.015648417 0 0.038753536 -0.25019264 -0.4048202 0
0.017167887 0 0.038820412 -0.25019264 -0.4048202 0
0.018692618 0 0.03888778 -0.25019264 -0.4048202 0
0.020222662 5.5511151e-17 0.038955655 -0.25019264 -0.4048202 0
0.028559376 0.010124287 0.039999999 -0.25019264 -0.4048202 0
0.023298882 0 0.039092921 -0.25019264 -0.4048202 0
0.030728189 0.0086590638 0.039999999 -0.25019264 -0.4048202 0
0.026396943 0 0.039232235 -0.25019264 -0.4048202 0
0.027954292 0 0.039302673 -0.25019264 -0.4048202 0
0.02951725 0 0.039373633 -0.25019264 -0.4048202 0
0.031085875 0 0.039445121 -0.25019264 -0.4048202 0
0.032660216 0 0.039517138 -0.25019264 -0.4048202 0
0.034240328 0 0.039589692 -0.25019264 -0.4048202 0
0.035826266 5.5511151e-17 0.039662786 -0.25019264 -0.4048202 0
0.037418079 0 0.039736424 -0.25019264 -0.4048202 0
0.039999999 0.0013775991 0.039946083 -0.25019264 -0.4048202 0
0.0017787418 0.068222739 0.041475561 -0.25019264 -0.4048202 0
0.00011667579 0.062151976 0.041000605 -0.25019264 -0.4048202 0
4.8581463e-05 0.059103962 0.040790368 -0.25019264 -0.4048202 0
0.00030609866 0.056685634 0.040635258 -0.25019264 -0.4048202 0
0.00075976149 0.054648306 0.040513583 -0.25019264 -0.4048202 0
0.0013446398 0.052866809 0.040414426 -0.25019264 -0.4048202 0
0.0020243104 0.051270567 0.040331643 -0.25019264 -0.4048202 0
0 0.044826232 0.039819561 -0.25019264 -0.4048202 0
0 0.042068586 0.039633222 -0.25019264 -0.4048202 0
0 0.039336607 0.039448887 -0.25019264 -0.4048202 0
0 0.036629908 0.039266523 -0.25019264 -0.4048202 0
0 0.033948097 0.039086107 -0.25019264 -0.4048202 0
0 0.031290799 0.038907606 -0.25019264 -0.4048202 0
0 0.028657647 0.038730994 -0.25019264 -0.4048202 0
0 0.026048273 0.03855624 -0.25019264 -0.4048202 0
0 0.023462323 0.03838332 -0.25019264 -0.4048202 0
0 0.020899447 0.038212202 -0.25019264 -0.4048202 0
0 0.018359303 0.038042862 -0.25019264 -0.4048202 0
0 0.015841557 0.037875276 -0.25019264 -0.4048202 0
0 0.013345879 0.037709419 -0.25019264 -0.4048202 0
0 0.010871945 0.03754526 -0.25019264 -0.4048202 0
0 0.0084194411 0.037382785 -0.25019264 -0.4048202 0
0 0.0059880554 0.037221961 -0.25019264 -0.4048202 0
0 0.0035774834 0.037062768 -0.25019264 -0.4048202 0
0 0.0011874269 0.036905181 -0.25019264 -0.4048202 0
0.00073290872 0 0.036856834 -0.25019264 -0.4048202 0
0.0022023025 0 0.036916867 -0.25019264 -0.4048202 0
0.0036765009 0 0.036977351 -0.25019264 -0.4048202 0
0.005155548 0 0.037038285 -0.25019264 -0.4048202 0
0.006639488 0 0.037099678 -0.25019264 -0.4048202 0
0.0081283655 0 0.037161529 -0.25019264 -0.4048202 0
0.0096222265 5.5511151e-17 0.037223842 -0.25019264 -0.4048202 0
0.011121116 0 0.037286617 -0.25019264 -0.4048202 0
0.012625079 0 0.037349865 -0.25019264 -0.4048202 0
0.014134164 0 0.037413582 -0.25019264 -0.4048202 0
0.015648417 5.5511151e-17 0.037477776 -0.25019264 -0.4048202 0
0.017167887 0 0.037542447 -0.25019264 -0.4048202 0
0.018692618 0 0.037607603 -0.25019264 -0.4048202 0
0.020222662 5.5511151e-17 0.037673242 -0.25019264 -0.4048202 0
0.021758066 0 0.03773937 -0.25019264 -0.4048202 0
0.023298882 0 0.037805989 -0.25019264 -0.4048202 0
0.024845157 5.5511151e-17 0.037873104 -0.25019264 -0.4048202 0
0.039999999 0.019909615 0.039806694 -0.25019264 -0.4048202 0
0.039999999 0.017531548 0.039654884 -0.25019264 -0.4048202 0
0.039999999 0.015171535 0.039504498 -0.25019264 -0.4048202 0
0.031085875 0 0.038146593 -0.25019264 -0.4048202 0
0.032660216 0 0.038216241 -0.25019264 -0.4048202 0
0.034240328 0 0.038286407 -0.25019264 -0.4048202 0
0.035826266 0 0.038357094 -0.25019264 -0.4048202 0
0.037418079 0 0.038428307 -0.25019264 -0.4048202 0
0.039015826 5.5511151e-17 0.038500048 -0.25019264 -0.4048202 0
0 0.067861594 0.039978087 -0.25019264 -0.4048202 0
0 0.064883389 0.039781462 -0.25019264 -0.4048202 0
0 0.061934307 0.039587028 -0.25019264 -0.4048202 0
0 0.059013896 0.039394759 -0.25019264 -0.4048202 0
0 0.056121696 0.039204612 -0.25019264 -0.4048202 0
0 0.05325726 0.03901656 -0.25019264 -0.4048202 0
0 0.050420158 0.038830567 -0.25019264 -0.4048202 0
0 0.047609951 0.038646601 -0.25019264 -0.4048202 0
0 0.044826232 0.038464636 -0.25019264 -0.4048202 0
0 0.042068586 0.038284633 -0.25019264 -0.4048202 0
0 0.039336607 0.038106572 -0.25019264 -0.4048202 0
0 0.036629908 0.037930414 -0.25019264 -0.4048202 0
0 0.033948097 0.037756138 -0.25019264 -0.4048202 0
0 0.031290799 0.037583712 -0.25019264 -0.4048202 0
0 0.028657647 0.037413109 -0.25019264 -0.4048202 0
0 0.026048273 0.037244301 -0.25019264 -0.4048202 0
0 0.023462323 0.037077263 -0.25019264 -0.4048202 0
0 0.020899447 0.036911968 -0.25019264 -0.4048202 0
0 0.018359303 0.036748391 -0.25019264 -0.4048202 0
0 0.015841557 0.036586508 -0.25019264 -0.4048202 0
0 0.013345879 0.036426291 -0.25019264 -0.4048202 0
0 0.010871945 0.03626772 -0.25019264 -0.4048202 0
0 0.0084194411 0.036110774 -0.25019264 -0.4048202 0
0 0.0059880554 0.035955422 -0.25019264 -0.4048202 0
0 0.0035774834 0.035801645 -0.25019264 -0.4048202 0
0 0.0011874269 0.035649423 -0.25019264 -0.4048202 0
0.00073290872 5.5511151e-17 0.035602719 -0.25019264 -0.4048202 0
0.0022023025 0 0.03566071 -0.25019264 -0.4048202 0
0.0036765009 0 0.035719134 -0.25019264 -0.4048202 0
0.005155548 0 0.035777997 -0.25019264 -0.4048202 0
0.006639488 5.5511151e-17 0.0358373 -0.25019264 -0.4048202 0
0.0081283655 5.5511151e-17 0.035897046 -0.25019264 -0.4048202 0
0.0096222265 0 0.035957236 -0.25019264 -0.4048202 0
0.011121116 0 0.03601788 -0.25019264 -0.4048202 0
0.012625079 0 0.036078975 -0.25019264 -0.4048202 0
0.014134164 0 0.036140524 -0.25019264 -0.4048202 0
0.015648417 0 0.036202535 -0.25019264 -0.4048202 0
0.039999999 0.034570925 0.039361972 -0.25019264 -0.4048202 0
0.018692618 0 0.036327939 -0.25019264 -0.4048202 0
0.020222662 5.5511151e-17 0.036391348 -0.25019264 -0.4048202 0
0.021758066 0 0.036455225 -0.25019264 -0.4048202 0
0.023298882 0 0.036519576 -0.25019264 -0.4048202 0
0.024845157 0 0.036584407 -0.25019264 -0.4048202 0
0.026396943 0 0.036649723 -0.25019264 -0.4048202 0
0.027954292 0 0.036715522 -0.25019264 -0.4048202 0
0.02951725 0 0.03678181 -0.25019264 -0.4048202 0
0.031085875 0 0.036848594 -0.25019264 -0.4048202 0
0.039999999 0.010504727 0.037873805 -0.25019264 -0.4048202 0
0.034240328 0 0.036983646 -0.25019264 -0.4048202 0
0.035826266 0 0.037051931 -0.25019264 -0.4048202 0
0.037418079 0 0.037120719 -0.25019264 -0.4048202 0
0.039015826 0 0.03719002 -0.25019264 -0.4048202 0
0 0.07697583 0.039152559 -0.25019264 -0.4048202 0
0 0.073907323 0.038956296 -0.25019264 -0.4048202 0
0 0.070869416 0.038762257 -0.25019264 -0.4048202 0
0 0.067861594 0.0385704 -0.25019264 -0.4048202 0
0 0.064883389 0.038380697 -0.25019264 -0.4048202 0
0 0.061934307 0.03819311 -0.25019264 -0.4048202 0
0 0.059013896 0.03800761 -0.25019264 -0.4048202 0
0 0.056121696 0.037824161 -0.25019264 -0.4048202 0
0 0.05325726 0.037642729 -0.25019264 -0.4048202 0
0 0.050420158 0.037463285 -0.25019264 -0.4048202 0
0 0.047609951 0.037285797 -0.25019264 -0.4048202 0
0 0.044826232 0.037110239 -0.25019264 -0.4048202 0
0 0.042068586 0.036936577 -0.25019264 -0.4048202 0
0 0.039336607 0.036764782 -0.25019264 -0.4048202 0
0 0.036629908 0.03659483 -0.25019264 -0.4048202 0
0 0.033948097 0.036426689 -0.25019264 -0.4048202 0
0 0.031290799 0.036260333 -0.25019264 -0.4048202 0
0 0.028657647 0.036095738 -0.25019264 -0.4048202 0
0 0.026048273 0.035932872 -0.25019264 -0.4048202 0
0 0.023462323 0.035771716 -0.25019264 -0.4048202 0
0 0.020899447 0.035612244 -0.25019264 -0.4048202 0
0 0.018359303 0.035454426 -0.25019264 -0.4048202 0
0 0.015841557 0.035298243 -0.25019264 -0.4048202 0
0 0.013345879 0.03514367 -0.25019264 -0.4048202 0
0 0.010871945 0.034990683 -0.25019264 -0.4048202 0
0 0.0084194411 0.034839258 -0.25019264 -0.4048202 0
0 0.0059880554 0.034689378 -0.25019264 -0.4048202 0
0 0.0035774834 0.034541015 -0.25019264 -0.4048202 0
0 0.0011874269 0.034394152 -0.25019264 -0.4048202 0
0.00073290872 0 0.034349095 -0.25019264 -0.4048202 0
0.0022023025 0 0.034405041 -0.25019264 -0.4048202 0
0.0036765009 5.5511151e-17 0.034461409 -0.25019264 -0.4048202 0
0.005155548 5.5511151e-17 0.034518201 -0.25019264 -0.4048202 0
0.006639488 0 0.034575414 -0.25019264 -0.4048202 0
0.0081283655 0 0.034633055 -0.25019264 -0.4048202 0
0.0096222265 0 0.034691129 -0.25019264 -0.4048202 0
0.011121116 0 0.034749638 -0.25019264 -0.4048202 0
0.039999999 0.042165805 0.038434219 -0.25019264 -0.4048202 0
0.014134164 0 0.034867965 -0.25019264 -0.4048202 0
0.015648417 0 0.034927789 -0.25019264 -0.4048202 0
0.017167887 0 0.034988061 -0.25019264 -0.4048202 0
0.018692618 0 0.035048783 -0.25019264 -0.4048202 0
0.020222662 0 0.035109952 -0.25019264 -0.4048202 0
0.021758066 0 0.035171583 -0.25019264 -0.4048202 0
0.023298882 0 0.035233669 -0.25019264 -0.4048202 0
0.024845157 0 0.035296217 -0.25019264 -0.4048202 0
0.039999999 0.019909615 0.037098248 -0.25019264 -0.4048202 0
0.027954292 0 0.035422713 -0.25019264 -0.4048202 0
0.02951725 0 0.035486668 -0.25019264 -0.4048202 0
0.031085875 0 0.035551097 -0.25019264 -0.4048202 0
0.032660216 0 0.035616007 -0.25019264 -0.4048202 0
0.034240328 0 0.0356814 -0.25019264 -0.4048202 0
0.035826266 5.5511151e-17 0.035747278 -0.25019264 -0.4048202 0
0.037418079 0 0.035813645 -0.25019264 -0.4048202 0
0.039999999 0.0013775991 0.036002606 -0.25019264 -0.4048202 0
0 0.07697583 0.037724163 -0.25019264 -0.4048202 0
0 0.073907323 0.03753506 -0.25019264 -0.4048202 0
0 0.070869416 0.037348099 -0.25019264 -0.4048202 0
0 0.067861594 0.037163243 -0.25019264 -0.4048202 0
0 0.064883389 0.036980461 -0.25019264 -0.4048202 0
0 0.061934307 0.036799721 -0.25019264 -0.4048202 0
0 0.059013896 0.036620986 -0.25019264 -0.4048202 0
0 0.056121696 0.036444228 -0.25019264 -0.4048202 0
0 0.05325726 0.036269415 -0.25019264 -0.4048202 0
0 0.050420158 0.036096521 -0.25019264 -0.4048202 0
0 0.047609951 0.035925508 -0.25019264 -0.4048202 0
0 0.044826232 0.035756353 -0.25019264 -0.4048202 0
0 0.042068586 0.035589028 -0.25019264 -0.4048202 0
0 0.039336607 0.035423502 -0.25019264 -0.4048202 0
0 0.036629908 0.03525975 -0.25019264 -0.4048202 0
0 0.033948097 0.035097741 -0.25019264 -0.4048202 0
0 0.031290799 0.034937456 -0.25019264 -0.4048202 0
0 0.028657647 0.034778863 -0.25019264 -0.4048202 0
0 0.026048273 0.034621943 -0.25019264 -0.4048202 0
0 0.023462323 0.034466665 -0.25019264 -0.4048202 0
0 0.020899447 0.034313008 -0.25019264 -0.4048202 0
0 0.018359303 0.034160949 -0.25019264 -0.4048202 0
0 0.015841557 0.034010462 -0.25019264 -0.4048202 0
0 0.013345879 0.033861529 -0.25019264 -0.4048202 0
0 0.010871945 0.033714123 -0.25019264 -0.4048202 0
0 0.0084194411 0.033568226 -0.25019264 -0.4048202 0
0 0.0059880554 0.033423811 -0.25019264 -0.4048202 0
0 0.0035774834 0.033280864 -0.25019264 -0.4048202 0
0 0.0011874269 0.033139359 -0.25019264 -0.4048202 0
0.00073290872 5.5511151e-17 0.033095945 -0.25019264 -0.4048202 0
0.0022023025 0 0.03314985 -0.25019264 -0.4048202 0
0.039999999 0.057921518 0.037955001 -0.25019264 -0.4048202 0
0.039999999 0.05524119 0.037797339 -0.25019264 -0.4048202 0
0.006639488 0 0.033314008 -0.25019264 -0.4048202 0
0.0081283655 5.5511151e-17 0.033369545 -0.25019264 -0.4048202 0
0.039999999 0.047331922 0.037333637 -0.25019264 -0.4048202 0
0.011121116 5.5511151e-17 0.033481874 -0.25019264 -0.4048202 0
0.012625079 0 0.033538666 -0.25019264 -0.4048202 0
0.014134164 0 0.033595882 -0.25019264 -0.4048202 0
0.015648417 0 0.033653524 -0.25019264 -0.4048202 0
0.017167887 0 0.033711597 -0.25019264 -0.4048202 0
0.039999999 0.032079328 0.036446162 -0.25019264 -0.4048202 0
0.020222662 0 0.033829045 -0.25019264 -0.4048202 0
0.021758066 0 0.033888426 -0.25019264 -0.4048202 0
0.023298882 0 0.033948246 -0.25019264 -0.4048202 0
0.024845157 0 0.034008514 -0.25019264 -0.4048202 0
0.026396943 5.5511151e-17 0.034069229 -0.25019264 -0.4048202 0
0.027954292 0 0.034130394 -0.25019264 -0.4048202 0
0.02951725 0 0.034192014 -0.25019264 -0.4048202 0
0.031085875 5.5511151e-17 0.034254096 -0.25019264 -0.4048202 0
0.032660216 5.5511151e-17 0.034316637 -0.25019264 -0.4048202 0
0.034240328 0 0.034379642 -0.25019264 -0.4048202 0
0.035826266 0 0.034443118 -0.25019264 -0.4048202 0
0.037418079 0 0.034507062 -0.25019264 -0.4048202 0
0.039015826 5.5511151e-17 0.034571484 -0.25019264 -0.4048202 0
0 0.07697583 0.036296289 -0.25019264 -0.4048202 0
0 0.073907323 0.036114343 -0.25019264 -0.4048202 0
0 0.070869416 0.035934459 -0.25019264 -0.4048202 0
0 0.067861594 0.035756599 -0.25019264 -0.4048202 0
0 0.064883389 0.035580736 -0.25019264 -0.4048202 0
0 0.061934307 0.035406835 -0.25019264 -0.4048202 0
0 0.059013896 0.035234869 -0.25019264 -0.4048202 0
0 0.056121696 0.035064798 -0.25019264 -0.4048202 0
0 0.05325726 0.034896605 -0.25019264 -0.4048202 0
0 0.050420158 0.034730252 -0.25019264 -0.4048202 0
0 0.047609951 0.034565713 -0.25019264 -0.4048202 0
0 0.044826232 0.034402963 -0.25019264 -0.4048202 0
0 0.042068586 0.034241967 -0.25019264 -0.4048202 0
0 0.039336607 0.034082707 -0.25019264 -0.4048202 0
0 0.036629908 0.033925153 -0.25019264 -0.4048202 0
0 0.033948097 0.03376928 -0.25019264 -0.4048202 0
0 0.031290799 0.03361506 -0.25019264 -0.4048202 0
0 0.028657647 0.033462469 -0.25019264 -0.4048202 0
0 0.026048273 0.033311486 -0.25019264 -0.4048202 0
0 0.023462323 0.033162087 -0.25019264 -0.4048202 0
0 0.020899447 0.033014249 -0.25019264 -0.4048202 0
0 0.018359303 0.032867942 -0.25019264 -0.4048202 0
0 0.015841557 0.032723155 -0.25019264 -0.4048202 0
0 0.013345879 0.032579858 -0.25019264 -0.4048202 0
0 0.010871945 0.032438032 -0.25019264 -0.4048202 0
0 0.0084194411 0.032297656 -0.25019264 -0.4048202 0
0 0.0059880554 0.032158706 -0.25019264 -0.4048202 0
0 0.0035774834 0.032021169 -0.25019264 -0.4048202 0
0 0.0011874269 0.03188502 -0.25019264 -0.4048202 0
0.00073290872 5.5511151e-17 0.031843249 -0.25019264 -0.4048202 0
0.039999999 0.06062432 0.036671605 -0.25019264 -0.4048202 0
0.0036765009 0 0.031947371 -0.25019264 -0.4048202 0
0.039999999 0.05524119 0.036366694 -0.25019264 -0.4048202 0
0.006639488 0 0.032053057 -0.25019264 -0.4048202 0
0.0081283655 0 0.032106496 -0.25019264 -0.4048202 0
0.0096222265 0 0.032160331 -0.25019264 -0.4048202 0
0.011121116 0 0.032214571 -0.25019264 -0.4048202 0
0.012625079 0 0.032269213 -0.25019264 -0.4048202 0
0.014134164 0 0.032324266 -0.25019264 -0.4048202 0
0.015648417 0 0.032379724 -0.25019264 -0.4048202 0
0.017167887 0 0.0324356 -0.25019264 -0.4048202 0
0.018692618 0 0.032491893 -0.25019264 -0.4048202 0
0.020222662 0 0.032548603 -0.25019264 -0.4048202 0
0.039999999 0.027154563 0.034792863 -0.25019264 -0.4048202 0
0.023298882 0 0.032663289 -0.25019264 -0.4048202 0
0.024845157 0 0.032721277 -0.25019264 -0.4048202 0
0.026396943 0 0.032779694 -0.25019264 -0.4048202 0
0.027954292 5.5511151e-17 0.032838546 -0.25019264 -0.4048202 0
0.02951725 0 0.032897834 -0.25019264 -0.4048202 0
0.031085875 5.5511151e-17 0.032957565 -0.25019264 -0.4048202 0
0.032660216 0 0.03301774 -0.25019264 -0.4048202 0
0.034240328 0 0.033078358 -0.25019264 -0.4048202 0
0.039999999 0.0059073428 0.033623017 -0.25019264 -0.4048202 0
0.037418079 5.5511151e-17 0.033200957 -0.25019264 -0.4048202 0
0.039015826 0 0.033262938 -0.25019264 -0.4048202 0
0 0.07697583 0.034868915 -0.25019264 -0.4048202 0
0 0.073907323 0.034694124 -0.25019264 -0.4048202 0
0 0.070869416 0.034521312 -0.25019264 -0.4048202 0
0 0.067861594 0.034350447 -0.25019264 -0.4048202 0
0 0.064883389 0.034181502 -0.25019264 -0.4048202 0
0 0.061934307 0.034014437 -0.25019264 -0.4048202 0
0 0.059013896 0.033849232 -0.25019264 -0.4048202 0
0 0.056121696 0.033685852 -0.25019264 -0.4048202 0
0 0.05325726 0.033524271 -0.25019264 -0.4048202 0
0 0.050420158 0.033364464 -0.25019264 -0.4048202 0
0 0.047609951 0.033206392 -0.25019264 -0.4048202 0
0 0.044826232 0.033050042 -0.25019264 -0.4048202 0
0 0.042068586 0.032895379 -0.25019264 -0.4048202 0
0 0.039336607 0.032742381 -0.25019264 -0.4048202 0
0 0.036629908 0.032591023 -0.25019264 -0.4048202 0
0 0.033948097 0.032441281 -0.25019264 -0.4048202 0
0 0.031290799 0.032293126 -0.25019264 -0.4048202 0
0 0.028657647 0.032146536 -0.25019264 -0.4048202 0
0 0.026048273 0.032001492 -0.25019264 -0.4048202 0
0 0.023462323 0.031857967 -0.25019264 -0.4048202 0
0 0.020899447 0.031715941 -0.25019264 -0.4048202 0
0 0.018359303 0.031575389 -0.25019264 -0.4048202 0
0 0.015841557 0.031436294 -0.25019264 -0.4048202 0
0 0.013345879 0.031298634 -0.25019264 -0.4048202 0
0 0.010871945 0.031162385 -0.25019264 -0.4048202 0
0 0.0084194411 0.031027528 -0.25019264 -0.4048202 0
0 0.0059880554 0.030894045 -0.25019264 -0.4048202 0
0 0.0035774834 0.030761916 -0.25019264 -0.4048202 0
0 0.0011874269 0.030631121 -0.25019264 -0.4048202 0
0.00073290872 0 0.030590992 -0.25019264 -0.4048202 0
0.0022023025 0 0.03064082 -0.25019264 -0.4048202 0
0.0036765009 0 0.03069102 -0.25019264 -0.4048202 0
0.005155548 5.5511151e-17 0.030741597 -0.25019264 -0.4048202 0
0.039999999 0.05258302 0.034792267 -0.25019264 -0.4048202 0
0.0081283655 0 0.030843887 -0.25019264 -0.4048202 0
0.0096222265 5.5511151e-17 0.030895606 -0.25019264 -0.4048202 0
0.011121116 5.5511151e-17 0.030947711 -0.25019264 -0.4048202 0
0.012625079 0 0.031000206 -0.25019264 -0.4048202 0
0.014134164 0 0.031053092 -0.25019264 -0.4048202 0
0.015648417 0 0.031106371 -0.25019264 -0.4048202 0
0.039999999 0.034570925 0.033821061 -0.25019264 -0.4048202 0
0.018692618 0 0.031214127 -0.25019264 -0.4048202 0
0.020222662 0 0.031268608 -0.25019264 -0.4048202 0
0.021758066 0 0.031323493 -0.25019264 -0.4048202 0
0.039999999 0.024720874 0.033294972 -0.25019264 -0.4048202 0
0.039999999 0.022305975 0.033166561 -0.25019264 -0.4048202 0
0.026396943 0 0.031490613 -0.25019264 -0.4048202 0
0.027954292 5.5511151e-17 0.031547148 -0.25019264 -0.4048202 0
0.02951725 0 0.031604104 -0.25019264 -0.4048202 0
0.031085875 5.5511151e-17 0.031661488 -0.25019264 -0.4048202 0
0.032660216 0 0.031719293 -0.25019264 -0.4048202 0
0.034240328 0 0.031777531 -0.25019264 -0.4048202 0
0.039999999 0.0059073428 0.03230077 -0.25019264 -0.4048202 0
0.037418079 5.5511151e-17 0.031895306 -0.25019264 -0.4048202 0
0.039015826 0 0.031954851 -0.25019264 -0.4048202 0
0 0.07697583 0.03344202 -0.25019264 -0.4048202 0
0 0.073907323 0.033274382 -0.25019264 -0.4048202 0
0 0.070869416 0.03310864 -0.25019264 -0.4048202 0
0 0.067861594 0.032944769 -0.25019264 -0.4048202 0
0 0.064883389 0.032782737 -0.25019264 -0.4048202 0
0 0.061934307 0.032622509 -0.25019264 -0.4048202 0
0 0.059013896 0.032464065 -0.25019264 -0.4048202 0
0 0.056121696 0.032307371 -0.25019264 -0.4048202 0
0 0.05325726 0.032152403 -0.25019264 -0.4048202 0
0 0.050420158 0.03199913 -0.25019264 -0.4048202 0
0 0.047609951 0.031847533 -0.25019264 -0.4048202 0
0 0.044826232 0.031697579 -0.25019264 -0.4048202 0
0 0.042068586 0.031549245 -0.25019264 -0.4048202 0
0 0.039336607 0.03140251 -0.25019264 -0.4048202 0
0 0.036629908 0.031257343 -0.25019264 -0.4048202 0
0 0.033948097 0.031113727 -0.25019264 -0.4048202 0
0 0.031290799 0.030971635 -0.25019264 -0.4048202 0
0 0.028657647 0.030831046 -0.25019264 -0.4048202 0
0 0.026048273 0.030691937 -0.25019264 -0.4048202 0
0 0.023462323 0.030554285 -0.25019264 -0.4048202 0
0 0.020899447 0.03041807 -0.25019264 -0.4048202 0
0 0.018359303 0.030283272 -0.25019264 -0.4048202 0
0 0.015841557 0.030149868 -0.25019264 -0.4048202 0
0 0.013345879 0.03001784 -0.25019264 -0.4048202 0
0 0.010871945 0.029887166 -0.25019264 -0.4048202 0
0 0.0084194411 0.029757829 -0.25019264 -0.4048202 0
0 0.0059880554 0.029629808 -0.25019264 -0.4048202 0
0 0.0035774834 0.029503087 -0.25019264 -0.4048202 0
0 0.0011874269 0.029377643 -0.25019264 -0.4048202 0
0.00073290872 5.5511151e-17 0.029339157 -0.25019264 -0.4048202 0
0.0022023025 0 0.029386945 -0.25019264 -0.4048202 0
0.0036765009 0 0.029435091 -0.25019264 -0.4048202 0
0.005155548 0 0.029483598 -0.25019264 -0.4048202 0
0.006639488 0 0.029532468 -0.25019264 -0.4048202 0
0.0081283655 0 0.029581703 -0.25019264 -0.4048202 0
0.0096222265 5.5511151e-17 0.029631305 -0.25019264 -0.4048202 0
0.011121116 0 0.029681278 -0.25019264 -0.4048202 0
