# .PCD v0.7 - Point Cloud Data file format
VERSION 0.7
FIELDS x y z vp_x vp_y vp_z
SIZE 4 4 4 4 4 4
TYPE F F F F F F
COUNT 1 1 1 1 1 1
WIDTH 705
HEIGHT 1
VIEWPOINT 0 0 0 1 0 0 0
POINTS 705
DATA ascii
0.039999999 0.07229884 0.037473157 0.38593423 -0.23852047 0.14741376
0.039999999 0.07566347 0.037083741 0.38593423 -0.23852047 0.14741376
0.039999999 0.077357881 0.036888026 0.38593423 -0.23852047 0.14741376
0.039999999 0.07906045 0.036691628 0.38593423 -0.23852047 0.14741376
0.0011570854 0 0.036846031 0.38593423 -0.23852047 0.14741376
0.003456275 2.7755576e-17 0.037323952 0.38593423 -0.23852047 0.14741376
0.0057357289 2.7755576e-17 0.037798014 0.38593423 -0.23852047 0.14741376
0 0.0050461786 0.035959173 0.38593423 -0.23852047 0.14741376
0.010236556 0 0.038734779 0.38593423 -0.23852047 0.14741376
0.012458478 0 0.03919759 0.38593423 -0.23852047 0.14741376
0.014661765 0 0.039656758 0.38593423 -0.23852047 0.14741376
0.016460272 0.00024971258 0.039999999 0.38593423 -0.23852047 0.14741376
0.017075423 0.0012598494 0.039999999 0.38593423 -0.23852047 0.14741376
0.01768985 0.002270668 0.039999999 0.38593423 -0.23852047 0.14741376
0.018303568 0.0032821887 0.039999999 0.38593423 -0.23852047 0.14741376
0.018916585 0.0042944318 0.039999999 0.38593423 -0.23852047 0.14741376
0.019528914 0.0053074174 0.039999999 0.38593423 -0.23852047 0.14741376
0.02014057 0.0063211657 0.039999999 0.38593423 -0.23852047 0.14741376
0.02075156 0.0073356978 0.039999999 0.38593423 -0.23852047 0.14741376
0.021361899 0.0083510336 0.039999999 0.38593423 -0.23852047 0.14741376
0.021971598 0.0093671931 0.039999999 0.38593423 -0.23852047 0.14741376
0.02258067 0.010384197 0.039999999 0.38593423 -0.23852047 0.14741376
0.023189126 0.011402068 0.039999999 0.38593423 -0.23852047 0.14741376
0.023796976 0.012420824 0.039999999 0.38593423 -0.23852047 0.14741376
0.024404233 0.013440487 0.039999999 0.38593423 -0.23852047 0.14741376
0.025010912 0.014461077 0.039999999 0.38593423 -0.23852047 0.14741376
0.025617018 0.015482616 0.039999999 0.38593423 -0.23852047 0.14741376
0.02622257 0.016505124 0.039999999 0.38593423 -0.23852047 0.14741376
0.026827576 0.017528621 0.039999999 0.38593423 -0.23852047 0.14741376
0.027432045 0.01855313 0.039999999 0.38593423 -0.23852047 0.14741376
0.028035995 0.019578671 0.039999999 0.38593423 -0.23852047 0.14741376
0.028639432 0.020605264 0.039999999 0.38593423 -0.23852047 0.14741376
0.02924237 0.021632934 0.039999999 0.38593423 -0.23852047 0.14741376
0.02984482 0.022661697 0.039999999 0.38593423 -0.23852047 0.14741376
0.030446796 0.023691578 0.039999999 0.38593423 -0.23852047 0.14741376
0.031048307 0.024722597 0.039999999 0.38593423 -0.23852047 0.14741376
0.031649366 0.025754776 0.039999999 0.38593423 -0.23852047 0.14741376
0.032249983 0.026788136 0.039999999 0.38593423 -0.23852047 0.14741376
0.032850169 0.027822699 0.039999999 0.38593423 -0.23852047 0.14741376
0.033449937 0.028858487 0.039999999 0.38593423 -0.23852047 0.14741376
0.034049299 0.02989552 0.039999999 0.38593423 -0.23852047 0.14741376
0.034648266 0.030933822 0.039999999 0.38593423 -0.23852047 0.14741376
0.035246853 0.031973414 0.039999999 0.38593423 -0.23852047 0.14741376
0.035845064 0.033014316 0.039999999 0.38593423 -0.23852047 0.14741376
0.036442913 0.034056555 0.039999999 0.38593423 -0.23852047 0.14741376
0.037040416 0.035100147 0.039999999 0.38593423 -0.23852047 0.14741376
0.037637584 0.036145121 0.039999999 0.38593423 -0.23852047 0.14741376
0.03823442 0.037191495 0.039999999 0.38593423 -0.23852047 0.14741376
0.038830947 0.038239293 0.039999999 0.38593423 -0.23852047 0.14741376
0.039427169 0.039288536 0.039999999 0.38593423 -0.23852047 0.14741376
0.039999999 0.040357869 0.039992828 0.38593423 -0.23852047 0.14741376
0.039999999 0.04343475 0.039621681 0.38593423 -0.23852047 0.14741376
0 0.077764377 0.026949828 0.38593423 -0.23852047 0.14741376
0.039999999 0.046538305 0.039248284 0.38593423 -0.23852047 0.14741376
0.039999999 0.048100248 0.039060723 0.38593423 -0.23852047 0.14741376
0.039999999 0.04966905 0.038872585 0.38593423 -0.23852047 0.14741376
0.039999999 0.051244784 0.038683858 0.38593423 -0.23852047 0.14741376
0.039999999 0.052827511 0.038494539 0.38593423 -0.23852047 0.14741376
0.039999999 0.056014229 0.038114093 0.38593423 -0.23852047 0.14741376
0.039999999 0.057618354 0.037922952 0.38593423 -0.23852047 0.14741376
0.039999999 0.059229754 0.037731189 0.38593423 -0.23852047 0.14741376
0.039999999 0.062474649 0.037345782 0.38593423 -0.23852047 0.14741376
0.039999999 0.06410829 0.037152119 0.38593423 -0.23852047 0.14741376
0.039999999 0.065749489 0.036957808 0.38593423 -0.23852047 0.14741376
0.039999999 0.067398332 0.036762841 0.38593423 -0.23852047 0.14741376
0.039999999 0.069054879 0.036567215 0.38593423 -0.23852047 0.14741376
0.039999999 0.070719212 0.036370918 0.38593423 -0.23852047 0.14741376
0.039999999 0.072391413 0.036173947 0.38593423 -0.23852047 0.14741376
0.039999999 0.074071556 0.035976287 0.38593423 -0.23852047 0.14741376
0.039999999 0.077455983 0.035578892 0.38593423 -0.23852047 0.14741376
0.039999999 0.079160437 0.035379138 0.38593423 -0.23852047 0.14741376
0 0.0007178685 0.035252985 0.38593423 -0.23852047 0.14741376
0.0034591444 0 0.036073282 0.38593423 -0.23852047 0.14741376
0.008002311 2.7755576e-17 0.037029061 0.38593423 -0.23852047 0.14741376
0.010244946 2.7755576e-17 0.037501208 0.38593423 -0.23852047 0.14741376
0.012468646 0 0.0379696 0.38593423 -0.23852047 0.14741376
0.014673681 0 0.038434289 0.38593423 -0.23852047 0.14741376
0.016860312 0 0.038895331 0.38593423 -0.23852047 0.14741376
0.0190288 0 0.039352775 0.38593423 -0.23852047 0.14741376
0.021179395 0 0.039806675 0.38593423 -0.23852047 0.14741376
0.022442397 0.0005722231 0.039999999 0.38593423 -0.23852047 0.14741376
0.023049429 0.0015736578 0.039999999 0.38593423 -0.23852047 0.14741376
0.023655817 0.0025758015 0.039999999 0.38593423 -0.23852047 0.14741376
0.02426157 0.0035786733 0.039999999 0.38593423 -0.23852047 0.14741376
0.024866702 0.0045822938 0.039999999 0.38593423 -0.23852047 0.14741376
0.025471224 0.0055866824 0.039999999 0.38593423 -0.23852047 0.14741376
0.026075147 0.0065918597 0.039999999 0.38593423 -0.23852047 0.14741376
0.026678484 0.007597845 0.039999999 0.38593423 -0.23852047 0.14741376
0.027281245 0.0086046588 0.039999999 0.38593423 -0.23852047 0.14741376
0.027883442 0.0096123219 0.039999999 0.38593423 -0.23852047 0.14741376
0.028485086 0.010620853 0.039999999 0.38593423 -0.23852047 0.14741376
0.029086189 0.011630272 0.039999999 0.38593423 -0.23852047 0.14741376
0.029686764 0.012640602 0.039999999 0.38593423 -0.23852047 0.14741376
0.030286821 0.013651861 0.039999999 0.38593423 -0.23852047 0.14741376
0.030886371 0.014664069 0.039999999 0.38593423 -0.23852047 0.14741376
0.031485427 0.015677247 0.039999999 0.38593423 -0.23852047 0.14741376
0.032083996 0.016691418 0.039999999 0.38593423 -0.23852047 0.14741376
0.032682095 0.017706599 0.039999999 0.38593423 -0.23852047 0.14741376
0.033279736 0.018722812 0.039999999 0.38593423 -0.23852047 0.14741376
0.033876922 0.019740079 0.039999999 0.38593423 -0.23852047 0.14741376
0.034473673 0.020758417 0.039999999 0.38593423 -0.23852047 0.14741376
0.035069998 0.021777852 0.039999999 0.38593423 -0.23852047 0.14741376
0.035665907 0.022798399 0.039999999 0.38593423 -0.23852047 0.14741376
0.03626141 0.023820084 0.039999999 0.38593423 -0.23852047 0.14741376
0.036856521 0.024842925 0.039999999 0.38593423 -0.23852047 0.14741376
0.037451252 0.025866946 0.039999999 0.38593423 -0.23852047 0.14741376
0.038045611 0.026892167 0.039999999 0.38593423 -0.23852047 0.14741376
0.038639612 0.027918605 0.039999999 0.38593423 -0.23852047 0.14741376
0.039233264 0.028946288 0.039999999 0.38593423 -0.23852047 0.14741376
0.039826583 0.029975234 0.039999999 0.38593423 -0.23852047 0.14741376
0.039999999 0.031332761 0.039869562 0.38593423 -0.23852047 0.14741376
0.039999999 0.032831013 0.039684769 0.38593423 -0.23852047 0.14741376
0.039999999 0.03433552 0.039499436 0.38593423 -0.23852047 0.14741376
0.039999999 0.035846338 0.039313555 0.38593423 -0.23852047 0.14741376
0.039999999 0.037363525 0.039127119 0.38593423 -0.23852047 0.14741376
0.039999999 0.038887147 0.038940124 0.38593423 -0.23852047 0.14741376
0.039999999 0.040417258 0.038752567 0.38593423 -0.23852047 0.14741376
0.039999999 0.041953929 0.038564436 0.38593423 -0.23852047 0.14741376
0.039999999 0.043497216 0.038375728 0.38593423 -0.23852047 0.14741376
0 0.077835806 0.025556598 0.38593423 -0.23852047 0.14741376
0.039999999 0.046603903 0.037996553 0.38593423 -0.23852047 0.14741376
0.039999999 0.04816743 0.037806075 0.38593423 -0.23852047 0.14741376
0.039999999 0.049737833 0.037614994 0.38593423 -0.23852047 0.14741376
0.039999999 0.051315177 0.037423305 0.38593423 -0.23852047 0.14741376
0.039999999 0.052899532 0.037230998 0.38593423 -0.23852047 0.14741376
0.039999999 0.054490969 0.037038069 0.38593423 -0.23852047 0.14741376
0.039999999 0.056089547 0.036844511 0.38593423 -0.23852047 0.14741376
0.039999999 0.057695344 0.036650315 0.38593423 -0.23852047 0.14741376
0.039999999 0.059308428 0.036455479 0.38593423 -0.23852047 0.14741376
0.039999999 0.060928866 0.03625999 0.38593423 -0.23852047 0.14741376
0.039999999 0.062556736 0.036063842 0.38593423 -0.23852047 0.14741376
0.039999999 0.064192109 0.035867035 0.38593423 -0.23852047 0.14741376
0.039999999 0.065835059 0.035669554 0.38593423 -0.23852047 0.14741376
0.039999999 0.06748566 0.035471391 0.38593423 -0.23852047 0.14741376
0.027793635 0.079999998 0.031315617 0.38593423 -0.23852047 0.14741376
0.039999999 0.070810124 0.035073005 0.38593423 -0.23852047 0.14741376
0.039999999 0.072484136 0.034872763 0.38593423 -0.23852047 0.14741376
0.033545796 0.079999998 0.03256835 0.38593423 -0.23852047 0.14741376
0.039999999 0.075856112 0.034470145 0.38593423 -0.23852047 0.14741376
0.039999999 0.077554241 0.034267753 0.38593423 -0.23852047 0.14741376
0.039999999 0.079260573 0.034064628 0.38593423 -0.23852047 0.14741376
0.0011590163 0 0.034331426 0.38593423 -0.23852047 0.14741376
0 0.002159012 0.033801854 0.38593423 -0.23852047 0.14741376
0.0057452177 2.7755576e-17 0.035306606 0.38593423 -0.23852047 0.14741376
0.008008901 0 0.035788275 0.38593423 -0.23852047 0.14741376
0.010253347 0 0.036266077 0.38593423 -0.23852047 0.14741376
0.012478827 0 0.036740068 0.38593423 -0.23852047 0.14741376
0.014685612 0 0.037210297 0.38593423 -0.23852047 0.14741376
0.016873965 0 0.037676819 0.38593423 -0.23852047 0.14741376
0.019044144 0 0.038139686 0.38593423 -0.23852047 0.14741376
0.021196403 0 0.038598951 0.38593423 -0.23852047 0.14741376
0.02333099 0 0.039054666 0.38593423 -0.23852047 0.14741376
0.025448151 0 0.039506875 0.38593423 -0.23852047 0.14741376
0.027548127 0 0.039955631 0.38593423 -0.23852047 0.14741376
0.028296065 0.00089374976 0.039999999 0.38593423 -0.23852047 0.14741376
0.028895451 0.0018866948 0.039999999 0.38593423 -0.23852047 0.14741376
0.029494267 0.002880374 0.039999999 0.38593423 -0.23852047 0.14741376
0.030092524 0.0038748069 0.039999999 0.38593423 -0.23852047 0.14741376
0.030690232 0.0048700133 0.039999999 0.38593423 -0.23852047 0.14741376
0.031287406 0.0058660121 0.039999999 0.38593423 -0.23852047 0.14741376
0.031884056 0.0068628234 0.039999999 0.38593423 -0.23852047 0.14741376
0.032480188 0.0078604668 0.039999999 0.38593423 -0.23852047 0.14741376
0.033075821 0.008858962 0.039999999 0.38593423 -0.23852047 0.14741376
0.033670962 0.0098583288 0.039999999 0.38593423 -0.23852047 0.14741376
0.034265622 0.010858587 0.039999999 0.38593423 -0.23852047 0.14741376
0.034859814 0.011859756 0.039999999 0.38593423 -0.23852047 0.14741376
0.035453551 0.012861856 0.039999999 0.38593423 -0.23852047 0.14741376
0.036046837 0.013864907 0.039999999 0.38593423 -0.23852047 0.14741376
0.03663969 0.01486893 0.039999999 0.38593423 -0.23852047 0.14741376
0.03723212 0.015873944 0.039999999 0.38593423 -0.23852047 0.14741376
0.037824135 0.016879968 0.039999999 0.38593423 -0.23852047 0.14741376
0.038415749 0.017887026 0.039999999 0.38593423 -0.23852047 0.14741376
0.039006975 0.018895134 0.039999999 0.38593423 -0.23852047 0.14741376
0.039597817 0.019904315 0.039999999 0.38593423 -0.23852047 0.14741376
0.039999999 0.021055875 0.039941501 0.38593423 -0.23852047 0.14741376
0.039999999 0.022513345 0.039757755 0.38593423 -0.23852047 0.14741376
0.039999999 0.02397668 0.039573487 0.38593423 -0.23852047 0.14741376
0.039999999 0.025445936 0.039388694 0.38593423 -0.23852047 0.14741376
0.039999999 0.026921172 0.039203364 0.38593423 -0.23852047 0.14741376
0.039999999 0.028402438 0.039017502 0.38593423 -0.23852047 0.14741376
0.039999999 0.029889796 0.038831092 0.38593423 -0.23852047 0.14741376
0.039999999 0.031383302 0.038644135 0.38593423 -0.23852047 0.14741376
0.039999999 0.032883015 0.038456623 0.38593423 -0.23852047 0.14741376
0.039999999 0.034388989 0.038268544 0.38593423 -0.23852047 0.14741376
0.039999999 0.035901289 0.038079903 0.38593423 -0.23852047 0.14741376
0.039999999 0.037419975 0.037890688 0.38593423 -0.23852047 0.14741376
0.039999999 0.038945101 0.037700891 0.38593423 -0.23852047 0.14741376
0.039999999 0.040476736 0.037510507 0.38593423 -0.23852047 0.14741376
0.039999999 0.042014942 0.037319534 0.38593423 -0.23852047 0.14741376
0.039999999 0.043559778 0.03712796 0.38593423 -0.23852047 0.14741376
0.039999999 0.045111306 0.036935784 0.38593423 -0.23852047 0.14741376
0.039999999 0.046669599 0.036742993 0.38593423 -0.23852047 0.14741376
0.039999999 0.048234712 0.036549587 0.38593423 -0.23852047 0.14741376
0.039999999 0.049806714 0.036355551 0.38593423 -0.23852047 0.14741376
0.039999999 0.051385675 0.03616089 0.38593423 -0.23852047 0.14741376
0.039999999 0.054564741 0.035769638 0.38593423 -0.23852047 0.14741376
0.039999999 0.057772446 0.035375781 0.38593423 -0.23852047 0.14741376
0.039999999 0.059387218 0.035177853 0.38593423 -0.23852047 0.14741376
0.039999999 0.061009362 0.034979254 0.38593423 -0.23852047 0.14741376
0.039999999 0.062638953 0.034779977 0.38593423 -0.23852047 0.14741376
0.039999999 0.069233239 0.033975903 0.38593423 -0.23852047 0.14741376
0.039999999 0.07090117 0.033773109 0.38593423 -0.23852047 0.14741376
0.039999999 0.072576992 0.033569586 0.38593423 -0.23852047 0.14741376
0.039999999 0.074260801 0.033365332 0.38593423 -0.23852047 0.14741376
0.039999999 0.075952657 0.033160333 0.38593423 -0.23852047 0.14741376
0.039999999 0.077652656 0.032954589 0.38593423 -0.23852047 0.14741376
0.039999999 0.079360865 0.032748081 0.38593423 -0.23852047 0.14741376
0.0011599836 2.7755576e-17 0.033071671 0.38593423 -0.23852047 0.14741376
0.0034648946 0 0.033567108 0.38593423 -0.23852047 0.14741376
0.0057499716 0 0.034058496 0.38593423 -0.23852047 0.14741376
0.0080154995 0 0.034545898 0.38593423 -0.23852047 0.14741376
0.012489022 0 0.035508972 0.38593423 -0.23852047 0.14741376
0.014697559 0 0.035984755 0.38593423 -0.23852047 0.14741376
0.016887635 0 0.036456771 0.38593423 -0.23852047 0.14741376
0.019059507 0 0.036925081 0.38593423 -0.23852047 0.14741376
0.021213431 0 0.037389729 0.38593423 -0.23852047 0.14741376
0.023349658 0 0.037850767 0.38593423 -0.23852047 0.14741376
0.02546843 0 0.038308252 0.38593423 -0.23852047 0.14741376
0.027569989 0 0.03876223 0.38593423 -0.23852047 0.14741376
0.029654574 0 0.039212748 0.38593423 -0.23852047 0.14741376
0.031722415 0 0.039659854 0.38593423 -0.23852047 0.14741376
0.033433769 0.00023026259 0.039999999 0.38593423 -0.23852047 0.14741376
0.034026466 0.0012141821 0.039999999 0.38593423 -0.23852047 0.14741376
0.034618653 0.002198841 0.039999999 0.38593423 -0.23852047 0.14741376
0.035210341 0.0031842585 0.039999999 0.38593423 -0.23852047 0.14741376
0.035801545 0.0041704532 0.039999999 0.38593423 -0.23852047 0.14741376
0.036392268 0.0051574451 0.039999999 0.38593423 -0.23852047 0.14741376
0.036982529 0.0061452524 0.039999999 0.38593423 -0.23852047 0.14741376
0.037572332 0.0071338951 0.039999999 0.38593423 -0.23852047 0.14741376
0.038161695 0.0081233922 0.039999999 0.38593423 -0.23852047 0.14741376
0.038750622 0.0091137635 0.039999999 0.38593423 -0.23852047 0.14741376
0.039339129 0.010105029 0.039999999 0.38593423 -0.23852047 0.14741376
0.039927226 0.011097206 0.039999999 0.38593423 -0.23852047 0.14741376
0.039999999 0.012463907 0.039839875 0.38593423 -0.23852047 0.14741376
0.039999999 0.013888615 0.039656658 0.38593423 -0.23852047 0.14741376
0.039999999 0.015318884 0.039472934 0.38593423 -0.23852047 0.14741376
0.039999999 0.016754761 0.0392887 0.38593423 -0.23852047 0.14741376
0.039999999 0.018196303 0.039103944 0.38593423 -0.23852047 0.14741376
0.039999999 0.01964356 0.03891867 0.38593423 -0.23852047 0.14741376
0.039999999 0.021096585 0.038732864 0.38593423 -0.23852047 0.14741376
0.039999999 0.022555435 0.038546525 0.38593423 -0.23852047 0.14741376
0.039999999 0.024020161 0.038359646 0.38593423 -0.23852047 0.14741376
0.039999999 0.025490822 0.038172219 0.38593423 -0.23852047 0.14741376
0.039999999 0.02696747 0.037984241 0.38593423 -0.23852047 0.14741376
0.039999999 0.028450163 0.037795708 0.38593423 -0.23852047 0.14741376
0.039999999 0.029938959 0.037606608 0.38593423 -0.23852047 0.14741376
0.039999999 0.031433914 0.037416942 0.38593423 -0.23852047 0.14741376
0.039999999 0.032935087 0.037226699 0.38593423 -0.23852047 0.14741376
0.039999999 0.034442537 0.037035875 0.38593423 -0.23852047 0.14741376
0.039999999 0.035956323 0.036844462 0.38593423 -0.23852047 0.14741376
0.039999999 0.037476502 0.036652457 0.38593423 -0.23852047 0.14741376
0.039999999 0.039003145 0.036459848 0.38593423 -0.23852047 0.14741376
0.039999999 0.040536303 0.036266632 0.38593423 -0.23852047 0.14741376
0.039999999 0.042076044 0.036072806 0.38593423 -0.23852047 0.14741376
0.039999999 0.043622427 0.03587836 0.38593423 -0.23852047 0.14741376
0.039999999 0.045175523 0.035683285 0.38593423 -0.23852047 0.14741376
0.039999999 0.046735387 0.035487577 0.38593423 -0.23852047 0.14741376
0.039999999 0.048302092 0.035291232 0.38593423 -0.23852047 0.14741376
0.039999999 0.049875699 0.035094239 0.38593423 -0.23852047 0.14741376
0.039999999 0.05145628 0.03489659 0.38593423 -0.23852047 0.14741376
0.039999999 0.053043898 0.034698281 0.38593423 -0.23852047 0.14741376
0.039999999 0.05463862 0.034499306 0.38593423 -0.23852047 0.14741376
0.039999999 0.056240521 0.034299657 0.38593423 -0.23852047 0.14741376
0.039999999 0.057849668 0.034099322 0.38593423 -0.23852047 0.14741376
0.039999999 0.059466127 0.033898298 0.38593423 -0.23852047 0.14741376
0.039999999 0.061089981 0.033696581 0.38593423 -0.23852047 0.14741376
0.039999999 0.064360134 0.033291019 0.38593423 -0.23852047 0.14741376
0.039999999 0.066006586 0.033087164 0.38593423 -0.23852047 0.14741376
0.039999999 0.067660727 0.032882582 0.38593423 -0.23852047 0.14741376
0.039999999 0.069322623 0.032677267 0.38593423 -0.23852047 0.14741376
0.039999999 0.070992351 0.032471206 0.38593423 -0.23852047 0.14741376
0.039999999 0.072669998 0.032264393 0.38593423 -0.23852047 0.14741376
0.039999999 0.07435564 0.032056823 0.38593423 -0.23852047 0.14741376
0.039999999 0.07604935 0.031848483 0.38593423 -0.23852047 0.14741376
0.039999999 0.077751219 0.031639371 0.38593423 -0.23852047 0.14741376
0.039999999 0.079461321 0.031429473 0.38593423 -0.23852047 0.14741376
0 0.00071967283 0.031461451 0.38593423 -0.23852047 0.14741376
0.0034677752 0 0.032311562 0.38593423 -0.23852047 0.14741376
0.0057547316 0 0.032808762 0.38593423 -0.23852047 0.14741376
0.0080221063 0 0.033301912 0.38593423 -0.23852047 0.14741376
0.010270181 2.7755576e-17 0.033791073 0.38593423 -0.23852047 0.14741376
0.012499229 0 0.034276299 0.38593423 -0.23852047 0.14741376
0.014709521 0 0.034757648 0.38593423 -0.23852047 0.14741376
0.016901322 0 0.035235178 0.38593423 -0.23852047 0.14741376
0.019074891 0 0.035708938 0.38593423 -0.23852047 0.14741376
0.021230482 0 0.036178984 0.38593423 -0.23852047 0.14741376
0.023368347 0 0.036645368 0.38593423 -0.23852047 0.14741376
0.025488732 0 0.037108138 0.38593423 -0.23852047 0.14741376
0.027591879 0 0.037567351 0.38593423 -0.23852047 0.14741376
0.029678022 0 0.038023047 0.38593423 -0.23852047 0.14741376
0.031747397 0 0.038475282 0.38593423 -0.23852047 0.14741376
0.033800233 0 0.038924102 0.38593423 -0.23852047 0.14741376
0.035836749 0 0.03936955 0.38593423 -0.23852047 0.14741376
0.037857171 0 0.039811675 0.38593423 -0.23852047 0.14741376
0.039052673 0.00055760756 0.039999999 0.38593423 -0.23852047 0.14741376
0.039638527 0.001533413 0.039999999 0.38593423 -0.23852047 0.14741376
0.039999999 0.0026661127 0.039930422 0.38593423 -0.23852047 0.14741376
0.039999999 0.0040545608 0.039748237 0.38593423 -0.23852047 0.14741376
0.039999999 0.005448231 0.039565567 0.38593423 -0.23852047 0.14741376
0.039999999 0.0068471702 0.039382406 0.38593423 -0.23852047 0.14741376
0.039999999 0.0082514277 0.039198741 0.38593423 -0.23852047 0.14741376
0.039999999 0.0096610533 0.039014578 0.38593423 -0.23852047 0.14741376
0.039999999 0.011076096 0.038829908 0.38593423 -0.23852047 0.14741376
0.039999999 0.012496605 0.03864472 0.38593423 -0.23852047 0.14741376
0.039999999 0.013922633 0.038459014 0.38593423 -0.23852047 0.14741376
0.039999999 0.015354229 0.038272783 0.38593423 -0.23852047 0.14741376
0.039999999 0.016791448 0.038086023 0.38593423 -0.23852047 0.14741376
0.039999999 0.018234339 0.037898723 0.38593423 -0.23852047 0.14741376
0.039999999 0.019682957 0.037710886 0.38593423 -0.23852047 0.14741376
0.039999999 0.021137355 0.037522499 0.38593423 -0.23852047 0.14741376
0.039999999 0.022597587 0.037333559 0.38593423 -0.23852047 0.14741376
0.039999999 0.024063706 0.037144057 0.38593423 -0.23852047 0.14741376
0.039999999 0.025535772 0.036953993 0.38593423 -0.23852047 0.14741376
0.039999999 0.027013836 0.036763359 0.38593423 -0.23852047 0.14741376
0.039999999 0.028497959 0.036572147 0.38593423 -0.23852047 0.14741376
0.039999999 0.029988192 0.036380351 0.38593423 -0.23852047 0.14741376
0.039999999 0.0314846 0.036187965 0.38593423 -0.23852047 0.14741376
0.039999999 0.032987237 0.035994984 0.38593423 -0.23852047 0.14741376
0.039999999 0.034496162 0.035801399 0.38593423 -0.23852047 0.14741376
0.039999999 0.036011435 0.035607211 0.38593423 -0.23852047 0.14741376
0.039999999 0.037533119 0.035412405 0.38593423 -0.23852047 0.14741376
0.039999999 0.039061271 0.035216976 0.38593423 -0.23852047 0.14741376
0.039999999 0.040595956 0.035020921 0.38593423 -0.23852047 0.14741376
0.039999999 0.042137235 0.034824234 0.38593423 -0.23852047 0.14741376
0.039999999 0.043685172 0.034626901 0.38593423 -0.23852047 0.14741376
0.039999999 0.045239832 0.034428921 0.38593423 -0.23852047 0.14741376
0.039999999 0.048369575 0.034030993 0.38593423 -0.23852047 0.14741376
0.039999999 0.05152699 0.033630386 0.38593423 -0.23852047 0.14741376
0.039999999 0.053116243 0.033429064 0.38593423 -0.23852047 0.14741376
0.039999999 0.056316178 0.033024337 0.38593423 -0.23852047 0.14741376
0.014242303 0.079999998 0.024288524 0.38593423 -0.23852047 0.14741376
0.039999999 0.059545159 0.03261679 0.38593423 -0.23852047 0.14741376
0.039999999 0.06117072 0.03241194 0.38593423 -0.23852047 0.14741376
0.039999999 0.062803753 0.03220636 0.38593423 -0.23852047 0.14741376
0.039999999 0.064444341 0.032000046 0.38593423 -0.23852047 0.14741376
0.039999999 0.066092551 0.031792991 0.38593423 -0.23852047 0.14741376
0.039999999 0.067748457 0.031585179 0.38593423 -0.23852047 0.14741376
0.039999999 0.069412142 0.031376611 0.38593423 -0.23852047 0.14741376
0.039999999 0.07108368 0.031167274 0.38593423 -0.23852047 0.14741376
0.039999999 0.072763152 0.030957161 0.38593423 -0.23852047 0.14741376
0.039999999 0.074450627 0.030746263 0.38593423 -0.23852047 0.14741376
0.039999999 0.0761462 0.030534573 0.38593423 -0.23852047 0.14741376
0.039999999 0.077849939 0.03032208 0.38593423 -0.23852047 0.14741376
0.039999999 0.079561926 0.030108778 0.38593423 -0.23852047 0.14741376
0.0011619221 0 0.030547155 0.38593423 -0.23852047 0.14741376
0.0034706597 0 0.03105435 0.38593423 -0.23852047 0.14741376
0.0057594976 2.7755576e-17 0.031557374 0.38593423 -0.23852047 0.14741376
0.0080287224 0 0.032056287 0.38593423 -0.23852047 0.14741376
0.010278614 0 0.032551151 0.38593423 -0.23852047 0.14741376
0.012509449 0 0.033042021 0.38593423 -0.23852047 0.14741376
0.014721498 0 0.033528958 0.38593423 -0.23852047 0.14741376
0.016915025 0 0.034012012 0.38593423 -0.23852047 0.14741376
0.019090293 0 0.034491241 0.38593423 -0.23852047 0.14741376
0.021247555 0 0.0349667 0.38593423 -0.23852047 0.14741376
0.023387061 0 0.035438441 0.38593423 -0.23852047 0.14741376
0.025509061 0 0.035906516 0.38593423 -0.23852047 0.14741376
0.027613796 0 0.036370974 0.38593423 -0.23852047 0.14741376
0.029701501 0 0.036831867 0.38593423 -0.23852047 0.14741376
0.031772412 0 0.037289247 0.38593423 -0.23852047 0.14741376
0.033826757 0 0.037743155 0.38593423 -0.23852047 0.14741376
0.035864763 0 0.038193643 0.38593423 -0.23852047 0.14741376
0.037886646 0 0.03864076 0.38593423 -0.23852047 0.14741376
0.039892625 0 0.039084546 0.38593423 -0.23852047 0.14741376
0.039999999 0.0013053715 0.038934596 0.38593423 -0.23852047 0.14741376
0.039999999 0.0026898889 0.03875054 0.38593423 -0.23852047 0.14741376
0.039999999 0.0040795896 0.038565986 0.38593423 -0.23852047 0.14741376
0.039999999 0.0054745208 0.038380925 0.38593423 -0.23852047 0.14741376
0.039999999 0.0068747317 0.038195357 0.38593423 -0.23852047 0.14741376
0.039999999 0.0082802707 0.038009271 0.38593423 -0.23852047 0.14741376
0.039999999 0.0096911862 0.037822664 0.38593423 -0.23852047 0.14741376
0.039999999 0.011107529 0.037635528 0.38593423 -0.23852047 0.14741376
0.039999999 0.012529349 0.037447866 0.38593423 -0.23852047 0.14741376
0.039999999 0.013956698 0.037259661 0.38593423 -0.23852047 0.14741376
0.039999999 0.015389626 0.037070915 0.38593423 -0.23852047 0.14741376
0.039999999 0.016828185 0.036881622 0.38593423 -0.23852047 0.14741376
0.039999999 0.01827243 0.03669177 0.38593423 -0.23852047 0.14741376
0.039999999 0.01972241 0.036501363 0.38593423 -0.23852047 0.14741376
0.039999999 0.021178182 0.036310386 0.38593423 -0.23852047 0.14741376
0.039999999 0.022639798 0.036118835 0.38593423 -0.23852047 0.14741376
0.039999999 0.024107315 0.035926707 0.38593423 -0.23852047 0.14741376
0.039999999 0.025580786 0.035733998 0.38593423 -0.23852047 0.14741376
0.039999999 0.02706027 0.035540696 0.38593423 -0.23852047 0.14741376
0.039999999 0.028545823 0.035346795 0.38593423 -0.23852047 0.14741376
0.039999999 0.0300375 0.035152294 0.38593423 -0.23852047 0.14741376
0.039999999 0.031535361 0.034957182 0.38593423 -0.23852047 0.14741376
0.039999999 0.033039462 0.034761455 0.38593423 -0.23852047 0.14741376
0.039999999 0.034549866 0.034565102 0.38593423 -0.23852047 0.14741376
0.039999999 0.036066629 0.034368124 0.38593423 -0.23852047 0.14741376
0.039999999 0.037589815 0.034170512 0.38593423 -0.23852047 0.14741376
0.039999999 0.039119486 0.033972256 0.38593423 -0.23852047 0.14741376
0.039999999 0.040655699 0.033773348 0.38593423 -0.23852047 0.14741376
0.039999999 0.04219852 0.033573788 0.38593423 -0.23852047 0.14741376
0.039999999 0.04374801 0.033373564 0.38593423 -0.23852047 0.14741376
0.039999999 0.045304239 0.033172671 0.38593423 -0.23852047 0.14741376
0.039999999 0.046867266 0.032971103 0.38593423 -0.23852047 0.14741376
0.039999999 0.04843716 0.032768846 0.38593423 -0.23852047 0.14741376
0.039999999 0.051597808 0.03236226 0.38593423 -0.23852047 0.14741376
0.039999999 0.053188697 0.032157909 0.38593423 -0.23852047 0.14741376
0.039999999 0.054786723 0.031952847 0.38593423 -0.23852047 0.14741376
0.039999999 0.056391954 0.031747065 0.38593423 -0.23852047 0.14741376
0.039999999 0.058004461 0.031540554 0.38593423 -0.23852047 0.14741376
0.039999999 0.059624314 0.031333305 0.38593423 -0.23852047 0.14741376
0.039999999 0.061251584 0.031125313 0.38593423 -0.23852047 0.14741376
0.039999999 0.06288635 0.03091657 0.38593423 -0.23852047 0.14741376
0.039999999 0.064528681 0.030707067 0.38593423 -0.23852047 0.14741376
0.039999999 0.06617865 0.030496795 0.38593423 -0.23852047 0.14741376
0.039999999 0.067836329 0.030285748 0.38593423 -0.23852047 0.14741376
0.039999999 0.06950181 0.030073917 0.38593423 -0.23852047 0.14741376
0.039999999 0.071175151 0.029861292 0.38593423 -0.23852047 0.14741376
0.039999999 0.072856449 0.029647864 0.38593423 -0.23852047 0.14741376
0.039999999 0.074545771 0.02943363 0.38593423 -0.23852047 0.14741376
0.039999999 0.076243199 0.029218575 0.38593423 -0.23852047 0.14741376
0.039999999 0.077948816 0.029002694 0.38593423 -0.23852047 0.14741376
0.039999999 0.079662703 0.028785976 0.38593423 -0.23852047 0.14741376
0.0011628933 0 0.02928235 0.38593423 -0.23852047 0.14741376
0 0.0036165311 0.028528662 0.38593423 -0.23852047 0.14741376
0.0080353469 0 0.030809011 0.38593423 -0.23852047 0.14741376
0.010287059 0 0.031309593 0.38593423 -0.23852047 0.14741376
0.014733491 0 0.032298662 0.38593423 -0.23852047 0.14741376
0.016928747 0 0.032787256 0.38593423 -0.23852047 0.14741376
0.019105716 0 0.033271972 0.38593423 -0.23852047 0.14741376
0.021264648 0 0.033752859 0.38593423 -0.23852047 0.14741376
0.0234058 0 0.034229971 0.38593423 -0.23852047 0.14741376
0.025529416 0 0.034703363 0.38593423 -0.23852047 0.14741376
0.02763574 0 0.035173085 0.38593423 -0.23852047 0.14741376
0.02972501 0 0.035639185 0.38593423 -0.23852047 0.14741376
0.031797457 0 0.036101721 0.38593423 -0.23852047 0.14741376
0.033853315 0 0.036560737 0.38593423 -0.23852047 0.14741376
0.035892807 0 0.037016276 0.38593423 -0.23852047 0.14741376
0.037916157 0 0.037468396 0.38593423 -0.23852047 0.14741376
0.039923579 0 0.037917133 0.38593423 -0.23852047 0.14741376
0.039999999 0.0013279365 0.037755411 0.38593423 -0.23852047 0.14741376
0.039999999 0.0027136987 0.037568994 0.38593423 -0.23852047 0.14741376
0.039999999 0.0041046534 0.037382059 0.38593423 -0.23852047 0.14741376
0.039999999 0.0055008484 0.037194602 0.38593423 -0.23852047 0.14741376
0.039999999 0.0069023324 0.037006617 0.38593423 -0.23852047 0.14741376
0.039999999 0.0083091538 0.036818098 0.38593423 -0.23852047 0.14741376
0.039999999 0.009721362 0.03662904 0.38593423 -0.23852047 0.14741376
0.039999999 0.011139008 0.036439437 0.38593423 -0.23852047 0.14741376
0.039999999 0.012562141 0.036249287 0.38593423 -0.23852047 0.14741376
0.039999999 0.013990812 0.036058582 0.38593423 -0.23852047 0.14741376
0.039999999 0.015425073 0.035867311 0.38593423 -0.23852047 0.14741376
0.039999999 0.016864976 0.035675477 0.38593423 -0.23852047 0.14741376
0.039999999 0.018310575 0.035483066 0.38593423 -0.23852047 0.14741376
0.039999999 0.01976192 0.035290077 0.38593423 -0.23852047 0.14741376
0.039999999 0.021219069 0.035096504 0.38593423 -0.23852047 0.14741376
0.039999999 0.022682073 0.034902338 0.38593423 -0.23852047 0.14741376
0.039999999 0.024150986 0.034707572 0.38593423 -0.23852047 0.14741376
0.039999999 0.025625868 0.034512207 0.38593423 -0.23852047 0.14741376
0.039999999 0.027106773 0.034316231 0.38593423 -0.23852047 0.14741376
0.039999999 0.028593756 0.034119636 0.38593423 -0.23852047 0.14741376
0.039999999 0.030086879 0.033922419 0.38593423 -0.23852047 0.14741376
0.039999999 0.031586196 0.033724573 0.38593423 -0.23852047 0.14741376
0.039999999 0.033091765 0.033526089 0.38593423 -0.23852047 0.14741376
0.039999999 0.034603648 0.033326961 0.38593423 -0.23852047 0.14741376
0.039999999 0.036121909 0.033127189 0.38593423 -0.23852047 0.14741376
0.039999999 0.037646599 0.032926757 0.38593423 -0.23852047 0.14741376
0.039999999 0.039177787 0.032725662 0.38593423 -0.23852047 0.14741376
0.039999999 0.040715531 0.032523897 0.38593423 -0.23852047 0.14741376
0.039999999 0.042259894 0.032321453 0.38593423 -0.23852047 0.14741376
0.039999999 0.043810945 0.032118328 0.38593423 -0.23852047 0.14741376
0 0.078194544 0.018559458 0.38593423 -0.23852047 0.14741376
0.039999999 0.046933357 0.031709995 0.38593423 -0.23852047 0.14741376
0.039999999 0.048504844 0.031504773 0.38593423 -0.23852047 0.14741376
0.039999999 0.050083283 0.031298839 0.38593423 -0.23852047 0.14741376
0.039999999 0.051668733 0.031092182 0.38593423 -0.23852047 0.14741376
0.039999999 0.053261265 0.030884799 0.38593423 -0.23852047 0.14741376
0.039999999 0.054860946 0.030676678 0.38593423 -0.23852047 0.14741376
0.039999999 0.056467846 0.030467814 0.38593423 -0.23852047 0.14741376
0.039999999 0.058082037 0.030258197 0.38593423 -0.23852047 0.14741376
0.039999999 0.059703588 0.030047821 0.38593423 -0.23852047 0.14741376
0.039999999 0.061332576 0.029836679 0.38593423 -0.23852047 0.14741376
0.039999999 0.062969074 0.029624758 0.38593423 -0.23852047 0.14741376
0.039999999 0.064613149 0.029412055 0.38593423 -0.23852047 0.14741376
0.039999999 0.066264875 0.029198561 0.38593423 -0.23852047 0.14741376
0.039999999 0.067924343 0.028984264 0.38593423 -0.23852047 0.14741376
0.039999999 0.069591612 0.028769158 0.38593423 -0.23852047 0.14741376
0.039999999 0.07126677 0.028553234 0.38593423 -0.23852047 0.14741376
0.039999999 0.072949894 0.028336486 0.38593423 -0.23852047 0.14741376
0.039999999 0.074641056 0.028118899 0.38593423 -0.23852047 0.14741376
0.039999999 0.076340348 0.02790047 0.38593423 -0.23852047 0.14741376
0.039999999 0.078047849 0.027681187 0.38593423 -0.23852047 0.14741376
0.039999999 0.079763636 0.027461043 0.38593423 -0.23852047 0.14741376
5.5511151e-17 0.00072148442 0.027654663 0.38593423 -0.23852047 0.14741376
0 0.0021680882 0.027454266 0.38593423 -0.23852047 0.14741376
0.0057690493 2.7755576e-17 0.02904957 0.38593423 -0.23852047 0.14741376
0.0080419797 0 0.029560061 0.38593423 -0.23852047 0.14741376
0.010295515 0 0.03006638 0.38593423 -0.23852047 0.14741376
0.0147455 0 0.031066738 0.38593423 -0.23852047 0.14741376
0.016942488 0 0.031560894 0.38593423 -0.23852047 0.14741376
0.019121157 0 0.032051109 0.38593423 -0.23852047 0.14741376
0.021281764 0 0.032537438 0.38593423 -0.23852047 0.14741376
0.023424562 0 0.033019938 0.38593423 -0.23852047 0.14741376
0.025549797 0 0.03349866 0.38593423 -0.23852047 0.14741376
0.027657712 0 0.03397366 0.38593423 -0.23852047 0.14741376
0.029748548 0 0.034444984 0.38593423 -0.23852047 0.14741376
0.031822536 0 0.034912691 0.38593423 -0.23852047 0.14741376
0.03387991 0 0.035376824 0.38593423 -0.23852047 0.14741376
0.035920892 0 0.035837431 0.38593423 -0.23852047 0.14741376
0.037945703 0 0.036294565 0.38593423 -0.23852047 0.14741376
0.039954569 0 0.036748271 0.38593423 -0.23852047 0.14741376
0.039999999 0.0013505338 0.036574546 0.38593423 -0.23852047 0.14741376
0.039999999 0.0027375426 0.036385756 0.38593423 -0.23852047 0.14741376
0.039999999 0.0041297534 0.036196433 0.38593423 -0.23852047 0.14741376
0.039999999 0.0055272137 0.036006574 0.38593423 -0.23852047 0.14741376
0.039999999 0.0069299727 0.035816167 0.38593423 -0.23852047 0.14741376
0.039999999 0.0083380789 0.035625208 0.38593423 -0.23852047 0.14741376
0.039999999 0.0097515825 0.035433691 0.38593423 -0.23852047 0.14741376
0.039999999 0.011170533 0.035241615 0.38593423 -0.23852047 0.14741376
0.039999999 0.01259498 0.035048969 0.38593423 -0.23852047 0.14741376
0.039999999 0.014024976 0.034855749 0.38593423 -0.23852047 0.14741376
0.039999999 0.015460573 0.034661952 0.38593423 -0.23852047 0.14741376
0.039999999 0.016901821 0.034467567 0.38593423 -0.23852047 0.14741376
0.039999999 0.018348776 0.034272589 0.38593423 -0.23852047 0.14741376
0.039999999 0.01980149 0.034077015 0.38593423 -0.23852047 0.14741376
0.039999999 0.021260016 0.033880834 0.38593423 -0.23852047 0.14741376
0.039999999 0.022724409 0.033684041 0.38593423 -0.23852047 0.14741376
0.039999999 0.024194723 0.033486634 0.38593423 -0.23852047 0.14741376
0.039999999 0.025671016 0.033288602 0.38593423 -0.23852047 0.14741376
0.039999999 0.027153345 0.03308994 0.38593423 -0.23852047 0.14741376
0.039999999 0.028641764 0.032890644 0.38593423 -0.23852047 0.14741376
0.039999999 0.030136332 0.032690704 0.38593423 -0.23852047 0.14741376
0.039999999 0.031637106 0.032490112 0.38593423 -0.23852047 0.14741376
0.039999999 0.033144146 0.032288864 0.38593423 -0.23852047 0.14741376
0.039999999 0.034657516 0.032086954 0.38593423 -0.23852047 0.14741376
0.039999999 0.036177266 0.031884372 0.38593423 -0.23852047 0.14741376
0.039999999 0.037703466 0.031681117 0.38593423 -0.23852047 0.14741376
0.039999999 0.039236177 0.031477176 0.38593423 -0.23852047 0.14741376
0.039999999 0.040775456 0.031272542 0.38593423 -0.23852047 0.14741376
0.039999999 0.042321365 0.031067209 0.38593423 -0.23852047 0.14741376
0.039999999 0.045433346 0.030654421 0.38593423 -0.23852047 0.14741376
0.039999999 0.046999548 0.03044695 0.38593423 -0.23852047 0.14741376
0.039999999 0.048572637 0.030238751 0.38593423 -0.23852047 0.14741376
0.039999999 0.050152689 0.030029815 0.38593423 -0.23852047 0.14741376
0.039999999 0.053333942 0.029609706 0.38593423 -0.23852047 0.14741376
0.039999999 0.05493528 0.029398518 0.38593423 -0.23852047 0.14741376
0.039999999 0.056543857 0.029186562 0.38593423 -0.23852047 0.14741376
0.039999999 0.058159735 0.028973831 0.38593423 -0.23852047 0.14741376
0.039999999 0.059782989 0.028760318 0.38593423 -0.23852047 0.14741376
0.039999999 0.061413698 0.028546011 0.38593423 -0.23852047 0.14741376
0.039999999 0.063051924 0.028330905 0.38593423 -0.23852047 0.14741376
0.039999999 0.06469775 0.028114991 0.38593423 -0.23852047 0.14741376
0.039999999 0.06635125 0.027898261 0.38593423 -0.23852047 0.14741376
0.039999999 0.068012491 0.027680706 0.38593423 -0.23852047 0.14741376
0.039999999 0.069681562 0.027462315 0.38593423 -0.23852047 0.14741376
0.039999999 0.071358532 0.027243081 0.38593423 -0.23852047 0.14741376
0.039999999 0.073043488 0.027022997 0.38593423 -0.23852047 0.14741376
0.039999999 0.074736506 0.026802052 0.38593423 -0.23852047 0.14741376
0.039999999 0.07643766 0.026580235 0.38593423 -0.23852047 0.14741376
0.039999999 0.078147046 0.026357539 0.38593423 -0.23852047 0.14741376
0.039999999 0.079864733 0.026133955 0.38593423 -0.23852047 0.14741376
0.0011648397 0 0.026747547 0.38593423 -0.23852047 0.14741376
0.0034793366 0 0.027272509 0.38593423 -0.23852047 0.14741376
0 0.0036226229 0.025976326 0.38593423 -0.23852047 0.14741376
0.0080486229 0 0.028309418 0.38593423 -0.23852047 0.14741376
0.010303983 0 0.028821489 0.38593423 -0.23852047 0.14741376
0 0.0080105532 0.025363602 0.38593423 -0.23852047 0.14741376
0.014757525 0 0.02983317 0.38593423 -0.23852047 0.14741376
0.016956247 0 0.030332899 0.38593423 -0.23852047 0.14741376
0.019136621 0 0.030828629 0.38593423 -0.23852047 0.14741376
0.021298904 0 0.031320415 0.38593423 -0.23852047 0.14741376
0.023443349 0 0.03180832 0.38593423 -0.23852047 0.14741376
0.025570204 0 0.032292388 0.38593423 -0.23852047 0.14741376
0.027679713 0 0.032772679 0.38593423 -0.23852047 0.14741376
0.029772116 0 0.033249244 0.38593423 -0.23852047 0.14741376
0.031847645 0 0.033722132 0.38593423 -0.23852047 0.14741376
0.033906534 0 0.0341914 0.38593423 -0.23852047 0.14741376
0.035949007 0 0.034657091 0.38593423 -0.23852047 0.14741376
0.037975289 0 0.035119254 0.38593423 -0.23852047 0.14741376
0.039985597 0 0.035577942 0.38593423 -0.23852047 0.14741376
0.039999999 0.0013731637 0.035391975 0.38593423 -0.23852047 0.14741376
0.039999999 0.002761421 0.035200812 0.38593423 -0.23852047 0.14741376
0.039999999 0.0041548894 0.035009094 0.38593423 -0.23852047 0.14741376
0.039999999 0.0055536176 0.03481682 0.38593423 -0.23852047 0.14741376
0.039999999 0.0069576534 0.034623984 0.38593423 -0.23852047 0.14741376
0.039999999 0.0083670467 0.034430578 0.38593423 -0.23852047 0.14741376
0.039999999 0.0097818458 0.034236599 0.38593423 -0.23852047 0.14741376
0.039999999 0.011202103 0.034042038 0.38593423 -0.23852047 0.14741376
0.039999999 0.012627867 0.033846892 0.38593423 -0.23852047 0.14741376
0.039999999 0.014059191 0.033651151 0.38593423 -0.23852047 0.14741376
0.039999999 0.015496125 0.033454813 0.38593423 -0.23852047 0.14741376
0.039999999 0.016938722 0.033257872 0.38593423 -0.23852047 0.14741376
0.039999999 0.018387035 0.03306032 0.38593423 -0.23852047 0.14741376
0.039999999 0.019841118 0.032862149 0.38593423 -0.23852047 0.14741376
0.039999999 0.021301024 0.032663353 0.38593423 -0.23852047 0.14741376
0.039999999 0.022766808 0.032463931 0.38593423 -0.23852047 0.14741376
0.039999999 0.024238525 0.032263868 0.38593423 -0.23852047 0.14741376
0.039999999 0.025716232 0.032063164 0.38593423 -0.23852047 0.14741376
0.039999999 0.027199985 0.031861812 0.38593423 -0.23852047 0.14741376
0.039999999 0.028689843 0.031659801 0.38593423 -0.23852047 0.14741376
0.039999999 0.03018586 0.031457126 0.38593423 -0.23852047 0.14741376
0.039999999 0.031688094 0.031253785 0.38593423 -0.23852047 0.14741376
0.039999999 0.033196609 0.031049764 0.38593423 -0.23852047 0.14741376
0.039999999 0.034711462 0.030845059 0.38593423 -0.23852047 0.14741376
0.039999999 0.036232714 0.030639665 0.38593423 -0.23852047 0.14741376
0.039999999 0.037760422 0.030433571 0.38593423 -0.23852047 0.14741376
0.039999999 0.039294653 0.030226773 0.38593423 -0.23852047 0.14741376
0.039999999 0.04083547 0.030019263 0.38593423 -0.23852047 0.14741376
0.039999999 0.043937102 0.029602073 0.38593423 -0.23852047 0.14741376
0.039999999 0.045498051 0.029392378 0.38593423 -0.23852047 0.14741376
0.039999999 0.047065839 0.029181942 0.38593423 -0.23852047 0.14741376
0.039999999 0.048640534 0.028970756 0.38593423 -0.23852047 0.14741376
0.039999999 0.050222203 0.028758811 0.38593423 -0.23852047 0.14741376
0.039999999 0.051810917 0.028546099 0.38593423 -0.23852047 0.14741376
0.039999999 0.053406738 0.028332613 0.38593423 -0.23852047 0.14741376
0.039999999 0.056619987 0.027903289 0.38593423 -0.23852047 0.14741376
0.039999999 0.058237556 0.027687432 0.38593423 -0.23852047 0.14741376
0.039999999 0.059862517 0.027470769 0.38593423 -0.23852047 0.14741376
0.039999999 0.061494946 0.027253291 0.38593423 -0.23852047 0.14741376
0.039999999 0.063134909 0.027034989 0.38593423 -0.23852047 0.14741376
0.039999999 0.064782485 0.026815852 0.38593423 -0.23852047 0.14741376
0.039999999 0.066437751 0.026595876 0.38593423 -0.23852047 0.14741376
0.039999999 0.068100788 0.02637505 0.38593423 -0.23852047 0.14741376
0.039999999 0.07145045 0.025930809 0.38593423 -0.23852047 0.14741376
0.039999999 0.073137239 0.025707377 0.38593423 -0.23852047 0.14741376
0.039999999 0.074832104 0.025483059 0.38593423 -0.23852047 0.14741376
0.039999999 0.076535136 0.025257844 0.38593423 -0.23852047 0.14741376
0.039999999 0.0782464 0.025031725 0.38593423 -0.23852047 0.14741376
0.039999999 0.079965994 0.024804689 0.38593423 -0.23852047 0.14741376
0.003482237 0 0.026008425 0.38593423 -0.23852047 0.14741376
0.005778627 0 0.026534921 0.38593423 -0.23852047 0.14741376
0.0080552734 2.7755576e-17 0.027057057 0.38593423 -0.23852047 0.14741376
0.010312461 0 0.027574899 0.38593423 -0.23852047 0.14741376
0.014769566 0 0.028597936 0.38593423 -0.23852047 0.14741376
0.016970024 0 0.029103255 0.38593423 -0.23852047 0.14741376
0.019152105 0 0.029604515 0.38593423 -0.23852047 0.14741376
0.021316065 0 0.030101778 0.38593423 -0.23852047 0.14741376
0.023462161 0 0.030595098 0.38593423 -0.23852047 0.14741376
0.025590638 0 0.031084528 0.38593423 -0.23852047 0.14741376
0.027701743 0 0.031570125 0.38593423 -0.23852047 0.14741376
0.029795716 0 0.032051943 0.38593423 -0.23852047 0.14741376
0.03187279 0 0.032530032 0.38593423 -0.23852047 0.14741376
0.033933196 0 0.033004444 0.38593423 -0.23852047 0.14741376
0.035977162 0 0.033475231 0.38593423 -0.23852047 0.14741376
0.038004912 0 0.033942439 0.38593423 -0.23852047 0.14741376
0.039999999 1.1491683e-05 0.034400672 0.38593423 -0.23852047 0.14741376
0.039999999 0.0013958265 0.034207687 0.38593423 -0.23852047 0.14741376
0.039999999 0.0027853341 0.034014139 0.38593423 -0.23852047 0.14741376
0.039999999 0.0041800626 0.033820018 0.38593423 -0.23852047 0.14741376
0.039999999 0.0055800597 0.033625327 0.38593423 -0.23852047 0.14741376
0.039999999 0.0069853743 0.033430051 0.38593423 -0.23852047 0.14741376
0.039999999 0.0083960565 0.03323419 0.38593423 -0.23852047 0.14741376
0.039999999 0.0098121548 0.033037737 0.38593423 -0.23852047 0.14741376
0.039999999 0.01123372 0.032840688 0.38593423 -0.23852047 0.14741376
0.039999999 0.012660803 0.032643031 0.38593423 -0.23852047 0.14741376
0.039999999 0.014093456 0.032444764 0.38593423 -0.23852047 0.14741376
0.039999999 0.015531729 0.032245878 0.38593423 -0.23852047 0.14741376
0.039999999 0.016975677 0.03204637 0.38593423 -0.23852047 0.14741376
0.039999999 0.018425349 0.031846233 0.38593423 -0.23852047 0.14741376
0.039999999 0.019880803 0.031645458 0.38593423 -0.23852047 0.14741376
0.039999999 0.021342093 0.031444043 0.38593423 -0.23852047 0.14741376
0.039999999 0.022809271 0.031241978 0.38593423 -0.23852047 0.14741376
0.039999999 0.024282394 0.031039255 0.38593423 -0.23852047 0.14741376
0.039999999 0.025761517 0.030835871 0.38593423 -0.23852047 0.14741376
0.039999999 0.027246699 0.030631816 0.38593423 -0.23852047 0.14741376
0.039999999 0.028737994 0.030427085 0.38593423 -0.23852047 0.14741376
0.039999999 0.030235462 0.030221671 0.38593423 -0.23852047 0.14741376
0.039999999 0.031739164 0.030015565 0.38593423 -0.23852047 0.14741376
0.039999999 0.033249151 0.029808763 0.38593423 -0.23852047 0.14741376
0.039999999 0.034765493 0.029601257 0.38593423 -0.23852047 0.14741376
0.039999999 0.036288243 0.029393038 0.38593423 -0.23852047 0.14741376
0.039999999 0.037817467 0.029184101 0.38593423 -0.23852047 0.14741376
0 0.071483456 0.015279425 0.38593423 -0.23852047 0.14741376
0.039999999 0.040895578 0.028764037 0.38593423 -0.23852047 0.14741376
0.039999999 0.04244459 0.028552897 0.38593423 -0.23852047 0.14741376
0.039999999 0.044000331 0.028341008 0.38593423 -0.23852047 0.14741376
0.039999999 0.045562856 0.028128361 0.38593423 -0.23852047 0.14741376
0.039999999 0.047132239 0.027914951 0.38593423 -0.23852047 0.14741376
0.039999999 0.048708539 0.027700767 0.38593423 -0.23852047 0.14741376
0.039999999 0.050291829 0.027485801 0.38593423 -0.23852047 0.14741376
0.039999999 0.051882174 0.027270047 0.38593423 -0.23852047 0.14741376
0.039999999 0.053479645 0.027053498 0.38593423 -0.23852047 0.14741376
0.039999999 0.05508431 0.02683614 0.38593423 -0.23852047 0.14741376
0.039999999 0.058315501 0.026398979 0.38593423 -0.23852047 0.14741376
0.039999999 0.059942171 0.026179155 0.38593423 -0.23852047 0.14741376
0.039999999 0.061576325 0.025958493 0.38593423 -0.23852047 0.14741376
0.039999999 0.063218027 0.025736984 0.38593423 -0.23852047 0.14741376
0.039999999 0.064867362 0.025514616 0.38593423 -0.23852047 0.14741376
0.039999999 0.066524401 0.025291381 0.38593423 -0.23852047 0.14741376
0.039999999 0.068189219 0.025067274 0.38593423 -0.23852047 0.14741376
0.039999999 0.069861896 0.024842281 0.38593423 -0.23852047 0.14741376
0.039999999 0.071542509 0.024616394 0.38593423 -0.23852047 0.14741376
0.039999999 0.073231138 0.024389604 0.38593423 -0.23852047 0.14741376
0.039999999 0.074927859 0.024161901 0.38593423 -0.23852047 0.14741376
0.039999999 0.07663276 0.023933277 0.38593423 -0.23852047 0.14741376
0.039999999 0.078345925 0.02370372 0.38593423 -0.23852047 0.14741376
0.0011667915 0 0.024205677 0.38593423 -0.23852047 0.14741376
0.0057834256 0 0.025274979 0.38593423 -0.23852047 0.14741376
0.0080619343 0 0.025802962 0.38593423 -0.23852047 0.14741376
0.010320952 0 0.026326589 0.38593423 -0.23852047 0.14741376
0.012560757 0 0.026845921 0.38593423 -0.23852047 0.14741376
0.014781623 0 0.027361017 0.38593423 -0.23852047 0.14741376
0.01698382 0 0.02787194 0.38593423 -0.23852047 0.14741376
0.01916761 0 0.028378747 0.38593423 -0.23852047 0.14741376
0.021333249 0 0.0288815 0.38593423 -0.23852047 0.14741376
0.023480996 0 0.029380253 0.38593423 -0.23852047 0.14741376
0.025611101 0 0.029875061 0.38593423 -0.23852047 0.14741376
0.027723802 0 0.030365979 0.38593423 -0.23852047 0.14741376
0.029819345 0 0.030853065 0.38593423 -0.23852047 0.14741376
0.031897966 0 0.031336367 0.38593423 -0.23852047 0.14741376
0.033959892 0 0.031815942 0.38593423 -0.23852047 0.14741376
0.036005352 0 0.032291837 0.38593423 -0.23852047 0.14741376
0.038034573 0 0.0327641 0.38593423 -0.23852047 0.14741376
0.039999999 3.2944765e-05 0.033217017 0.38593423 -0.23852047 0.14741376
0.039999999 0.0014185226 0.033021655 0.38593423 -0.23852047 0.14741376
