# .PCD v0.7 - Point Cloud Data file format
VERSION 0.7
FIELDS x y z vp_x vp_y vp_z
SIZE 4 4 4 4 4 4
TYPE F F F F F F
COUNT 1 1 1 1 1 1
WIDTH 747
HEIGHT 1
VIEWPOINT 0 0 0 1 0 0 0
POINTS 747
DATA ascii
0.039999999 0.045591775 0.02770287 0.83999997 0.039999999 0.02
0.039999999 0.046834446 0.027702728 0.83999997 0.039999999 0.02
0.039999999 0.048077155 0.027702557 0.83999997 0.039999999 0.02
0.039999999 0.049319897 0.027702358 0.83999997 0.039999999 0.02
0.039999999 0.050562687 0.027702129 0.83999997 0.039999999 0.02
0.039999999 0.051805526 0.027701873 0.83999997 0.039999999 0.02
0.039999999 0.053048421 0.027701588 0.83999997 0.039999999 0.02
0.039999999 0.054291382 0.027701275 0.83999997 0.039999999 0.02
0.039999999 0.055534411 0.027700933 0.83999997 0.039999999 0.02
0.039999999 0.056777515 0.027700562 0.83999997 0.039999999 0.02
0.039999999 0.0580207 0.027700163 0.83999997 0.039999999 0.02
0.039999999 0.059263971 0.027699735 0.83999997 0.039999999 0.02
0.039999999 0.060507335 0.027699281 0.83999997 0.039999999 0.02
0.039999999 0.061750799 0.027698796 0.83999997 0.039999999 0.02
0.039999999 0.062994368 0.027698282 0.83999997 0.039999999 0.02
0.039999999 0.064238049 0.02769774 0.83999997 0.039999999 0.02
0.039999999 0.065481842 0.02769717 0.83999997 0.039999999 0.02
0.039999999 0.066725761 0.027696572 0.83999997 0.039999999 0.02
0.039999999 0.067969806 0.027695945 0.83999997 0.039999999 0.02
0.039999999 0.069213994 0.027695289 0.83999997 0.039999999 0.02
0.039999999 0.070458315 0.027694605 0.83999997 0.039999999 0.02
0.039999999 0.071702793 0.027693892 0.83999997 0.039999999 0.02
0.039999999 0.072947413 0.027693151 0.83999997 0.039999999 0.02
0.039999999 0.074192196 0.027692379 0.83999997 0.039999999 0.02
0.039999999 0.075437151 0.02769158 0.83999997 0.039999999 0.02
0.039999999 0.07668227 0.027690753 0.83999997 0.039999999 0.02
0.039999999 0.077927567 0.027689898 0.83999997 0.039999999 0.02
0.039999999 0.079173051 0.027689014 0.83999997 0.039999999 0.02
0.039999999 0.00082843826 0.026444754 0.83999997 0.039999999 0.02
0.039999999 0.0020738721 0.02644573 0.83999997 0.039999999 0.02
0.039999999 0.0033191226 0.026446676 0.83999997 0.039999999 0.02
0.039999999 0.0045641959 0.02644759 0.83999997 0.039999999 0.02
0.039999999 0.005809098 0.026448473 0.83999997 0.039999999 0.02
0.039999999 0.0070538344 0.026449325 0.83999997 0.039999999 0.02
0.039999999 0.008298412 0.026450144 0.83999997 0.039999999 0.02
0.039999999 0.0095428368 0.026450932 0.83999997 0.039999999 0.02
0.039999999 0.010787115 0.026451688 0.83999997 0.039999999 0.02
0.039999999 0.012031251 0.026452415 0.83999997 0.039999999 0.02
0.039999999 0.013275252 0.026453108 0.83999997 0.039999999 0.02
0.039999999 0.014519124 0.026453769 0.83999997 0.039999999 0.02
0.039999999 0.015762873 0.026454398 0.83999997 0.039999999 0.02
0.039999999 0.017006505 0.026454998 0.83999997 0.039999999 0.02
0.039999999 0.018250026 0.026455564 0.83999997 0.039999999 0.02
0.039999999 0.019493442 0.026456099 0.83999997 0.039999999 0.02
0.039999999 0.02073676 0.026456604 0.83999997 0.039999999 0.02
0.039999999 0.021979984 0.026457077 0.83999997 0.039999999 0.02
0.039999999 0.023223123 0.026457516 0.83999997 0.039999999 0.02
0.039999999 0.024466177 0.026457926 0.83999997 0.039999999 0.02
0.039999999 0.02570916 0.026458304 0.83999997 0.039999999 0.02
0.039999999 0.026952073 0.026458651 0.83999997 0.039999999 0.02
0.039999999 0.028194921 0.026458966 0.83999997 0.039999999 0.02
0.039999999 0.029437715 0.026459249 0.83999997 0.039999999 0.02
0.039999999 0.030680455 0.0264595 0.83999997 0.039999999 0.02
0.039999999 0.031923153 0.026459722 0.83999997 0.039999999 0.02
0.039999999 0.033165812 0.02645991 0.83999997 0.039999999 0.02
0.039999999 0.034408435 0.026460068 0.83999997 0.039999999 0.02
0.039999999 0.035651032 0.026460193 0.83999997 0.039999999 0.02
0.039999999 0.03689361 0.026460288 0.83999997 0.039999999 0.02
0.039999999 0.038136173 0.026460351 0.83999997 0.039999999 0.02
0.039999999 0.039378725 0.026460383 0.83999997 0.039999999 0.02
0.039999999 0.040621273 0.026460383 0.83999997 0.039999999 0.02
0.039999999 0.041863829 0.026460351 0.83999997 0.039999999 0.02
0.039999999 0.043106388 0.026460288 0.83999997 0.039999999 0.02
0.039999999 0.044348966 0.026460193 0.83999997 0.039999999 0.02
0.039999999 0.045591563 0.026460068 0.83999997 0.039999999 0.02
0.039999999 0.046834189 0.02645991 0.83999997 0.039999999 0.02
0.039999999 0.048076846 0.026459722 0.83999997 0.039999999 0.02
0.039999999 0.049319543 0.0264595 0.83999997 0.039999999 0.02
0.039999999 0.050562285 0.026459249 0.83999997 0.039999999 0.02
0.039999999 0.051805079 0.026458966 0.83999997 0.039999999 0.02
0.039999999 0.053047929 0.026458651 0.83999997 0.039999999 0.02
0.039999999 0.054290839 0.026458304 0.83999997 0.039999999 0.02
0.039999999 0.055533823 0.026457926 0.83999997 0.039999999 0.02
0.039999999 0.056776877 0.026457516 0.83999997 0.039999999 0.02
0.039999999 0.058020014 0.026457077 0.83999997 0.039999999 0.02
0.039999999 0.059263241 0.026456604 0.83999997 0.039999999 0.02
0.039999999 0.060506556 0.026456099 0.83999997 0.039999999 0.02
0.039999999 0.061749972 0.026455564 0.83999997 0.039999999 0.02
0.039999999 0.062993497 0.026454998 0.83999997 0.039999999 0.02
0.039999999 0.064237125 0.026454398 0.83999997 0.039999999 0.02
0.039999999 0.065480873 0.026453769 0.83999997 0.039999999 0.02
0.039999999 0.066724747 0.026453108 0.83999997 0.039999999 0.02
0.039999999 0.067968749 0.026452415 0.83999997 0.039999999 0.02
0.039999999 0.069212884 0.026451688 0.83999997 0.039999999 0.02
0.039999999 0.07045716 0.026450932 0.83999997 0.039999999 0.02
0.039999999 0.071701586 0.026450144 0.83999997 0.039999999 0.02
0.039999999 0.072946168 0.026449325 0.83999997 0.039999999 0.02
0.039999999 0.0741909 0.026448473 0.83999997 0.039999999 0.02
0.039999999 0.075435802 0.02644759 0.83999997 0.039999999 0.02
0.039999999 0.076680876 0.026446676 0.83999997 0.039999999 0.02
0.039999999 0.077926129 0.02644573 0.83999997 0.039999999 0.02
0.039999999 0.079171561 0.026444754 0.83999997 0.039999999 0.02
0.039999999 0.0008299239 0.025200523 0.83999997 0.039999999 0.02
0.039999999 0.0020753103 0.025201594 0.83999997 0.039999999 0.02
0.039999999 0.0033205135 0.02520263 0.83999997 0.039999999 0.02
0.039999999 0.0045655393 0.025203632 0.83999997 0.039999999 0.02
0.039999999 0.005810394 0.025204599 0.83999997 0.039999999 0.02
0.039999999 0.0070550838 0.025205532 0.83999997 0.039999999 0.02
0.039999999 0.0082996143 0.02520643 0.83999997 0.039999999 0.02
0.039999999 0.0095439916 0.025207292 0.83999997 0.039999999 0.02
0.039999999 0.010788222 0.025208121 0.83999997 0.039999999 0.02
0.039999999 0.01203231 0.025208915 0.83999997 0.039999999 0.02
0.039999999 0.013276265 0.025209673 0.83999997 0.039999999 0.02
0.039999999 0.01452009 0.025210397 0.83999997 0.039999999 0.02
0.039999999 0.015763791 0.025211088 0.83999997 0.039999999 0.02
0.039999999 0.017007377 0.025211744 0.83999997 0.039999999 0.02
0.039999999 0.018250851 0.025212364 0.83999997 0.039999999 0.02
0.039999999 0.019494221 0.025212951 0.83999997 0.039999999 0.02
0.039999999 0.02073749 0.025213502 0.83999997 0.039999999 0.02
0.039999999 0.021980667 0.02521402 0.83999997 0.039999999 0.02
0.039999999 0.023223758 0.025214503 0.83999997 0.039999999 0.02
0.039999999 0.024466766 0.025214951 0.83999997 0.039999999 0.02
0.039999999 0.025709702 0.025215365 0.83999997 0.039999999 0.02
0.039999999 0.026952567 0.025215745 0.83999997 0.039999999 0.02
0.039999999 0.02819537 0.02521609 0.83999997 0.039999999 0.02
0.039999999 0.029438114 0.025216401 0.83999997 0.039999999 0.02
0.039999999 0.030680809 0.025216676 0.83999997 0.039999999 0.02
0.039999999 0.031923458 0.025216917 0.83999997 0.039999999 0.02
0.039999999 0.03316607 0.025217123 0.83999997 0.039999999 0.02
0.039999999 0.034408648 0.025217297 0.83999997 0.039999999 0.02
0.039999999 0.0356512 0.025217434 0.83999997 0.039999999 0.02
0.039999999 0.036893729 0.025217537 0.83999997 0.039999999 0.02
0.039999999 0.038136244 0.025217606 0.83999997 0.039999999 0.02
0.039999999 0.039378747 0.025217641 0.83999997 0.039999999 0.02
0.039999999 0.040621251 0.025217641 0.83999997 0.039999999 0.02
0.039999999 0.041863758 0.025217606 0.83999997 0.039999999 0.02
0.039999999 0.043106273 0.025217537 0.83999997 0.039999999 0.02
0.039999999 0.044348802 0.025217434 0.83999997 0.039999999 0.02
0.039999999 0.045591354 0.025217297 0.83999997 0.039999999 0.02
0.039999999 0.046833929 0.025217123 0.83999997 0.039999999 0.02
0.039999999 0.04807654 0.025216917 0.83999997 0.039999999 0.02
0.039999999 0.049319189 0.025216676 0.83999997 0.039999999 0.02
0.039999999 0.050561886 0.025216401 0.83999997 0.039999999 0.02
0.039999999 0.051804632 0.02521609 0.83999997 0.039999999 0.02
0.039999999 0.053047433 0.025215745 0.83999997 0.039999999 0.02
0.039999999 0.054290298 0.025215365 0.83999997 0.039999999 0.02
0.039999999 0.055533234 0.025214951 0.83999997 0.039999999 0.02
0.039999999 0.056776244 0.025214503 0.83999997 0.039999999 0.02
0.039999999 0.058019333 0.02521402 0.83999997 0.039999999 0.02
0.039999999 0.05926251 0.025213502 0.83999997 0.039999999 0.02
0.039999999 0.060505781 0.025212951 0.83999997 0.039999999 0.02
0.039999999 0.061749149 0.025212364 0.83999997 0.039999999 0.02
0.039999999 0.062992625 0.025211744 0.83999997 0.039999999 0.02
0.039999999 0.064236209 0.025211088 0.83999997 0.039999999 0.02
0.039999999 0.065479912 0.025210397 0.83999997 0.039999999 0.02
0.039999999 0.066723734 0.025209673 0.83999997 0.039999999 0.02
0.039999999 0.067967691 0.025208915 0.83999997 0.039999999 0.02
0.039999999 0.069211781 0.025208121 0.83999997 0.039999999 0.02
0.039999999 0.070456006 0.025207292 0.83999997 0.039999999 0.02
0.039999999 0.071700387 0.02520643 0.83999997 0.039999999 0.02
0.039999999 0.072944917 0.025205532 0.83999997 0.039999999 0.02
0.039999999 0.074189603 0.025204599 0.83999997 0.039999999 0.02
0.039999999 0.075434461 0.025203632 0.83999997 0.039999999 0.02
0.039999999 0.076679483 0.02520263 0.83999997 0.039999999 0.02
0.039999999 0.077924691 0.025201594 0.83999997 0.039999999 0.02
0.039999999 0.079170078 0.025200523 0.83999997 0.039999999 0.02
0.039999999 0.00083140947 0.023956321 0.83999997 0.039999999 0.02
0.039999999 0.0020767485 0.023957483 0.83999997 0.039999999 0.02
0.039999999 0.0033219045 0.02395861 0.83999997 0.039999999 0.02
0.039999999 0.0045668832 0.023959698 0.83999997 0.039999999 0.02
0.039999999 0.0058116904 0.023960751 0.83999997 0.039999999 0.02
0.039999999 0.0070563327 0.023961764 0.83999997 0.039999999 0.02
0.039999999 0.0083008157 0.023962738 0.83999997 0.039999999 0.02
0.039999999 0.0095451456 0.023963677 0.83999997 0.039999999 0.02
0.039999999 0.010789329 0.023964576 0.83999997 0.039999999 0.02
0.039999999 0.01203337 0.023965441 0.83999997 0.039999999 0.02
0.039999999 0.013277277 0.023966266 0.83999997 0.039999999 0.02
0.039999999 0.014521055 0.023967052 0.83999997 0.039999999 0.02
0.039999999 0.01576471 0.023967803 0.83999997 0.039999999 0.02
0.039999999 0.017008249 0.023968516 0.83999997 0.039999999 0.02
0.039999999 0.018251674 0.02396919 0.83999997 0.039999999 0.02
0.039999999 0.019494997 0.023969827 0.83999997 0.039999999 0.02
0.039999999 0.02073822 0.023970427 0.83999997 0.039999999 0.02
0.039999999 0.021981349 0.02397099 0.83999997 0.039999999 0.02
0.039999999 0.023224393 0.023971515 0.83999997 0.039999999 0.02
0.039999999 0.024467355 0.023972001 0.83999997 0.039999999 0.02
0.039999999 0.025710242 0.023972452 0.83999997 0.039999999 0.02
0.039999999 0.02695306 0.023972863 0.83999997 0.039999999 0.02
0.039999999 0.028195817 0.023973238 0.83999997 0.039999999 0.02
0.039999999 0.029438514 0.023973577 0.83999997 0.039999999 0.02
0.039999999 0.030681163 0.023973877 0.83999997 0.039999999 0.02
0.039999999 0.031923763 0.023974137 0.83999997 0.039999999 0.02
0.039999999 0.03316633 0.023974363 0.83999997 0.039999999 0.02
0.039999999 0.03440886 0.023974551 0.83999997 0.039999999 0.02
0.039999999 0.035651363 0.0239747 0.83999997 0.039999999 0.02
0.039999999 0.036893845 0.023974814 0.83999997 0.039999999 0.02
0.039999999 0.038136315 0.023974888 0.83999997 0.039999999 0.02
0.039999999 0.039378773 0.023974925 0.83999997 0.039999999 0.02
0.039999999 0.040621229 0.023974925 0.83999997 0.039999999 0.02
0.039999999 0.041863687 0.023974888 0.83999997 0.039999999 0.02
0.039999999 0.043106154 0.023974814 0.83999997 0.039999999 0.02
0.039999999 0.044348639 0.0239747 0.83999997 0.039999999 0.02
0.039999999 0.045591142 0.023974551 0.83999997 0.039999999 0.02
0.039999999 0.046833672 0.023974363 0.83999997 0.039999999 0.02
0.039999999 0.048076235 0.023974137 0.83999997 0.039999999 0.02
0.039999999 0.049318839 0.023973877 0.83999997 0.039999999 0.02
0.039999999 0.050561484 0.023973577 0.83999997 0.039999999 0.02
0.039999999 0.051804185 0.023973238 0.83999997 0.039999999 0.02
0.039999999 0.053046938 0.023972863 0.83999997 0.039999999 0.02
0.039999999 0.054289758 0.023972452 0.83999997 0.039999999 0.02
0.039999999 0.055532645 0.023972001 0.83999997 0.039999999 0.02
0.039999999 0.056775607 0.023971515 0.83999997 0.039999999 0.02
0.039999999 0.058018651 0.02397099 0.83999997 0.039999999 0.02
0.039999999 0.05926178 0.023970427 0.83999997 0.039999999 0.02
0.039999999 0.060505003 0.023969827 0.83999997 0.039999999 0.02
0.039999999 0.061748326 0.02396919 0.83999997 0.039999999 0.02
0.039999999 0.062991753 0.023968516 0.83999997 0.039999999 0.02
0.039999999 0.064235292 0.023967803 0.83999997 0.039999999 0.02
0.039999999 0.065478943 0.023967052 0.83999997 0.039999999 0.02
0.039999999 0.066722721 0.023966266 0.83999997 0.039999999 0.02
0.039999999 0.067966633 0.023965441 0.83999997 0.039999999 0.02
0.039999999 0.069210671 0.023964576 0.83999997 0.039999999 0.02
0.039999999 0.070454851 0.023963677 0.83999997 0.039999999 0.02
0.039999999 0.071699187 0.023962738 0.83999997 0.039999999 0.02
0.039999999 0.072943665 0.023961764 0.83999997 0.039999999 0.02
0.039999999 0.074188307 0.023960751 0.83999997 0.039999999 0.02
0.039999999 0.07543312 0.023959698 0.83999997 0.039999999 0.02
0.039999999 0.076678097 0.02395861 0.83999997 0.039999999 0.02
0.039999999 0.077923253 0.023957483 0.83999997 0.039999999 0.02
0.039999999 0.079168588 0.023956321 0.83999997 0.039999999 0.02
0.039999999 0.00083289505 0.022712136 0.83999997 0.039999999 0.02
0.039999999 0.002078187 0.022713393 0.83999997 0.039999999 0.02
0.039999999 0.0033232954 0.022714609 0.83999997 0.039999999 0.02
0.039999999 0.0045682266 0.022715785 0.83999997 0.039999999 0.02
0.039999999 0.0058129868 0.022716919 0.83999997 0.039999999 0.02
0.039999999 0.007057582 0.022718014 0.83999997 0.039999999 0.02
0.039999999 0.008302018 0.022719068 0.83999997 0.039999999 0.02
0.039999999 0.0095463004 0.02272008 0.83999997 0.039999999 0.02
0.039999999 0.010790437 0.022721052 0.83999997 0.039999999 0.02
0.039999999 0.012034431 0.022721985 0.83999997 0.039999999 0.02
0.039999999 0.013278291 0.022722876 0.83999997 0.039999999 0.02
0.039999999 0.014522021 0.022723727 0.83999997 0.039999999 0.02
0.039999999 0.015765628 0.022724537 0.83999997 0.039999999 0.02
0.039999999 0.017009119 0.022725306 0.83999997 0.039999999 0.02
0.039999999 0.018252499 0.022726035 0.83999997 0.039999999 0.02
0.039999999 0.019495774 0.022726724 0.83999997 0.039999999 0.02
0.039999999 0.02073895 0.02272737 0.83999997 0.039999999 0.02
0.039999999 0.021982033 0.022727977 0.83999997 0.039999999 0.02
0.039999999 0.023225028 0.022728546 0.83999997 0.039999999 0.02
0.039999999 0.024467943 0.022729071 0.83999997 0.039999999 0.02
0.039999999 0.025710784 0.022729557 0.83999997 0.039999999 0.02
0.039999999 0.026953556 0.022730002 0.83999997 0.039999999 0.02
0.039999999 0.028196264 0.022730406 0.83999997 0.039999999 0.02
0.039999999 0.029438915 0.022730771 0.83999997 0.039999999 0.02
0.039999999 0.030681515 0.022731096 0.83999997 0.039999999 0.02
0.039999999 0.031924073 0.022731379 0.83999997 0.039999999 0.02
0.039999999 0.033166587 0.022731621 0.83999997 0.039999999 0.02
0.039999999 0.034409072 0.022731824 0.83999997 0.039999999 0.02
0.039999999 0.035651527 0.022731986 0.83999997 0.039999999 0.02
0.039999999 0.036893964 0.022732107 0.83999997 0.039999999 0.02
0.039999999 0.038136385 0.022732187 0.83999997 0.039999999 0.02
0.039999999 0.039378796 0.022732228 0.83999997 0.039999999 0.02
0.039999999 0.040621206 0.022732228 0.83999997 0.039999999 0.02
0.039999999 0.041863617 0.022732187 0.83999997 0.039999999 0.02
0.039999999 0.043106038 0.022732107 0.83999997 0.039999999 0.02
0.039999999 0.044348471 0.022731986 0.83999997 0.039999999 0.02
0.039999999 0.04559093 0.022731824 0.83999997 0.039999999 0.02
0.039999999 0.046833411 0.022731621 0.83999997 0.039999999 0.02
0.039999999 0.048075929 0.022731379 0.83999997 0.039999999 0.02
0.039999999 0.049318485 0.022731096 0.83999997 0.039999999 0.02
0.039999999 0.050561085 0.022730771 0.83999997 0.039999999 0.02
0.039999999 0.051803738 0.022730406 0.83999997 0.039999999 0.02
0.039999999 0.053046446 0.022730002 0.83999997 0.039999999 0.02
0.039999999 0.054289214 0.022729557 0.83999997 0.039999999 0.02
0.039999999 0.055532057 0.022729071 0.83999997 0.039999999 0.02
0.039999999 0.05677497 0.022728546 0.83999997 0.039999999 0.02
0.039999999 0.058017965 0.022727977 0.83999997 0.039999999 0.02
0.039999999 0.05926105 0.02272737 0.83999997 0.039999999 0.02
0.039999999 0.060504228 0.022726724 0.83999997 0.039999999 0.02
0.039999999 0.061747503 0.022726035 0.83999997 0.039999999 0.02
0.039999999 0.062990882 0.022725306 0.83999997 0.039999999 0.02
0.039999999 0.064234369 0.022724537 0.83999997 0.039999999 0.02
0.039999999 0.065477982 0.022723727 0.83999997 0.039999999 0.02
0.039999999 0.066721708 0.022722876 0.83999997 0.039999999 0.02
0.039999999 0.067965567 0.022721985 0.83999997 0.039999999 0.02
0.039999999 0.069209561 0.022721052 0.83999997 0.039999999 0.02
0.039999999 0.070453696 0.02272008 0.83999997 0.039999999 0.02
0.039999999 0.07169798 0.022719068 0.83999997 0.039999999 0.02
0.039999999 0.072942421 0.022718014 0.83999997 0.039999999 0.02
0.039999999 0.074187011 0.022716919 0.83999997 0.039999999 0.02
0.039999999 0.075431772 0.022715785 0.83999997 0.039999999 0.02
0.039999999 0.076676704 0.022714609 0.83999997 0.039999999 0.02
0.039999999 0.077921815 0.022713393 0.83999997 0.039999999 0.02
0.039999999 0.079167105 0.022712136 0.83999997 0.039999999 0.02
0.039999999 0.00083438063 0.021467965 0.83999997 0.039999999 0.02
0.039999999 0.0020796251 0.021469316 0.83999997 0.039999999 0.02
0.039999999 0.0033246863 0.021470621 0.83999997 0.039999999 0.02
0.039999999 0.0045695705 0.021471884 0.83999997 0.039999999 0.02
0.039999999 0.0058142832 0.021473102 0.83999997 0.039999999 0.02
0.039999999 0.0070588309 0.021474278 0.83999997 0.039999999 0.02
0.039999999 0.0083032195 0.02147541 0.83999997 0.039999999 0.02
0.039999999 0.0095474552 0.021476498 0.83999997 0.039999999 0.02
0.039999999 0.010791544 0.021477543 0.83999997 0.039999999 0.02
0.039999999 0.012035491 0.021478543 0.83999997 0.039999999 0.02
0.039999999 0.013279303 0.0214795 0.83999997 0.039999999 0.02
0.039999999 0.014522986 0.021480413 0.83999997 0.039999999 0.02
0.039999999 0.015766548 0.021481283 0.83999997 0.039999999 0.02
0.039999999 0.01700999 0.02148211 0.83999997 0.039999999 0.02
0.039999999 0.018253323 0.021482892 0.83999997 0.039999999 0.02
0.039999999 0.019496551 0.021483632 0.83999997 0.039999999 0.02
0.039999999 0.02073968 0.021484328 0.83999997 0.039999999 0.02
0.039999999 0.021982716 0.02148498 0.83999997 0.039999999 0.02
0.039999999 0.023225665 0.021485589 0.83999997 0.039999999 0.02
0.039999999 0.024468532 0.021486154 0.83999997 0.039999999 0.02
0.039999999 0.025711326 0.021486675 0.83999997 0.039999999 0.02
0.039999999 0.026954049 0.021487154 0.83999997 0.039999999 0.02
0.039999999 0.028196711 0.021487588 0.83999997 0.039999999 0.02
0.039999999 0.029439315 0.021487979 0.83999997 0.039999999 0.02
0.039999999 0.030681869 0.021488328 0.83999997 0.039999999 0.02
0.039999999 0.031924378 0.021488631 0.83999997 0.039999999 0.02
0.039999999 0.033166844 0.021488892 0.83999997 0.039999999 0.02
0.039999999 0.034409285 0.02148911 0.83999997 0.039999999 0.02
0.039999999 0.035651691 0.021489283 0.83999997 0.039999999 0.02
0.039999999 0.036894079 0.021489413 0.83999997 0.039999999 0.02
0.039999999 0.038136456 0.021489501 0.83999997 0.039999999 0.02
0.039999999 0.039378818 0.021489544 0.83999997 0.039999999 0.02
0.039999999 0.04062118 0.021489544 0.83999997 0.039999999 0.02
0.039999999 0.041863546 0.021489501 0.83999997 0.039999999 0.02
0.039999999 0.043105919 0.021489413 0.83999997 0.039999999 0.02
0.039999999 0.044348307 0.021489283 0.83999997 0.039999999 0.02
0.039999999 0.045590717 0.02148911 0.83999997 0.039999999 0.02
0.039999999 0.046833154 0.021488892 0.83999997 0.039999999 0.02
0.039999999 0.048075624 0.021488631 0.83999997 0.039999999 0.02
0.039999999 0.049318131 0.021488328 0.83999997 0.039999999 0.02
0.039999999 0.050560687 0.021487979 0.83999997 0.039999999 0.02
0.039999999 0.051803291 0.021487588 0.83999997 0.039999999 0.02
0.039999999 0.053045951 0.021487154 0.83999997 0.039999999 0.02
0.039999999 0.054288674 0.021486675 0.83999997 0.039999999 0.02
0.039999999 0.055531468 0.021486154 0.83999997 0.039999999 0.02
0.039999999 0.056774337 0.021485589 0.83999997 0.039999999 0.02
0.039999999 0.058017284 0.02148498 0.83999997 0.039999999 0.02
0.039999999 0.05926032 0.021484328 0.83999997 0.039999999 0.02
0.039999999 0.060503449 0.021483632 0.83999997 0.039999999 0.02
0.039999999 0.061746676 0.021482892 0.83999997 0.039999999 0.02
0.039999999 0.06299001 0.02148211 0.83999997 0.039999999 0.02
0.039999999 0.064233452 0.021481283 0.83999997 0.039999999 0.02
0.039999999 0.065477014 0.021480413 0.83999997 0.039999999 0.02
0.039999999 0.066720694 0.0214795 0.83999997 0.039999999 0.02
0.039999999 0.067964509 0.021478543 0.83999997 0.039999999 0.02
0.039999999 0.069208458 0.021477543 0.83999997 0.039999999 0.02
0.039999999 0.070452549 0.021476498 0.83999997 0.039999999 0.02
0.039999999 0.071696781 0.02147541 0.83999997 0.039999999 0.02
0.039999999 0.072941169 0.021474278 0.83999997 0.039999999 0.02
0.039999999 0.074185714 0.021473102 0.83999997 0.039999999 0.02
0.039999999 0.07543043 0.021471884 0.83999997 0.039999999 0.02
0.039999999 0.076675311 0.021470621 0.83999997 0.039999999 0.02
0.039999999 0.077920377 0.021469316 0.83999997 0.039999999 0.02
0.039999999 0.079165623 0.021467965 0.83999997 0.039999999 0.02
0.039999999 0.0008358662 0.020223802 0.83999997 0.039999999 0.02
0.039999999 0.0020810633 0.020225246 0.83999997 0.039999999 0.02
0.039999999 0.0033260772 0.020226641 0.83999997 0.039999999 0.02
0.039999999 0.004570914 0.020227991 0.83999997 0.039999999 0.02
0.039999999 0.0058155796 0.020229293 0.83999997 0.039999999 0.02
0.039999999 0.0070600798 0.02023055 0.83999997 0.039999999 0.02
0.039999999 0.0083044209 0.020231759 0.83999997 0.039999999 0.02
0.039999999 0.0095486091 0.020232921 0.83999997 0.039999999 0.02
0.039999999 0.01079265 0.020234039 0.83999997 0.039999999 0.02
0.039999999 0.012036551 0.020235108 0.83999997 0.039999999 0.02
0.039999999 0.013280316 0.020236131 0.83999997 0.039999999 0.02
0.039999999 0.014523952 0.020237107 0.83999997 0.039999999 0.02
0.039999999 0.015767466 0.020238038 0.83999997 0.039999999 0.02
0.039999999 0.017010862 0.020238921 0.83999997 0.039999999 0.02
0.039999999 0.018254148 0.020239757 0.83999997 0.039999999 0.02
0.039999999 0.019497328 0.020240547 0.83999997 0.039999999 0.02
0.039999999 0.02074041 0.020241292 0.83999997 0.039999999 0.02
0.039999999 0.021983398 0.020241989 0.83999997 0.039999999 0.02
0.039999999 0.0232263 0.020242639 0.83999997 0.039999999 0.02
0.039999999 0.02446912 0.020243244 0.83999997 0.039999999 0.02
0.039999999 0.025711866 0.020243801 0.83999997 0.039999999 0.02
0.039999999 0.026954545 0.020244312 0.83999997 0.039999999 0.02
0.039999999 0.028197158 0.020244777 0.83999997 0.039999999 0.02
0.039999999 0.029439716 0.020245194 0.83999997 0.039999999 0.02
0.039999999 0.030682221 0.020245567 0.83999997 0.039999999 0.02
0.039999999 0.031924684 0.020245893 0.83999997 0.039999999 0.02
0.039999999 0.033167105 0.02024617 0.83999997 0.039999999 0.02
0.039999999 0.034409493 0.020246403 0.83999997 0.039999999 0.02
0.039999999 0.035651859 0.02024659 0.83999997 0.039999999 0.02
0.039999999 0.036894199 0.020246729 0.83999997 0.039999999 0.02
0.039999999 0.038136527 0.020246822 0.83999997 0.039999999 0.02
0.039999999 0.039378844 0.020246867 0.83999997 0.039999999 0.02
0.039999999 0.040621158 0.020246867 0.83999997 0.039999999 0.02
0.039999999 0.041863475 0.020246822 0.83999997 0.039999999 0.02
0.039999999 0.0431058 0.020246729 0.83999997 0.039999999 0.02
0.039999999 0.044348143 0.02024659 0.83999997 0.039999999 0.02
0.039999999 0.045590505 0.020246403 0.83999997 0.039999999 0.02
0.039999999 0.046832893 0.02024617 0.83999997 0.039999999 0.02
0.039999999 0.048075318 0.020245893 0.83999997 0.039999999 0.02
0.039999999 0.049317777 0.020245567 0.83999997 0.039999999 0.02
0.039999999 0.050560284 0.020245194 0.83999997 0.039999999 0.02
0.039999999 0.051802844 0.020244777 0.83999997 0.039999999 0.02
0.039999999 0.053045455 0.020244312 0.83999997 0.039999999 0.02
0.039999999 0.054288134 0.020243801 0.83999997 0.039999999 0.02
0.039999999 0.05553088 0.020243244 0.83999997 0.039999999 0.02
0.039999999 0.0567737 0.020242639 0.83999997 0.039999999 0.02
0.039999999 0.058016602 0.020241989 0.83999997 0.039999999 0.02
0.039999999 0.05925959 0.020241292 0.83999997 0.039999999 0.02
0.039999999 0.060502671 0.020240547 0.83999997 0.039999999 0.02
0.039999999 0.061745852 0.020239757 0.83999997 0.039999999 0.02
0.039999999 0.062989138 0.020238921 0.83999997 0.039999999 0.02
0.039999999 0.064232536 0.020238038 0.83999997 0.039999999 0.02
0.039999999 0.065476045 0.020237107 0.83999997 0.039999999 0.02
0.039999999 0.066719681 0.020236131 0.83999997 0.039999999 0.02
0.039999999 0.067963451 0.020235108 0.83999997 0.039999999 0.02
0.039999999 0.069207348 0.020234039 0.83999997 0.039999999 0.02
0.039999999 0.070451394 0.020232921 0.83999997 0.039999999 0.02
0.039999999 0.071695581 0.020231759 0.83999997 0.039999999 0.02
0.039999999 0.072939917 0.02023055 0.83999997 0.039999999 0.02
0.039999999 0.074184418 0.020229293 0.83999997 0.039999999 0.02
0.039999999 0.075429089 0.020227991 0.83999997 0.039999999 0.02
0.039999999 0.076673925 0.020226641 0.83999997 0.039999999 0.02
0.039999999 0.077918939 0.020225246 0.83999997 0.039999999 0.02
0.039999999 0.079164132 0.020223802 0.83999997 0.039999999 0.02
0.039999999 0.00083735172 0.018979641 0.83999997 0.039999999 0.02
0.039999999 0.0020825015 0.018981175 0.83999997 0.039999999 0.02
0.039999999 0.0033274682 0.018982662 0.83999997 0.039999999 0.02
0.039999999 0.0045722574 0.018984098 0.83999997 0.039999999 0.02
0.039999999 0.005816876 0.018985486 0.83999997 0.039999999 0.02
0.039999999 0.0070613287 0.018986823 0.83999997 0.039999999 0.02
0.039999999 0.0083056232 0.01898811 0.83999997 0.039999999 0.02
0.039999999 0.009549764 0.018989349 0.83999997 0.039999999 0.02
0.039999999 0.010793758 0.018990535 0.83999997 0.039999999 0.02
0.039999999 0.012037611 0.018991675 0.83999997 0.039999999 0.02
0.039999999 0.013281329 0.018992763 0.83999997 0.039999999 0.02
0.039999999 0.014524918 0.018993802 0.83999997 0.039999999 0.02
0.039999999 0.015768385 0.018994793 0.83999997 0.039999999 0.02
0.039999999 0.017011734 0.018995734 0.83999997 0.039999999 0.02
0.039999999 0.018254971 0.018996624 0.83999997 0.039999999 0.02
0.039999999 0.019498104 0.018997464 0.83999997 0.039999999 0.02
0.039999999 0.020741139 0.018998256 0.83999997 0.039999999 0.02
0.039999999 0.021984082 0.018998999 0.83999997 0.039999999 0.02
0.039999999 0.023226935 0.018999692 0.83999997 0.039999999 0.02
0.039999999 0.024469709 0.019000335 0.83999997 0.039999999 0.02
0.039999999 0.025712408 0.019000929 0.83999997 0.039999999 0.02
0.039999999 0.026955038 0.019001473 0.83999997 0.039999999 0.02
0.039999999 0.028197605 0.019001966 0.83999997 0.039999999 0.02
0.039999999 0.029440116 0.019002412 0.83999997 0.039999999 0.02
0.039999999 0.030682575 0.019002808 0.83999997 0.039999999 0.02
0.039999999 0.031924989 0.019003155 0.83999997 0.039999999 0.02
0.039999999 0.033167362 0.019003451 0.83999997 0.039999999 0.02
0.039999999 0.034409706 0.019003699 0.83999997 0.039999999 0.02
0.039999999 0.035652023 0.019003896 0.83999997 0.039999999 0.02
0.039999999 0.036894318 0.019004045 0.83999997 0.039999999 0.02
0.039999999 0.038136594 0.019004144 0.83999997 0.039999999 0.02
0.039999999 0.039378867 0.019004192 0.83999997 0.039999999 0.02
0.039999999 0.040621135 0.019004192 0.83999997 0.039999999 0.02
0.039999999 0.041863404 0.019004144 0.83999997 0.039999999 0.02
0.039999999 0.043105684 0.019004045 0.83999997 0.039999999 0.02
0.039999999 0.044347979 0.019003896 0.83999997 0.039999999 0.02
0.039999999 0.045590293 0.019003699 0.83999997 0.039999999 0.02
0.039999999 0.046832636 0.019003451 0.83999997 0.039999999 0.02
0.039999999 0.048075013 0.019003155 0.83999997 0.039999999 0.02
0.039999999 0.049317427 0.019002808 0.83999997 0.039999999 0.02
0.039999999 0.050559886 0.019002412 0.83999997 0.039999999 0.02
0.039999999 0.051802393 0.019001966 0.83999997 0.039999999 0.02
0.039999999 0.053044964 0.019001473 0.83999997 0.039999999 0.02
0.039999999 0.05428759 0.019000929 0.83999997 0.039999999 0.02
0.039999999 0.055530291 0.019000335 0.83999997 0.039999999 0.02
0.039999999 0.056773063 0.018999692 0.83999997 0.039999999 0.02
0.039999999 0.05801592 0.018998999 0.83999997 0.039999999 0.02
0.039999999 0.05925886 0.018998256 0.83999997 0.039999999 0.02
0.039999999 0.060501896 0.018997464 0.83999997 0.039999999 0.02
0.039999999 0.061745029 0.018996624 0.83999997 0.039999999 0.02
0.039999999 0.062988266 0.018995734 0.83999997 0.039999999 0.02
0.039999999 0.064231619 0.018994793 0.83999997 0.039999999 0.02
0.039999999 0.065475084 0.018993802 0.83999997 0.039999999 0.02
0.039999999 0.066718668 0.018992763 0.83999997 0.039999999 0.02
0.039999999 0.067962386 0.018991675 0.83999997 0.039999999 0.02
0.039999999 0.069206245 0.018990535 0.83999997 0.039999999 0.02
0.039999999 0.070450239 0.018989349 0.83999997 0.039999999 0.02
0.039999999 0.071694374 0.01898811 0.83999997 0.039999999 0.02
0.039999999 0.072938673 0.018986823 0.83999997 0.039999999 0.02
0.039999999 0.074183121 0.018985486 0.83999997 0.039999999 0.02
0.039999999 0.075427741 0.018984098 0.83999997 0.039999999 0.02
0.039999999 0.076672532 0.018982662 0.83999997 0.039999999 0.02
0.039999999 0.077917501 0.018981175 0.83999997 0.039999999 0.02
0.039999999 0.07916265 0.018979641 0.83999997 0.039999999 0.02
0.039999999 0.0008388373 0.017735472 0.83999997 0.039999999 0.02
0.039999999 0.0020839397 0.017737102 0.83999997 0.039999999 0.02
0.039999999 0.0033288591 0.017738678 0.83999997 0.039999999 0.02
0.039999999 0.0045736013 0.017740201 0.83999997 0.039999999 0.02
0.039999999 0.0058181719 0.017741673 0.83999997 0.039999999 0.02
0.039999999 0.0070625781 0.01774309 0.83999997 0.039999999 0.02
0.039999999 0.0083068246 0.017744455 0.83999997 0.039999999 0.02
0.039999999 0.0095509188 0.017745769 0.83999997 0.039999999 0.02
0.039999999 0.010794865 0.01774703 0.83999997 0.039999999 0.02
0.039999999 0.012038671 0.017748237 0.83999997 0.039999999 0.02
0.039999999 0.013282342 0.017749391 0.83999997 0.039999999 0.02
0.039999999 0.014525884 0.017750494 0.83999997 0.039999999 0.02
0.039999999 0.015769303 0.017751543 0.83999997 0.039999999 0.02
0.039999999 0.017012605 0.017752541 0.83999997 0.039999999 0.02
0.039999999 0.018255796 0.017753486 0.83999997 0.039999999 0.02
0.039999999 0.019498883 0.017754378 0.83999997 0.039999999 0.02
0.039999999 0.020741869 0.017755218 0.83999997 0.039999999 0.02
0.039999999 0.021984763 0.017756004 0.83999997 0.039999999 0.02
0.039999999 0.023227571 0.01775674 0.83999997 0.039999999 0.02
0.039999999 0.024470298 0.017757421 0.83999997 0.039999999 0.02
0.039999999 0.02571295 0.017758051 0.83999997 0.039999999 0.02
0.039999999 0.026955532 0.017758628 0.83999997 0.039999999 0.02
0.039999999 0.028198052 0.017759152 0.83999997 0.039999999 0.02
0.039999999 0.029440515 0.017759625 0.83999997 0.039999999 0.02
0.039999999 0.030682927 0.017760044 0.83999997 0.039999999 0.02
0.039999999 0.031925295 0.017760411 0.83999997 0.039999999 0.02
0.039999999 0.033167623 0.017760726 0.83999997 0.039999999 0.02
0.039999999 0.034409918 0.017760988 0.83999997 0.039999999 0.02
0.039999999 0.035652187 0.017761197 0.83999997 0.039999999 0.02
0.039999999 0.036894433 0.017761355 0.83999997 0.039999999 0.02
0.039999999 0.038136665 0.01776146 0.83999997 0.039999999 0.02
0.039999999 0.039378889 0.017761512 0.83999997 0.039999999 0.02
0.039999999 0.040621109 0.017761512 0.83999997 0.039999999 0.02
0.039999999 0.041863333 0.01776146 0.83999997 0.039999999 0.02
0.039999999 0.043105565 0.017761355 0.83999997 0.039999999 0.02
0.039999999 0.044347815 0.017761197 0.83999997 0.039999999 0.02
0.039999999 0.04559008 0.017760988 0.83999997 0.039999999 0.02
0.039999999 0.046832379 0.017760726 0.83999997 0.039999999 0.02
0.039999999 0.048074704 0.017760411 0.83999997 0.039999999 0.02
0.039999999 0.049317073 0.017760044 0.83999997 0.039999999 0.02
0.039999999 0.050559483 0.017759625 0.83999997 0.039999999 0.02
0.039999999 0.051801946 0.017759152 0.83999997 0.039999999 0.02
0.039999999 0.053044468 0.017758628 0.83999997 0.039999999 0.02
0.039999999 0.05428705 0.017758051 0.83999997 0.039999999 0.02
0.039999999 0.055529702 0.017757421 0.83999997 0.039999999 0.02
0.039999999 0.056772429 0.01775674 0.83999997 0.039999999 0.02
0.039999999 0.058015235 0.017756004 0.83999997 0.039999999 0.02
0.039999999 0.059258129 0.017755218 0.83999997 0.039999999 0.02
0.039999999 0.060501117 0.017754378 0.83999997 0.039999999 0.02
0.039999999 0.061744206 0.017753486 0.83999997 0.039999999 0.02
0.039999999 0.062987395 0.017752541 0.83999997 0.039999999 0.02
0.039999999 0.064230695 0.017751543 0.83999997 0.039999999 0.02
0.039999999 0.065474115 0.017750494 0.83999997 0.039999999 0.02
0.039999999 0.066717654 0.017749391 0.83999997 0.039999999 0.02
0.039999999 0.067961328 0.017748237 0.83999997 0.039999999 0.02
0.039999999 0.069205135 0.01774703 0.83999997 0.039999999 0.02
0.039999999 0.070449084 0.017745769 0.83999997 0.039999999 0.02
0.039999999 0.071693175 0.017744455 0.83999997 0.039999999 0.02
0.039999999 0.072937422 0.01774309 0.83999997 0.039999999 0.02
0.039999999 0.074181825 0.017741673 0.83999997 0.039999999 0.02
0.039999999 0.0754264 0.017740201 0.83999997 0.039999999 0.02
0.039999999 0.076671138 0.017738678 0.83999997 0.039999999 0.02
0.039999999 0.077916063 0.017737102 0.83999997 0.039999999 0.02
0.039999999 0.07916116 0.017735472 0.83999997 0.039999999 0.02
0.039999999 0.00084032287 0.016491296 0.83999997 0.039999999 0.02
0.039999999 0.0020853779 0.016493017 0.83999997 0.039999999 0.02
0.039999999 0.0033302498 0.016494684 0.83999997 0.039999999 0.02
0.039999999 0.0045749447 0.016496293 0.83999997 0.039999999 0.02
0.039999999 0.0058194683 0.016497849 0.83999997 0.039999999 0.02
0.039999999 0.007063827 0.016499348 0.83999997 0.039999999 0.02
0.039999999 0.0083080269 0.016500792 0.83999997 0.039999999 0.02
0.039999999 0.0095520727 0.016502179 0.83999997 0.039999999 0.02
0.039999999 0.010795972 0.016503511 0.83999997 0.039999999 0.02
0.039999999 0.012039731 0.016504787 0.83999997 0.039999999 0.02
0.039999999 0.013283355 0.016506009 0.83999997 0.039999999 0.02
0.039999999 0.01452685 0.016507175 0.83999997 0.039999999 0.02
0.039999999 0.015770221 0.016508283 0.83999997 0.039999999 0.02
0.039999999 0.017013475 0.016509337 0.83999997 0.039999999 0.02
0.039999999 0.01825662 0.016510336 0.83999997 0.039999999 0.02
0.039999999 0.01949966 0.01651128 0.83999997 0.039999999 0.02
0.039999999 0.020742599 0.016512167 0.83999997 0.039999999 0.02
0.039999999 0.021985447 0.016512999 0.83999997 0.039999999 0.02
0.039999999 0.023228208 0.016513776 0.83999997 0.039999999 0.02
0.039999999 0.024470886 0.016514497 0.83999997 0.039999999 0.02
0.039999999 0.02571349 0.016515162 0.83999997 0.039999999 0.02
0.039999999 0.026956027 0.016515773 0.83999997 0.039999999 0.02
0.039999999 0.028198499 0.016516326 0.83999997 0.039999999 0.02
0.039999999 0.029440915 0.016516825 0.83999997 0.039999999 0.02
0.039999999 0.030683281 0.016517268 0.83999997 0.039999999 0.02
0.039999999 0.0319256 0.016517658 0.83999997 0.039999999 0.02
0.039999999 0.03316788 0.016517989 0.83999997 0.039999999 0.02
0.039999999 0.03441013 0.016518267 0.83999997 0.039999999 0.02
0.039999999 0.035652351 0.016518489 0.83999997 0.039999999 0.02
0.039999999 0.036894552 0.016518654 0.83999997 0.039999999 0.02
0.039999999 0.038136736 0.016518766 0.83999997 0.039999999 0.02
0.039999999 0.039378915 0.016518822 0.83999997 0.039999999 0.02
0.039999999 0.040621087 0.016518822 0.83999997 0.039999999 0.02
0.039999999 0.041863263 0.016518766 0.83999997 0.039999999 0.02
0.039999999 0.04310545 0.016518654 0.83999997 0.039999999 0.02
0.039999999 0.044347648 0.016518489 0.83999997 0.039999999 0.02
0.039999999 0.045589872 0.016518267 0.83999997 0.039999999 0.02
0.039999999 0.046832118 0.016517989 0.83999997 0.039999999 0.02
0.039999999 0.048074398 0.016517658 0.83999997 0.039999999 0.02
0.039999999 0.049316719 0.016517268 0.83999997 0.039999999 0.02
0.039999999 0.050559085 0.016516825 0.83999997 0.039999999 0.02
0.039999999 0.051801499 0.016516326 0.83999997 0.039999999 0.02
0.039999999 0.053043973 0.016515773 0.83999997 0.039999999 0.02
0.039999999 0.05428651 0.016515162 0.83999997 0.039999999 0.02
0.039999999 0.055529114 0.016514497 0.83999997 0.039999999 0.02
0.039999999 0.056771792 0.016513776 0.83999997 0.039999999 0.02
0.039999999 0.058014553 0.016512999 0.83999997 0.039999999 0.02
0.039999999 0.059257399 0.016512167 0.83999997 0.039999999 0.02
0.039999999 0.060500342 0.01651128 0.83999997 0.039999999 0.02
0.039999999 0.061743379 0.016510336 0.83999997 0.039999999 0.02
0.039999999 0.062986523 0.016509337 0.83999997 0.039999999 0.02
0.039999999 0.064229779 0.016508283 0.83999997 0.039999999 0.02
0.039999999 0.065473154 0.016507175 0.83999997 0.039999999 0.02
0.039999999 0.066716649 0.016506009 0.83999997 0.039999999 0.02
0.039999999 0.06796027 0.016504787 0.83999997 0.039999999 0.02
0.039999999 0.069204025 0.016503511 0.83999997 0.039999999 0.02
0.039999999 0.070447929 0.016502179 0.83999997 0.039999999 0.02
0.039999999 0.071691975 0.016500792 0.83999997 0.039999999 0.02
0.039999999 0.07293617 0.016499348 0.83999997 0.039999999 0.02
0.039999999 0.074180529 0.016497849 0.83999997 0.039999999 0.02
0.039999999 0.075425059 0.016496293 0.83999997 0.039999999 0.02
0.039999999 0.076669753 0.016494684 0.83999997 0.039999999 0.02
0.039999999 0.077914625 0.016493017 0.83999997 0.039999999 0.02
0.039999999 0.079159677 0.016491296 0.83999997 0.039999999 0.02
0.039999999 0.00084180845 0.015247101 0.83999997 0.039999999 0.02
0.039999999 0.0020868161 0.015248916 0.83999997 0.039999999 0.02
0.039999999 0.0033316407 0.015250673 0.83999997 0.039999999 0.02
0.039999999 0.0045762882 0.015252369 0.83999997 0.039999999 0.02
0.039999999 0.0058207647 0.015254009 0.83999997 0.039999999 0.02
0.039999999 0.0070650759 0.015255588 0.83999997 0.039999999 0.02
0.039999999 0.0083092283 0.01525711 0.83999997 0.039999999 0.02
0.039999999 0.0095532276 0.015258573 0.83999997 0.039999999 0.02
0.039999999 0.01079708 0.015259976 0.83999997 0.039999999 0.02
0.039999999 0.012040791 0.015261322 0.83999997 0.039999999 0.02
0.039999999 0.013284368 0.015262609 0.83999997 0.039999999 0.02
0.039999999 0.014527815 0.015263837 0.83999997 0.039999999 0.02
0.039999999 0.015771139 0.015265007 0.83999997 0.039999999 0.02
0.039999999 0.017014347 0.015266118 0.83999997 0.039999999 0.02
0.039999999 0.018257445 0.01526717 0.83999997 0.039999999 0.02
0.039999999 0.019500436 0.015268165 0.83999997 0.039999999 0.02
0.039999999 0.020743329 0.0152691 0.83999997 0.039999999 0.02
0.039999999 0.021986129 0.015269977 0.83999997 0.039999999 0.02
0.039999999 0.023228843 0.015270795 0.83999997 0.039999999 0.02
0.039999999 0.024471475 0.015271555 0.83999997 0.039999999 0.02
0.039999999 0.025714032 0.015272257 0.83999997 0.039999999 0.02
0.039999999 0.026956521 0.0152729 0.83999997 0.039999999 0.02
0.039999999 0.028198946 0.015273484 0.83999997 0.039999999 0.02
0.039999999 0.029441316 0.01527401 0.83999997 0.039999999 0.02
0.039999999 0.030683633 0.015274477 0.83999997 0.039999999 0.02
0.039999999 0.031925905 0.015274887 0.83999997 0.039999999 0.02
0.039999999 0.033168141 0.015275237 0.83999997 0.039999999 0.02
0.039999999 0.034410343 0.01527553 0.83999997 0.039999999 0.02
0.039999999 0.035652515 0.015275763 0.83999997 0.039999999 0.02
0.039999999 0.036894668 0.015275938 0.83999997 0.039999999 0.02
0.039999999 0.038136806 0.015276056 0.83999997 0.039999999 0.02
0.039999999 0.039378937 0.015276114 0.83999997 0.039999999 0.02
0.039999999 0.040621065 0.015276114 0.83999997 0.039999999 0.02
0.039999999 0.041863192 0.015276056 0.83999997 0.039999999 0.02
0.039999999 0.04310533 0.015275938 0.83999997 0.039999999 0.02
0.039999999 0.044347484 0.015275763 0.83999997 0.039999999 0.02
0.039999999 0.045589659 0.01527553 0.83999997 0.039999999 0.02
0.039999999 0.046831861 0.015275237 0.83999997 0.039999999 0.02
0.039999999 0.048074093 0.015274887 0.83999997 0.039999999 0.02
0.039999999 0.049316365 0.015274477 0.83999997 0.039999999 0.02
0.039999999 0.050558683 0.01527401 0.83999997 0.039999999 0.02
0.039999999 0.051801052 0.015273484 0.83999997 0.039999999 0.02
0.039999999 0.053043477 0.0152729 0.83999997 0.039999999 0.02
0.039999999 0.054285966 0.015272257 0.83999997 0.039999999 0.02
0.039999999 0.055528525 0.015271555 0.83999997 0.039999999 0.02
0.039999999 0.056771159 0.015270795 0.83999997 0.039999999 0.02
0.039999999 0.058013871 0.015269977 0.83999997 0.039999999 0.02
0.039999999 0.059256669 0.0152691 0.83999997 0.039999999 0.02
0.039999999 0.060499564 0.015268165 0.83999997 0.039999999 0.02
0.039999999 0.061742555 0.01526717 0.83999997 0.039999999 0.02
0.039999999 0.062985651 0.015266118 0.83999997 0.039999999 0.02
0.039999999 0.064228863 0.015265007 0.83999997 0.039999999 0.02
0.039999999 0.065472186 0.015263837 0.83999997 0.039999999 0.02
0.039999999 0.066715635 0.015262609 0.83999997 0.039999999 0.02
0.039999999 0.067959212 0.015261322 0.83999997 0.039999999 0.02
0.039999999 0.069202922 0.015259976 0.83999997 0.039999999 0.02
0.039999999 0.070446774 0.015258573 0.83999997 0.039999999 0.02
0.039999999 0.071690768 0.01525711 0.83999997 0.039999999 0.02
0.039999999 0.072934926 0.015255588 0.83999997 0.039999999 0.02
0.039999999 0.074179232 0.015254009 0.83999997 0.039999999 0.02
0.039999999 0.07542371 0.015252369 0.83999997 0.039999999 0.02
0.039999999 0.076668359 0.015250673 0.83999997 0.039999999 0.02
0.039999999 0.077913187 0.015248916 0.83999997 0.039999999 0.02
0.039999999 0.079158194 0.015247101 0.83999997 0.039999999 0.02
0.039999999 0.00084329408 0.014002884 0.83999997 0.039999999 0.02
0.039999999 0.0020882546 0.014004792 0.83999997 0.039999999 0.02
0.039999999 0.0033330319 0.014006638 0.83999997 0.039999999 0.02
0.039999999 0.0045776321 0.014008422 0.83999997 0.039999999 0.02
0.039999999 0.0058220611 0.014010145 0.83999997 0.039999999 0.02
0.039999999 0.0070663253 0.014011806 0.83999997 0.039999999 0.02
0.039999999 0.0083104298 0.014013406 0.83999997 0.039999999 0.02
0.039999999 0.0095543824 0.014014944 0.83999997 0.039999999 0.02
0.039999999 0.010798187 0.01401642 0.83999997 0.039999999 0.02
0.039999999 0.012041851 0.014017833 0.83999997 0.039999999 0.02
0.039999999 0.013285381 0.014019187 0.83999997 0.039999999 0.02
0.039999999 0.014528781 0.014020477 0.83999997 0.039999999 0.02
0.039999999 0.015772058 0.014021707 0.83999997 0.039999999 0.02
0.039999999 0.017015219 0.014022876 0.83999997 0.039999999 0.02
0.039999999 0.018258268 0.014023982 0.83999997 0.039999999 0.02
0.039999999 0.019501213 0.014025027 0.83999997 0.039999999 0.02
0.039999999 0.020744059 0.01402601 0.83999997 0.039999999 0.02
0.039999999 0.021986812 0.014026931 0.83999997 0.039999999 0.02
0.039999999 0.023229478 0.014027792 0.83999997 0.039999999 0.02
0.039999999 0.024472063 0.014028591 0.83999997 0.039999999 0.02
0.039999999 0.025714574 0.014029329 0.83999997 0.039999999 0.02
0.039999999 0.026957015 0.014030004 0.83999997 0.039999999 0.02
0.039999999 0.028199393 0.014030619 0.83999997 0.039999999 0.02
0.039999999 0.029441716 0.014031172 0.83999997 0.039999999 0.02
0.039999999 0.030683987 0.014031664 0.83999997 0.039999999 0.02
0.039999999 0.031926211 0.014032093 0.83999997 0.039999999 0.02
0.039999999 0.033168398 0.014032462 0.83999997 0.039999999 0.02
0.039999999 0.034410555 0.014032769 0.83999997 0.039999999 0.02
0.039999999 0.035652682 0.014033015 0.83999997 0.039999999 0.02
0.039999999 0.036894787 0.014033199 0.83999997 0.039999999 0.02
0.039999999 0.038136877 0.014033322 0.83999997 0.039999999 0.02
0.039999999 0.03937896 0.014033384 0.83999997 0.039999999 0.02
0.039999999 0.040621039 0.014033384 0.83999997 0.039999999 0.02
0.039999999 0.041863121 0.014033322 0.83999997 0.039999999 0.02
0.039999999 0.043105215 0.014033199 0.83999997 0.039999999 0.02
0.039999999 0.04434732 0.014033015 0.83999997 0.039999999 0.02
0.039999999 0.045589447 0.014032769 0.83999997 0.039999999 0.02
0.039999999 0.0468316 0.014032462 0.83999997 0.039999999 0.02
0.039999999 0.048073787 0.014032093 0.83999997 0.039999999 0.02
0.039999999 0.049316015 0.014031664 0.83999997 0.039999999 0.02
0.039999999 0.050558284 0.014031172 0.83999997 0.039999999 0.02
0.039999999 0.051800605 0.014030619 0.83999997 0.039999999 0.02
0.039999999 0.053042985 0.014030004 0.83999997 0.039999999 0.02
0.039999999 0.054285426 0.014029329 0.83999997 0.039999999 0.02
0.039999999 0.055527937 0.014028591 0.83999997 0.039999999 0.02
0.039999999 0.056770522 0.014027792 0.83999997 0.039999999 0.02
0.039999999 0.05801319 0.014026931 0.83999997 0.039999999 0.02
0.039999999 0.059255943 0.01402601 0.83999997 0.039999999 0.02
0.039999999 0.060498785 0.014025027 0.83999997 0.039999999 0.02
0.039999999 0.061741732 0.014023982 0.83999997 0.039999999 0.02
0.039999999 0.062984779 0.014022876 0.83999997 0.039999999 0.02
0.039999999 0.064227939 0.014021707 0.83999997 0.039999999 0.02
0.039999999 0.065471217 0.014020477 0.83999997 0.039999999 0.02
0.039999999 0.066714622 0.014019187 0.83999997 0.039999999 0.02
0.039999999 0.067958146 0.014017833 0.83999997 0.039999999 0.02
0.039999999 0.069201812 0.01401642 0.83999997 0.039999999 0.02
0.039999999 0.07044562 0.014014944 0.83999997 0.039999999 0.02
0.039999999 0.071689568 0.014013406 0.83999997 0.039999999 0.02
0.039999999 0.072933674 0.014011806 0.83999997 0.039999999 0.02
0.039999999 0.074177936 0.014010145 0.83999997 0.039999999 0.02
0.039999999 0.075422369 0.014008422 0.83999997 0.039999999 0.02
0.039999999 0.076666966 0.014006638 0.83999997 0.039999999 0.02
0.039999999 0.077911742 0.014004792 0.83999997 0.039999999 0.02
0.039999999 0.079156704 0.014002884 0.83999997 0.039999999 0.02
0.039999999 0.00084477972 0.012758638 0.83999997 0.039999999 0.02
0.039999999 0.0020896927 0.012760639 0.83999997 0.039999999 0.02
0.039999999 0.0033344228 0.012762575 0.83999997 0.039999999 0.02
0.039999999 0.0045789755 0.012764446 0.83999997 0.039999999 0.02
0.039999999 0.0058233575 0.012766253 0.83999997 0.039999999 0.02
0.039999999 0.0070675742 0.012767996 0.83999997 0.039999999 0.02
0.039999999 0.0083116321 0.012769673 0.83999997 0.039999999 0.02
0.039999999 0.0095555363 0.012771285 0.83999997 0.039999999 0.02
0.039999999 0.010799294 0.012772833 0.83999997 0.039999999 0.02
0.039999999 0.012042912 0.012774317 0.83999997 0.039999999 0.02
0.039999999 0.013286393 0.012775735 0.83999997 0.039999999 0.02
0.039999999 0.014529747 0.012777089 0.83999997 0.039999999 0.02
0.039999999 0.015772976 0.012778379 0.83999997 0.039999999 0.02
0.039999999 0.01701609 0.012779604 0.83999997 0.039999999 0.02
0.039999999 0.018259093 0.012780764 0.83999997 0.039999999 0.02
