# .PCD v0.7 - Point Cloud Data file format
VERSION 0.7
FIELDS x y z
SIZE 4 4 4
TYPE F F F
COUNT 1 1 1
WIDTH 1322
HEIGHT 1
VIEWPOINT 0 0 0 1 0 0 0
POINTS 1322
DATA ascii
-0.066295452 -0.021801153 0.67500001
-0.065036424 -0.021801153 0.67500001
-0.063871875 -0.021833451 0.67600006
-0.062610984 -0.021833451 0.67600006
-0.061350089 -0.021833451 0.67600006
-0.060089193 -0.021833451 0.67600006
-0.058828302 -0.021833451 0.67600006
-0.057567406 -0.021833451 0.67600006
-0.056473095 -0.021898048 0.67800003
-0.055289898 -0.021930346 0.67900002
-0.054102972 -0.021962643 0.68000001
-0.052834619 -0.021962643 0.68000001
-0.05171793 -0.022027239 0.68200004
-0.050297908 -0.021962643 0.68000001
-0.049173757 -0.022027239 0.68200004
-0.047761198 -0.021962643 0.68000001
-0.046492841 -0.021962643 0.68000001
-0.045224484 -0.021962643 0.68000001
-0.043956131 -0.021962643 0.68000001
-0.042687774 -0.021962643 0.68000001
-0.041358508 -0.021930346 0.67900002
-0.040032972 -0.021898048 0.67800003
-0.038653988 -0.021833451 0.67600006
-0.037393093 -0.021833451 0.67600006
-0.036132202 -0.021833451 0.67600006
-0.034871306 -0.021833451 0.67600006
-0.033610411 -0.021833451 0.67600006
-0.032349516 -0.021833451 0.67600006
-0.031180598 -0.021898048 0.67800003
-0.029915974 -0.021898048 0.67800003
-0.028566832 -0.021833451 0.67600006
-0.027305936 -0.021833451 0.67600006
-0.026045043 -0.021833451 0.67600006
-0.024784148 -0.021833451 0.67600006
-0.02345366 -0.021768855 0.67400002
-0.022196496 -0.021768855 0.67400002
-0.020939332 -0.021768855 0.67400002
-0.019682167 -0.021768855 0.67400002
-0.018425003 -0.021768855 0.67400002
-0.01716784 -0.021768855 0.67400002
-0.015910676 -0.021768855 0.67400002
-0.014489521 -0.023545245 0.72900003
-0.013111758 -0.023512948 0.72800004
-0.011721581 -0.023448352 0.72600001
-0.010353145 -0.023416054 0.72500002
-0.0090008546 -0.023416054 0.72500002
-0.0076485644 -0.023416054 0.72500002
-0.0062962733 -0.023416054 0.72500002
-0.0049439827 -0.023416054 0.72500002
-0.0035916918 -0.023416054 0.72500002
-0.0022394012 -0.023416054 0.72500002
-0.0008871106 -0.023416054 0.72500002
0.00046518006 -0.023416054 0.72500002
0.0018174706 -0.023416054 0.72500002
0.0031741334 -0.023448352 0.72600001
0.0045220521 -0.023416054 0.72500002
0.0058743428 -0.023416054 0.72500002
0.0072266334 -0.023416054 0.72500002
0.0085789235 -0.023416054 0.72500002
0.009944913 -0.023448352 0.72600001
0.011299068 -0.023448352 0.72600001
0.012635795 -0.023416054 0.72500002
0.01400738 -0.023448352 0.72600001
0.015340377 -0.023416054 0.72500002
0.016692666 -0.023416054 0.72500002
0.018044958 -0.023416054 0.72500002
0.019397248 -0.023416054 0.72500002
0.0206923 -0.023351457 0.72300005
0.022040861 -0.023351457 0.72300005
0.02345412 -0.023416054 0.72500002
0.02480641 -0.023416054 0.72500002
0.026158702 -0.023416054 0.72500002
0.027510991 -0.023416054 0.72500002
0.02878366 -0.023351457 0.72300005
0.030132221 -0.023351457 0.72300005
0.031437237 -0.023319159 0.72200006
0.032783933 -0.023319159 0.72200006
0.033988811 -0.023222266 0.71900004
0.035231639 -0.023157669 0.71700001
0.036569007 -0.023157669 0.71700001
0.037906375 -0.023157669 0.71700001
0.039243743 -0.023157669 0.71700001
0.040581111 -0.023157669 0.71700001
0.041918483 -0.023157669 0.71700001
0.043195523 -0.023125371 0.71600002
0.044531025 -0.023125371 0.71600002
0.04567435 -0.023028478 0.71300006
0.046872407 -0.022963881 0.71100003
0.048130795 -0.022931583 0.71000004
0.04924614 -0.02283469 0.70700002
0.050421819 -0.022770094 0.70500004
0.051736802 -0.022770094 0.70500004
0.05320229 -0.02283469 0.70700002
0.054521006 -0.02283469 0.70700002
0.055839725 -0.02283469 0.70700002
0.05715844 -0.02283469 0.70700002
0.058725294 -0.022931583 0.71000004
0.060049605 -0.022931583 0.71000004
0.061460357 -0.022963881 0.71100003
0.062786534 -0.022963881 0.71100003
0.064112708 -0.022963881 0.71100003
0.065715007 -0.023060776 0.71400005
0.067234583 -0.023125371 0.71600002
0.068570092 -0.023125371 0.71600002
0.070003226 -0.023157669 0.71700001
0.071539588 -0.023222266 0.71900004
0.072982058 -0.023254564 0.72000003
0.074325018 -0.023254564 0.72000003
0.075878173 -0.023319159 0.72200006
0.077224866 -0.023319159 0.72200006
0.078680389 -0.023351457 0.72300005
0.080361016 -0.023448352 0.72600001
0.081715174 -0.023448352 0.72600001
0.083298177 -0.023512948 0.72800004
0.08465606 -0.023512948 0.72800004
0.086132094 -0.023545245 0.72900003
0.087491848 -0.023545245 0.72900003
0.088851601 -0.023545245 0.72900003
0.090087608 -0.023512948 0.72800004
0.091445491 -0.023512948 0.72800004
0.092803381 -0.023512948 0.72800004
0.094161265 -0.023512948 0.72800004
0.095519148 -0.023512948 0.72800004
0.096877038 -0.023512948 0.72800004
0.098234922 -0.023512948 0.72800004
0.099729612 -0.023545245 0.72900003
-0.098658592 -0.022158304 0.72800004
-0.097300708 -0.022158304 0.72800004
-0.095679246 -0.022097429 0.72600001
-0.094325088 -0.022097429 0.72600001
-0.092970937 -0.022097429 0.72600001
-0.09161678 -0.022097429 0.72600001
-0.090262622 -0.022097429 0.72600001
-0.088908471 -0.022097429 0.72600001
-0.087554313 -0.022097429 0.72600001
-0.086200155 -0.022097429 0.72600001
-0.079470083 -0.020697316 0.68000001
-0.078201726 -0.020697316 0.68000001
-0.076933376 -0.020697316 0.68000001
-0.075665019 -0.020697316 0.68000001
-0.074177846 -0.020636443 0.67800003
-0.072698139 -0.020575568 0.67600006
-0.071331568 -0.020545131 0.67500001
-0.070072539 -0.020545131 0.67500001
-0.06881351 -0.020545131 0.67500001
-0.067554481 -0.020545131 0.67500001
-0.066295452 -0.020545131 0.67500001
-0.065036424 -0.020545131 0.67500001
-0.063871875 -0.020575568 0.67600006
-0.062518366 -0.020545131 0.67500001
-0.061259333 -0.020545131 0.67500001
-0.060000304 -0.020545131 0.67500001
-0.058741275 -0.020545131 0.67500001
-0.057482246 -0.020545131 0.67500001
-0.056223217 -0.020545131 0.67500001
-0.054964188 -0.020545131 0.67500001
-0.05370516 -0.020545131 0.67500001
-0.052523829 -0.020575568 0.67600006
-0.051414598 -0.020636443 0.67800003
-0.050002038 -0.020575568 0.67600006
-0.048885345 -0.020636443 0.67800003
-0.047620721 -0.020636443 0.67800003
-0.046356097 -0.020636443 0.67800003
-0.045091473 -0.020636443 0.67800003
-0.043826848 -0.020636443 0.67800003
-0.04256222 -0.020636443 0.67800003
-0.041175779 -0.020575568 0.67600006
-0.039855838 -0.020545131 0.67500001
-0.038539626 -0.020514693 0.67400002
-0.037282463 -0.020514693 0.67400002
-0.036025301 -0.020514693 0.67400002
-0.034768134 -0.020514693 0.67400002
-0.03356069 -0.020545131 0.67500001
-0.032301661 -0.020545131 0.67500001
-0.031088622 -0.020575568 0.67600006
-0.029783601 -0.020545131 0.67500001
-0.028566832 -0.020575568 0.67600006
-0.027265543 -0.020545131 0.67500001
-0.025967987 -0.020514693 0.67400002
-0.024710823 -0.020514693 0.67400002
-0.023384063 -0.02045382 0.67200005
-0.022130629 -0.02045382 0.67200005
-0.020877196 -0.02045382 0.67200005
-0.019623762 -0.02045382 0.67200005
-0.018370328 -0.02045382 0.67200005
-0.017116895 -0.02045382 0.67200005
-0.015863461 -0.02045382 0.67200005
-0.014489521 -0.02218874 0.72900003
-0.013075737 -0.022097429 0.72600001
-0.011721581 -0.022097429 0.72600001
-0.010353145 -0.022066992 0.72500002
-0.0090008546 -0.022066992 0.72500002
-0.0076274644 -0.022006117 0.72300005
-0.0062789042 -0.022006117 0.72300005
-0.0049303439 -0.022006117 0.72300005
-0.0035817837 -0.022006117 0.72300005
-0.0022332235 -0.022006117 0.72300005
-0.00088466337 -0.022006117 0.72300005
0.00046389681 -0.022006117 0.72300005
0.001812457 -0.022006117 0.72300005
0.0031610171 -0.022006117 0.72300005
0.0045095775 -0.022006117 0.72300005
0.0058500348 -0.021975679 0.72200006
0.00719673 -0.021975679 0.72200006
0.0085552586 -0.022006117 0.72300005
0.0099038184 -0.022006117 0.72300005
0.011252379 -0.022006117 0.72300005
0.012600939 -0.022006117 0.72300005
0.013988086 -0.022066992 0.72500002
0.015340377 -0.022066992 0.72500002
0.01664662 -0.022006117 0.72300005
0.017995179 -0.022006117 0.72300005
0.019343739 -0.022006117 0.72300005
0.0206923 -0.022006117 0.72300005
0.022010373 -0.021975679 0.72200006
0.02338942 -0.022006117 0.72300005
0.02473798 -0.022006117 0.72300005
0.026086541 -0.022006117 0.72300005
0.027435102 -0.022006117 0.72300005
0.02878366 -0.022006117 0.72300005
0.030090543 -0.021975679 0.72200006
0.031437237 -0.021975679 0.72200006
0.032647714 -0.021884369 0.71900004
0.033894267 -0.021823494 0.71700001
0.035231639 -0.021823494 0.71700001
0.036569007 -0.021823494 0.71700001
0.037747767 -0.021732183 0.71400005
0.039189011 -0.021793056 0.71600002
0.040524516 -0.021793056 0.71600002
0.041860018 -0.021793056 0.71600002
0.043074861 -0.021732183 0.71400005
0.044406634 -0.021732183 0.71400005
0.04567435 -0.021701746 0.71300006
0.046872407 -0.021640871 0.71100003
0.048130795 -0.021610433 0.71000004
0.049315795 -0.021549558 0.708
0.050564855 -0.021519123 0.70700002
0.051883575 -0.021519123 0.70700002
0.053277541 -0.021549558 0.708
0.054598123 -0.021549558 0.708
0.055918705 -0.021549558 0.708
0.057239287 -0.021549558 0.708
0.058725294 -0.021610433 0.71000004
0.060049605 -0.021610433 0.71000004
0.061460357 -0.021640871 0.71100003
0.062786534 -0.021640871 0.71100003
0.064112708 -0.021640871 0.71100003
0.06562297 -0.021701746 0.71300006
0.066952877 -0.021701746 0.71300006
0.068570092 -0.021793056 0.71600002
0.069905594 -0.021793056 0.71600002
0.071340598 -0.021823494 0.71700001
0.072677962 -0.021823494 0.71700001
0.07422179 -0.021884369 0.71900004
0.075562887 -0.021884369 0.71900004
0.077010944 -0.021914806 0.72000003
0.078680389 -0.022006117 0.72300005
0.080028944 -0.022006117 0.72300005
0.081602618 -0.022066992 0.72500002
0.082954906 -0.022066992 0.72500002
0.084423482 -0.022097429 0.72600001
0.08577764 -0.022097429 0.72600001
0.087371834 -0.022158304 0.72800004
0.088485949 -0.022097429 0.72600001
0.089840107 -0.022097429 0.72600001
0.091194265 -0.022097429 0.72600001
0.092548415 -0.022097429 0.72600001
0.093902573 -0.022097429 0.72600001
0.095256731 -0.022097429 0.72600001
0.096610881 -0.022097429 0.72600001
0.097965039 -0.022097429 0.72600001
0.099319197 -0.022097429 0.72600001
-0.098658592 -0.02080366 0.72800004
-0.097300708 -0.02080366 0.72800004
-0.095679246 -0.020746507 0.72600001
-0.094325088 -0.020746507 0.72600001
-0.092970937 -0.020746507 0.72600001
-0.09161678 -0.020746507 0.72600001
-0.090262622 -0.020746507 0.72600001
-0.088908471 -0.020746507 0.72600001
-0.087433711 -0.02071793 0.72500002
-0.086081423 -0.02071793 0.72500002
-0.079470083 -0.019431988 0.68000001
-0.078201726 -0.019431988 0.68000001
-0.076933376 -0.019431988 0.68000001
-0.075553745 -0.019403413 0.67900002
-0.074177846 -0.019374836 0.67800003
-0.072590597 -0.019289106 0.67500001
-0.071225889 -0.019260529 0.67400002
-0.06996873 -0.019260529 0.67400002
-0.068711564 -0.019260529 0.67400002
-0.067454398 -0.019260529 0.67400002
-0.066197231 -0.019260529 0.67400002
-0.065036424 -0.019289106 0.67500001
-0.063777395 -0.019289106 0.67500001
-0.062610984 -0.019317683 0.67600006
-0.061259333 -0.019289106 0.67500001
-0.060000304 -0.019289106 0.67500001
-0.058741275 -0.019289106 0.67500001
-0.057482246 -0.019289106 0.67500001
-0.056139924 -0.019260529 0.67400002
-0.054882757 -0.019260529 0.67400002
-0.05370516 -0.019289106 0.67500001
-0.052446131 -0.019289106 0.67500001
-0.051187102 -0.019289106 0.67500001
-0.049928073 -0.019289106 0.67500001
-0.04866904 -0.019289106 0.67500001
-0.047480252 -0.019317683 0.67600006
-0.046219356 -0.019317683 0.67600006
-0.044958461 -0.019317683 0.67600006
-0.043697566 -0.019317683 0.67600006
-0.042373896 -0.019289106 0.67500001
-0.041114867 -0.019289106 0.67500001
-0.039796792 -0.019260529 0.67400002
-0.038539626 -0.019260529 0.67400002
-0.037171833 -0.019203378 0.67200005
-0.035864949 -0.019174801 0.671
-0.034664966 -0.019203378 0.67200005
-0.033510972 -0.019260529 0.67400002
-0.032253806 -0.019260529 0.67400002
-0.030996643 -0.019260529 0.67400002
-0.02965123 -0.019203378 0.67200005
-0.028397797 -0.019203378 0.67200005
-0.02710397 -0.019174801 0.671
-0.025852401 -0.019174801 0.671
-0.024600834 -0.019174801 0.671
-0.023349265 -0.019174801 0.671
-0.022064764 -0.019146224 0.67000002
-0.020877196 -0.019203378 0.67200005
-0.019623762 -0.019203378 0.67200005
-0.018370328 -0.019203378 0.67200005
-0.017116895 -0.019203378 0.67200005
-0.015863461 -0.019203378 0.67200005
-0.014489521 -0.020832235 0.72900003
-0.013057726 -0.02071793 0.72500002
-0.011705436 -0.02071793 0.72500002
-0.010353145 -0.02071793 0.72500002
-0.0089760236 -0.020660777 0.72300005
-0.0076274644 -0.020660777 0.72300005
-0.0062789042 -0.020660777 0.72300005
-0.0049303439 -0.020660777 0.72300005
-0.0035817837 -0.020660777 0.72300005
-0.0022332235 -0.020660777 0.72300005
-0.00088343979 -0.0206322 0.72200006
0.00046389681 -0.020660777 0.72300005
0.001812457 -0.020660777 0.72300005
0.0031610171 -0.020660777 0.72300005
0.00450334 -0.0206322 0.72200006
0.0058500348 -0.0206322 0.72200006
0.00719673 -0.0206322 0.72200006
0.0085434252 -0.0206322 0.72200006
0.0099038184 -0.020660777 0.72300005
0.011252379 -0.020660777 0.72300005
0.012600939 -0.020660777 0.72300005
0.013988086 -0.02071793 0.72500002
0.015298059 -0.020660777 0.72300005
0.01664662 -0.020660777 0.72300005
0.017995179 -0.020660777 0.72300005
0.019343739 -0.020660777 0.72300005
0.020663679 -0.0206322 0.72200006
0.022010373 -0.0206322 0.72200006
0.023357069 -0.0206322 0.72200006
0.024703763 -0.0206322 0.72200006
0.026050458 -0.0206322 0.72200006
0.027397154 -0.0206322 0.72200006
0.028743848 -0.0206322 0.72200006
0.030090543 -0.0206322 0.72200006
0.031437237 -0.0206322 0.72200006
0.032693118 -0.020575048 0.72000003
0.033894267 -0.020489318 0.71700001
0.035231639 -0.020489318 0.71700001
0.036415994 -0.02040359 0.71400005
0.037747767 -0.02040359 0.71400005
0.039079543 -0.02040359 0.71400005
0.040411316 -0.02040359 0.71400005
0.041743089 -0.02040359 0.71400005
0.043014534 -0.020375013 0.71300006
0.04434444 -0.020375013 0.71300006
0.04554623 -0.02031786 0.71100003
0.046872407 -0.02031786 0.71100003
0.048130795 -0.020289283 0.71000004
0.049315795 -0.02023213 0.708
0.050636377 -0.02023213 0.708
0.052103732 -0.020289283 0.71000004
0.053428046 -0.020289283 0.71000004
0.054752357 -0.020289283 0.71000004
0.056076668 -0.020289283 0.71000004
0.057400983 -0.020289283 0.71000004
0.058808006 -0.02031786 0.71100003
0.060134184 -0.02031786 0.71100003
0.061460357 -0.02031786 0.71100003
0.062963158 -0.020375013 0.71300006
0.064293064 -0.020375013 0.71300006
0.06562297 -0.020375013 0.71300006
0.067046784 -0.02040359 0.71400005
0.068570092 -0.020460742 0.71600002
0.069905594 -0.020460742 0.71600002
0.071340598 -0.020489318 0.71700001
0.072677962 -0.020489318 0.71700001
0.07422179 -0.020546472 0.71900004
0.075667985 -0.020575048 0.72000003
0.077010944 -0.020575048 0.72000003
0.078571558 -0.0206322 0.72200006
0.080028944 -0.020660777 0.72300005
0.081602618 -0.02071793 0.72500002
0.082726069 -0.020660777 0.72300005
0.084074624 -0.020660777 0.72300005
0.085423186 -0.020660777 0.72300005
0.087011777 -0.02071793 0.72500002
0.088364072 -0.02071793 0.72500002
0.08971636 -0.02071793 0.72500002
0.091068648 -0.02071793 0.72500002
0.092420943 -0.02071793 0.72500002
0.093773231 -0.02071793 0.72500002
0.095125519 -0.02071793 0.72500002
0.096477814 -0.02071793 0.72500002
0.097830102 -0.02071793 0.72500002
0.099182397 -0.02071793 0.72500002
-0.099741712 -0.019395584 0.72600001
-0.098387562 -0.019395584 0.72600001
-0.097033404 -0.019395584 0.72600001
-0.09554746 -0.019368868 0.72500002
-0.094195165 -0.019368868 0.72500002
-0.092842877 -0.019368868 0.72500002
-0.091490582 -0.019368868 0.72500002
-0.090138294 -0.019368868 0.72500002
-0.088786006 -0.019368868 0.72500002
-0.087433711 -0.019368868 0.72500002
-0.086081423 -0.019368868 0.72500002
-0.084729135 -0.019368868 0.72500002
-0.077971719 -0.018113231 0.67800003
-0.076707095 -0.018113231 0.67800003
-0.075442471 -0.018113231 0.67800003
-0.073849626 -0.018033084 0.67500001
-0.072483055 -0.018006368 0.67400002
-0.071014538 -0.017952938 0.67200005
-0.06996873 -0.018006368 0.67400002
-0.068711564 -0.018006368 0.67400002
-0.067454398 -0.018006368 0.67400002
-0.066197231 -0.018006368 0.67400002
-0.065036424 -0.018033084 0.67500001
-0.063777395 -0.018033084 0.67500001
-0.062518366 -0.018033084 0.67500001
-0.061259333 -0.018033084 0.67500001
-0.060000304 -0.018033084 0.67500001
-0.058741275 -0.018033084 0.67500001
-0.057397086 -0.018006368 0.67400002
-0.056139924 -0.018006368 0.67400002
-0.054882757 -0.018006368 0.67400002
-0.053625595 -0.018006368 0.67400002
-0.052368432 -0.018006368 0.67400002
-0.051111266 -0.018006368 0.67400002
-0.049854103 -0.018006368 0.67400002
-0.048596937 -0.018006368 0.67400002
-0.047410011 -0.018033084 0.67500001
-0.046150982 -0.018033084 0.67500001
-0.044891953 -0.018033084 0.67500001
-0.043632925 -0.018033084 0.67500001
-0.042311121 -0.018006368 0.67400002
-0.041053955 -0.018006368 0.67400002
-0.0396787 -0.017952938 0.67200005
-0.038425267 -0.017952938 0.67200005
-0.037116516 -0.017926222 0.671
-0.035864949 -0.017926222 0.671
-0.034613378 -0.017926222 0.671
-0.033411533 -0.017952938 0.67200005
-0.032158099 -0.017952938 0.67200005
-0.030858675 -0.017926222 0.671
-0.029562982 -0.017899506 0.67000002
-0.028313279 -0.017899506 0.67000002
-0.027063577 -0.017899506 0.67000002
-0.025775347 -0.01787279 0.66900003
-0.024564169 -0.017899506 0.67000002
-0.023279671 -0.01787279 0.66900003
-0.022031832 -0.01787279 0.66900003
-0.020846128 -0.017926222 0.671
-0.019594559 -0.017926222 0.671
-0.018370328 -0.017952938 0.67200005
-0.017116895 -0.017952938 0.67200005
-0.015839856 -0.017926222 0.671
-0.014429892 -0.019395584 0.72600001
-0.013075737 -0.019395584 0.72600001
-0.011705436 -0.019368868 0.72500002
-0.010353145 -0.019368868 0.72500002
-0.0089760236 -0.019315436 0.72300005
-0.0076169143 -0.019288721 0.72200006
-0.0062702196 -0.019288721 0.72200006
-0.0049235248 -0.019288721 0.72200006
-0.0035768296 -0.019288721 0.72200006
-0.0022301348 -0.019288721 0.72200006
-0.00088343979 -0.019288721 0.72200006
0.00046325516 -0.019288721 0.72200006
0.0018099501 -0.019288721 0.72200006
0.003156645 -0.019288721 0.72200006
0.00450334 -0.019288721 0.72200006
0.0058338298 -0.019235289 0.72000003
0.0071767946 -0.019235289 0.72000003
0.0085197585 -0.019235289 0.72000003
0.0098627238 -0.019235289 0.72000003
0.011236815 -0.019288721 0.72200006
0.01258351 -0.019288721 0.72200006
0.013949499 -0.019315436 0.72300005
0.015298059 -0.019315436 0.72300005
0.01664662 -0.019315436 0.72300005
0.017995179 -0.019315436 0.72300005
0.019343739 -0.019315436 0.72300005
0.020663679 -0.019288721 0.72200006
0.021949403 -0.019235289 0.72000003
0.023292368 -0.019235289 0.72000003
0.024703763 -0.019288721 0.72200006
0.025978297 -0.019235289 0.72000003
0.027435102 -0.019315436 0.72300005
0.028743848 -0.019288721 0.72200006
0.030007191 -0.019235289 0.72000003
0.031350154 -0.019235289 0.72000003
0.032647714 -0.019208573 0.71900004
0.033894267 -0.019155141 0.71700001
0.035182498 -0.019128425 0.71600002
0.036415994 -0.019074995 0.71400005
0.037694901 -0.019048279 0.71300006
0.039024808 -0.019048279 0.71300006
0.040354718 -0.019048279 0.71300006
0.041684624 -0.019048279 0.71300006
0.042893875 -0.018994847 0.71100003
0.044220053 -0.018994847 0.71100003
0.04548217 -0.018968131 0.71000004
0.046806484 -0.018968131 0.71000004
0.048130795 -0.018968131 0.71000004
0.049315795 -0.0189147 0.708
0.050779421 -0.018968131 0.71000004
0.052103732 -0.018968131 0.71000004
0.053428046 -0.018968131 0.71000004
0.054752357 -0.018968131 0.71000004
0.056076668 -0.018968131 0.71000004
0.057481829 -0.018994847 0.71100003
0.058808006 -0.018994847 0.71100003
0.060134184 -0.018994847 0.71100003
0.061460357 -0.018994847 0.71100003
0.062963158 -0.019048279 0.71300006
0.064112708 -0.018994847 0.71100003
0.06562297 -0.019048279 0.71300006
0.067046784 -0.019074995 0.71400005
0.068570092 -0.019128425 0.71600002
0.069905594 -0.019128425 0.71600002
0.071241096 -0.019128425 0.71600002
0.072677962 -0.019155141 0.71700001
0.074015334 -0.019155141 0.71700001
0.075562887 -0.019208573 0.71900004
0.077010944 -0.019235289 0.72000003
0.078571558 -0.019288721 0.72200006
0.079918258 -0.019288721 0.72200006
0.081377506 -0.019315436 0.72300005
0.082726069 -0.019315436 0.72300005
0.084074624 -0.019315436 0.72300005
0.085423186 -0.019315436 0.72300005
0.086771749 -0.019315436 0.72300005
0.088120304 -0.019315436 0.72300005
0.089468867 -0.019315436 0.72300005
0.090817429 -0.019315436 0.72300005
0.092165984 -0.019315436 0.72300005
0.093514547 -0.019315436 0.72300005
0.094863109 -0.019315436 0.72300005
0.096211664 -0.019315436 0.72300005
0.097560227 -0.019315436 0.72300005
0.099182397 -0.019368868 0.72500002
-0.099741712 -0.01804466 0.72600001
-0.098387562 -0.01804466 0.72600001
-0.097033404 -0.01804466 0.72600001
-0.09554746 -0.018019805 0.72500002
-0.094195165 -0.018019805 0.72500002
-0.092842877 -0.018019805 0.72500002
-0.091490582 -0.018019805 0.72500002
-0.090138294 -0.018019805 0.72500002
-0.088786006 -0.018019805 0.72500002
-0.087433711 -0.018019805 0.72500002
-0.086081423 -0.018019805 0.72500002
-0.084729135 -0.018019805 0.72500002
-0.07774172 -0.016801916 0.67600006
-0.076480821 -0.016801916 0.67600006
-0.075108655 -0.016777061 0.67500001
-0.073740222 -0.016752206 0.67400002
-0.072267972 -0.016702497 0.67200005
-0.070908859 -0.016677642 0.671
-0.069761105 -0.016702497 0.67200005
-0.068507671 -0.016702497 0.67200005
-0.067254238 -0.016702497 0.67200005
-0.066197231 -0.016752206 0.67400002
-0.065036424 -0.016777061 0.67500001
-0.063777395 -0.016777061 0.67500001
-0.062518366 -0.016777061 0.67500001
-0.061259333 -0.016777061 0.67500001
-0.060000304 -0.016777061 0.67500001
-0.058654252 -0.016752206 0.67400002
-0.057397086 -0.016752206 0.67400002
-0.056139924 -0.016752206 0.67400002
-0.054882757 -0.016752206 0.67400002
-0.053625595 -0.016752206 0.67400002
-0.052368432 -0.016752206 0.67400002
-0.051111266 -0.016752206 0.67400002
-0.049928073 -0.016777061 0.67500001
-0.048596937 -0.016752206 0.67400002
-0.047410011 -0.016777061 0.67500001
-0.046082612 -0.016752206 0.67400002
-0.044825446 -0.016752206 0.67400002
-0.043568283 -0.016752206 0.67400002
-0.042311121 -0.016752206 0.67400002
-0.041053955 -0.016752206 0.67400002
-0.0396787 -0.016702497 0.67200005
-0.038425267 -0.016702497 0.67200005
-0.037116516 -0.016677642 0.671
-0.035811499 -0.016652787 0.67000002
-0.034613378 -0.016677642 0.671
-0.033411533 -0.016702497 0.67200005
-0.032110244 -0.016677642 0.671
-0.030858675 -0.016677642 0.671
-0.029562982 -0.016652787 0.67000002
-0.028313279 -0.016652787 0.67000002
-0.027023183 -0.016627932 0.66900003
-0.025775347 -0.016627932 0.66900003
-0.024564169 -0.016652787 0.67000002
-0.023279671 -0.016627932 0.66900003
-0.022031832 -0.016627932 0.66900003
-0.020815061 -0.016652787 0.67000002
-0.019565357 -0.016652787 0.67000002
-0.018342992 -0.016677642 0.671
-0.017091423 -0.016677642 0.671
-0.015816249 -0.016652787 0.67000002
-0.014410017 -0.018019805 0.72500002
-0.013057726 -0.018019805 0.72500002
-0.011673144 -0.017970094 0.72300005
-0.010324584 -0.017970094 0.72300005
-0.0089760236 -0.017970094 0.72300005
-0.0075958152 -0.017895531 0.72000003
-0.0062528504 -0.017895531 0.72000003
-0.004909886 -0.017895531 0.72000003
-0.0035669215 -0.017895531 0.72000003
-0.0022239571 -0.017895531 0.72000003
-0.00088099256 -0.017895531 0.72000003
0.00046197191 -0.017895531 0.72000003
0.0018049364 -0.017895531 0.72000003
0.0031479008 -0.017895531 0.72000003
0.0044908654 -0.017895531 0.72000003
0.0058257272 -0.017870676 0.71900004
0.0071668266 -0.017870676 0.71900004
0.0085197585 -0.017895531 0.72000003
0.0098627238 -0.017895531 0.72000003
0.011205688 -0.017895531 0.72000003
0.01258351 -0.017945239 0.72200006
0.013949499 -0.017970094 0.72300005
0.015298059 -0.017970094 0.72300005
0.016623594 -0.017945239 0.72200006
0.017970288 -0.017945239 0.72200006
0.019316984 -0.017945239 0.72200006
0.02060644 -0.017895531 0.72000003
0.021918919 -0.017870676 0.71900004
0.023292368 -0.017895531 0.72000003
0.024635334 -0.017895531 0.72000003
0.025942218 -0.017870676 0.71900004
0.027283316 -0.017870676 0.71900004
0.028624415 -0.017870676 0.71900004
0.029965514 -0.017870676 0.71900004
0.031306613 -0.017870676 0.71900004
0.032647714 -0.017870676 0.71900004
0.033894267 -0.017820965 0.71700001
0.035231639 -0.017820965 0.71700001
0.036569007 -0.017820965 0.71700001
0.037747767 -0.017746402 0.71400005
0.039024808 -0.017721547 0.71300006
0.040354718 -0.017721547 0.71300006
0.041684624 -0.017721547 0.71300006
0.042833548 -0.017646981 0.71000004
0.044157859 -0.017646981 0.71000004
0.04548217 -0.017646981 0.71000004
0.046806484 -0.017646981 0.71000004
0.048130795 -0.017646981 0.71000004
0.049455106 -0.017646981 0.71000004
0.050779421 -0.017646981 0.71000004
0.052103732 -0.017646981 0.71000004
0.053428046 -0.017646981 0.71000004
0.054752357 -0.017646981 0.71000004
0.056155648 -0.017671837 0.71100003
0.057481829 -0.017671837 0.71100003
0.058808006 -0.017671837 0.71100003
0.060134184 -0.017671837 0.71100003
0.061460357 -0.017671837 0.71100003
0.062786534 -0.017671837 0.71100003
0.064112708 -0.017671837 0.71100003
0.065438889 -0.017671837 0.71100003
0.066952877 -0.017721547 0.71300006
0.068282783 -0.017721547 0.71300006
0.069905594 -0.01779611 0.71600002
0.071241096 -0.01779611 0.71600002
0.072677962 -0.017820965 0.71700001
0.07422179 -0.017870676 0.71900004
0.075562887 -0.017870676 0.71900004
0.077010944 -0.017895531 0.72000003
0.078571558 -0.017945239 0.72200006
0.079918258 -0.017945239 0.72200006
0.08126495 -0.017945239 0.72200006
0.082611643 -0.017945239 0.72200006
0.083958343 -0.017945239 0.72200006
0.085423186 -0.017970094 0.72300005
0.086771749 -0.017970094 0.72300005
0.087998427 -0.017945239 0.72200006
0.089468867 -0.017970094 0.72300005
0.090817429 -0.017970094 0.72300005
0.092165984 -0.017970094 0.72300005
0.093514547 -0.017970094 0.72300005
0.094863109 -0.017970094 0.72300005
0.096211664 -0.017970094 0.72300005
0.097560227 -0.017970094 0.72300005
0.098908789 -0.017970094 0.72300005
-0.099604331 -0.016670743 0.72500002
-0.098252036 -0.016670743 0.72500002
-0.096899748 -0.016670743 0.72500002
-0.095283873 -0.016624754 0.72300005
-0.093935318 -0.016624754 0.72300005
-0.092842877 -0.016670743 0.72500002
-0.091238193 -0.016624754 0.72300005
-0.089889638 -0.016624754 0.72300005
-0.088786006 -0.016670743 0.72500002
-0.087192513 -0.016624754 0.72300005
-0.085843958 -0.016624754 0.72300005
-0.084495395 -0.016624754 0.72300005
-0.077626713 -0.015521036 0.67500001
-0.076367684 -0.015521036 0.67500001
-0.07499738 -0.015498042 0.67400002
-0.073521405 -0.015452055 0.67200005
-0.072267972 -0.015452055 0.67200005
-0.070908859 -0.015429061 0.671
-0.069657288 -0.015429061 0.671
-0.068507671 -0.015452055 0.67200005
-0.067154154 -0.015429061 0.671
-0.066000804 -0.015452055 0.67200005
-0.064940073 -0.015498042 0.67400002
-0.063777395 -0.015521036 0.67500001
-0.062518366 -0.015521036 0.67500001
-0.061168578 -0.015498042 0.67400002
-0.059911415 -0.015498042 0.67400002
-0.058480203 -0.015452055 0.67200005
-0.057397086 -0.015498042 0.67400002
-0.055973336 -0.015452055 0.67200005
-0.054719903 -0.015452055 0.67200005
-0.053466469 -0.015452055 0.67200005
-0.052213036 -0.015452055 0.67200005
-0.051111266 -0.015498042 0.67400002
-0.049854103 -0.015498042 0.67400002
-0.048596937 -0.015498042 0.67400002
-0.047339775 -0.015498042 0.67400002
-0.046082612 -0.015498042 0.67400002
-0.044825446 -0.015498042 0.67400002
-0.043568283 -0.015498042 0.67400002
-0.042185567 -0.015452055 0.67200005
-0.040932134 -0.015452055 0.67200005
-0.039619654 -0.015429061 0.671
-0.038368084 -0.015429061 0.671
-0.037116516 -0.015429061 0.671
-0.035811499 -0.015406067 0.67000002
-0.034561794 -0.015406067 0.67000002
-0.033361811 -0.015429061 0.671
-0.032062389 -0.015406067 0.67000002
-0.030812684 -0.015406067 0.67000002
-0.029518859 -0.015383072 0.66900003
-0.028271021 -0.015383072 0.66900003
-0.027023183 -0.015383072 0.66900003
-0.025698289 -0.015337083 0.66700006
-0.024527509 -0.015383072 0.66900003
-0.023279671 -0.015383072 0.66900003
-0.022031832 -0.015383072 0.66900003
-0.020815061 -0.015406067 0.67000002
-0.019565357 -0.015406067 0.67000002
-0.018315654 -0.015406067 0.67000002
-0.017065952 -0.015406067 0.67000002
-0.015792644 -0.015383072 0.66900003
-0.014370264 -0.016624754 0.72300005
-0.013021705 -0.016624754 0.72300005
-0.011657 -0.01660176 0.72200006
-0.010310304 -0.01660176 0.72200006
-0.0089387791 -0.016555773 0.72000003
-0.0075852652 -0.016532779 0.71900004
-0.0062441658 -0.016532779 0.71900004
-0.0049030669 -0.016532779 0.71900004
-0.0035669215 -0.016555773 0.72000003
-0.0022239571 -0.016555773 0.72000003
-0.00087976898 -0.016532779 0.71900004
0.00046133029 -0.016532779 0.71900004
0.0018024296 -0.016532779 0.71900004
0.0031435287 -0.016532779 0.71900004
0.0044846279 -0.016532779 0.71900004
0.0058257272 -0.016532779 0.71900004
0.0071668266 -0.016532779 0.71900004
0.008507926 -0.016532779 0.71900004
0.0098490259 -0.016532779 0.71900004
0.011205688 -0.016555773 0.72000003
0.012531224 -0.016532779 0.71900004
0.013930204 -0.01660176 0.72200006
0.0152769 -0.01660176 0.72200006
0.016623594 -0.01660176 0.72200006
0.017970288 -0.01660176 0.72200006
0.019263474 -0.016555773 0.72000003
0.02057782 -0.016532779 0.71900004
0.021918919 -0.016532779 0.71900004
0.023260018 -0.016532779 0.71900004
0.024601117 -0.016532779 0.71900004
0.025942218 -0.016532779 0.71900004
0.027283316 -0.016532779 0.71900004
0.028624415 -0.016532779 0.71900004
0.029965514 -0.016532779 0.71900004
0.031306613 -0.016532779 0.71900004
0.032647714 -0.016532779 0.71900004
0.033894267 -0.01648679 0.71700001
0.035231639 -0.01648679 0.71700001
0.036415994 -0.016417809 0.71400005
0.037747767 -0.016417809 0.71400005
0.039024808 -0.016394814 0.71300006
0.040354718 -0.016394814 0.71300006
0.041567698 -0.016348826 0.71100003
0.042833548 -0.016325831 0.71000004
0.044157859 -0.016325831 0.71000004
0.04548217 -0.016325831 0.71000004
0.046806484 -0.016325831 0.71000004
0.048130795 -0.016325831 0.71000004
0.049455106 -0.016325831 0.71000004
0.050779421 -0.016325831 0.71000004
0.052103732 -0.016325831 0.71000004
0.053428046 -0.016325831 0.71000004
0.054752357 -0.016325831 0.71000004
0.056155648 -0.016348826 0.71100003
0.057481829 -0.016348826 0.71100003
0.058808006 -0.016348826 0.71100003
0.060134184 -0.016348826 0.71100003
0.061633248 -0.016394814 0.71300006
0.062963158 -0.016394814 0.71300006
0.064293064 -0.016394814 0.71300006
0.065438889 -0.016348826 0.71100003
0.066952877 -0.016394814 0.71300006
0.068282783 -0.016394814 0.71300006
0.069905594 -0.016463796 0.71600002
0.071241096 -0.016463796 0.71600002
0.072576597 -0.016463796 0.71600002
0.074015334 -0.01648679 0.71700001
0.075562887 -0.016532779 0.71900004
0.076903991 -0.016532779 0.71900004
0.078353912 -0.016555773 0.72000003
0.079696879 -0.016555773 0.72000003
0.08126495 -0.01660176 0.72200006
0.082611643 -0.01660176 0.72200006
0.083958343 -0.01660176 0.72200006
0.085305035 -0.01660176 0.72200006
0.086651728 -0.01660176 0.72200006
0.087998427 -0.01660176 0.72200006
0.08934512 -0.01660176 0.72200006
0.090691812 -0.01660176 0.72200006
0.092038512 -0.01660176 0.72200006
0.093385205 -0.01660176 0.72200006
0.094731897 -0.01660176 0.72200006
0.096211664 -0.016624754 0.72300005
0.097425289 -0.01660176 0.72200006
0.098908789 -0.016624754 0.72300005
-0.099329561 -0.015279414 0.72300005
-0.097980998 -0.015279414 0.72300005
-0.096632436 -0.015279414 0.72300005
-0.095152088 -0.015258281 0.72200006
-0.093805395 -0.015258281 0.72200006
-0.092586756 -0.015279414 0.72300005
-0.091238193 -0.015279414 0.72300005
-0.089889638 -0.015279414 0.72300005
-0.08841861 -0.015258281 0.72200006
-0.087071918 -0.015258281 0.72200006
-0.085725226 -0.015258281 0.72200006
-0.084378526 -0.015258281 0.72200006
-0.077511713 -0.01424388 0.67400002
-0.076254547 -0.01424388 0.67400002
-0.074774839 -0.014201614 0.67200005
-0.073411994 -0.014180481 0.671
-0.07216043 -0.014180481 0.671
-0.07080318 -0.014159348 0.67000002
-0.06955348 -0.014159348 0.67000002
-0.068405725 -0.014180481 0.671
-0.067054071 -0.014159348 0.67000002
-0.065902583 -0.014180481 0.671
-0.064747371 -0.014201614 0.67200005
-0.063493937 -0.014201614 0.67200005
-0.062425744 -0.01424388 0.67400002
-0.06098707 -0.014201614 0.67200005
-0.059733637 -0.014201614 0.67200005
-0.058393177 -0.014180481 0.671
-0.057141609 -0.014180481 0.671
-0.055890042 -0.014180481 0.671
-0.054719903 -0.014201614 0.67200005
-0.053466469 -0.014201614 0.67200005
-0.052213036 -0.014201614 0.67200005
-0.050959602 -0.014201614 0.67200005
-0.049854103 -0.01424388 0.67400002
-0.048452735 -0.014201614 0.67200005
-0.047199301 -0.014201614 0.67200005
-0.045945868 -0.014201614 0.67200005
-0.044825446 -0.01424388 0.67400002
-0.043439001 -0.014201614 0.67200005
-0.042185567 -0.014201614 0.67200005
-0.040932134 -0.014201614 0.67200005
-0.039619654 -0.014180481 0.671
-0.038368084 -0.014180481 0.671
-0.0370612 -0.014159348 0.67000002
-0.035811499 -0.014159348 0.67000002
-0.034561794 -0.014159348 0.67000002
-0.03331209 -0.014159348 0.67000002
-0.032014534 -0.014138213 0.66900003
-0.030766696 -0.014138213 0.66900003
-0.029518859 -0.014138213 0.66900003
-0.028271021 -0.014138213 0.66900003
-0.027023183 -0.014138213 0.66900003
-0.025775347 -0.014138213 0.66900003
-0.024527509 -0.014138213 0.66900003
-0.023279671 -0.014138213 0.66900003
-0.022031832 -0.014138213 0.66900003
-0.020783994 -0.014138213 0.66900003
-0.019565357 -0.014159348 0.67000002
-0.018315654 -0.014159348 0.67000002
-0.017065952 -0.014159348 0.67000002
-0.015792644 -0.014138213 0.66900003
-0.014310637 -0.015216015 0.72000003
-0.013003694 -0.015258281 0.72200006
-0.011624709 -0.015216015 0.72000003
-0.010281744 -0.015216015 0.72000003
-0.0089263637 -0.015194882 0.71900004
-0.0075852652 -0.015194882 0.71900004
-0.0062441658 -0.015194882 0.71900004
-0.0049030669 -0.015194882 0.71900004
-0.0035619675 -0.015194882 0.71900004
-0.0022208681 -0.015194882 0.71900004
-0.00087976898 -0.015194882 0.71900004
0.00046133029 -0.015194882 0.71900004
0.0018024296 -0.015194882 0.71900004
0.0031435287 -0.015194882 0.71900004
0.0044846279 -0.015194882 0.71900004
0.0058095222 -0.015152615 0.71700001
0.0071468912 -0.015152615 0.71700001
0.0084842592 -0.015152615 0.71700001
0.0098490259 -0.015194882 0.71900004
0.011190125 -0.015194882 0.71900004
0.012531224 -0.015194882 0.71900004
0.013872324 -0.015194882 0.71900004
0.015213422 -0.015194882 0.71900004
0.016577546 -0.015216015 0.72000003
0.017920511 -0.015216015 0.72000003
0.019236721 -0.015194882 0.71900004
0.02057782 -0.015194882 0.71900004
0.021918919 -0.015194882 0.71900004
0.023260018 -0.015194882 0.71900004
0.024601117 -0.015194882 0.71900004
0.025942218 -0.015194882 0.71900004
0.027283316 -0.015194882 0.71900004
0.028624415 -0.015194882 0.71900004
0.029965514 -0.015194882 0.71900004
0.031306613 -0.015194882 0.71900004
0.032556899 -0.015152615 0.71700001
0.033894267 -0.015152615 0.71700001
0.035231639 -0.015152615 0.71700001
0.036415994 -0.015089215 0.71400005
0.037694901 -0.015068081 0.71300006
0.039024808 -0.015068081 0.71300006
0.040354718 -0.015068081 0.71300006
0.041684624 -0.015068081 0.71300006
0.042893875 -0.015025814 0.71100003
0.044157859 -0.01500468 0.71000004
0.04548217 -0.01500468 0.71000004
0.046806484 -0.01500468 0.71000004
0.048130795 -0.01500468 0.71000004
0.049455106 -0.01500468 0.71000004
0.050779421 -0.01500468 0.71000004
0.052103732 -0.01500468 0.71000004
0.053428046 -0.01500468 0.71000004
0.054752357 -0.01500468 0.71000004
0.056155648 -0.015025814 0.71100003
0.057481829 -0.015025814 0.71100003
0.058808006 -0.015025814 0.71100003
0.060134184 -0.015025814 0.71100003
0.061460357 -0.015025814 0.71100003
0.062963158 -0.015068081 0.71300006
0.064112708 -0.015025814 0.71100003
0.065438889 -0.015025814 0.71100003
0.066952877 -0.015068081 0.71300006
0.068282783 -0.015068081 0.71300006
0.069710329 -0.015089215 0.71400005
0.071241096 -0.015131482 0.71600002
0.072576597 -0.015131482 0.71600002
0.074015334 -0.015152615 0.71700001
0.075562887 -0.015194882 0.71900004
0.076903991 -0.015194882 0.71900004
0.078353912 -0.015216015 0.72000003
0.079696879 -0.015216015 0.72000003
0.081039838 -0.015216015 0.72000003
0.082611643 -0.015258281 0.72200006
0.083958343 -0.015258281 0.72200006
0.085305035 -0.015258281 0.72200006
0.086651728 -0.015258281 0.72200006
0.087754667 -0.015216015 0.72000003
0.089097627 -0.015216015 0.72000003
0.090440594 -0.015216015 0.72000003
0.092038512 -0.015258281 0.72200006
0.093385205 -0.015258281 0.72200006
0.094731897 -0.015258281 0.72200006
0.096078597 -0.015258281 0.72200006
0.097425289 -0.015258281 0.72200006
0.098908789 -0.015279414 0.72300005
-0.099329561 -0.013934075 0.72300005
-0.097980998 -0.013934075 0.72300005
-0.096632436 -0.013934075 0.72300005
-0.095152088 -0.013914802 0.72200006
-0.093805395 -0.013914802 0.72200006
-0.092458695 -0.013914802 0.72200006
-0.091112003 -0.013914802 0.72200006
-0.08976531 -0.013914802 0.72200006
-0.088541076 -0.013934075 0.72300005
-0.087071918 -0.013914802 0.72200006
-0.085725226 -0.013914802 0.72200006
-0.084378526 -0.013914802 0.72200006
-0.077281706 -0.012951173 0.67200005
-0.075915135 -0.0129319 0.671
-0.074663565 -0.0129319 0.671
-0.073411994 -0.0129319 0.671
-0.072052889 -0.012912628 0.67000002
-0.07080318 -0.012912628 0.67000002
-0.06955348 -0.012912628 0.67000002
-0.068303779 -0.012912628 0.67000002
-0.067054071 -0.012912628 0.67000002
-0.065706156 -0.012893355 0.66900003
-0.064554669 -0.012912628 0.67000002
-0.063304968 -0.012912628 0.67000002
-0.062147882 -0.0129319 0.671
-0.060805559 -0.012912628 0.67000002
-0.059555855 -0.012912628 0.67000002
-0.058219127 -0.012893355 0.66900003
-0.057056449 -0.012912628 0.67000002
-0.055806745 -0.012912628 0.67000002
-0.054638471 -0.0129319 0.671
-0.053386904 -0.0129319 0.671
-0.052213036 -0.012951173 0.67200005
-0.050959602 -0.012951173 0.67200005
-0.049706168 -0.012951173 0.67200005
-0.048452735 -0.012951173 0.67200005
-0.047199301 -0.012951173 0.67200005
-0.045945868 -0.012951173 0.67200005
-0.044692434 -0.012951173 0.67200005
-0.043439001 -0.012951173 0.67200005
-0.042122789 -0.0129319 0.671
-0.040871222 -0.0129319 0.671
-0.039560605 -0.012912628 0.67000002
-0.038310904 -0.012912628 0.67000002
-0.0370612 -0.012912628 0.67000002
-0.035811499 -0.012912628 0.67000002
-0.034561794 -0.012912628 0.67000002
-0.03331209 -0.012912628 0.67000002
-0.032014534 -0.012893355 0.66900003
-0.030766696 -0.012893355 0.66900003
-0.029518859 -0.012893355 0.66900003
-0.028271021 -0.012893355 0.66900003
-0.027023183 -0.012893355 0.66900003
-0.025775347 -0.012893355 0.66900003
-0.024527509 -0.012893355 0.66900003
-0.023279671 -0.012893355 0.66900003
-0.022031832 -0.012893355 0.66900003
-0.020783994 -0.012893355 0.66900003
-0.019536156 -0.012893355 0.66900003
-0.01828832 -0.012893355 0.66900003
-0.017040482 -0.012893355 0.66900003
-0.015745429 -0.01285481 0.66700006
-0.014310637 -0.013876257 0.72000003
-0.012949662 -0.013856984 0.71900004
-0.011608562 -0.013856984 0.71900004
-0.010267464 -0.013856984 0.71900004
-0.0089263637 -0.013856984 0.71900004
-0.0075641656 -0.013818438 0.71700001
-0.0062267971 -0.013818438 0.71700001
-0.0048894281 -0.013818438 0.71700001
-0.0035619675 -0.013856984 0.71900004
-0.0022208681 -0.013856984 0.71900004
-0.00087976898 -0.013856984 0.71900004
0.00046004704 -0.013818438 0.71700001
0.0018024296 -0.013856984 0.71900004
0.0031347845 -0.013818438 0.71700001
0.0044721533 -0.013818438 0.71700001
0.0058095222 -0.013818438 0.71700001
0.0071468912 -0.013818438 0.71700001
0.0084842592 -0.013818438 0.71700001
0.0098216282 -0.013818438 0.71700001
0.011158997 -0.013818438 0.71700001
0.012496366 -0.013818438 0.71700001
0.013833734 -0.013818438 0.71700001
0.015171103 -0.013818438 0.71700001
0.016508473 -0.013818438 0.71700001
0.01789562 -0.013856984 0.71900004
0.019236721 -0.013856984 0.71900004
0.02057782 -0.013856984 0.71900004
0.021857947 -0.013818438 0.71700001
0.023260018 -0.013856984 0.71900004
0.024601117 -0.013856984 0.71900004
0.025870053 -0.013818438 0.71700001
0.027207423 -0.013818438 0.71700001
0.028544791 -0.013818438 0.71700001
0.029882161 -0.013818438 0.71700001
0.031219531 -0.013818438 0.71700001
0.032556899 -0.013818438 0.71700001
0.033894267 -0.013818438 0.71700001
0.035231639 -0.013818438 0.71700001
0.036569007 -0.013818438 0.71700001
0.037747767 -0.013760621 0.71400005
0.039024808 -0.013741348 0.71300006
0.040354718 -0.013741348 0.71300006
0.041567698 -0.013702803 0.71100003
0.042833548 -0.013683531 0.71000004
0.044157859 -0.013683531 0.71000004
0.04548217 -0.013683531 0.71000004
0.046806484 -0.013683531 0.71000004
0.048130795 -0.013683531 0.71000004
0.049455106 -0.013683531 0.71000004
0.050850939 -0.013702803 0.71100003
0.052177116 -0.013702803 0.71100003
0.053428046 -0.013683531 0.71000004
0.054752357 -0.013683531 0.71000004
0.056155648 -0.013702803 0.71100003
0.057481829 -0.013702803 0.71100003
0.058808006 -0.013702803 0.71100003
0.060134184 -0.013702803 0.71100003
0.061633248 -0.013741348 0.71300006
0.062963158 -0.013741348 0.71300006
0.064293064 -0.013741348 0.71300006
0.065715007 -0.013760621 0.71400005
0.066952877 -0.013741348 0.71300006
0.068378553 -0.013760621 0.71400005
0.069905594 -0.013799166 0.71600002
0.071241096 -0.013799166 0.71600002
0.072576597 -0.013799166 0.71600002
0.074015334 -0.013818438 0.71700001
0.075352699 -0.013818438 0.71700001
0.076903991 -0.013856984 0.71900004
0.078245088 -0.013856984 0.71900004
0.079586186 -0.013856984 0.71900004
0.081039838 -0.013876257 0.72000003
0.082382806 -0.013876257 0.72000003
0.083725773 -0.013876257 0.72000003
0.085068733 -0.013876257 0.72000003
0.0864117 -0.013876257 0.72000003
0.087754667 -0.013876257 0.72000003
0.089097627 -0.013876257 0.72000003
0.090440594 -0.013876257 0.72000003
0.091783553 -0.013876257 0.72000003
0.093385205 -0.013914802 0.72200006
0.094731897 -0.013914802 0.72200006
0.096078597 -0.013914802 0.72200006
0.097425289 -0.013914802 0.72200006
0.098771982 -0.013914802 0.72200006
-0.099192172 -0.012571322 0.72200006
-0.09784548 -0.012571322 0.72200006
-0.09649878 -0.012571322 0.72200006
-0.094888508 -0.012536499 0.72000003
-0.093545541 -0.012536499 0.72000003
-0.092202581 -0.012536499 0.72000003
-0.090859614 -0.012536499 0.72000003
-0.089392319 -0.012519087 0.71900004
-0.088051222 -0.012519087 0.71900004
-0.08683072 -0.012536499 0.72000003
-0.085487753 -0.012536499 0.72000003
-0.084378526 -0.012571322 0.72200006
-0.082801826 -0.012536499 0.72000003
-0.075801998 -0.011665909 0.67000002
-0.07455229 -0.011665909 0.67000002
-0.073302589 -0.011665909 0.67000002
-0.072052889 -0.011665909 0.67000002
-0.070697509 -0.011648497 0.66900003
-0.069449671 -0.011648497 0.66900003
-0.068201832 -0.011648497 0.66900003
-0.066953994 -0.011648497 0.66900003
-0.065706156 -0.011648497 0.66900003
-0.064458318 -0.011648497 0.66900003
-0.06321048 -0.011648497 0.66900003
-0.061962642 -0.011648497 0.66900003
-0.060533296 -0.011613673 0.66700006
-0.059289191 -0.011613673 0.66700006
-0.058045082 -0.011613673 0.66700006
-0.056971289 -0.011648497 0.66900003
-0.055723451 -0.011648497 0.66900003
-0.054557044 -0.011665909 0.67000002
-0.05330734 -0.011665909 0.67000002
-0.052057639 -0.011665909 0.67000002
-0.050807934 -0.011665909 0.67000002
-0.049632199 -0.01168332 0.671
-0.048308529 -0.011665909 0.67000002
-0.047129061 -0.01168332 0.671
-0.045877494 -0.01168332 0.671
-0.044625927 -0.01168332 0.671
-0.043374356 -0.01168332 0.671
-0.042122789 -0.01168332 0.671
-0.040871222 -0.01168332 0.671
-0.039560605 -0.011665909 0.67000002
-0.038310904 -0.011665909 0.67000002
-0.0370612 -0.011665909 0.67000002
-0.035811499 -0.011665909 0.67000002
-0.034561794 -0.011665909 0.67000002
-0.03331209 -0.011665909 0.67000002
-0.032062389 -0.011665909 0.67000002
-0.030812684 -0.011665909 0.67000002
-0.029518859 -0.011648497 0.66900003
-0.028271021 -0.011648497 0.66900003
-0.027023183 -0.011648497 0.66900003
-0.025775347 -0.011648497 0.66900003
-0.024527509 -0.011648497 0.66900003
-0.023279671 -0.011648497 0.66900003
-0.022031832 -0.011648497 0.66900003
-0.020783994 -0.011648497 0.66900003
-0.019536156 -0.011648497 0.66900003
-0.01828832 -0.011648497 0.66900003
-0.017040482 -0.011648497 0.66900003
-0.015745429 -0.011613673 0.66700006
-0.014501322 -0.011613673 0.66700006
-0.014290761 -0.012519087 0.71900004
-0.012949662 -0.012519087 0.71900004
-0.011576273 -0.012484263 0.71700001
-0.010238904 -0.012484263 0.71700001
-0.0089015346 -0.012484263 0.71700001
-0.0075641656 -0.012484263 0.71700001
-0.0062267971 -0.012484263 0.71700001
-0.0048894281 -0.012484263 0.71700001
-0.0035520594 -0.012484263 0.71700001
-0.0022208681 -0.012519087 0.71900004
-0.00087976898 -0.012519087 0.71900004
0.00046004704 -0.012484263 0.71700001
0.0017974158 -0.012484263 0.71700001
0.0031347845 -0.012484263 0.71700001
0.0044659162 -0.012466852 0.71600002
0.0057852147 -0.012432028 0.71400005
0.0071369233 -0.012466852 0.71600002
0.008448761 -0.012432028 0.71400005
0.0098079303 -0.012466852 0.71600002
0.011143434 -0.012466852 0.71600002
0.012478937 -0.012466852 0.71600002
0.013833734 -0.012484263 0.71700001
0.015149944 -0.012466852 0.71600002
0.016485449 -0.012466852 0.71600002
0.017820952 -0.012466852 0.71600002
0.019156456 -0.012466852 0.71600002
0.02049196 -0.012466852 0.71600002
0.021827463 -0.012466852 0.71600002
0.023195317 -0.012484263 0.71700001
0.02449847 -0.012466852 0.71600002
0.025870053 -0.012484263 0.71700001
0.027207423 -0.012484263 0.71700001
0.028504981 -0.012466852 0.71600002
0.029882161 -0.012484263 0.71700001
0.031219531 -0.012484263 0.71700001
0.032556899 -0.012484263 0.71700001
0.033894267 -0.012484263 0.71700001
0.035231639 -0.012484263 0.71700001
0.036518004 -0.012466852 0.71600002
0.037747767 -0.012432028 0.71400005
0.039079543 -0.012432028 0.71400005
0.040354718 -0.012414616 0.71300006
0.041684624 -0.012414616 0.71300006
0.042833548 -0.012362381 0.71000004
0.044157859 -0.012362381 0.71000004
0.04548217 -0.012362381 0.71000004
0.046806484 -0.012362381 0.71000004
0.048130795 -0.012362381 0.71000004
0.049455106 -0.012362381 0.71000004
0.050779421 -0.012362381 0.71000004
0.052103732 -0.012362381 0.71000004
0.053503294 -0.012379793 0.71100003
0.054829471 -0.012379793 0.71100003
0.056155648 -0.012379793 0.71100003
0.057481829 -0.012379793 0.71100003
0.058808006 -0.012379793 0.71100003
0.060134184 -0.012379793 0.71100003
0.061460357 -0.012379793 0.71100003
0.062963158 -0.012414616 0.71300006
0.064112708 -0.012379793 0.71100003
0.065715007 -0.012432028 0.71400005
0.067046784 -0.012432028 0.71400005
0.068378553 -0.012432028 0.71400005
0.069905594 -0.012466852 0.71600002
0.071241096 -0.012466852 0.71600002
0.072576597 -0.012466852 0.71600002
0.073912106 -0.012466852 0.71600002
0.075352699 -0.012484263 0.71700001
0.07669007 -0.012484263 0.71700001
0.078027442 -0.012484263 0.71700001
0.079364806 -0.012484263 0.71700001
0.080702178 -0.012484263 0.71700001
0.082039542 -0.012484263 0.71700001
0.083609484 -0.012519087 0.71900004
0.084950581 -0.012519087 0.71900004
0.086291686 -0.012519087 0.71900004
0.087389022 -0.012484263 0.71700001
0.088726386 -0.012484263 0.71700001
0.090063758 -0.012484263 0.71700001
0.09140113 -0.012484263 0.71700001
0.092738494 -0.012484263 0.71700001
0.094075866 -0.012484263 0.71700001
0.09567938 -0.012519087 0.71900004
0.097155415 -0.012536499 0.72000003
0.098498382 -0.012536499 0.72000003
0.099841341 -0.012536499 0.72000003
-0.099192172 -0.011227842 0.72200006
-0.09784548 -0.011227842 0.72200006
-0.09649878 -0.011227842 0.72200006
-0.094756715 -0.01118119 0.71900004
-0.093415618 -0.01118119 0.71900004
-0.092074521 -0.01118119 0.71900004
-0.090733416 -0.01118119 0.71900004
-0.089392319 -0.01118119 0.71900004
-0.088051222 -0.01118119 0.71900004
-0.08683072 -0.011196741 0.72000003
-0.085369021 -0.01118119 0.71900004
-0.084144793 -0.011196741 0.72000003
-0.077166699 -0.010434739 0.671
-0.075801998 -0.010419189 0.67000002
-0.07455229 -0.010419189 0.67000002
-0.073302589 -0.010419189 0.67000002
-0.072052889 -0.010419189 0.67000002
-0.070697509 -0.010403638 0.66900003
-0.069449671 -0.010403638 0.66900003
-0.068201832 -0.010403638 0.66900003
