# .PCD v0.7 - Point Cloud Data file format
VERSION 0.7
FIELDS x y z
SIZE 4 4 4
TYPE F F F
COUNT 1 1 1
WIDTH 1370
HEIGHT 1
VIEWPOINT 0 0 0 1 0 0 0
POINTS 1370
DATA ascii
0.074064232 0.022317056 0.58100003
0.075147927 0.022317056 0.58100003
0.076231621 0.022317056 0.58100003
0.077315323 0.022317056 0.58100003
0.078668892 0.022393877 0.583
0.079756327 0.022393877 0.583
0.080705084 0.022355467 0.58200002
0.081790648 0.022355467 0.58200002
0.082876213 0.022355467 0.58200002
0.08396177 0.022355467 0.58200002
0.085047334 0.022355467 0.58200002
0.08628089 0.022393877 0.583
0.087368324 0.022393877 0.583
0.088455752 0.022393877 0.583
0.089543179 0.022393877 0.583
0.090630606 0.022393877 0.583
0.091718033 0.022393877 0.583
0.09280546 0.022393877 0.583
0.093570791 0.022317056 0.58100003
0.094654486 0.022317056 0.58100003
0.095738187 0.022317056 0.58100003
0.096821882 0.022317056 0.58100003
0.097905576 0.022317056 0.58100003
0.098989278 0.022317056 0.58100003
-0.099258274 0.0236398 0.58700001
-0.09833061 0.02368007 0.588
-0.097233854 0.02368007 0.588
-0.096137099 0.02368007 0.588
-0.095040351 0.02368007 0.588
-0.093783826 0.0236398 0.58700001
-0.092688933 0.0236398 0.58700001
-0.091594048 0.0236398 0.58700001
-0.090344988 0.023599526 0.58600003
-0.089251958 0.023599526 0.58600003
-0.088158935 0.023599526 0.58600003
-0.087065913 0.023599526 0.58600003
-0.08597289 0.023599526 0.58600003
-0.084879868 0.023599526 0.58600003
-0.083786845 0.023599526 0.58600003
-0.082693815 0.023599526 0.58600003
-0.081600793 0.023599526 0.58600003
-0.08050777 0.023599526 0.58600003
-0.079414748 0.023599526 0.58600003
-0.078321725 0.023599526 0.58600003
-0.077228695 0.023599526 0.58600003
-0.076135673 0.023599526 0.58600003
-0.07504265 0.023599526 0.58600003
-0.073949628 0.023599526 0.58600003
-0.072856605 0.023599526 0.58600003
-0.071763583 0.023599526 0.58600003
-0.070670553 0.023599526 0.58600003
-0.06957753 0.023599526 0.58600003
-0.068367638 0.023559254 0.58500004
-0.067161486 0.023518981 0.58400005
-0.066072188 0.023518981 0.58400005
-0.064982899 0.023518981 0.58400005
-0.063893601 0.023518981 0.58400005
-0.062804312 0.023518981 0.58400005
-0.061715018 0.023518981 0.58400005
-0.060625721 0.023518981 0.58400005
-0.059536427 0.023518981 0.58400005
-0.058447134 0.023518981 0.58400005
-0.05735784 0.023518981 0.58400005
-0.056172196 0.023478709 0.583
-0.055084769 0.023478709 0.583
-0.053997342 0.023478709 0.583
-0.043839321 0.022189997 0.551
-0.041783839 0.022189997 0.551
-0.040756099 0.022189997 0.551
-0.039656255 0.022149725 0.55000001
-0.038560141 0.022109453 0.54900002
-0.037536129 0.022109453 0.54900002
-0.036179587 0.021908091 0.54400003
-0.035035621 0.021827547 0.54200006
-0.033899114 0.021747004 0.54000002
-0.032891892 0.021747004 0.54000002
-0.031884667 0.021747004 0.54000002
-0.030820265 0.021706732 0.53900003
-0.029814906 0.021706732 0.53900003
-0.028702648 0.021626187 0.537
-0.027649436 0.021585913 0.53600001
-0.026649674 0.021585913 0.53600001
-0.025649911 0.021585913 0.53600001
-0.024650149 0.021585913 0.53600001
-0.023606261 0.021545641 0.53500003
-0.022608364 0.021545641 0.53500003
-0.021570073 0.021505371 0.53400004
-0.02061257 0.021545641 0.53500003
-0.019614672 0.021545641 0.53500003
-0.018651575 0.021585913 0.53600001
-0.01761888 0.021545641 0.53500003
-0.016620982 0.021545641 0.53500003
-0.015623084 0.021545641 0.53500003
-0.014625187 0.021545641 0.53500003
-0.013601819 0.021505371 0.53400004
-0.012629393 0.021545641 0.53500003
-0.011631495 0.021545641 0.53500003
-0.010633598 0.021545641 0.53500003
-0.0096357008 0.021545641 0.53500003
-0.0086378036 0.021545641 0.53500003
-0.0076399068 0.021545641 0.53500003
-0.0066420096 0.021545641 0.53500003
-0.0056441124 0.021545641 0.53500003
-0.0046462151 0.021545641 0.53500003
-0.0036414987 0.021505371 0.53400004
-0.0026355586 0.021424826 0.53200001
-0.0016432572 0.021424826 0.53200001
-0.0006509556 0.021424826 0.53200001
0.00034134591 0.021424826 0.53200001
0.0013336474 0.021424826 0.53200001
0.002325949 0.021424826 0.53200001
0.0033244879 0.021465098 0.53300005
0.0043186545 0.021465098 0.53300005
0.0053227893 0.021505371 0.53400004
0.006330654 0.021545641 0.53500003
0.0073285513 0.021545641 0.53500003
0.0083264494 0.021545641 0.53500003
0.0093243467 0.021545641 0.53500003
0.010322244 0.021545641 0.53500003
0.011320141 0.021545641 0.53500003
0.012318038 0.021545641 0.53500003
0.013291045 0.021505371 0.53400004
0.014313832 0.021545641 0.53500003
0.015311729 0.021545641 0.53500003
0.016309626 0.021545641 0.53500003
0.017307524 0.021545641 0.53500003
0.018305421 0.021545641 0.53500003
0.019303318 0.021545641 0.53500003
0.020339161 0.021585913 0.53600001
0.021338925 0.021585913 0.53600001
0.022380363 0.021626187 0.537
0.023381989 0.021626187 0.537
0.024383618 0.021626187 0.537
0.025432518 0.02166646 0.53800005
0.02643601 0.02166646 0.53800005
0.027439503 0.02166646 0.53800005
0.028495865 0.021706732 0.53900003
0.02961069 0.021787276 0.54100001
0.030676378 0.021827547 0.54200006
0.03180426 0.021908091 0.54400003
0.032818943 0.021908091 0.54400003
0.034206793 0.022149725 0.55000001
0.035296727 0.022189997 0.551
0.036324468 0.022189997 0.551
0.037419997 0.022230271 0.55200005
0.038449604 0.022230271 0.55200005
0.039479211 0.022230271 0.55200005
0.040508818 0.022230271 0.55200005
0.049054604 0.023357894 0.58000004
0.050136436 0.023357894 0.58000004
0.051218271 0.023357894 0.58000004
0.052209929 0.02331762 0.57900006
0.053289898 0.02331762 0.57900006
0.054463767 0.023357894 0.58000004
0.055641372 0.023398165 0.58100003
0.056627434 0.023357894 0.58000004
0.057808768 0.023398165 0.58100003
0.058791097 0.023357894 0.58000004
0.059976161 0.023398165 0.58100003
0.060954761 0.023357894 0.58000004
0.062036596 0.023357894 0.58000004
0.063009605 0.02331762 0.57900006
0.06420026 0.023357894 0.58000004
0.065169536 0.02331762 0.57900006
0.066363923 0.023357894 0.58000004
0.067329474 0.02331762 0.57900006
0.068291292 0.023277348 0.57800001
0.069489405 0.02331762 0.57900006
0.070569374 0.02331762 0.57900006
0.071649343 0.02331762 0.57900006
0.072729312 0.02331762 0.57900006
0.073936753 0.023357894 0.58000004
0.075018585 0.023357894 0.58000004
0.076100416 0.023357894 0.58000004
0.077182248 0.023357894 0.58000004
0.07826408 0.023357894 0.58000004
0.079482719 0.023398165 0.58100003
0.080566414 0.023398165 0.58100003
0.081650116 0.023398165 0.58100003
0.08273381 0.023398165 0.58100003
0.083817512 0.023398165 0.58100003
0.084901206 0.023398165 0.58100003
0.085984901 0.023398165 0.58100003
0.087068602 0.023398165 0.58100003
0.088152297 0.023398165 0.58100003
0.089235999 0.023398165 0.58100003
0.090319693 0.023398165 0.58100003
0.091403395 0.023398165 0.58100003
0.092487089 0.023398165 0.58100003
0.093570791 0.023398165 0.58100003
0.094654486 0.023398165 0.58100003
0.095738187 0.023398165 0.58100003
0.096821882 0.023398165 0.58100003
0.097905576 0.023398165 0.58100003
0.098989278 0.023398165 0.58100003
-0.099258274 0.024732074 0.58700001
-0.098163381 0.024732074 0.58700001
-0.097068496 0.024732074 0.58700001
-0.095973603 0.024732074 0.58700001
-0.094878711 0.024732074 0.58700001
-0.093624055 0.024689939 0.58600003
-0.092531033 0.024689939 0.58600003
-0.09143801 0.024689939 0.58600003
-0.090344988 0.024689939 0.58600003
-0.089099653 0.024647808 0.58500004
-0.088008493 0.024647808 0.58500004
-0.087065913 0.024689939 0.58600003
-0.085826181 0.024647808 0.58500004
-0.084879868 0.024689939 0.58600003
-0.083643861 0.024647808 0.58500004
-0.082552701 0.024647808 0.58500004
-0.081461541 0.024647808 0.58500004
-0.08050777 0.024689939 0.58600003
-0.079279229 0.024647808 0.58500004
-0.078321725 0.024689939 0.58600003
-0.077096909 0.024647808 0.58500004
-0.076005749 0.024647808 0.58500004
-0.07504265 0.024689939 0.58600003
-0.073949628 0.024689939 0.58600003
-0.072732277 0.024647808 0.58500004
-0.071641117 0.024647808 0.58500004
-0.070549957 0.024647808 0.58500004
-0.069458798 0.024647808 0.58500004
-0.068250775 0.024605675 0.58400005
-0.067161486 0.024605675 0.58400005
-0.065959051 0.024563542 0.583
-0.064982899 0.024605675 0.58400005
-0.063893601 0.024605675 0.58400005
-0.062804312 0.024605675 0.58400005
-0.061715018 0.024605675 0.58400005
-0.060625721 0.024605675 0.58400005
-0.059434481 0.024563542 0.583
-0.058347054 0.024563542 0.583
-0.057259623 0.024563542 0.583
-0.056075845 0.024521409 0.58200002
-0.054990284 0.024521409 0.58200002
-0.05390472 0.024521409 0.58200002
-0.04916862 0.023805147 0.565
-0.048029609 0.023763014 0.56400001
-0.039656255 0.023173152 0.55000001
-0.038560141 0.023131019 0.54900002
-0.037536129 0.023131019 0.54900002
-0.036312602 0.023004621 0.546
-0.035035621 0.022836087 0.54200006
-0.033961892 0.022793954 0.54100001
-0.0329528 0.022793954 0.54100001
-0.031884667 0.022751823 0.54000002
-0.030820265 0.02270969 0.53900003
-0.029704276 0.022625424 0.537
-0.028649198 0.022583289 0.53600001
-0.027649436 0.022583289 0.53600001
-0.026649674 0.022583289 0.53600001
-0.025649911 0.022583289 0.53600001
-0.024650149 0.022583289 0.53600001
-0.023606261 0.022541156 0.53500003
-0.022608364 0.022541156 0.53500003
-0.021570073 0.022499025 0.53400004
-0.020535516 0.022456892 0.53300005
-0.01957801 0.022499025 0.53400004
-0.018547181 0.022456892 0.53300005
-0.017553015 0.022456892 0.53300005
-0.016558848 0.022456892 0.53300005
-0.015564681 0.022456892 0.53300005
-0.014570515 0.022456892 0.53300005
-0.013601819 0.022499025 0.53400004
-0.012582181 0.022456892 0.53300005
-0.011588014 0.022456892 0.53300005
-0.010593847 0.022456892 0.53300005
-0.009599681 0.022456892 0.53300005
-0.0086216591 0.022499025 0.53400004
-0.0076256269 0.022499025 0.53400004
-0.0066295946 0.022499025 0.53400004
-0.0056335628 0.022499025 0.53400004
-0.0046288464 0.022456892 0.53300005
-0.0036278602 0.022414759 0.53200001
-0.0026355586 0.022414759 0.53200001
-0.0016432572 0.022414759 0.53200001
-0.0006509556 0.022414759 0.53200001
0.00034134591 0.022414759 0.53200001
0.0013336474 0.022414759 0.53200001
0.002325949 0.022414759 0.53200001
0.0033244879 0.022456892 0.53300005
0.0043186545 0.022456892 0.53300005
0.0053028534 0.022414759 0.53200001
0.0062951553 0.022414759 0.53200001
0.0073148529 0.022499025 0.53400004
0.0083108852 0.022499025 0.53400004
0.009306917 0.022499025 0.53400004
0.010302949 0.022499025 0.53400004
0.011298981 0.022499025 0.53400004
0.012295013 0.022499025 0.53400004
0.013291045 0.022499025 0.53400004
0.014287077 0.022499025 0.53400004
0.01528311 0.022499025 0.53400004
0.016279142 0.022499025 0.53400004
0.017307524 0.022541156 0.53500003
0.018305421 0.022541156 0.53500003
0.019303318 0.022541156 0.53500003
0.020301215 0.022541156 0.53500003
0.021338925 0.022583289 0.53600001
0.022380363 0.022625424 0.537
0.023381989 0.022625424 0.537
0.024429025 0.022667557 0.53800005
0.025432518 0.022667557 0.53800005
0.026485149 0.02270969 0.53900003
0.027490508 0.02270969 0.53900003
0.028548732 0.022751823 0.54000002
0.029665424 0.022836087 0.54200006
0.030676378 0.022836087 0.54200006
0.031862721 0.022962488 0.54500002
0.033301573 0.023257419 0.55200005
0.03433118 0.023257419 0.55200005
0.035360787 0.023257419 0.55200005
0.036456317 0.023299553 0.55300003
0.037555575 0.023341684 0.55400002
0.038588915 0.023341684 0.55400002
0.039622251 0.023341684 0.55400002
0.040655587 0.023341684 0.55400002
0.041764174 0.023383817 0.55500001
0.04295361 0.023468083 0.55700004
0.048970029 0.024395008 0.57900006
0.049963553 0.024352876 0.57800001
0.051129963 0.024395008 0.57900006
0.052119758 0.024352876 0.57800001
0.053289898 0.024395008 0.57900006
0.054369863 0.024395008 0.57900006
0.055449832 0.024395008 0.57900006
0.056529798 0.024395008 0.57900006
0.057609767 0.024395008 0.57900006
0.058689732 0.024395008 0.57900006
0.059872929 0.024437143 0.58000004
0.06084967 0.024395008 0.57900006
0.061822675 0.024352876 0.57800001
0.062900782 0.024352876 0.57800001
0.063978881 0.024352876 0.57800001
0.06505698 0.024352876 0.57800001
0.066135086 0.024352876 0.57800001
0.067213185 0.024352876 0.57800001
0.068291292 0.024352876 0.57800001
0.069369391 0.024352876 0.57800001
0.070569374 0.024395008 0.57900006
0.071649343 0.024395008 0.57900006
0.072729312 0.024395008 0.57900006
0.073809274 0.024395008 0.57900006
0.074889243 0.024395008 0.57900006
0.075969212 0.024395008 0.57900006
0.077049181 0.024395008 0.57900006
0.078129143 0.024395008 0.57900006
0.079345912 0.024437143 0.58000004
0.080427751 0.024437143 0.58000004
0.081509583 0.024437143 0.58000004
0.082591414 0.024437143 0.58000004
0.083673246 0.024437143 0.58000004
0.084901206 0.024479276 0.58100003
0.085984901 0.024479276 0.58100003
0.086918741 0.024437143 0.58000004
0.088000573 0.024437143 0.58000004
0.089082405 0.024437143 0.58000004
0.090164237 0.024437143 0.58000004
0.091246076 0.024437143 0.58000004
0.092327908 0.024437143 0.58000004
0.093409739 0.024437143 0.58000004
0.094491571 0.024437143 0.58000004
0.095573403 0.024437143 0.58000004
0.096821882 0.024479276 0.58100003
0.097905576 0.024479276 0.58100003
0.098989278 0.024479276 0.58100003
-0.099089175 0.025780354 0.58600003
-0.097996153 0.025780354 0.58600003
-0.09690313 0.025780354 0.58600003
-0.095810108 0.025780354 0.58600003
-0.094717078 0.025780354 0.58600003
-0.093624055 0.025780354 0.58600003
-0.092531033 0.025780354 0.58600003
-0.091281973 0.02573636 0.58500004
-0.090190813 0.02573636 0.58500004
-0.089099653 0.02573636 0.58500004
-0.088008493 0.02573636 0.58500004
-0.086917333 0.02573636 0.58500004
-0.085826181 0.02573636 0.58500004
-0.084735021 0.02573636 0.58500004
-0.083643861 0.02573636 0.58500004
-0.082552701 0.02573636 0.58500004
-0.081461541 0.02573636 0.58500004
-0.080370381 0.02573636 0.58500004
-0.079279229 0.02573636 0.58500004
-0.078188069 0.02573636 0.58500004
-0.077096909 0.02573636 0.58500004
-0.076005749 0.02573636 0.58500004
-0.07491459 0.02573636 0.58500004
-0.07382343 0.02573636 0.58500004
-0.072607949 0.025692366 0.58400005
-0.07151866 0.025692366 0.58400005
-0.070429362 0.025692366 0.58400005
-0.06922134 0.025648374 0.583
-0.068133913 0.025648374 0.583
-0.067046478 0.025648374 0.583
-0.065959051 0.025648374 0.583
-0.064871624 0.025648374 0.583
-0.063784197 0.025648374 0.583
-0.06269677 0.025648374 0.583
-0.061609343 0.025648374 0.583
-0.060521908 0.025648374 0.583
-0.059434481 0.025648374 0.583
-0.058347054 0.025648374 0.583
-0.057259623 0.025648374 0.583
-0.056075845 0.02560438 0.58200002
-0.054895796 0.025560386 0.58100003
-0.053812098 0.025560386 0.58100003
-0.052546896 0.025472397 0.57900006
-0.05013359 0.024812492 0.56400001
-0.049081601 0.024812492 0.56400001
-0.048029609 0.024812492 0.56400001
-0.039656255 0.024196578 0.55000001
-0.038560141 0.024152584 0.54900002
-0.037536129 0.024152584 0.54900002
-0.036445618 0.024108591 0.54800004
-0.035100263 0.023888621 0.54300004
-0.034024667 0.023844628 0.54200006
-0.0329528 0.023800634 0.54100001
-0.031884667 0.02375664 0.54000002
-0.030820265 0.023712648 0.53900003
-0.029648961 0.023580665 0.53600001
-0.028649198 0.023580665 0.53600001
-0.027649436 0.023580665 0.53600001
-0.026649674 0.023580665 0.53600001
-0.025649911 0.023580665 0.53600001
-0.024650149 0.023580665 0.53600001
-0.023562137 0.023492677 0.53400004
-0.022566106 0.023492677 0.53400004
-0.021529682 0.023448685 0.53300005
-0.020535516 0.023448685 0.53300005
-0.019541347 0.023448685 0.53300005
-0.018512383 0.023404691 0.53200001
-0.017520081 0.023404691 0.53200001
-0.016558848 0.023448685 0.53300005
-0.015535478 0.023404691 0.53200001
-0.014543178 0.023404691 0.53200001
-0.013550876 0.023404691 0.53200001
-0.012558574 0.023404691 0.53200001
-0.011566273 0.023404691 0.53200001
-0.010573971 0.023404691 0.53200001
-0.0095816692 0.023404691 0.53200001
-0.0085893683 0.023404691 0.53200001
-0.0076113464 0.023448685 0.53300005
-0.0066171796 0.023448685 0.53300005
-0.0056230132 0.023448685 0.53300005
-0.0046288464 0.023448685 0.53300005
-0.0036278602 0.023404691 0.53200001
-0.0026355586 0.023404691 0.53200001
-0.0016432572 0.023404691 0.53200001
-0.0006509556 0.023404691 0.53200001
0.00034134591 0.023404691 0.53200001
0.0013336474 0.023404691 0.53200001
0.002325949 0.023404691 0.53200001
0.0033244879 0.023448685 0.53300005
0.004310552 0.023404691 0.53200001
0.0053028534 0.023404691 0.53200001
0.0062951553 0.023404691 0.53200001
0.0072874567 0.023404691 0.53200001
0.0082797585 0.023404691 0.53200001
0.0092894882 0.023448685 0.53300005
0.010264361 0.023404691 0.53200001
0.011256663 0.023404691 0.53200001
0.012271988 0.023448685 0.53300005
0.013266155 0.023448685 0.53300005
0.014260322 0.023448685 0.53300005
0.015254488 0.023448685 0.53300005
0.016248655 0.023448685 0.53300005
0.017275173 0.023492677 0.53400004
0.018271206 0.023492677 0.53400004
0.019267239 0.023492677 0.53400004
0.020339161 0.023580665 0.53600001
0.021338925 0.023580665 0.53600001
0.022380363 0.02362466 0.537
0.023381989 0.02362466 0.537
0.024429025 0.023668654 0.53800005
0.025479792 0.023712648 0.53900003
0.026485149 0.023712648 0.53900003
0.027490508 0.023712648 0.53900003
0.0286016 0.023800634 0.54100001
0.029665424 0.023844628 0.54200006
0.030789575 0.023932615 0.54400003
0.031921186 0.024020605 0.546
0.033301573 0.024284568 0.55200005
0.03433118 0.024284568 0.55200005
0.035424843 0.02432856 0.55300003
0.036456317 0.02432856 0.55300003
0.037555575 0.024372553 0.55400002
0.038658567 0.024416547 0.55500001
0.039622251 0.024372553 0.55400002
0.040728971 0.024416547 0.55500001
0.041764174 0.024416547 0.55500001
0.042799376 0.024416547 0.55500001
0.048885453 0.025428403 0.57800001
0.049963553 0.025428403 0.57800001
0.051041655 0.025428403 0.57800001
0.052119758 0.025428403 0.57800001
0.053197861 0.025428403 0.57800001
0.054369863 0.025472397 0.57900006
0.055354062 0.025428403 0.57800001
0.056432165 0.025428403 0.57800001
0.057609767 0.025472397 0.57900006
0.058588371 0.025428403 0.57800001
0.059769701 0.025472397 0.57900006
0.060744576 0.025428403 0.57800001
0.061822675 0.025428403 0.57800001
0.062791951 0.025384411 0.57700002
0.063868187 0.025384411 0.57700002
0.064944431 0.025384411 0.57700002
0.066020668 0.025384411 0.57700002
0.067096904 0.025384411 0.57700002
0.06817314 0.025384411 0.57700002
0.069249377 0.025384411 0.57700002
0.070325613 0.025384411 0.57700002
0.071525596 0.025428403 0.57800001
0.072603695 0.025428403 0.57800001
0.073681802 0.025428403 0.57800001
0.074759901 0.025428403 0.57800001
0.075969212 0.025472397 0.57900006
0.077049181 0.025472397 0.57900006
0.078129143 0.025472397 0.57900006
0.079209112 0.025472397 0.57900006
0.080289081 0.025472397 0.57900006
0.08136905 0.025472397 0.57900006
0.082591414 0.025516393 0.58000004
0.083528981 0.025472397 0.57900006
0.084755078 0.025516393 0.58000004
0.08583691 0.025516393 0.58000004
0.086918741 0.025516393 0.58000004
0.08784885 0.025472397 0.57900006
0.088928819 0.025472397 0.57900006
0.090008788 0.025472397 0.57900006
0.091088749 0.025472397 0.57900006
0.092009537 0.025428403 0.57800001
0.093248688 0.025472397 0.57900006
0.094328657 0.025472397 0.57900006
0.095408618 0.025472397 0.57900006
0.096655235 0.025516393 0.58000004
0.097737066 0.025516393 0.58000004
0.098818898 0.025516393 0.58000004
0.09990073 0.025516393 0.58000004
-0.098920085 0.026824914 0.58500004
-0.097828925 0.026824914 0.58500004
-0.096737765 0.026824914 0.58500004
-0.095646605 0.026824914 0.58500004
-0.094555445 0.026824914 0.58500004
-0.093464285 0.026824914 0.58500004
-0.092373133 0.026824914 0.58500004
-0.091281973 0.026824914 0.58500004
-0.090190813 0.026824914 0.58500004
-0.089099653 0.026824914 0.58500004
-0.087858059 0.026779059 0.58400005
-0.086917333 0.026824914 0.58500004
-0.085826181 0.026824914 0.58500004
-0.084590182 0.026779059 0.58400005
-0.083500884 0.026779059 0.58400005
-0.082411595 0.026779059 0.58400005
-0.081322297 0.026779059 0.58400005
-0.080233008 0.026779059 0.58400005
-0.07914371 0.026779059 0.58400005
-0.078054421 0.026779059 0.58400005
-0.076965123 0.026779059 0.58400005
-0.075875834 0.026779059 0.58400005
-0.074786536 0.026779059 0.58400005
-0.073697247 0.026779059 0.58400005
-0.072607949 0.026779059 0.58400005
-0.07151866 0.026779059 0.58400005
-0.070308767 0.026733205 0.583
-0.069102608 0.02668735 0.58200002
-0.068017043 0.02668735 0.58200002
-0.066931479 0.02668735 0.58200002
-0.065845914 0.02668735 0.58200002
-0.06476035 0.02668735 0.58200002
-0.063674793 0.02668735 0.58200002
-0.062589228 0.02668735 0.58200002
-0.061503664 0.02668735 0.58200002
-0.060418099 0.02668735 0.58200002
-0.059230588 0.026641497 0.58100003
-0.05814689 0.026641497 0.58100003
-0.057063192 0.026641497 0.58100003
-0.055979494 0.026641497 0.58100003
-0.054801315 0.026595643 0.58000004
-0.053626861 0.026549786 0.57900006
-0.051378038 0.026503932 0.57800001
-0.04916862 0.025907822 0.565
-0.048114765 0.025907822 0.565
-0.039728358 0.025265859 0.551
-0.038630378 0.025220005 0.55000001
-0.037536129 0.02517415 0.54900002
-0.036445618 0.025128296 0.54800004
-0.035358831 0.025082441 0.54700005
-0.034024667 0.024853168 0.54200006
-0.0329528 0.024807313 0.54100001
-0.031884667 0.024761459 0.54000002
-0.030820265 0.024715606 0.53900003
-0.029704276 0.024623897 0.537
-0.028649198 0.02457804 0.53600001
-0.027649436 0.02457804 0.53600001
-0.026649674 0.02457804 0.53600001
-0.025649911 0.02457804 0.53600001
-0.024650149 0.02457804 0.53600001
-0.023562137 0.024486331 0.53400004
-0.022523848 0.024440479 0.53300005
-0.021529682 0.024440479 0.53300005
-0.020496987 0.024394624 0.53200001
-0.019504685 0.024394624 0.53200001
-0.018512383 0.024394624 0.53200001
-0.017520081 0.024394624 0.53200001
-0.016527779 0.024394624 0.53200001
-0.015535478 0.024394624 0.53200001
-0.014543178 0.024394624 0.53200001
-0.013550876 0.024394624 0.53200001
-0.012558574 0.024394624 0.53200001
-0.011566273 0.024394624 0.53200001
-0.010573971 0.024394624 0.53200001
-0.0095816692 0.024394624 0.53200001
-0.0085893683 0.024394624 0.53200001
-0.0075970665 0.024394624 0.53200001
-0.0066047651 0.024394624 0.53200001
-0.0056124632 0.024394624 0.53200001
-0.0046201618 0.024394624 0.53200001
-0.0036210408 0.024348769 0.53100002
-0.0026306047 0.024348769 0.53100002
-0.0016401684 0.024348769 0.53100002
-0.00064973201 0.024348769 0.53100002
0.00034070428 0.024348769 0.53100002
0.0013336474 0.024394624 0.53200001
0.002325949 0.024394624 0.53200001
0.0033244879 0.024440479 0.53300005
0.004310552 0.024394624 0.53200001
0.0053028534 0.024394624 0.53200001
0.0062951553 0.024394624 0.53200001
0.0072874567 0.024394624 0.53200001
0.0082797585 0.024394624 0.53200001
0.0092720594 0.024394624 0.53200001
0.010264361 0.024394624 0.53200001
0.011256663 0.024394624 0.53200001
0.012248964 0.024394624 0.53200001
0.013241266 0.024394624 0.53200001
0.014233568 0.024394624 0.53200001
0.015225869 0.024394624 0.53200001
0.016218171 0.024394624 0.53200001
0.017242823 0.024440479 0.53300005
0.018271206 0.024486331 0.53400004
0.019267239 0.024486331 0.53400004
0.020339161 0.02457804 0.53600001
0.021338925 0.02457804 0.53600001
0.022422038 0.024669752 0.53800005
0.023425533 0.024669752 0.53800005
0.024429025 0.024669752 0.53800005
0.025479792 0.024715606 0.53900003
0.026534287 0.024761459 0.54000002
0.027592512 0.024807313 0.54100001
0.028654471 0.024853168 0.54200006
0.029665424 0.024853168 0.54200006
0.030676378 0.024853168 0.54200006
0.033180919 0.025220005 0.55000001
0.034393374 0.025357569 0.55300003
0.035617024 0.025495132 0.55600005
0.036522239 0.025403423 0.55400002
0.037623368 0.025449278 0.55500001
0.038658567 0.025449278 0.55500001
0.039693769 0.025449278 0.55500001
0.040728971 0.025449278 0.55500001
0.041764174 0.025449278 0.55500001
0.042799376 0.025449278 0.55500001
0.045256242 0.026274661 0.57300001
0.046325017 0.026274661 0.57300001
0.047559217 0.02636637 0.57500005
0.048800875 0.026458077 0.57700002
0.049877111 0.026458077 0.57700002
0.050953351 0.026458077 0.57700002
0.052119758 0.026503932 0.57800001
0.053197861 0.026503932 0.57800001
0.054275963 0.026503932 0.57800001
0.055354062 0.026503932 0.57800001
0.056432165 0.026503932 0.57800001
0.057510268 0.026503932 0.57800001
0.058588371 0.026503932 0.57800001
0.059666473 0.026503932 0.57800001
0.060639482 0.026458077 0.57700002
0.061715718 0.026458077 0.57700002
0.062791951 0.026458077 0.57700002
0.063868187 0.026458077 0.57700002
0.064944431 0.026458077 0.57700002
0.066020668 0.026458077 0.57700002
0.067096904 0.026458077 0.57700002
0.06817314 0.026458077 0.57700002
0.069249377 0.026458077 0.57700002
0.070203729 0.026412223 0.57600003
0.071401849 0.026458077 0.57700002
0.072478086 0.026458077 0.57700002
0.073681802 0.026503932 0.57800001
0.074759901 0.026503932 0.57800001
0.075838 0.026503932 0.57800001
0.077049181 0.026549786 0.57900006
0.077994205 0.026503932 0.57800001
0.079072312 0.026503932 0.57800001
0.080289081 0.026549786 0.57900006
0.08136905 0.026549786 0.57900006
0.082449012 0.026549786 0.57900006
0.083528981 0.026549786 0.57900006
0.08460895 0.026549786 0.57900006
0.085688919 0.026549786 0.57900006
0.08676888 0.026549786 0.57900006
0.087697126 0.026503932 0.57800001
0.088775225 0.026503932 0.57800001
0.089853331 0.026503932 0.57800001
0.09093143 0.026503932 0.57800001
0.092009537 0.026503932 0.57800001
0.093087636 0.026503932 0.57800001
0.094165735 0.026503932 0.57800001
0.095408618 0.026549786 0.57900006
0.096488588 0.026549786 0.57900006
0.097568557 0.026549786 0.57900006
0.098648526 0.026549786 0.57900006
0.099728487 0.026549786 0.57900006
-0.099840291 0.027865753 0.58400005
-0.098750994 0.027865753 0.58400005
-0.097661704 0.027865753 0.58400005
-0.096572407 0.027865753 0.58400005
-0.095646605 0.027913468 0.58500004
-0.094555445 0.027913468 0.58500004
-0.09330453 0.027865753 0.58400005
-0.092215233 0.027865753 0.58400005
-0.091125943 0.027865753 0.58400005
-0.090036646 0.027865753 0.58400005
-0.088947356 0.027865753 0.58400005
-0.087858059 0.027865753 0.58400005
-0.086768769 0.027865753 0.58400005
-0.085679471 0.027865753 0.58400005
-0.084590182 0.027865753 0.58400005
-0.083500884 0.027865753 0.58400005
-0.082411595 0.027865753 0.58400005
-0.081183046 0.027818037 0.583
-0.080233008 0.027865753 0.58400005
-0.079008192 0.027818037 0.583
-0.077920765 0.027818037 0.583
-0.076833338 0.027818037 0.583
-0.07574591 0.027818037 0.583
-0.074658476 0.027818037 0.583
-0.073571049 0.027818037 0.583
-0.072359294 0.027770322 0.58200002
-0.071273729 0.027770322 0.58200002
-0.070188165 0.027770322 0.58200002
-0.068983868 0.027722606 0.58100003
-0.067900173 0.027722606 0.58100003
-0.066816479 0.027722606 0.58100003
-0.065732777 0.027722606 0.58100003
-0.064649083 0.027722606 0.58100003
-0.063565381 0.027722606 0.58100003
-0.062481686 0.027722606 0.58100003
-0.061397988 0.027722606 0.58100003
-0.060210478 0.027674893 0.58000004
-0.059128646 0.027674893 0.58000004
-0.058046814 0.027674893 0.58000004
-0.056964982 0.027674893 0.58000004
-0.055883147 0.027674893 0.58000004
-0.054706831 0.027627176 0.57900006
-0.053534243 0.02757946 0.57800001
-0.052456141 0.02757946 0.57800001
-0.051378038 0.02757946 0.57800001
-0.04934267 0.027054593 0.56700003
-0.048114765 0.02695916 0.565
-0.044794079 0.02686373 0.56300002
-0.043743957 0.02686373 0.56300002
-0.039728358 0.026291145 0.551
-0.038630378 0.026243431 0.55000001
-0.037536129 0.026195716 0.54900002
-0.036512122 0.026195716 0.54900002
-0.035423473 0.026148001 0.54800004
-0.034087442 0.025909424 0.54300004
-0.0329528 0.025813993 0.54100001
-0.031884667 0.025766278 0.54000002
-0.030820265 0.025718562 0.53900003
-0.029704276 0.025623133 0.537
-0.028649198 0.025575416 0.53600001
-0.027649436 0.025575416 0.53600001
-0.026649674 0.025575416 0.53600001
-0.025649911 0.025575416 0.53600001
-0.024604158 0.025527701 0.53500003
-0.023518015 0.02543227 0.53300005
-0.022523848 0.02543227 0.53300005
-0.021489289 0.025384557 0.53200001
-0.020496987 0.025384557 0.53200001
-0.019504685 0.025384557 0.53200001
-0.018512383 0.025384557 0.53200001
-0.017520081 0.025384557 0.53200001
-0.016527779 0.025384557 0.53200001
-0.015535478 0.025384557 0.53200001
-0.01451584 0.025336841 0.53100002
-0.013525404 0.025336841 0.53100002
-0.012534968 0.025336841 0.53100002
-0.011544531 0.025336841 0.53100002
-0.010554095 0.025336841 0.53100002
-0.0095636584 0.025336841 0.53100002
-0.008573222 0.025336841 0.53100002
-0.0075970665 0.025384557 0.53200001
-0.0066047651 0.025384557 0.53200001
-0.0056124632 0.025384557 0.53200001
-0.0046201618 0.025384557 0.53200001
-0.0036210408 0.025336841 0.53100002
-0.0026306047 0.025336841 0.53100002
-0.0016370795 0.025289126 0.53000003
-0.00064850843 0.025289126 0.53000003
0.00034006266 0.025289126 0.53000003
0.0013311406 0.025336841 0.53100002
0.0023215769 0.025336841 0.53100002
0.0033182506 0.025384557 0.53200001
0.004310552 0.025384557 0.53200001
0.0053028534 0.025384557 0.53200001
0.0062951553 0.025384557 0.53200001
0.0072874567 0.025384557 0.53200001
0.0082797585 0.025384557 0.53200001
0.0092720594 0.025384557 0.53200001
0.010264361 0.025384557 0.53200001
0.011256663 0.025384557 0.53200001
0.012248964 0.025384557 0.53200001
0.013241266 0.025384557 0.53200001
0.014233568 0.025384557 0.53200001
0.015225869 0.025384557 0.53200001
0.016218171 0.025384557 0.53200001
0.017242823 0.02543227 0.53300005
0.018236989 0.02543227 0.53300005
0.019303318 0.025527701 0.53500003
0.020339161 0.025575416 0.53600001
0.021378735 0.025623133 0.537
0.022422038 0.025670849 0.53800005
0.023425533 0.025670849 0.53800005
0.024474433 0.025718562 0.53900003
0.025527064 0.025766278 0.54000002
0.026583424 0.025813993 0.54100001
0.027643517 0.025861708 0.54200006
0.028654471 0.025861708 0.54200006
0.029720157 0.025909424 0.54300004
0.030732976 0.025909424 0.54300004
0.033180919 0.026243431 0.55000001
0.034517761 0.026482008 0.55500001
0.035617024 0.026529724 0.55600005
0.036588166 0.026482008 0.55500001
0.037623368 0.026482008 0.55500001
0.038658567 0.026482008 0.55500001
0.039693769 0.026482008 0.55500001
0.040728971 0.026482008 0.55500001
0.041764174 0.026482008 0.55500001
0.04411035 0.027293168 0.57200003
0.045256242 0.027340885 0.57300001
0.046325017 0.027340885 0.57300001
0.047559217 0.027436314 0.57500005
0.048716299 0.02748403 0.57600003
0.049790669 0.02748403 0.57600003
0.050865043 0.02748403 0.57600003
0.052029587 0.027531745 0.57700002
0.053197861 0.02757946 0.57800001
0.054275963 0.02757946 0.57800001
0.055354062 0.02757946 0.57800001
0.056432165 0.02757946 0.57800001
0.057510268 0.02757946 0.57800001
0.058588371 0.02757946 0.57800001
0.059666473 0.02757946 0.57800001
0.060534388 0.02748403 0.57600003
0.061715718 0.027531745 0.57700002
0.062683128 0.02748403 0.57600003
0.063757502 0.02748403 0.57600003
0.064831875 0.02748403 0.57600003
0.065906242 0.02748403 0.57600003
0.066980615 0.02748403 0.57600003
0.068054989 0.02748403 0.57600003
0.069129363 0.02748403 0.57600003
0.070203729 0.02748403 0.57600003
0.071154356 0.027436314 0.57500005
0.072352476 0.02748403 0.57600003
0.073426843 0.02748403 0.57600003
0.074630558 0.027531745 0.57700002
0.075706795 0.027531745 0.57700002
0.076783031 0.027531745 0.57700002
0.077859268 0.027531745 0.57700002
0.078935504 0.027531745 0.57700002
0.08001174 0.027531745 0.57700002
0.081087977 0.027531745 0.57700002
0.082164221 0.027531745 0.57700002
0.083384715 0.02757946 0.57800001
0.084316693 0.027531745 0.57700002
0.08554092 0.02757946 0.57800001
0.086619027 0.02757946 0.57800001
0.087545402 0.027531745 0.57700002
0.088621639 0.027531745 0.57700002
0.089697875 0.027531745 0.57700002
0.090774111 0.027531745 0.57700002
0.091850348 0.027531745 0.57700002
0.092926584 0.027531745 0.57700002
0.094002821 0.027531745 0.57700002
0.095243841 0.02757946 0.57800001
0.09632194 0.02757946 0.57800001
0.097400047 0.02757946 0.57800001
0.098478146 0.02757946 0.57800001
0.099728487 0.027627176 0.57900006
-0.09966933 0.02890287 0.583
-0.098581903 0.02890287 0.583
-0.097494468 0.02890287 0.583
-0.096407041 0.02890287 0.583
-0.095483117 0.028952446 0.58400005
-0.09439382 0.028952446 0.58400005
-0.09330453 0.028952446 0.58400005
-0.092215233 0.028952446 0.58400005
-0.091125943 0.028952446 0.58400005
-0.089882471 0.02890287 0.583
-0.088795044 0.02890287 0.583
-0.087707616 0.02890287 0.583
-0.086620189 0.02890287 0.583
-0.085532762 0.02890287 0.583
-0.084445335 0.02890287 0.583
-0.083357908 0.02890287 0.583
-0.082270473 0.02890287 0.583
-0.081043795 0.028853294 0.58200002
-0.080095619 0.02890287 0.583
-0.078872673 0.028853294 0.58200002
-0.077787109 0.028853294 0.58200002
-0.076701544 0.028853294 0.58200002
-0.07561598 0.028853294 0.58200002
-0.074402362 0.028803717 0.58100003
-0.07331866 0.028803717 0.58100003
-0.072234966 0.028803717 0.58100003
-0.071273729 0.028853294 0.58200002
-0.07006757 0.028803717 0.58100003
-0.068865135 0.028754141 0.58000004
-0.067783304 0.028754141 0.58000004
-0.066701472 0.028754141 0.58000004
-0.06561964 0.028754141 0.58000004
-0.064537808 0.028754141 0.58000004
-0.063455977 0.028754141 0.58000004
-0.062374145 0.028754141 0.58000004
-0.061292309 0.028754141 0.58000004
-0.060210478 0.028754141 0.58000004
-0.0590267 0.028704563 0.57900006
-0.05794673 0.028704563 0.57900006
-0.056866765 0.028704563 0.57900006
-0.055786796 0.028704563 0.57900006
-0.054706831 0.028704563 0.57900006
-0.053534243 0.028654989 0.57800001
-0.052456141 0.028654989 0.57800001
-0.051200259 0.028555837 0.57600003
-0.049864814 0.028407108 0.57300001
-0.048285086 0.028109651 0.56700003
-0.044873644 0.027960923 0.56400001
-0.042769667 0.027960923 0.56400001
-0.038700618 0.027316432 0.551
-0.037604503 0.027266856 0.55000001
-0.036512122 0.027217282 0.54900002
-0.035423473 0.027167706 0.54800004
-0.034401327 0.027167706 0.54800004
-0.033074625 0.026919825 0.54300004
-0.032002758 0.026870249 0.54200006
-0.030877443 0.026771097 0.54000002
-0.029704276 0.02662237 0.537
-0.028649198 0.026572792 0.53600001
-0.027649436 0.026572792 0.53600001
-0.026649674 0.026572792 0.53600001
-0.025649911 0.026572792 0.53600001
-0.024604158 0.026523216 0.53500003
-0.023518015 0.026424063 0.53300005
-0.022481589 0.026374489 0.53200001
-0.021489289 0.026374489 0.53200001
-0.020496987 0.026374489 0.53200001
-0.019504685 0.026374489 0.53200001
-0.018512383 0.026374489 0.53200001
-0.01748715 0.026324913 0.53100002
-0.016496712 0.026324913 0.53100002
-0.015506276 0.026324913 0.53100002
-0.014488503 0.026275337 0.53000003
-0.013499932 0.026275337 0.53000003
-0.012511361 0.026275337 0.53000003
-0.011544531 0.026324913 0.53100002
-0.010534219 0.026275337 0.53000003
-0.0095456485 0.026275337 0.53000003
-0.0085570775 0.026275337 0.53000003
-0.0075685061 0.026275337 0.53000003
-0.0065923501 0.026324913 0.53100002
-0.0056019137 0.026324913 0.53100002
-0.0046027927 0.026275337 0.53000003
-0.0036142217 0.026275337 0.53000003
-0.0026256505 0.026275337 0.53000003
-0.0016370795 0.026275337 0.53000003
-0.00064850843 0.026275337 0.53000003
0.00034006266 0.026275337 0.53000003
0.0013286337 0.026275337 0.53000003
0.0023172048 0.026275337 0.53000003
0.0033120131 0.026324913 0.53100002
0.004310552 0.026374489 0.53200001
0.0053028534 0.026374489 0.53200001
0.0062833223 0.026324913 0.53100002
0.0072737583 0.026324913 0.53100002
0.0082641952 0.026324913 0.53100002
0.0092546316 0.026324913 0.53100002
0.010245068 0.026324913 0.53100002
0.011235504 0.026324913 0.53100002
0.012248964 0.026374489 0.53200001
0.013216376 0.026324913 0.53100002
0.014233568 0.026374489 0.53200001
0.015225869 0.026374489 0.53200001
0.016218171 0.026374489 0.53200001
0.017210472 0.026374489 0.53200001
0.018236989 0.026424063 0.53300005
0.019303318 0.026523216 0.53500003
0.020339161 0.026572792 0.53600001
0.021378735 0.02662237 0.537
0.022463717 0.02672152 0.53900003
0.023469076 0.02672152 0.53900003
0.024474433 0.02672152 0.53900003
0.025574336 0.026820673 0.54100001
0.026583424 0.026820673 0.54100001
0.027694518 0.026919825 0.54300004
0.028760206 0.026969399 0.54400003
0.029774889 0.026969399 0.54400003
0.031355556 0.027465163 0.55400002
0.032447357 0.027514739 0.55500001
0.033301573 0.02736601 0.55200005
0.034517761 0.027514739 0.55500001
0.035681084 0.027613889 0.55700004
0.036588166 0.027514739 0.55500001
0.037623368 0.027514739 0.55500001
0.038658567 0.027514739 0.55500001
0.039693769 0.027514739 0.55500001
0.040728971 0.027514739 0.55500001
0.042968187 0.028307956 0.57100004
0.04411035 0.028357532 0.57200003
0.045177262 0.028357532 0.57200003
0.046325017 0.028407108 0.57300001
0.047476504 0.028456684 0.574
0.048631724 0.02850626 0.57500005
0.049704228 0.02850626 0.57500005
0.050865043 0.028555837 0.57600003
0.051939413 0.028555837 0.57600003
0.053105824 0.028605413 0.57700002
0.05418206 0.028605413 0.57700002
0.055258296 0.028605413 0.57700002
0.056334533 0.028605413 0.57700002
0.057410769 0.028605413 0.57700002
0.058487006 0.028605413 0.57700002
0.059563242 0.028605413 0.57700002
0.060429294 0.02850626 0.57500005
0.061608758 0.028555837 0.57600003
0.062574305 0.02850626 0.57500005
0.063757502 0.028555837 0.57600003
0.064719319 0.02850626 0.57500005
0.065906242 0.028555837 0.57600003
0.066864334 0.02850626 0.57500005
0.067936838 0.02850626 0.57500005
0.069009341 0.02850626 0.57500005
0.070081852 0.02850626 0.57500005
0.071154356 0.02850626 0.57500005
0.07222686 0.02850626 0.57500005
0.073299371 0.02850626 0.57500005
0.074501216 0.028555837 0.57600003
0.07557559 0.028555837 0.57600003
0.076649964 0.028555837 0.57600003
0.07772433 0.028555837 0.57600003
0.078798704 0.028555837 0.57600003
0.079873078 0.028555837 0.57600003
0.080947444 0.028555837 0.57600003
0.082021818 0.028555837 0.57600003
0.083096191 0.028555837 0.57600003
0.084170565 0.028555837 0.57600003
0.085244931 0.028555837 0.57600003
0.086319305 0.028555837 0.57600003
0.087393679 0.028555837 0.57600003
0.088621639 0.028605413 0.57700002
0.089542419 0.028555837 0.57600003
0.090616792 0.028555837 0.57600003
0.091691166 0.028555837 0.57600003
0.092926584 0.028605413 0.57700002
0.094002821 0.028605413 0.57700002
0.095079057 0.028605413 0.57700002
0.096155293 0.028605413 0.57700002
0.09723153 0.028605413 0.57700002
0.098307766 0.028605413 0.57700002
0.099556245 0.028654989 0.57800001
-0.099327408 0.029884828 0.58100003
-0.098243713 0.029884828 0.58100003
-0.097160012 0.029884828 0.58100003
-0.096076317 0.029884828 0.58100003
-0.094992615 0.029884828 0.58100003
-0.093908921 0.029884828 0.58100003
-0.092825219 0.029884828 0.58100003
-0.091899425 0.029936265 0.58200002
-0.090813868 0.029936265 0.58200002
-0.089728303 0.029936265 0.58200002
-0.088642739 0.029936265 0.58200002
-0.087406732 0.029884828 0.58100003
-0.086323038 0.029884828 0.58100003
-0.085239336 0.029884828 0.58100003
-0.084010795 0.029833391 0.58000004
-0.082928963 0.029833391 0.58000004
-0.081988245 0.029884828 0.58100003
-0.080904543 0.029884828 0.58100003
-0.079820849 0.029884828 0.58100003
-0.078601629 0.029833391 0.58000004
-0.077653453 0.029884828 0.58100003
-0.076437965 0.029833391 0.58000004
-0.075356133 0.029833391 0.58000004
-0.074274302 0.029833391 0.58000004
-0.07319247 0.029833391 0.58000004
-0.072110638 0.029833391 0.58000004
-0.071028806 0.029833391 0.58000004
-0.069826372 0.029781953 0.57900006
-0.06862767 0.029730516 0.57800001
-0.067549571 0.029730516 0.57800001
-0.066586472 0.029781953 0.57900006
-0.065506503 0.029781953 0.57900006
-0.064426534 0.029781953 0.57900006
-0.06323716 0.029730516 0.57800001
-0.062159058 0.029730516 0.57800001
-0.061080955 0.029730516 0.57800001
-0.060002856 0.029730516 0.57800001
-0.058924753 0.029730516 0.57800001
-0.057746571 0.02967908 0.57700002
-0.056768548 0.029730516 0.57800001
-0.055594094 0.02967908 0.57700002
-0.054517858 0.02967908 0.57700002
-0.053441621 0.02967908 0.57700002
-0.052274629 0.029627644 0.57600003
-0.05111137 0.029576207 0.57500005
-0.049951836 0.02952477 0.574
-0.048881195 0.02952477 0.574
-0.047810555 0.02952477 0.574
-0.038770854 0.028393159 0.55200005
-0.037672874 0.02834172 0.551
-0.036578625 0.028290283 0.55000001
-0.03548811 0.028238846 0.54900002
-0.034401327 0.028187411 0.54800004
-0.033196446 0.0280331 0.54500002
-0.032061804 0.027930226 0.54300004
-0.030991806 0.027878789 0.54200006
-0.029870221 0.027775915 0.54000002
-0.028702648 0.027621606 0.537
-0.027649436 0.027570168 0.53600001
-0.026649674 0.027570168 0.53600001
-0.025602056 0.027518731 0.53500003
-0.02455817 0.027467294 0.53400004
-0.023518015 0.027415857 0.53300005
-0.022481589 0.02736442 0.53200001
-0.021489289 0.02736442 0.53200001
-0.020496987 0.02736442 0.53200001
-0.019468021 0.027312985 0.53100002
-0.018442789 0.027261548 0.53000003
-0.017454218 0.027261548 0.53000003
-0.016434578 0.027210109 0.52900004
-0.015447873 0.027210109 0.52900004
-0.014461167 0.027210109 0.52900004
-0.013448989 0.027158672 0.528
-0.012464149 0.027158672 0.528
-0.011479308 0.027158672 0.528
-0.010494468 0.027158672 0.528
-0.0095096268 0.027158672 0.528
-0.0085247857 0.027158672 0.528
-0.0075399457 0.027158672 0.528
-0.0065675201 0.027210109 0.52900004
-0.0055808141 0.027210109 0.52900004
-0.0045941081 0.027210109 0.52900004
-0.0036005832 0.027158672 0.528
-0.0026206966 0.027210109 0.52900004
-0.0016309018 0.027158672 0.528
-0.00064606121 0.027158672 0.528
0.00033877941 0.027158672 0.528
0.00132362 0.027158672 0.528
0.0023040886 0.027107235 0.52700001
0.0032870639 0.027107235 0.52700001
0.0042862445 0.027210109 0.52900004
0.0052729505 0.027210109 0.52900004
0.006259656 0.027210109 0.52900004
0.0072600604 0.027261548 0.53000003
0.0082330676 0.027210109 0.52900004
0.0092372028 0.027261548 0.53000003
0.010225774 0.027261548 0.53000003
0.011235504 0.027312985 0.53100002
0.012225941 0.027312985 0.53100002
0.013216376 0.027312985 0.53100002
0.014206813 0.027312985 0.53100002
0.015225869 0.02736442 0.53200001
0.016218171 0.02736442 0.53200001
0.017210472 0.02736442 0.53200001
0.018202774 0.02736442 0.53200001
0.019267239 0.027467294 0.53400004
0.020377107 0.027621606 0.537
0.021418545 0.027673041 0.53800005
0.02254707 0.027827352 0.54100001
0.023556158 0.027827352 0.54100001
0.024565246 0.027827352 0.54100001
0.025621608 0.027878789 0.54200006
0.026632562 0.027878789 0.54200006
0.027796524 0.0280331 0.54500002
0.028865941 0.028084537 0.546
0.029829623 0.0280331 0.54500002
0.031242361 0.028393159 0.55200005
0.032388896 0.028496033 0.55400002
0.033361901 0.028444596 0.55300003
0.034517761 0.028547468 0.55500001
0.035681084 0.028650342 0.55700004
0.036720015 0.028650342 0.55700004
0.03775895 0.028650342 0.55700004
0.038797881 0.028650342 0.55700004
0.039836813 0.028650342 0.55700004
0.041829754 0.029319022 0.57000005
0.042892937 0.029319022 0.57000005
0.044033233 0.029370459 0.57100004
0.045177262 0.029421894 0.57200003
0.046244171 0.029421894 0.57200003
0.047393795 0.029473333 0.57300001
0.04846257 0.029473333 0.57300001
0.049531344 0.029473333 0.57300001
0.050688427 0.02952477 0.574
0.051849242 0.029576207 0.57500005
0.05292175 0.029576207 0.57500005
0.054088157 0.029627644 0.57600003
0.055066761 0.029576207 0.57500005
0.056139268 0.029576207 0.57500005
0.057211775 0.029576207 0.57500005
0.058182918 0.02952477 0.574
0.059253559 0.02952477 0.574
0.060219105 0.029473333 0.57300001
0.06128788 0.029473333 0.57300001
0.062356658 0.029473333 0.57300001
0.063425429 0.029473333 0.57300001
0.064494208 0.029473333 0.57300001
0.065677404 0.02952477 0.574
0.066748045 0.02952477 0.574
0.067818686 0.02952477 0.574
0.068889327 0.02952477 0.574
0.069959968 0.02952477 0.574
0.070906863 0.029473333 0.57300001
0.07210125 0.02952477 0.574
0.073171891 0.02952477 0.574
0.074242532 0.02952477 0.574
0.075444378 0.029576207 0.57500005
0.076516889 0.029576207 0.57500005
0.077589393 0.029576207 0.57500005
0.078661904 0.029576207 0.57500005
0.079734407 0.029576207 0.57500005
0.080666378 0.02952477 0.574
0.081737019 0.02952477 0.574
0.08280766 0.02952477 0.574
0.083878301 0.02952477 0.574
0.084948942 0.02952477 0.574
0.086019583 0.02952477 0.574
0.087090224 0.02952477 0.574
0.088314459 0.029576207 0.57500005
0.089386962 0.029576207 0.57500005
0.090459473 0.029576207 0.57500005
0.091531977 0.029576207 0.57500005
0.092604481 0.029576207 0.57500005
0.093839906 0.029627644 0.57600003
0.094749495 0.029576207 0.57500005
0.095821999 0.029576207 0.57500005
0.09689451 0.029576207 0.57500005
0.098137394 0.029627644 0.57600003
0.099211767 0.029627644 0.57600003
-0.099156447 0.030912641 0.58000004
-0.098074615 0.030912641 0.58000004
-0.096992783 0.030912641 0.58000004
-0.095910951 0.030912641 0.58000004
-0.09482912 0.030912641 0.58000004
-0.093747288 0.030912641 0.58000004
-0.092665456 0.030912641 0.58000004
-0.091583617 0.030912641 0.58000004
-0.090501785 0.030912641 0.58000004
-0.089419954 0.030912641 0.58000004
-0.088338122 0.030912641 0.58000004
-0.08725629 0.030912641 0.58000004
-0.086174458 0.030912641 0.58000004
-0.085092627 0.030912641 0.58000004
-0.083865948 0.030859344 0.57900006
-0.082785979 0.030859344 0.57900006
-0.08170601 0.030859344 0.57900006
-0.080626048 0.030859344 0.57900006
-0.07968346 0.030912641 0.58000004
-0.07846611 0.030859344 0.57900006
-0.077386141 0.030859344 0.57900006
-0.076306179 0.030859344 0.57900006
-0.07522621 0.030859344 0.57900006
-0.074146241 0.030859344 0.57900006
-0.073066272 0.030859344 0.57900006
-0.071986303 0.030859344 0.57900006
-0.070906341 0.030859344 0.57900006
-0.069705777 0.030806046 0.57800001
-0.068508938 0.030752748 0.57700002
-0.067432702 0.030752748 0.57700002
-0.066471465 0.030806046 0.57800001
-0.065393366 0.030806046 0.57800001
-0.064203992 0.030752748 0.57700002
-0.063127756 0.030752748 0.57700002
-0.062051516 0.030752748 0.57700002
-0.06097528 0.030752748 0.57700002
-0.059899043 0.030752748 0.57700002
-0.058822807 0.030752748 0.57700002
-0.057746571 0.030752748 0.57700002
-0.056670334 0.030752748 0.57700002
-0.055497747 0.030699447 0.57600003
-0.054423373 0.030699447 0.57600003
-0.053349003 0.030699447 0.57600003
-0.052183874 0.030646151 0.57500005
-0.05111137 0.030646151 0.57500005
-0.049951836 0.030592853 0.574
-0.048881195 0.030592853 0.574
-0.047643967 0.030486258 0.57200003
-0.036645133 0.029367007 0.551
-0.035552751 0.02931371 0.55000001
-0.034464099 0.029260412 0.54900002
-0.033379182 0.029207114 0.54800004
-0.032238945 0.029100521 0.546
-0.031106167 0.028993923 0.54400003
-0.030091483 0.028993923 0.54400003
-0.028862998 0.028780734 0.54000002
-0.027701022 0.028620841 0.537
-0.026649674 0.028567543 0.53600001
-0.025602056 0.028514246 0.53500003
-0.02455817 0.028460948 0.53400004
-0.02347389 0.028354352 0.53200001
-0.022481589 0.028354352 0.53200001
-0.021489289 0.028354352 0.53200001
-0.020458458 0.028301056 0.53100002
-0.01943136 0.028247759 0.53000003
-0.018442789 0.028247759 0.53000003
-0.017421285 0.028194459 0.52900004
-0.016434578 0.028194459 0.52900004
-0.015447873 0.028194459 0.52900004
-0.01443383 0.028141161 0.528
-0.013448989 0.028141161 0.528
-0.012440542 0.028087864 0.52700001
-0.011457566 0.028087864 0.52700001
-0.010474592 0.028087864 0.52700001
-0.0094916159 0.028087864 0.52700001
-0.0085247857 0.028141161 0.528
-0.0075399457 0.028141161 0.528
-0.0065551051 0.028141161 0.528
-0.0055702645 0.028141161 0.528
-0.0045854235 0.028141161 0.528
-0.0036005832 0.028141161 0.528
-0.0026157424 0.028141161 0.528
-0.0016309018 0.028141161 0.528
-0.00064606121 0.028141161 0.528
0.00033813779 0.028087864 0.52700001
0.0013211132 0.028087864 0.52700001
0.0023040886 0.028087864 0.52700001
0.0032870639 0.028087864 0.52700001
0.0042862445 0.028194459 0.52900004
0.0052729505 0.028194459 0.52900004
0.006259656 0.028194459 0.52900004
0.007246362 0.028194459 0.52900004
0.0082330676 0.028194459 0.52900004
0.0092372028 0.028247759 0.53000003
0.010225774 0.028247759 0.53000003
0.011235504 0.028301056 0.53100002
0.012225941 0.028301056 0.53100002
0.013216376 0.028301056 0.53100002
0.014206813 0.028301056 0.53100002
0.015225869 0.028354352 0.53200001
0.016218171 0.028354352 0.53200001
0.017210472 0.028354352 0.53200001
0.018236989 0.02840765 0.53300005
0.019267239 0.028460948 0.53400004
0.020415053 0.028674139 0.53800005
0.02149817 0.028780734 0.54000002
0.02254707 0.028834032 0.54100001
0.023599701 0.02888733 0.54200006
0.024656061 0.028940625 0.54300004
0.025763424 0.029047223 0.54500002
0.026927387 0.029207114 0.54800004
0.027949532 0.029207114 0.54800004
0.028971678 0.029207114 0.54800004
