# .PCD v0.7 - Point Cloud Data file format
VERSION 0.7
FIELDS x y z
SIZE 4 4 4
TYPE F F F
COUNT 1 1 1
WIDTH 1375
HEIGHT 1
VIEWPOINT 0 0 0 1 0 0 0
POINTS 1375
DATA ascii
-0.021010924 0.010260412 0.63800001
-0.016210722 0.0095367152 0.59300005
-0.015053698 0.0095045511 0.59100002
-0.013974954 0.0095206331 0.59200001
-0.012870739 0.0095206331 0.59200001
-0.011766524 0.0095206331 0.59200001
-0.010644298 0.0095045511 0.59100002
-0.0095419474 0.0095045511 0.59100002
-0.0084395977 0.0095045511 0.59100002
-0.007337248 0.0095045511 0.59100002
-0.0062348982 0.0095045511 0.59100002
-0.005132548 0.0095045511 0.59100002
-0.0040233787 0.009488469 0.59000003
-0.002922894 0.009488469 0.59000003
-0.0018224092 0.009488469 0.59000003
-0.00072192447 0.009488469 0.59000003
0.00037856033 0.009488469 0.59000003
0.0014790451 0.009488469 0.59000003
0.0025751579 0.0094723869 0.58900005
0.0036737774 0.0094723869 0.58900005
0.0047642943 0.0094563039 0.588
0.0058610486 0.0094563039 0.588
0.0069696358 0.0094723869 0.58900005
0.0080682551 0.0094723869 0.58900005
0.0091668749 0.0094723869 0.58900005
0.010282923 0.009488469 0.59000003
0.011383408 0.009488469 0.59000003
0.012483893 0.009488469 0.59000003
0.013584378 0.009488469 0.59000003
0.014659973 0.0094723869 0.58900005
0.015758593 0.0094723869 0.58900005
0.016857212 0.0094723869 0.58900005
0.01795583 0.0094723869 0.58900005
0.01905445 0.0094723869 0.58900005
0.02015307 0.0094723869 0.58900005
0.02125169 0.0094723869 0.58900005
0.022350309 0.0094723869 0.58900005
0.023448929 0.0094723869 0.58900005
0.024547549 0.0094723869 0.58900005
0.025689712 0.009488469 0.59000003
0.026744789 0.0094723869 0.58900005
0.027843406 0.0094723869 0.58900005
0.028942026 0.0094723869 0.58900005
0.030040646 0.0094723869 0.58900005
0.031139268 0.0094723869 0.58900005
0.032347351 0.0095045511 0.59100002
0.033449702 0.0095045511 0.59100002
0.034610517 0.0095206331 0.59200001
0.035714731 0.0095206331 0.59200001
0.036818948 0.0095206331 0.59200001
0.037923161 0.0095206331 0.59200001
0.039027378 0.0095206331 0.59200001
0.040131591 0.0095206331 0.59200001
0.041235808 0.0095206331 0.59200001
0.042340022 0.0095206331 0.59200001
0.043444239 0.0095206331 0.59200001
0.044623703 0.0095367152 0.59300005
0.045652669 0.0095206331 0.59200001
0.046835866 0.0095367152 0.59300005
0.047941945 0.0095367152 0.59300005
0.049130738 0.0095527973 0.59400004
0.050154105 0.0095367152 0.59300005
0.056340098 0.010260412 0.63800001
0.057530116 0.010260412 0.63800001
0.05872013 0.010260412 0.63800001
0.059722342 0.010228248 0.63600004
0.060908627 0.010228248 0.63600004
0.062290177 0.010260412 0.63800001
0.063181698 0.010212166 0.63500005
0.064467482 0.010228248 0.63600004
0.065550536 0.010212166 0.63500005
0.066734962 0.010212166 0.63500005
0.067919381 0.010212166 0.63500005
0.0691038 0.010212166 0.63500005
0.070288219 0.010212166 0.63500005
0.071472637 0.010212166 0.63500005
0.072657064 0.010212166 0.63500005
0.073841482 0.010212166 0.63500005
0.075025901 0.010212166 0.63500005
0.07621032 0.010212166 0.63500005
0.077394739 0.010212166 0.63500005
0.078579158 0.010212166 0.63500005
0.079763584 0.010212166 0.63500005
0.081075475 0.010228248 0.63600004
0.082261764 0.010228248 0.63600004
0.083448045 0.010228248 0.63600004
0.084501259 0.010212166 0.63500005
0.085685678 0.010212166 0.63500005
0.087006904 0.010228248 0.63600004
0.088193186 0.010228248 0.63600004
0.089379475 0.010228248 0.63600004
0.090565756 0.010228248 0.63600004
0.091752045 0.010228248 0.63600004
0.092938334 0.010228248 0.63600004
0.094124615 0.010228248 0.63600004
0.095310904 0.010228248 0.63600004
0.096497186 0.010228248 0.63600004
0.097683474 0.010228248 0.63600004
0.098869756 0.010228248 0.63600004
-0.099749506 0.011609073 0.64700001
-0.098542698 0.011609073 0.64700001
-0.097185455 0.011591131 0.64600003
-0.095980518 0.011591131 0.64600003
-0.09477558 0.011591131 0.64600003
-0.093715489 0.011609073 0.64700001
-0.092365704 0.011591131 0.64600003
-0.091160767 0.011591131 0.64600003
-0.09009508 0.011609073 0.64700001
-0.08888828 0.011609073 0.64700001
-0.087681472 0.011609073 0.64700001
-0.086474672 0.011609073 0.64700001
-0.08460892 0.011519358 0.64200002
-0.08341144 0.011519358 0.64200002
-0.082213968 0.011519358 0.64200002
-0.081016488 0.011519358 0.64200002
-0.079819016 0.011519358 0.64200002
-0.078621536 0.011519358 0.64200002
-0.077424057 0.011519358 0.64200002
-0.076226585 0.011519358 0.64200002
-0.075029105 0.011519358 0.64200002
-0.073831633 0.011519358 0.64200002
-0.072634153 0.011519358 0.64200002
-0.071436673 0.011519358 0.64200002
-0.070020385 0.011483473 0.64000005
-0.068826638 0.011483473 0.64000005
-0.067632891 0.011483473 0.64000005
-0.066439144 0.011483473 0.64000005
-0.065245397 0.011483473 0.64000005
-0.06405165 0.011483473 0.64000005
-0.062857911 0.011483473 0.64000005
-0.06166416 0.011483473 0.64000005
-0.060564902 0.011501416 0.64100003
-0.059369288 0.011501416 0.64100003
-0.058173679 0.011501416 0.64100003
-0.056978066 0.011501416 0.64100003
-0.055782456 0.011501416 0.64100003
-0.054586843 0.011501416 0.64100003
-0.053391233 0.011501416 0.64100003
-0.05219562 0.011501416 0.64100003
-0.05100001 0.011501416 0.64100003
-0.049726699 0.011483473 0.64000005
-0.048532952 0.011483473 0.64000005
-0.047339208 0.011483473 0.64000005
-0.046145461 0.011483473 0.64000005
-0.044951715 0.011483473 0.64000005
-0.043757968 0.011483473 0.64000005
-0.042564221 0.011483473 0.64000005
-0.041305833 0.01146553 0.63900006
-0.040176731 0.011483473 0.64000005
-0.038922071 0.01146553 0.63900006
-0.037789237 0.011483473 0.64000005
-0.03659549 0.011483473 0.64000005
-0.03534643 0.01146553 0.63900006
-0.034154549 0.01146553 0.63900006
-0.032962669 0.01146553 0.63900006
-0.031770784 0.01146553 0.63900006
-0.030578906 0.01146553 0.63900006
-0.029387023 0.01146553 0.63900006
-0.028239267 0.011483473 0.64000005
-0.027045522 0.011483473 0.64000005
-0.025811382 0.01146553 0.63900006
-0.024619499 0.01146553 0.63900006
-0.023390956 0.011447586 0.63800001
-0.02220094 0.011447586 0.63800001
-0.021010924 0.011447586 0.63800001
-0.016183386 0.010622212 0.59200001
-0.015053698 0.010604269 0.59100002
-0.013951348 0.010604269 0.59100002
-0.012870739 0.010622212 0.59200001
-0.011746648 0.010604269 0.59100002
-0.010644298 0.010604269 0.59100002
-0.0095258029 0.010586326 0.59000003
-0.0084253177 0.010586326 0.59000003
-0.0073248334 0.010586326 0.59000003
-0.0062243482 0.010586326 0.59000003
-0.0051238635 0.010586326 0.59000003
-0.0040233787 0.010586326 0.59000003
-0.00291794 0.010568384 0.58900005
-0.0018193204 0.010568384 0.58900005
-0.00072070089 0.010568384 0.58900005
0.00037727706 0.01055044 0.588
0.0014740314 0.01055044 0.588
0.0025707858 0.01055044 0.588
0.0036675401 0.01055044 0.588
0.0047561917 0.010532497 0.58700001
0.0058510811 0.010532497 0.58700001
0.00694597 0.010532497 0.58700001
0.0080545573 0.01055044 0.588
0.0091513116 0.01055044 0.588
0.010248066 0.01055044 0.588
0.011364114 0.010568384 0.58900005
0.012462733 0.010568384 0.58900005
0.013561353 0.010568384 0.58900005
0.014635083 0.01055044 0.588
0.015731838 0.01055044 0.588
0.016828593 0.01055044 0.588
0.017925346 0.01055044 0.588
0.019022102 0.01055044 0.588
0.02015307 0.010568384 0.58900005
0.02125169 0.010568384 0.58900005
0.022350309 0.010568384 0.58900005
0.023409119 0.01055044 0.588
0.024547549 0.010568384 0.58900005
0.025646169 0.010568384 0.58900005
0.026790196 0.010586326 0.59000003
0.02789068 0.010586326 0.59000003
0.028991167 0.010586326 0.59000003
0.030091651 0.010586326 0.59000003
0.031192135 0.010586326 0.59000003
0.032292619 0.010586326 0.59000003
0.033393104 0.010586326 0.59000003
0.034493588 0.010586326 0.59000003
0.035594076 0.010586326 0.59000003
0.036756754 0.010604269 0.59100002
0.037859105 0.010604269 0.59100002
0.038961452 0.010604269 0.59100002
0.040063802 0.010604269 0.59100002
0.041235808 0.010622212 0.59200001
0.042268503 0.010604269 0.59100002
0.043444239 0.010622212 0.59200001
0.044548452 0.010622212 0.59200001
0.045652669 0.010622212 0.59200001
0.046756882 0.010622212 0.59200001
0.047861099 0.010622212 0.59200001
0.049048025 0.010640156 0.59300005
0.050154105 0.010640156 0.59300005
0.056163486 0.011411701 0.63600004
0.057349771 0.011411701 0.63600004
0.058536056 0.011411701 0.63600004
0.059722342 0.011411701 0.63600004
0.060908627 0.011411701 0.63600004
0.062094912 0.011411701 0.63600004
0.063181698 0.011393758 0.63500005
0.064366117 0.011393758 0.63500005
0.065550536 0.011393758 0.63500005
0.066734962 0.011393758 0.63500005
0.067919381 0.011393758 0.63500005
0.0691038 0.011393758 0.63500005
0.070288219 0.011393758 0.63500005
0.071472637 0.011393758 0.63500005
0.072657064 0.011393758 0.63500005
0.073841482 0.011393758 0.63500005
0.075025901 0.011393758 0.63500005
0.07621032 0.011393758 0.63500005
0.077272862 0.011375815 0.634
0.078579158 0.011393758 0.63500005
0.079763584 0.011393758 0.63500005
0.080948003 0.011393758 0.63500005
0.082132421 0.011393758 0.63500005
0.08331684 0.011393758 0.63500005
0.084501259 0.011393758 0.63500005
0.085685678 0.011393758 0.63500005
0.086870104 0.011393758 0.63500005
0.088054523 0.011393758 0.63500005
0.089238942 0.011393758 0.63500005
0.09042336 0.011393758 0.63500005
0.091607779 0.011393758 0.63500005
0.092792198 0.011393758 0.63500005
0.094124615 0.011411701 0.63600004
0.095310904 0.011411701 0.63600004
0.096497186 0.011411701 0.63600004
0.097529881 0.011393758 0.63500005
0.098869756 0.011411701 0.63600004
-0.099595331 0.012793192 0.64600003
-0.098390393 0.012793192 0.64600003
-0.097185455 0.012793192 0.64600003
-0.095980518 0.012793192 0.64600003
-0.09462887 0.012773387 0.64500004
-0.093570642 0.012793192 0.64600003
-0.09222272 0.012773387 0.64500004
-0.091019653 0.012773387 0.64500004
-0.089816578 0.012773387 0.64500004
-0.08861351 0.012773387 0.64500004
-0.087410435 0.012773387 0.64500004
-0.08620736 0.012773387 0.64500004
-0.085004292 0.012773387 0.64500004
-0.083801217 0.012773387 0.64500004
-0.082598142 0.012773387 0.64500004
-0.081395075 0.012773387 0.64500004
-0.080192 0.012773387 0.64500004
-0.078499071 0.012694173 0.64100003
-0.077303462 0.012694173 0.64100003
-0.076107852 0.012694173 0.64100003
-0.074912235 0.012694173 0.64100003
-0.073716626 0.012694173 0.64100003
-0.072521016 0.012694173 0.64100003
-0.071325406 0.012694173 0.64100003
-0.070020385 0.012674369 0.64000005
-0.068826638 0.012674369 0.64000005
-0.067632891 0.012674369 0.64000005
-0.066439144 0.012674369 0.64000005
-0.065245397 0.012674369 0.64000005
-0.06405165 0.012674369 0.64000005
-0.062857911 0.012674369 0.64000005
-0.06166416 0.012674369 0.64000005
-0.060470413 0.012674369 0.64000005
-0.05927667 0.012674369 0.64000005
-0.058082923 0.012674369 0.64000005
-0.056889176 0.012674369 0.64000005
-0.055695429 0.012674369 0.64000005
-0.054501683 0.012674369 0.64000005
-0.053307939 0.012674369 0.64000005
-0.052114192 0.012674369 0.64000005
-0.050920445 0.012674369 0.64000005
-0.049726699 0.012674369 0.64000005
-0.04845712 0.012654565 0.63900006
-0.047265239 0.012654565 0.63900006
-0.046073359 0.012654565 0.63900006
-0.044881478 0.012654565 0.63900006
-0.043689597 0.012654565 0.63900006
-0.042497713 0.012654565 0.63900006
-0.041305833 0.012654565 0.63900006
-0.040113952 0.012654565 0.63900006
-0.038922071 0.012654565 0.63900006
-0.037730191 0.012654565 0.63900006
-0.03653831 0.012654565 0.63900006
-0.03534643 0.012654565 0.63900006
-0.034154549 0.012654565 0.63900006
-0.032962669 0.012654565 0.63900006
-0.031770784 0.012654565 0.63900006
-0.030578906 0.012654565 0.63900006
-0.029387023 0.012654565 0.63900006
-0.028195143 0.012654565 0.63900006
-0.027003262 0.012654565 0.63900006
-0.025770986 0.012634761 0.63800001
-0.024580972 0.012634761 0.63800001
-0.023317631 0.012595154 0.63600004
-0.022131346 0.012595154 0.63600004
-0.016183386 0.01172379 0.59200001
-0.015053698 0.011703988 0.59100002
-0.013951348 0.011703988 0.59100002
-0.012848997 0.011703988 0.59100002
-0.011726772 0.011684184 0.59000003
-0.010626287 0.011684184 0.59000003
-0.0095258029 0.011684184 0.59000003
-0.0084253177 0.011684184 0.59000003
-0.0073248334 0.011684184 0.59000003
-0.0062137987 0.01166438 0.58900005
-0.0051151789 0.01166438 0.58900005
-0.0040165596 0.01166438 0.58900005
-0.0029129859 0.011644576 0.588
-0.0018193204 0.01166438 0.58900005
-0.00071947725 0.011644576 0.588
0.00037727706 0.011644576 0.588
0.0014715246 0.011624772 0.58700001
0.0025664137 0.011624772 0.58700001
0.0036613028 0.011624772 0.58700001
0.0047561917 0.011624772 0.58700001
0.0058510811 0.011624772 0.58700001
0.00694597 0.011624772 0.58700001
0.0080408594 0.011624772 0.58700001
0.0091513116 0.011644576 0.588
0.010248066 0.011644576 0.588
0.01134482 0.011644576 0.588
0.012441575 0.011644576 0.588
0.013538329 0.011644576 0.588
0.014610195 0.011624772 0.58700001
0.015705083 0.011624772 0.58700001
0.016799973 0.011624772 0.58700001
0.017894862 0.011624772 0.58700001
0.019022102 0.011644576 0.588
0.02015307 0.01166438 0.58900005
0.02125169 0.01166438 0.58900005
0.022350309 0.01166438 0.58900005
0.023448929 0.01166438 0.58900005
0.024547549 0.01166438 0.58900005
0.025689712 0.011684184 0.59000003
0.026744789 0.01166438 0.58900005
0.027843406 0.01166438 0.58900005
0.028942026 0.01166438 0.58900005
0.030040646 0.01166438 0.58900005
0.031139268 0.01166438 0.58900005
0.032237887 0.01166438 0.58900005
0.033336505 0.01166438 0.58900005
0.034435127 0.01166438 0.58900005
0.035594076 0.011684184 0.59000003
0.03669456 0.011684184 0.59000003
0.037795044 0.011684184 0.59000003
0.038895529 0.011684184 0.59000003
0.039996013 0.011684184 0.59000003
0.041166153 0.011703988 0.59100002
0.042268503 0.011703988 0.59100002
0.043370854 0.011703988 0.59100002
0.044473205 0.011703988 0.59100002
0.045575552 0.011703988 0.59100002
0.046677902 0.011703988 0.59100002
0.047780253 0.011703988 0.59100002
0.048965313 0.01172379 0.59200001
0.05006953 0.01172379 0.59200001
0.056075174 0.012575351 0.63500005
0.057259597 0.012575351 0.63500005
0.058444016 0.012575351 0.63500005
0.059628434 0.012575351 0.63500005
0.060812857 0.012575351 0.63500005
0.06199728 0.012575351 0.63500005
0.063082203 0.012555546 0.634
0.064163394 0.012535742 0.63300002
0.065447308 0.012555546 0.634
0.066629864 0.012555546 0.634
0.06781242 0.012555546 0.634
0.0691038 0.012575351 0.63500005
0.070177533 0.012555546 0.634
0.071360081 0.012555546 0.634
0.072542638 0.012555546 0.634
0.073725194 0.012555546 0.634
0.07490775 0.012555546 0.634
0.076090306 0.012555546 0.634
0.077150978 0.012535742 0.63300002
0.078455411 0.012555546 0.634
0.079637967 0.012555546 0.634
0.080820523 0.012555546 0.634
0.082003079 0.012555546 0.634
0.08331684 0.012575351 0.63500005
0.084368192 0.012555546 0.634
0.08555074 0.012555546 0.634
0.086733297 0.012555546 0.634
0.088054523 0.012575351 0.63500005
0.089238942 0.012575351 0.63500005
0.09042336 0.012575351 0.63500005
0.091607779 0.012575351 0.63500005
0.092792198 0.012575351 0.63500005
0.093976624 0.012575351 0.63500005
0.095161043 0.012575351 0.63500005
0.096345462 0.012575351 0.63500005
0.097529881 0.012575351 0.63500005
0.098714299 0.012575351 0.63500005
0.099898718 0.012575351 0.63500005
-0.099595331 0.013995253 0.64600003
-0.098238088 0.013973587 0.64500004
-0.097035013 0.013973587 0.64500004
-0.095831938 0.013973587 0.64500004
-0.09462887 0.013973587 0.64500004
-0.093425795 0.013973587 0.64500004
-0.09222272 0.013973587 0.64500004
-0.090878539 0.013951923 0.64400005
-0.089398824 0.013908594 0.64200002
-0.088201351 0.013908594 0.64200002
-0.087003872 0.013908594 0.64200002
-0.0858064 0.013908594 0.64200002
-0.08460892 0.013908594 0.64200002
-0.08341144 0.013908594 0.64200002
-0.082213968 0.013908594 0.64200002
-0.081016488 0.013908594 0.64200002
-0.079819016 0.013908594 0.64200002
-0.078621536 0.013908594 0.64200002
-0.077424057 0.013908594 0.64200002
-0.076226585 0.013908594 0.64200002
-0.075029105 0.013908594 0.64200002
-0.073831633 0.013908594 0.64200002
-0.072521016 0.013886929 0.64100003
-0.071325406 0.013886929 0.64100003
-0.069910981 0.013843601 0.63900006
-0.068719096 0.013843601 0.63900006
-0.067527212 0.013843601 0.63900006
-0.066335335 0.013843601 0.63900006
-0.065143451 0.013843601 0.63900006
-0.063951574 0.013843601 0.63900006
-0.06275969 0.013843601 0.63900006
-0.061567809 0.013843601 0.63900006
-0.060375929 0.013843601 0.63900006
-0.059184048 0.013843601 0.63900006
-0.057992168 0.013843601 0.63900006
-0.056800287 0.013843601 0.63900006
-0.055608407 0.013843601 0.63900006
-0.054331366 0.013821935 0.63800001
-0.053224646 0.013843601 0.63900006
-0.052032761 0.013843601 0.63900006
-0.050840881 0.013843601 0.63900006
-0.049649 0.013843601 0.63900006
-0.048381288 0.013821935 0.63800001
-0.04719127 0.013821935 0.63800001
-0.046001256 0.013821935 0.63800001
-0.044811238 0.013821935 0.63800001
-0.043621223 0.013821935 0.63800001
-0.042431209 0.013821935 0.63800001
-0.041241191 0.013821935 0.63800001
-0.040051177 0.013821935 0.63800001
-0.038922071 0.013843601 0.63900006
-0.037730191 0.013843601 0.63900006
-0.03653831 0.013843601 0.63900006
-0.035291113 0.013821935 0.63800001
-0.034101099 0.013821935 0.63800001
-0.032911081 0.013821935 0.63800001
-0.031721067 0.013821935 0.63800001
-0.030531051 0.013821935 0.63800001
-0.029341035 0.013821935 0.63800001
-0.028151019 0.013821935 0.63800001
-0.026961002 0.013821935 0.63800001
-0.025690202 0.013778607 0.63600004
-0.024503917 0.013778607 0.63600004
-0.023244306 0.013735278 0.634
-0.022096546 0.013756943 0.63500005
-0.017258398 0.012803705 0.59100002
-0.016156048 0.012803705 0.59100002
-0.015053698 0.012803705 0.59100002
-0.013951348 0.012803705 0.59100002
-0.012827257 0.012782041 0.59000003
-0.011726772 0.012782041 0.59000003
-0.010626287 0.012782041 0.59000003
-0.0095096575 0.012760377 0.58900005
-0.0084110387 0.012760377 0.58900005
-0.0073124184 0.012760377 0.58900005
-0.0062032491 0.012738712 0.588
-0.0051151789 0.012760377 0.58900005
-0.0040165596 0.012760377 0.58900005
-0.0029129859 0.012738712 0.588
-0.0018162316 0.012738712 0.588
-0.00071825366 0.012717048 0.58700001
0.00037663543 0.012717048 0.58700001
0.0014715246 0.012717048 0.58700001
0.0025664137 0.012717048 0.58700001
0.0036613028 0.012717048 0.58700001
0.0047561917 0.012717048 0.58700001
0.0058411132 0.012695383 0.58600003
0.0069341371 0.012695383 0.58600003
0.0080271605 0.012695383 0.58600003
0.0091201849 0.012695383 0.58600003
0.010230638 0.012717048 0.58700001
0.011306233 0.012695383 0.58600003
0.012462733 0.012760377 0.58900005
0.013561353 0.012760377 0.58900005
0.014635083 0.012738712 0.588
0.015731838 0.012738712 0.588
0.016828593 0.012738712 0.588
0.017925346 0.012738712 0.588
0.019022102 0.012738712 0.588
0.02015307 0.012760377 0.58900005
0.02125169 0.012760377 0.58900005
0.022350309 0.012760377 0.58900005
0.023409119 0.012738712 0.588
0.024547549 0.012760377 0.58900005
0.025646169 0.012760377 0.58900005
0.026744789 0.012760377 0.58900005
0.027796136 0.012738712 0.588
0.028843753 0.012717048 0.58700001
0.029989645 0.012738712 0.588
0.0310864 0.012738712 0.588
0.032183155 0.012738712 0.588
0.033223309 0.012717048 0.58700001
0.034376662 0.012738712 0.588
0.035473417 0.012738712 0.588
0.036632366 0.012760377 0.58900005
0.037666928 0.012738712 0.588
0.038829606 0.012760377 0.58900005
0.039928224 0.012760377 0.58900005
0.041096497 0.012782041 0.59000003
0.042196982 0.012782041 0.59000003
0.04329747 0.012782041 0.59000003
0.044397954 0.012782041 0.59000003
0.045498438 0.012782041 0.59000003
0.046598922 0.012782041 0.59000003
0.047780253 0.012803705 0.59100002
0.048965313 0.01282537 0.59200001
0.05006953 0.01282537 0.59200001
0.051173747 0.01282537 0.59200001
0.057169423 0.013735278 0.634
0.058351979 0.013735278 0.634
0.059534535 0.013735278 0.634
0.060717087 0.013735278 0.634
0.061899647 0.013735278 0.634
0.062982701 0.013713613 0.63300002
0.064062029 0.01369195 0.63200003
0.06534408 0.013713613 0.63300002
0.066524774 0.013713613 0.63300002
0.06770546 0.013713613 0.63300002
0.068886153 0.013713613 0.63300002
0.070066839 0.013713613 0.63300002
0.071247533 0.013713613 0.63300002
0.072428219 0.013713613 0.63300002
0.073608913 0.013713613 0.63300002
0.074789599 0.013713613 0.63300002
0.075850271 0.01369195 0.63200003
0.077029094 0.01369195 0.63200003
0.078207925 0.01369195 0.63200003
0.079512358 0.013713613 0.63300002
0.080693044 0.013713613 0.63300002
0.081873737 0.013713613 0.63300002
0.083185636 0.013735278 0.634
0.084368192 0.013735278 0.634
0.085415803 0.013713613 0.63300002
0.086596496 0.013713613 0.63300002
0.087915853 0.013735278 0.634
0.089098409 0.013735278 0.634
0.090138562 0.013713613 0.63300002
0.091463514 0.013735278 0.634
0.09264607 0.013735278 0.634
0.093828626 0.013735278 0.634
0.095011182 0.013735278 0.634
0.096193738 0.013735278 0.634
0.097376294 0.013735278 0.634
0.098714299 0.013756943 0.63500005
0.099898718 0.013756943 0.63500005
-0.099286988 0.015150262 0.64400005
-0.098085776 0.015150262 0.64400005
-0.096884571 0.015150262 0.64400005
-0.095386207 0.015103212 0.64200002
-0.094188735 0.015103212 0.64200002
-0.092991255 0.015103212 0.64200002
-0.091650799 0.015079686 0.64100003
-0.090455189 0.015079686 0.64100003
-0.089259572 0.015079686 0.64100003
-0.088063963 0.015079686 0.64100003
-0.086868353 0.015079686 0.64100003
-0.085672744 0.015079686 0.64100003
-0.084345341 0.015056161 0.64000005
-0.083281517 0.015079686 0.64100003
-0.081957847 0.015056161 0.64000005
-0.0807641 0.015056161 0.64000005
-0.079570353 0.015056161 0.64000005
-0.078376606 0.015056161 0.64000005
-0.077182859 0.015056161 0.64000005
-0.075989112 0.015056161 0.64000005
-0.074795373 0.015056161 0.64000005
-0.073601626 0.015056161 0.64000005
-0.072521016 0.015079686 0.64100003
-0.071325406 0.015079686 0.64100003
-0.069910981 0.015032636 0.63900006
-0.068719096 0.015032636 0.63900006
-0.067527212 0.015032636 0.63900006
-0.066335335 0.015032636 0.63900006
-0.065143451 0.015032636 0.63900006
-0.063951574 0.015032636 0.63900006
-0.062661476 0.01500911 0.63800001
-0.061471459 0.01500911 0.63800001
-0.060281444 0.01500911 0.63800001
-0.05909143 0.01500911 0.63800001
-0.057901412 0.01500911 0.63800001
-0.056533616 0.01496206 0.63600004
-0.055347331 0.01496206 0.63600004
-0.054161046 0.01496206 0.63600004
-0.052974761 0.01496206 0.63600004
-0.051707052 0.014938535 0.63500005
-0.050522629 0.014938535 0.63500005
-0.04933821 0.014938535 0.63500005
-0.048153792 0.014938535 0.63500005
-0.046969369 0.014938535 0.63500005
-0.04578495 0.014938535 0.63500005
-0.044600531 0.014938535 0.63500005
-0.043416109 0.014938535 0.63500005
-0.04223169 0.014938535 0.63500005
-0.041047271 0.014938535 0.63500005
-0.039862849 0.014938535 0.63500005
-0.038739339 0.01496206 0.63600004
-0.037553053 0.01496206 0.63600004
-0.036366768 0.01496206 0.63600004
-0.03512517 0.014938535 0.63500005
-0.033994198 0.01496206 0.63600004
-0.032807913 0.01496206 0.63600004
-0.03157191 0.014938535 0.63500005
-0.030339634 0.014915009 0.634
-0.02915708 0.014915009 0.634
-0.028018648 0.014938535 0.63500005
-0.026791971 0.014915009 0.634
-0.025609415 0.014915009 0.634
-0.024349803 0.01486796 0.63200003
-0.02317098 0.01486796 0.63200003
-0.021992154 0.01486796 0.63200003
-0.020780398 0.014844433 0.63100004
-0.019541305 0.014797383 0.62900001
-0.017229196 0.013879899 0.59000003
-0.016128711 0.013879899 0.59000003
-0.015028227 0.013879899 0.59000003
-0.013927742 0.013879899 0.59000003
-0.012805517 0.013856374 0.58900005
-0.011687021 0.013832848 0.588
-0.010590266 0.013832848 0.588
-0.0094773658 0.013809322 0.58700001
-0.0083967578 0.013832848 0.588
-0.0073000034 0.013832848 0.588
-0.0061926991 0.013809322 0.58700001
-0.0050978102 0.013809322 0.58700001
-0.0040029208 0.013809322 0.58700001
-0.0029080319 0.013809322 0.58700001
-0.0018131428 0.013809322 0.58700001
-0.00071703008 0.013785798 0.58600003
0.00037599381 0.013785798 0.58600003
0.0014690177 0.013785798 0.58600003
0.0025620416 0.013785798 0.58600003
0.0036550653 0.013785798 0.58600003
0.0047561917 0.013809322 0.58700001
0.0058411132 0.013785798 0.58600003
0.0069341371 0.013785798 0.58600003
0.0080271605 0.013785798 0.58600003
0.0091201849 0.013785798 0.58600003
0.010230638 0.013809322 0.58700001
0.011306233 0.013785798 0.58600003
0.012420416 0.013809322 0.58700001
0.013492281 0.013785798 0.58600003
0.014585304 0.013785798 0.58600003
0.015678328 0.013785798 0.58600003
0.016771352 0.013785798 0.58600003
0.017864374 0.013785798 0.58600003
0.018989751 0.013809322 0.58700001
0.020118855 0.013832848 0.588
0.02121561 0.013832848 0.588
0.022274418 0.013809322 0.58700001
0.023329495 0.013785798 0.58600003
0.024464196 0.013809322 0.58700001
0.025559084 0.013809322 0.58700001
0.026608566 0.013785798 0.58600003
0.02770159 0.013785798 0.58600003
0.028794613 0.013785798 0.58600003
0.029887637 0.013785798 0.58600003
0.030980662 0.013785798 0.58600003
0.032073684 0.013785798 0.58600003
0.03316671 0.013785798 0.58600003
0.034259733 0.013785798 0.58600003
0.035352755 0.013785798 0.58600003
0.036445782 0.013785798 0.58600003
0.037538804 0.013785798 0.58600003
0.03863183 0.013785798 0.58600003
0.039724853 0.013785798 0.58600003
0.040817875 0.013785798 0.58600003
0.042053942 0.013832848 0.588
0.043224081 0.013856374 0.58900005
0.044322703 0.013856374 0.58900005
0.045421321 0.013856374 0.58900005
0.046519943 0.013856374 0.58900005
0.047699407 0.013879899 0.59000003
0.048882604 0.013903423 0.59100002
0.049984954 0.013903423 0.59100002
0.051173747 0.013926948 0.59200001
0.055810254 0.01486796 0.63200003
0.056989077 0.01486796 0.63200003
0.058167905 0.01486796 0.63200003
0.059346728 0.01486796 0.63200003
0.060525551 0.01486796 0.63200003
0.061704379 0.01486796 0.63200003
0.062783696 0.014844433 0.63100004
0.063960657 0.014844433 0.63100004
0.065137617 0.014844433 0.63100004
0.066419676 0.01486796 0.63200003
0.067598499 0.01486796 0.63200003
0.06877733 0.01486796 0.63200003
0.069956154 0.01486796 0.63200003
0.071022414 0.014844433 0.63100004
0.072199374 0.014844433 0.63100004
0.073376335 0.014844433 0.63100004
0.074553289 0.014844433 0.63100004
0.075730249 0.014844433 0.63100004
0.07690721 0.014844433 0.63100004
0.078084171 0.014844433 0.63100004
0.079386748 0.01486796 0.63200003
0.080565572 0.01486796 0.63200003
0.081744395 0.01486796 0.63200003
0.082923219 0.01486796 0.63200003
0.084102042 0.01486796 0.63200003
0.085280865 0.01486796 0.63200003
0.086459689 0.01486796 0.63200003
0.08763852 0.01486796 0.63200003
0.088817343 0.01486796 0.63200003
0.089996167 0.01486796 0.63200003
0.09117499 0.01486796 0.63200003
0.092353813 0.01486796 0.63200003
0.093532637 0.01486796 0.63200003
0.09471146 0.01486796 0.63200003
0.095890291 0.01486796 0.63200003
0.097069114 0.01486796 0.63200003
0.098403394 0.014891485 0.63300002
0.099426761 0.01486796 0.63200003
-0.098978639 0.016297828 0.64200002
-0.097781166 0.016297828 0.64200002
-0.096583687 0.016297828 0.64200002
-0.095237635 0.016272442 0.64100003
-0.094042018 0.016272442 0.64100003
-0.092846408 0.016272442 0.64100003
-0.091650799 0.016272442 0.64100003
-0.090455189 0.016272442 0.64100003
-0.089120321 0.016247056 0.64000005
-0.087926582 0.016247056 0.64000005
-0.086732835 0.016247056 0.64000005
-0.085539088 0.016247056 0.64000005
-0.084345341 0.016247056 0.64000005
-0.083151594 0.016247056 0.64000005
-0.081957847 0.016247056 0.64000005
-0.0807641 0.016247056 0.64000005
-0.079570353 0.016247056 0.64000005
-0.078376606 0.016247056 0.64000005
-0.077182859 0.016247056 0.64000005
-0.075989112 0.016247056 0.64000005
-0.074795373 0.016247056 0.64000005
-0.073601626 0.016247056 0.64000005
-0.072407879 0.016247056 0.64000005
-0.071214132 0.016247056 0.64000005
-0.069910981 0.016221672 0.63900006
-0.068611555 0.016196286 0.63800001
-0.067421541 0.016196286 0.63800001
-0.066231526 0.016196286 0.63800001
-0.065041505 0.016196286 0.63800001
-0.063851491 0.016196286 0.63800001
-0.062661476 0.016196286 0.63800001
-0.061471459 0.016196286 0.63800001
-0.060281444 0.016196286 0.63800001
-0.05909143 0.016196286 0.63800001
-0.057901412 0.016196286 0.63800001
-0.056533616 0.016145512 0.63600004
-0.055347331 0.016145512 0.63600004
-0.054161046 0.016145512 0.63600004
-0.052974761 0.016145512 0.63600004
-0.051788475 0.016145512 0.63600004
-0.05060219 0.016145512 0.63600004
-0.049415905 0.016145512 0.63600004
-0.04822962 0.016145512 0.63600004
-0.047043335 0.016145512 0.63600004
-0.04585705 0.016145512 0.63600004
-0.044670764 0.016145512 0.63600004
-0.043484479 0.016145512 0.63600004
-0.042298194 0.016145512 0.63600004
-0.041111909 0.016145512 0.63600004
-0.039925624 0.016145512 0.63600004
-0.038861159 0.016196286 0.63800001
-0.037671145 0.016196286 0.63800001
-0.036481131 0.016196286 0.63800001
-0.035180483 0.016145512 0.63600004
-0.034101099 0.016196286 0.63800001
-0.032911081 0.016196286 0.63800001
-0.031621628 0.016145512 0.63600004
-0.030387487 0.016120126 0.63500005
-0.029203068 0.016120126 0.63500005
-0.028062772 0.016145512 0.63600004
-0.026834227 0.016120126 0.63500005
-0.025649808 0.016120126 0.63500005
-0.024388332 0.016069354 0.63300002
-0.023207642 0.016069354 0.63300002
-0.022026952 0.016069354 0.63300002
-0.019541305 0.015967811 0.62900001
-0.018368077 0.015967811 0.62900001
-0.016156048 0.015003142 0.59100002
-0.015053698 0.015003142 0.59100002
-0.013951348 0.015003142 0.59100002
-0.012827257 0.014977756 0.59000003
-0.011706897 0.01495237 0.58900005
-0.010608277 0.01495237 0.58900005
-0.0094935121 0.014926984 0.588
-0.0083967578 0.014926984 0.588
-0.0073000034 0.014926984 0.588
-0.0061926991 0.014901598 0.58700001
-0.0050978102 0.014901598 0.58700001
-0.0040029208 0.014901598 0.58700001
-0.0029080319 0.014901598 0.58700001
-0.0018131428 0.014901598 0.58700001
-0.00071703008 0.014876212 0.58600003
0.00037599381 0.014876212 0.58600003
0.0014690177 0.014876212 0.58600003
0.0025620416 0.014876212 0.58600003
0.0036550653 0.014876212 0.58600003
0.0047480892 0.014876212 0.58600003
0.0058411132 0.014876212 0.58600003
0.0069223042 0.014850826 0.58500004
0.0080134626 0.014850826 0.58500004
0.0091046207 0.014850826 0.58500004
0.01019578 0.014850826 0.58500004
0.011286939 0.014850826 0.58500004
0.012399256 0.014876212 0.58600003
0.013469256 0.014850826 0.58500004
0.014560414 0.014850826 0.58500004
0.015651572 0.014850826 0.58500004
0.016742731 0.014850826 0.58500004
0.01783389 0.014850826 0.58500004
0.018925048 0.014850826 0.58500004
0.019981991 0.014825439 0.58400005
0.021107366 0.014850826 0.58500004
0.022198524 0.014850826 0.58500004
0.023289684 0.014850826 0.58500004
0.024380842 0.014850826 0.58500004
0.025472 0.014850826 0.58500004
0.02656316 0.014850826 0.58500004
0.027654318 0.014850826 0.58500004
0.028745476 0.014850826 0.58500004
0.029836636 0.014850826 0.58500004
0.030927794 0.014850826 0.58500004
0.032018952 0.014850826 0.58500004
0.033110112 0.014850826 0.58500004
0.034201268 0.014850826 0.58500004
0.035352755 0.014876212 0.58600003
0.036445782 0.014876212 0.58600003
0.037474744 0.014850826 0.58500004
0.038565904 0.014850826 0.58500004
0.039657064 0.014850826 0.58500004
0.040817875 0.014876212 0.58600003
0.041910902 0.014876212 0.58600003
0.043150697 0.014926984 0.588
0.044322703 0.01495237 0.58900005
0.045344207 0.014926984 0.588
0.046519943 0.01495237 0.58900005
0.047699407 0.014977756 0.59000003
0.048799891 0.014977756 0.59000003
0.049900375 0.014977756 0.59000003
0.055721946 0.016018584 0.63100004
0.056898907 0.016018584 0.63100004
0.058075868 0.016018584 0.63100004
0.059252825 0.016018584 0.63100004
0.060429785 0.016018584 0.63100004
0.061606739 0.016018584 0.63100004
0.062584706 0.015967811 0.62900001
0.063757934 0.015967811 0.62900001
0.065137617 0.016018584 0.63100004
0.066314578 0.016018584 0.63100004
0.067491539 0.016018584 0.63100004
0.068668492 0.016018584 0.63100004
0.069845453 0.016018584 0.63100004
0.071022414 0.016018584 0.63100004
0.072199374 0.016018584 0.63100004
0.073376335 0.016018584 0.63100004
0.074553289 0.016018584 0.63100004
0.075730249 0.016018584 0.63100004
0.07690721 0.016018584 0.63100004
0.078084171 0.016018584 0.63100004
0.079261124 0.016018584 0.63100004
0.080438085 0.016018584 0.63100004
0.081744395 0.016043968 0.63200003
0.082923219 0.016043968 0.63200003
0.084102042 0.016043968 0.63200003
0.085280865 0.016043968 0.63200003
0.086459689 0.016043968 0.63200003
0.08763852 0.016043968 0.63200003
0.088676803 0.016018584 0.63100004
0.089853756 0.016018584 0.63100004
0.091030717 0.016018584 0.63100004
0.092207678 0.016018584 0.63100004
0.093384638 0.016018584 0.63100004
0.09471146 0.016043968 0.63200003
0.095890291 0.016043968 0.63200003
0.097069114 0.016043968 0.63200003
0.098247938 0.016043968 0.63200003
0.099426761 0.016043968 0.63200003
-0.098824464 0.0174652 0.64100003
-0.097628854 0.0174652 0.64100003
-0.096433245 0.0174652 0.64100003
-0.095237635 0.0174652 0.64100003
-0.094042018 0.0174652 0.64100003
-0.092846408 0.0174652 0.64100003
-0.091507815 0.017437954 0.64000005
-0.090314068 0.017437954 0.64000005
-0.089120321 0.017437954 0.64000005
-0.087926582 0.017437954 0.64000005
-0.086732835 0.017437954 0.64000005
-0.085539088 0.017437954 0.64000005
-0.084213547 0.017410707 0.63900006
-0.083021671 0.017410707 0.63900006
-0.081829786 0.017410707 0.63900006
-0.080637909 0.017410707 0.63900006
-0.079446025 0.017410707 0.63900006
-0.078131683 0.01738346 0.63800001
-0.076941662 0.01738346 0.63800001
-0.07587038 0.017410707 0.63900006
-0.074678503 0.017410707 0.63900006
-0.073486619 0.017410707 0.63900006
-0.072294742 0.017410707 0.63900006
-0.071102858 0.017410707 0.63900006
-0.069801569 0.01738346 0.63800001
-0.068396471 0.017328965 0.63600004
-0.067210183 0.017328965 0.63600004
-0.066023901 0.017328965 0.63600004
-0.064837612 0.017328965 0.63600004
-0.063651331 0.017328965 0.63600004
-0.062465046 0.017328965 0.63600004
-0.061278757 0.017328965 0.63600004
-0.060092472 0.017328965 0.63600004
-0.058906186 0.017328965 0.63600004
-0.057719901 0.017328965 0.63600004
-0.056444731 0.01730172 0.63500005
-0.055260312 0.01730172 0.63500005
-0.054075889 0.01730172 0.63500005
-0.05289147 0.01730172 0.63500005
-0.051707052 0.01730172 0.63500005
-0.050522629 0.01730172 0.63500005
-0.04933821 0.01730172 0.63500005
-0.048153792 0.01730172 0.63500005
-0.046969369 0.01730172 0.63500005
-0.04578495 0.01730172 0.63500005
-0.044600531 0.01730172 0.63500005
-0.043416109 0.01730172 0.63500005
-0.04223169 0.01730172 0.63500005
-0.041047271 0.01730172 0.63500005
-0.039862849 0.01730172 0.63500005
-0.038739339 0.017328965 0.63600004
-0.037553053 0.017328965 0.63600004
-0.036366768 0.017328965 0.63600004
-0.03512517 0.01730172 0.63500005
-0.033994198 0.017328965 0.63600004
-0.032807913 0.017328965 0.63600004
-0.03157191 0.01730172 0.63500005
-0.030339634 0.017274473 0.634
-0.02915708 0.017274473 0.634
-0.028018648 0.01730172 0.63500005
-0.026791971 0.017274473 0.634
-0.025609415 0.017274473 0.634
-0.024349803 0.017219979 0.63200003
-0.02317098 0.017219979 0.63200003
-0.021992154 0.017219979 0.63200003
-0.020780398 0.017192733 0.63100004
-0.019541305 0.017138237 0.62900001
-0.017229196 0.016075613 0.59000003
-0.016128711 0.016075613 0.59000003
-0.015028227 0.016075613 0.59000003
-0.013927742 0.016075613 0.59000003
-0.012805517 0.016048366 0.58900005
-0.011687021 0.016021119 0.588
-0.010590266 0.016021119 0.588
-0.0094773658 0.015993875 0.58700001
-0.0083967578 0.016021119 0.588
-0.0073000034 0.016021119 0.588
-0.0061926991 0.015993875 0.58700001
-0.0050891256 0.015966626 0.58600003
-0.0039961017 0.015966626 0.58600003
-0.0029030778 0.015966626 0.58600003
-0.0018100539 0.015966626 0.58600003
-0.00071703008 0.015966626 0.58600003
0.00037535219 0.015939379 0.58500004
0.0014665108 0.015939379 0.58500004
0.0025576695 0.015939379 0.58500004
0.003648828 0.015939379 0.58500004
0.0047399867 0.015939379 0.58500004
0.0058311452 0.015939379 0.58500004
0.0069104712 0.015912132 0.58400005
0.0079997648 0.015912132 0.58400005
0.0090890583 0.015912132 0.58400005
0.01019578 0.015939379 0.58500004
0.011286939 0.015939379 0.58500004
0.012378097 0.015939379 0.58500004
0.013469256 0.015939379 0.58500004
0.014535525 0.015912132 0.58400005
0.015624818 0.015912132 0.58400005
0.016714111 0.015912132 0.58400005
0.017803404 0.015912132 0.58400005
0.018892698 0.015912132 0.58400005
0.019947777 0.015884886 0.583
0.021071285 0.015912132 0.58400005
0.022160579 0.015912132 0.58400005
0.023249872 0.015912132 0.58400005
0.024339166 0.015912132 0.58400005
0.025428459 0.015912132 0.58400005
0.026517753 0.015912132 0.58400005
0.027607046 0.015912132 0.58400005
0.02869634 0.015912132 0.58400005
0.029785633 0.015912132 0.58400005
0.030874927 0.015912132 0.58400005
0.03196422 0.015912132 0.58400005
0.033053514 0.015912132 0.58400005
0.034142807 0.015912132 0.58400005
0.035292428 0.015939379 0.58500004
0.036383588 0.015939379 0.58500004
0.037410688 0.015912132 0.58400005
0.038499981 0.015912132 0.58400005
0.039657064 0.015939379 0.58500004
0.04074822 0.015939379 0.58500004
0.04183938 0.015939379 0.58500004
0.04293054 0.015939379 0.58500004
0.044021696 0.015939379 0.58500004
0.045112856 0.015939379 0.58500004
0.046361975 0.015993875 0.58700001
0.047456864 0.015993875 0.58700001
0.048551753 0.015993875 0.58700001
0.055545334 0.017138237 0.62900001
0.056718562 0.017138237 0.62900001
0.05789179 0.017138237 0.62900001
0.059065022 0.017138237 0.62900001
0.06023825 0.017138237 0.62900001
0.061411474 0.017138237 0.62900001
0.062485203 0.01711099 0.62800002
0.063656569 0.01711099 0.62800002
0.064931162 0.017138237 0.62900001
0.06610439 0.017138237 0.62900001
0.067277618 0.017138237 0.62900001
0.068450846 0.017138237 0.62900001
0.069845453 0.017192733 0.63100004
0.070797302 0.017138237 0.62900001
0.07197053 0.017138237 0.62900001
0.073143758 0.017138237 0.62900001
0.074316986 0.017138237 0.62900001
0.075490221 0.017138237 0.62900001
0.07690721 0.017192733 0.63100004
0.078084171 0.017192733 0.63100004
0.079261124 0.017192733 0.63100004
0.080438085 0.017192733 0.63100004
0.081615046 0.017192733 0.63100004
0.082792006 0.017192733 0.63100004
0.083968967 0.017192733 0.63100004
0.085145921 0.017192733 0.63100004
0.086322881 0.017192733 0.63100004
0.087499842 0.017192733 0.63100004
0.088676803 0.017192733 0.63100004
0.089853756 0.017192733 0.63100004
0.091030717 0.017192733 0.63100004
0.092207678 0.017192733 0.63100004
0.093384638 0.017192733 0.63100004
0.094561599 0.017192733 0.63100004
0.095738553 0.017192733 0.63100004
0.096915513 0.017192733 0.63100004
0.098092474 0.017192733 0.63100004
0.099269435 0.017192733 0.63100004
-0.098824464 0.018657956 0.64100003
-0.097476549 0.018628849 0.64000005
-0.096282803 0.018628849 0.64000005
-0.095089056 0.018628849 0.64000005
-0.093895309 0.018628849 0.64000005
-0.092701562 0.018628849 0.64000005
-0.091507815 0.018628849 0.64000005
-0.090172954 0.018599743 0.63900006
-0.08898107 0.018599743 0.63900006
-0.087789193 0.018599743 0.63900006
-0.086597309 0.018599743 0.63900006
-0.085405432 0.018599743 0.63900006
-0.084213547 0.018599743 0.63900006
-0.08289174 0.018570635 0.63800001
-0.081701726 0.018570635 0.63800001
-0.080511712 0.018570635 0.63800001
-0.079321697 0.018570635 0.63800001
-0.078131683 0.018570635 0.63800001
-0.076700464 0.018512418 0.63600004
-0.075751647 0.018570635 0.63800001
-0.074561633 0.018570635 0.63800001
-0.073371619 0.018570635 0.63800001
-0.072181605 0.018570635 0.63800001
-0.070991583 0.018570635 0.63800001
-0.069582753 0.018512418 0.63600004
-0.06828893 0.018483311 0.63500005
-0.067104511 0.018483311 0.63500005
-0.065920085 0.018483311 0.63500005
-0.064735666 0.018483311 0.63500005
-0.063551247 0.018483311 0.63500005
-0.062366828 0.018483311 0.63500005
-0.06118241 0.018483311 0.63500005
-0.059997991 0.018483311 0.63500005
-0.058813572 0.018483311 0.63500005
-0.057629149 0.018483311 0.63500005
-0.056355841 0.018454203 0.634
-0.055173285 0.018454203 0.634
-0.053990733 0.018454203 0.634
-0.052808177 0.018454203 0.634
-0.051625621 0.018454203 0.634
-0.050443068 0.018454203 0.634
-0.049260512 0.018454203 0.634
-0.048077956 0.018454203 0.634
-0.046895403 0.018454203 0.634
-0.045712847 0.018454203 0.634
-0.044530291 0.018454203 0.634
-0.043347739 0.018454203 0.634
-0.04223169 0.018483311 0.63500005
-0.041047271 0.018483311 0.63500005
-0.039800074 0.018454203 0.634
-0.03867843 0.018483311 0.63500005
-0.037494011 0.018483311 0.63500005
-0.036309589 0.018483311 0.63500005
-0.03512517 0.018483311 0.63500005
-0.033940751 0.018483311 0.63500005
-0.032756329 0.018483311 0.63500005
-0.031522188 0.018454203 0.634
-0.030339634 0.018454203 0.634
-0.029111091 0.018425096 0.63300002
-0.027974525 0.018454203 0.634
-0.026749711 0.018425096 0.63300002
-0.025569022 0.018425096 0.63300002
-0.024311274 0.018366883 0.63100004
-0.023134315 0.018366883 0.63100004
-0.021957356 0.018366883 0.63100004
-0.020714533 0.018308666 0.62900001
-0.018360747 0.017202578 0.59100002
-0.017258398 0.017202578 0.59100002
-0.016156048 0.017202578 0.59100002
-0.015028227 0.017173471 0.59000003
-0.013927742 0.017173471 0.59000003
-0.012762033 0.017086148 0.58700001
-0.011667144 0.017086148 0.58700001
-0.010572256 0.017086148 0.58700001
-0.0094612213 0.017057039 0.58600003
-0.0083824769 0.017086148 0.58700001
-0.0072875884 0.017086148 0.58700001
-0.0061821495 0.017057039 0.58600003
-0.0050891256 0.017057039 0.58600003
-0.0039892825 0.017027933 0.58500004
-0.0028981238 0.017027933 0.58500004
-0.0018069651 0.017027933 0.58500004
-0.00071580644 0.017027933 0.58500004
0.00037471057 0.016998826 0.58400005
0.0014640039 0.016998826 0.58400005
0.0025532974 0.016998826 0.58400005
0.0036425907 0.016998826 0.58400005
0.0047318842 0.016998826 0.58400005
0.0058211777 0.016998826 0.58400005
0.0068986379 0.016969718 0.583
0.0079860669 0.016969718 0.583
0.0090890583 0.016998826 0.58400005
0.010178352 0.016998826 0.58400005
0.011267644 0.016998826 0.58400005
0.012356938 0.016998826 0.58400005
0.013446231 0.016998826 0.58400005
0.014510636 0.016969718 0.583
0.015598064 0.016969718 0.583
0.016685491 0.016969718 0.583
0.01777292 0.016969718 0.583
0.018860349 0.016969718 0.583
0.019947777 0.016969718 0.583
0.021035206 0.016969718 0.583
0.022122633 0.016969718 0.583
0.023210062 0.016969718 0.583
0.024297489 0.016969718 0.583
0.025384918 0.016969718 0.583
0.026472347 0.016969718 0.583
0.027559774 0.016969718 0.583
0.028647203 0.016969718 0.583
0.02973463 0.016969718 0.583
0.030822059 0.016969718 0.583
0.031909488 0.016969718 0.583
0.032996915 0.016969718 0.583
0.034084342 0.016969718 0.583
0.035232101 0.016998826 0.58400005
0.036321394 0.016998826 0.58400005
0.037346628 0.016969718 0.583
0.038434055 0.016969718 0.583
0.039589275 0.016998826 0.58400005
0.040678568 0.016998826 0.58400005
0.04169634 0.016969718 0.583
0.042783767 0.016969718 0.583
0.043871198 0.016969718 0.583
0.044958625 0.016969718 0.583
0.046125036 0.016998826 0.58400005
0.047133483 0.016969718 0.583
0.04822091 0.016969718 0.583
0.055457022 0.018279558 0.62800002
0.056628387 0.018279558 0.62800002
0.057799749 0.018279558 0.62800002
0.058971114 0.018279558 0.62800002
0.060142476 0.018279558 0.62800002
0.061313841 0.018279558 0.62800002
0.062385704 0.01825045 0.62700003
0.063555203 0.01825045 0.62700003
0.064724706 0.01825045 0.62700003
0.065999292 0.018279558 0.62800002
0.067170657 0.018279558 0.62800002
0.068342023 0.018279558 0.62800002
0.069513388 0.018279558 0.62800002
0.070684746 0.018279558 0.62800002
0.071856111 0.018279558 0.62800002
0.073027477 0.018279558 0.62800002
0.074198842 0.018279558 0.62800002
0.075490221 0.018308666 0.62900001
0.076663449 0.018308666 0.62900001
0.077836677 0.018308666 0.62900001
0.079009905 0.018308666 0.62900001
0.080183133 0.018308666 0.62900001
0.081356362 0.018308666 0.62900001
0.08252959 0.018308666 0.62900001
0.083702818 0.018308666 0.62900001
0.084876046 0.018308666 0.62900001
0.086049274 0.018308666 0.62900001
0.087499842 0.018366883 0.63100004
0.088395737 0.018308666 0.62900001
0.089568965 0.018308666 0.62900001
0.090742193 0.018308666 0.62900001
0.091915421 0.018308666 0.62900001
0.093088649 0.018308666 0.62900001
0.094261877 0.018308666 0.62900001
0.095738553 0.018366883 0.63100004
0.096608333 0.018308666 0.62900001
0.097781561 0.018308666 0.62900001
0.098954789 0.018308666 0.62900001
-0.099864043 0.019819746 0.64000005
-0.098670296 0.019819746 0.64000005
-0.097324237 0.019788777 0.63900006
-0.09613236 0.019788777 0.63900006
-0.094940476 0.019788777 0.63900006
-0.093748599 0.019788777 0.63900006
-0.092556715 0.019788777 0.63900006
-0.091364838 0.019788777 0.63900006
-0.090172954 0.019788777 0.63900006
-0.08898107 0.019788777 0.63900006
-0.087789193 0.019788777 0.63900006
-0.086597309 0.019788777 0.63900006
-0.085271776 0.019757809 0.63800001
-0.084081762 0.019757809 0.63800001
-0.08289174 0.019757809 0.63800001
-0.081445612 0.019695871 0.63600004
-0.080259323 0.019695871 0.63600004
-0.079073034 0.019695871 0.63600004
-0.077886753 0.019695871 0.63600004
-0.076700464 0.019695871 0.63600004
-0.075514182 0.019695871 0.63600004
-0.074327894 0.019695871 0.63600004
-0.073141612 0.019695871 0.63600004
-0.071955323 0.019695871 0.63600004
-0.070769042 0.019695871 0.63600004
-0.069473349 0.019664904 0.63500005
-0.06828893 0.019664904 0.63500005
-0.067104511 0.019664904 0.63500005
-0.065920085 0.019664904 0.63500005
-0.06463372 0.019633936 0.634
-0.063551247 0.019664904 0.63500005
-0.062268611 0.019633936 0.634
-0.061086062 0.019633936 0.634
-0.059903506 0.019633936 0.634
-0.058813572 0.019664904 0.63500005
-0.057538398 0.019633936 0.634
-0.056355841 0.019633936 0.634
-0.055173285 0.019633936 0.634
-0.053990733 0.019633936 0.634
-0.052808177 0.019633936 0.634
-0.051625621 0.019633936 0.634
-0.050443068 0.019633936 0.634
-0.049260512 0.019633936 0.634
-0.048077956 0.019633936 0.634
-0.046895403 0.019633936 0.634
-0.045712847 0.019633936 0.634
-0.044530291 0.019633936 0.634
-0.043347739 0.019633936 0.634
-0.042165183 0.019633936 0.634
-0.04098263 0.019633936 0.634
-0.039800074 0.019633936 0.634
-0.038617518 0.019633936 0.634
-0.037434965 0.019633936 0.634
-0.036252409 0.019633936 0.634
-0.03501454 0.019602967 0.63300002
-0.03383385 0.019602967 0.63300002
-0.03265316 0.019602967 0.63300002
-0.031422749 0.019571999 0.63200003
-0.030243926 0.019571999 0.63200003
-0.0290651 0.019571999 0.63200003
-0.027930401 0.019602967 0.63300002
-0.026707452 0.019571999 0.63200003
-0.025528628 0.019571999 0.63200003
-0.024311274 0.019541031 0.63100004
-0.02306099 0.019479092 0.62900001
-0.020565448 0.018302295 0.59100002
-0.019463098 0.018302295 0.59100002
-0.018360747 0.018302295 0.59100002
-0.017258398 0.018302295 0.59100002
-0.016156048 0.018302295 0.59100002
-0.014977284 0.018209392 0.588
-0.013856922 0.018178424 0.58700001
-0.012762033 0.018178424 0.58700001
-0.011647269 0.018147454 0.58600003
-0.010554245 0.018147454 0.58600003
-0.0094612213 0.018147454 0.58600003
-0.0083681969 0.018147454 0.58600003
-0.0072751734 0.018147454 0.58600003
-0.0061715995 0.018116485 0.58500004
-0.0050717564 0.018085517 0.58400005
-0.0039824629 0.018085517 0.58400005
-0.0028931696 0.018085517 0.58400005
-0.0018038763 0.018085517 0.58400005
-0.00071458286 0.018085517 0.58400005
0.00037406891 0.018054551 0.583
0.0014614972 0.018054551 0.583
0.0025489253 0.018054551 0.583
0.0036363534 0.018054551 0.583
0.0047237817 0.018054551 0.583
0.0058012423 0.018023582 0.58200002
0.0068868049 0.018023582 0.58200002
0.007972368 0.018023582 0.58200002
0.0090734949 0.018054551 0.583
0.010160923 0.018054551 0.583
0.011248351 0.018054551 0.583
0.012335779 0.018054551 0.583
0.013423207 0.018054551 0.583
0.014485746 0.018023582 0.58200002
0.015571309 0.018023582 0.58200002
0.016656872 0.018023582 0.58200002
0.017742436 0.018023582 0.58200002
0.018827999 0.018023582 0.58200002
0.019913562 0.018023582 0.58200002
0.020963043 0.017992614 0.58100003
0.022084687 0.018023582 0.58200002
0.02317025 0.018023582 0.58200002
0.024255814 0.018023582 0.58200002
0.025341377 0.018023582 0.58200002
0.026426939 0.018023582 0.58200002
0.027512502 0.018023582 0.58200002
0.028598065 0.018023582 0.58200002
0.029683629 0.018023582 0.58200002
0.030769192 0.018023582 0.58200002
0.031854752 0.018023582 0.58200002
0.032940317 0.018023582 0.58200002
0.034084342 0.018054551 0.583
0.035171773 0.018054551 0.583
