# .PCD v0.7 - Point Cloud Data file format
VERSION 0.7
FIELDS x y z vp_x vp_y vp_z
SIZE 4 4 4 4 4 4
TYPE F F F F F F
COUNT 1 1 1 1 1 1
WIDTH 805
HEIGHT 1
VIEWPOINT 0 0 0 1 0 0 0
POINTS 805
DATA ascii
0.018185161 0.079999998 0.035197336 0 0.33897066 -0.54846609
0.017201468 0.079999998 0.03518815 0 0.33897066 -0.54846609
0.016217895 0.079999998 0.035179477 0 0.33897066 -0.54846609
0.015234433 0.079999998 0.035171311 0 0.33897066 -0.54846609
0.014251076 0.079999998 0.03516366 0 0.33897066 -0.54846609
0.013267817 0.079999998 0.035156518 0 0.33897066 -0.54846609
0.012284649 0.079999998 0.035149887 0 0.33897066 -0.54846609
0.011301566 0.079999998 0.035143767 0 0.33897066 -0.54846609
0.010318561 0.079999998 0.035138156 0 0.33897066 -0.54846609
0.0093356259 0.079999998 0.035133056 0 0.33897066 -0.54846609
0.0083527565 0.079999998 0.035128467 0 0.33897066 -0.54846609
0.0073699439 0.079999998 0.035124388 0 0.33897066 -0.54846609
0.006387182 0.079999998 0.035120815 0 0.33897066 -0.54846609
0.0054044644 0.079999998 0.035117757 0 0.33897066 -0.54846609
0.0044217836 0.079999998 0.035115208 0 0.33897066 -0.54846609
0.0034391335 0.079999998 0.035113167 0 0.33897066 -0.54846609
0.0024565069 0.079999998 0.03511164 0 0.33897066 -0.54846609
0.0014738975 0.079999998 0.035110619 0 0.33897066 -0.54846609
0.00049129804 0.079999998 0.035110109 0 0.33897066 -0.54846609
0.039739203 0.079999998 0.033085089 0 0.33897066 -0.54846609
0.038754437 0.079999998 0.033064976 0 0.33897066 -0.54846609
0.03776994 0.079999998 0.03304537 0 0.33897066 -0.54846609
0.036785703 0.079999998 0.033026271 0 0.33897066 -0.54846609
0.03580172 0.079999998 0.033007678 0 0.33897066 -0.54846609
0.034817982 0.079999998 0.032989591 0 0.33897066 -0.54846609
0.033834483 0.079999998 0.032972008 0 0.33897066 -0.54846609
0.032851219 0.079999998 0.032954931 0 0.33897066 -0.54846609
0.031868178 0.079999998 0.032938361 0 0.33897066 -0.54846609
0.030885359 0.079999998 0.032922298 0 0.33897066 -0.54846609
0.029902751 0.079999998 0.032906737 0 0.33897066 -0.54846609
0.028920349 0.079999998 0.03289168 0 0.33897066 -0.54846609
0.027938144 0.079999998 0.032877125 0 0.33897066 -0.54846609
0.026956134 0.079999998 0.032863077 0 0.33897066 -0.54846609
0.025974307 0.079999998 0.032849532 0 0.33897066 -0.54846609
0.024992658 0.079999998 0.032836493 0 0.33897066 -0.54846609
0.024011182 0.079999998 0.032823954 0 0.33897066 -0.54846609
0.023029869 0.079999998 0.032811917 0 0.33897066 -0.54846609
0.022048716 0.079999998 0.032800388 0 0.33897066 -0.54846609
0.021067714 0.079999998 0.032789357 0 0.33897066 -0.54846609
0.020086857 0.079999998 0.032778829 0 0.33897066 -0.54846609
0.019106137 0.079999998 0.032768808 0 0.33897066 -0.54846609
0.018125547 0.079999998 0.032759286 0 0.33897066 -0.54846609
0.017145082 0.079999998 0.032750264 0 0.33897066 -0.54846609
0.016164735 0.079999998 0.032741748 0 0.33897066 -0.54846609
0.015184499 0.079999998 0.032733731 0 0.33897066 -0.54846609
0.014204367 0.079999998 0.032726217 0 0.33897066 -0.54846609
0.013224333 0.079999998 0.032719202 0 0.33897066 -0.54846609
0.012244389 0.079999998 0.032712691 0 0.33897066 -0.54846609
0.011264529 0.079999998 0.032706682 0 0.33897066 -0.54846609
0.010284746 0.079999998 0.032701172 0 0.33897066 -0.54846609
0.0093050338 0.079999998 0.032696161 0 0.33897066 -0.54846609
0.0083253859 0.079999998 0.032691658 0 0.33897066 -0.54846609
0.0073457942 0.079999998 0.032687649 0 0.33897066 -0.54846609
0.0063662534 0.079999998 0.032684144 0 0.33897066 -0.54846609
0.0053867558 0.079999998 0.032681141 0 0.33897066 -0.54846609
0.0044072955 0.079999998 0.032678638 0 0.33897066 -0.54846609
0.003427865 0.079999998 0.032676633 0 0.33897066 -0.54846609
0.0024484582 0.079999998 0.032675132 0 0.33897066 -0.54846609
0.0014690682 0.079999998 0.03267413 0 0.33897066 -0.54846609
0.0004896883 0.079999998 0.032673631 0 0.33897066 -0.54846609
0.039609149 0.079999998 0.030658072 0 0.33897066 -0.54846609
0.038627625 0.079999998 0.030638322 0 0.33897066 -0.54846609
0.037646364 0.079999998 0.030619072 0 0.33897066 -0.54846609
0.036665361 0.079999998 0.030600321 0 0.33897066 -0.54846609
0.035684608 0.079999998 0.030582065 0 0.33897066 -0.54846609
0.0347041 0.079999998 0.030564304 0 0.33897066 -0.54846609
0.033723831 0.079999998 0.030547043 0 0.33897066 -0.54846609
0.032743793 0.079999998 0.030530276 0 0.33897066 -0.54846609
0.031763978 0.079999998 0.030514007 0 0.33897066 -0.54846609
0.030784383 0.079999998 0.030498233 0 0.33897066 -0.54846609
0.029804997 0.079999998 0.030482953 0 0.33897066 -0.54846609
0.028825814 0.079999998 0.03046817 0 0.33897066 -0.54846609
0.02784683 0.079999998 0.030453881 0 0.33897066 -0.54846609
0.026868034 0.079999998 0.030440088 0 0.33897066 -0.54846609
0.025889425 0.079999998 0.030426789 0 0.33897066 -0.54846609
0.02491099 0.079999998 0.030413985 0 0.33897066 -0.54846609
0.023932727 0.079999998 0.030401675 0 0.33897066 -0.54846609
0.022954628 0.079999998 0.030389858 0 0.33897066 -0.54846609
0.021976683 0.079999998 0.030378535 0 0.33897066 -0.54846609
0.020998891 0.079999998 0.030367706 0 0.33897066 -0.54846609
0.020021241 0.079999998 0.03035737 0 0.33897066 -0.54846609
0.019043729 0.079999998 0.030347528 0 0.33897066 -0.54846609
0.018066347 0.079999998 0.030338179 0 0.33897066 -0.54846609
0.017089088 0.079999998 0.030329322 0 0.33897066 -0.54846609
0.016111946 0.079999998 0.030320959 0 0.33897066 -0.54846609
0.015134913 0.079999998 0.030313088 0 0.33897066 -0.54846609
0.014157983 0.079999998 0.03030571 0 0.33897066 -0.54846609
0.013181151 0.079999998 0.030298823 0 0.33897066 -0.54846609
0.012204409 0.079999998 0.030292431 0 0.33897066 -0.54846609
0.011227749 0.079999998 0.030286528 0 0.33897066 -0.54846609
0.010251167 0.079999998 0.030281119 0 0.33897066 -0.54846609
0.0092746541 0.079999998 0.030276202 0 0.33897066 -0.54846609
0.0082982052 0.079999998 0.030271776 0 0.33897066 -0.54846609
0.0073218127 0.079999998 0.030267844 0 0.33897066 -0.54846609
0.00634547 0.079999998 0.030264402 0 0.33897066 -0.54846609
0.0053691706 0.079999998 0.030261451 0 0.33897066 -0.54846609
0.004392908 0.079999998 0.030258995 0 0.33897066 -0.54846609
0.0034166749 0.079999998 0.030257028 0 0.33897066 -0.54846609
0.0024404654 0.079999998 0.030255552 0 0.33897066 -0.54846609
0.0014642726 0.079999998 0.030254569 0 0.33897066 -0.54846609
0.00048808975 0.079999998 0.030254077 0 0.33897066 -0.54846609
0.039480001 0.079999998 0.028247884 0 0.33897066 -0.54846609
0.038501687 0.079999998 0.028228495 0 0.33897066 -0.54846609
0.037523642 0.079999998 0.028209597 0 0.33897066 -0.54846609
0.03654585 0.079999998 0.028191186 0 0.33897066 -0.54846609
0.035568308 0.079999998 0.028173264 0 0.33897066 -0.54846609
0.034591012 0.079999998 0.02815583 0 0.33897066 -0.54846609
0.033613946 0.079999998 0.028138882 0 0.33897066 -0.54846609
0.032637112 0.079999998 0.028122423 0 0.33897066 -0.54846609
0.031660501 0.079999998 0.028106449 0 0.33897066 -0.54846609
0.030684106 0.079999998 0.028090963 0 0.33897066 -0.54846609
0.02970792 0.079999998 0.028075963 0 0.33897066 -0.54846609
0.028731935 0.079999998 0.02806145 0 0.33897066 -0.54846609
0.027756147 0.079999998 0.028047422 0 0.33897066 -0.54846609
0.026780548 0.079999998 0.028033881 0 0.33897066 -0.54846609
0.025805129 0.079999998 0.028020825 0 0.33897066 -0.54846609
0.024829889 0.079999998 0.028008254 0 0.33897066 -0.54846609
0.023854816 0.079999998 0.027996168 0 0.33897066 -0.54846609
0.022879906 0.079999998 0.027984567 0 0.33897066 -0.54846609
0.02190515 0.079999998 0.027973451 0 0.33897066 -0.54846609
0.020930545 0.079999998 0.027962821 0 0.33897066 -0.54846609
0.019956082 0.079999998 0.027952673 0 0.33897066 -0.54846609
0.018981755 0.079999998 0.02794301 0 0.33897066 -0.54846609
0.018007556 0.079999998 0.027933832 0 0.33897066 -0.54846609
0.01703348 0.079999998 0.027925137 0 0.33897066 -0.54846609
0.01605952 0.079999998 0.027916927 0 0.33897066 -0.54846609
0.015085669 0.079999998 0.027909199 0 0.33897066 -0.54846609
0.014111921 0.079999998 0.027901955 0 0.33897066 -0.54846609
0.013138268 0.079999998 0.027895195 0 0.33897066 -0.54846609
0.012164705 0.079999998 0.027888918 0 0.33897066 -0.54846609
0.011191225 0.079999998 0.027883124 0 0.33897066 -0.54846609
0.01021782 0.079999998 0.027877813 0 0.33897066 -0.54846609
0.0092444848 0.079999998 0.027872987 0 0.33897066 -0.54846609
0.0082712127 0.079999998 0.027868642 0 0.33897066 -0.54846609
0.0072979969 0.079999998 0.02786478 0 0.33897066 -0.54846609
0.0063248305 0.079999998 0.027861401 0 0.33897066 -0.54846609
0.0053517069 0.079999998 0.027858505 0 0.33897066 -0.54846609
0.0043786196 0.079999998 0.027856091 0 0.33897066 -0.54846609
0.0034055621 0.079999998 0.027854161 0 0.33897066 -0.54846609
0.002432528 0.079999998 0.027852714 0 0.33897066 -0.54846609
0.0014595102 0.079999998 0.027851747 0 0.33897066 -0.54846609
0.00048650228 0.079999998 0.027851265 0 0.33897066 -0.54846609
0.039351739 0.079999998 0.02585434 0 0.33897066 -0.54846609
0.038376622 0.079999998 0.025835309 0 0.33897066 -0.54846609
0.037401769 0.079999998 0.025816757 0 0.33897066 -0.54846609
0.036427166 0.079999998 0.025798686 0 0.33897066 -0.54846609
0.035452813 0.079999998 0.025781091 0 0.33897066 -0.54846609
0.034478698 0.079999998 0.025763977 0 0.33897066 -0.54846609
0.033504821 0.079999998 0.025747342 0 0.33897066 -0.54846609
0.032531168 0.079999998 0.025731185 0 0.33897066 -0.54846609
0.031557739 0.079999998 0.025715506 0 0.33897066 -0.54846609
0.030584522 0.079999998 0.025700303 0 0.33897066 -0.54846609
0.029611511 0.079999998 0.025685579 0 0.33897066 -0.54846609
0.028638704 0.079999998 0.025671333 0 0.33897066 -0.54846609
0.027666088 0.079999998 0.025657563 0 0.33897066 -0.54846609
0.026693663 0.079999998 0.025644269 0 0.33897066 -0.54846609
0.025721416 0.079999998 0.025631454 0 0.33897066 -0.54846609
0.024749344 0.079999998 0.025619114 0 0.33897066 -0.54846609
0.023777442 0.079999998 0.025607251 0 0.33897066 -0.54846609
0.022805698 0.079999998 0.025595862 0 0.33897066 -0.54846609
0.021834111 0.079999998 0.025584951 0 0.33897066 -0.54846609
0.020862671 0.079999998 0.025574515 0 0.33897066 -0.54846609
0.019891372 0.079999998 0.025564553 0 0.33897066 -0.54846609
0.018920207 0.079999998 0.025555069 0 0.33897066 -0.54846609
0.017949171 0.079999998 0.025546059 0 0.33897066 -0.54846609
0.016978256 0.079999998 0.025537523 0 0.33897066 -0.54846609
0.016007457 0.079999998 0.025529463 0 0.33897066 -0.54846609
0.015036765 0.079999998 0.025521878 0 0.33897066 -0.54846609
0.014066176 0.079999998 0.025514767 0 0.33897066 -0.54846609
0.013095682 0.079999998 0.025508132 0 0.33897066 -0.54846609
0.012125275 0.079999998 0.02550197 0 0.33897066 -0.54846609
0.011154952 0.079999998 0.025496282 0 0.33897066 -0.54846609
0.010184703 0.079999998 0.025491068 0 0.33897066 -0.54846609
0.0092145232 0.079999998 0.02548633 0 0.33897066 -0.54846609
0.0082444064 0.079999998 0.025482066 0 0.33897066 -0.54846609
0.007274345 0.079999998 0.025478275 0 0.33897066 -0.54846609
0.006304333 0.079999998 0.025474958 0 0.33897066 -0.54846609
0.0053343633 0.079999998 0.025472116 0 0.33897066 -0.54846609
0.00436443 0.079999998 0.025469746 0 0.33897066 -0.54846609
0.003394526 0.079999998 0.02546785 0 0.33897066 -0.54846609
0.002424645 0.079999998 0.025466429 0 0.33897066 -0.54846609
0.0014547805 0.079999998 0.025465483 0 0.33897066 -0.54846609
0.00048492572 0.079999998 0.025465008 0 0.33897066 -0.54846609
0.039224364 0.079999998 0.023477258 0 0.33897066 -0.54846609
0.038252417 0.079999998 0.02345858 0 0.33897066 -0.54846609
0.037280731 0.079999998 0.02344037 0 0.33897066 -0.54846609
0.036309298 0.079999998 0.023422632 0 0.33897066 -0.54846609
0.035338111 0.079999998 0.023405366 0 0.33897066 -0.54846609
0.034367159 0.079999998 0.023388566 0 0.33897066 -0.54846609
0.033396445 0.079999998 0.023372239 0 0.33897066 -0.54846609
0.032425951 0.079999998 0.02335638 0 0.33897066 -0.54846609
0.031455681 0.079999998 0.023340991 0 0.33897066 -0.54846609
0.030485621 0.079999998 0.023326071 0 0.33897066 -0.54846609
0.029515766 0.079999998 0.023311619 0 0.33897066 -0.54846609
0.028546112 0.079999998 0.023297636 0 0.33897066 -0.54846609
0.02757665 0.079999998 0.02328412 0 0.33897066 -0.54846609
0.026607374 0.079999998 0.023271073 0 0.33897066 -0.54846609
0.025638279 0.079999998 0.023258492 0 0.33897066 -0.54846609
0.024669355 0.079999998 0.023246381 0 0.33897066 -0.54846609
0.023700599 0.079999998 0.023234736 0 0.33897066 -0.54846609
0.022732003 0.079999998 0.02322356 0 0.33897066 -0.54846609
0.021763558 0.079999998 0.02321285 0 0.33897066 -0.54846609
0.020795261 0.079999998 0.023202606 0 0.33897066 -0.54846609
0.019827105 0.079999998 0.02319283 0 0.33897066 -0.54846609
0.018859083 0.079999998 0.023183519 0 0.33897066 -0.54846609
0.017891187 0.079999998 0.023174677 0 0.33897066 -0.54846609
0.016923411 0.079999998 0.023166299 0 0.33897066 -0.54846609
0.01595575 0.079999998 0.023158388 0 0.33897066 -0.54846609
0.014988197 0.079999998 0.023150943 0 0.33897066 -0.54846609
0.014020744 0.079999998 0.023143964 0 0.33897066 -0.54846609
0.013053386 0.079999998 0.02313745 0 0.33897066 -0.54846609
0.012086116 0.079999998 0.023131402 0 0.33897066 -0.54846609
0.011118927 0.079999998 0.02312582 0 0.33897066 -0.54846609
0.010151813 0.079999998 0.023120703 0 0.33897066 -0.54846609
0.0091847675 0.079999998 0.023116052 0 0.33897066 -0.54846609
0.0082177836 0.079999998 0.023111867 0 0.33897066 -0.54846609
0.0072508557 0.079999998 0.023108145 0 0.33897066 -0.54846609
0.0062839761 0.079999998 0.023104889 0 0.33897066 -0.54846609
0.005317139 0.079999998 0.023102099 0 0.33897066 -0.54846609
0.0043503377 0.079999998 0.023099774 0 0.33897066 -0.54846609
0.0033835657 0.079999998 0.023097914 0 0.33897066 -0.54846609
0.0024168163 0.079999998 0.023096519 0 0.33897066 -0.54846609
0.0014500833 0.079999998 0.023095589 0 0.33897066 -0.54846609
0.00048336 0.079999998 0.023095123 0 0.33897066 -0.54846609
0.039097857 0.079999998 0.021116458 0 0.33897066 -0.54846609
0.038129061 0.079999998 0.021098128 0 0.33897066 -0.54846609
0.037160523 0.079999998 0.021080257 0 0.33897066 -0.54846609
0.036192238 0.079999998 0.021062849 0 0.33897066 -0.54846609
0.035224192 0.079999998 0.021045903 0 0.33897066 -0.54846609
0.034256384 0.079999998 0.021029418 0 0.33897066 -0.54846609
0.033288807 0.079999998 0.021013394 0 0.33897066 -0.54846609
0.032321457 0.079999998 0.02099783 0 0.33897066 -0.54846609
0.031354319 0.079999998 0.020982727 0 0.33897066 -0.54846609
0.030387396 0.079999998 0.020968083 0 0.33897066 -0.54846609
0.029420676 0.079999998 0.020953901 0 0.33897066 -0.54846609
0.028454155 0.079999998 0.020940177 0 0.33897066 -0.54846609
0.027487824 0.079999998 0.020926913 0 0.33897066 -0.54846609
0.026521677 0.079999998 0.020914109 0 0.33897066 -0.54846609
0.025555709 0.079999998 0.020901764 0 0.33897066 -0.54846609
0.024589913 0.079999998 0.020889878 0 0.33897066 -0.54846609
0.02362428 0.079999998 0.020878449 0 0.33897066 -0.54846609
0.022658808 0.079999998 0.02086748 0 0.33897066 -0.54846609
0.021693489 0.079999998 0.020856969 0 0.33897066 -0.54846609
0.020728314 0.079999998 0.020846916 0 0.33897066 -0.54846609
0.019763278 0.079999998 0.020837322 0 0.33897066 -0.54846609
0.018798376 0.079999998 0.020828186 0 0.33897066 -0.54846609
0.017833598 0.079999998 0.020819506 0 0.33897066 -0.54846609
0.016868941 0.079999998 0.020811286 0 0.33897066 -0.54846609
0.015904397 0.079999998 0.02080352 0 0.33897066 -0.54846609
0.01493996 0.079999998 0.020796215 0 0.33897066 -0.54846609
0.013975623 0.079999998 0.020789364 0 0.33897066 -0.54846609
0.01301138 0.079999998 0.020782972 0 0.33897066 -0.54846609
0.012047224 0.079999998 0.020777037 0 0.33897066 -0.54846609
0.011083149 0.079999998 0.020771559 0 0.33897066 -0.54846609
0.010119149 0.079999998 0.020766538 0 0.33897066 -0.54846609
0.0091552148 0.079999998 0.020761972 0 0.33897066 -0.54846609
0.0081913434 0.079999998 0.020757865 0 0.33897066 -0.54846609
0.007227527 0.079999998 0.020754213 0 0.33897066 -0.54846609
0.0062637585 0.079999998 0.020751018 0 0.33897066 -0.54846609
0.0053000324 0.079999998 0.02074828 0 0.33897066 -0.54846609
0.0043363417 0.079999998 0.020745998 0 0.33897066 -0.54846609
0.0033726802 0.079999998 0.020744173 0 0.33897066 -0.54846609
0.0024090412 0.079999998 0.020742804 0 0.33897066 -0.54846609
0.0014454182 0.079999998 0.020741891 0 0.33897066 -0.54846609
0.00048180498 0.079999998 0.020741435 0 0.33897066 -0.54846609
0.039938144 0.079999998 0.018790204 0 0.33897066 -0.54846609
0.038972218 0.079999998 0.018771762 0 0.33897066 -0.54846609
0.038006548 0.079999998 0.018753774 0 0.33897066 -0.54846609
0.037041139 0.079999998 0.01873624 0 0.33897066 -0.54846609
0.036075972 0.079999998 0.018719157 0 0.33897066 -0.54846609
0.035111051 0.079999998 0.018702528 0 0.33897066 -0.54846609
0.034146365 0.079999998 0.018686352 0 0.33897066 -0.54846609
0.033181906 0.079999998 0.018670628 0 0.33897066 -0.54846609
0.03221767 0.079999998 0.018655356 0 0.33897066 -0.54846609
0.031253651 0.079999998 0.018640535 0 0.33897066 -0.54846609
0.030289842 0.079999998 0.018626167 0 0.33897066 -0.54846609
0.029326234 0.079999998 0.018612249 0 0.33897066 -0.54846609
0.028362824 0.079999998 0.018598784 0 0.33897066 -0.54846609
0.027399601 0.079999998 0.018585768 0 0.33897066 -0.54846609
0.026436564 0.079999998 0.018573204 0 0.33897066 -0.54846609
0.025473703 0.079999998 0.018561089 0 0.33897066 -0.54846609
0.024511011 0.079999998 0.018549426 0 0.33897066 -0.54846609
0.023548484 0.079999998 0.018538211 0 0.33897066 -0.54846609
0.022586115 0.079999998 0.018527448 0 0.33897066 -0.54846609
0.021623896 0.079999998 0.018517133 0 0.33897066 -0.54846609
0.020661822 0.079999998 0.018507268 0 0.33897066 -0.54846609
0.019699886 0.079999998 0.018497854 0 0.33897066 -0.54846609
0.018738082 0.079999998 0.018488888 0 0.33897066 -0.54846609
0.017776402 0.079999998 0.018480372 0 0.33897066 -0.54846609
0.016814843 0.079999998 0.018472305 0 0.33897066 -0.54846609
0.015853394 0.079999998 0.018464686 0 0.33897066 -0.54846609
0.014892052 0.079999998 0.018457515 0 0.33897066 -0.54846609
0.01393081 0.079999998 0.018450795 0 0.33897066 -0.54846609
0.012969661 0.079999998 0.018444521 0 0.33897066 -0.54846609
0.012008597 0.079999998 0.018438697 0 0.33897066 -0.54846609
0.011047615 0.079999998 0.018433321 0 0.33897066 -0.54846609
0.010086705 0.079999998 0.018428395 0 0.33897066 -0.54846609
0.0091258641 0.079999998 0.018423915 0 0.33897066 -0.54846609
0.0081650829 0.079999998 0.018419884 0 0.33897066 -0.54846609
0.0072043566 0.079999998 0.0184163 0 0.33897066 -0.54846609
0.0062436787 0.079999998 0.018413166 0 0.33897066 -0.54846609
0.0052830423 0.079999998 0.018410478 0 0.33897066 -0.54846609
0.0043224408 0.079999998 0.018408239 0 0.33897066 -0.54846609
0.0033618687 0.079999998 0.018406447 0 0.33897066 -0.54846609
0.0024013186 0.079999998 0.018405104 0 0.33897066 -0.54846609
0.0014407848 0.079999998 0.018404208 0 0.33897066 -0.54846609
0.00048026053 0.079999998 0.018403761 0 0.33897066 -0.54846609
0.039810248 0.079999998 0.016461087 0 0.33897066 -0.54846609
0.038847428 0.079999998 0.016442994 0 0.33897066 -0.54846609
0.037884869 0.079999998 0.016425343 0 0.33897066 -0.54846609
0.036922559 0.079999998 0.01640814 0 0.33897066 -0.54846609
0.035960499 0.079999998 0.01639138 0 0.33897066 -0.54846609
0.034998678 0.079999998 0.016375065 0 0.33897066 -0.54846609
0.034037091 0.079999998 0.016359193 0 0.33897066 -0.54846609
0.033075731 0.079999998 0.016343767 0 0.33897066 -0.54846609
0.032114591 0.079999998 0.016328782 0 0.33897066 -0.54846609
0.031153668 0.079999998 0.016314242 0 0.33897066 -0.54846609
0.030192949 0.079999998 0.016300144 0 0.33897066 -0.54846609
0.029232433 0.079999998 0.016286489 0 0.33897066 -0.54846609
0.028272111 0.079999998 0.016273277 0 0.33897066 -0.54846609
0.027311979 0.079999998 0.016260507 0 0.33897066 -0.54846609
0.026352027 0.079999998 0.01624818 0 0.33897066 -0.54846609
0.025392251 0.079999998 0.016236294 0 0.33897066 -0.54846609
0.024432644 0.079999998 0.01622485 0 0.33897066 -0.54846609
0.023473201 0.079999998 0.016213847 0 0.33897066 -0.54846609
0.022513913 0.079999998 0.016203286 0 0.33897066 -0.54846609
0.021554776 0.079999998 0.016193166 0 0.33897066 -0.54846609
0.020595782 0.079999998 0.016183488 0 0.33897066 -0.54846609
0.019636923 0.079999998 0.016174251 0 0.33897066 -0.54846609
0.018678198 0.079999998 0.016165454 0 0.33897066 -0.54846609
0.017719595 0.079999998 0.016157098 0 0.33897066 -0.54846609
0.016761109 0.079999998 0.016149182 0 0.33897066 -0.54846609
0.015802737 0.079999998 0.016141707 0 0.33897066 -0.54846609
0.014844469 0.079999998 0.016134672 0 0.33897066 -0.54846609
0.0138863 0.079999998 0.016128078 0 0.33897066 -0.54846609
0.012928223 0.079999998 0.016121924 0 0.33897066 -0.54846609
0.011970232 0.079999998 0.016116209 0 0.33897066 -0.54846609
0.01101232 0.079999998 0.016110934 0 0.33897066 -0.54846609
0.010054482 0.079999998 0.016106101 0 0.33897066 -0.54846609
0.0090967109 0.079999998 0.016101705 0 0.33897066 -0.54846609
0.0081390003 0.079999998 0.016097751 0 0.33897066 -0.54846609
0.0071813436 0.079999998 0.016094234 0 0.33897066 -0.54846609
0.0062237349 0.079999998 0.016091159 0 0.33897066 -0.54846609
0.0052661672 0.079999998 0.016088521 0 0.33897066 -0.54846609
0.0043086344 0.079999998 0.016086325 0 0.33897066 -0.54846609
0.0033511305 0.079999998 0.016084567 0 0.33897066 -0.54846609
0.0023936487 0.079999998 0.01608325 0 0.33897066 -0.54846609
0.0014361829 0.079999998 0.016082371 0 0.33897066 -0.54846609
0.00047872655 0.079999998 0.016081931 0 0.33897066 -0.54846609
0.039683215 0.079999998 0.014147729 0 0.33897066 -0.54846609
0.038723484 0.079999998 0.014129979 0 0.33897066 -0.54846609
0.037764009 0.079999998 0.014112665 0 0.33897066 -0.54846609
0.036804788 0.079999998 0.014095788 0 0.33897066 -0.54846609
0.035845809 0.079999998 0.014079347 0 0.33897066 -0.54846609
0.034887068 0.079999998 0.014063342 0 0.33897066 -0.54846609
0.033928558 0.079999998 0.014047772 0 0.33897066 -0.54846609
0.032970276 0.079999998 0.014032637 0 0.33897066 -0.54846609
0.032012209 0.079999998 0.014017938 0 0.33897066 -0.54846609
0.031054357 0.079999998 0.014003673 0 0.33897066 -0.54846609
0.030096712 0.079999998 0.013989842 0 0.33897066 -0.54846609
0.029139265 0.079999998 0.013976447 0 0.33897066 -0.54846609
0.028182013 0.079999998 0.013963486 0 0.33897066 -0.54846609
0.027224947 0.079999998 0.013950958 0 0.33897066 -0.54846609
0.026268061 0.079999998 0.013938865 0 0.33897066 -0.54846609
0.025311351 0.079999998 0.013927205 0 0.33897066 -0.54846609
0.024354808 0.079999998 0.013915977 0 0.33897066 -0.54846609
0.023398425 0.079999998 0.013905184 0 0.33897066 -0.54846609
0.022442199 0.079999998 0.013894824 0 0.33897066 -0.54846609
0.021486122 0.079999998 0.013884896 0 0.33897066 -0.54846609
0.020530187 0.079999998 0.013875402 0 0.33897066 -0.54846609
0.019574387 0.079999998 0.01386634 0 0.33897066 -0.54846609
0.018618716 0.079999998 0.01385771 0 0.33897066 -0.54846609
0.01766317 0.079999998 0.013849513 0 0.33897066 -0.54846609
0.016707741 0.079999998 0.013841747 0 0.33897066 -0.54846609
0.015752422 0.079999998 0.013834414 0 0.33897066 -0.54846609
0.014797207 0.079999998 0.013827513 0 0.33897066 -0.54846609
0.01384209 0.079999998 0.013821044 0 0.33897066 -0.54846609
0.012887065 0.079999998 0.013815006 0 0.33897066 -0.54846609
0.011932126 0.079999998 0.013809401 0 0.33897066 -0.54846609
0.010977265 0.079999998 0.013804226 0 0.33897066 -0.54846609
0.010022477 0.079999998 0.013799483 0 0.33897066 -0.54846609
0.0090677552 0.079999998 0.013795172 0 0.33897066 -0.54846609
0.0081130937 0.079999998 0.013791291 0 0.33897066 -0.54846609
0.0071584862 0.079999998 0.013787842 0 0.33897066 -0.54846609
0.0062039252 0.079999998 0.013784825 0 0.33897066 -0.54846609
0.0052494057 0.079999998 0.013782239 0 0.33897066 -0.54846609
0.0042949212 0.079999998 0.013780084 0 0.33897066 -0.54846609
0.0033404648 0.079999998 0.013778359 0 0.33897066 -0.54846609
0.0023860305 0.079999998 0.013777066 0 0.33897066 -0.54846609
0.0014316119 0.079999998 0.013776204 0 0.33897066 -0.54846609
0.00047720294 0.079999998 0.013775772 0 0.33897066 -0.54846609
0.03955704 0.079999998 0.01184996 0 0.33897066 -0.54846609
0.038600374 0.079999998 0.011832549 0 0.33897066 -0.54846609
0.037643965 0.079999998 0.011815568 0 0.33897066 -0.54846609
0.036687806 0.079999998 0.011799012 0 0.33897066 -0.54846609
0.035731886 0.079999998 0.011782886 0 0.33897066 -0.54846609
0.034776207 0.079999998 0.011767187 0 0.33897066 -0.54846609
0.033820756 0.079999998 0.011751914 0 0.33897066 -0.54846609
0.032865528 0.079999998 0.01173707 0 0.33897066 -0.54846609
0.031910516 0.079999998 0.011722651 0 0.33897066 -0.54846609
0.030955717 0.079999998 0.011708659 0 0.33897066 -0.54846609
0.030001123 0.079999998 0.011695094 0 0.33897066 -0.54846609
0.029046725 0.079999998 0.011681954 0 0.33897066 -0.54846609
0.02809252 0.079999998 0.011669241 0 0.33897066 -0.54846609
0.027138501 0.079999998 0.011656953 0 0.33897066 -0.54846609
0.026184661 0.079999998 0.011645091 0 0.33897066 -0.54846609
0.025230994 0.079999998 0.011633653 0 0.33897066 -0.54846609
0.024277493 0.079999998 0.011622641 0 0.33897066 -0.54846609
0.023324154 0.079999998 0.011612054 0 0.33897066 -0.54846609
0.022370968 0.079999998 0.011601892 0 0.33897066 -0.54846609
0.021417929 0.079999998 0.011592154 0 0.33897066 -0.54846609
0.020465031 0.079999998 0.011582841 0 0.33897066 -0.54846609
0.01951227 0.079999998 0.011573953 0 0.33897066 -0.54846609
0.018559637 0.079999998 0.011565488 0 0.33897066 -0.54846609
0.017607125 0.079999998 0.011557447 0 0.33897066 -0.54846609
0.01665473 0.079999998 0.01154983 0 0.33897066 -0.54846609
0.015702445 0.079999998 0.011542637 0 0.33897066 -0.54846609
0.014750263 0.079999998 0.011535868 0 0.33897066 -0.54846609
0.013798178 0.079999998 0.011529522 0 0.33897066 -0.54846609
0.012846185 0.079999998 0.0115236 0 0.33897066 -0.54846609
0.011894276 0.079999998 0.011518101 0 0.33897066 -0.54846609
0.010942445 0.079999998 0.011513025 0 0.33897066 -0.54846609
0.0099906875 0.079999998 0.011508374 0 0.33897066 -0.54846609
0.009038995 0.079999998 0.011504144 0 0.33897066 -0.54846609
0.0080873612 0.079999998 0.011500339 0 0.33897066 -0.54846609
0.0071357819 0.079999998 0.011496956 0 0.33897066 -0.54846609
0.0061842492 0.079999998 0.011493996 0 0.33897066 -0.54846609
0.0052327574 0.079999998 0.011491459 0 0.33897066 -0.54846609
0.0042813001 0.079999998 0.011489345 0 0.33897066 -0.54846609
0.0033298708 0.079999998 0.011487653 0 0.33897066 -0.54846609
0.0023784635 0.079999998 0.011486385 0 0.33897066 -0.54846609
0.0014270718 0.079999998 0.011485539 0 0.33897066 -0.54846609
0.00047568957 0.079999998 0.011485117 0 0.33897066 -0.54846609
0.039431714 0.079999998 0.0095676119 0 0.33897066 -0.54846609
0.038478091 0.079999998 0.009550537 0 0.33897066 -0.54846609
0.037524726 0.079999998 0.0095338812 0 0.33897066 -0.54846609
0.036571607 0.079999998 0.0095176464 0 0.33897066 -0.54846609
0.03561873 0.079999998 0.0095018297 0 0.33897066 -0.54846609
0.034666087 0.079999998 0.0094864331 0 0.33897066 -0.54846609
0.033713672 0.079999998 0.0094714556 0 0.33897066 -0.54846609
0.032761481 0.079999998 0.0094568962 0 0.33897066 -0.54846609
0.031809505 0.079999998 0.009442756 0 0.33897066 -0.54846609
0.030857738 0.079999998 0.0094290338 0 0.33897066 -0.54846609
0.029906172 0.079999998 0.0094157299 0 0.33897066 -0.54846609
0.028954806 0.079999998 0.0094028432 0 0.33897066 -0.54846609
0.028003629 0.079999998 0.0093903746 0 0.33897066 -0.54846609
0.027052635 0.079999998 0.0093783233 0 0.33897066 -0.54846609
0.02610182 0.079999998 0.0093666892 0 0.33897066 -0.54846609
0.025151176 0.079999998 0.0093554724 0 0.33897066 -0.54846609
0.024200698 0.079999998 0.0093446728 0 0.33897066 -0.54846609
0.023250381 0.079999998 0.0093342895 0 0.33897066 -0.54846609
0.022300214 0.079999998 0.0093243225 0 0.33897066 -0.54846609
0.021350194 0.079999998 0.0093147727 0 0.33897066 -0.54846609
0.020400316 0.079999998 0.0093056392 0 0.33897066 -0.54846609
0.01945057 0.079999998 0.0092969211 0 0.33897066 -0.54846609
0.018500952 0.079999998 0.0092886193 0 0.33897066 -0.54846609
0.017551456 0.079999998 0.0092807338 0 0.33897066 -0.54846609
0.016602075 0.079999998 0.0092732636 0 0.33897066 -0.54846609
0.015652802 0.079999998 0.0092662089 0 0.33897066 -0.54846609
0.014703633 0.079999998 0.0092595704 0 0.33897066 -0.54846609
0.013754561 0.079999998 0.0092533464 0 0.33897066 -0.54846609
0.012805578 0.079999998 0.0092475386 0 0.33897066 -0.54846609
0.01185668 0.079999998 0.0092421453 0 0.33897066 -0.54846609
0.010907859 0.079999998 0.0092371684 0 0.33897066 -0.54846609
0.0099591101 0.079999998 0.0092326058 0 0.33897066 -0.54846609
0.0090104258 0.079999998 0.0092284577 0 0.33897066 -0.54846609
0.008061802 0.079999998 0.009224725 0 0.33897066 -0.54846609
0.0071132299 0.079999998 0.0092214076 0 0.33897066 -0.54846609
0.0061647049 0.079999998 0.0092185047 0 0.33897066 -0.54846609
0.0052162204 0.079999998 0.0092160162 0 0.33897066 -0.54846609
0.0042677699 0.079999998 0.009213943 0 0.33897066 -0.54846609
0.0033193477 0.079999998 0.0092122843 0 0.33897066 -0.54846609
0.002370947 0.079999998 0.0092110401 0 0.33897066 -0.54846609
0.0014225621 0.079999998 0.0092102103 0 0.33897066 -0.54846609
0.00047418629 0.079999998 0.0092097959 0 0.33897066 -0.54846609
0.039307222 0.079999998 0.0073005185 0 0.33897066 -0.54846609
0.038356628 0.079999998 0.0072837751 0 0.33897066 -0.54846609
0.037406284 0.079999998 0.007267443 0 0.33897066 -0.54846609
0.03645619 0.079999998 0.007251523 0 0.33897066 -0.54846609
0.03550633 0.079999998 0.0072360141 0 0.33897066 -0.54846609
0.034556706 0.079999998 0.007220916 0 0.33897066 -0.54846609
0.033607308 0.079999998 0.007206229 0 0.33897066 -0.54846609
0.03265813 0.079999998 0.0071919528 0 0.33897066 -0.54846609
0.031709168 0.079999998 0.0071780863 0 0.33897066 -0.54846609
0.030760413 0.079999998 0.0071646306 0 0.33897066 -0.54846609
0.029811857 0.079999998 0.0071515846 0 0.33897066 -0.54846609
0.028863499 0.079999998 0.0071389484 0 0.33897066 -0.54846609
0.027915331 0.079999998 0.0071267216 0 0.33897066 -0.54846609
0.026967343 0.079999998 0.0071149045 0 0.33897066 -0.54846609
0.026019532 0.079999998 0.0071034962 0 0.33897066 -0.54846609
0.025071893 0.079999998 0.0070924968 0 0.33897066 -0.54846609
0.024124416 0.079999998 0.0070819063 0 0.33897066 -0.54846609
0.023177098 0.079999998 0.0070717246 0 0.33897066 -0.54846609
0.022229932 0.079999998 0.0070619518 0 0.33897066 -0.54846609
0.021282911 0.079999998 0.0070525869 0 0.33897066 -0.54846609
0.02033603 0.079999998 0.0070436304 0 0.33897066 -0.54846609
0.019389281 0.079999998 0.0070350817 0 0.33897066 -0.54846609
0.018442659 0.079999998 0.007026941 0 0.33897066 -0.54846609
0.017496157 0.079999998 0.0070192083 0 0.33897066 -0.54846609
0.01654977 0.079999998 0.007011883 0 0.33897066 -0.54846609
0.015603491 0.079999998 0.0070049656 0 0.33897066 -0.54846609
0.014657314 0.079999998 0.0069984556 0 0.33897066 -0.54846609
0.013711234 0.079999998 0.0069923527 0 0.33897066 -0.54846609
0.012765242 0.079999998 0.0069866572 0 0.33897066 -0.54846609
0.011819334 0.079999998 0.0069813691 0 0.33897066 -0.54846609
0.010873503 0.079999998 0.006976488 0 0.33897066 -0.54846609
0.0099277431 0.079999998 0.0069720135 0 0.33897066 -0.54846609
0.0089820484 0.079999998 0.0069679464 0 0.33897066 -0.54846609
0.0080364123 0.079999998 0.0069642863 0 0.33897066 -0.54846609
0.0070908284 0.079999998 0.0069610327 0 0.33897066 -0.54846609
0.006145291 0.079999998 0.0069581862 0 0.33897066 -0.54846609
0.0051997937 0.079999998 0.0069557461 0 0.33897066 -0.54846609
0.0042543304 0.079999998 0.006953713 0 0.33897066 -0.54846609
0.0033088948 0.079999998 0.0069520865 0 0.33897066 -0.54846609
0.0023634809 0.079999998 0.0069508669 0 0.33897066 -0.54846609
0.0014180823 0.079999998 0.0069500534 0 0.33897066 -0.54846609
0.00047269306 0.079999998 0.0069496469 0 0.33897066 -0.54846609
0.039183557 0.079999998 0.0050485171 0 0.33897066 -0.54846609
0.03823597 0.079999998 0.0050321012 0 0.33897066 -0.54846609
0.037288632 0.079999998 0.005016089 0 0.33897066 -0.54846609
0.036341537 0.079999998 0.00500048 0 0.33897066 -0.54846609
0.03539468 0.079999998 0.0049852743 0 0.33897066 -0.54846609
0.034448054 0.079999998 0.0049704718 0 0.33897066 -0.54846609
0.033501651 0.079999998 0.0049560722 0 0.33897066 -0.54846609
0.032555468 0.079999998 0.0049420749 0 0.33897066 -0.54846609
0.031609498 0.079999998 0.0049284799 0 0.33897066 -0.54846609
0.030663734 0.079999998 0.0049152873 0 0.33897066 -0.54846609
0.02971817 0.079999998 0.0049024965 0 0.33897066 -0.54846609
0.028772801 0.079999998 0.0048901071 0 0.33897066 -0.54846609
0.027827619 0.079999998 0.0048781196 0 0.33897066 -0.54846609
0.026882617 0.079999998 0.0048665334 0 0.33897066 -0.54846609
0.025937792 0.079999998 0.0048553483 0 0.33897066 -0.54846609
0.024993135 0.079999998 0.004844564 0 0.33897066 -0.54846609
0.024048641 0.079999998 0.0048341807 0 0.33897066 -0.54846609
0.023104304 0.079999998 0.0048241983 0 0.33897066 -0.54846609
0.022160117 0.079999998 0.0048146159 0 0.33897066 -0.54846609
0.021216076 0.079999998 0.0048054345 0 0.33897066 -0.54846609
0.020272171 0.079999998 0.0047966531 0 0.33897066 -0.54846609
0.019328399 0.079999998 0.0047882716 0 0.33897066 -0.54846609
0.018384753 0.079999998 0.0047802902 0 0.33897066 -0.54846609
0.017441226 0.079999998 0.0047727083 0 0.33897066 -0.54846609
0.016497813 0.079999998 0.0047655264 0 0.33897066 -0.54846609
0.015554507 0.079999998 0.004758744 0 0.33897066 -0.54846609
0.014611303 0.079999998 0.0047523612 0 0.33897066 -0.54846609
0.013668194 0.079999998 0.0047463779 0 0.33897066 -0.54846609
0.012725173 0.079999998 0.0047407937 0 0.33897066 -0.54846609
0.011782236 0.079999998 0.0047356091 0 0.33897066 -0.54846609
0.010839376 0.079999998 0.004730823 0 0.33897066 -0.54846609
0.0098965848 0.079999998 0.0047264365 0 0.33897066 -0.54846609
0.0089538591 0.079999998 0.004722449 0 0.33897066 -0.54846609
0.0080111912 0.079999998 0.0047188601 0 0.33897066 -0.54846609
0.0070685754 0.079999998 0.0047156704 0 0.33897066 -0.54846609
0.0061260057 0.079999998 0.0047128792 0 0.33897066 -0.54846609
0.005183476 0.079999998 0.0047104871 0 0.33897066 -0.54846609
0.0042409799 0.079999998 0.0047084936 0 0.33897066 -0.54846609
0.0032985113 0.079999998 0.0047068987 0 0.33897066 -0.54846609
0.002356064 0.079999998 0.0047057029 0 0.33897066 -0.54846609
0.0014136323 0.079999998 0.0047049057 0 0.33897066 -0.54846609
0.00047120976 0.079999998 0.0047045071 0 0.33897066 -0.54846609
0.039060716 0.079999998 0.0028114468 0 0.33897066 -0.54846609
0.038116112 0.079999998 0.0027953545 0 0.33897066 -0.54846609
0.037171759 0.079999998 0.0027796577 0 0.33897066 -0.54846609
0.036227643 0.079999998 0.0027643568 0 0.33897066 -0.54846609
0.035283767 0.079999998 0.002749451 0 0.33897066 -0.54846609
0.034340117 0.079999998 0.00273494 0 0.33897066 -0.54846609
0.033396695 0.079999998 0.0027208242 0 0.33897066 -0.54846609
0.032453485 0.079999998 0.0027071028 0 0.33897066 -0.54846609
0.031510491 0.079999998 0.0026937758 0 0.33897066 -0.54846609
0.030567696 0.079999998 0.0026808432 0 0.33897066 -0.54846609
0.029625103 0.079999998 0.0026683044 0 0.33897066 -0.54846609
0.028682701 0.079999998 0.0026561595 0 0.33897066 -0.54846609
0.027740488 0.079999998 0.002644408 0 0.33897066 -0.54846609
0.026798453 0.079999998 0.0026330501 0 0.33897066 -0.54846609
0.025856592 0.079999998 0.0026220854 0 0.33897066 -0.54846609
0.024914898 0.079999998 0.0026115139 0 0.33897066 -0.54846609
0.023973366 0.079999998 0.0026013353 0 0.33897066 -0.54846609
0.023031991 0.079999998 0.0025915494 0 0.33897066 -0.54846609
0.022090765 0.079999998 0.0025821561 0 0.33897066 -0.54846609
0.021149682 0.079999998 0.0025731553 0 0.33897066 -0.54846609
0.020208735 0.079999998 0.0025645469 0 0.33897066 -0.54846609
0.01926792 0.079999998 0.0025563305 0 0.33897066 -0.54846609
0.018327231 0.079999998 0.0025485063 0 0.33897066 -0.54846609
0.017386658 0.079999998 0.0025410741 0 0.33897066 -0.54846609
0.016446199 0.079999998 0.0025340337 0 0.33897066 -0.54846609
0.015505848 0.079999998 0.002527385 0 0.33897066 -0.54846609
0.014565596 0.079999998 0.0025211279 0 0.33897066 -0.54846609
0.013625439 0.079999998 0.0025152625 0 0.33897066 -0.54846609
0.012685371 0.079999998 0.0025097884 0 0.33897066 -0.54846609
0.011745384 0.079999998 0.0025047057 0 0.33897066 -0.54846609
0.010805474 0.079999998 0.0025000141 0 0.33897066 -0.54846609
0.0098656323 0.079999998 0.002495714 0 0.33897066 -0.54846609
0.0089258561 0.079999998 0.0024918048 0 0.33897066 -0.54846609
0.0079861367 0.079999998 0.0024882869 0 0.33897066 -0.54846609
0.00704647 0.079999998 0.0024851598 0 0.33897066 -0.54846609
0.0061068484 0.079999998 0.0024824238 0 0.33897066 -0.54846609
0.0051672664 0.079999998 0.0024800787 0 0.33897066 -0.54846609
0.0042277174 0.079999998 0.0024781246 0 0.33897066 -0.54846609
0.0032881964 0.079999998 0.0024765613 0 0.33897066 -0.54846609
0.0023486966 0.079999998 0.0024753888 0 0.33897066 -0.54846609
0.0014092118 0.079999998 0.0024746072 0 0.33897066 -0.54846609
0.00046973626 0.079999998 0.0024742163 0 0.33897066 -0.54846609
0.039880574 0.079999998 0.00060530915 0 0.33897066 -0.54846609
0.038938686 0.079999998 0.00058914843 0 0.33897066 -0.54846609
0.037997048 0.079999998 0.0005733759 0 0.33897066 -0.54846609
0.037055656 0.079999998 0.00055799127 0 0.33897066 -0.54846609
0.036114503 0.079999998 0.00054299424 0 0.33897066 -0.54846609
0.035173588 0.079999998 0.00052838464 0 0.33897066 -0.54846609
0.034232896 0.079999998 0.00051416218 0 0.33897066 -0.54846609
0.033292428 0.079999998 0.00050032674 0 0.33897066 -0.54846609
0.032352176 0.079999998 0.00048687807 0 0.33897066 -0.54846609
0.031412132 0.079999998 0.00047381595 0 0.33897066 -0.54846609
0.030472293 0.079999998 0.00046114015 0 0.33897066 -0.54846609
0.02953265 0.079999998 0.00044885054 0 0.33897066 -0.54846609
0.028593197 0.079999998 0.00043694687 0 0.33897066 -0.54846609
0.027653931 0.079999998 0.00042542897 0 0.33897066 -0.54846609
0.026714843 0.079999998 0.00041429669 0 0.33897066 -0.54846609
0.025775926 0.079999998 0.00040354987 0 0.33897066 -0.54846609
0.024837177 0.079999998 0.0003931883 0 0.33897066 -0.54846609
0.023898588 0.079999998 0.00038321185 0 0.33897066 -0.54846609
0.022960154 0.079999998 0.00037362037 0 0.33897066 -0.54846609
0.022021869 0.079999998 0.00036441366 0 0.33897066 -0.54846609
0.021083726 0.079999998 0.00035559165 0 0.33897066 -0.54846609
0.020145718 0.079999998 0.00034715419 0 0.33897066 -0.54846609
0.019207841 0.079999998 0.0003391011 0 0.33897066 -0.54846609
0.018270086 0.079999998 0.00033143233 0 0.33897066 -0.54846609
0.017332451 0.079999998 0.0003241477 0 0.33897066 -0.54846609
0.016394928 0.079999998 0.00031724712 0 0.33897066 -0.54846609
0.015457509 0.079999998 0.00031073051 0 0.33897066 -0.54846609
0.014520192 0.079999998 0.00030459772 0 0.33897066 -0.54846609
0.013582966 0.079999998 0.0002988487 0 0.33897066 -0.54846609
0.012645829 0.079999998 0.00029348335 0 0.33897066 -0.54846609
0.011708775 0.079999998 0.00028850156 0 0.33897066 -0.54846609
0.010771794 0.079999998 0.0002839033 0 0.33897066 -0.54846609
0.0098348847 0.079999998 0.00027968845 0 0.33897066 -0.54846609
0.0088980375 0.079999998 0.00027585699 0 0.33897066 -0.54846609
0.007961248 0.079999998 0.00027240886 0 0.33897066 -0.54846609
0.0070245098 0.079999998 0.00026934396 0 0.33897066 -0.54846609
0.0060878168 0.079999998 0.0002666623 0 0.33897066 -0.54846609
0.0051511633 0.079999998 0.0002643638 0 0.33897066 -0.54846609
0.0042145429 0.079999998 0.00026244842 0 0.33897066 -0.54846609
0.0032779495 0.079999998 0.00026091616 0 0.33897066 -0.54846609
0.0023413775 0.079999998 0.000259767 0 0.33897066 -0.54846609
0.0014048205 0.079999998 0.0002590009 0 0.33897066 -0.54846609
0.00046827245 0.079999998 0.00025861786 0 0.33897066 -0.54846609
0.039872911 0.07924103 0 0 0.33897066 -0.54846609
0.038932346 0.079233512 0 0 0.33897066 -0.54846609
0.037991948 0.079226166 0 0 0.33897066 -0.54846609
0.037051719 0.079219006 0 0 0.33897066 -0.54846609
0.036111653 0.079212025 0 0 0.33897066 -0.54846609
0.035171743 0.079205222 0 0 0.33897066 -0.54846609
0.034231987 0.079198599 0 0 0.33897066 -0.54846609
0.033292379 0.079192162 0 0 0.33897066 -0.54846609
0.032352917 0.079185896 0 0 0.33897066 -0.54846609
0.0314136 0.079179816 0 0 0.33897066 -0.54846609
0.030474417 0.079173915 0 0 0.33897066 -0.54846609
0.029535368 0.079168193 0 0 0.33897066 -0.54846609
0.028596448 0.07916265 0 0 0.33897066 -0.54846609
0.027657652 0.079157285 0 0 0.33897066 -0.54846609
0.026718978 0.0791521 0 0 0.33897066 -0.54846609
0.025780421 0.079147093 0 0 0.33897066 -0.54846609
0.024841975 0.079142265 0 0 0.33897066 -0.54846609
0.023903638 0.079137616 0 0 0.33897066 -0.54846609
0.022965405 0.079133153 0 0 0.33897066 -0.54846609
0.022027275 0.079128861 0 0 0.33897066 -0.54846609
0.021089237 0.079124756 0 0 0.33897066 -0.54846609
0.020151295 0.079120822 0 0 0.33897066 -0.54846609
0.019213438 0.079117067 0 0 0.33897066 -0.54846609
0.018275665 0.079113498 0 0 0.33897066 -0.54846609
0.017337972 0.079110101 0 0 0.33897066 -0.54846609
0.016400356 0.07910689 0 0 0.33897066 -0.54846609
0.015462811 0.07910385 0 0 0.33897066 -0.54846609
0.014525333 0.079100996 0 0 0.33897066 -0.54846609
0.013587919 0.079098314 0 0 0.33897066 -0.54846609
0.012650563 0.079095818 0 0 0.33897066 -0.54846609
0.011713264 0.079093494 0 0 0.33897066 -0.54846609
0.010776014 0.079091355 0 0 0.33897066 -0.54846609
0.0098388121 0.079089388 0 0 0.33897066 -0.54846609
0.0089016529 0.0790876 0 0 0.33897066 -0.54846609
0.0079645328 0.079085998 0 0 0.33897066 -0.54846609
0.0070274472 0.079084568 0 0 0.33897066 -0.54846609
0.0060903924 0.079083316 0 0 0.33897066 -0.54846609
0.005153364 0.079082251 0 0 0.33897066 -0.54846609
0.0042163581 0.079081357 0 0 0.33897066 -0.54846609
0.0032793707 0.079080641 0 0 0.33897066 -0.54846609
0.0023423973 0.079080105 0 0 0.33897066 -0.54846609
0.0014054343 0.079079747 0 0 0.33897066 -0.54846609
0.00046847743 0.079079568 0 0 0.33897066 -0.54846609
0.03990927 0.078195028 0 0 0.33897066 -0.54846609
0.03896784 0.078187592 0 0 0.33897066 -0.54846609
0.038026586 0.078180343 0 0 0.33897066 -0.54846609
0.037085496 0.078173272 0 0 0.33897066 -0.54846609
0.036144566 0.078166373 0 0 0.33897066 -0.54846609
0.035203796 0.07815966 0 0 0.33897066 -0.54846609
0.034263182 0.078153118 0 0 0.33897066 -0.54846609
0.033322718 0.078146756 0 0 0.33897066 -0.54846609
0.032382399 0.078140572 0 0 0.33897066 -0.54846609
0.031442221 0.078134567 0 0 0.33897066 -0.54846609
0.03050218 0.078128733 0 0 0.33897066 -0.54846609
0.029562274 0.078123078 0 0 0.33897066 -0.54846609
0.028622497 0.078117602 0 0 0.33897066 -0.54846609
0.027682845 0.078112304 0 0 0.33897066 -0.54846609
0.026743313 0.078107186 0 0 0.33897066 -0.54846609
0.025803899 0.078102238 0 0 0.33897066 -0.54846609
0.024864597 0.078097478 0 0 0.33897066 -0.54846609
0.023925405 0.078092888 0 0 0.33897066 -0.54846609
0.022986317 0.07808847 0 0 0.33897066 -0.54846609
0.02204733 0.078084238 0 0 0.33897066 -0.54846609
0.021108439 0.078080177 0 0 0.33897066 -0.54846609
0.02016964 0.078076296 0 0 0.33897066 -0.54846609
0.01923093 0.078072593 0 0 0.33897066 -0.54846609
0.018292302 0.078069061 0 0 0.33897066 -0.54846609
0.017353756 0.078065708 0 0 0.33897066 -0.54846609
0.016415285 0.078062534 0 0 0.33897066 -0.54846609
0.015476886 0.078059532 0 0 0.33897066 -0.54846609
0.014538554 0.078056715 0 0 0.33897066 -0.54846609
0.013600286 0.078054063 0 0 0.33897066 -0.54846609
0.012662077 0.078051597 0 0 0.33897066 -0.54846609
0.011723923 0.078049302 0 0 0.33897066 -0.54846609
0.010785822 0.078047186 0 0 0.33897066 -0.54846609
0.0098477667 0.078045249 0 0 0.33897066 -0.54846609
0.0089097545 0.078043483 0 0 0.33897066 -0.54846609
0.0079717813 0.078041896 0 0 0.33897066 -0.54846609
0.0070338426 0.078040488 0 0 0.33897066 -0.54846609
0.0060959347 0.078039251 0 0 0.33897066 -0.54846609
0.0051580537 0.078038193 0 0 0.33897066 -0.54846609
0.0042201951 0.078037314 0 0 0.33897066 -0.54846609
0.0032823547 0.078036606 0 0 0.33897066 -0.54846609
0.0023445289 0.078036077 0 0 0.33897066 -0.54846609
0.0014067133 0.078035727 0 0 0.33897066 -0.54846609
0.00046890372 0.078035548 0 0 0.33897066 -0.54846609
0.039945681 0.077147469 0 0 0.33897066 -0.54846609
0.039003391 0.07714013 0 0 0.33897066 -0.54846609
0.038061272 0.07713297 0 0 0.33897066 -0.54846609
0.037119322 0.077125989 0 0 0.33897066 -0.54846609
0.036177531 0.077119179 0 0 0.33897066 -0.54846609
0.0352359 0.077112541 0 0 0.33897066 -0.54846609
0.034294426 0.077106088 0 0 0.33897066 -0.54846609
0.033353101 0.0770998 0 0 0.33897066 -0.54846609
0.032411922 0.077093698 0 0 0.33897066 -0.54846609
0.031470884 0.07708776 0 0 0.33897066 -0.54846609
0.030529985 0.077082008 0 0 0.33897066 -0.54846609
0.029589219 0.07707642 0 0 0.33897066 -0.54846609
0.028648583 0.077071019 0 0 0.33897066 -0.54846609
0.027708074 0.077065781 0 0 0.33897066 -0.54846609
0.026767684 0.077060729 0 0 0.33897066 -0.54846609
0.025827413 0.077055842 0 0 0.33897066 -0.54846609
0.024887254 0.07705114 0 0 0.33897066 -0.54846609
0.023947205 0.077046603 0 0 0.33897066 -0.54846609
0.023007261 0.077042244 0 0 0.33897066 -0.54846609
0.022067416 0.077038065 0 0 0.33897066 -0.54846609
0.021127669 0.077034056 0 0 0.33897066 -0.54846609
0.020188013 0.077030219 0 0 0.33897066 -0.54846609
0.019248446 0.077026561 0 0 0.33897066 -0.54846609
0.018308965 0.077023081 0 0 0.33897066 -0.54846609
0.017369563 0.077019766 0 0 0.33897066 -0.54846609
0.016430236 0.077016629 0 0 0.33897066 -0.54846609
0.015490982 0.077013671 0 0 0.33897066 -0.54846609
0.014551795 0.077010885 0 0 0.33897066 -0.54846609
0.013612672 0.07700827 0 0 0.33897066 -0.54846609
0.012673608 0.077005833 0 0 0.33897066 -0.54846609
0.0117346 0.077003568 0 0 0.33897066 -0.54846609
0.010795644 0.077001482 0 0 0.33897066 -0.54846609
0.0098567335 0.076999567 0 0 0.33897066 -0.54846609
0.0089178672 0.076997824 0 0 0.33897066 -0.54846609
0.00797904 0.076996252 0 0 0.33897066 -0.54846609
0.0070402469 0.076994859 0 0 0.33897066 -0.54846609
0.0061014853 0.076993644 0 0 0.33897066 -0.54846609
0.0051627499 0.076992601 0 0 0.33897066 -0.54846609
0.0042240373 0.076991729 0 0 0.33897066 -0.54846609
0.0032853433 0.076991029 0 0 0.33897066 -0.54846609
0.0023466635 0.076990508 0 0 0.33897066 -0.54846609
0.001407994 0.076990165 0 0 0.33897066 -0.54846609
0.00046933064 0.076989986 0 0 0.33897066 -0.54846609
0.039982144 0.076098353 0 0 0.33897066 -0.54846609
0.03903899 0.076091111 0 0 0.33897066 -0.54846609
0.038096011 0.07608404 0 0 0.33897066 -0.54846609
0.037153196 0.076077141 0 0 0.33897066 -0.54846609
0.036210544 0.07607042 0 0 0.33897066 -0.54846609
0.035268053 0.076063871 0 0 0.33897066 -0.54846609
0.034325715 0.076057494 0 0 0.33897066 -0.54846609
0.03338353 0.076051295 0 0 0.33897066 -0.54846609
0.032441489 0.07604526 0 0 0.33897066 -0.54846609
0.031499591 0.076039404 0 0 0.33897066 -0.54846609
0.03055783 0.076033719 0 0 0.33897066 -0.54846609
0.029616205 0.076028205 0 0 0.33897066 -0.54846609
0.028674711 0.076022871 0 0 0.33897066 -0.54846609
0.027733341 0.076017708 0 0 0.33897066 -0.54846609
0.026792092 0.076012716 0 0 0.33897066 -0.54846609
0.025850963 0.076007895 0 0 0.33897066 -0.54846609
0.024909945 0.076003246 0 0 0.33897066 -0.54846609
0.023969037 0.075998768 0 0 0.33897066 -0.54846609
0.023028234 0.075994469 0 0 0.33897066 -0.54846609
0.022087533 0.075990342 0 0 0.33897066 -0.54846609
0.021146927 0.075986378 0 0 0.33897066 -0.54846609
0.020206414 0.075982593 0 0 0.33897066 -0.54846609
0.019265991 0.075978979 0 0 0.33897066 -0.54846609
0.018325651 0.075975545 0 0 0.33897066 -0.54846609
0.017385392 0.075972274 0 0 0.33897066 -0.54846609
0.016445208 0.075969182 0 0 0.33897066 -0.54846609
0.015505098 0.075966254 0 0 0.33897066 -0.54846609
0.014565055 0.075963505 0 0 0.33897066 -0.54846609
0.013625076 0.075960927 0 0 0.33897066 -0.54846609
0.012685156 0.075958513 0 0 0.33897066 -0.54846609
0.011745292 0.075956278 0 0 0.33897066 -0.54846609
0.010805479 0.075954214 0 0 0.33897066 -0.54846609
