# .PCD v0.7 - Point Cloud Data file format
VERSION 0.7
FIELDS x y z vp_x vp_y vp_z
SIZE 4 4 4 4 4 4
TYPE F F F F F F
COUNT 1 1 1 1 1 1
WIDTH 744
HEIGHT 1
VIEWPOINT 0 0 0 1 0 0 0
POINTS 744
DATA ascii
0.03899572 0.06623248 0.042686101 0.83999997 0.039999999 0.02
0.038165715 0.068362117 0.042709891 0.83999997 0.039999999 0.02
0.037002828 0.070509151 0.042743128 0.83999997 0.039999999 0.02
0.035432849 0.072679237 0.042787921 0.83999997 0.039999999 0.02
0.033330038 0.074881047 0.042847827 0.83999997 0.039999999 0.02
0.030250823 0.077139154 0.042935412 0.83999997 0.039999999 0.02
0.024003135 0.079567574 0.04311277 0.83999997 0.039999999 0.02
0.026349002 0.041065417 0.040910881 0.83999997 0.039999999 0.02
0.030779377 0.043178864 0.040797029 0.83999997 0.039999999 0.02
0.033500422 0.045280341 0.040727112 0.83999997 0.039999999 0.02
0.03547845 0.04737445 0.040676299 0.83999997 0.039999999 0.02
0.036984526 0.049463857 0.04063762 0.83999997 0.039999999 0.02
0.038124237 0.051550783 0.040608365 0.83999997 0.039999999 0.02
0.038959507 0.05363708 0.040586941 0.83999997 0.039999999 0.02
0.039536282 0.055724267 0.04057217 0.83999997 0.039999999 0.02
0.039878909 0.057813857 0.040563419 0.83999997 0.039999999 0.02
0.039994989 0.059907537 0.040560503 0.83999997 0.039999999 0.02
0.039891228 0.062006924 0.040563241 0.83999997 0.039999999 0.02
0.03956281 0.06411393 0.04057176 0.83999997 0.039999999 0.02
0.03899619 0.066230789 0.040586408 0.83999997 0.039999999 0.02
0.038166448 0.068360277 0.040607829 0.83999997 0.039999999 0.02
0.037004184 0.070507146 0.040637802 0.83999997 0.039999999 0.02
0.035434686 0.072677068 0.040678248 0.83999997 0.039999999 0.02
0.033332504 0.074878708 0.040732391 0.83999997 0.039999999 0.02
0.030255094 0.077136584 0.040811609 0.83999997 0.039999999 0.02
0.024017876 0.079564326 0.040972047 0.83999997 0.039999999 0.02
0.039999999 0.0012130735 0.038463179 0.83999997 0.039999999 0.02
0.039999999 0.0033126846 0.038463306 0.83999997 0.039999999 0.02
0.039999999 0.0054117921 0.038463429 0.83999997 0.039999999 0.02
0.039999999 0.0075104241 0.038463544 0.83999997 0.039999999 0.02
0.039999999 0.0096086105 0.038463652 0.83999997 0.039999999 0.02
0.039999999 0.011706379 0.038463753 0.83999997 0.039999999 0.02
0.039999999 0.01380376 0.038463846 0.83999997 0.039999999 0.02
0.039999999 0.015900781 0.038463932 0.83999997 0.039999999 0.02
0.039999999 0.017997472 0.03846401 0.83999997 0.039999999 0.02
0.039999999 0.02009386 0.038464084 0.83999997 0.039999999 0.02
0.039999999 0.022189977 0.038464148 0.83999997 0.039999999 0.02
0.039999999 0.024285847 0.038464207 0.83999997 0.039999999 0.02
0.039999999 0.026381504 0.038464256 0.83999997 0.039999999 0.02
0.039999999 0.028476972 0.0384643 0.83999997 0.039999999 0.02
0.039999999 0.030572284 0.038464334 0.83999997 0.039999999 0.02
0.039999999 0.032667466 0.038464364 0.83999997 0.039999999 0.02
0.039999999 0.034762546 0.038464386 0.83999997 0.039999999 0.02
0.039999999 0.036857557 0.038464401 0.83999997 0.039999999 0.02
0.039999999 0.038952526 0.038464408 0.83999997 0.039999999 0.02
0.039999999 0.041047476 0.038464408 0.83999997 0.039999999 0.02
0.039999999 0.043142442 0.038464401 0.83999997 0.039999999 0.02
0.039999999 0.045237452 0.038464386 0.83999997 0.039999999 0.02
0.039999999 0.047332533 0.038464364 0.83999997 0.039999999 0.02
0.039999999 0.049427714 0.038464334 0.83999997 0.039999999 0.02
0.039999999 0.051523026 0.0384643 0.83999997 0.039999999 0.02
0.039999999 0.053618498 0.038464256 0.83999997 0.039999999 0.02
0.039999999 0.055714153 0.038464207 0.83999997 0.039999999 0.02
0.039999999 0.057810023 0.038464148 0.83999997 0.039999999 0.02
0.039999999 0.05990614 0.038464084 0.83999997 0.039999999 0.02
0.039999999 0.062002528 0.03846401 0.83999997 0.039999999 0.02
0.039999999 0.064099222 0.038463932 0.83999997 0.039999999 0.02
0.039999999 0.06619624 0.038463846 0.83999997 0.039999999 0.02
0.039999999 0.068293624 0.038463753 0.83999997 0.039999999 0.02
0.039999999 0.070391387 0.038463652 0.83999997 0.039999999 0.02
0.039999999 0.072489575 0.038463544 0.83999997 0.039999999 0.02
0.039999999 0.074588209 0.038463429 0.83999997 0.039999999 0.02
0.039999999 0.076687314 0.038463306 0.83999997 0.039999999 0.02
0.039999999 0.078786924 0.038463179 0.83999997 0.039999999 0.02
0.039999999 0.0012155529 0.03636533 0.83999997 0.039999999 0.02
0.039999999 0.0033150294 0.036365718 0.83999997 0.039999999 0.02
0.039999999 0.0054140021 0.036366083 0.83999997 0.039999999 0.02
0.039999999 0.0075125 0.036366429 0.83999997 0.039999999 0.02
0.039999999 0.0096105523 0.036366753 0.83999997 0.039999999 0.02
0.039999999 0.011708187 0.036367055 0.83999997 0.039999999 0.02
0.039999999 0.013805433 0.036367334 0.83999997 0.039999999 0.02
0.039999999 0.01590232 0.036367595 0.83999997 0.039999999 0.02
0.039999999 0.017998876 0.03636783 0.83999997 0.039999999 0.02
0.039999999 0.020095132 0.036368046 0.83999997 0.039999999 0.02
0.039999999 0.022191113 0.03636824 0.83999997 0.039999999 0.02
0.039999999 0.024286851 0.036368411 0.83999997 0.039999999 0.02
0.039999999 0.026382374 0.036368564 0.83999997 0.039999999 0.02
0.039999999 0.028477708 0.036368694 0.83999997 0.039999999 0.02
0.039999999 0.030572886 0.036368802 0.83999997 0.039999999 0.02
0.039999999 0.032667935 0.036368888 0.83999997 0.039999999 0.02
0.039999999 0.034762882 0.036368951 0.83999997 0.039999999 0.02
0.039999999 0.036857758 0.036368996 0.83999997 0.039999999 0.02
0.039999999 0.038952589 0.036369015 0.83999997 0.039999999 0.02
0.039999999 0.041047409 0.036369015 0.83999997 0.039999999 0.02
0.039999999 0.04314224 0.036368996 0.83999997 0.039999999 0.02
0.039999999 0.045237117 0.036368951 0.83999997 0.039999999 0.02
0.039999999 0.047332067 0.036368888 0.83999997 0.039999999 0.02
0.039999999 0.049427114 0.036368802 0.83999997 0.039999999 0.02
0.039999999 0.051522292 0.036368694 0.83999997 0.039999999 0.02
0.039999999 0.053617626 0.036368564 0.83999997 0.039999999 0.02
0.039999999 0.055713151 0.036368411 0.83999997 0.039999999 0.02
0.039999999 0.057808887 0.03636824 0.83999997 0.039999999 0.02
0.039999999 0.05990487 0.036368046 0.83999997 0.039999999 0.02
0.039999999 0.062001124 0.03636783 0.83999997 0.039999999 0.02
0.039999999 0.06409768 0.036367595 0.83999997 0.039999999 0.02
0.039999999 0.066194564 0.036367334 0.83999997 0.039999999 0.02
0.039999999 0.068291813 0.036367055 0.83999997 0.039999999 0.02
0.039999999 0.07038945 0.036366753 0.83999997 0.039999999 0.02
0.039999999 0.072487503 0.036366429 0.83999997 0.039999999 0.02
0.039999999 0.074585997 0.036366083 0.83999997 0.039999999 0.02
0.039999999 0.076684974 0.036365718 0.83999997 0.039999999 0.02
0.039999999 0.078784443 0.03636533 0.83999997 0.039999999 0.02
0.039999999 0.001218032 0.034267705 0.83999997 0.039999999 0.02
0.039999999 0.003317374 0.034268353 0.83999997 0.039999999 0.02
0.039999999 0.0054162126 0.034268964 0.83999997 0.039999999 0.02
0.039999999 0.007514576 0.034269538 0.83999997 0.039999999 0.02
0.039999999 0.0096124932 0.034270078 0.83999997 0.039999999 0.02
0.039999999 0.011709995 0.034270581 0.83999997 0.039999999 0.02
0.039999999 0.013807107 0.034271047 0.83999997 0.039999999 0.02
0.039999999 0.01590386 0.034271479 0.83999997 0.039999999 0.02
0.039999999 0.018000282 0.034271874 0.83999997 0.039999999 0.02
0.039999999 0.020096403 0.034272235 0.83999997 0.039999999 0.02
0.039999999 0.022192251 0.034272555 0.83999997 0.039999999 0.02
0.039999999 0.024287855 0.034272846 0.83999997 0.039999999 0.02
0.039999999 0.026383244 0.034273095 0.83999997 0.039999999 0.02
0.039999999 0.028478444 0.034273311 0.83999997 0.039999999 0.02
0.039999999 0.030573487 0.03427349 0.83999997 0.039999999 0.02
0.039999999 0.032668401 0.034273636 0.83999997 0.039999999 0.02
0.039999999 0.034763217 0.034273744 0.83999997 0.039999999 0.02
0.039999999 0.036857959 0.034273814 0.83999997 0.039999999 0.02
0.039999999 0.038952656 0.034273848 0.83999997 0.039999999 0.02
0.039999999 0.041047342 0.034273848 0.83999997 0.039999999 0.02
0.039999999 0.043142043 0.034273814 0.83999997 0.039999999 0.02
0.039999999 0.045236785 0.034273744 0.83999997 0.039999999 0.02
0.039999999 0.047331598 0.034273636 0.83999997 0.039999999 0.02
0.039999999 0.049426511 0.03427349 0.83999997 0.039999999 0.02
0.039999999 0.051521555 0.034273311 0.83999997 0.039999999 0.02
0.039999999 0.053616758 0.034273095 0.83999997 0.039999999 0.02
0.039999999 0.055712145 0.034272846 0.83999997 0.039999999 0.02
0.039999999 0.057807751 0.034272555 0.83999997 0.039999999 0.02
0.039999999 0.059903596 0.034272235 0.83999997 0.039999999 0.02
0.039999999 0.06199972 0.034271874 0.83999997 0.039999999 0.02
0.039999999 0.064096138 0.034271479 0.83999997 0.039999999 0.02
0.039999999 0.066192895 0.034271047 0.83999997 0.039999999 0.02
0.039999999 0.068290003 0.034270581 0.83999997 0.039999999 0.02
0.039999999 0.070387505 0.034270078 0.83999997 0.039999999 0.02
0.039999999 0.072485425 0.034269538 0.83999997 0.039999999 0.02
0.039999999 0.074583791 0.034268964 0.83999997 0.039999999 0.02
0.039999999 0.076682627 0.034268353 0.83999997 0.039999999 0.02
0.039999999 0.07878197 0.034267705 0.83999997 0.039999999 0.02
0.039999999 0.0012205108 0.032170277 0.83999997 0.039999999 0.02
0.039999999 0.0033197186 0.032171182 0.83999997 0.039999999 0.02
0.039999999 0.0054184226 0.032172039 0.83999997 0.039999999 0.02
0.039999999 0.0075166519 0.032172844 0.83999997 0.039999999 0.02
0.039999999 0.009614435 0.0321736 0.83999997 0.039999999 0.02
0.039999999 0.011711801 0.032174304 0.83999997 0.039999999 0.02
0.039999999 0.013808779 0.032174956 0.83999997 0.039999999 0.02
0.039999999 0.015905399 0.03217556 0.83999997 0.039999999 0.02
0.039999999 0.018001687 0.032176115 0.83999997 0.039999999 0.02
0.039999999 0.020097675 0.032176618 0.83999997 0.039999999 0.02
0.039999999 0.022193387 0.032177068 0.83999997 0.039999999 0.02
0.039999999 0.024288857 0.032177471 0.83999997 0.039999999 0.02
0.039999999 0.026384111 0.032177825 0.83999997 0.039999999 0.02
0.039999999 0.028479179 0.032178126 0.83999997 0.039999999 0.02
0.039999999 0.030574089 0.032178376 0.83999997 0.039999999 0.02
0.039999999 0.03266887 0.032178577 0.83999997 0.039999999 0.02
0.039999999 0.034763552 0.03217873 0.83999997 0.039999999 0.02
0.039999999 0.03685816 0.03217883 0.83999997 0.039999999 0.02
0.039999999 0.038952723 0.032178879 0.83999997 0.039999999 0.02
0.039999999 0.041047275 0.032178879 0.83999997 0.039999999 0.02
0.039999999 0.043141842 0.03217883 0.83999997 0.039999999 0.02
0.039999999 0.04523645 0.03217873 0.83999997 0.039999999 0.02
0.039999999 0.047331128 0.032178577 0.83999997 0.039999999 0.02
0.039999999 0.049425911 0.032178376 0.83999997 0.039999999 0.02
0.039999999 0.051520821 0.032178126 0.83999997 0.039999999 0.02
0.039999999 0.053615887 0.032177825 0.83999997 0.039999999 0.02
0.039999999 0.055711143 0.032177471 0.83999997 0.039999999 0.02
0.039999999 0.057806611 0.032177068 0.83999997 0.039999999 0.02
0.039999999 0.059902325 0.032176618 0.83999997 0.039999999 0.02
0.039999999 0.061998311 0.032176115 0.83999997 0.039999999 0.02
0.039999999 0.064094603 0.03217556 0.83999997 0.039999999 0.02
0.039999999 0.066191219 0.032174956 0.83999997 0.039999999 0.02
0.039999999 0.0682882 0.032174304 0.83999997 0.039999999 0.02
0.039999999 0.070385568 0.0321736 0.83999997 0.039999999 0.02
0.039999999 0.072483346 0.032172844 0.83999997 0.039999999 0.02
0.039999999 0.074581578 0.032172039 0.83999997 0.039999999 0.02
0.039999999 0.07668028 0.032171182 0.83999997 0.039999999 0.02
0.039999999 0.078779489 0.032170277 0.83999997 0.039999999 0.02
0.039999999 0.0012229895 0.030073019 0.83999997 0.039999999 0.02
0.039999999 0.0033220628 0.030074183 0.83999997 0.039999999 0.02
0.039999999 0.0054206322 0.030075284 0.83999997 0.039999999 0.02
0.039999999 0.0075187273 0.030076317 0.83999997 0.039999999 0.02
0.039999999 0.0096163759 0.030077288 0.83999997 0.039999999 0.02
0.039999999 0.011713608 0.030078193 0.83999997 0.039999999 0.02
0.039999999 0.013810453 0.030079035 0.83999997 0.039999999 0.02
0.039999999 0.015906937 0.03007981 0.83999997 0.039999999 0.02
0.039999999 0.018003091 0.030080521 0.83999997 0.039999999 0.02
0.039999999 0.020098945 0.030081168 0.83999997 0.039999999 0.02
0.039999999 0.022194525 0.030081749 0.83999997 0.039999999 0.02
0.039999999 0.024289861 0.030082267 0.83999997 0.039999999 0.02
0.039999999 0.026384981 0.030082719 0.83999997 0.039999999 0.02
0.039999999 0.028479915 0.030083107 0.83999997 0.039999999 0.02
0.039999999 0.030574692 0.030083429 0.83999997 0.039999999 0.02
0.039999999 0.032669339 0.030083688 0.83999997 0.039999999 0.02
0.039999999 0.034763884 0.030083882 0.83999997 0.039999999 0.02
0.039999999 0.036858361 0.03008401 0.83999997 0.039999999 0.02
0.039999999 0.03895279 0.030084075 0.83999997 0.039999999 0.02
0.039999999 0.041047208 0.030084075 0.83999997 0.039999999 0.02
0.039999999 0.043141641 0.03008401 0.83999997 0.039999999 0.02
0.039999999 0.045236114 0.030083882 0.83999997 0.039999999 0.02
0.039999999 0.047330663 0.030083688 0.83999997 0.039999999 0.02
0.039999999 0.049425308 0.030083429 0.83999997 0.039999999 0.02
0.039999999 0.051520083 0.030083107 0.83999997 0.039999999 0.02
0.039999999 0.053615019 0.030082719 0.83999997 0.039999999 0.02
0.039999999 0.055710141 0.030082267 0.83999997 0.039999999 0.02
0.039999999 0.057805475 0.030081749 0.83999997 0.039999999 0.02
0.039999999 0.059901055 0.030081168 0.83999997 0.039999999 0.02
0.039999999 0.061996907 0.030080521 0.83999997 0.039999999 0.02
0.039999999 0.064093061 0.03007981 0.83999997 0.039999999 0.02
0.039999999 0.06618955 0.030079035 0.83999997 0.039999999 0.02
0.039999999 0.068286389 0.030078193 0.83999997 0.039999999 0.02
0.039999999 0.070383623 0.030077288 0.83999997 0.039999999 0.02
0.039999999 0.072481275 0.030076317 0.83999997 0.039999999 0.02
0.039999999 0.074579366 0.030075284 0.83999997 0.039999999 0.02
0.039999999 0.076677941 0.030074183 0.83999997 0.039999999 0.02
0.039999999 0.078777008 0.030073019 0.83999997 0.039999999 0.02
0.039999999 0.001225468 0.027975896 0.83999997 0.039999999 0.02
0.039999999 0.0033244067 0.027977321 0.83999997 0.039999999 0.02
0.039999999 0.0054228422 0.027978664 0.83999997 0.039999999 0.02
0.039999999 0.0075208028 0.027979929 0.83999997 0.039999999 0.02
0.039999999 0.0096183177 0.027981116 0.83999997 0.039999999 0.02
0.039999999 0.011715416 0.027982222 0.83999997 0.039999999 0.02
0.039999999 0.013812126 0.02798325 0.83999997 0.039999999 0.02
0.039999999 0.015908476 0.027984198 0.83999997 0.039999999 0.02
0.039999999 0.018004498 0.027985066 0.83999997 0.039999999 0.02
0.039999999 0.020100215 0.027985856 0.83999997 0.039999999 0.02
0.039999999 0.022195661 0.027986567 0.83999997 0.039999999 0.02
0.039999999 0.024290863 0.027987199 0.83999997 0.039999999 0.02
0.039999999 0.026385851 0.027987752 0.83999997 0.039999999 0.02
0.039999999 0.028480651 0.027988225 0.83999997 0.039999999 0.02
0.039999999 0.030575294 0.02798862 0.83999997 0.039999999 0.02
0.039999999 0.032669805 0.027988937 0.83999997 0.039999999 0.02
0.039999999 0.034764219 0.027989173 0.83999997 0.039999999 0.02
0.039999999 0.036858559 0.027989332 0.83999997 0.039999999 0.02
0.039999999 0.038952857 0.02798941 0.83999997 0.039999999 0.02
0.039999999 0.041047141 0.02798941 0.83999997 0.039999999 0.02
0.039999999 0.04314144 0.027989332 0.83999997 0.039999999 0.02
0.039999999 0.045235779 0.027989173 0.83999997 0.039999999 0.02
0.039999999 0.047330193 0.027988937 0.83999997 0.039999999 0.02
0.039999999 0.049424708 0.02798862 0.83999997 0.039999999 0.02
0.039999999 0.051519349 0.027988225 0.83999997 0.039999999 0.02
0.039999999 0.053614151 0.027987752 0.83999997 0.039999999 0.02
0.039999999 0.055709135 0.027987199 0.83999997 0.039999999 0.02
0.039999999 0.057804339 0.027986567 0.83999997 0.039999999 0.02
0.039999999 0.059899785 0.027985856 0.83999997 0.039999999 0.02
0.039999999 0.061995503 0.027985066 0.83999997 0.039999999 0.02
0.039999999 0.064091526 0.027984198 0.83999997 0.039999999 0.02
0.039999999 0.066187873 0.02798325 0.83999997 0.039999999 0.02
0.039999999 0.068284586 0.027982222 0.83999997 0.039999999 0.02
0.039999999 0.070381686 0.027981116 0.83999997 0.039999999 0.02
0.039999999 0.072479196 0.027979929 0.83999997 0.039999999 0.02
0.039999999 0.07457716 0.027978664 0.83999997 0.039999999 0.02
0.039999999 0.076675594 0.027977321 0.83999997 0.039999999 0.02
0.039999999 0.078774534 0.027975896 0.83999997 0.039999999 0.02
0.039999999 0.0012279464 0.025878886 0.83999997 0.039999999 0.02
0.039999999 0.0033267508 0.025880568 0.83999997 0.039999999 0.02
0.039999999 0.0054250518 0.025882157 0.83999997 0.039999999 0.02
0.039999999 0.0075228778 0.025883652 0.83999997 0.039999999 0.02
0.039999999 0.0096202586 0.025885053 0.83999997 0.039999999 0.02
0.039999999 0.011717223 0.025886361 0.83999997 0.039999999 0.02
0.039999999 0.013813798 0.025887575 0.83999997 0.039999999 0.02
0.039999999 0.015910015 0.025888694 0.83999997 0.039999999 0.02
0.039999999 0.018005902 0.025889721 0.83999997 0.039999999 0.02
0.039999999 0.020101488 0.025890656 0.83999997 0.039999999 0.02
0.039999999 0.0221968 0.025891496 0.83999997 0.039999999 0.02
0.039999999 0.024291867 0.025892241 0.83999997 0.039999999 0.02
0.039999999 0.026386719 0.025892895 0.83999997 0.039999999 0.02
0.039999999 0.028481387 0.025893455 0.83999997 0.039999999 0.02
0.039999999 0.030575896 0.025893921 0.83999997 0.039999999 0.02
0.039999999 0.032670274 0.025894294 0.83999997 0.039999999 0.02
0.039999999 0.034764554 0.025894575 0.83999997 0.039999999 0.02
0.039999999 0.03685876 0.025894761 0.83999997 0.039999999 0.02
0.039999999 0.038952924 0.025894854 0.83999997 0.039999999 0.02
0.039999999 0.041047074 0.025894854 0.83999997 0.039999999 0.02
0.039999999 0.043141238 0.025894761 0.83999997 0.039999999 0.02
0.039999999 0.045235448 0.025894575 0.83999997 0.039999999 0.02
0.039999999 0.047329724 0.025894294 0.83999997 0.039999999 0.02
0.039999999 0.049424104 0.025893921 0.83999997 0.039999999 0.02
0.039999999 0.051518615 0.025893455 0.83999997 0.039999999 0.02
0.039999999 0.053613279 0.025892895 0.83999997 0.039999999 0.02
0.039999999 0.055708133 0.025892241 0.83999997 0.039999999 0.02
0.039999999 0.057803202 0.025891496 0.83999997 0.039999999 0.02
0.039999999 0.059898514 0.025890656 0.83999997 0.039999999 0.02
0.039999999 0.061994098 0.025889721 0.83999997 0.039999999 0.02
0.039999999 0.064089984 0.025888694 0.83999997 0.039999999 0.02
0.039999999 0.066186205 0.025887575 0.83999997 0.039999999 0.02
0.039999999 0.068282776 0.025886361 0.83999997 0.039999999 0.02
0.039999999 0.070379741 0.025885053 0.83999997 0.039999999 0.02
0.039999999 0.072477125 0.025883652 0.83999997 0.039999999 0.02
0.039999999 0.074574947 0.025882157 0.83999997 0.039999999 0.02
0.039999999 0.076673247 0.025880568 0.83999997 0.039999999 0.02
0.039999999 0.078772053 0.025878886 0.83999997 0.039999999 0.02
0.039999999 0.0012304247 0.023781955 0.83999997 0.039999999 0.02
0.039999999 0.0033290945 0.023783896 0.83999997 0.039999999 0.02
0.039999999 0.0054272609 0.023785729 0.83999997 0.039999999 0.02
0.039999999 0.0075249532 0.023787454 0.83999997 0.039999999 0.02
0.039999999 0.0096221995 0.023789071 0.83999997 0.039999999 0.02
0.039999999 0.011719029 0.023790579 0.83999997 0.039999999 0.02
0.039999999 0.013815471 0.02379198 0.83999997 0.039999999 0.02
0.039999999 0.015911553 0.023793273 0.83999997 0.039999999 0.02
0.039999999 0.018007306 0.023794457 0.83999997 0.039999999 0.02
0.039999999 0.020102758 0.023795534 0.83999997 0.039999999 0.02
0.039999999 0.022197936 0.023796504 0.83999997 0.039999999 0.02
0.039999999 0.024292869 0.023797365 0.83999997 0.039999999 0.02
0.039999999 0.026387589 0.023798119 0.83999997 0.039999999 0.02
0.039999999 0.028482122 0.023798764 0.83999997 0.039999999 0.02
0.039999999 0.030576497 0.023799302 0.83999997 0.039999999 0.02
0.039999999 0.032670744 0.023799734 0.83999997 0.039999999 0.02
0.039999999 0.034764886 0.023800056 0.83999997 0.039999999 0.02
0.039999999 0.036858961 0.023800272 0.83999997 0.039999999 0.02
0.039999999 0.038952991 0.023800379 0.83999997 0.039999999 0.02
0.039999999 0.041047007 0.023800379 0.83999997 0.039999999 0.02
0.039999999 0.043141037 0.023800272 0.83999997 0.039999999 0.02
0.039999999 0.045235112 0.023800056 0.83999997 0.039999999 0.02
0.039999999 0.047329258 0.023799734 0.83999997 0.039999999 0.02
0.039999999 0.049423505 0.023799302 0.83999997 0.039999999 0.02
0.039999999 0.051517878 0.023798764 0.83999997 0.039999999 0.02
0.039999999 0.053612411 0.023798119 0.83999997 0.039999999 0.02
0.039999999 0.055707131 0.023797365 0.83999997 0.039999999 0.02
0.039999999 0.057802062 0.023796504 0.83999997 0.039999999 0.02
0.039999999 0.059897244 0.023795534 0.83999997 0.039999999 0.02
0.039999999 0.061992694 0.023794457 0.83999997 0.039999999 0.02
0.039999999 0.064088449 0.023793273 0.83999997 0.039999999 0.02
0.039999999 0.066184528 0.02379198 0.83999997 0.039999999 0.02
0.039999999 0.068280973 0.023790579 0.83999997 0.039999999 0.02
0.039999999 0.070377797 0.023789071 0.83999997 0.039999999 0.02
0.039999999 0.072475046 0.023787454 0.83999997 0.039999999 0.02
0.039999999 0.074572742 0.023785729 0.83999997 0.039999999 0.02
0.039999999 0.076670907 0.023783896 0.83999997 0.039999999 0.02
0.039999999 0.078769572 0.023781955 0.83999997 0.039999999 0.02
0.039999999 0.0012329029 0.021685079 0.83999997 0.039999999 0.02
0.039999999 0.0033314384 0.021687279 0.83999997 0.039999999 0.02
0.039999999 0.0054294704 0.021689355 0.83999997 0.039999999 0.02
0.039999999 0.0075270282 0.021691309 0.83999997 0.039999999 0.02
0.039999999 0.0096241403 0.02169314 0.83999997 0.039999999 0.02
0.039999999 0.011720836 0.02169485 0.83999997 0.039999999 0.02
0.039999999 0.013817144 0.021696437 0.83999997 0.039999999 0.02
0.039999999 0.015913093 0.021697903 0.83999997 0.039999999 0.02
0.039999999 0.018008711 0.021699246 0.83999997 0.039999999 0.02
0.039999999 0.020104028 0.021700466 0.83999997 0.039999999 0.02
0.039999999 0.022199072 0.021701565 0.83999997 0.039999999 0.02
0.039999999 0.024293873 0.021702541 0.83999997 0.039999999 0.02
0.039999999 0.026388459 0.021703394 0.83999997 0.039999999 0.02
0.039999999 0.028482858 0.021704126 0.83999997 0.039999999 0.02
0.039999999 0.030577099 0.021704737 0.83999997 0.039999999 0.02
0.039999999 0.032671209 0.021705225 0.83999997 0.039999999 0.02
0.039999999 0.034765221 0.02170559 0.83999997 0.039999999 0.02
0.039999999 0.036859162 0.021705834 0.83999997 0.039999999 0.02
0.039999999 0.038953058 0.021705957 0.83999997 0.039999999 0.02
0.039999999 0.04104694 0.021705957 0.83999997 0.039999999 0.02
0.039999999 0.04314084 0.021705834 0.83999997 0.039999999 0.02
0.039999999 0.045234777 0.02170559 0.83999997 0.039999999 0.02
0.039999999 0.047328789 0.021705225 0.83999997 0.039999999 0.02
0.039999999 0.049422901 0.021704737 0.83999997 0.039999999 0.02
0.039999999 0.051517144 0.021704126 0.83999997 0.039999999 0.02
0.039999999 0.053611543 0.021703394 0.83999997 0.039999999 0.02
0.039999999 0.055706128 0.021702541 0.83999997 0.039999999 0.02
0.039999999 0.057800926 0.021701565 0.83999997 0.039999999 0.02
0.039999999 0.05989597 0.021700466 0.83999997 0.039999999 0.02
0.039999999 0.061991289 0.021699246 0.83999997 0.039999999 0.02
0.039999999 0.064086907 0.021697903 0.83999997 0.039999999 0.02
0.039999999 0.066182859 0.021696437 0.83999997 0.039999999 0.02
0.039999999 0.068279162 0.02169485 0.83999997 0.039999999 0.02
0.039999999 0.07037586 0.02169314 0.83999997 0.039999999 0.02
0.039999999 0.072472975 0.021691309 0.83999997 0.039999999 0.02
0.039999999 0.074570529 0.021689355 0.83999997 0.039999999 0.02
0.039999999 0.076668561 0.021687279 0.83999997 0.039999999 0.02
0.039999999 0.078767098 0.021685079 0.83999997 0.039999999 0.02
0.039999999 0.0012353811 0.019588225 0.83999997 0.039999999 0.02
0.039999999 0.0033337821 0.019590683 0.83999997 0.039999999 0.02
0.039999999 0.00543168 0.019593004 0.83999997 0.039999999 0.02
0.039999999 0.0075291032 0.019595187 0.83999997 0.039999999 0.02
0.039999999 0.0096260812 0.019597236 0.83999997 0.039999999 0.02
0.039999999 0.011722643 0.019599145 0.83999997 0.039999999 0.02
0.039999999 0.013818816 0.01960092 0.83999997 0.039999999 0.02
0.039999999 0.015914632 0.019602556 0.83999997 0.039999999 0.02
0.039999999 0.018010115 0.019604057 0.83999997 0.039999999 0.02
0.039999999 0.020105299 0.019605421 0.83999997 0.039999999 0.02
0.039999999 0.02220021 0.019606648 0.83999997 0.039999999 0.02
0.039999999 0.024294876 0.01960774 0.83999997 0.039999999 0.02
0.039999999 0.026389327 0.019608693 0.83999997 0.039999999 0.02
0.039999999 0.028483592 0.019609513 0.83999997 0.039999999 0.02
0.039999999 0.030577701 0.019610194 0.83999997 0.039999999 0.02
0.039999999 0.032671679 0.019610738 0.83999997 0.039999999 0.02
0.039999999 0.034765556 0.019611148 0.83999997 0.039999999 0.02
0.039999999 0.036859363 0.01961142 0.83999997 0.039999999 0.02
0.039999999 0.038953125 0.019611556 0.83999997 0.039999999 0.02
0.039999999 0.041046873 0.019611556 0.83999997 0.039999999 0.02
0.039999999 0.043140639 0.01961142 0.83999997 0.039999999 0.02
0.039999999 0.045234445 0.019611148 0.83999997 0.039999999 0.02
0.039999999 0.047328323 0.019610738 0.83999997 0.039999999 0.02
0.039999999 0.049422301 0.019610194 0.83999997 0.039999999 0.02
0.039999999 0.051516406 0.019609513 0.83999997 0.039999999 0.02
0.039999999 0.053610671 0.019608693 0.83999997 0.039999999 0.02
0.039999999 0.055705123 0.01960774 0.83999997 0.039999999 0.02
0.039999999 0.05779979 0.019606648 0.83999997 0.039999999 0.02
0.039999999 0.0598947 0.019605421 0.83999997 0.039999999 0.02
0.039999999 0.061989885 0.019604057 0.83999997 0.039999999 0.02
0.039999999 0.064085372 0.019602556 0.83999997 0.039999999 0.02
0.039999999 0.066181183 0.01960092 0.83999997 0.039999999 0.02
0.039999999 0.068277359 0.019599145 0.83999997 0.039999999 0.02
0.039999999 0.070373915 0.019597236 0.83999997 0.039999999 0.02
0.039999999 0.072470896 0.019595187 0.83999997 0.039999999 0.02
0.039999999 0.074568324 0.019593004 0.83999997 0.039999999 0.02
0.039999999 0.076666221 0.019590683 0.83999997 0.039999999 0.02
0.039999999 0.078764617 0.019588225 0.83999997 0.039999999 0.02
0.039999999 0.0012378594 0.017491365 0.83999997 0.039999999 0.02
0.039999999 0.0033361258 0.017494082 0.83999997 0.039999999 0.02
0.039999999 0.0054338891 0.017496647 0.83999997 0.039999999 0.02
0.039999999 0.0075311786 0.017499061 0.83999997 0.039999999 0.02
0.039999999 0.0096280221 0.017501324 0.83999997 0.039999999 0.02
0.039999999 0.01172445 0.017503435 0.83999997 0.039999999 0.02
0.039999999 0.013820489 0.017505396 0.83999997 0.039999999 0.02
0.039999999 0.015916171 0.017507205 0.83999997 0.039999999 0.02
0.039999999 0.01801152 0.017508864 0.83999997 0.039999999 0.02
0.039999999 0.020106569 0.017510371 0.83999997 0.039999999 0.02
0.039999999 0.022201346 0.017511727 0.83999997 0.039999999 0.02
0.039999999 0.02429588 0.017512932 0.83999997 0.039999999 0.02
0.039999999 0.026390197 0.017513989 0.83999997 0.039999999 0.02
0.039999999 0.028484328 0.017514892 0.83999997 0.039999999 0.02
0.039999999 0.030578302 0.017515646 0.83999997 0.039999999 0.02
0.039999999 0.032672148 0.017516248 0.83999997 0.039999999 0.02
0.039999999 0.034765892 0.017516701 0.83999997 0.039999999 0.02
0.039999999 0.036859564 0.017517 0.83999997 0.039999999 0.02
0.039999999 0.038953193 0.017517151 0.83999997 0.039999999 0.02
0.039999999 0.041046809 0.017517151 0.83999997 0.039999999 0.02
0.039999999 0.043140437 0.017517 0.83999997 0.039999999 0.02
0.039999999 0.04523411 0.017516701 0.83999997 0.039999999 0.02
0.039999999 0.047327854 0.017516248 0.83999997 0.039999999 0.02
0.039999999 0.049421698 0.017515646 0.83999997 0.039999999 0.02
0.039999999 0.051515672 0.017514892 0.83999997 0.039999999 0.02
0.039999999 0.053609803 0.017513989 0.83999997 0.039999999 0.02
0.039999999 0.055704121 0.017512932 0.83999997 0.039999999 0.02
0.039999999 0.057798654 0.017511727 0.83999997 0.039999999 0.02
0.039999999 0.059893429 0.017510371 0.83999997 0.039999999 0.02
0.039999999 0.06198848 0.017508864 0.83999997 0.039999999 0.02
0.039999999 0.06408383 0.017507205 0.83999997 0.039999999 0.02
0.039999999 0.066179514 0.017505396 0.83999997 0.039999999 0.02
0.039999999 0.068275549 0.017503435 0.83999997 0.039999999 0.02
0.039999999 0.070371978 0.017501324 0.83999997 0.039999999 0.02
0.039999999 0.072468825 0.017499061 0.83999997 0.039999999 0.02
0.039999999 0.074566111 0.017496647 0.83999997 0.039999999 0.02
0.039999999 0.076663874 0.017494082 0.83999997 0.039999999 0.02
0.039999999 0.078762144 0.017491365 0.83999997 0.039999999 0.02
0.039999999 0.0012403375 0.015394473 0.83999997 0.039999999 0.02
0.039999999 0.0033384697 0.015397448 0.83999997 0.039999999 0.02
0.039999999 0.0054360987 0.015400258 0.83999997 0.039999999 0.02
0.039999999 0.0075332536 0.015402901 0.83999997 0.039999999 0.02
0.039999999 0.009629963 0.015405379 0.83999997 0.039999999 0.02
0.039999999 0.011726256 0.015407692 0.83999997 0.039999999 0.02
0.039999999 0.013822162 0.015409838 0.83999997 0.039999999 0.02
0.039999999 0.015917709 0.01541182 0.83999997 0.039999999 0.02
0.039999999 0.018012926 0.015413636 0.83999997 0.039999999 0.02
0.039999999 0.020107841 0.015415287 0.83999997 0.039999999 0.02
0.039999999 0.022202484 0.015416772 0.83999997 0.039999999 0.02
0.039999999 0.024296882 0.015418093 0.83999997 0.039999999 0.02
0.039999999 0.026391067 0.015419248 0.83999997 0.039999999 0.02
0.039999999 0.028485063 0.015420238 0.83999997 0.039999999 0.02
0.039999999 0.030578904 0.015421063 0.83999997 0.039999999 0.02
0.039999999 0.032672614 0.015421723 0.83999997 0.039999999 0.02
0.039999999 0.034766223 0.015422218 0.83999997 0.039999999 0.02
0.039999999 0.036859762 0.015422548 0.83999997 0.039999999 0.02
0.039999999 0.03895326 0.015422713 0.83999997 0.039999999 0.02
0.039999999 0.041046742 0.015422713 0.83999997 0.039999999 0.02
0.039999999 0.043140236 0.015422548 0.83999997 0.039999999 0.02
0.039999999 0.045233775 0.015422218 0.83999997 0.039999999 0.02
0.039999999 0.047327384 0.015421723 0.83999997 0.039999999 0.02
0.039999999 0.049421098 0.015421063 0.83999997 0.039999999 0.02
0.039999999 0.051514935 0.015420238 0.83999997 0.039999999 0.02
0.039999999 0.053608935 0.015419248 0.83999997 0.039999999 0.02
0.039999999 0.055703118 0.015418093 0.83999997 0.039999999 0.02
0.039999999 0.057797518 0.015416772 0.83999997 0.039999999 0.02
0.039999999 0.059892159 0.015415287 0.83999997 0.039999999 0.02
0.039999999 0.061987076 0.015413636 0.83999997 0.039999999 0.02
0.039999999 0.064082295 0.01541182 0.83999997 0.039999999 0.02
0.039999999 0.066177838 0.015409838 0.83999997 0.039999999 0.02
0.039999999 0.068273745 0.015407692 0.83999997 0.039999999 0.02
0.039999999 0.070370033 0.015405379 0.83999997 0.039999999 0.02
0.039999999 0.072466746 0.015402901 0.83999997 0.039999999 0.02
0.039999999 0.074563898 0.015400258 0.83999997 0.039999999 0.02
0.039999999 0.076661527 0.015397448 0.83999997 0.039999999 0.02
0.039999999 0.078759663 0.015394473 0.83999997 0.039999999 0.02
0.039999999 0.0012428159 0.013297518 0.83999997 0.039999999 0.02
0.039999999 0.0033408136 0.013300751 0.83999997 0.039999999 0.02
0.039999999 0.0054383082 0.013303805 0.83999997 0.039999999 0.02
0.039999999 0.0075353286 0.013306678 0.83999997 0.039999999 0.02
0.039999999 0.0096319038 0.013309372 0.83999997 0.039999999 0.02
0.039999999 0.011728063 0.013311885 0.83999997 0.039999999 0.02
0.039999999 0.013823834 0.013314218 0.83999997 0.039999999 0.02
0.039999999 0.015919248 0.013316372 0.83999997 0.039999999 0.02
0.039999999 0.01801433 0.013318346 0.83999997 0.039999999 0.02
0.039999999 0.020109111 0.01332014 0.83999997 0.039999999 0.02
0.039999999 0.022203621 0.013321755 0.83999997 0.039999999 0.02
0.039999999 0.024297886 0.01332319 0.83999997 0.039999999 0.02
0.039999999 0.026391936 0.013324445 0.83999997 0.039999999 0.02
0.039999999 0.028485799 0.013325522 0.83999997 0.039999999 0.02
0.039999999 0.030579505 0.013326419 0.83999997 0.039999999 0.02
0.039999999 0.032673083 0.013327136 0.83999997 0.039999999 0.02
0.039999999 0.034766559 0.013327673 0.83999997 0.039999999 0.02
0.039999999 0.036859963 0.013328033 0.83999997 0.039999999 0.02
0.039999999 0.038953327 0.013328211 0.83999997 0.039999999 0.02
0.039999999 0.041046675 0.013328211 0.83999997 0.039999999 0.02
0.039999999 0.043140035 0.013328033 0.83999997 0.039999999 0.02
0.039999999 0.04523344 0.013327673 0.83999997 0.039999999 0.02
0.039999999 0.047326919 0.013327136 0.83999997 0.039999999 0.02
0.039999999 0.049420495 0.013326419 0.83999997 0.039999999 0.02
0.039999999 0.051514201 0.013325522 0.83999997 0.039999999 0.02
0.039999999 0.053608064 0.013324445 0.83999997 0.039999999 0.02
0.039999999 0.055702116 0.01332319 0.83999997 0.039999999 0.02
0.039999999 0.057796381 0.013321755 0.83999997 0.039999999 0.02
0.039999999 0.059890889 0.01332014 0.83999997 0.039999999 0.02
0.039999999 0.061985672 0.013318346 0.83999997 0.039999999 0.02
0.039999999 0.064080752 0.013316372 0.83999997 0.039999999 0.02
0.039999999 0.066176169 0.013314218 0.83999997 0.039999999 0.02
0.039999999 0.068271935 0.013311885 0.83999997 0.039999999 0.02
0.039999999 0.070368096 0.013309372 0.83999997 0.039999999 0.02
0.039999999 0.072464675 0.013306678 0.83999997 0.039999999 0.02
0.039999999 0.074561693 0.013303805 0.83999997 0.039999999 0.02
0.039999999 0.076659188 0.013300751 0.83999997 0.039999999 0.02
0.039999999 0.078757182 0.013297518 0.83999997 0.039999999 0.02
0.039999999 0.0012452942 0.011200472 0.83999997 0.039999999 0.02
0.039999999 0.0033431575 0.011203964 0.83999997 0.039999999 0.02
0.039999999 0.0054405178 0.011207261 0.83999997 0.039999999 0.02
0.039999999 0.0075374041 0.011210364 0.83999997 0.039999999 0.02
0.039999999 0.0096338456 0.011213273 0.83999997 0.039999999 0.02
0.039999999 0.01172987 0.011215987 0.83999997 0.039999999 0.02
0.039999999 0.013825508 0.011218507 0.83999997 0.039999999 0.02
0.039999999 0.015920786 0.011220832 0.83999997 0.039999999 0.02
0.039999999 0.018015735 0.011222964 0.83999997 0.039999999 0.02
0.039999999 0.020110382 0.011224902 0.83999997 0.039999999 0.02
0.039999999 0.022204757 0.011226646 0.83999997 0.039999999 0.02
0.039999999 0.024298888 0.011228195 0.83999997 0.039999999 0.02
0.039999999 0.026392804 0.011229551 0.83999997 0.039999999 0.02
0.039999999 0.028486535 0.011230714 0.83999997 0.039999999 0.02
0.039999999 0.030580107 0.011231681 0.83999997 0.039999999 0.02
0.039999999 0.032673549 0.011232456 0.83999997 0.039999999 0.02
0.039999999 0.034766894 0.011233037 0.83999997 0.039999999 0.02
0.039999999 0.036860164 0.011233425 0.83999997 0.039999999 0.02
0.039999999 0.038953394 0.011233618 0.83999997 0.039999999 0.02
0.039999999 0.041046608 0.011233618 0.83999997 0.039999999 0.02
0.039999999 0.043139834 0.011233425 0.83999997 0.039999999 0.02
0.039999999 0.045233108 0.011233037 0.83999997 0.039999999 0.02
0.039999999 0.047326449 0.011232456 0.83999997 0.039999999 0.02
0.039999999 0.049419895 0.011231681 0.83999997 0.039999999 0.02
0.039999999 0.051513467 0.011230714 0.83999997 0.039999999 0.02
0.039999999 0.053607196 0.011229551 0.83999997 0.039999999 0.02
0.039999999 0.055701111 0.011228195 0.83999997 0.039999999 0.02
0.039999999 0.057795241 0.011226646 0.83999997 0.039999999 0.02
0.039999999 0.059889618 0.011224902 0.83999997 0.039999999 0.02
0.039999999 0.061984263 0.011222964 0.83999997 0.039999999 0.02
0.039999999 0.06407921 0.011220832 0.83999997 0.039999999 0.02
0.039999999 0.066174492 0.011218507 0.83999997 0.039999999 0.02
0.039999999 0.068270132 0.011215987 0.83999997 0.039999999 0.02
0.039999999 0.070366152 0.011213273 0.83999997 0.039999999 0.02
0.039999999 0.072462596 0.011210364 0.83999997 0.039999999 0.02
0.039999999 0.07455948 0.011207261 0.83999997 0.039999999 0.02
0.039999999 0.076656841 0.011203964 0.83999997 0.039999999 0.02
0.039999999 0.078754708 0.011200472 0.83999997 0.039999999 0.02
0.039999999 0.0012477728 0.0091033056 0.83999997 0.039999999 0.02
0.039999999 0.0033455016 0.0091070561 0.83999997 0.039999999 0.02
0.039999999 0.0054427274 0.0091105979 0.83999997 0.039999999 0.02
0.039999999 0.0075394795 0.0091139302 0.83999997 0.039999999 0.02
0.039999999 0.0096357865 0.0091170538 0.83999997 0.039999999 0.02
0.039999999 0.011731677 0.0091199689 0.83999997 0.039999999 0.02
0.039999999 0.01382718 0.0091226753 0.83999997 0.039999999 0.02
0.039999999 0.015922325 0.0091251731 0.83999997 0.039999999 0.02
0.039999999 0.018017139 0.0091274623 0.83999997 0.039999999 0.02
0.039999999 0.020111654 0.0091295438 0.83999997 0.039999999 0.02
0.039999999 0.022205895 0.0091314157 0.83999997 0.039999999 0.02
0.039999999 0.024299892 0.009133081 0.83999997 0.039999999 0.02
0.039999999 0.026393674 0.0091345366 0.83999997 0.039999999 0.02
0.039999999 0.028487271 0.0091357855 0.83999997 0.039999999 0.02
0.039999999 0.030580709 0.0091368249 0.83999997 0.039999999 0.02
0.039999999 0.032674018 0.0091376575 0.83999997 0.039999999 0.02
0.039999999 0.034767229 0.0091382815 0.83999997 0.039999999 0.02
0.039999999 0.036860365 0.0091386968 0.83999997 0.039999999 0.02
0.039999999 0.038953461 0.0091389054 0.83999997 0.039999999 0.02
0.039999999 0.041046541 0.0091389054 0.83999997 0.039999999 0.02
0.039999999 0.043139637 0.0091386968 0.83999997 0.039999999 0.02
0.039999999 0.045232773 0.0091382815 0.83999997 0.039999999 0.02
0.039999999 0.04732598 0.0091376575 0.83999997 0.039999999 0.02
0.039999999 0.049419291 0.0091368249 0.83999997 0.039999999 0.02
0.039999999 0.051512729 0.0091357855 0.83999997 0.039999999 0.02
0.039999999 0.053606328 0.0091345366 0.83999997 0.039999999 0.02
0.039999999 0.055700108 0.009133081 0.83999997 0.039999999 0.02
0.039999999 0.057794105 0.0091314157 0.83999997 0.039999999 0.02
0.039999999 0.059888348 0.0091295438 0.83999997 0.039999999 0.02
0.039999999 0.061982859 0.0091274623 0.83999997 0.039999999 0.02
0.039999999 0.064077675 0.0091251731 0.83999997 0.039999999 0.02
0.039999999 0.066172816 0.0091226753 0.83999997 0.039999999 0.02
0.039999999 0.068268321 0.0091199689 0.83999997 0.039999999 0.02
0.039999999 0.070364214 0.0091170538 0.83999997 0.039999999 0.02
0.039999999 0.072460517 0.0091139302 0.83999997 0.039999999 0.02
0.039999999 0.074557275 0.0091105979 0.83999997 0.039999999 0.02
0.039999999 0.076654501 0.0091070561 0.83999997 0.039999999 0.02
0.039999999 0.078752227 0.0091033056 0.83999997 0.039999999 0.02
0.039999999 0.0012502515 0.0070059905 0.83999997 0.039999999 0.02
0.039999999 0.003347846 0.0070099994 0.83999997 0.039999999 0.02
0.039999999 0.0054449374 0.0070137847 0.83999997 0.039999999 0.02
0.039999999 0.007541555 0.007017347 0.83999997 0.039999999 0.02
0.039999999 0.0096377274 0.0070206863 0.83999997 0.039999999 0.02
0.039999999 0.011733484 0.007023802 0.83999997 0.039999999 0.02
0.039999999 0.013828853 0.0070266947 0.83999997 0.039999999 0.02
0.039999999 0.015923863 0.0070293648 0.83999997 0.039999999 0.02
0.039999999 0.018018546 0.0070318119 0.83999997 0.039999999 0.02
0.039999999 0.020112924 0.0070340363 0.83999997 0.039999999 0.02
0.039999999 0.022207031 0.0070360382 0.83999997 0.039999999 0.02
0.039999999 0.024300896 0.007037817 0.83999997 0.039999999 0.02
0.039999999 0.026394544 0.0070393737 0.83999997 0.039999999 0.02
0.039999999 0.028488006 0.0070407079 0.83999997 0.039999999 0.02
0.039999999 0.03058131 0.0070418199 0.83999997 0.039999999 0.02
0.039999999 0.032674488 0.0070427088 0.83999997 0.039999999 0.02
0.039999999 0.034767561 0.0070433761 0.83999997 0.039999999 0.02
0.039999999 0.036860567 0.0070438208 0.83999997 0.039999999 0.02
0.039999999 0.038953528 0.0070440429 0.83999997 0.039999999 0.02
0.039999999 0.041046474 0.0070440429 0.83999997 0.039999999 0.02
0.039999999 0.043139435 0.0070438208 0.83999997 0.039999999 0.02
0.039999999 0.045232438 0.0070433761 0.83999997 0.039999999 0.02
0.039999999 0.047325514 0.0070427088 0.83999997 0.039999999 0.02
0.039999999 0.049418688 0.0070418199 0.83999997 0.039999999 0.02
0.039999999 0.051511995 0.0070407079 0.83999997 0.039999999 0.02
0.039999999 0.053605456 0.0070393737 0.83999997 0.039999999 0.02
0.039999999 0.055699106 0.007037817 0.83999997 0.039999999 0.02
0.039999999 0.057792969 0.0070360382 0.83999997 0.039999999 0.02
0.039999999 0.059887074 0.0070340363 0.83999997 0.039999999 0.02
0.039999999 0.061981454 0.0070318119 0.83999997 0.039999999 0.02
0.039999999 0.064076133 0.0070293648 0.83999997 0.039999999 0.02
0.039999999 0.066171147 0.0070266947 0.83999997 0.039999999 0.02
0.039999999 0.068266518 0.007023802 0.83999997 0.039999999 0.02
0.039999999 0.07036227 0.0070206863 0.83999997 0.039999999 0.02
0.039999999 0.072458446 0.007017347 0.83999997 0.039999999 0.02
0.039999999 0.074555062 0.0070137847 0.83999997 0.039999999 0.02
0.039999999 0.076652154 0.0070099994 0.83999997 0.039999999 0.02
0.039999999 0.078749746 0.0070059905 0.83999997 0.039999999 0.02
0.039999999 0.0012527305 0.0049084974 0.83999997 0.039999999 0.02
0.039999999 0.0033501904 0.0049127652 0.83999997 0.039999999 0.02
0.039999999 0.0054471474 0.0049167946 0.83999997 0.039999999 0.02
0.039999999 0.0075436309 0.0049205865 0.83999997 0.039999999 0.02
0.039999999 0.0096396692 0.0049241409 0.83999997 0.039999999 0.02
0.039999999 0.011735291 0.0049274573 0.83999997 0.039999999 0.02
0.039999999 0.013830527 0.0049305367 0.83999997 0.039999999 0.02
0.039999999 0.015925404 0.0049333787 0.83999997 0.039999999 0.02
0.039999999 0.01801995 0.0049359836 0.83999997 0.039999999 0.02
0.039999999 0.020114195 0.0049383515 0.83999997 0.039999999 0.02
0.039999999 0.022208169 0.0049404823 0.83999997 0.039999999 0.02
0.039999999 0.024301898 0.0049423762 0.83999997 0.039999999 0.02
0.039999999 0.026395414 0.004944033 0.83999997 0.039999999 0.02
0.039999999 0.028488742 0.0049454533 0.83999997 0.039999999 0.02
0.039999999 0.030581912 0.0049466365 0.83999997 0.039999999 0.02
0.039999999 0.032674953 0.0049475832 0.83999997 0.039999999 0.02
0.039999999 0.034767896 0.0049482933 0.83999997 0.039999999 0.02
0.039999999 0.036860768 0.0049487664 0.83999997 0.039999999 0.02
0.039999999 0.038953595 0.004949003 0.83999997 0.039999999 0.02
0.039999999 0.041046407 0.004949003 0.83999997 0.039999999 0.02
0.039999999 0.043139234 0.0049487664 0.83999997 0.039999999 0.02
0.039999999 0.045232102 0.0049482933 0.83999997 0.039999999 0.02
0.039999999 0.047325045 0.0049475832 0.83999997 0.039999999 0.02
0.039999999 0.049418088 0.0049466365 0.83999997 0.039999999 0.02
0.039999999 0.051511258 0.0049454533 0.83999997 0.039999999 0.02
0.039999999 0.053604588 0.004944033 0.83999997 0.039999999 0.02
0.039999999 0.0556981 0.0049423762 0.83999997 0.039999999 0.02
0.039999999 0.057791833 0.0049404823 0.83999997 0.039999999 0.02
0.039999999 0.059885804 0.0049383515 0.83999997 0.039999999 0.02
0.039999999 0.06198005 0.0049359836 0.83999997 0.039999999 0.02
0.039999999 0.064074598 0.0049333787 0.83999997 0.039999999 0.02
0.039999999 0.066169471 0.0049305367 0.83999997 0.039999999 0.02
0.039999999 0.068264708 0.0049274573 0.83999997 0.039999999 0.02
0.039999999 0.070360333 0.0049241409 0.83999997 0.039999999 0.02
0.039999999 0.072456367 0.0049205865 0.83999997 0.039999999 0.02
0.039999999 0.074552849 0.0049167946 0.83999997 0.039999999 0.02
0.039999999 0.076649807 0.0049127652 0.83999997 0.039999999 0.02
0.039999999 0.078747272 0.0049084974 0.83999997 0.039999999 0.02
0.039999999 0.0012552097 0.0028107988 0.83999997 0.039999999 0.02
0.039999999 0.003352535 0.0028153246 0.83999997 0.039999999 0.02
0.039999999 0.0054493579 0.0028195982 0.83999997 0.039999999 0.02
0.039999999 0.0075457068 0.0028236196 0.83999997 0.039999999 0.02
0.039999999 0.009641611 0.0028273889 0.83999997 0.039999999 0.02
0.039999999 0.011737099 0.0028309065 0.83999997 0.039999999 0.02
0.039999999 0.0138322 0.0028341725 0.83999997 0.039999999 0.02
0.039999999 0.015926942 0.0028371864 0.83999997 0.039999999 0.02
0.039999999 0.018021354 0.0028399492 0.83999997 0.039999999 0.02
0.039999999 0.020115467 0.0028424603 0.83999997 0.039999999 0.02
0.039999999 0.022209305 0.0028447201 0.83999997 0.039999999 0.02
0.039999999 0.024302902 0.0028467285 0.83999997 0.039999999 0.02
0.039999999 0.026396282 0.002848486 0.83999997 0.039999999 0.02
0.039999999 0.028489478 0.0028499921 0.83999997 0.039999999 0.02
0.039999999 0.030582514 0.0028512471 0.83999997 0.039999999 0.02
0.039999999 0.032675423 0.0028522511 0.83999997 0.039999999 0.02
0.039999999 0.034768231 0.002853004 0.83999997 0.039999999 0.02
0.039999999 0.036860965 0.002853506 0.83999997 0.039999999 0.02
0.039999999 0.038953662 0.002853757 0.83999997 0.039999999 0.02
0.039999999 0.04104634 0.002853757 0.83999997 0.039999999 0.02
0.039999999 0.043139033 0.002853506 0.83999997 0.039999999 0.02
0.039999999 0.045231771 0.002853004 0.83999997 0.039999999 0.02
0.039999999 0.047324575 0.0028522511 0.83999997 0.039999999 0.02
0.039999999 0.049417485 0.0028512471 0.83999997 0.039999999 0.02
0.039999999 0.051510524 0.0028499921 0.83999997 0.039999999 0.02
0.039999999 0.053603716 0.002848486 0.83999997 0.039999999 0.02
0.039999999 0.055697098 0.0028467285 0.83999997 0.039999999 0.02
0.039999999 0.057790693 0.0028447201 0.83999997 0.039999999 0.02
0.039999999 0.059884533 0.0028424603 0.83999997 0.039999999 0.02
0.039999999 0.061978646 0.0028399492 0.83999997 0.039999999 0.02
0.039999999 0.064073056 0.0028371864 0.83999997 0.039999999 0.02
0.039999999 0.066167802 0.0028341725 0.83999997 0.039999999 0.02
0.039999999 0.068262897 0.0028309065 0.83999997 0.039999999 0.02
0.039999999 0.070358388 0.0028273889 0.83999997 0.039999999 0.02
0.039999999 0.072454296 0.0028236196 0.83999997 0.039999999 0.02
0.039999999 0.074550644 0.0028195982 0.83999997 0.039999999 0.02
0.039999999 0.076647468 0.0028153246 0.83999997 0.039999999 0.02
0.039999999 0.078744791 0.0028107988 0.83999997 0.039999999 0.02
0.039999999 0.0012576892 0.00071286468 0.83999997 0.039999999 0.02
0.039999999 0.00335488 0.00071764895 0.83999997 0.039999999 0.02
0.039999999 0.0054515684 0.00072216656 0.83999997 0.039999999 0.02
0.039999999 0.0075477832 0.00072641758 0.83999997 0.039999999 0.02
0.039999999 0.0096435528 0.00073040219 0.83999997 0.039999999 0.02
0.039999999 0.011738907 0.00073412061 0.83999997 0.039999999 0.02
0.039999999 0.013833874 0.00073757285 0.83999997 0.039999999 0.02
0.039999999 0.015928483 0.00074075907 0.83999997 0.039999999 0.02
0.039999999 0.018022761 0.00074367941 0.83999997 0.039999999 0.02
0.039999999 0.020116739 0.00074633391 0.83999997 0.039999999 0.02
0.039999999 0.022210443 0.00074872276 0.83999997 0.039999999 0.02
0.039999999 0.024303906 0.00075084594 0.83999997 0.039999999 0.02
0.039999999 0.026397152 0.00075270358 0.83999997 0.039999999 0.02
0.039999999 0.028490214 0.00075429573 0.83999997 0.039999999 0.02
0.039999999 0.030583117 0.0007556224 0.83999997 0.039999999 0.02
0.039999999 0.032675892 0.0007566837 0.83999997 0.039999999 0.02
0.039999999 0.034768566 0.00075747969 0.83999997 0.039999999 0.02
0.039999999 0.036861166 0.00075801025 0.83999997 0.039999999 0.02
0.039999999 0.038953729 0.00075827556 0.83999997 0.039999999 0.02
0.039999999 0.041046273 0.00075827556 0.83999997 0.039999999 0.02
0.039999999 0.043138832 0.00075801025 0.83999997 0.039999999 0.02
0.039999999 0.045231435 0.00075747969 0.83999997 0.039999999 0.02
0.039999999 0.04732411 0.0007566837 0.83999997 0.039999999 0.02
0.039999999 0.049416885 0.0007556224 0.83999997 0.039999999 0.02
0.039999999 0.051509786 0.00075429573 0.83999997 0.039999999 0.02
0.039999999 0.053602848 0.00075270358 0.83999997 0.039999999 0.02
0.039999999 0.055696096 0.00075084594 0.83999997 0.039999999 0.02
0.039999999 0.057789557 0.00074872276 0.83999997 0.039999999 0.02
0.039999999 0.059883263 0.00074633391 0.83999997 0.039999999 0.02
0.039999999 0.061977241 0.00074367941 0.83999997 0.039999999 0.02
0.039999999 0.064071521 0.00074075907 0.83999997 0.039999999 0.02
0.039999999 0.066166125 0.00073757285 0.83999997 0.039999999 0.02
0.039999999 0.068261094 0.00073412061 0.83999997 0.039999999 0.02
0.039999999 0.070356444 0.00073040219 0.83999997 0.039999999 0.02
