# .PCD v0.7 - Point Cloud Data file format
VERSION 0.7
FIELDS x y z vp_x vp_y vp_z
SIZE 4 4 4 4 4 4
TYPE F F F F F F
COUNT 1 1 1 1 1 1
WIDTH 341
HEIGHT 1
VIEWPOINT 0 0 0 1 0 0 0
POINTS 341
DATA ascii
0.02816532 0.041773282 0.069969475 0.83999997 0.039999999 0.02
0.033505257 0.045284923 0.069641367 0.83999997 0.039999999 0.02
0.036517855 0.048775528 0.069457076 0.83999997 0.039999999 0.02
0.038412496 0.052257236 0.069342159 0.83999997 0.039999999 0.02
0.039538529 0.055737965 0.069275111 0.83999997 0.039999999 0.02
0.039958075 0.059226431 0.069252118 0.83999997 0.039999999 0.02
0.039789952 0.062728651 0.069265872 0.83999997 0.039999999 0.02
0.038989764 0.06625393 0.069319107 0.83999997 0.039999999 0.02
0.037399292 0.069816567 0.069421589 0.83999997 0.039999999 0.02
0.034789521 0.073436588 0.069587424 0.83999997 0.039999999 0.02
0.030196641 0.07717175 0.069876015 0.83999997 0.039999999 0.02
0.028164912 0.041773096 0.066414706 0.83999997 0.039999999 0.02
0.033504669 0.045284364 0.066109926 0.83999997 0.039999999 0.02
0.036517225 0.0487746 0.065938689 0.83999997 0.039999999 0.02
0.038411979 0.052255936 0.065831862 0.83999997 0.039999999 0.02
0.039538253 0.055736292 0.065769464 0.83999997 0.039999999 0.02
0.039957963 0.059224382 0.065747969 0.83999997 0.039999999 0.02
0.039790355 0.062726215 0.065760553 0.83999997 0.039999999 0.02
0.03899055 0.066251107 0.065809794 0.83999997 0.039999999 0.02
0.037401013 0.069813326 0.065904714 0.83999997 0.039999999 0.02
0.034792665 0.073432885 0.066058435 0.83999997 0.039999999 0.02
0.03020378 0.077167459 0.066325985 0.83999997 0.039999999 0.02
0.028164506 0.041772906 0.062861711 0.83999997 0.039999999 0.02
0.033504076 0.045283806 0.062580235 0.83999997 0.039999999 0.02
0.036516596 0.048773669 0.062422056 0.83999997 0.039999999 0.02
0.038411461 0.052254636 0.062323313 0.83999997 0.039999999 0.02
0.039537977 0.055734619 0.062265564 0.83999997 0.039999999 0.02
0.039957851 0.059222337 0.062245563 0.83999997 0.039999999 0.02
0.039790753 0.062723786 0.062256984 0.83999997 0.039999999 0.02
0.038991336 0.066248275 0.062302236 0.83999997 0.039999999 0.02
0.03740273 0.069810078 0.062389612 0.83999997 0.039999999 0.02
0.034795806 0.07342919 0.062531225 0.83999997 0.039999999 0.02
0.030210916 0.07716316 0.062777787 0.83999997 0.039999999 0.02
0.0281641 0.041772719 0.059310339 0.83999997 0.039999999 0.02
0.033503488 0.045283247 0.059052169 0.83999997 0.039999999 0.02
0.03651597 0.048772741 0.058907032 0.83999997 0.039999999 0.02
0.038410943 0.052253339 0.058816373 0.83999997 0.039999999 0.02
0.039537705 0.055732947 0.058763277 0.83999997 0.039999999 0.02
0.039957739 0.059220288 0.05874477 0.83999997 0.039999999 0.02
0.039791152 0.062721349 0.058755036 0.83999997 0.039999999 0.02
0.038992118 0.066245452 0.058796301 0.83999997 0.039999999 0.02
0.037404452 0.069806837 0.058876142 0.83999997 0.039999999 0.02
0.034798943 0.073425494 0.05900567 0.83999997 0.039999999 0.02
0.030218048 0.077158868 0.059231292 0.83999997 0.039999999 0.02
0.028163694 0.041772529 0.055760469 0.83999997 0.039999999 0.02
0.033502895 0.045282688 0.055525586 0.83999997 0.039999999 0.02
0.03651534 0.048771814 0.055393491 0.83999997 0.039999999 0.02
0.038410429 0.052252043 0.055310912 0.83999997 0.039999999 0.02
0.03953743 0.055731278 0.055262465 0.83999997 0.039999999 0.02
0.039957631 0.059218243 0.055245455 0.83999997 0.039999999 0.02
0.03979155 0.062718913 0.055254571 0.83999997 0.039999999 0.02
0.038992904 0.066242635 0.055291858 0.83999997 0.039999999 0.02
0.037406169 0.069803596 0.055364173 0.83999997 0.039999999 0.02
0.034802083 0.073421799 0.055481631 0.83999997 0.039999999 0.02
0.030225178 0.077154584 0.055686355 0.83999997 0.039999999 0.02
0.028163288 0.041772343 0.052211959 0.83999997 0.039999999 0.02
0.033502307 0.045282129 0.052000351 0.83999997 0.039999999 0.02
0.036514711 0.048770886 0.051881295 0.83999997 0.039999999 0.02
0.038409911 0.052250743 0.051806796 0.83999997 0.039999999 0.02
0.039537158 0.055729605 0.051762998 0.83999997 0.039999999 0.02
0.03995752 0.059216198 0.051747482 0.83999997 0.039999999 0.02
0.039791949 0.062716484 0.051755454 0.83999997 0.039999999 0.02
0.038993686 0.066239811 0.051788766 0.83999997 0.039999999 0.02
0.037407886 0.069800355 0.051853571 0.83999997 0.039999999 0.02
0.03480522 0.073418111 0.051958978 0.83999997 0.039999999 0.02
0.030232305 0.077150293 0.052142844 0.83999997 0.039999999 0.02
0.028162882 0.041772153 0.048664674 0.83999997 0.039999999 0.02
0.033501718 0.04528157 0.048476335 0.83999997 0.039999999 0.02
0.036514081 0.048769958 0.048370305 0.83999997 0.039999999 0.02
0.038409393 0.052249447 0.048303887 0.83999997 0.039999999 0.02
0.039536882 0.055727936 0.048264742 0.83999997 0.039999999 0.02
0.039957408 0.059214156 0.048250724 0.83999997 0.039999999 0.02
0.039792348 0.062714055 0.048257552 0.83999997 0.039999999 0.02
0.038994469 0.066236988 0.048286892 0.83999997 0.039999999 0.02
0.037409604 0.069797114 0.048344199 0.83999997 0.039999999 0.02
0.034808353 0.073414415 0.048437573 0.83999997 0.039999999 0.02
0.030239429 0.077146009 0.048600622 0.83999997 0.039999999 0.02
0.028162476 0.041771967 0.045118477 0.83999997 0.039999999 0.02
0.03350113 0.045281012 0.044953398 0.83999997 0.039999999 0.02
0.036513455 0.048769034 0.044860397 0.83999997 0.039999999 0.02
0.038408879 0.05224815 0.044802051 0.83999997 0.039999999 0.02
0.03953661 0.055726267 0.044767559 0.83999997 0.039999999 0.02
0.039957296 0.059212111 0.044755042 0.83999997 0.039999999 0.02
0.039792746 0.062711626 0.04476073 0.83999997 0.039999999 0.02
0.038995251 0.066234171 0.044786107 0.83999997 0.039999999 0.02
0.037411321 0.06979388 0.044835921 0.83999997 0.039999999 0.02
0.034811489 0.073410727 0.044917278 0.83999997 0.039999999 0.02
0.03024655 0.077141725 0.045059554 0.83999997 0.039999999 0.02
0.02816207 0.041771781 0.041573234 0.83999997 0.039999999 0.02
0.033500537 0.045280453 0.041431408 0.83999997 0.039999999 0.02
0.036512826 0.048768107 0.04135143 0.83999997 0.039999999 0.02
0.038408361 0.052246857 0.041301157 0.83999997 0.039999999 0.02
0.039536335 0.055724598 0.041271318 0.83999997 0.039999999 0.02
0.039957188 0.059210069 0.041260298 0.83999997 0.039999999 0.02
0.039793145 0.062709197 0.041264858 0.83999997 0.039999999 0.02
0.038996033 0.066231348 0.041286275 0.83999997 0.039999999 0.02
0.037413035 0.069790639 0.041328609 0.83999997 0.039999999 0.02
0.034814622 0.073407039 0.041397963 0.83999997 0.039999999 0.02
0.030253669 0.07713744 0.041519508 0.83999997 0.039999999 0.02
0.039999999 0.0033134662 0.037764084 0.83999997 0.039999999 0.02
0.039999999 0.0068116379 0.037764415 0.83999997 0.039999999 0.02
0.039999999 0.010308544 0.037764717 0.83999997 0.039999999 0.02
0.039999999 0.013804317 0.037764981 0.83999997 0.039999999 0.02
0.039999999 0.017299093 0.037765216 0.83999997 0.039999999 0.02
0.039999999 0.020793004 0.037765414 0.83999997 0.039999999 0.02
0.039999999 0.024286183 0.037765581 0.83999997 0.039999999 0.02
0.039999999 0.027778761 0.037765715 0.83999997 0.039999999 0.02
0.039999999 0.031270877 0.037765812 0.83999997 0.039999999 0.02
0.039999999 0.034762658 0.037765879 0.83999997 0.039999999 0.02
0.039999999 0.038254242 0.037765913 0.83999997 0.039999999 0.02
0.039999999 0.04174576 0.037765913 0.83999997 0.039999999 0.02
0.039999999 0.04523734 0.037765879 0.83999997 0.039999999 0.02
0.039999999 0.048729122 0.037765812 0.83999997 0.039999999 0.02
0.039999999 0.052221239 0.037765715 0.83999997 0.039999999 0.02
0.039999999 0.055713817 0.037765581 0.83999997 0.039999999 0.02
0.039999999 0.059206996 0.037765414 0.83999997 0.039999999 0.02
0.039999999 0.062700905 0.037765216 0.83999997 0.039999999 0.02
0.039999999 0.066195682 0.037764981 0.83999997 0.039999999 0.02
0.039999999 0.069691457 0.037764717 0.83999997 0.039999999 0.02
0.039999999 0.073188365 0.037764415 0.83999997 0.039999999 0.02
0.039999999 0.076686531 0.037764084 0.83999997 0.039999999 0.02
0.039999999 0.003317374 0.034268353 0.83999997 0.039999999 0.02
0.039999999 0.0068151727 0.034269352 0.83999997 0.039999999 0.02
0.039999999 0.010311705 0.034270249 0.83999997 0.039999999 0.02
0.039999999 0.013807107 0.034271047 0.83999997 0.039999999 0.02
0.039999999 0.017301509 0.034271747 0.83999997 0.039999999 0.02
0.039999999 0.020795047 0.034272347 0.83999997 0.039999999 0.02
0.039999999 0.024287855 0.034272846 0.83999997 0.039999999 0.02
0.039999999 0.027780063 0.034273244 0.83999997 0.039999999 0.02
0.039999999 0.031271804 0.034273542 0.83999997 0.039999999 0.02
0.039999999 0.034763217 0.034273744 0.83999997 0.039999999 0.02
0.039999999 0.038254429 0.03427384 0.83999997 0.039999999 0.02
0.039999999 0.041745573 0.03427384 0.83999997 0.039999999 0.02
0.039999999 0.045236785 0.034273744 0.83999997 0.039999999 0.02
0.039999999 0.048728194 0.034273542 0.83999997 0.039999999 0.02
0.039999999 0.052219938 0.034273244 0.83999997 0.039999999 0.02
0.039999999 0.055712145 0.034272846 0.83999997 0.039999999 0.02
0.039999999 0.059204951 0.034272347 0.83999997 0.039999999 0.02
0.039999999 0.062698491 0.034271747 0.83999997 0.039999999 0.02
0.039999999 0.066192895 0.034271047 0.83999997 0.039999999 0.02
0.039999999 0.069688298 0.034270249 0.83999997 0.039999999 0.02
0.039999999 0.073184825 0.034269352 0.83999997 0.039999999 0.02
0.039999999 0.076682627 0.034268353 0.83999997 0.039999999 0.02
0.039999999 0.0033212814 0.030773167 0.83999997 0.039999999 0.02
0.039999999 0.0068187066 0.03077483 0.83999997 0.039999999 0.02
0.039999999 0.010314867 0.030776327 0.83999997 0.039999999 0.02
0.039999999 0.013809895 0.030777659 0.83999997 0.039999999 0.02
0.039999999 0.017303925 0.030778823 0.83999997 0.039999999 0.02
0.039999999 0.020797092 0.03077982 0.83999997 0.039999999 0.02
0.039999999 0.024289526 0.030780651 0.83999997 0.039999999 0.02
0.039999999 0.027781364 0.030781316 0.83999997 0.039999999 0.02
0.039999999 0.031272735 0.030781815 0.83999997 0.039999999 0.02
0.039999999 0.034763772 0.030782146 0.83999997 0.039999999 0.02
0.039999999 0.038254615 0.030782314 0.83999997 0.039999999 0.02
0.039999999 0.041745387 0.030782314 0.83999997 0.039999999 0.02
0.039999999 0.045236226 0.030782146 0.83999997 0.039999999 0.02
0.039999999 0.048727266 0.030781815 0.83999997 0.039999999 0.02
0.039999999 0.052218638 0.030781316 0.83999997 0.039999999 0.02
0.039999999 0.055710472 0.030780651 0.83999997 0.039999999 0.02
0.039999999 0.059202909 0.03077982 0.83999997 0.039999999 0.02
0.039999999 0.062696077 0.030778823 0.83999997 0.039999999 0.02
0.039999999 0.066190109 0.030777659 0.83999997 0.039999999 0.02
0.039999999 0.069685131 0.030776327 0.83999997 0.039999999 0.02
0.039999999 0.073181294 0.03077483 0.83999997 0.039999999 0.02
0.039999999 0.076678716 0.030773167 0.83999997 0.039999999 0.02
0.039999999 0.0033251881 0.027278392 0.83999997 0.039999999 0.02
0.039999999 0.0068222401 0.027280722 0.83999997 0.039999999 0.02
0.039999999 0.010318027 0.027282817 0.83999997 0.039999999 0.02
0.039999999 0.013812684 0.02728468 0.83999997 0.039999999 0.02
0.039999999 0.017306341 0.02728631 0.83999997 0.039999999 0.02
0.039999999 0.020799136 0.027287705 0.83999997 0.039999999 0.02
0.039999999 0.024291199 0.027288869 0.83999997 0.039999999 0.02
0.039999999 0.027782664 0.0272898 0.83999997 0.039999999 0.02
0.039999999 0.031273663 0.027290497 0.83999997 0.039999999 0.02
0.039999999 0.034764331 0.027290963 0.83999997 0.039999999 0.02
0.039999999 0.038254797 0.027291195 0.83999997 0.039999999 0.02
0.039999999 0.041745201 0.027291195 0.83999997 0.039999999 0.02
0.039999999 0.045235671 0.027290963 0.83999997 0.039999999 0.02
0.039999999 0.048726335 0.027290497 0.83999997 0.039999999 0.02
0.039999999 0.052217338 0.0272898 0.83999997 0.039999999 0.02
0.039999999 0.055708803 0.027288869 0.83999997 0.039999999 0.02
0.039999999 0.059200864 0.027287705 0.83999997 0.039999999 0.02
0.039999999 0.062693655 0.02728631 0.83999997 0.039999999 0.02
0.039999999 0.066187315 0.02728468 0.83999997 0.039999999 0.02
0.039999999 0.069681972 0.027282817 0.83999997 0.039999999 0.02
0.039999999 0.073177762 0.027280722 0.83999997 0.039999999 0.02
0.039999999 0.076674812 0.027278392 0.83999997 0.039999999 0.02
0.039999999 0.0033290945 0.023783896 0.83999997 0.039999999 0.02
0.039999999 0.0068257735 0.023786891 0.83999997 0.039999999 0.02
0.039999999 0.010321188 0.023789585 0.83999997 0.039999999 0.02
0.039999999 0.013815471 0.02379198 0.83999997 0.039999999 0.02
0.039999999 0.017308757 0.023794074 0.83999997 0.039999999 0.02
0.039999999 0.020801179 0.023795869 0.83999997 0.039999999 0.02
0.039999999 0.024292869 0.023797365 0.83999997 0.039999999 0.02
0.039999999 0.027783964 0.023798561 0.83999997 0.039999999 0.02
0.039999999 0.031274591 0.023799459 0.83999997 0.039999999 0.02
0.039999999 0.034764886 0.023800056 0.83999997 0.039999999 0.02
0.039999999 0.038254984 0.023800354 0.83999997 0.039999999 0.02
0.039999999 0.041745014 0.023800354 0.83999997 0.039999999 0.02
0.039999999 0.045235112 0.023800056 0.83999997 0.039999999 0.02
0.039999999 0.048725408 0.023799459 0.83999997 0.039999999 0.02
0.039999999 0.052216038 0.023798561 0.83999997 0.039999999 0.02
0.039999999 0.055707131 0.023797365 0.83999997 0.039999999 0.02
0.039999999 0.059198819 0.023795869 0.83999997 0.039999999 0.02
0.039999999 0.062691242 0.023794074 0.83999997 0.039999999 0.02
0.039999999 0.066184528 0.02379198 0.83999997 0.039999999 0.02
0.039999999 0.069678813 0.023789585 0.83999997 0.039999999 0.02
0.039999999 0.073174223 0.023786891 0.83999997 0.039999999 0.02
0.039999999 0.076670907 0.023783896 0.83999997 0.039999999 0.02
0.039999999 0.0033330009 0.020289546 0.83999997 0.039999999 0.02
0.039999999 0.0068293065 0.020293206 0.83999997 0.039999999 0.02
0.039999999 0.010324348 0.020296499 0.83999997 0.039999999 0.02
0.039999999 0.013818259 0.020299425 0.83999997 0.039999999 0.02
0.039999999 0.017311173 0.020301985 0.83999997 0.039999999 0.02
0.039999999 0.020803222 0.020304179 0.83999997 0.039999999 0.02
0.039999999 0.024294542 0.020306006 0.83999997 0.039999999 0.02
0.039999999 0.027785264 0.020307468 0.83999997 0.039999999 0.02
0.039999999 0.031275522 0.020308563 0.83999997 0.039999999 0.02
0.039999999 0.034765445 0.020309294 0.83999997 0.039999999 0.02
0.039999999 0.03825517 0.020309661 0.83999997 0.039999999 0.02
0.039999999 0.041744828 0.020309661 0.83999997 0.039999999 0.02
0.039999999 0.045234554 0.020309294 0.83999997 0.039999999 0.02
0.039999999 0.04872448 0.020308563 0.83999997 0.039999999 0.02
0.039999999 0.052214738 0.020307468 0.83999997 0.039999999 0.02
0.039999999 0.055705458 0.020306006 0.83999997 0.039999999 0.02
0.039999999 0.059196778 0.020304179 0.83999997 0.039999999 0.02
0.039999999 0.062688828 0.020301985 0.83999997 0.039999999 0.02
0.039999999 0.066181742 0.020299425 0.83999997 0.039999999 0.02
0.039999999 0.069675654 0.020296499 0.83999997 0.039999999 0.02
0.039999999 0.073170692 0.020293206 0.83999997 0.039999999 0.02
0.039999999 0.076666996 0.020289546 0.83999997 0.039999999 0.02
0.039999999 0.0033369071 0.016795209 0.83999997 0.039999999 0.02
0.039999999 0.0068328395 0.016799534 0.83999997 0.039999999 0.02
0.039999999 0.010327509 0.016803425 0.83999997 0.039999999 0.02
0.039999999 0.013821047 0.016806882 0.83999997 0.039999999 0.02
0.039999999 0.017313588 0.016809907 0.83999997 0.039999999 0.02
0.039999999 0.020805266 0.016812498 0.83999997 0.039999999 0.02
0.039999999 0.024296213 0.016814658 0.83999997 0.039999999 0.02
0.039999999 0.027786564 0.016816385 0.83999997 0.039999999 0.02
0.039999999 0.03127645 0.016817681 0.83999997 0.039999999 0.02
0.039999999 0.034766003 0.016818544 0.83999997 0.039999999 0.02
0.039999999 0.038255356 0.016818976 0.83999997 0.039999999 0.02
0.039999999 0.041744646 0.016818976 0.83999997 0.039999999 0.02
0.039999999 0.045233998 0.016818544 0.83999997 0.039999999 0.02
0.039999999 0.048723552 0.016817681 0.83999997 0.039999999 0.02
0.039999999 0.052213438 0.016816385 0.83999997 0.039999999 0.02
0.039999999 0.055703785 0.016814658 0.83999997 0.039999999 0.02
0.039999999 0.059194732 0.016812498 0.83999997 0.039999999 0.02
0.039999999 0.062686414 0.016809907 0.83999997 0.039999999 0.02
0.039999999 0.066178955 0.016806882 0.83999997 0.039999999 0.02
0.039999999 0.069672495 0.016803425 0.83999997 0.039999999 0.02
0.039999999 0.07316716 0.016799534 0.83999997 0.039999999 0.02
0.039999999 0.076663092 0.016795209 0.83999997 0.039999999 0.02
0.039999999 0.0033408136 0.013300751 0.83999997 0.039999999 0.02
0.039999999 0.0068363729 0.01330574 0.83999997 0.039999999 0.02
0.039999999 0.010330669 0.013310229 0.83999997 0.039999999 0.02
0.039999999 0.013823834 0.013314218 0.83999997 0.039999999 0.02
0.039999999 0.017316004 0.013317708 0.83999997 0.039999999 0.02
0.039999999 0.020807309 0.013320698 0.83999997 0.039999999 0.02
0.039999999 0.024297886 0.01332319 0.83999997 0.039999999 0.02
0.039999999 0.027787864 0.013325183 0.83999997 0.039999999 0.02
0.039999999 0.031277377 0.013326677 0.83999997 0.039999999 0.02
0.039999999 0.034766559 0.013327673 0.83999997 0.039999999 0.02
0.039999999 0.038255543 0.013328171 0.83999997 0.039999999 0.02
0.039999999 0.041744459 0.013328171 0.83999997 0.039999999 0.02
0.039999999 0.04523344 0.013327673 0.83999997 0.039999999 0.02
0.039999999 0.048722621 0.013326677 0.83999997 0.039999999 0.02
0.039999999 0.052212138 0.013325183 0.83999997 0.039999999 0.02
0.039999999 0.055702116 0.01332319 0.83999997 0.039999999 0.02
0.039999999 0.059192691 0.013320698 0.83999997 0.039999999 0.02
0.039999999 0.062684 0.013317708 0.83999997 0.039999999 0.02
0.039999999 0.066176169 0.013314218 0.83999997 0.039999999 0.02
0.039999999 0.069669329 0.013310229 0.83999997 0.039999999 0.02
0.039999999 0.073163629 0.01330574 0.83999997 0.039999999 0.02
0.039999999 0.076659188 0.013300751 0.83999997 0.039999999 0.02
0.039999999 0.0033447202 0.0098060407 0.83999997 0.039999999 0.02
0.039999999 0.0068399063 0.0098116938 0.83999997 0.039999999 0.02
0.039999999 0.01033383 0.0098167807 0.83999997 0.039999999 0.02
0.039999999 0.013826623 0.0098213013 0.83999997 0.039999999 0.02
0.039999999 0.01731842 0.0098252548 0.83999997 0.039999999 0.02
0.039999999 0.020809354 0.0098286439 0.83999997 0.039999999 0.02
0.039999999 0.024299558 0.0098314676 0.83999997 0.039999999 0.02
0.039999999 0.027789164 0.0098337261 0.83999997 0.039999999 0.02
0.039999999 0.031278305 0.0098354192 0.83999997 0.039999999 0.02
0.039999999 0.034767117 0.009836548 0.83999997 0.039999999 0.02
0.039999999 0.038255729 0.0098371124 0.83999997 0.039999999 0.02
0.039999999 0.041744273 0.0098371124 0.83999997 0.039999999 0.02
0.039999999 0.045232885 0.009836548 0.83999997 0.039999999 0.02
0.039999999 0.048721693 0.0098354192 0.83999997 0.039999999 0.02
0.039999999 0.052210838 0.0098337261 0.83999997 0.039999999 0.02
0.039999999 0.055700444 0.0098314676 0.83999997 0.039999999 0.02
0.039999999 0.059190646 0.0098286439 0.83999997 0.039999999 0.02
0.039999999 0.062681578 0.0098252548 0.83999997 0.039999999 0.02
0.039999999 0.066173375 0.0098213013 0.83999997 0.039999999 0.02
0.039999999 0.06966617 0.0098167807 0.83999997 0.039999999 0.02
0.039999999 0.073160097 0.0098116938 0.83999997 0.039999999 0.02
0.039999999 0.076655276 0.0098060407 0.83999997 0.039999999 0.02
0.039999999 0.0033486274 0.0063109426 0.83999997 0.039999999 0.02
0.039999999 0.0068434402 0.0063172607 0.83999997 0.039999999 0.02
0.039999999 0.01033699 0.006322945 0.83999997 0.039999999 0.02
0.039999999 0.013829411 0.0063279965 0.83999997 0.039999999 0.02
0.039999999 0.017320836 0.0063324156 0.83999997 0.039999999 0.02
0.039999999 0.020811398 0.0063362028 0.83999997 0.039999999 0.02
0.039999999 0.024301229 0.0063393582 0.83999997 0.039999999 0.02
0.039999999 0.027790464 0.0063418821 0.83999997 0.039999999 0.02
0.039999999 0.031279236 0.0063437745 0.83999997 0.039999999 0.02
0.039999999 0.034767672 0.0063450364 0.83999997 0.039999999 0.02
0.039999999 0.038255915 0.0063456669 0.83999997 0.039999999 0.02
0.039999999 0.041744087 0.0063456669 0.83999997 0.039999999 0.02
0.039999999 0.045232326 0.0063450364 0.83999997 0.039999999 0.02
0.039999999 0.048720766 0.0063437745 0.83999997 0.039999999 0.02
0.039999999 0.052209537 0.0063418821 0.83999997 0.039999999 0.02
0.039999999 0.055698771 0.0063393582 0.83999997 0.039999999 0.02
0.039999999 0.059188601 0.0063362028 0.83999997 0.039999999 0.02
0.039999999 0.062679164 0.0063324156 0.83999997 0.039999999 0.02
0.039999999 0.066170588 0.0063279965 0.83999997 0.039999999 0.02
0.039999999 0.069663011 0.006322945 0.83999997 0.039999999 0.02
0.039999999 0.073156558 0.0063172607 0.83999997 0.039999999 0.02
0.039999999 0.076651372 0.0063109426 0.83999997 0.039999999 0.02
0.039999999 0.003352535 0.0028153246 0.83999997 0.039999999 0.02
0.039999999 0.0068469746 0.0028223072 0.83999997 0.039999999 0.02
0.039999999 0.010340152 0.0028285896 0.83999997 0.039999999 0.02
0.039999999 0.0138322 0.0028341725 0.83999997 0.039999999 0.02
0.039999999 0.017323252 0.0028390561 0.83999997 0.039999999 0.02
0.039999999 0.020813443 0.0028432414 0.83999997 0.039999999 0.02
0.039999999 0.024302902 0.0028467285 0.83999997 0.039999999 0.02
0.039999999 0.027791765 0.0028495179 0.83999997 0.039999999 0.02
0.039999999 0.031280164 0.0028516096 0.83999997 0.039999999 0.02
0.039999999 0.034768231 0.002853004 0.83999997 0.039999999 0.02
0.039999999 0.038256098 0.0028537011 0.83999997 0.039999999 0.02
0.039999999 0.041743901 0.0028537011 0.83999997 0.039999999 0.02
0.039999999 0.045231771 0.002853004 0.83999997 0.039999999 0.02
0.039999999 0.048719838 0.0028516096 0.83999997 0.039999999 0.02
0.039999999 0.052208234 0.0028495179 0.83999997 0.039999999 0.02
0.039999999 0.055697098 0.0028467285 0.83999997 0.039999999 0.02
0.039999999 0.059186559 0.0028432414 0.83999997 0.039999999 0.02
0.039999999 0.06267675 0.0028390561 0.83999997 0.039999999 0.02
0.039999999 0.066167802 0.0028341725 0.83999997 0.039999999 0.02
0.039999999 0.069659851 0.0028285896 0.83999997 0.039999999 0.02
0.039999999 0.073153026 0.0028223072 0.83999997 0.039999999 0.02
0.039999999 0.076647468 0.0028153246 0.83999997 0.039999999 0.02
