# .PCD v0.7 - Point Cloud Data file format
VERSION 0.7
FIELDS x y z vp_x vp_y vp_z
SIZE 4 4 4 4 4 4
TYPE F F F F F F
COUNT 1 1 1 1 1 1
WIDTH 778
HEIGHT 1
VIEWPOINT 0 0 0 1 0 0 0
POINTS 778
DATA ascii
0.039999999 0.06423042 0.016840884 0.54846609 0 -0.33897066
0.039999999 0.065203741 0.016847875 0.54846609 0 -0.33897066
0.039999999 0.066177398 0.016854972 0.54846609 0 -0.33897066
0.039999999 0.06715139 0.016862176 0.54846609 0 -0.33897066
0.039999999 0.068125732 0.016869485 0.54846609 0 -0.33897066
0.039999999 0.069100432 0.016876902 0.54846609 0 -0.33897066
0.039999999 0.070075482 0.016884426 0.54846609 0 -0.33897066
0.039999999 0.07105089 0.016892055 0.54846609 0 -0.33897066
0.039999999 0.07202667 0.016899792 0.54846609 0 -0.33897066
0.039999999 0.073002815 0.016907636 0.54846609 0 -0.33897066
0.039999999 0.073979348 0.016915588 0.54846609 0 -0.33897066
0.039999999 0.074956253 0.016923646 0.54846609 0 -0.33897066
0.039999999 0.075933546 0.016931811 0.54846609 0 -0.33897066
0.039999999 0.076911241 0.016940085 0.54846609 0 -0.33897066
0.039999999 0.077889323 0.016948465 0.54846609 0 -0.33897066
0.039999999 0.078867815 0.016956953 0.54846609 0 -0.33897066
0.039999999 0.07984671 0.016965549 0.54846609 0 -0.33897066
0.039999999 0.00048064321 0.015436487 0.54846609 0 -0.33897066
0.039999999 0.0014419321 0.015436588 0.54846609 0 -0.33897066
0.039999999 0.0024032283 0.015436789 0.54846609 0 -0.33897066
0.039999999 0.0033645367 0.01543709 0.54846609 0 -0.33897066
0.039999999 0.004325862 0.015437491 0.54846609 0 -0.33897066
0.039999999 0.0052872095 0.015437992 0.54846609 0 -0.33897066
0.039999999 0.006248584 0.015438595 0.54846609 0 -0.33897066
0.039999999 0.0072099902 0.015439297 0.54846609 0 -0.33897066
0.039999999 0.0081714327 0.0154401 0.54846609 0 -0.33897066
0.039999999 0.009132917 0.015441002 0.54846609 0 -0.33897066
0.039999999 0.010094448 0.015442005 0.54846609 0 -0.33897066
0.039999999 0.01105603 0.01544311 0.54846609 0 -0.33897066
0.039999999 0.012017668 0.015444314 0.54846609 0 -0.33897066
0.039999999 0.012979368 0.015445618 0.54846609 0 -0.33897066
0.039999999 0.013941132 0.015447023 0.54846609 0 -0.33897066
0.039999999 0.014902969 0.015448529 0.54846609 0 -0.33897066
0.039999999 0.015864881 0.015450135 0.54846609 0 -0.33897066
0.039999999 0.016826874 0.015451841 0.54846609 0 -0.33897066
0.039999999 0.017788952 0.015453648 0.54846609 0 -0.33897066
0.039999999 0.01875112 0.015455556 0.54846609 0 -0.33897066
0.039999999 0.019713385 0.015457564 0.54846609 0 -0.33897066
0.039999999 0.020675749 0.015459673 0.54846609 0 -0.33897066
0.039999999 0.021638218 0.015461882 0.54846609 0 -0.33897066
0.039999999 0.022600798 0.015464191 0.54846609 0 -0.33897066
0.039999999 0.023563493 0.015466603 0.54846609 0 -0.33897066
0.039999999 0.024526307 0.015469113 0.54846609 0 -0.33897066
0.039999999 0.025489246 0.015471726 0.54846609 0 -0.33897066
0.039999999 0.026452316 0.015474438 0.54846609 0 -0.33897066
0.039999999 0.02741552 0.015477251 0.54846609 0 -0.33897066
0.039999999 0.028378863 0.015480166 0.54846609 0 -0.33897066
0.039999999 0.02934235 0.015483181 0.54846609 0 -0.33897066
0.039999999 0.030305987 0.015486297 0.54846609 0 -0.33897066
0.039999999 0.031269781 0.015489514 0.54846609 0 -0.33897066
0.039999999 0.03223373 0.015492832 0.54846609 0 -0.33897066
0.039999999 0.033197846 0.015496251 0.54846609 0 -0.33897066
0.039999999 0.03416213 0.015499772 0.54846609 0 -0.33897066
0.039999999 0.035126589 0.015503393 0.54846609 0 -0.33897066
0.039999999 0.036091227 0.015507115 0.54846609 0 -0.33897066
0.039999999 0.037056047 0.015510939 0.54846609 0 -0.33897066
0.039999999 0.038021058 0.015514864 0.54846609 0 -0.33897066
0.039999999 0.038986266 0.015518891 0.54846609 0 -0.33897066
0.039999999 0.039951667 0.015523017 0.54846609 0 -0.33897066
0.039999999 0.040917274 0.015527247 0.54846609 0 -0.33897066
0.039999999 0.041883092 0.015531577 0.54846609 0 -0.33897066
0.039999999 0.042849123 0.015536009 0.54846609 0 -0.33897066
0.039999999 0.043815371 0.015540543 0.54846609 0 -0.33897066
0.039999999 0.044781845 0.015545178 0.54846609 0 -0.33897066
0.039999999 0.045748547 0.015549915 0.54846609 0 -0.33897066
0.039999999 0.046715483 0.015554753 0.54846609 0 -0.33897066
0.039999999 0.047682654 0.015559694 0.54846609 0 -0.33897066
0.039999999 0.048650075 0.015564736 0.54846609 0 -0.33897066
0.039999999 0.049617741 0.015569881 0.54846609 0 -0.33897066
0.039999999 0.050585661 0.015575127 0.54846609 0 -0.33897066
0.039999999 0.051553842 0.015580475 0.54846609 0 -0.33897066
0.039999999 0.052522283 0.015585925 0.54846609 0 -0.33897066
0.039999999 0.053490996 0.015591478 0.54846609 0 -0.33897066
0.039999999 0.054459982 0.015597133 0.54846609 0 -0.33897066
0.039999999 0.055429246 0.01560289 0.54846609 0 -0.33897066
0.039999999 0.056398798 0.01560875 0.54846609 0 -0.33897066
0.039999999 0.057368636 0.015614712 0.54846609 0 -0.33897066
0.039999999 0.058338769 0.015620776 0.54846609 0 -0.33897066
0.039999999 0.059309199 0.015626945 0.54846609 0 -0.33897066
0.039999999 0.060279936 0.015633214 0.54846609 0 -0.33897066
0.039999999 0.061250981 0.015639588 0.54846609 0 -0.33897066
0.039999999 0.062222339 0.015646063 0.54846609 0 -0.33897066
0.039999999 0.063194022 0.015652642 0.54846609 0 -0.33897066
0.039999999 0.064166024 0.015659323 0.54846609 0 -0.33897066
0.039999999 0.065138355 0.015666109 0.54846609 0 -0.33897066
0.039999999 0.066111028 0.015672997 0.54846609 0 -0.33897066
0.039999999 0.067084037 0.015679989 0.54846609 0 -0.33897066
0.039999999 0.068057388 0.015687084 0.54846609 0 -0.33897066
0.039999999 0.06903109 0.015694283 0.54846609 0 -0.33897066
0.039999999 0.070005149 0.015701585 0.54846609 0 -0.33897066
0.039999999 0.070979565 0.01570899 0.54846609 0 -0.33897066
0.039999999 0.071954355 0.015716499 0.54846609 0 -0.33897066
0.039999999 0.072929509 0.015724113 0.54846609 0 -0.33897066
0.039999999 0.073905043 0.01573183 0.54846609 0 -0.33897066
0.039999999 0.074880958 0.015739651 0.54846609 0 -0.33897066
0.039999999 0.075857252 0.015747577 0.54846609 0 -0.33897066
0.039999999 0.076833941 0.015755607 0.54846609 0 -0.33897066
0.039999999 0.077811033 0.015763741 0.54846609 0 -0.33897066
0.039999999 0.078788519 0.015771979 0.54846609 0 -0.33897066
0.039999999 0.079766415 0.015780322 0.54846609 0 -0.33897066
0.039999999 0.00048016457 0.014264217 0.54846609 0 -0.33897066
0.039999999 0.0014404961 0.014264314 0.54846609 0 -0.33897066
0.039999999 0.002400835 0.014264509 0.54846609 0 -0.33897066
0.039999999 0.003361186 0.014264801 0.54846609 0 -0.33897066
0.039999999 0.0043215542 0.01426519 0.54846609 0 -0.33897066
0.039999999 0.0052819443 0.014265676 0.54846609 0 -0.33897066
0.039999999 0.0062423609 0.01426626 0.54846609 0 -0.33897066
0.039999999 0.0072028097 0.014266942 0.54846609 0 -0.33897066
0.039999999 0.0081632948 0.014267719 0.54846609 0 -0.33897066
0.039999999 0.0091238208 0.014268596 0.54846609 0 -0.33897066
0.039999999 0.010084393 0.014269569 0.54846609 0 -0.33897066
0.039999999 0.011045018 0.014270639 0.54846609 0 -0.33897066
0.039999999 0.012005698 0.014271807 0.54846609 0 -0.33897066
0.039999999 0.012966439 0.014273073 0.54846609 0 -0.33897066
0.039999999 0.013927246 0.014274435 0.54846609 0 -0.33897066
0.039999999 0.014888123 0.014275895 0.54846609 0 -0.33897066
0.039999999 0.015849076 0.014277453 0.54846609 0 -0.33897066
0.039999999 0.01681011 0.014279108 0.54846609 0 -0.33897066
0.039999999 0.017771229 0.01428086 0.54846609 0 -0.33897066
0.039999999 0.018732438 0.01428271 0.54846609 0 -0.33897066
0.039999999 0.019693742 0.014284657 0.54846609 0 -0.33897066
0.039999999 0.020655146 0.014286702 0.54846609 0 -0.33897066
0.039999999 0.021616656 0.014288845 0.54846609 0 -0.33897066
0.039999999 0.022578275 0.014291085 0.54846609 0 -0.33897066
0.039999999 0.023540009 0.014293423 0.54846609 0 -0.33897066
0.039999999 0.024501862 0.014295858 0.54846609 0 -0.33897066
0.039999999 0.02546384 0.014298392 0.54846609 0 -0.33897066
0.039999999 0.026425947 0.014301023 0.54846609 0 -0.33897066
0.039999999 0.027388189 0.014303751 0.54846609 0 -0.33897066
0.039999999 0.028350569 0.014306578 0.54846609 0 -0.33897066
0.039999999 0.029313095 0.014309502 0.54846609 0 -0.33897066
0.039999999 0.03027577 0.014312524 0.54846609 0 -0.33897066
0.039999999 0.031238597 0.014315644 0.54846609 0 -0.33897066
0.039999999 0.032201584 0.014318862 0.54846609 0 -0.33897066
0.039999999 0.033164736 0.014322178 0.54846609 0 -0.33897066
0.039999999 0.034128055 0.014325593 0.54846609 0 -0.33897066
0.039999999 0.035091549 0.014329105 0.54846609 0 -0.33897066
0.039999999 0.036055222 0.014332714 0.54846609 0 -0.33897066
0.039999999 0.037019078 0.014336423 0.54846609 0 -0.33897066
0.039999999 0.037983119 0.014340229 0.54846609 0 -0.33897066
0.039999999 0.038947359 0.014344134 0.54846609 0 -0.33897066
0.039999999 0.039911795 0.014348137 0.54846609 0 -0.33897066
0.039999999 0.040876433 0.014352239 0.54846609 0 -0.33897066
0.039999999 0.041841283 0.014356439 0.54846609 0 -0.33897066
0.039999999 0.042806342 0.014360737 0.54846609 0 -0.33897066
0.039999999 0.043771625 0.014365134 0.54846609 0 -0.33897066
0.039999999 0.044737127 0.014369629 0.54846609 0 -0.33897066
0.039999999 0.045702856 0.014374223 0.54846609 0 -0.33897066
0.039999999 0.04666882 0.014378916 0.54846609 0 -0.33897066
0.039999999 0.047635023 0.014383707 0.54846609 0 -0.33897066
0.039999999 0.048601471 0.014388598 0.54846609 0 -0.33897066
0.039999999 0.049568165 0.014393587 0.54846609 0 -0.33897066
0.039999999 0.050535109 0.014398674 0.54846609 0 -0.33897066
0.039999999 0.051502317 0.014403861 0.54846609 0 -0.33897066
0.039999999 0.052469783 0.014409147 0.54846609 0 -0.33897066
0.039999999 0.05343752 0.014414532 0.54846609 0 -0.33897066
0.039999999 0.054405529 0.014420017 0.54846609 0 -0.33897066
0.039999999 0.055373818 0.014425601 0.54846609 0 -0.33897066
0.039999999 0.056342389 0.014431284 0.54846609 0 -0.33897066
0.039999999 0.057311252 0.014437065 0.54846609 0 -0.33897066
0.039999999 0.058280405 0.014442948 0.54846609 0 -0.33897066
0.039999999 0.059249856 0.014448929 0.54846609 0 -0.33897066
0.039999999 0.060219612 0.01445501 0.54846609 0 -0.33897066
0.039999999 0.061189674 0.01446119 0.54846609 0 -0.33897066
0.039999999 0.062160052 0.014467471 0.54846609 0 -0.33897066
0.039999999 0.063130751 0.014473852 0.54846609 0 -0.33897066
0.039999999 0.064101771 0.014480332 0.54846609 0 -0.33897066
0.039999999 0.065073118 0.014486912 0.54846609 0 -0.33897066
0.039999999 0.0660448 0.014493592 0.54846609 0 -0.33897066
0.039999999 0.067016825 0.014500373 0.54846609 0 -0.33897066
0.039999999 0.067989185 0.014507254 0.54846609 0 -0.33897066
0.039999999 0.068961903 0.014514235 0.54846609 0 -0.33897066
0.039999999 0.069934972 0.014521317 0.54846609 0 -0.33897066
0.039999999 0.070908405 0.014528499 0.54846609 0 -0.33897066
0.039999999 0.071882196 0.014535782 0.54846609 0 -0.33897066
0.039999999 0.072856359 0.014543165 0.54846609 0 -0.33897066
0.039999999 0.073830903 0.01455065 0.54846609 0 -0.33897066
0.039999999 0.074805818 0.014558235 0.54846609 0 -0.33897066
0.039999999 0.075781122 0.014565921 0.54846609 0 -0.33897066
0.039999999 0.07675682 0.014573709 0.54846609 0 -0.33897066
0.039999999 0.077732913 0.014581598 0.54846609 0 -0.33897066
0.039999999 0.078709401 0.014589588 0.54846609 0 -0.33897066
0.039999999 0.079686299 0.014597679 0.54846609 0 -0.33897066
0.039999999 0.00047968692 0.013094474 0.54846609 0 -0.33897066
0.039999999 0.0014390632 0.013094568 0.54846609 0 -0.33897066
0.039999999 0.0023984469 0.013094757 0.54846609 0 -0.33897066
0.039999999 0.0033578426 0.013095039 0.54846609 0 -0.33897066
0.039999999 0.0043172552 0.013095416 0.54846609 0 -0.33897066
0.039999999 0.0052766898 0.013095888 0.54846609 0 -0.33897066
0.039999999 0.0062361513 0.013096454 0.54846609 0 -0.33897066
0.039999999 0.0071956441 0.013097114 0.54846609 0 -0.33897066
0.039999999 0.0081551736 0.013097868 0.54846609 0 -0.33897066
0.039999999 0.0091147441 0.013098717 0.54846609 0 -0.33897066
0.039999999 0.010074361 0.013099659 0.54846609 0 -0.33897066
0.039999999 0.01103403 0.013100697 0.54846609 0 -0.33897066
0.039999999 0.011993753 0.013101828 0.54846609 0 -0.33897066
0.039999999 0.012953538 0.013103055 0.54846609 0 -0.33897066
0.039999999 0.013913388 0.013104375 0.54846609 0 -0.33897066
0.039999999 0.014873309 0.01310579 0.54846609 0 -0.33897066
0.039999999 0.015833305 0.013107299 0.54846609 0 -0.33897066
0.039999999 0.016793381 0.013108903 0.54846609 0 -0.33897066
0.039999999 0.017753543 0.013110601 0.54846609 0 -0.33897066
0.039999999 0.018713795 0.013112394 0.54846609 0 -0.33897066
0.039999999 0.019674143 0.013114281 0.54846609 0 -0.33897066
0.039999999 0.020634588 0.013116263 0.54846609 0 -0.33897066
0.039999999 0.021595139 0.013118339 0.54846609 0 -0.33897066
0.039999999 0.0225558 0.01312051 0.54846609 0 -0.33897066
0.039999999 0.023516575 0.013122776 0.54846609 0 -0.33897066
0.039999999 0.024477469 0.013125136 0.54846609 0 -0.33897066
0.039999999 0.025438488 0.013127591 0.54846609 0 -0.33897066
0.039999999 0.026399637 0.01313014 0.54846609 0 -0.33897066
0.039999999 0.027360918 0.013132784 0.54846609 0 -0.33897066
0.039999999 0.028322339 0.013135523 0.54846609 0 -0.33897066
0.039999999 0.029283904 0.013138357 0.54846609 0 -0.33897066
0.039999999 0.030245615 0.013141285 0.54846609 0 -0.33897066
0.039999999 0.031207483 0.013144309 0.54846609 0 -0.33897066
0.039999999 0.03216951 0.013147427 0.54846609 0 -0.33897066
0.039999999 0.033131696 0.01315064 0.54846609 0 -0.33897066
0.039999999 0.034094054 0.013153948 0.54846609 0 -0.33897066
0.039999999 0.035056584 0.013157352 0.54846609 0 -0.33897066
0.039999999 0.036019292 0.01316085 0.54846609 0 -0.33897066
0.039999999 0.036982186 0.013164443 0.54846609 0 -0.33897066
0.039999999 0.037945263 0.013168132 0.54846609 0 -0.33897066
0.039999999 0.038908537 0.013171916 0.54846609 0 -0.33897066
0.039999999 0.039872009 0.013175795 0.54846609 0 -0.33897066
0.039999999 0.040835682 0.013179769 0.54846609 0 -0.33897066
0.039999999 0.041799564 0.013183839 0.54846609 0 -0.33897066
0.039999999 0.042763658 0.013188004 0.54846609 0 -0.33897066
0.039999999 0.043727972 0.013192264 0.54846609 0 -0.33897066
0.039999999 0.044692505 0.013196621 0.54846609 0 -0.33897066
0.039999999 0.045657266 0.013201073 0.54846609 0 -0.33897066
0.039999999 0.046622261 0.01320562 0.54846609 0 -0.33897066
0.039999999 0.047587495 0.013210263 0.54846609 0 -0.33897066
0.039999999 0.048552971 0.013215002 0.54846609 0 -0.33897066
0.039999999 0.049518693 0.013219836 0.54846609 0 -0.33897066
0.039999999 0.050484668 0.013224767 0.54846609 0 -0.33897066
0.039999999 0.051450901 0.013229793 0.54846609 0 -0.33897066
0.039999999 0.052417397 0.013234915 0.54846609 0 -0.33897066
0.039999999 0.053384159 0.013240133 0.54846609 0 -0.33897066
0.039999999 0.054351196 0.013245448 0.54846609 0 -0.33897066
0.039999999 0.055318508 0.013250859 0.54846609 0 -0.33897066
0.039999999 0.056286104 0.013256365 0.54846609 0 -0.33897066
0.039999999 0.05725399 0.013261968 0.54846609 0 -0.33897066
0.039999999 0.058222163 0.013267668 0.54846609 0 -0.33897066
0.039999999 0.059190638 0.013273465 0.54846609 0 -0.33897066
0.039999999 0.060159415 0.013279357 0.54846609 0 -0.33897066
0.039999999 0.061128501 0.013285346 0.54846609 0 -0.33897066
0.039999999 0.062097896 0.013291432 0.54846609 0 -0.33897066
0.039999999 0.063067615 0.013297615 0.54846609 0 -0.33897066
0.039999999 0.064037651 0.013303895 0.54846609 0 -0.33897066
0.039999999 0.065008014 0.01331027 0.54846609 0 -0.33897066
0.039999999 0.065978721 0.013316744 0.54846609 0 -0.33897066
0.039999999 0.066949755 0.013323314 0.54846609 0 -0.33897066
0.039999999 0.067921139 0.013329982 0.54846609 0 -0.33897066
0.039999999 0.068892866 0.013336747 0.54846609 0 -0.33897066
0.039999999 0.069864951 0.01334361 0.54846609 0 -0.33897066
0.039999999 0.070837393 0.01335057 0.54846609 0 -0.33897066
0.039999999 0.071810193 0.013357626 0.54846609 0 -0.33897066
0.039999999 0.072783373 0.013364782 0.54846609 0 -0.33897066
0.039999999 0.073756918 0.013372034 0.54846609 0 -0.33897066
0.039999999 0.074730851 0.013379385 0.54846609 0 -0.33897066
0.039999999 0.075705163 0.013386833 0.54846609 0 -0.33897066
0.039999999 0.076679863 0.013394379 0.54846609 0 -0.33897066
0.039999999 0.077654958 0.013402023 0.54846609 0 -0.33897066
0.039999999 0.078630455 0.013409765 0.54846609 0 -0.33897066
0.039999999 0.079606354 0.013417606 0.54846609 0 -0.33897066
0.039999999 0.00047921031 0.011927243 0.54846609 0 -0.33897066
0.039999999 0.0014376334 0.011927335 0.54846609 0 -0.33897066
0.039999999 0.0023960636 0.011927518 0.54846609 0 -0.33897066
0.039999999 0.0033545061 0.011927792 0.54846609 0 -0.33897066
0.039999999 0.0043129656 0.011928157 0.54846609 0 -0.33897066
0.039999999 0.0052714469 0.011928613 0.54846609 0 -0.33897066
0.039999999 0.0062299548 0.011929161 0.54846609 0 -0.33897066
0.039999999 0.0071884943 0.0119298 0.54846609 0 -0.33897066
0.039999999 0.0081470702 0.01193053 0.54846609 0 -0.33897066
0.039999999 0.009105687 0.011931351 0.54846609 0 -0.33897066
0.039999999 0.01006435 0.011932265 0.54846609 0 -0.33897066
0.039999999 0.011023064 0.011933269 0.54846609 0 -0.33897066
0.039999999 0.011981834 0.011934364 0.54846609 0 -0.33897066
0.039999999 0.012940665 0.011935552 0.54846609 0 -0.33897066
0.039999999 0.013899561 0.01193683 0.54846609 0 -0.33897066
0.039999999 0.014858527 0.0119382 0.54846609 0 -0.33897066
0.039999999 0.015817568 0.011939662 0.54846609 0 -0.33897066
0.039999999 0.01677669 0.011941214 0.54846609 0 -0.33897066
0.039999999 0.017735897 0.011942858 0.54846609 0 -0.33897066
0.039999999 0.018695192 0.011944594 0.54846609 0 -0.33897066
0.039999999 0.019654583 0.011946421 0.54846609 0 -0.33897066
0.039999999 0.020614075 0.01194834 0.54846609 0 -0.33897066
0.039999999 0.02157367 0.011950349 0.54846609 0 -0.33897066
0.039999999 0.022533374 0.011952451 0.54846609 0 -0.33897066
0.039999999 0.023493193 0.011954645 0.54846609 0 -0.33897066
0.039999999 0.02445313 0.011956929 0.54846609 0 -0.33897066
0.039999999 0.025413191 0.011959306 0.54846609 0 -0.33897066
0.039999999 0.026373381 0.011961774 0.54846609 0 -0.33897066
0.039999999 0.027333705 0.011964334 0.54846609 0 -0.33897066
0.039999999 0.028294168 0.011966987 0.54846609 0 -0.33897066
0.039999999 0.029254774 0.011969729 0.54846609 0 -0.33897066
0.039999999 0.030215528 0.011972565 0.54846609 0 -0.33897066
0.039999999 0.031176435 0.011975492 0.54846609 0 -0.33897066
0.039999999 0.032137502 0.011978512 0.54846609 0 -0.33897066
0.039999999 0.033098731 0.011981622 0.54846609 0 -0.33897066
0.039999999 0.034060124 0.011984825 0.54846609 0 -0.33897066
0.039999999 0.035021696 0.01198812 0.54846609 0 -0.33897066
0.039999999 0.035983443 0.011991507 0.54846609 0 -0.33897066
0.039999999 0.036945373 0.011994986 0.54846609 0 -0.33897066
0.039999999 0.037907489 0.011998557 0.54846609 0 -0.33897066
0.039999999 0.038869802 0.01200222 0.54846609 0 -0.33897066
0.039999999 0.039832309 0.012005976 0.54846609 0 -0.33897066
0.039999999 0.040795017 0.012009825 0.54846609 0 -0.33897066
0.039999999 0.041757934 0.012013764 0.54846609 0 -0.33897066
0.039999999 0.042721063 0.012017797 0.54846609 0 -0.33897066
0.039999999 0.043684412 0.012021923 0.54846609 0 -0.33897066
0.039999999 0.04464798 0.01202614 0.54846609 0 -0.33897066
0.039999999 0.045611776 0.01203045 0.54846609 0 -0.33897066
0.039999999 0.046575803 0.012034852 0.54846609 0 -0.33897066
0.039999999 0.047540069 0.012039348 0.54846609 0 -0.33897066
0.039999999 0.048504576 0.012043935 0.54846609 0 -0.33897066
0.039999999 0.049469329 0.012048616 0.54846609 0 -0.33897066
0.039999999 0.050434336 0.012053389 0.54846609 0 -0.33897066
0.039999999 0.0513996 0.012058255 0.54846609 0 -0.33897066
0.039999999 0.052365124 0.012063215 0.54846609 0 -0.33897066
0.039999999 0.053330917 0.012068267 0.54846609 0 -0.33897066
0.039999999 0.054296978 0.012073412 0.54846609 0 -0.33897066
0.039999999 0.055263318 0.01207865 0.54846609 0 -0.33897066
0.039999999 0.056229942 0.012083982 0.54846609 0 -0.33897066
0.039999999 0.057196852 0.012089407 0.54846609 0 -0.33897066
0.039999999 0.058164053 0.012094925 0.54846609 0 -0.33897066
0.039999999 0.059131552 0.012100536 0.54846609 0 -0.33897066
0.039999999 0.060099352 0.012106242 0.54846609 0 -0.33897066
0.039999999 0.061067458 0.01211204 0.54846609 0 -0.33897066
0.039999999 0.062035877 0.012117933 0.54846609 0 -0.33897066
0.039999999 0.063004613 0.012123918 0.54846609 0 -0.33897066
0.039999999 0.063973673 0.012129998 0.54846609 0 -0.33897066
0.039999999 0.06494306 0.012136171 0.54846609 0 -0.33897066
0.039999999 0.065912776 0.012142438 0.54846609 0 -0.33897066
0.039999999 0.066882834 0.012148799 0.54846609 0 -0.33897066
0.039999999 0.067853235 0.012155255 0.54846609 0 -0.33897066
0.039999999 0.068823978 0.012161804 0.54846609 0 -0.33897066
0.039999999 0.06979508 0.012168448 0.54846609 0 -0.33897066
0.039999999 0.070766531 0.012175187 0.54846609 0 -0.33897066
0.039999999 0.071738355 0.012182019 0.54846609 0 -0.33897066
0.039999999 0.072710536 0.012188946 0.54846609 0 -0.33897066
0.039999999 0.073683098 0.012195968 0.54846609 0 -0.33897066
0.039999999 0.074656039 0.012203084 0.54846609 0 -0.33897066
0.039999999 0.075629361 0.012210295 0.54846609 0 -0.33897066
0.039999999 0.07660307 0.012217601 0.54846609 0 -0.33897066
0.039999999 0.077577174 0.012225002 0.54846609 0 -0.33897066
0.039999999 0.07855168 0.012232497 0.54846609 0 -0.33897066
0.039999999 0.079526588 0.012240089 0.54846609 0 -0.33897066
0.039999999 0.00047873473 0.010762514 0.54846609 0 -0.33897066
0.039999999 0.0014362066 0.010762602 0.54846609 0 -0.33897066
0.039999999 0.0023936857 0.010762779 0.54846609 0 -0.33897066
0.039999999 0.0033511771 0.010763044 0.54846609 0 -0.33897066
0.039999999 0.0043086852 0.010763397 0.54846609 0 -0.33897066
0.039999999 0.0052662152 0.010763838 0.54846609 0 -0.33897066
0.039999999 0.0062237717 0.010764368 0.54846609 0 -0.33897066
0.039999999 0.0071813599 0.010764986 0.54846609 0 -0.33897066
0.039999999 0.0081389835 0.010765692 0.54846609 0 -0.33897066
0.039999999 0.0090966495 0.010766488 0.54846609 0 -0.33897066
0.039999999 0.010054361 0.01076737 0.54846609 0 -0.33897066
0.039999999 0.011012123 0.010768342 0.54846609 0 -0.33897066
0.039999999 0.011969941 0.010769402 0.54846609 0 -0.33897066
0.039999999 0.012927819 0.01077055 0.54846609 0 -0.33897066
0.039999999 0.013885763 0.010771786 0.54846609 0 -0.33897066
0.039999999 0.014843777 0.010773111 0.54846609 0 -0.33897066
0.039999999 0.015801866 0.010774525 0.54846609 0 -0.33897066
0.039999999 0.016760034 0.010776026 0.54846609 0 -0.33897066
0.039999999 0.017718287 0.010777617 0.54846609 0 -0.33897066
0.039999999 0.018676631 0.010779295 0.54846609 0 -0.33897066
0.039999999 0.019635068 0.010781063 0.54846609 0 -0.33897066
0.039999999 0.020593604 0.010782919 0.54846609 0 -0.33897066
0.039999999 0.021552246 0.010784863 0.54846609 0 -0.33897066
0.039999999 0.022510996 0.010786896 0.54846609 0 -0.33897066
0.039999999 0.02346986 0.010789017 0.54846609 0 -0.33897066
0.039999999 0.024428843 0.010791227 0.54846609 0 -0.33897066
0.039999999 0.025387948 0.010793527 0.54846609 0 -0.33897066
0.039999999 0.026347183 0.010795914 0.54846609 0 -0.33897066
0.039999999 0.027306551 0.01079839 0.54846609 0 -0.33897066
0.039999999 0.028266057 0.010800955 0.54846609 0 -0.33897066
0.039999999 0.029225707 0.010803608 0.54846609 0 -0.33897066
0.039999999 0.030185504 0.010806351 0.54846609 0 -0.33897066
0.039999999 0.031145453 0.010809182 0.54846609 0 -0.33897066
0.039999999 0.032105561 0.010812103 0.54846609 0 -0.33897066
0.039999999 0.033065833 0.010815112 0.54846609 0 -0.33897066
0.039999999 0.034026269 0.010818209 0.54846609 0 -0.33897066
0.039999999 0.03498688 0.010821396 0.54846609 0 -0.33897066
0.039999999 0.035947669 0.010824673 0.54846609 0 -0.33897066
0.039999999 0.036908638 0.010828038 0.54846609 0 -0.33897066
0.039999999 0.037869796 0.010831492 0.54846609 0 -0.33897066
0.039999999 0.038831145 0.010835036 0.54846609 0 -0.33897066
0.039999999 0.03979269 0.010838669 0.54846609 0 -0.33897066
0.039999999 0.040754441 0.01084239 0.54846609 0 -0.33897066
0.039999999 0.041716397 0.010846201 0.54846609 0 -0.33897066
0.039999999 0.042678561 0.010850102 0.54846609 0 -0.33897066
0.039999999 0.043640945 0.010854091 0.54846609 0 -0.33897066
0.039999999 0.044603549 0.010858172 0.54846609 0 -0.33897066
0.039999999 0.045566384 0.01086234 0.54846609 0 -0.33897066
0.039999999 0.046529446 0.010866598 0.54846609 0 -0.33897066
0.039999999 0.047492746 0.010870947 0.54846609 0 -0.33897066
0.039999999 0.048456285 0.010875384 0.54846609 0 -0.33897066
0.039999999 0.049420074 0.010879911 0.54846609 0 -0.33897066
0.039999999 0.050384112 0.010884528 0.54846609 0 -0.33897066
0.039999999 0.051348407 0.010889235 0.54846609 0 -0.33897066
0.039999999 0.052312963 0.010894032 0.54846609 0 -0.33897066
0.039999999 0.053277783 0.010898919 0.54846609 0 -0.33897066
0.039999999 0.054242879 0.010903896 0.54846609 0 -0.33897066
0.039999999 0.055208247 0.010908962 0.54846609 0 -0.33897066
0.039999999 0.056173898 0.010914119 0.54846609 0 -0.33897066
0.039999999 0.057139836 0.010919367 0.54846609 0 -0.33897066
0.039999999 0.058106065 0.010924704 0.54846609 0 -0.33897066
0.039999999 0.059072591 0.010930132 0.54846609 0 -0.33897066
0.039999999 0.060039416 0.01093565 0.54846609 0 -0.33897066
0.039999999 0.06100655 0.010941259 0.54846609 0 -0.33897066
0.039999999 0.061973993 0.010946957 0.54846609 0 -0.33897066
0.039999999 0.062941752 0.010952747 0.54846609 0 -0.33897066
0.039999999 0.063909836 0.010958628 0.54846609 0 -0.33897066
0.039999999 0.06487824 0.010964599 0.54846609 0 -0.33897066
0.039999999 0.06584698 0.010970661 0.54846609 0 -0.33897066
0.039999999 0.066816054 0.010976814 0.54846609 0 -0.33897066
0.039999999 0.067785472 0.010983058 0.54846609 0 -0.33897066
0.039999999 0.068755239 0.010989393 0.54846609 0 -0.33897066
0.039999999 0.069725357 0.010995819 0.54846609 0 -0.33897066
0.039999999 0.070695825 0.011002337 0.54846609 0 -0.33897066
0.039999999 0.071666665 0.011008945 0.54846609 0 -0.33897066
0.039999999 0.072637863 0.011015645 0.54846609 0 -0.33897066
0.039999999 0.073609442 0.011022437 0.54846609 0 -0.33897066
0.039999999 0.074581392 0.011029321 0.54846609 0 -0.33897066
0.039999999 0.075553723 0.011036295 0.54846609 0 -0.33897066
0.039999999 0.076526448 0.011043362 0.54846609 0 -0.33897066
0.039999999 0.077499561 0.01105052 0.54846609 0 -0.33897066
0.039999999 0.078473076 0.011057771 0.54846609 0 -0.33897066
0.039999999 0.079446986 0.011065113 0.54846609 0 -0.33897066
0.039999999 0.00047826016 0.0096002696 0.54846609 0 -0.33897066
0.039999999 0.001434783 0.0096003553 0.54846609 0 -0.33897066
0.039999999 0.002391313 0.0096005257 0.54846609 0 -0.33897066
0.039999999 0.0033478551 0.0096007818 0.54846609 0 -0.33897066
0.039999999 0.0043044141 0.0096011227 0.54846609 0 -0.33897066
0.039999999 0.0052609947 0.0096015492 0.54846609 0 -0.33897066
0.039999999 0.0062176017 0.0096020615 0.54846609 0 -0.33897066
0.039999999 0.0071742404 0.0096026585 0.54846609 0 -0.33897066
0.039999999 0.0081309155 0.0096033411 0.54846609 0 -0.33897066
0.039999999 0.0090876305 0.0096041095 0.54846609 0 -0.33897066
0.039999999 0.010044392 0.0096049625 0.54846609 0 -0.33897066
0.039999999 0.011001205 0.0096059013 0.54846609 0 -0.33897066
0.039999999 0.011958073 0.0096069258 0.54846609 0 -0.33897066
0.039999999 0.012915001 0.009608035 0.54846609 0 -0.33897066
0.039999999 0.013871994 0.0096092299 0.54846609 0 -0.33897066
0.039999999 0.014829057 0.0096105104 0.54846609 0 -0.33897066
0.039999999 0.015786195 0.0096118758 0.54846609 0 -0.33897066
0.039999999 0.016743414 0.0096133268 0.54846609 0 -0.33897066
0.039999999 0.017700717 0.0096148634 0.54846609 0 -0.33897066
0.039999999 0.018658107 0.0096164858 0.54846609 0 -0.33897066
0.039999999 0.019615594 0.0096181938 0.54846609 0 -0.33897066
0.039999999 0.020573178 0.0096199866 0.54846609 0 -0.33897066
0.039999999 0.021530868 0.009621866 0.54846609 0 -0.33897066
0.039999999 0.022488665 0.0096238302 0.54846609 0 -0.33897066
0.039999999 0.023446577 0.00962588 0.54846609 0 -0.33897066
0.039999999 0.024404606 0.0096280156 0.54846609 0 -0.33897066
0.039999999 0.02536276 0.0096302368 0.54846609 0 -0.33897066
0.039999999 0.02632104 0.0096325437 0.54846609 0 -0.33897066
0.039999999 0.027279455 0.0096349362 0.54846609 0 -0.33897066
0.039999999 0.028238006 0.0096374154 0.54846609 0 -0.33897066
0.039999999 0.029196702 0.0096399793 0.54846609 0 -0.33897066
0.039999999 0.030155543 0.009642629 0.54846609 0 -0.33897066
0.039999999 0.031114539 0.0096453652 0.54846609 0 -0.33897066
0.039999999 0.032073691 0.0096481871 0.54846609 0 -0.33897066
0.039999999 0.033033006 0.0096510947 0.54846609 0 -0.33897066
0.039999999 0.033992488 0.0096540879 0.54846609 0 -0.33897066
0.039999999 0.034952141 0.0096571678 0.54846609 0 -0.33897066
0.039999999 0.035911974 0.0096603334 0.54846609 0 -0.33897066
0.039999999 0.036871985 0.0096635846 0.54846609 0 -0.33897066
0.039999999 0.037832182 0.0096669225 0.54846609 0 -0.33897066
0.039999999 0.038792573 0.009670347 0.54846609 0 -0.33897066
0.039999999 0.039753161 0.0096738571 0.54846609 0 -0.33897066
0.039999999 0.040713951 0.009677453 0.54846609 0 -0.33897066
0.039999999 0.041674946 0.0096811363 0.54846609 0 -0.33897066
0.039999999 0.042636152 0.0096849054 0.54846609 0 -0.33897066
0.039999999 0.043597572 0.0096887602 0.54846609 0 -0.33897066
0.039999999 0.044559214 0.0096927024 0.54846609 0 -0.33897066
0.039999999 0.045521084 0.0096967304 0.54846609 0 -0.33897066
0.039999999 0.046483185 0.009700845 0.54846609 0 -0.33897066
0.039999999 0.047445521 0.0097050462 0.54846609 0 -0.33897066
0.039999999 0.048408099 0.0097093349 0.54846609 0 -0.33897066
0.039999999 0.049370922 0.0097137094 0.54846609 0 -0.33897066
0.039999999 0.050333995 0.0097181704 0.54846609 0 -0.33897066
0.039999999 0.051297322 0.009722719 0.54846609 0 -0.33897066
0.039999999 0.052260913 0.0097273542 0.54846609 0 -0.33897066
0.039999999 0.053224768 0.009732076 0.54846609 0 -0.33897066
0.039999999 0.054188892 0.0097368844 0.54846609 0 -0.33897066
0.039999999 0.055153295 0.0097417803 0.54846609 0 -0.33897066
0.039999999 0.056117978 0.0097467639 0.54846609 0 -0.33897066
0.039999999 0.057082944 0.009751834 0.54846609 0 -0.33897066
0.039999999 0.0580482 0.0097569916 0.54846609 0 -0.33897066
0.039999999 0.059013754 0.0097622359 0.54846609 0 -0.33897066
0.039999999 0.05997961 0.0097675687 0.54846609 0 -0.33897066
0.039999999 0.060945768 0.009772988 0.54846609 0 -0.33897066
0.039999999 0.061912239 0.0097784949 0.54846609 0 -0.33897066
0.039999999 0.062879026 0.0097840894 0.54846609 0 -0.33897066
0.039999999 0.063846126 0.0097897714 0.54846609 0 -0.33897066
0.039999999 0.064813562 0.0097955409 0.54846609 0 -0.33897066
0.039999999 0.065781325 0.009801399 0.54846609 0 -0.33897066
0.039999999 0.066749424 0.0098073445 0.54846609 0 -0.33897066
0.039999999 0.067717858 0.0098133776 0.54846609 0 -0.33897066
0.039999999 0.068686649 0.0098194992 0.54846609 0 -0.33897066
0.039999999 0.069655783 0.0098257083 0.54846609 0 -0.33897066
0.039999999 0.070625275 0.0098320059 0.54846609 0 -0.33897066
0.039999999 0.071595125 0.009838392 0.54846609 0 -0.33897066
0.039999999 0.072565347 0.0098448666 0.54846609 0 -0.33897066
0.039999999 0.073535934 0.0098514287 0.54846609 0 -0.33897066
0.039999999 0.074506901 0.0098580802 0.54846609 0 -0.33897066
0.039999999 0.075478248 0.0098648192 0.54846609 0 -0.33897066
0.039999999 0.076449983 0.0098716477 0.54846609 0 -0.33897066
0.039999999 0.077422112 0.0098785646 0.54846609 0 -0.33897066
0.039999999 0.078394637 0.009885571 0.54846609 0 -0.33897066
0.039999999 0.079367563 0.0098926648 0.54846609 0 -0.33897066
0.039999999 0.00047778661 0.0084404983 0.54846609 0 -0.33897066
0.039999999 0.0014333623 0.0084405812 0.54846609 0 -0.33897066
0.039999999 0.0023889451 0.008440746 0.54846609 0 -0.33897066
0.039999999 0.00334454 0.0084409928 0.54846609 0 -0.33897066
0.039999999 0.004300152 0.0084413225 0.54846609 0 -0.33897066
0.039999999 0.0052557853 0.0084417341 0.54846609 0 -0.33897066
0.039999999 0.0062114452 0.0084422277 0.54846609 0 -0.33897066
0.039999999 0.0071671363 0.0084428042 0.54846609 0 -0.33897066
0.039999999 0.0081228632 0.0084434636 0.54846609 0 -0.33897066
0.039999999 0.0090786312 0.0084442049 0.54846609 0 -0.33897066
0.039999999 0.010034446 0.0084450282 0.54846609 0 -0.33897066
0.039999999 0.01099031 0.0084459344 0.54846609 0 -0.33897066
0.039999999 0.01194623 0.0084469225 0.54846609 0 -0.33897066
0.039999999 0.01290221 0.0084479935 0.54846609 0 -0.33897066
0.039999999 0.013858255 0.0084491475 0.54846609 0 -0.33897066
0.039999999 0.01481437 0.0084503833 0.54846609 0 -0.33897066
0.039999999 0.01577056 0.0084517011 0.54846609 0 -0.33897066
0.039999999 0.016726829 0.0084531019 0.54846609 0 -0.33897066
0.039999999 0.017683182 0.0084545854 0.54846609 0 -0.33897066
0.039999999 0.018639624 0.008456151 0.54846609 0 -0.33897066
0.039999999 0.019596161 0.0084577994 0.54846609 0 -0.33897066
0.039999999 0.020552795 0.0084595308 0.54846609 0 -0.33897066
0.039999999 0.021509536 0.0084613441 0.54846609 0 -0.33897066
0.039999999 0.022466382 0.0084632402 0.54846609 0 -0.33897066
0.039999999 0.023423344 0.0084652193 0.54846609 0 -0.33897066
0.039999999 0.024380421 0.0084672803 0.54846609 0 -0.33897066
0.039999999 0.025337623 0.0084694242 0.54846609 0 -0.33897066
0.039999999 0.026294954 0.008471651 0.54846609 0 -0.33897066
0.039999999 0.027252417 0.0084739607 0.54846609 0 -0.33897066
0.039999999 0.028210016 0.0084763533 0.54846609 0 -0.33897066
0.039999999 0.029167758 0.0084788278 0.54846609 0 -0.33897066
0.039999999 0.030125648 0.0084813861 0.54846609 0 -0.33897066
0.039999999 0.03108369 0.0084840264 0.54846609 0 -0.33897066
0.039999999 0.032041889 0.0084867505 0.54846609 0 -0.33897066
0.039999999 0.033000249 0.0084895575 0.54846609 0 -0.33897066
0.039999999 0.033958778 0.0084924465 0.54846609 0 -0.33897066
0.039999999 0.034917474 0.0084954193 0.54846609 0 -0.33897066
0.039999999 0.035876352 0.008498475 0.54846609 0 -0.33897066
0.039999999 0.036835406 0.0085016135 0.54846609 0 -0.33897066
0.039999999 0.03779465 0.0085048359 0.54846609 0 -0.33897066
0.039999999 0.038754083 0.0085081402 0.54846609 0 -0.33897066
0.039999999 0.039713714 0.0085115284 0.54846609 0 -0.33897066
0.039999999 0.040673546 0.0085150003 0.54846609 0 -0.33897066
0.039999999 0.041633584 0.0085185543 0.54846609 0 -0.33897066
0.039999999 0.042593829 0.0085221929 0.54846609 0 -0.33897066
0.039999999 0.043554291 0.0085259145 0.54846609 0 -0.33897066
0.039999999 0.044514976 0.008529719 0.54846609 0 -0.33897066
0.039999999 0.045475885 0.0085336072 0.54846609 0 -0.33897066
0.039999999 0.046437025 0.0085375793 0.54846609 0 -0.33897066
0.039999999 0.0473984 0.0085416343 0.54846609 0 -0.33897066
0.039999999 0.048360012 0.0085457731 0.54846609 0 -0.33897066
0.039999999 0.049321875 0.0085499957 0.54846609 0 -0.33897066
0.039999999 0.050283983 0.0085543022 0.54846609 0 -0.33897066
0.039999999 0.051246349 0.0085586924 0.54846609 0 -0.33897066
0.039999999 0.052208975 0.0085631665 0.54846609 0 -0.33897066
0.039999999 0.053171866 0.0085677244 0.54846609 0 -0.33897066
0.039999999 0.054135025 0.0085723661 0.54846609 0 -0.33897066
0.039999999 0.055098459 0.0085770916 0.54846609 0 -0.33897066
0.039999999 0.056062173 0.0085819019 0.54846609 0 -0.33897066
0.039999999 0.057026174 0.008586796 0.54846609 0 -0.33897066
0.039999999 0.057990462 0.0085917739 0.54846609 0 -0.33897066
0.039999999 0.058955047 0.0085968366 0.54846609 0 -0.33897066
0.039999999 0.059919931 0.0086019831 0.54846609 0 -0.33897066
0.039999999 0.060885116 0.0086072143 0.54846609 0 -0.33897066
0.039999999 0.061850615 0.0086125294 0.54846609 0 -0.33897066
0.039999999 0.062816426 0.0086179301 0.54846609 0 -0.33897066
0.039999999 0.063782565 0.0086234147 0.54846609 0 -0.33897066
0.039999999 0.064749017 0.008628984 0.54846609 0 -0.33897066
0.039999999 0.065715805 0.008634638 0.54846609 0 -0.33897066
0.039999999 0.066682927 0.0086403769 0.54846609 0 -0.33897066
0.039999999 0.067650393 0.0086462004 0.54846609 0 -0.33897066
0.039999999 0.068618201 0.0086521087 0.54846609 0 -0.33897066
0.039999999 0.069586359 0.0086581027 0.54846609 0 -0.33897066
0.039999999 0.070554867 0.0086641815 0.54846609 0 -0.33897066
0.039999999 0.071523741 0.0086703449 0.54846609 0 -0.33897066
0.039999999 0.072492979 0.0086765941 0.54846609 0 -0.33897066
0.039999999 0.073462591 0.008682929 0.54846609 0 -0.33897066
0.039999999 0.074432574 0.0086893486 0.54846609 0 -0.33897066
0.039999999 0.075402938 0.0086958539 0.54846609 0 -0.33897066
0.039999999 0.076373689 0.0087024448 0.54846609 0 -0.33897066
0.039999999 0.077344835 0.0087091215 0.54846609 0 -0.33897066
0.039999999 0.078316368 0.0087158838 0.54846609 0 -0.33897066
0.039999999 0.079288304 0.0087227318 0.54846609 0 -0.33897066
0.039999999 0.00047731405 0.0072831865 0.54846609 0 -0.33897066
0.039999999 0.0014319445 0.0072832662 0.54846609 0 -0.33897066
0.039999999 0.0023865823 0.007283425 0.54846609 0 -0.33897066
0.039999999 0.003341232 0.0072836629 0.54846609 0 -0.33897066
0.039999999 0.0042958986 0.0072839805 0.54846609 0 -0.33897066
0.039999999 0.0052505867 0.0072843777 0.54846609 0 -0.33897066
0.039999999 0.0062053013 0.0072848541 0.54846609 0 -0.33897066
0.039999999 0.0071600471 0.0072854101 0.54846609 0 -0.33897066
0.039999999 0.0081148287 0.0072860452 0.54846609 0 -0.33897066
0.039999999 0.0090696514 0.00728676 0.54846609 0 -0.33897066
0.039999999 0.01002452 0.007287554 0.54846609 0 -0.33897066
0.039999999 0.010979438 0.0072884276 0.54846609 0 -0.33897066
0.039999999 0.011934412 0.0072893808 0.54846609 0 -0.33897066
0.039999999 0.012889446 0.0072904131 0.54846609 0 -0.33897066
0.039999999 0.013844545 0.0072915251 0.54846609 0 -0.33897066
0.039999999 0.014799713 0.0072927168 0.54846609 0 -0.33897066
0.039999999 0.015754957 0.0072939876 0.54846609 0 -0.33897066
0.039999999 0.016710278 0.007295338 0.54846609 0 -0.33897066
0.039999999 0.017665684 0.0072967685 0.54846609 0 -0.33897066
0.039999999 0.01862118 0.0072982782 0.54846609 0 -0.33897066
0.039999999 0.019576769 0.0072998675 0.54846609 0 -0.33897066
0.039999999 0.020532457 0.0073015359 0.54846609 0 -0.33897066
0.039999999 0.021488247 0.0073032845 0.54846609 0 -0.33897066
0.039999999 0.022444148 0.0073051127 0.54846609 0 -0.33897066
0.039999999 0.02340016 0.0073070205 0.54846609 0 -0.33897066
0.039999999 0.024356289 0.0073090079 0.54846609 0 -0.33897066
0.039999999 0.025312543 0.0073110755 0.54846609 0 -0.33897066
0.039999999 0.026268922 0.0073132222 0.54846609 0 -0.33897066
0.039999999 0.027225435 0.007315449 0.54846609 0 -0.33897066
0.039999999 0.028182086 0.0073177554 0.54846609 0 -0.33897066
0.039999999 0.029138876 0.0073201419 0.54846609 0 -0.33897066
0.039999999 0.030095816 0.007322608 0.54846609 0 -0.33897066
0.039999999 0.031052906 0.0073251543 0.54846609 0 -0.33897066
0.039999999 0.032010153 0.0073277801 0.54846609 0 -0.33897066
0.039999999 0.032967564 0.0073304861 0.54846609 0 -0.33897066
0.039999999 0.033925138 0.0073332721 0.54846609 0 -0.33897066
0.039999999 0.034882884 0.0073361383 0.54846609 0 -0.33897066
0.039999999 0.035840806 0.0073390841 0.54846609 0 -0.33897066
0.039999999 0.036798909 0.0073421104 0.54846609 0 -0.33897066
0.039999999 0.037757196 0.0073452168 0.54846609 0 -0.33897066
0.039999999 0.038715675 0.0073484033 0.54846609 0 -0.33897066
0.039999999 0.039674353 0.0073516699 0.54846609 0 -0.33897066
0.039999999 0.040633228 0.0073550167 0.54846609 0 -0.33897066
0.039999999 0.041592307 0.0073584439 0.54846609 0 -0.33897066
0.039999999 0.042551599 0.0073619513 0.54846609 0 -0.33897066
0.039999999 0.043511104 0.0073655392 0.54846609 0 -0.33897066
0.039999999 0.044470832 0.0073692077 0.54846609 0 -0.33897066
0.039999999 0.045430779 0.0073729567 0.54846609 0 -0.33897066
0.039999999 0.046390962 0.0073767859 0.54846609 0 -0.33897066
0.039999999 0.047351375 0.007380696 0.54846609 0 -0.33897066
0.039999999 0.048312031 0.0073846863 0.54846609 0 -0.33897066
0.039999999 0.049272932 0.0073887575 0.54846609 0 -0.33897066
0.039999999 0.050234079 0.0073929094 0.54846609 0 -0.33897066
0.039999999 0.051195484 0.0073971422 0.54846609 0 -0.33897066
0.039999999 0.052157145 0.0074014557 0.54846609 0 -0.33897066
0.039999999 0.053119075 0.0074058501 0.54846609 0 -0.33897066
0.039999999 0.054081269 0.0074103256 0.54846609 0 -0.33897066
0.039999999 0.055043738 0.0074148821 0.54846609 0 -0.33897066
0.039999999 0.056006487 0.0074195191 0.54846609 0 -0.33897066
0.039999999 0.056969523 0.0074242377 0.54846609 0 -0.33897066
0.039999999 0.057932846 0.0074290372 0.54846609 0 -0.33897066
0.039999999 0.058896463 0.0074339183 0.54846609 0 -0.33897066
0.039999999 0.059860379 0.0074388804 0.54846609 0 -0.33897066
0.039999999 0.060824595 0.007443924 0.54846609 0 -0.33897066
0.039999999 0.061789125 0.007449049 0.54846609 0 -0.33897066
0.039999999 0.062753968 0.0074542551 0.54846609 0 -0.33897066
0.039999999 0.063719131 0.0074595432 0.54846609 0 -0.33897066
0.039999999 0.064684615 0.0074649127 0.54846609 0 -0.33897066
0.039999999 0.065650433 0.0074703642 0.54846609 0 -0.33897066
0.039999999 0.06661658 0.0074758972 0.54846609 0 -0.33897066
0.039999999 0.067583069 0.0074815117 0.54846609 0 -0.33897066
0.039999999 0.068549901 0.0074872086 0.54846609 0 -0.33897066
0.039999999 0.069517083 0.007492987 0.54846609 0 -0.33897066
0.039999999 0.070484616 0.0074988478 0.54846609 0 -0.33897066
0.039999999 0.071452513 0.0075047906 0.54846609 0 -0.33897066
0.039999999 0.072420776 0.0075108157 0.54846609 0 -0.33897066
0.039999999 0.073389404 0.0075169229 0.54846609 0 -0.33897066
0.039999999 0.074358404 0.0075231125 0.54846609 0 -0.33897066
0.039999999 0.075327791 0.0075293845 0.54846609 0 -0.33897066
0.039999999 0.076297559 0.0075357389 0.54846609 0 -0.33897066
0.039999999 0.077267714 0.0075421762 0.54846609 0 -0.33897066
0.039999999 0.078238264 0.0075486959 0.54846609 0 -0.33897066
0.039999999 0.079209223 0.007555298 0.54846609 0 -0.33897066
0.039999999 0.00047684251 0.0061283205 0.54846609 0 -0.33897066
0.039999999 0.0014305299 0.0061283968 0.54846609 0 -0.33897066
0.039999999 0.0023842244 0.0061285496 0.54846609 0 -0.33897066
0.039999999 0.0033379311 0.0061287791 0.54846609 0 -0.33897066
0.039999999 0.0042916546 0.0061290851 0.54846609 0 -0.33897066
0.039999999 0.0052453992 0.0061294674 0.54846609 0 -0.33897066
0.039999999 0.0061991704 0.0061299261 0.54846609 0 -0.33897066
0.039999999 0.0071529727 0.0061304611 0.54846609 0 -0.33897066
0.039999999 0.008106811 0.006131073 0.54846609 0 -0.33897066
0.039999999 0.0090606902 0.0061317612 0.54846609 0 -0.33897066
0.039999999 0.010014615 0.0061325259 0.54846609 0 -0.33897066
0.039999999 0.010968589 0.0061333673 0.54846609 0 -0.33897066
0.039999999 0.011922619 0.0061342851 0.54846609 0 -0.33897066
0.039999999 0.012876709 0.0061352793 0.54846609 0 -0.33897066
0.039999999 0.013830864 0.0061363499 0.54846609 0 -0.33897066
0.039999999 0.014785088 0.0061374973 0.54846609 0 -0.33897066
0.039999999 0.015739387 0.0061387215 0.54846609 0 -0.33897066
0.039999999 0.016693763 0.0061400221 0.54846609 0 -0.33897066
0.039999999 0.017648226 0.006141399 0.54846609 0 -0.33897066
0.039999999 0.018602775 0.0061428528 0.54846609 0 -0.33897066
0.039999999 0.019557418 0.006144383 0.54846609 0 -0.33897066
0.039999999 0.02051216 0.0061459905 0.54846609 0 -0.33897066
0.039999999 0.021467006 0.0061476738 0.54846609 0 -0.33897066
0.039999999 0.022421958 0.0061494345 0.54846609 0 -0.33897066
0.039999999 0.023377024 0.0061512715 0.54846609 0 -0.33897066
0.039999999 0.024332207 0.0061531854 0.54846609 0 -0.33897066
0.039999999 0.025287513 0.0061551761 0.54846609 0 -0.33897066
0.039999999 0.026242945 0.0061572436 0.54846609 0 -0.33897066
0.039999999 0.02719851 0.006159388 0.54846609 0 -0.33897066
0.039999999 0.028154213 0.0061616087 0.54846609 0 -0.33897066
0.039999999 0.029110057 0.0061639068 0.54846609 0 -0.33897066
0.039999999 0.030066047 0.0061662816 0.54846609 0 -0.33897066
0.039999999 0.031022187 0.0061687334 0.54846609 0 -0.33897066
0.039999999 0.031978484 0.0061712624 0.54846609 0 -0.33897066
0.039999999 0.032934945 0.0061738682 0.54846609 0 -0.33897066
0.039999999 0.03389157 0.0061765509 0.54846609 0 -0.33897066
0.039999999 0.034848366 0.0061793108 0.54846609 0 -0.33897066
0.039999999 0.035805333 0.0061821477 0.54846609 0 -0.33897066
0.039999999 0.036762487 0.0061850618 0.54846609 0 -0.33897066
0.039999999 0.037719823 0.0061880527 0.54846609 0 -0.33897066
0.039999999 0.03867735 0.0061911214 0.54846609 0 -0.33897066
0.039999999 0.039635073 0.006194267 0.54846609 0 -0.33897066
0.039999999 0.040592995 0.0061974898 0.54846609 0 -0.33897066
0.039999999 0.041551121 0.0062007904 0.54846609 0 -0.33897066
0.039999999 0.042509455 0.0062041678 0.54846609 0 -0.33897066
0.039999999 0.043468006 0.0062076231 0.54846609 0 -0.33897066
0.039999999 0.044426776 0.0062111556 0.54846609 0 -0.33897066
0.039999999 0.045385774 0.0062147654 0.54846609 0 -0.33897066
0.039999999 0.046344995 0.0062184529 0.54846609 0 -0.33897066
0.039999999 0.047304455 0.0062222178 0.54846609 0 -0.33897066
0.039999999 0.04826415 0.0062260609 0.54846609 0 -0.33897066
0.039999999 0.049224094 0.0062299813 0.54846609 0 -0.33897066
0.039999999 0.050184283 0.006233979 0.54846609 0 -0.33897066
0.039999999 0.051144727 0.0062380549 0.54846609 0 -0.33897066
0.039999999 0.052105427 0.0062422091 0.54846609 0 -0.33897066
0.039999999 0.053066395 0.0062464406 0.54846609 0 -0.33897066
0.039999999 0.054027628 0.0062507503 0.54846609 0 -0.33897066
0.039999999 0.054989137 0.0062551377 0.54846609 0 -0.33897066
0.039999999 0.055950921 0.006259603 0.54846609 0 -0.33897066
0.039999999 0.056912992 0.0062641469 0.54846609 0 -0.33897066
0.039999999 0.05787535 0.0062687686 0.54846609 0 -0.33897066
0.039999999 0.058838002 0.006273469 0.54846609 0 -0.33897066
0.039999999 0.059800953 0.0062782471 0.54846609 0 -0.33897066
0.039999999 0.060764205 0.006283104 0.54846609 0 -0.33897066
0.039999999 0.061727766 0.006288039 0.54846609 0 -0.33897066
0.039999999 0.062691644 0.0062930523 0.54846609 0 -0.33897066
0.039999999 0.063655831 0.0062981443 0.54846609 0 -0.33897066
0.039999999 0.064620353 0.0063033151 0.54846609 0 -0.33897066
0.039999999 0.065585196 0.0063085645 0.54846609 0 -0.33897066
0.039999999 0.066550374 0.0063138925 0.54846609 0 -0.33897066
0.039999999 0.067515887 0.0063192993 0.54846609 0 -0.33897066
0.039999999 0.068481743 0.0063247848 0.54846609 0 -0.33897066
0.039999999 0.069447957 0.0063303495 0.54846609 0 -0.33897066
0.039999999 0.070414513 0.0063359928 0.54846609 0 -0.33897066
0.039999999 0.071381435 0.0063417153 0.54846609 0 -0.33897066
0.039999999 0.072348714 0.006347517 0.54846609 0 -0.33897066
0.039999999 0.073316365 0.0063533983 0.54846609 0 -0.33897066
0.039999999 0.074284397 0.0063593583 0.54846609 0 -0.33897066
0.039999999 0.075252801 0.0063653979 0.54846609 0 -0.33897066
0.039999999 0.076221585 0.0063715172 0.54846609 0 -0.33897066
0.039999999 0.077190764 0.0063777156 0.54846609 0 -0.33897066
0.039999999 0.078160331 0.0063839937 0.54846609 0 -0.33897066
0.039999999 0.079130299 0.0063903518 0.54846609 0 -0.33897066
0.039999999 0.00047637193 0.0049758865 0.54846609 0 -0.33897066
0.039999999 0.0014291182 0.0049759601 0.54846609 0 -0.33897066
0.039999999 0.0023818717 0.0049761073 0.54846609 0 -0.33897066
0.039999999 0.003334637 0.004976328 0.54846609 0 -0.33897066
0.039999999 0.0042874194 0.0049766218 0.54846609 0 -0.33897066
0.039999999 0.0052402229 0.0049769897 0.54846609 0 -0.33897066
0.039999999 0.0061930525 0.0049774307 0.54846609 0 -0.33897066
0.039999999 0.0071459138 0.0049779457 0.54846609 0 -0.33897066
0.039999999 0.00809881 0.0049785338 0.54846609 0 -0.33897066
0.039999999 0.0090517476 0.0049791955 0.54846609 0 -0.33897066
0.039999999 0.010004731 0.0049799313 0.54846609 0 -0.33897066
0.039999999 0.010957764 0.0049807401 0.54846609 0 -0.33897066
0.039999999 0.011910851 0.0049816226 0.54846609 0 -0.33897066
0.039999999 0.012863999 0.004982579 0.54846609 0 -0.33897066
