# .PCD v0.7 - Point Cloud Data file format
VERSION 0.7
FIELDS x y z vp_x vp_y vp_z
SIZE 4 4 4 4 4 4
TYPE F F F F F F
COUNT 1 1 1 1 1 1
WIDTH 685
HEIGHT 1
VIEWPOINT 0 0 0 1 0 0 0
POINTS 685
DATA ascii
0.039999999 0.070033483 0.02571658 0.19972187 0.52287865 -0.32315677
0.039999999 0.072775051 0.023852851 0.19972187 0.52287865 -0.32315677
0.039999999 0.075487338 0.022009207 0.19972187 0.52287865 -0.32315677
0.039999999 0.078170836 0.02018532 0.19972187 0.52287865 -0.32315677
0.039701551 0.079999998 0.019019045 0.19972187 0.52287865 -0.32315677
0.0387448 0.079999998 0.019265527 0.19972187 0.52287865 -0.32315677
0.0377867 0.079999998 0.019512534 0.19972187 0.52287865 -0.32315677
0.036827251 0.079999998 0.019760074 0.19972187 0.52287865 -0.32315677
0.035866439 0.079999998 0.020008145 0.19972187 0.52287865 -0.32315677
0.034904256 0.079999998 0.02025675 0.19972187 0.52287865 -0.32315677
0.033940699 0.079999998 0.020505894 0.19972187 0.52287865 -0.32315677
0.032975756 0.079999998 0.020755576 0.19972187 0.52287865 -0.32315677
0.032009419 0.079999998 0.021005802 0.19972187 0.52287865 -0.32315677
0.03104168 0.079999998 0.021256572 0.19972187 0.52287865 -0.32315677
0.030072531 0.079999998 0.021507889 0.19972187 0.52287865 -0.32315677
0.029101964 0.079999998 0.021759756 0.19972187 0.52287865 -0.32315677
0.028129973 0.079999998 0.022012176 0.19972187 0.52287865 -0.32315677
0.027156545 0.079999998 0.022265151 0.19972187 0.52287865 -0.32315677
0.026181675 0.079999998 0.022518683 0.19972187 0.52287865 -0.32315677
0.025205353 0.079999998 0.022772776 0.19972187 0.52287865 -0.32315677
0.024227573 0.079999998 0.023027431 0.19972187 0.52287865 -0.32315677
0.023248324 0.079999998 0.023282651 0.19972187 0.52287865 -0.32315677
0.0078908 0.044119339 0.051626615 0.19972187 0.52287865 -0.32315677
0.021285387 0.079999998 0.023794798 0.19972187 0.52287865 -0.32315677
0.020301683 0.079999998 0.02405173 0.19972187 0.52287865 -0.32315677
0.019316476 0.079999998 0.024309238 0.19972187 0.52287865 -0.32315677
0.018329756 0.079999998 0.024567325 0.19972187 0.52287865 -0.32315677
0.0041070632 0.047862452 0.050077409 0.19972187 0.52287865 -0.32315677
0.0034457503 0.048829205 0.0495953 0.19972187 0.52287865 -0.32315677
0.0027954669 0.04981602 0.049096901 0.19972187 0.52287865 -0.32315677
0.014367598 0.079999998 0.025605513 0.19972187 0.52287865 -0.32315677
0.013373192 0.079999998 0.025866533 0.19972187 0.52287865 -0.32315677
0.012377223 0.079999998 0.026128149 0.19972187 0.52287865 -0.32315677
0.00069602905 0.054877847 0.046218313 0.19972187 0.52287865 -0.32315677
0.010380557 0.079999998 0.026653176 0.19972187 0.52287865 -0.32315677
0.0093798405 0.079999998 0.026916593 0.19972187 0.52287865 -0.32315677
0.008377525 0.079999998 0.027180618 0.19972187 0.52287865 -0.32315677
0.0073735998 0.079999998 0.027445251 0.19972187 0.52287865 -0.32315677
0.0063680564 0.079999998 0.027710496 0.19972187 0.52287865 -0.32315677
0.0053608846 0.079999998 0.027976356 0.19972187 0.52287865 -0.32315677
0.004352076 0.079999998 0.028242834 0.19972187 0.52287865 -0.32315677
0.0033416208 0.079999998 0.028509934 0.19972187 0.52287865 -0.32315677
0.0023295099 0.079999998 0.028777655 0.19972187 0.52287865 -0.32315677
0.0013157334 0.079999998 0.029046005 0.19972187 0.52287865 -0.32315677
0.00030028223 0.079999998 0.029314984 0.19972187 0.52287865 -0.32315677
0.039999999 0.050038893 0.038131267 0.19972187 0.52287865 -0.32315677
0.039999999 0.052996304 0.036126055 0.19972187 0.52287865 -0.32315677
0.039999999 0.055920832 0.034143329 0.19972187 0.52287865 -0.32315677
0.039999999 0.058813035 0.032182701 0.19972187 0.52287865 -0.32315677
0.039999999 0.061673459 0.030243803 0.19972187 0.52287865 -0.32315677
0.039999999 0.064502642 0.028326262 0.19972187 0.52287865 -0.32315677
0.039999999 0.067301109 0.026429724 0.19972187 0.52287865 -0.32315677
0.039999999 0.070069365 0.024553839 0.19972187 0.52287865 -0.32315677
0.039999999 0.072807916 0.022698263 0.19972187 0.52287865 -0.32315677
0.039999999 0.075517252 0.020862661 0.19972187 0.52287865 -0.32315677
0.039999999 0.078197859 0.019046707 0.19972187 0.52287865 -0.32315677
0.039692793 0.079999998 0.017904814 0.19972187 0.52287865 -0.32315677
0.038736951 0.079999998 0.018150277 0.19972187 0.52287865 -0.32315677
0.037779767 0.079999998 0.018396264 0.19972187 0.52287865 -0.32315677
0.022162313 0.040146738 0.049400244 0.19972187 0.52287865 -0.32315677
0.035861339 0.079999998 0.018889815 0.19972187 0.52287865 -0.32315677
0.03490008 0.079999998 0.019137383 0.19972187 0.52287865 -0.32315677
0.033937443 0.079999998 0.019385485 0.19972187 0.52287865 -0.32315677
0.032973427 0.079999998 0.01963412 0.19972187 0.52287865 -0.32315677
0.032008018 0.079999998 0.019883294 0.19972187 0.52287865 -0.32315677
0.015972983 0.040437687 0.050799053 0.19972187 0.52287865 -0.32315677
0.015000287 0.040651772 0.0509056 0.19972187 0.52287865 -0.32315677
0.02910337 0.079999998 0.020634064 0.19972187 0.52287865 -0.32315677
0.028132318 0.079999998 0.020885414 0.19972187 0.52287865 -0.32315677
0.027159832 0.079999998 0.02113731 0.19972187 0.52287865 -0.32315677
0.026185909 0.079999998 0.021389762 0.19972187 0.52287865 -0.32315677
0.025210535 0.079999998 0.021642767 0.19972187 0.52287865 -0.32315677
0.024233706 0.079999998 0.021896331 0.19972187 0.52287865 -0.32315677
0.023255412 0.079999998 0.022150455 0.19972187 0.52287865 -0.32315677
0.022275643 0.079999998 0.02240514 0.19972187 0.52287865 -0.32315677
0.021294391 0.079999998 0.022660393 0.19972187 0.52287865 -0.32315677
0.02031165 0.079999998 0.022916213 0.19972187 0.52287865 -0.32315677
0.019327408 0.079999998 0.023172604 0.19972187 0.52287865 -0.32315677
0.018341659 0.079999998 0.023429567 0.19972187 0.52287865 -0.32315677
0.017354393 0.079999998 0.023687107 0.19972187 0.52287865 -0.32315677
0.016365601 0.079999998 0.023945227 0.19972187 0.52287865 -0.32315677
0.015375275 0.079999998 0.024203928 0.19972187 0.52287865 -0.32315677
0.014383405 0.079999998 0.024463212 0.19972187 0.52287865 -0.32315677
0.013389984 0.079999998 0.024723085 0.19972187 0.52287865 -0.32315677
0.012395002 0.079999998 0.024983546 0.19972187 0.52287865 -0.32315677
0.01139845 0.079999998 0.025244599 0.19972187 0.52287865 -0.32315677
0.00034152708 0.056469534 0.044030968 0.19972187 0.52287865 -0.32315677
0.0094006006 0.079999998 0.025768496 0.19972187 0.52287865 -0.32315677
0.0083992844 0.079999998 0.026031345 0.19972187 0.52287865 -0.32315677
0 0.062967986 0.039733838 0.19972187 0.52287865 -0.32315677
0.0063918252 0.079999998 0.026558856 0.19972187 0.52287865 -0.32315677
0 0.067726448 0.036522571 0.19972187 0.52287865 -0.32315677
0 0.070074618 0.034938183 0.19972187 0.52287865 -0.32315677
0.0033684287 0.079999998 0.0273547 0.19972187 0.52287865 -0.32315677
0.0023573374 0.079999998 0.027621213 0.19972187 0.52287865 -0.32315677
0.0013445839 0.079999998 0.027888348 0.19972187 0.52287865 -0.32315677
0.00033015927 0.079999998 0.028156107 0.19972187 0.52287865 -0.32315677
0.039999999 0.047110278 0.038930189 0.19972187 0.52287865 -0.32315677
0.039999999 0.050097588 0.036911186 0.19972187 0.52287865 -0.32315677
0.039999999 0.05305152 0.034914929 0.19972187 0.52287865 -0.32315677
0.039999999 0.055972636 0.032941028 0.19972187 0.52287865 -0.32315677
0.039999999 0.058861498 0.030989109 0.19972187 0.52287865 -0.32315677
0.039999999 0.061718654 0.029058792 0.19972187 0.52287865 -0.32315677
0.039999999 0.064544633 0.027149715 0.19972187 0.52287865 -0.32315677
0.039999999 0.067339964 0.025261525 0.19972187 0.52287865 -0.32315677
0.039999999 0.070105158 0.023393871 0.19972187 0.52287865 -0.32315677
0.039999999 0.072840706 0.021546416 0.19972187 0.52287865 -0.32315677
0.039999999 0.075547099 0.019718826 0.19972187 0.52287865 -0.32315677
0.039999999 0.078224815 0.017910775 0.19972187 0.52287865 -0.32315677
0.039684054 0.079999998 0.016793072 0.19972187 0.52287865 -0.32315677
0.03872912 0.079999998 0.017037522 0.19972187 0.52287865 -0.32315677
0.037772849 0.079999998 0.01728249 0.19972187 0.52287865 -0.32315677
0.036815226 0.079999998 0.017527979 0.19972187 0.52287865 -0.32315677
0.035856251 0.079999998 0.01777399 0.19972187 0.52287865 -0.32315677
0.034895908 0.079999998 0.018020524 0.19972187 0.52287865 -0.32315677
0.033934198 0.079999998 0.018267589 0.19972187 0.52287865 -0.32315677
0.032971103 0.079999998 0.018515181 0.19972187 0.52287865 -0.32315677
0.032006625 0.079999998 0.018763307 0.19972187 0.52287865 -0.32315677
0.015972516 0.040437791 0.049577795 0.19972187 0.52287865 -0.32315677
0.030073466 0.079999998 0.019261166 0.19972187 0.52287865 -0.32315677
0.029104771 0.079999998 0.019510904 0.19972187 0.52287865 -0.32315677
0.028134657 0.079999998 0.019761186 0.19972187 0.52287865 -0.32315677
0.027163113 0.079999998 0.020012012 0.19972187 0.52287865 -0.32315677
0.026190132 0.079999998 0.020263385 0.19972187 0.52287865 -0.32315677
0.025215706 0.079999998 0.020515308 0.19972187 0.52287865 -0.32315677
0.0095674722 0.042970162 0.049523901 0.19972187 0.52287865 -0.32315677
0.023262482 0.079999998 0.021020815 0.19972187 0.52287865 -0.32315677
0.02228367 0.079999998 0.021274403 0.19972187 0.52287865 -0.32315677
0.021303376 0.079999998 0.021528553 0.19972187 0.52287865 -0.32315677
0.020321595 0.079999998 0.021783264 0.19972187 0.52287865 -0.32315677
0.019338317 0.079999998 0.022038542 0.19972187 0.52287865 -0.32315677
0.018353535 0.079999998 0.022294389 0.19972187 0.52287865 -0.32315677
0.017367238 0.079999998 0.022550805 0.19972187 0.52287865 -0.32315677
0.016379418 0.079999998 0.022807796 0.19972187 0.52287865 -0.32315677
0.015390068 0.079999998 0.023065362 0.19972187 0.52287865 -0.32315677
0.014399177 0.079999998 0.023323508 0.19972187 0.52287865 -0.32315677
0.013406738 0.079999998 0.023582235 0.19972187 0.52287865 -0.32315677
0.012412741 0.079999998 0.023841547 0.19972187 0.52287865 -0.32315677
0.011417177 0.079999998 0.024101447 0.19972187 0.52287865 -0.32315677
0.010420037 0.079999998 0.024361936 0.19972187 0.52287865 -0.32315677
0.0094213123 0.079999998 0.024623018 0.19972187 0.52287865 -0.32315677
0.0084209945 0.079999998 0.024884695 0.19972187 0.52287865 -0.32315677
0 0.062913671 0.038584583 0.19972187 0.52287865 -0.32315677
0 0.065301538 0.036978237 0.19972187 0.52287865 -0.32315677
0.0054103849 0.079999998 0.025673328 0.19972187 0.52287865 -0.32315677
0.0044036 0.079999998 0.025937416 0.19972187 0.52287865 -0.32315677
0.0033951751 0.079999998 0.026202112 0.19972187 0.52287865 -0.32315677
0.002385101 0.079999998 0.026467422 0.19972187 0.52287865 -0.32315677
0.0013733684 0.079999998 0.026733348 0.19972187 0.52287865 -0.32315677
0.00035996773 0.079999998 0.026999891 0.19972187 0.52287865 -0.32315677
0.039999999 0.044154726 0.039737038 0.19972187 0.52287865 -0.32315677
0.039999999 0.047172382 0.037704065 0.19972187 0.52287865 -0.32315677
0.039999999 0.050156146 0.035694107 0.19972187 0.52287865 -0.32315677
0.039999999 0.053106599 0.033706769 0.19972187 0.52287865 -0.32315677
0.039999999 0.056024313 0.031741664 0.19972187 0.52287865 -0.32315677
0.039999999 0.058909845 0.029798409 0.19972187 0.52287865 -0.32315677
0.039999999 0.061763741 0.027876642 0.19972187 0.52287865 -0.32315677
0.039999999 0.064586528 0.025975995 0.19972187 0.52287865 -0.32315677
0.039999999 0.067378737 0.024096118 0.19972187 0.52287865 -0.32315677
0.039999999 0.070140861 0.022236666 0.19972187 0.52287865 -0.32315677
0.039999999 0.072873414 0.020397298 0.19972187 0.52287865 -0.32315677
0.039999999 0.075576872 0.018577687 0.19972187 0.52287865 -0.32315677
0.039999999 0.078251712 0.01677751 0.19972187 0.52287865 -0.32315677
0.039675333 0.079999998 0.015683809 0.19972187 0.52287865 -0.32315677
0.038721308 0.079999998 0.015927248 0.19972187 0.52287865 -0.32315677
0.037765946 0.079999998 0.0161712 0.19972187 0.52287865 -0.32315677
0.036809236 0.079999998 0.016415669 0.19972187 0.52287865 -0.32315677
0.035851173 0.079999998 0.016660655 0.19972187 0.52287865 -0.32315677
0.020015495 0.040029299 0.047597535 0.19972187 0.52287865 -0.32315677
0.033930957 0.079999998 0.01715219 0.19972187 0.52287865 -0.32315677
0.032968786 0.079999998 0.017398745 0.19972187 0.52287865 -0.32315677
0.032005232 0.079999998 0.017645828 0.19972187 0.52287865 -0.32315677
0.031040281 0.079999998 0.017893439 0.19972187 0.52287865 -0.32315677
0.015001222 0.040651567 0.048464913 0.19972187 0.52287865 -0.32315677
0.02910617 0.079999998 0.018390264 0.19972187 0.52287865 -0.32315677
0.028136991 0.079999998 0.018639483 0.19972187 0.52287865 -0.32315677
0.027166387 0.079999998 0.018889239 0.19972187 0.52287865 -0.32315677
0.011311328 0.042015415 0.048497431 0.19972187 0.52287865 -0.32315677
0.025220865 0.079999998 0.019390384 0.19972187 0.52287865 -0.32315677
0.024245931 0.079999998 0.019641776 0.19972187 0.52287865 -0.32315677
0.023269538 0.079999998 0.019893719 0.19972187 0.52287865 -0.32315677
0.0079107536 0.04410417 0.047971319 0.19972187 0.52287865 -0.32315677
0.021312339 0.079999998 0.020399265 0.19972187 0.52287865 -0.32315677
0.020331517 0.079999998 0.020652872 0.19972187 0.52287865 -0.32315677
0.019349201 0.079999998 0.020907041 0.19972187 0.52287865 -0.32315677
0.018365383 0.079999998 0.021161772 0.19972187 0.52287865 -0.32315677
0.017380053 0.079999998 0.02141707 0.19972187 0.52287865 -0.32315677
0.016393205 0.079999998 0.021672936 0.19972187 0.52287865 -0.32315677
0.015404827 0.079999998 0.021929374 0.19972187 0.52287865 -0.32315677
0.014414913 0.079999998 0.022186385 0.19972187 0.52287865 -0.32315677
0.013423453 0.079999998 0.022443973 0.19972187 0.52287865 -0.32315677
0.012430439 0.079999998 0.022702139 0.19972187 0.52287865 -0.32315677
0.011435861 0.079999998 0.022960886 0.19972187 0.52287865 -0.32315677
0.01043971 0.079999998 0.023220221 0.19972187 0.52287865 -0.32315677
9.5145086e-05 0.058245141 0.040507462 0.19972187 0.52287865 -0.32315677
0.0084426543 0.079999998 0.023740651 0.19972187 0.52287865 -0.32315677
0 0.062859468 0.037437674 0.19972187 0.52287865 -0.32315677
0.0064392001 0.079999998 0.024263453 0.19972187 0.52287865 -0.32315677
0.0054350505 0.079999998 0.02452575 0.19972187 0.52287865 -0.32315677
0.0044292738 0.079999998 0.02478865 0.19972187 0.52287865 -0.32315677
0.0034218605 0.079999998 0.025052154 0.19972187 0.52287865 -0.32315677
0.0024128014 0.079999998 0.025316264 0.19972187 0.52287865 -0.32315677
0 0.076868922 0.028046502 0.19972187 0.52287865 -0.32315677
0.00038970806 0.079999998 0.025846319 0.19972187 0.52287865 -0.32315677
0.039999999 0.044220299 0.038504794 0.19972187 0.52287865 -0.32315677
0.039999999 0.047234334 0.036480963 0.19972187 0.52287865 -0.32315677
0.039999999 0.050214555 0.034480013 0.19972187 0.52287865 -0.32315677
0.039999999 0.053161543 0.032501556 0.19972187 0.52287865 -0.32315677
0.039999999 0.056075864 0.030545209 0.19972187 0.52287865 -0.32315677
0.039999999 0.058958076 0.028610589 0.19972187 0.52287865 -0.32315677
0.039999999 0.061808717 0.026697334 0.19972187 0.52287865 -0.32315677
0.039999999 0.064628325 0.024805086 0.19972187 0.52287865 -0.32315677
0.039999999 0.067417413 0.022933489 0.19972187 0.52287865 -0.32315677
0.039999999 0.070176482 0.021082204 0.19972187 0.52287865 -0.32315677
0.039999999 0.072906047 0.019250894 0.19972187 0.52287865 -0.32315677
0.039999999 0.075606577 0.017439231 0.19972187 0.52287865 -0.32315677
0.039999999 0.078278549 0.015646895 0.19972187 0.52287865 -0.32315677
0.039666634 0.079999998 0.014577007 0.19972187 0.52287865 -0.32315677
0.038713511 0.079999998 0.01481944 0.19972187 0.52287865 -0.32315677
0.037759058 0.079999998 0.015062382 0.19972187 0.52287865 -0.32315677
0.036803257 0.079999998 0.015305834 0.19972187 0.52287865 -0.32315677
0.021055985 0.040029299 0.046118759 0.19972187 0.52287865 -0.32315677
0.034887601 0.079999998 0.015794281 0.19972187 0.52287865 -0.32315677
0.033927724 0.079999998 0.01603928 0.19972187 0.52287865 -0.32315677
0.032966476 0.079999998 0.016284799 0.19972187 0.52287865 -0.32315677
0.032003842 0.079999998 0.016530842 0.19972187 0.52287865 -0.32315677
0.015971581 0.040437996 0.047143463 0.19972187 0.52287865 -0.32315677
0.030074395 0.079999998 0.017024504 0.19972187 0.52287865 -0.32315677
0.029107565 0.079999998 0.01727213 0.19972187 0.52287865 -0.32315677
0.028139321 0.079999998 0.017520286 0.19972187 0.52287865 -0.32315677
0.027169652 0.079999998 0.017768979 0.19972187 0.52287865 -0.32315677
0.011315193 0.042013627 0.047281306 0.19972187 0.52287865 -0.32315677
0.025226012 0.079999998 0.01826798 0.19972187 0.52287865 -0.32315677
0.024252024 0.079999998 0.018518293 0.19972187 0.52287865 -0.32315677
0.023276579 0.079999998 0.018769151 0.19972187 0.52287865 -0.32315677
0.0079173744 0.044099137 0.046758316 0.19972187 0.52287865 -0.32315677
0.021321284 0.079999998 0.019272512 0.19972187 0.52287865 -0.32315677
0.006340018 0.045431457 0.046272777 0.19972187 0.52287865 -0.32315677
0.01936006 0.079999998 0.019778086 0.19972187 0.52287865 -0.32315677
0.018377203 0.079999998 0.020031707 0.19972187 0.52287865 -0.32315677
0.01739284 0.079999998 0.02028589 0.19972187 0.52287865 -0.32315677
0.016406959 0.079999998 0.020540636 0.19972187 0.52287865 -0.32315677
0.0028308374 0.049749304 0.044289537 0.19972187 0.52287865 -0.32315677
0.014430614 0.079999998 0.021051828 0.19972187 0.52287865 -0.32315677
0.013440131 0.079999998 0.021308281 0.19972187 0.52287865 -0.32315677
0.012448097 0.079999998 0.021565305 0.19972187 0.52287865 -0.32315677
0.011454502 0.079999998 0.021822907 0.19972187 0.52287865 -0.32315677
0.010459338 0.079999998 0.022081088 0.19972187 0.52287865 -0.32315677
0.0094625959 0.079999998 0.022339853 0.19972187 0.52287865 -0.32315677
0.0084642656 0.079999998 0.0225992 0.19972187 0.52287865 -0.32315677
0.007464339 0.079999998 0.022859136 0.19972187 0.52287865 -0.32315677
0.0064628068 0.079999998 0.023119662 0.19972187 0.52287865 -0.32315677
0.0044548893 0.079999998 0.023642497 0.19972187 0.52287865 -0.32315677
0.0034484852 0.079999998 0.023904812 0.19972187 0.52287865 -0.32315677
2.7755576e-17 0.074521437 0.02846425 0.19972187 0.52287865 -0.32315677
0.0014307402 0.079999998 0.024431247 0.19972187 0.52287865 -0.32315677
0.00041938061 0.079999998 0.024695376 0.19972187 0.52287865 -0.32315677
0.039999999 0.041240945 0.039313484 0.19972187 0.52287865 -0.32315677
0.039999999 0.044285707 0.037275597 0.19972187 0.52287865 -0.32315677
0.039999999 0.047296133 0.035260867 0.19972187 0.52287865 -0.32315677
0.039999999 0.050272822 0.033268891 0.19972187 0.52287865 -0.32315677
0.039999999 0.053216353 0.031299278 0.19972187 0.52287865 -0.32315677
0.039999999 0.056127291 0.02935165 0.19972187 0.52287865 -0.32315677
0.039999999 0.059006188 0.027425632 0.19972187 0.52287865 -0.32315677
0.039999999 0.061853588 0.025520856 0.19972187 0.52287865 -0.32315677
0.039999999 0.064670019 0.023636971 0.19972187 0.52287865 -0.32315677
0.039999999 0.067455992 0.021773621 0.19972187 0.52287865 -0.32315677
0.039999999 0.070212021 0.019930473 0.19972187 0.52287865 -0.32315677
0.039999999 0.072938599 0.018107189 0.19972187 0.52287865 -0.32315677
0.039999999 0.075636208 0.016303444 0.19972187 0.52287865 -0.32315677
0.039999999 0.078305319 0.014518918 0.19972187 0.52287865 -0.32315677
0.02548057 0.040772796 0.043289021 0.19972187 0.52287865 -0.32315677
0.038705736 0.079999998 0.013714085 0.19972187 0.52287865 -0.32315677
0.037752185 0.079999998 0.013956019 0.19972187 0.52287865 -0.32315677
0.022135133 0.04014378 0.044558253 0.19972187 0.52287865 -0.32315677
0.021050476 0.040029299 0.04491033 0.19972187 0.52287865 -0.32315677
0.020006455 0.040029299 0.045175765 0.19972187 0.52287865 -0.32315677
0.033924498 0.079999998 0.01492884 0.19972187 0.52287865 -0.32315677
0.032964166 0.079999998 0.015173328 0.19972187 0.52287865 -0.32315677
0.032002456 0.079999998 0.015418334 0.19972187 0.52287865 -0.32315677
0.031039355 0.079999998 0.01566386 0.19972187 0.52287865 -0.32315677
0.030074859 0.079999998 0.01590991 0.19972187 0.52287865 -0.32315677
0.029108958 0.079999998 0.016156485 0.19972187 0.52287865 -0.32315677
0.028141644 0.079999998 0.016403588 0.19972187 0.52287865 -0.32315677
0.02717291 0.079999998 0.016651219 0.19972187 0.52287865 -0.32315677
0.01131905 0.042011842 0.046067886 0.19972187 0.52287865 -0.32315677
0.025231147 0.079999998 0.017148083 0.19972187 0.52287865 -0.32315677
0.024258101 0.079999998 0.017397322 0.19972187 0.52287865 -0.32315677
0.023283603 0.079999998 0.017647099 0.19972187 0.52287865 -0.32315677
0.02230764 0.079999998 0.01789742 0.19972187 0.52287865 -0.32315677
0.021330208 0.079999998 0.018148284 0.19972187 0.52287865 -0.32315677
0.020351294 0.079999998 0.018399699 0.19972187 0.52287865 -0.32315677
0.019370895 0.079999998 0.018651661 0.19972187 0.52287865 -0.32315677
0.018389 0.079999998 0.018904177 0.19972187 0.52287865 -0.32315677
0.017405597 0.079999998 0.019157249 0.19972187 0.52287865 -0.32315677
0.0034915661 0.048761632 0.04357383 0.19972187 0.52287865 -0.32315677
0.015434247 0.079999998 0.01966507 0.19972187 0.52287865 -0.32315677
0.014446279 0.079999998 0.019919824 0.19972187 0.52287865 -0.32315677
0.013456771 0.079999998 0.020175144 0.19972187 0.52287865 -0.32315677
0.012465715 0.079999998 0.020431032 0.19972187 0.52287865 -0.32315677
0.011473102 0.079999998 0.020687493 0.19972187 0.52287865 -0.32315677
0 0.055476546 0.039998397 0.19972187 0.52287865 -0.32315677
0.009483167 0.079999998 0.021202138 0.19972187 0.52287865 -0.32315677
0.0084858276 0.079999998 0.021460328 0.19972187 0.52287865 -0.32315677
0.0074868952 0.079999998 0.0217191 0.19972187 0.52287865 -0.32315677
0.0064863604 0.079999998 0.021978458 0.19972187 0.52287865 -0.32315677
0.0054842141 0.079999998 0.022238404 0.19972187 0.52287865 -0.32315677
0 0.069836713 0.030431129 0.19972187 0.52287865 -0.32315677
0.0034750495 0.079999998 0.022760069 0.19972187 0.52287865 -0.32315677
0.0024680132 0.079999998 0.023021795 0.19972187 0.52287865 -0.32315677
0.0014593285 0.079999998 0.023284119 0.19972187 0.52287865 -0.32315677
0.00044898572 0.079999998 0.023547046 0.19972187 0.52287865 -0.32315677
0.039999999 0.041309871 0.038078111 0.19972187 0.52287865 -0.32315677
0.039999999 0.044350956 0.036049422 0.19972187 0.52287865 -0.32315677
0.039999999 0.047357783 0.034043759 0.19972187 0.52287865 -0.32315677
0.039999999 0.050330952 0.032060716 0.19972187 0.52287865 -0.32315677
0.039999999 0.053271033 0.030099917 0.19972187 0.52287865 -0.32315677
0.039999999 0.056178596 0.028160974 0.19972187 0.52287865 -0.32315677
0.039999999 0.059054188 0.026243519 0.19972187 0.52287865 -0.32315677
0.039999999 0.061898351 0.024347192 0.19972187 0.52287865 -0.32315677
0.039999999 0.064711615 0.022471635 0.19972187 0.52287865 -0.32315677
0.039999999 0.067494489 0.020616502 0.19972187 0.52287865 -0.32315677
0.039999999 0.070247479 0.018781457 0.19972187 0.52287865 -0.32315677
0.039999999 0.072971076 0.016966166 0.19972187 0.52287865 -0.32315677
0.039999999 0.075665772 0.015170307 0.19972187 0.52287865 -0.32315677
0.039999999 0.078332029 0.013393561 0.19972187 0.52287865 -0.32315677
0.039649293 0.079999998 0.012370738 0.19972187 0.52287865 -0.32315677
0.038697973 0.079999998 0.012611169 0.19972187 0.52287865 -0.32315677
0.037745327 0.079999998 0.0128521 0.19972187 0.52287865 -0.32315677
0.036791343 0.079999998 0.013093532 0.19972187 0.52287865 -0.32315677
0.021044977 0.040029299 0.043704577 0.19972187 0.52287865 -0.32315677
0.02000195 0.040029299 0.043968901 0.19972187 0.52287865 -0.32315677
0.033921279 0.079999998 0.013820859 0.19972187 0.52287865 -0.32315677
0.032961864 0.079999998 0.014064319 0.19972187 0.52287865 -0.32315677
0.032001071 0.079999998 0.014308293 0.19972187 0.52287865 -0.32315677
0.031038893 0.079999998 0.014552782 0.19972187 0.52287865 -0.32315677
0.030075321 0.079999998 0.01479779 0.19972187 0.52287865 -0.32315677
0.014058554 0.040928092 0.044880211 0.19972187 0.52287865 -0.32315677
0.028143963 0.079999998 0.015289368 0.19972187 0.52287865 -0.32315677
0.027176162 0.079999998 0.015535944 0.19972187 0.52287865 -0.32315677
0.026206935 0.079999998 0.015783047 0.19972187 0.52287865 -0.32315677
0.025236271 0.079999998 0.01603068 0.19972187 0.52287865 -0.32315677
0.024264166 0.079999998 0.016278846 0.19972187 0.52287865 -0.32315677
0.02329061 0.079999998 0.016527548 0.19972187 0.52287865 -0.32315677
0.022315595 0.079999998 0.016776787 0.19972187 0.52287865 -0.32315677
0.021339111 0.079999998 0.017026566 0.19972187 0.52287865 -0.32315677
0.020361152 0.079999998 0.017276889 0.19972187 0.52287865 -0.32315677
0.019381706 0.079999998 0.017527755 0.19972187 0.52287865 -0.32315677
0.018400768 0.079999998 0.01777917 0.19972187 0.52287865 -0.32315677
0.017418327 0.079999998 0.018031135 0.19972187 0.52287865 -0.32315677
0.016434377 0.079999998 0.018283652 0.19972187 0.52287865 -0.32315677
0.015448907 0.079999998 0.018536726 0.19972187 0.52287865 -0.32315677
0.014461909 0.079999998 0.018790359 0.19972187 0.52287865 -0.32315677
0.013473375 0.079999998 0.019044552 0.19972187 0.52287865 -0.32315677
0.012483294 0.079999998 0.019299308 0.19972187 0.52287865 -0.32315677
0.01149166 0.079999998 0.01955463 0.19972187 0.52287865 -0.32315677
0 0.055428278 0.038838975 0.19972187 0.52287865 -0.32315677
0.0095036924 0.079999998 0.020066984 0.19972187 0.52287865 -0.32315677
0.0085073421 0.079999998 0.02032402 0.19972187 0.52287865 -0.32315677
0.0075094011 0.079999998 0.020581635 0.19972187 0.52287865 -0.32315677
0.0065098605 0.079999998 0.020839827 0.19972187 0.52287865 -0.32315677
0.0055087125 0.079999998 0.021098604 0.19972187 0.52287865 -0.32315677
0.0045059463 0.079999998 0.021357965 0.19972187 0.52287865 -0.32315677
0.0035015538 0.079999998 0.021617914 0.19972187 0.52287865 -0.32315677
0.0024955254 0.079999998 0.021878453 0.19972187 0.52287865 -0.32315677
0.001487852 0.079999998 0.022139587 0.19972187 0.52287865 -0.32315677
0.00047852381 0.079999998 0.022401318 0.19972187 0.52287865 -0.32315677
0.039999999 0.038306434 0.038888615 0.19972187 0.52287865 -0.32315677
0.039999999 0.041378628 0.036845788 0.19972187 0.52287865 -0.32315677
0.039999999 0.04441604 0.03482626 0.19972187 0.52287865 -0.32315677
0.039999999 0.04741928 0.03282962 0.19972187 0.52287865 -0.32315677
0.039999999 0.050388936 0.030855481 0.19972187 0.52287865 -0.32315677
0.039999999 0.053325579 0.028903455 0.19972187 0.52287865 -0.32315677
0.039999999 0.056229774 0.026973162 0.19972187 0.52287865 -0.32315677
0.039999999 0.05910207 0.025064239 0.19972187 0.52287865 -0.32315677
0.039999999 0.061943006 0.023176322 0.19972187 0.52287865 -0.32315677
0.039999999 0.064753108 0.021309061 0.19972187 0.52287865 -0.32315677
0.039999999 0.06753289 0.019462112 0.19972187 0.52287865 -0.32315677
0.039999999 0.070282847 0.017635139 0.19972187 0.52287865 -0.32315677
0.039999999 0.073003486 0.015827812 0.19972187 0.52287865 -0.32315677
0.039999999 0.075695269 0.014039808 0.19972187 0.52287865 -0.32315677
0.039999999 0.07835868 0.012270814 0.19972187 0.52287865 -0.32315677
0.03964065 0.079999998 0.011271244 0.19972187 0.52287865 -0.32315677
0.038690232 0.079999998 0.01151068 0.19972187 0.52287865 -0.32315677
0.037738483 0.079999998 0.011750611 0.19972187 0.52287865 -0.32315677
0.036785405 0.079999998 0.011991038 0.19972187 0.52287865 -0.32315677
0.035830978 0.079999998 0.012231964 0.19972187 0.52287865 -0.32315677
0.034875203 0.079999998 0.012473391 0.19972187 0.52287865 -0.32315677
0.033918068 0.079999998 0.012715322 0.19972187 0.52287865 -0.32315677
0.032959569 0.079999998 0.012957759 0.19972187 0.52287865 -0.32315677
0.031999692 0.079999998 0.013200705 0.19972187 0.52287865 -0.32315677
0.031038433 0.079999998 0.013444161 0.19972187 0.52287865 -0.32315677
0.015003081 0.040651157 0.043616094 0.19972187 0.52287865 -0.32315677
0.029111734 0.079999998 0.013932615 0.19972187 0.52287865 -0.32315677
0.028146278 0.079999998 0.014177618 0.19972187 0.52287865 -0.32315677
0.027179405 0.079999998 0.01442314 0.19972187 0.52287865 -0.32315677
0.011326737 0.042008284 0.043649103 0.19972187 0.52287865 -0.32315677
0.025241384 0.079999998 0.014915757 0.19972187 0.52287865 -0.32315677
0.024270218 0.079999998 0.015162856 0.19972187 0.52287865 -0.32315677
0.023297602 0.079999998 0.015410485 0.19972187 0.52287865 -0.32315677
0.022323532 0.079999998 0.015658647 0.19972187 0.52287865 -0.32315677
0.021347994 0.079999998 0.015907343 0.19972187 0.52287865 -0.32315677
0.020370984 0.079999998 0.016156578 0.19972187 0.52287865 -0.32315677
0.019392492 0.079999998 0.016406352 0.19972187 0.52287865 -0.32315677
0.01841251 0.079999998 0.016656669 0.19972187 0.52287865 -0.32315677
0.017431028 0.079999998 0.016907532 0.19972187 0.52287865 -0.32315677
0.01644804 0.079999998 0.017158942 0.19972187 0.52287865 -0.32315677
0.015463535 0.079999998 0.017410904 0.19972187 0.52287865 -0.32315677
0.014477504 0.079999998 0.017663417 0.19972187 0.52287865 -0.32315677
0.01348994 0.079999998 0.017916488 0.19972187 0.52287865 -0.32315677
0.00052693509 0.051675275 0.039999999 0.19972187 0.52287865 -0.32315677
0.011510177 0.079999998 0.018424304 0.19972187 0.52287865 -0.32315677
0.010517959 0.079999998 0.018679056 0.19972187 0.52287865 -0.32315677
0.0095241722 0.079999998 0.018934375 0.19972187 0.52287865 -0.32315677
0 0.060243912 0.0344618 0.19972187 0.52287865 -0.32315677
0 0.062643752 0.032873228 0.19972187 0.52287865 -0.32315677
0.0065333084 0.079999998 0.019703757 0.19972187 0.52287865 -0.32315677
0.0055331555 0.079999998 0.019961366 0.19972187 0.52287865 -0.32315677
0.0045313886 0.079999998 0.020219557 0.19972187 0.52287865 -0.32315677
0.0035279985 0.079999998 0.020478331 0.19972187 0.52287865 -0.32315677
0.0025229757 0.079999998 0.020737689 0.19972187 0.52287865 -0.32315677
0.0015163111 0.079999998 0.020997636 0.19972187 0.52287865 -0.32315677
0 0.078870662 0.022136431 0.19972187 0.52287865 -0.32315677
0.039999999 0.03527499 0.039707214 0.19972187 0.52287865 -0.32315677
0.039999999 0.03837876 0.037650067 0.19972187 0.52287865 -0.32315677
0.039999999 0.041447215 0.035616495 0.19972187 0.52287865 -0.32315677
0.039999999 0.044480972 0.033606086 0.19972187 0.52287865 -0.32315677
0.039999999 0.047480632 0.031618439 0.19972187 0.52287865 -0.32315677
0.039999999 0.050446779 0.029653162 0.19972187 0.52287865 -0.32315677
0.039999999 0.053379994 0.027709873 0.19972187 0.52287865 -0.32315677
0.039999999 0.056280829 0.025788199 0.19972187 0.52287865 -0.32315677
0.039999999 0.059149839 0.023887772 0.19972187 0.52287865 -0.32315677
0.039999999 0.061987557 0.022008235 0.19972187 0.52287865 -0.32315677
0.039999999 0.064794503 0.020149238 0.19972187 0.52287865 -0.32315677
0.039999999 0.0675712 0.018310441 0.19972187 0.52287865 -0.32315677
0.039999999 0.07031814 0.016491506 0.19972187 0.52287865 -0.32315677
0.039999999 0.073035806 0.01469211 0.19972187 0.52287865 -0.32315677
0.039999999 0.075724699 0.012911932 0.19972187 0.52287865 -0.32315677
0.039999999 0.078385264 0.011150658 0.19972187 0.52287865 -0.32315677
0.039632026 0.079999998 0.01017416 0.19972187 0.52287865 -0.32315677
0.038682505 0.079999998 0.010412604 0.19972187 0.52287865 -0.32315677
0.037731659 0.079999998 0.010651538 0.19972187 0.52287865 -0.32315677
0.036779478 0.079999998 0.010890964 0.19972187 0.52287865 -0.32315677
0.035825957 0.079999998 0.011130884 0.19972187 0.52287865 -0.32315677
0.03487109 0.079999998 0.011371301 0.19972187 0.52287865 -0.32315677
0.033914864 0.079999998 0.011612217 0.19972187 0.52287865 -0.32315677
0.032957274 0.079999998 0.011853634 0.19972187 0.52287865 -0.32315677
0.031998314 0.079999998 0.012095555 0.19972187 0.52287865 -0.32315677
0.031037973 0.079999998 0.012337982 0.19972187 0.52287865 -0.32315677
0.030076243 0.079999998 0.012580916 0.19972187 0.52287865 -0.32315677
0.029113118 0.079999998 0.012824362 0.19972187 0.52287865 -0.32315677
0.028148586 0.079999998 0.013068321 0.19972187 0.52287865 -0.32315677
0.012220513 0.041594777 0.042490516 0.19972187 0.52287865 -0.32315677
0.026215279 0.079999998 0.013557787 0.19972187 0.52287865 -0.32315677
0.025246486 0.079999998 0.0138033 0.19972187 0.52287865 -0.32315677
0.0095993504 0.04295098 0.042258315 0.19972187 0.52287865 -0.32315677
0.02330458 0.079999998 0.014295896 0.19972187 0.52287865 -0.32315677
0.02233145 0.079999998 0.014542984 0.19972187 0.52287865 -0.32315677
0.0071370504 0.044692349 0.041732807 0.19972187 0.52287865 -0.32315677
0.020380797 0.079999998 0.015038753 0.19972187 0.52287865 -0.32315677
0.019403255 0.079999998 0.015287439 0.19972187 0.52287865 -0.32315677
0.018424226 0.079999998 0.015536663 0.19972187 0.52287865 -0.32315677
0.017443702 0.079999998 0.015786428 0.19972187 0.52287865 -0.32315677
0.016461672 0.079999998 0.016036734 0.19972187 0.52287865 -0.32315677
0.015478129 0.079999998 0.016287588 0.19972187 0.52287865 -0.32315677
0.014493065 0.079999998 0.016538987 0.19972187 0.52287865 -0.32315677
0.00079308823 0.04976359 0.039999999 0.19972187 0.52287865 -0.32315677
0.012518334 0.079999998 0.017043442 0.19972187 0.52287865 -0.32315677
0.011528651 0.079999998 0.017296502 0.19972187 0.52287865 -0.32315677
0.010537411 0.079999998 0.01755012 0.19972187 0.52287865 -0.32315677
0.0095446054 0.079999998 0.017804299 0.19972187 0.52287865 -0.32315677
0.0085502248 0.079999998 0.018059041 0.19972187 0.52287865 -0.32315677
0.0075542605 0.079999998 0.01831435 0.19972187 0.52287865 -0.32315677
0.0065567032 0.079999998 0.018570229 0.19972187 0.52287865 -0.32315677
0.0055575441 0.079999998 0.01882668 0.19972187 0.52287865 -0.32315677
0 0.069659531 0.027074439 0.19972187 0.52287865 -0.32315677
0.0035543838 0.079999998 0.019341307 0.19972187 0.52287865 -0.32315677
0.0025503642 0.079999998 0.019599488 0.19972187 0.52287865 -0.32315677
0.0015447063 0.079999998 0.019858252 0.19972187 0.52287865 -0.32315677
0.00053740037 0.079999998 0.020117603 0.19972187 0.52287865 -0.32315677
0.039999999 0.035350949 0.038462363 0.19972187 0.52287865 -0.32315677
0.039999999 0.038450904 0.036414567 0.19972187 0.52287865 -0.32315677
0.039999999 0.041515633 0.034390211 0.19972187 0.52287865 -0.32315677
0.039999999 0.04454574 0.032388888 0.19972187 0.52287865 -0.32315677
0.039999999 0.047541831 0.030410195 0.19972187 0.52287865 -0.32315677
0.039999999 0.050504483 0.028453747 0.19972187 0.52287865 -0.32315677
0.039999999 0.053434275 0.026519163 0.19972187 0.52287865 -0.32315677
0.039999999 0.056331765 0.02460607 0.19972187 0.52287865 -0.32315677
0.039999999 0.059197493 0.022714105 0.19972187 0.52287865 -0.32315677
0.039999999 0.062031999 0.020842914 0.19972187 0.52287865 -0.32315677
0.039999999 0.064835809 0.018992146 0.19972187 0.52287865 -0.32315677
0.039999999 0.067609422 0.017161468 0.19972187 0.52287865 -0.32315677
0.039999999 0.070353344 0.015350543 0.19972187 0.52287865 -0.32315677
0.039999999 0.07306806 0.013559048 0.19972187 0.52287865 -0.32315677
0.039999999 0.075754054 0.011786664 0.19972187 0.52287865 -0.32315677
0.039999999 0.078411788 0.010033081 0.19972187 0.52287865 -0.32315677
0.039623421 0.079999998 0.0090794712 0.19972187 0.52287865 -0.32315677
0.038674794 0.079999998 0.0093169278 0.19972187 0.52287865 -0.32315677
0.037724845 0.079999998 0.0095548686 0.19972187 0.52287865 -0.32315677
0.036773566 0.079999998 0.0097932974 0.19972187 0.52287865 -0.32315677
0.03582095 0.079999998 0.010032215 0.19972187 0.52287865 -0.32315677
0.034866985 0.079999998 0.010271626 0.19972187 0.52287865 -0.32315677
0.033911668 0.079999998 0.010511531 0.19972187 0.52287865 -0.32315677
0.017943813 0.040135194 0.040808033 0.19972187 0.52287865 -0.32315677
0.031996939 0.079999998 0.010992831 0.19972187 0.52287865 -0.32315677
0.031037515 0.079999998 0.011234232 0.19972187 0.52287865 -0.32315677
0.030076703 0.079999998 0.011476137 0.19972187 0.52287865 -0.32315677
0.029114496 0.079999998 0.011718547 0.19972187 0.52287865 -0.32315677
0.02815089 0.079999998 0.011961466 0.19972187 0.52287865 -0.32315677
0.027185872 0.079999998 0.012204895 0.19972187 0.52287865 -0.32315677
0.01133439 0.042004745 0.041240972 0.19972187 0.52287865 -0.32315677
0.025251577 0.079999998 0.012693295 0.19972187 0.52287865 -0.32315677
0.02428228 0.079999998 0.01293827 0.19972187 0.52287865 -0.32315677
0.023311542 0.079999998 0.013183767 0.19972187 0.52287865 -0.32315677
0.022339353 0.079999998 0.013429785 0.19972187 0.52287865 -0.32315677
0.021365704 0.079999998 0.01367633 0.19972187 0.52287865 -0.32315677
0.020390587 0.079999998 0.013923401 0.19972187 0.52287865 -0.32315677
0.019413995 0.079999998 0.014171003 0.19972187 0.52287865 -0.32315677
0.018435918 0.079999998 0.014419138 0.19972187 0.52287865 -0.32315677
0.017456347 0.079999998 0.014667808 0.19972187 0.52287865 -0.32315677
0.0028795099 0.047141142 0.039999999 0.19972187 0.52287865 -0.32315677
0.0019701128 0.047492329 0.039999999 0.19972187 0.52287865 -0.32315677
0.01450859 0.079999998 0.015417054 0.19972187 0.52287865 -0.32315677
0.013522961 0.079999998 0.015667889 0.19972187 0.52287865 -0.32315677
0.012535796 0.079999998 0.015919274 0.19972187 0.52287865 -0.32315677
0.011547086 0.079999998 0.01617121 0.19972187 0.52287865 -0.32315677
0.010556821 0.079999998 0.016423697 0.19972187 0.52287865 -0.32315677
0.0095649939 0.079999998 0.016676741 0.19972187 0.52287865 -0.32315677
0.008571595 0.079999998 0.016930344 0.19972187 0.52287865 -0.32315677
0 0.062536538 0.030604742 0.19972187 0.52287865 -0.32315677
0 0.064911805 0.029042818 0.19972187 0.52287865 -0.32315677
0.0055818781 0.079999998 0.017694527 0.19972187 0.52287865 -0.32315677
0.0045821024 0.079999998 0.017950391 0.19972187 0.52287865 -0.32315677
0 0.071914904 0.024438685 0.19972187 0.52287865 -0.32315677
0.0025776916 0.079999998 0.018463835 0.19972187 0.52287865 -0.32315677
0.0015730378 0.079999998 0.018721422 0.19972187 0.52287865 -0.32315677
0.00056673959 0.079999998 0.018979589 0.19972187 0.52287865 -0.32315677
0.039999999 0.03229478 0.039282788 0.19972187 0.52287865 -0.32315677
0.039999999 0.035426714 0.037220586 0.19972187 0.52287865 -0.32315677
0.039999999 0.038522873 0.035182104 0.19972187 0.52287865 -0.32315677
0.039999999 0.041583885 0.033166923 0.19972187 0.52287865 -0.32315677
0.039999999 0.044610355 0.031174647 0.19972187 0.52287865 -0.32315677
0.039999999 0.047602881 0.029204873 0.19972187 0.52287865 -0.32315677
0.039999999 0.05056205 0.027257217 0.19972187 0.52287865 -0.32315677
0.039999999 0.05348843 0.0253313 0.19972187 0.52287865 -0.32315677
0.039999999 0.056382578 0.023426754 0.19972187 0.52287865 -0.32315677
0.039999999 0.059245035 0.02154322 0.19972187 0.52287865 -0.32315677
0.039999999 0.062076341 0.019680342 0.19972187 0.52287865 -0.32315677
0.039999999 0.064877011 0.017837774 0.19972187 0.52287865 -0.32315677
0.039999999 0.067647554 0.016015183 0.19972187 0.52287865 -0.32315677
0.039999999 0.070388466 0.014212235 0.19972187 0.52287865 -0.32315677
0.039999999 0.073100239 0.01242861 0.19972187 0.52287865 -0.32315677
0.039999999 0.07578335 0.01066399 0.19972187 0.52287865 -0.32315677
0.039999999 0.078438252 0.0089180684 0.19972187 0.52287865 -0.32315677
0.039614834 0.079999998 0.0079871658 0.19972187 0.52287865 -0.32315677
0.038667101 0.079999998 0.0082236379 0.19972187 0.52287865 -0.32315677
0.037718046 0.079999998 0.0084605897 0.19972187 0.52287865 -0.32315677
0.036767665 0.079999998 0.0086980248 0.19972187 0.52287865 -0.32315677
0.03581595 0.079999998 0.0089359442 0.19972187 0.52287865 -0.32315677
0.034862891 0.079999998 0.0091743516 0.19972187 0.52287865 -0.32315677
0.033908479 0.079999998 0.0094132479 0.19972187 0.52287865 -0.32315677
0.032952707 0.079999998 0.0096526369 0.19972187 0.52287865 -0.32315677
0.031995568 0.079999998 0.0098925196 0.19972187 0.52287865 -0.32315677
0.031037057 0.079999998 0.010132899 0.19972187 0.52287865 -0.32315677
0.030077161 0.079999998 0.010373776 0.19972187 0.52287865 -0.32315677
0.029115874 0.079999998 0.010615155 0.19972187 0.52287865 -0.32315677
0.028153189 0.079999998 0.010857037 0.19972187 0.52287865 -0.32315677
0.027189095 0.079999998 0.011099426 0.19972187 0.52287865 -0.32315677
0.026223587 0.079999998 0.011342322 0.19972187 0.52287865 -0.32315677
0.025256654 0.079999998 0.011585729 0.19972187 0.52287865 -0.32315677
0.024288291 0.079999998 0.011829649 0.19972187 0.52287865 -0.32315677
0.023318488 0.079999998 0.012074085 0.19972187 0.52287865 -0.32315677
0.022347236 0.079999998 0.012319038 0.19972187 0.52287865 -0.32315677
0.021374529 0.079999998 0.012564512 0.19972187 0.52287865 -0.32315677
0.020400357 0.079999998 0.012810508 0.19972187 0.52287865 -0.32315677
0.01942471 0.079999998 0.01305703 0.19972187 0.52287865 -0.32315677
0.0040646777 0.044860538 0.039999999 0.19972187 0.52287865 -0.32315677
0.017468963 0.079999998 0.013551659 0.19972187 0.52287865 -0.32315677
0.016488846 0.079999998 0.013799771 0.19972187 0.52287865 -0.32315677
0.015507222 0.079999998 0.014048419 0.19972187 0.52287865 -0.32315677
0.014524082 0.079999998 0.014297604 0.19972187 0.52287865 -0.32315677
0.013539417 0.079999998 0.014547329 0.19972187 0.52287865 -0.32315677
0.012553219 0.079999998 0.014797598 0.19972187 0.52287865 -0.32315677
0.011565479 0.079999998 0.015048412 0.19972187 0.52287865 -0.32315677
0.010576188 0.079999998 0.015299774 0.19972187 0.52287865 -0.32315677
0.0095853368 0.079999998 0.015551687 0.19972187 0.52287865 -0.32315677
0.0085929167 0.079999998 0.015804153 0.19972187 0.52287865 -0.32315677
0.0075989203 0.079999998 0.016057175 0.19972187 0.52287865 -0.32315677
0.0056061577 0.079999998 0.016564896 0.19972187 0.52287865 -0.32315677
0.0046073748 0.079999998 0.016819602 0.19972187 0.52287865 -0.32315677
0.0036069776 0.079999998 0.017074876 0.19972187 0.52287865 -0.32315677
0.0026049579 0.079999998 0.017330717 0.19972187 0.52287865 -0.32315677
0.0016013061 0.079999998 0.017587131 0.19972187 0.52287865 -0.32315677
0.00059601321 0.079999998 0.017844118 0.19972187 0.52287865 -0.32315677
0.039999999 0.032374233 0.038034651 0.19972187 0.52287865 -0.32315677
0.039999999 0.035502296 0.03598186 0.19972187 0.52287865 -0.32315677
0.039999999 0.038594667 0.033952653 0.19972187 0.52287865 -0.32315677
0.039999999 0.041651968 0.031946614 0.19972187 0.52287865 -0.32315677
0.039999999 0.04467481 0.029963348 0.19972187 0.52287865 -0.32315677
0.039999999 0.047663786 0.028002456 0.19972187 0.52287865 -0.32315677
0.039999999 0.050619479 0.026063558 0.19972187 0.52287865 -0.32315677
0.039999999 0.053542454 0.024146276 0.19972187 0.52287865 -0.32315677
0.039999999 0.056433268 0.022250243 0.19972187 0.52287865 -0.32315677
0.039999999 0.059292465 0.020375103 0.19972187 0.52287865 -0.32315677
0.039999999 0.062120575 0.018520504 0.19972187 0.52287865 -0.32315677
0.039999999 0.064918116 0.016686104 0.19972187 0.52287865 -0.32315677
0.039999999 0.067685597 0.014871567 0.19972187 0.52287865 -0.32315677
0.039999999 0.070423506 0.013076566 0.19972187 0.52287865 -0.32315677
0.039999999 0.073132344 0.011300781 0.19972187 0.52287865 -0.32315677
0.039999999 0.075812571 0.0095438957 0.19972187 0.52287865 -0.32315677
0.039999999 0.078464657 0.0078056059 0.19972187 0.52287865 -0.32315677
0.039606266 0.079999998 0.0068972302 0.19972187 0.52287865 -0.32315677
0.038659424 0.079999998 0.0071327211 0.19972187 0.52287865 -0.32315677
0.037711266 0.079999998 0.0073686875 0.19972187 0.52287865 -0.32315677
0.036761779 0.079999998 0.0076051322 0.19972187 0.52287865 -0.32315677
0.01988632 0.036972459 0.039999999 0.19972187 0.52287865 -0.32315677
0.018971298 0.037320722 0.039999999 0.19972187 0.52287865 -0.32315677
0.033905294 0.079999998 0.0083173579 0.19972187 0.52287865 -0.32315677
0.032950431 0.079999998 0.0085557373 0.19972187 0.52287865 -0.32315677
0.031994201 0.079999998 0.0087946067 0.19972187 0.52287865 -0.32315677
0.0310366 0.079999998 0.0090339677 0.19972187 0.52287865 -0.32315677
0.030077618 0.079999998 0.0092738224 0.19972187 0.52287865 -0.32315677
0.029117247 0.079999998 0.0095141735 0.19972187 0.52287865 -0.32315677
0.028155481 0.079999998 0.0097550238 0.19972187 0.52287865 -0.32315677
0.027192311 0.079999998 0.0099963741 0.19972187 0.52287865 -0.32315677
0.026227728 0.079999998 0.010238229 0.19972187 0.52287865 -0.32315677
0.025261723 0.079999998 0.010480589 0.19972187 0.52287865 -0.32315677
0.024294291 0.079999998 0.010723458 0.19972187 0.52287865 -0.32315677
0.023325419 0.079999998 0.010966836 0.19972187 0.52287865 -0.32315677
0.0070837033 0.041867845 0.039999999 0.19972187 0.52287865 -0.32315677
0.021383334 0.079999998 0.011455135 0.19972187 0.52287865 -0.32315677
0.0052558291 0.042570755 0.039999999 0.19972187 0.52287865 -0.32315677
0.019435402 0.079999998 0.011945506 0.19972187 0.52287865 -0.32315677
0.018459221 0.079999998 0.012191474 0.19972187 0.52287865 -0.32315677
0.017481552 0.079999998 0.012437968 0.19972187 0.52287865 -0.32315677
0.0016006019 0.043979358 0.039999999 0.19972187 0.52287865 -0.32315677
0.015521721 0.079999998 0.012932539 0.19972187 0.52287865 -0.32315677
0.014539539 0.079999998 0.013180624 0.19972187 0.52287865 -0.32315677
0.013555836 0.079999998 0.013429242 0.19972187 0.52287865 -0.32315677
0.012570603 0.079999998 0.0136784 0.19972187 0.52287865 -0.32315677
0.011583831 0.079999998 0.013928097 0.19972187 0.52287865 -0.32315677
0.010595511 0.079999998 0.014178338 0.19972187 0.52287865 -0.32315677
0 0.057623528 0.031485669 0.19972187 0.52287865 -0.32315677
0.0086141918 0.079999998 0.014680457 0.19972187 0.52287865 -0.32315677
0.0076211756 0.079999998 0.014932342 0.19972187 0.52287865 -0.32315677
0 0.064801447 0.026795864 0.19972187 0.52287865 -0.32315677
0.0056303837 0.079999998 0.015437773 0.19972187 0.52287865 -0.32315677
0.0046325903 0.079999998 0.015691327 0.19972187 0.52287865 -0.32315677
0 0.071794219 0.022228422 0.19972187 0.52287865 -0.32315677
0.0026321635 0.079999998 0.016200118 0.19972187 0.52287865 -0.32315677
0.0016295115 0.079999998 0.016455363 0.19972187 0.52287865 -0.32315677
0.00062522158 0.079999998 0.016711177 0.19972187 0.52287865 -0.32315677
0.039999999 0.029293045 0.038856879 0.19972187 0.52287865 -0.32315677
0.039999999 0.032453492 0.036789592 0.19972187 0.52287865 -0.32315677
0.039999999 0.035577692 0.034746174 0.19972187 0.52287865 -0.32315677
0.039999999 0.038666286 0.032726202 0.19972187 0.52287865 -0.32315677
0.039999999 0.041719887 0.030729268 0.19972187 0.52287865 -0.32315677
0.039999999 0.044739112 0.028754974 0.19972187 0.52287865 -0.32315677
0.039999999 0.047724545 0.026802929 0.19972187 0.52287865 -0.32315677
0.039999999 0.050676771 0.02487275 0.19972187 0.52287865 -0.32315677
0.039999999 0.053596351 0.022964068 0.19972187 0.52287865 -0.32315677
0.039999999 0.056483842 0.021076517 0.19972187 0.52287865 -0.32315677
0.039999999 0.059339784 0.019209739 0.19972187 0.52287865 -0.32315677
0.039999999 0.062164705 0.017363388 0.19972187 0.52287865 -0.32315677
0.039999999 0.064959124 0.015537121 0.19972187 0.52287865 -0.32315677
0.039999999 0.06772355 0.013730609 0.19972187 0.52287865 -0.32315677
0.039999999 0.070458472 0.011943524 0.19972187 0.52287865 -0.32315677
0.039999999 0.073164374 0.010175547 0.19972187 0.52287865 -0.32315677
0.039999999 0.075841725 0.0084263673 0.19972187 0.52287865 -0.32315677
0.039999999 0.078491002 0.0066956799 0.19972187 0.52287865 -0.32315677
0.022955591 0.033970453 0.039999999 0.19972187 0.52287865 -0.32315677
0.02203799 0.034318738 0.039999999 0.19972187 0.52287865 -0.32315677
0.037704498 0.079999998 0.00627915 0.19972187 0.52287865 -0.32315677
0.036755905 0.079999998 0.0065146079 0.19972187 0.52287865 -0.32315677
0.019285847 0.035364814 0.039999999 0.19972187 0.52287865 -0.32315677
0.034854725 0.079999998 0.0069869538 0.19972187 0.52287865 -0.32315677
0.03390212 0.079999998 0.0072238459 0.19972187 0.52287865 -0.32315677
0.032948159 0.079999998 0.0074612205 0.19972187 0.52287865 -0.32315677
0.031992838 0.079999998 0.0076990798 0.19972187 0.52287865 -0.32315677
0.031036144 0.079999998 0.0079374267 0.19972187 0.52287865 -0.32315677
0.030078074 0.079999998 0.0081762616 0.19972187 0.52287865 -0.32315677
0.02911862 0.079999998 0.0084155891 0.19972187 0.52287865 -0.32315677
0.028157771 0.079999998 0.0086554103 0.19972187 0.52287865 -0.32315677
0.011034501 0.038514338 0.039999999 0.19972187 0.52287865 -0.32315677
0.026231859 0.079999998 0.0091365445 0.19972187 0.52287865 -0.32315677
