# .PCD v0.7 - Point Cloud Data file format
VERSION 0.7
FIELDS x y z vp_x vp_y vp_z
SIZE 4 4 4 4 4 4
TYPE F F F F F F
COUNT 1 1 1 1 1 1
WIDTH 937
HEIGHT 1
VIEWPOINT 0 0 0 1 0 0 0
POINTS 937
DATA ascii
0.028613886 0.079999998 0.035719588 0 0.64631355 0
0.02773203 0.079999998 0.035716828 0 0.64631355 0
0.026850307 0.079999998 0.035714157 0 0.64631355 0
0.025968714 0.079999998 0.035711568 0 0.64631355 0
0.025087249 0.079999998 0.035709068 0 0.64631355 0
0.024205903 0.079999998 0.035706654 0 0.64631355 0
0.023324674 0.079999998 0.035704326 0 0.64631355 0
0.022443557 0.079999998 0.035702087 0 0.64631355 0
0.02156255 0.079999998 0.03569993 0 0.64631355 0
0.020681648 0.079999998 0.035697863 0 0.64631355 0
0.019800844 0.079999998 0.035695881 0 0.64631355 0
0.018920137 0.079999998 0.035693984 0 0.64631355 0
0.018039521 0.079999998 0.035692178 0 0.64631355 0
0.017158993 0.079999998 0.035690453 0 0.64631355 0
0.016278546 0.079999998 0.035688818 0 0.64631355 0
0.015398178 0.079999998 0.035687268 0 0.64631355 0
0.014517886 0.079999998 0.035685804 0 0.64631355 0
0.013637663 0.079999998 0.035684425 0 0.64631355 0
0.012757505 0.079999998 0.035683133 0 0.64631355 0
0.01187741 0.079999998 0.035681926 0 0.64631355 0
0.010997372 0.079999998 0.035680808 0 0.64631355 0
0.010117386 0.079999998 0.035679772 0 0.64631355 0
0.0092374505 0.079999998 0.035678826 0 0.64631355 0
0.0083575584 0.079999998 0.035677966 0 0.64631355 0
0.0074777077 0.079999998 0.035677191 0 0.64631355 0
0.0065978924 0.079999998 0.035676502 0 0.64631355 0
0.0057181087 0.079999998 0.035675898 0 0.64631355 0
0.004838353 0.079999998 0.035675384 0 0.64631355 0
0.0039586206 0.079999998 0.035674952 0 0.64631355 0
0.0030789075 0.079999998 0.035674609 0 0.64631355 0
0.0021992091 0.079999998 0.035674352 0 0.64631355 0
0.0013195211 0.079999998 0.035674177 0 0.64631355 0
0.00043983967 0.079999998 0.035674091 0 0.64631355 0
0.039208189 0.079999998 0.034874279 0 0.64631355 0
0.03832439 0.079999998 0.034870572 0 0.64631355 0
0.037440773 0.079999998 0.034866948 0 0.64631355 0
0.036557339 0.079999998 0.034863412 0 0.64631355 0
0.03567408 0.079999998 0.034859959 0 0.64631355 0
0.034790996 0.079999998 0.034856588 0 0.64631355 0
0.03390808 0.079999998 0.034853306 0 0.64631355 0
0.033025332 0.079999998 0.034850106 0 0.64631355 0
0.03214274 0.079999998 0.034846991 0 0.64631355 0
0.031260304 0.079999998 0.034843963 0 0.64631355 0
0.030378018 0.079999998 0.034841016 0 0.64631355 0
0.02949588 0.079999998 0.034838155 0 0.64631355 0
0.028613886 0.079999998 0.03483538 0 0.64631355 0
0.02773203 0.079999998 0.034832686 0 0.64631355 0
0.026850307 0.079999998 0.034830078 0 0.64631355 0
0.025968714 0.079999998 0.034827556 0 0.64631355 0
0.025087249 0.079999998 0.034825116 0 0.64631355 0
0.024205903 0.079999998 0.034822762 0 0.64631355 0
0.023324674 0.079999998 0.034820493 0 0.64631355 0
0.022443557 0.079999998 0.034818307 0 0.64631355 0
0.02156255 0.079999998 0.034816206 0 0.64631355 0
0.020681648 0.079999998 0.03481419 0 0.64631355 0
0.019800844 0.079999998 0.034812257 0 0.64631355 0
0.018920137 0.079999998 0.034810409 0 0.64631355 0
0.018039521 0.079999998 0.034808643 0 0.64631355 0
0.017158993 0.079999998 0.034806963 0 0.64631355 0
0.016278546 0.079999998 0.034805369 0 0.64631355 0
0.015398178 0.079999998 0.034803856 0 0.64631355 0
0.014517886 0.079999998 0.034802429 0 0.64631355 0
0.013637663 0.079999998 0.034801085 0 0.64631355 0
0.012757505 0.079999998 0.034799825 0 0.64631355 0
0.01187741 0.079999998 0.034798648 0 0.64631355 0
0.010997372 0.079999998 0.034797557 0 0.64631355 0
0.010117386 0.079999998 0.034796547 0 0.64631355 0
0.0092374505 0.079999998 0.034795627 0 0.64631355 0
0.0083575584 0.079999998 0.034794785 0 0.64631355 0
0.0074777077 0.079999998 0.034794029 0 0.64631355 0
0.0065978924 0.079999998 0.034793358 0 0.64631355 0
0.0057181087 0.079999998 0.03479277 0 0.64631355 0
0.004838353 0.079999998 0.034792267 0 0.64631355 0
0.0039586206 0.079999998 0.034791846 0 0.64631355 0
0.0030789075 0.079999998 0.034791511 0 0.64631355 0
0.0021992091 0.079999998 0.034791261 0 0.64631355 0
0.0013195211 0.079999998 0.034791093 0 0.64631355 0
0.00043983967 0.079999998 0.034791008 0 0.64631355 0
0.039208189 0.079999998 0.033989251 0 0.64631355 0
0.03832439 0.079999998 0.033985637 0 0.64631355 0
0.037440773 0.079999998 0.033982106 0 0.64631355 0
0.036557339 0.079999998 0.033978656 0 0.64631355 0
0.03567408 0.079999998 0.033975292 0 0.64631355 0
0.034790996 0.079999998 0.03397201 0 0.64631355 0
0.03390808 0.079999998 0.033968806 0 0.64631355 0
0.033025332 0.079999998 0.033965688 0 0.64631355 0
0.03214274 0.079999998 0.033962656 0 0.64631355 0
0.031260304 0.079999998 0.033959702 0 0.64631355 0
0.030378018 0.079999998 0.033956829 0 0.64631355 0
0.02949588 0.079999998 0.033954043 0 0.64631355 0
0.028613886 0.079999998 0.033951338 0 0.64631355 0
0.02773203 0.079999998 0.033948712 0 0.64631355 0
0.026850307 0.079999998 0.033946171 0 0.64631355 0
0.025968714 0.079999998 0.033943713 0 0.64631355 0
0.025087249 0.079999998 0.033941336 0 0.64631355 0
0.024205903 0.079999998 0.033939041 0 0.64631355 0
0.023324674 0.079999998 0.033936828 0 0.64631355 0
0.022443557 0.079999998 0.033934701 0 0.64631355 0
0.02156255 0.079999998 0.033932652 0 0.64631355 0
0.020681648 0.079999998 0.033930685 0 0.64631355 0
0.019800844 0.079999998 0.0339288 0 0.64631355 0
0.018920137 0.079999998 0.033927001 0 0.64631355 0
0.018039521 0.079999998 0.03392528 0 0.64631355 0
0.017158993 0.079999998 0.033923645 0 0.64631355 0
0.016278546 0.079999998 0.033922087 0 0.64631355 0
0.015398178 0.079999998 0.033920612 0 0.64631355 0
0.014517886 0.079999998 0.033919223 0 0.64631355 0
0.013637663 0.079999998 0.033917911 0 0.64631355 0
0.012757505 0.079999998 0.033916686 0 0.64631355 0
0.01187741 0.079999998 0.033915538 0 0.64631355 0
0.010997372 0.079999998 0.033914473 0 0.64631355 0
0.010117386 0.079999998 0.033913493 0 0.64631355 0
0.0092374505 0.079999998 0.033912592 0 0.64631355 0
0.0083575584 0.079999998 0.033911772 0 0.64631355 0
0.0074777077 0.079999998 0.033911038 0 0.64631355 0
0.0065978924 0.079999998 0.033910383 0 0.64631355 0
0.0057181087 0.079999998 0.033909809 0 0.64631355 0
0.004838353 0.079999998 0.033909321 0 0.64631355 0
0.0039586206 0.079999998 0.033908911 0 0.64631355 0
0.0030789075 0.079999998 0.033908583 0 0.64631355 0
0.0021992091 0.079999998 0.033908337 0 0.64631355 0
0.0013195211 0.079999998 0.033908173 0 0.64631355 0
0.00043983967 0.079999998 0.033908091 0 0.64631355 0
0.039208189 0.079999998 0.033104386 0 0.64631355 0
0.03832439 0.079999998 0.033100866 0 0.64631355 0
0.037440773 0.079999998 0.033097427 0 0.64631355 0
0.036557339 0.079999998 0.033094067 0 0.64631355 0
0.03567408 0.079999998 0.033090789 0 0.64631355 0
0.034790996 0.079999998 0.033087593 0 0.64631355 0
0.03390808 0.079999998 0.033084475 0 0.64631355 0
0.033025332 0.079999998 0.033081438 0 0.64631355 0
0.03214274 0.079999998 0.033078481 0 0.64631355 0
0.031260304 0.079999998 0.033075605 0 0.64631355 0
0.030378018 0.079999998 0.033072811 0 0.64631355 0
0.02949588 0.079999998 0.033070095 0 0.64631355 0
0.028613886 0.079999998 0.033067457 0 0.64631355 0
0.02773203 0.079999998 0.033064906 0 0.64631355 0
0.026850307 0.079999998 0.033062428 0 0.64631355 0
0.025968714 0.079999998 0.033060033 0 0.64631355 0
0.025087249 0.079999998 0.033057719 0 0.64631355 0
0.024205903 0.079999998 0.033055484 0 0.64631355 0
0.023324674 0.079999998 0.033053331 0 0.64631355 0
0.022443557 0.079999998 0.033051256 0 0.64631355 0
0.02156255 0.079999998 0.033049259 0 0.64631355 0
0.020681648 0.079999998 0.033047345 0 0.64631355 0
0.019800844 0.079999998 0.033045512 0 0.64631355 0
0.018920137 0.079999998 0.033043757 0 0.64631355 0
0.018039521 0.079999998 0.033042081 0 0.64631355 0
0.017158993 0.079999998 0.033040486 0 0.64631355 0
0.016278546 0.079999998 0.03303897 0 0.64631355 0
0.015398178 0.079999998 0.033037536 0 0.64631355 0
0.014517886 0.079999998 0.03303618 0 0.64631355 0
0.013637663 0.079999998 0.033034906 0 0.64631355 0
0.012757505 0.079999998 0.03303371 0 0.64631355 0
0.01187741 0.079999998 0.033032592 0 0.64631355 0
0.010997372 0.079999998 0.033031557 0 0.64631355 0
0.010117386 0.079999998 0.033030599 0 0.64631355 0
0.0092374505 0.079999998 0.033029724 0 0.64631355 0
0.0083575584 0.079999998 0.033028927 0 0.64631355 0
0.0074777077 0.079999998 0.033028208 0 0.64631355 0
0.0065978924 0.079999998 0.033027571 0 0.64631355 0
0.0057181087 0.079999998 0.033027012 0 0.64631355 0
0.004838353 0.079999998 0.033026535 0 0.64631355 0
0.0039586206 0.079999998 0.033026136 0 0.64631355 0
0.0030789075 0.079999998 0.03302582 0 0.64631355 0
0.0021992091 0.079999998 0.033025578 0 0.64631355 0
0.0013195211 0.079999998 0.033025421 0 0.64631355 0
0.00043983967 0.079999998 0.033025339 0 0.64631355 0
0.039208189 0.079999998 0.032219682 0 0.64631355 0
0.03832439 0.079999998 0.032216258 0 0.64631355 0
0.037440773 0.079999998 0.032212909 0 0.64631355 0
0.036557339 0.079999998 0.032209639 0 0.64631355 0
0.03567408 0.079999998 0.03220645 0 0.64631355 0
0.034790996 0.079999998 0.032203339 0 0.64631355 0
0.03390808 0.079999998 0.032200303 0 0.64631355 0
0.033025332 0.079999998 0.032197349 0 0.64631355 0
0.03214274 0.079999998 0.032194469 0 0.64631355 0
0.031260304 0.079999998 0.032191671 0 0.64631355 0
0.030378018 0.079999998 0.032188948 0 0.64631355 0
0.02949588 0.079999998 0.032186307 0 0.64631355 0
0.028613886 0.079999998 0.03218374 0 0.64631355 0
0.02773203 0.079999998 0.032181256 0 0.64631355 0
0.026850307 0.079999998 0.032178845 0 0.64631355 0
0.025968714 0.079999998 0.032176513 0 0.64631355 0
0.025087249 0.079999998 0.032174263 0 0.64631355 0
0.024205903 0.079999998 0.032172088 0 0.64631355 0
0.023324674 0.079999998 0.03216999 0 0.64631355 0
0.022443557 0.079999998 0.032167971 0 0.64631355 0
0.02156255 0.079999998 0.03216603 0 0.64631355 0
0.020681648 0.079999998 0.032164168 0 0.64631355 0
0.019800844 0.079999998 0.032162379 0 0.64631355 0
0.018920137 0.079999998 0.032160673 0 0.64631355 0
0.018039521 0.079999998 0.032159042 0 0.64631355 0
0.017158993 0.079999998 0.032157488 0 0.64631355 0
0.016278546 0.079999998 0.032156017 0 0.64631355 0
0.015398178 0.079999998 0.03215462 0 0.64631355 0
0.014517886 0.079999998 0.032153297 0 0.64631355 0
0.013637663 0.079999998 0.032152057 0 0.64631355 0
0.012757505 0.079999998 0.032150894 0 0.64631355 0
0.01187741 0.079999998 0.032149807 0 0.64631355 0
0.010997372 0.079999998 0.032148797 0 0.64631355 0
0.010117386 0.079999998 0.032147869 0 0.64631355 0
0.0092374505 0.079999998 0.032147013 0 0.64631355 0
0.0083575584 0.079999998 0.032146238 0 0.64631355 0
0.0074777077 0.079999998 0.032145541 0 0.64631355 0
0.0065978924 0.079999998 0.032144919 0 0.64631355 0
0.0057181087 0.079999998 0.032144379 0 0.64631355 0
0.004838353 0.079999998 0.032143913 0 0.64631355 0
0.0039586206 0.079999998 0.032143522 0 0.64631355 0
0.0030789075 0.079999998 0.032143213 0 0.64631355 0
0.0021992091 0.079999998 0.032142982 0 0.64631355 0
0.0013195211 0.079999998 0.032142825 0 0.64631355 0
0.00043983967 0.079999998 0.032142747 0 0.64631355 0
0.039208189 0.079999998 0.031335134 0 0.64631355 0
0.03832439 0.079999998 0.031331804 0 0.64631355 0
0.037440773 0.079999998 0.031328548 0 0.64631355 0
0.036557339 0.079999998 0.031325366 0 0.64631355 0
0.03567408 0.079999998 0.031322263 0 0.64631355 0
0.034790996 0.079999998 0.031319238 0 0.64631355 0
0.03390808 0.079999998 0.031316288 0 0.64631355 0
0.033025332 0.079999998 0.031313412 0 0.64631355 0
0.03214274 0.079999998 0.031310614 0 0.64631355 0
0.031260304 0.079999998 0.031307891 0 0.64631355 0
0.030378018 0.079999998 0.031305246 0 0.64631355 0
0.02949588 0.079999998 0.031302676 0 0.64631355 0
0.028613886 0.079999998 0.03130018 0 0.64631355 0
0.02773203 0.079999998 0.031297762 0 0.64631355 0
0.026850307 0.079999998 0.031295419 0 0.64631355 0
0.025968714 0.079999998 0.03129315 0 0.64631355 0
0.025087249 0.079999998 0.03129096 0 0.64631355 0
0.024205903 0.079999998 0.031288844 0 0.64631355 0
0.023324674 0.079999998 0.031286806 0 0.64631355 0
0.022443557 0.079999998 0.031284843 0 0.64631355 0
0.02156255 0.079999998 0.031282954 0 0.64631355 0
0.020681648 0.079999998 0.031281143 0 0.64631355 0
0.019800844 0.079999998 0.031279404 0 0.64631355 0
0.018920137 0.079999998 0.031277742 0 0.64631355 0
0.018039521 0.079999998 0.031276159 0 0.64631355 0
0.017158993 0.079999998 0.03127465 0 0.64631355 0
0.016278546 0.079999998 0.031273216 0 0.64631355 0
0.015398178 0.079999998 0.031271856 0 0.64631355 0
0.014517886 0.079999998 0.031270575 0 0.64631355 0
0.013637663 0.079999998 0.031269364 0 0.64631355 0
0.012757505 0.079999998 0.031268235 0 0.64631355 0
0.01187741 0.079999998 0.031267177 0 0.64631355 0
0.010997372 0.079999998 0.031266198 0 0.64631355 0
0.010117386 0.079999998 0.031265292 0 0.64631355 0
0.0092374505 0.079999998 0.031264462 0 0.64631355 0
0.0083575584 0.079999998 0.031263705 0 0.64631355 0
0.0074777077 0.079999998 0.031263027 0 0.64631355 0
0.0065978924 0.079999998 0.031262424 0 0.64631355 0
0.0057181087 0.079999998 0.031261895 0 0.64631355 0
0.004838353 0.079999998 0.031261444 0 0.64631355 0
0.0039586206 0.079999998 0.031261068 0 0.64631355 0
0.0030789075 0.079999998 0.031260766 0 0.64631355 0
0.0021992091 0.079999998 0.031260539 0 0.64631355 0
0.0013195211 0.079999998 0.031260386 0 0.64631355 0
0.00043983967 0.079999998 0.031260312 0 0.64631355 0
0.039208189 0.079999998 0.030450737 0 0.64631355 0
0.03832439 0.079999998 0.0304475 0 0.64631355 0
0.037440773 0.079999998 0.030444335 0 0.64631355 0
0.036557339 0.079999998 0.030441247 0 0.64631355 0
0.03567408 0.079999998 0.030438231 0 0.64631355 0
0.034790996 0.079999998 0.03043529 0 0.64631355 0
0.03390808 0.079999998 0.030432422 0 0.64631355 0
0.033025332 0.079999998 0.03042963 0 0.64631355 0
0.03214274 0.079999998 0.03042691 0 0.64631355 0
0.031260304 0.079999998 0.030424263 0 0.64631355 0
0.030378018 0.079999998 0.030421693 0 0.64631355 0
0.02949588 0.079999998 0.030419193 0 0.64631355 0
0.028613886 0.079999998 0.03041677 0 0.64631355 0
0.02773203 0.079999998 0.030414419 0 0.64631355 0
0.026850307 0.079999998 0.030412143 0 0.64631355 0
0.025968714 0.079999998 0.03040994 0 0.64631355 0
0.025087249 0.079999998 0.030407811 0 0.64631355 0
0.024205903 0.079999998 0.030405754 0 0.64631355 0
0.023324674 0.079999998 0.030403772 0 0.64631355 0
0.022443557 0.079999998 0.030401865 0 0.64631355 0
0.02156255 0.079999998 0.03040003 0 0.64631355 0
0.020681648 0.079999998 0.030398268 0 0.64631355 0
0.019800844 0.079999998 0.030396581 0 0.64631355 0
0.018920137 0.079999998 0.030394968 0 0.64631355 0
0.018039521 0.079999998 0.030393427 0 0.64631355 0
0.017158993 0.079999998 0.030391959 0 0.64631355 0
0.016278546 0.079999998 0.030390566 0 0.64631355 0
0.015398178 0.079999998 0.030389246 0 0.64631355 0
0.014517886 0.079999998 0.030387998 0 0.64631355 0
0.013637663 0.079999998 0.030386826 0 0.64631355 0
0.012757505 0.079999998 0.030385725 0 0.64631355 0
0.01187741 0.079999998 0.030384699 0 0.64631355 0
0.010997372 0.079999998 0.030383745 0 0.64631355 0
0.010117386 0.079999998 0.030382866 0 0.64631355 0
0.0092374505 0.079999998 0.03038206 0 0.64631355 0
0.0083575584 0.079999998 0.030381326 0 0.64631355 0
0.0074777077 0.079999998 0.030380666 0 0.64631355 0
0.0065978924 0.079999998 0.03038008 0 0.64631355 0
0.0057181087 0.079999998 0.030379567 0 0.64631355 0
0.004838353 0.079999998 0.030379126 0 0.64631355 0
0.0039586206 0.079999998 0.030378761 0 0.64631355 0
0.0030789075 0.079999998 0.030378466 0 0.64631355 0
0.0021992091 0.079999998 0.030378247 0 0.64631355 0
0.0013195211 0.079999998 0.030378101 0 0.64631355 0
0.00043983967 0.079999998 0.030378027 0 0.64631355 0
0.039208189 0.079999998 0.029566487 0 0.64631355 0
0.03832439 0.079999998 0.029563345 0 0.64631355 0
0.037440773 0.079999998 0.029560274 0 0.64631355 0
0.036557339 0.079999998 0.029557273 0 0.64631355 0
0.03567408 0.079999998 0.029554345 0 0.64631355 0
0.034790996 0.079999998 0.029551489 0 0.64631355 0
0.03390808 0.079999998 0.029548705 0 0.64631355 0
0.033025332 0.079999998 0.029545993 0 0.64631355 0
0.03214274 0.079999998 0.029543351 0 0.64631355 0
0.031260304 0.079999998 0.029540783 0 0.64631355 0
0.030378018 0.079999998 0.029538287 0 0.64631355 0
0.02949588 0.079999998 0.029535862 0 0.64631355 0
0.028613886 0.079999998 0.029533507 0 0.64631355 0
0.02773203 0.079999998 0.029531226 0 0.64631355 0
0.026850307 0.079999998 0.029529015 0 0.64631355 0
0.025968714 0.079999998 0.029526876 0 0.64631355 0
0.025087249 0.079999998 0.029524809 0 0.64631355 0
0.024205903 0.079999998 0.029522812 0 0.64631355 0
0.023324674 0.079999998 0.029520888 0 0.64631355 0
0.022443557 0.079999998 0.029519035 0 0.64631355 0
0.02156255 0.079999998 0.029517254 0 0.64631355 0
0.020681648 0.079999998 0.029515544 0 0.64631355 0
0.019800844 0.079999998 0.029513905 0 0.64631355 0
0.018920137 0.079999998 0.029512336 0 0.64631355 0
0.018039521 0.079999998 0.029510841 0 0.64631355 0
0.017158993 0.079999998 0.029509418 0 0.64631355 0
0.016278546 0.079999998 0.029508064 0 0.64631355 0
0.015398178 0.079999998 0.029506782 0 0.64631355 0
0.014517886 0.079999998 0.029505571 0 0.64631355 0
0.013637663 0.079999998 0.029504431 0 0.64631355 0
0.012757505 0.079999998 0.029503364 0 0.64631355 0
0.01187741 0.079999998 0.029502368 0 0.64631355 0
0.010997372 0.079999998 0.029501442 0 0.64631355 0
0.010117386 0.079999998 0.029500587 0 0.64631355 0
0.0092374505 0.079999998 0.029499805 0 0.64631355 0
0.0083575584 0.079999998 0.029499093 0 0.64631355 0
0.0074777077 0.079999998 0.029498452 0 0.64631355 0
0.0065978924 0.079999998 0.029497882 0 0.64631355 0
0.0057181087 0.079999998 0.029497383 0 0.64631355 0
0.004838353 0.079999998 0.029496957 0 0.64631355 0
0.0039586206 0.079999998 0.029496601 0 0.64631355 0
0.0030789075 0.079999998 0.029496316 0 0.64631355 0
0.0021992091 0.079999998 0.029496104 0 0.64631355 0
0.0013195211 0.079999998 0.02949596 0 0.64631355 0
0.00043983967 0.079999998 0.029495889 0 0.64631355 0
0.039208189 0.079999998 0.028682383 0 0.64631355 0
0.03832439 0.079999998 0.028679332 0 0.64631355 0
0.037440773 0.079999998 0.028676352 0 0.64631355 0
0.036557339 0.079999998 0.028673442 0 0.64631355 0
0.03567408 0.079999998 0.028670602 0 0.64631355 0
0.034790996 0.079999998 0.028667832 0 0.64631355 0
0.03390808 0.079999998 0.028665131 0 0.64631355 0
0.033025332 0.079999998 0.028662499 0 0.64631355 0
0.03214274 0.079999998 0.028659938 0 0.64631355 0
0.031260304 0.079999998 0.028657446 0 0.64631355 0
0.030378018 0.079999998 0.028655022 0 0.64631355 0
0.02949588 0.079999998 0.02865267 0 0.64631355 0
0.028613886 0.079999998 0.028650386 0 0.64631355 0
0.02773203 0.079999998 0.028648173 0 0.64631355 0
0.026850307 0.079999998 0.02864603 0 0.64631355 0
0.025968714 0.079999998 0.028643955 0 0.64631355 0
0.025087249 0.079999998 0.028641948 0 0.64631355 0
0.024205903 0.079999998 0.028640011 0 0.64631355 0
0.023324674 0.079999998 0.028638145 0 0.64631355 0
0.022443557 0.079999998 0.028636348 0 0.64631355 0
0.02156255 0.079999998 0.028634619 0 0.64631355 0
0.020681648 0.079999998 0.028632961 0 0.64631355 0
0.019800844 0.079999998 0.028631371 0 0.64631355 0
0.018920137 0.079999998 0.028629851 0 0.64631355 0
0.018039521 0.079999998 0.0286284 0 0.64631355 0
0.017158993 0.079999998 0.028627018 0 0.64631355 0
0.016278546 0.079999998 0.028625704 0 0.64631355 0
0.015398178 0.079999998 0.02862446 0 0.64631355 0
0.014517886 0.079999998 0.028623287 0 0.64631355 0
0.013637663 0.079999998 0.028622182 0 0.64631355 0
0.012757505 0.079999998 0.028621145 0 0.64631355 0
0.01187741 0.079999998 0.028620178 0 0.64631355 0
0.010997372 0.079999998 0.02861928 0 0.64631355 0
0.010117386 0.079999998 0.028618451 0 0.64631355 0
0.0092374505 0.079999998 0.028617691 0 0.64631355 0
0.0083575584 0.079999998 0.028617002 0 0.64631355 0
0.0074777077 0.079999998 0.02861638 0 0.64631355 0
0.0065978924 0.079999998 0.028615827 0 0.64631355 0
0.0057181087 0.079999998 0.028615344 0 0.64631355 0
0.004838353 0.079999998 0.028614931 0 0.64631355 0
0.0039586206 0.079999998 0.028614584 0 0.64631355 0
0.0030789075 0.079999998 0.028614309 0 0.64631355 0
0.0021992091 0.079999998 0.028614102 0 0.64631355 0
0.0013195211 0.079999998 0.028613964 0 0.64631355 0
0.00043983967 0.079999998 0.028613895 0 0.64631355 0
0.039208189 0.079999998 0.027798414 0 0.64631355 0
0.03832439 0.079999998 0.027795458 0 0.64631355 0
0.037440773 0.079999998 0.027792571 0 0.64631355 0
0.036557339 0.079999998 0.027789751 0 0.64631355 0
0.03567408 0.079999998 0.027786998 0 0.64631355 0
0.034790996 0.079999998 0.027784312 0 0.64631355 0
0.03390808 0.079999998 0.027781695 0 0.64631355 0
0.033025332 0.079999998 0.027779145 0 0.64631355 0
0.03214274 0.079999998 0.027776662 0 0.64631355 0
0.031260304 0.079999998 0.027774246 0 0.64631355 0
0.030378018 0.079999998 0.027771899 0 0.64631355 0
0.02949588 0.079999998 0.02776962 0 0.64631355 0
0.028613886 0.079999998 0.027767405 0 0.64631355 0
0.02773203 0.079999998 0.027765259 0 0.64631355 0
0.026850307 0.079999998 0.027763182 0 0.64631355 0
0.025968714 0.079999998 0.027761171 0 0.64631355 0
0.025087249 0.079999998 0.027759226 0 0.64631355 0
0.024205903 0.079999998 0.02775735 0 0.64631355 0
0.023324674 0.079999998 0.027755542 0 0.64631355 0
0.022443557 0.079999998 0.027753798 0 0.64631355 0
0.02156255 0.079999998 0.027752124 0 0.64631355 0
0.020681648 0.079999998 0.027750516 0 0.64631355 0
0.019800844 0.079999998 0.027748976 0 0.64631355 0
0.018920137 0.079999998 0.027747503 0 0.64631355 0
0.018039521 0.079999998 0.027746096 0 0.64631355 0
0.017158993 0.079999998 0.027744755 0 0.64631355 0
0.016278546 0.079999998 0.027743483 0 0.64631355 0
0.015398178 0.079999998 0.027742278 0 0.64631355 0
0.014517886 0.079999998 0.02774114 0 0.64631355 0
0.013637663 0.079999998 0.027740069 0 0.64631355 0
0.012757505 0.079999998 0.027739065 0 0.64631355 0
0.01187741 0.079999998 0.027738128 0 0.64631355 0
0.010997372 0.079999998 0.027737258 0 0.64631355 0
0.010117386 0.079999998 0.027736455 0 0.64631355 0
0.0092374505 0.079999998 0.027735718 0 0.64631355 0
0.0083575584 0.079999998 0.027735049 0 0.64631355 0
0.0074777077 0.079999998 0.027734447 0 0.64631355 0
0.0065978924 0.079999998 0.027733911 0 0.64631355 0
0.0057181087 0.079999998 0.027733443 0 0.64631355 0
0.004838353 0.079999998 0.027733041 0 0.64631355 0
0.0039586206 0.079999998 0.027732708 0 0.64631355 0
0.0030789075 0.079999998 0.027732439 0 0.64631355 0
0.0021992091 0.079999998 0.027732238 0 0.64631355 0
0.0013195211 0.079999998 0.027732104 0 0.64631355 0
0.00043983967 0.079999998 0.027732037 0 0.64631355 0
0.039208189 0.079999998 0.026914582 0 0.64631355 0
0.03832439 0.079999998 0.026911721 0 0.64631355 0
0.037440773 0.079999998 0.026908923 0 0.64631355 0
0.036557339 0.079999998 0.026906192 0 0.64631355 0
0.03567408 0.079999998 0.026903527 0 0.64631355 0
0.034790996 0.079999998 0.026900928 0 0.64631355 0
0.03390808 0.079999998 0.026898393 0 0.64631355 0
0.033025332 0.079999998 0.026895924 0 0.64631355 0
0.03214274 0.079999998 0.026893521 0 0.64631355 0
0.031260304 0.079999998 0.026891183 0 0.64631355 0
0.030378018 0.079999998 0.026888909 0 0.64631355 0
0.02949588 0.079999998 0.026886702 0 0.64631355 0
0.028613886 0.079999998 0.026884558 0 0.64631355 0
0.02773203 0.079999998 0.026882481 0 0.64631355 0
0.026850307 0.079999998 0.026880469 0 0.64631355 0
0.025968714 0.079999998 0.026878523 0 0.64631355 0
0.025087249 0.079999998 0.02687664 0 0.64631355 0
0.024205903 0.079999998 0.026874823 0 0.64631355 0
0.023324674 0.079999998 0.026873071 0 0.64631355 0
0.022443557 0.079999998 0.026871385 0 0.64631355 0
0.02156255 0.079999998 0.026869763 0 0.64631355 0
0.020681648 0.079999998 0.026868206 0 0.64631355 0
0.019800844 0.079999998 0.026866714 0 0.64631355 0
0.018920137 0.079999998 0.026865287 0 0.64631355 0
0.018039521 0.079999998 0.026863925 0 0.64631355 0
0.017158993 0.079999998 0.026862629 0 0.64631355 0
0.016278546 0.079999998 0.026861398 0 0.64631355 0
0.015398178 0.079999998 0.02686023 0 0.64631355 0
0.014517886 0.079999998 0.026859129 0 0.64631355 0
0.013637663 0.079999998 0.026858091 0 0.64631355 0
0.012757505 0.079999998 0.026857119 0 0.64631355 0
0.01187741 0.079999998 0.026856212 0 0.64631355 0
0.010997372 0.079999998 0.02685537 0 0.64631355 0
0.010117386 0.079999998 0.026854591 0 0.64631355 0
0.0092374505 0.079999998 0.026853878 0 0.64631355 0
0.0083575584 0.079999998 0.02685323 0 0.64631355 0
0.0074777077 0.079999998 0.026852647 0 0.64631355 0
0.0065978924 0.079999998 0.026852129 0 0.64631355 0
0.0057181087 0.079999998 0.026851676 0 0.64631355 0
0.004838353 0.079999998 0.026851287 0 0.64631355 0
0.0039586206 0.079999998 0.026850963 0 0.64631355 0
0.0030789075 0.079999998 0.026850704 0 0.64631355 0
0.0021992091 0.079999998 0.026850509 0 0.64631355 0
0.0013195211 0.079999998 0.02685038 0 0.64631355 0
0.00043983967 0.079999998 0.026850315 0 0.64631355 0
0.039208189 0.079999998 0.026030879 0 0.64631355 0
0.03832439 0.079999998 0.026028112 0 0.64631355 0
0.037440773 0.079999998 0.026025407 0 0.64631355 0
0.036557339 0.079999998 0.026022766 0 0.64631355 0
0.03567408 0.079999998 0.026020188 0 0.64631355 0
0.034790996 0.079999998 0.026017673 0 0.64631355 0
0.03390808 0.079999998 0.026015222 0 0.64631355 0
0.033025332 0.079999998 0.026012834 0 0.64631355 0
0.03214274 0.079999998 0.02601051 0 0.64631355 0
0.031260304 0.079999998 0.026008248 0 0.64631355 0
0.030378018 0.079999998 0.026006049 0 0.64631355 0
0.02949588 0.079999998 0.026003914 0 0.64631355 0
0.028613886 0.079999998 0.026001841 0 0.64631355 0
0.02773203 0.079999998 0.025999833 0 0.64631355 0
0.026850307 0.079999998 0.025997886 0 0.64631355 0
0.025968714 0.079999998 0.025996003 0 0.64631355 0
0.025087249 0.079999998 0.025994183 0 0.64631355 0
0.024205903 0.079999998 0.025992425 0 0.64631355 0
0.023324674 0.079999998 0.025990732 0 0.64631355 0
0.022443557 0.079999998 0.0259891 0 0.64631355 0
0.02156255 0.079999998 0.025987532 0 0.64631355 0
0.020681648 0.079999998 0.025986025 0 0.64631355 0
0.019800844 0.079999998 0.025984583 0 0.64631355 0
0.018920137 0.079999998 0.025983203 0 0.64631355 0
0.018039521 0.079999998 0.025981886 0 0.64631355 0
0.017158993 0.079999998 0.025980633 0 0.64631355 0
0.016278546 0.079999998 0.025979441 0 0.64631355 0
0.015398178 0.079999998 0.025978312 0 0.64631355 0
0.014517886 0.079999998 0.025977246 0 0.64631355 0
0.013637663 0.079999998 0.025976242 0 0.64631355 0
0.012757505 0.079999998 0.025975304 0 0.64631355 0
0.01187741 0.079999998 0.025974425 0 0.64631355 0
0.010997372 0.079999998 0.025973611 0 0.64631355 0
0.010117386 0.079999998 0.025972858 0 0.64631355 0
0.0092374505 0.079999998 0.025972169 0 0.64631355 0
0.0083575584 0.079999998 0.025971543 0 0.64631355 0
0.0074777077 0.079999998 0.025970979 0 0.64631355 0
0.0065978924 0.079999998 0.025970478 0 0.64631355 0
0.0057181087 0.079999998 0.025970038 0 0.64631355 0
0.004838353 0.079999998 0.025969662 0 0.64631355 0
0.0039586206 0.079999998 0.025969349 0 0.64631355 0
0.0030789075 0.079999998 0.025969097 0 0.64631355 0
0.0021992091 0.079999998 0.025968911 0 0.64631355 0
0.0013195211 0.079999998 0.025968784 0 0.64631355 0
0.00043983967 0.079999998 0.025968723 0 0.64631355 0
0.039208189 0.079999998 0.025147302 0 0.64631355 0
0.03832439 0.079999998 0.025144627 0 0.64631355 0
0.037440773 0.079999998 0.025142016 0 0.64631355 0
0.036557339 0.079999998 0.025139464 0 0.64631355 0
0.03567408 0.079999998 0.025136974 0 0.64631355 0
0.034790996 0.079999998 0.025134545 0 0.64631355 0
0.03390808 0.079999998 0.025132177 0 0.64631355 0
0.033025332 0.079999998 0.02512987 0 0.64631355 0
0.03214274 0.079999998 0.025127623 0 0.64631355 0
0.031260304 0.079999998 0.025125438 0 0.64631355 0
0.030378018 0.079999998 0.025123315 0 0.64631355 0
0.02949588 0.079999998 0.025121253 0 0.64631355 0
0.028613886 0.079999998 0.025119251 0 0.64631355 0
0.02773203 0.079999998 0.02511731 0 0.64631355 0
0.026850307 0.079999998 0.025115428 0 0.64631355 0
0.025968714 0.079999998 0.025113611 0 0.64631355 0
0.025087249 0.079999998 0.025111852 0 0.64631355 0
0.024205903 0.079999998 0.025110153 0 0.64631355 0
0.023324674 0.079999998 0.025108516 0 0.64631355 0
0.022443557 0.079999998 0.02510694 0 0.64631355 0
0.02156255 0.079999998 0.025105426 0 0.64631355 0
0.020681648 0.079999998 0.025103971 0 0.64631355 0
0.019800844 0.079999998 0.025102578 0 0.64631355 0
0.018920137 0.079999998 0.025101244 0 0.64631355 0
0.018039521 0.079999998 0.025099972 0 0.64631355 0
0.017158993 0.079999998 0.025098762 0 0.64631355 0
0.016278546 0.079999998 0.02509761 0 0.64631355 0
0.015398178 0.079999998 0.025096519 0 0.64631355 0
0.014517886 0.079999998 0.025095491 0 0.64631355 0
0.013637663 0.079999998 0.02509452 0 0.64631355 0
0.012757505 0.079999998 0.025093613 0 0.64631355 0
0.01187741 0.079999998 0.025092764 0 0.64631355 0
0.010997372 0.079999998 0.025091978 0 0.64631355 0
0.010117386 0.079999998 0.025091251 0 0.64631355 0
0.0092374505 0.079999998 0.025090585 0 0.64631355 0
0.0083575584 0.079999998 0.025089979 0 0.64631355 0
0.0074777077 0.079999998 0.025089435 0 0.64631355 0
0.0065978924 0.079999998 0.025088951 0 0.64631355 0
0.0057181087 0.079999998 0.025088526 0 0.64631355 0
0.004838353 0.079999998 0.025088163 0 0.64631355 0
0.0039586206 0.079999998 0.025087861 0 0.64631355 0
0.0030789075 0.079999998 0.025087619 0 0.64631355 0
0.0021992091 0.079999998 0.025087437 0 0.64631355 0
0.0013195211 0.079999998 0.025087316 0 0.64631355 0
0.00043983967 0.079999998 0.025087256 0 0.64631355 0
0.039208189 0.079999998 0.024263846 0 0.64631355 0
0.03832439 0.079999998 0.024261266 0 0.64631355 0
0.037440773 0.079999998 0.024258746 0 0.64631355 0
0.036557339 0.079999998 0.024256283 0 0.64631355 0
0.03567408 0.079999998 0.024253881 0 0.64631355 0
0.034790996 0.079999998 0.024251537 0 0.64631355 0
0.03390808 0.079999998 0.024249252 0 0.64631355 0
0.033025332 0.079999998 0.024247026 0 0.64631355 0
0.03214274 0.079999998 0.02424486 0 0.64631355 0
0.031260304 0.079999998 0.024242751 0 0.64631355 0
0.030378018 0.079999998 0.024240702 0 0.64631355 0
0.02949588 0.079999998 0.024238711 0 0.64631355 0
0.028613886 0.079999998 0.02423678 0 0.64631355 0
0.02773203 0.079999998 0.024234908 0 0.64631355 0
0.026850307 0.079999998 0.024233093 0 0.64631355 0
0.025968714 0.079999998 0.024231339 0 0.64631355 0
0.025087249 0.079999998 0.024229642 0 0.64631355 0
0.024205903 0.079999998 0.024228003 0 0.64631355 0
0.023324674 0.079999998 0.024226425 0 0.64631355 0
0.022443557 0.079999998 0.024224903 0 0.64631355 0
0.02156255 0.079999998 0.024223441 0 0.64631355 0
0.020681648 0.079999998 0.024222039 0 0.64631355 0
0.019800844 0.079999998 0.024220694 0 0.64631355 0
0.018920137 0.079999998 0.024219407 0 0.64631355 0
0.018039521 0.079999998 0.024218179 0 0.64631355 0
0.017158993 0.079999998 0.024217011 0 0.64631355 0
0.016278546 0.079999998 0.024215899 0 0.64631355 0
0.015398178 0.079999998 0.024214849 0 0.64631355 0
0.014517886 0.079999998 0.024213854 0 0.64631355 0
0.013637663 0.079999998 0.024212919 0 0.64631355 0
0.012757505 0.079999998 0.024212044 0 0.64631355 0
0.01187741 0.079999998 0.024211226 0 0.64631355 0
0.010997372 0.079999998 0.024210466 0 0.64631355 0
0.010117386 0.079999998 0.024209764 0 0.64631355 0
0.0092374505 0.079999998 0.024209121 0 0.64631355 0
0.0083575584 0.079999998 0.024208538 0 0.64631355 0
0.0074777077 0.079999998 0.024208013 0 0.64631355 0
0.0065978924 0.079999998 0.024207545 0 0.64631355 0
0.0057181087 0.079999998 0.024207136 0 0.64631355 0
0.004838353 0.079999998 0.024206785 0 0.64631355 0
0.0039586206 0.079999998 0.024206493 0 0.64631355 0
0.0030789075 0.079999998 0.02420626 0 0.64631355 0
0.0021992091 0.079999998 0.024206085 0 0.64631355 0
0.0013195211 0.079999998 0.024205968 0 0.64631355 0
0.00043983967 0.079999998 0.02420591 0 0.64631355 0
0.039208189 0.079999998 0.023380509 0 0.64631355 0
0.03832439 0.079999998 0.023378022 0 0.64631355 0
0.037440773 0.079999998 0.023375593 0 0.64631355 0
0.036557339 0.079999998 0.023373222 0 0.64631355 0
0.03567408 0.079999998 0.023370907 0 0.64631355 0
0.034790996 0.079999998 0.023368647 0 0.64631355 0
0.03390808 0.079999998 0.023366446 0 0.64631355 0
0.033025332 0.079999998 0.023364302 0 0.64631355 0
0.03214274 0.079999998 0.023362214 0 0.64631355 0
0.031260304 0.079999998 0.023360182 0 0.64631355 0
0.030378018 0.079999998 0.023358207 0 0.64631355 0
0.02949588 0.079999998 0.023356289 0 0.64631355 0
0.028613886 0.079999998 0.023354428 0 0.64631355 0
0.02773203 0.079999998 0.023352623 0 0.64631355 0
0.026850307 0.079999998 0.023350876 0 0.64631355 0
0.025968714 0.079999998 0.023349185 0 0.64631355 0
0.025087249 0.079999998 0.023347549 0 0.64631355 0
0.024205903 0.079999998 0.02334597 0 0.64631355 0
0.023324674 0.079999998 0.023344448 0 0.64631355 0
0.022443557 0.079999998 0.023342984 0 0.64631355 0
0.02156255 0.079999998 0.023341574 0 0.64631355 0
0.020681648 0.079999998 0.023340221 0 0.64631355 0
0.019800844 0.079999998 0.023338927 0 0.64631355 0
0.018920137 0.079999998 0.023337686 0 0.64631355 0
0.018039521 0.079999998 0.023336504 0 0.64631355 0
0.017158993 0.079999998 0.023335379 0 0.64631355 0
0.016278546 0.079999998 0.023334308 0 0.64631355 0
0.015398178 0.079999998 0.023333294 0 0.64631355 0
0.014517886 0.079999998 0.023332337 0 0.64631355 0
0.013637663 0.079999998 0.023331435 0 0.64631355 0
0.012757505 0.079999998 0.023330592 0 0.64631355 0
0.01187741 0.079999998 0.023329804 0 0.64631355 0
0.010997372 0.079999998 0.023329072 0 0.64631355 0
0.010117386 0.079999998 0.023328396 0 0.64631355 0
0.0092374505 0.079999998 0.023327777 0 0.64631355 0
0.0083575584 0.079999998 0.023327213 0 0.64631355 0
0.0074777077 0.079999998 0.023326706 0 0.64631355 0
0.0065978924 0.079999998 0.023326257 0 0.64631355 0
0.0057181087 0.079999998 0.023325862 0 0.64631355 0
0.004838353 0.079999998 0.023325525 0 0.64631355 0
0.0039586206 0.079999998 0.023325244 0 0.64631355 0
0.0030789075 0.079999998 0.023325019 0 0.64631355 0
0.0021992091 0.079999998 0.023324849 0 0.64631355 0
0.0013195211 0.079999998 0.023324737 0 0.64631355 0
0.00043983967 0.079999998 0.023324681 0 0.64631355 0
0.039208189 0.079999998 0.022497283 0 0.64631355 0
0.03832439 0.079999998 0.022494892 0 0.64631355 0
0.037440773 0.079999998 0.022492554 0 0.64631355 0
0.036557339 0.079999998 0.022490272 0 0.64631355 0
0.03567408 0.079999998 0.022488045 0 0.64631355 0
0.034790996 0.079999998 0.022485871 0 0.64631355 0
0.03390808 0.079999998 0.022483753 0 0.64631355 0
0.033025332 0.079999998 0.022481689 0 0.64631355 0
0.03214274 0.079999998 0.022479679 0 0.64631355 0
0.031260304 0.079999998 0.022477726 0 0.64631355 0
0.030378018 0.079999998 0.022475824 0 0.64631355 0
0.02949588 0.079999998 0.02247398 0 0.64631355 0
0.028613886 0.079999998 0.022472188 0 0.64631355 0
0.02773203 0.079999998 0.022470452 0 0.64631355 0
0.026850307 0.079999998 0.02246877 0 0.64631355 0
0.025968714 0.079999998 0.022467142 0 0.64631355 0
0.025087249 0.079999998 0.022465568 0 0.64631355 0
0.024205903 0.079999998 0.02246405 0 0.64631355 0
0.023324674 0.079999998 0.022462586 0 0.64631355 0
0.022443557 0.079999998 0.022461176 0 0.64631355 0
0.02156255 0.079999998 0.02245982 0 0.64631355 0
0.020681648 0.079999998 0.02245852 0 0.64631355 0
0.019800844 0.079999998 0.022457272 0 0.64631355 0
0.018920137 0.079999998 0.02245608 0 0.64631355 0
0.018039521 0.079999998 0.022454942 0 0.64631355 0
0.017158993 0.079999998 0.022453858 0 0.64631355 0
0.016278546 0.079999998 0.022452828 0 0.64631355 0
0.015398178 0.079999998 0.022451853 0 0.64631355 0
0.014517886 0.079999998 0.022450931 0 0.64631355 0
0.013637663 0.079999998 0.022450065 0 0.64631355 0
0.012757505 0.079999998 0.022449251 0 0.64631355 0
0.01187741 0.079999998 0.022448493 0 0.64631355 0
0.010997372 0.079999998 0.022447789 0 0.64631355 0
0.010117386 0.079999998 0.022447139 0 0.64631355 0
0.0092374505 0.079999998 0.022446543 0 0.64631355 0
0.0083575584 0.079999998 0.022446001 0 0.64631355 0
0.0074777077 0.079999998 0.022445515 0 0.64631355 0
0.0065978924 0.079999998 0.022445081 0 0.64631355 0
0.0057181087 0.079999998 0.022444703 0 0.64631355 0
0.004838353 0.079999998 0.022444377 0 0.64631355 0
0.0039586206 0.079999998 0.022444107 0 0.64631355 0
0.0030789075 0.079999998 0.022443889 0 0.64631355 0
0.0021992091 0.079999998 0.022443727 0 0.64631355 0
0.0013195211 0.079999998 0.022443619 0 0.64631355 0
0.00043983967 0.079999998 0.022443565 0 0.64631355 0
0.039208189 0.079999998 0.021614168 0 0.64631355 0
0.03832439 0.079999998 0.021611869 0 0.64631355 0
0.037440773 0.079999998 0.021609623 0 0.64631355 0
0.036557339 0.079999998 0.021607431 0 0.64631355 0
0.03567408 0.079999998 0.02160529 0 0.64631355 0
0.034790996 0.079999998 0.021603202 0 0.64631355 0
0.03390808 0.079999998 0.021601167 0 0.64631355 0
0.033025332 0.079999998 0.021599185 0 0.64631355 0
0.03214274 0.079999998 0.021597253 0 0.64631355 0
0.031260304 0.079999998 0.021595376 0 0.64631355 0
0.030378018 0.079999998 0.02159355 0 0.64631355 0
0.02949588 0.079999998 0.021591777 0 0.64631355 0
0.028613886 0.079999998 0.021590058 0 0.64631355 0
0.02773203 0.079999998 0.021588389 0 0.64631355 0
0.026850307 0.079999998 0.021586772 0 0.64631355 0
0.025968714 0.079999998 0.021585209 0 0.64631355 0
0.025087249 0.079999998 0.021583697 0 0.64631355 0
0.024205903 0.079999998 0.021582238 0 0.64631355 0
0.023324674 0.079999998 0.021580832 0 0.64631355 0
0.022443557 0.079999998 0.021579478 0 0.64631355 0
0.02156255 0.079999998 0.021578174 0 0.64631355 0
0.020681648 0.079999998 0.021576924 0 0.64631355 0
0.019800844 0.079999998 0.021575727 0 0.64631355 0
0.018920137 0.079999998 0.021574581 0 0.64631355 0
0.018039521 0.079999998 0.021573488 0 0.64631355 0
0.017158993 0.079999998 0.021572446 0 0.64631355 0
0.016278546 0.079999998 0.021571457 0 0.64631355 0
0.015398178 0.079999998 0.02157052 0 0.64631355 0
0.014517886 0.079999998 0.021569634 0 0.64631355 0
0.013637663 0.079999998 0.021568801 0 0.64631355 0
0.012757505 0.079999998 0.021568021 0 0.64631355 0
0.01187741 0.079999998 0.021567293 0 0.64631355 0
0.010997372 0.079999998 0.021566616 0 0.64631355 0
0.010117386 0.079999998 0.021565991 0 0.64631355 0
0.0092374505 0.079999998 0.021565419 0 0.64631355 0
0.0083575584 0.079999998 0.021564899 0 0.64631355 0
0.0074777077 0.079999998 0.02156443 0 0.64631355 0
0.0065978924 0.079999998 0.021564014 0 0.64631355 0
0.0057181087 0.079999998 0.021563649 0 0.64631355 0
0.004838353 0.079999998 0.021563338 0 0.64631355 0
0.0039586206 0.079999998 0.021563077 0 0.64631355 0
0.0030789075 0.079999998 0.021562869 0 0.64631355 0
0.0021992091 0.079999998 0.021562712 0 0.64631355 0
0.0013195211 0.079999998 0.02156261 0 0.64631355 0
0.00043983967 0.079999998 0.021562558 0 0.64631355 0
0.039208189 0.079999998 0.020731155 0 0.64631355 0
0.03832439 0.079999998 0.020728951 0 0.64631355 0
0.037440773 0.079999998 0.020726798 0 0.64631355 0
0.036557339 0.079999998 0.020724693 0 0.64631355 0
0.03567408 0.079999998 0.020722641 0 0.64631355 0
0.034790996 0.079999998 0.020720638 0 0.64631355 0
0.03390808 0.079999998 0.020718686 0 0.64631355 0
0.033025332 0.079999998 0.020716785 0 0.64631355 0
0.03214274 0.079999998 0.020714933 0 0.64631355 0
0.031260304 0.079999998 0.020713132 0 0.64631355 0
0.030378018 0.079999998 0.020711381 0 0.64631355 0
0.02949588 0.079999998 0.02070968 0 0.64631355 0
0.028613886 0.079999998 0.02070803 0 0.64631355 0
0.02773203 0.079999998 0.02070643 0 0.64631355 0
0.026850307 0.079999998 0.02070488 0 0.64631355 0
0.025968714 0.079999998 0.020703381 0 0.64631355 0
0.025087249 0.079999998 0.02070193 0 0.64631355 0
0.024205903 0.079999998 0.020700531 0 0.64631355 0
0.023324674 0.079999998 0.020699183 0 0.64631355 0
0.022443557 0.079999998 0.020697882 0 0.64631355 0
0.02156255 0.079999998 0.020696633 0 0.64631355 0
0.020681648 0.079999998 0.020695435 0 0.64631355 0
0.019800844 0.079999998 0.020694286 0 0.64631355 0
0.018920137 0.079999998 0.020693187 0 0.64631355 0
0.018039521 0.079999998 0.020692138 0 0.64631355 0
0.017158993 0.079999998 0.02069114 0 0.64631355 0
0.016278546 0.079999998 0.02069019 0 0.64631355 0
0.015398178 0.079999998 0.020689292 0 0.64631355 0
0.014517886 0.079999998 0.020688443 0 0.64631355 0
0.013637663 0.079999998 0.020687643 0 0.64631355 0
0.012757505 0.079999998 0.020686895 0 0.64631355 0
0.01187741 0.079999998 0.020686196 0 0.64631355 0
0.010997372 0.079999998 0.020685546 0 0.64631355 0
0.010117386 0.079999998 0.020684948 0 0.64631355 0
0.0092374505 0.079999998 0.020684399 0 0.64631355 0
0.0083575584 0.079999998 0.0206839 0 0.64631355 0
0.0074777077 0.079999998 0.020683451 0 0.64631355 0
0.0065978924 0.079999998 0.02068305 0 0.64631355 0
0.0057181087 0.079999998 0.020682702 0 0.64631355 0
0.004838353 0.079999998 0.020682402 0 0.64631355 0
0.0039586206 0.079999998 0.020682152 0 0.64631355 0
0.0030789075 0.079999998 0.020681953 0 0.64631355 0
0.0021992091 0.079999998 0.020681804 0 0.64631355 0
0.0013195211 0.079999998 0.020681703 0 0.64631355 0
0.00043983967 0.079999998 0.020681653 0 0.64631355 0
0.039208189 0.079999998 0.019848244 0 0.64631355 0
0.03832439 0.079999998 0.019846134 0 0.64631355 0
0.037440773 0.079999998 0.019844072 0 0.64631355 0
0.036557339 0.079999998 0.019842058 0 0.64631355 0
0.03567408 0.079999998 0.019840091 0 0.64631355 0
0.034790996 0.079999998 0.019838175 0 0.64631355 0
0.03390808 0.079999998 0.019836307 0 0.64631355 0
0.033025332 0.079999998 0.019834485 0 0.64631355 0
0.03214274 0.079999998 0.019832712 0 0.64631355 0
0.031260304 0.079999998 0.019830989 0 0.64631355 0
0.030378018 0.079999998 0.019829312 0 0.64631355 0
0.02949588 0.079999998 0.019827684 0 0.64631355 0
0.028613886 0.079999998 0.019826103 0 0.64631355 0
0.02773203 0.079999998 0.019824572 0 0.64631355 0
0.026850307 0.079999998 0.019823087 0 0.64631355 0
0.025968714 0.079999998 0.019821651 0 0.64631355 0
0.025087249 0.079999998 0.019820264 0 0.64631355 0
0.024205903 0.079999998 0.019818924 0 0.64631355 0
0.023324674 0.079999998 0.019817632 0 0.64631355 0
0.022443557 0.079999998 0.019816387 0 0.64631355 0
0.02156255 0.079999998 0.019815192 0 0.64631355 0
0.020681648 0.079999998 0.019814044 0 0.64631355 0
0.019800844 0.079999998 0.019812943 0 0.64631355 0
0.018920137 0.079999998 0.019811891 0 0.64631355 0
0.018039521 0.079999998 0.019810887 0 0.64631355 0
0.017158993 0.079999998 0.019809932 0 0.64631355 0
0.016278546 0.079999998 0.019809023 0 0.64631355 0
0.015398178 0.079999998 0.019808162 0 0.64631355 0
0.014517886 0.079999998 0.01980735 0 0.64631355 0
0.013637663 0.079999998 0.019806584 0 0.64631355 0
0.012757505 0.079999998 0.019805867 0 0.64631355 0
0.01187741 0.079999998 0.019805199 0 0.64631355 0
0.010997372 0.079999998 0.019804578 0 0.64631355 0
0.010117386 0.079999998 0.019804005 0 0.64631355 0
0.0092374505 0.079999998 0.019803477 0 0.64631355 0
0.0083575584 0.079999998 0.019803001 0 0.64631355 0
0.0074777077 0.079999998 0.01980257 0 0.64631355 0
0.0065978924 0.079999998 0.019802189 0 0.64631355 0
0.0057181087 0.079999998 0.019801853 0 0.64631355 0
0.004838353 0.079999998 0.019801566 0 0.64631355 0
0.0039586206 0.079999998 0.019801328 0 0.64631355 0
0.0030789075 0.079999998 0.019801136 0 0.64631355 0
0.0021992091 0.079999998 0.019800995 0 0.64631355 0
0.0013195211 0.079999998 0.019800898 0 0.64631355 0
0.00043983967 0.079999998 0.019800851 0 0.64631355 0
0.039208189 0.079999998 0.018965429 0 0.64631355 0
0.03832439 0.079999998 0.018963411 0 0.64631355 0
0.037440773 0.079999998 0.018961441 0 0.64631355 0
0.036557339 0.079999998 0.018959517 0 0.64631355 0
0.03567408 0.079999998 0.018957639 0 0.64631355 0
0.034790996 0.079999998 0.018955806 0 0.64631355 0
0.03390808 0.079999998 0.018954022 0 0.64631355 0
0.033025332 0.079999998 0.018952282 0 0.64631355 0
0.03214274 0.079999998 0.018950587 0 0.64631355 0
0.031260304 0.079999998 0.018948941 0 0.64631355 0
0.030378018 0.079999998 0.018947339 0 0.64631355 0
0.02949588 0.079999998 0.018945782 0 0.64631355 0
0.028613886 0.079999998 0.018944273 0 0.64631355 0
0.02773203 0.079999998 0.018942809 0 0.64631355 0
0.026850307 0.079999998 0.018941391 0 0.64631355 0
0.025968714 0.079999998 0.018940018 0 0.64631355 0
0.025087249 0.079999998 0.018938692 0 0.64631355 0
0.024205903 0.079999998 0.018937413 0 0.64631355 0
0.023324674 0.079999998 0.018936178 0 0.64631355 0
0.022443557 0.079999998 0.018934989 0 0.64631355 0
0.02156255 0.079999998 0.018933846 0 0.64631355 0
0.020681648 0.079999998 0.01893275 0 0.64631355 0
0.019800844 0.079999998 0.018931698 0 0.64631355 0
0.018920137 0.079999998 0.018930692 0 0.64631355 0
0.018039521 0.079999998 0.018929733 0 0.64631355 0
0.017158993 0.079999998 0.01892882 0 0.64631355 0
0.016278546 0.079999998 0.018927952 0 0.64631355 0
0.015398178 0.079999998 0.018927129 0 0.64631355 0
0.014517886 0.079999998 0.018926352 0 0.64631355 0
0.013637663 0.079999998 0.018925622 0 0.64631355 0
0.012757505 0.079999998 0.018924937 0 0.64631355 0
0.01187741 0.079999998 0.018924298 0 0.64631355 0
0.010997372 0.079999998 0.018923704 0 0.64631355 0
0.010117386 0.079999998 0.018923156 0 0.64631355 0
0.0092374505 0.079999998 0.018922653 0 0.64631355 0
0.0083575584 0.079999998 0.018922197 0 0.64631355 0
0.0074777077 0.079999998 0.018921787 0 0.64631355 0
0.0065978924 0.079999998 0.018921422 0 0.64631355 0
0.0057181087 0.079999998 0.018921101 0 0.64631355 0
0.004838353 0.079999998 0.018920828 0 0.64631355 0
0.0039586206 0.079999998 0.018920599 0 0.64631355 0
0.0030789075 0.079999998 0.018920416 0 0.64631355 0
0.0021992091 0.079999998 0.01892028 0 0.64631355 0
0.0013195211 0.079999998 0.018920189 0 0.64631355 0
0.00043983967 0.079999998 0.018920142 0 0.64631355 0
0.039208189 0.079999998 0.018082704 0 0.64631355 0
0.03832439 0.079999998 0.018080782 0 0.64631355 0
0.037440773 0.079999998 0.018078903 0 0.64631355 0
0.036557339 0.079999998 0.018077068 0 0.64631355 0
0.03567408 0.079999998 0.018075278 0 0.64631355 0
0.034790996 0.079999998 0.018073531 0 0.64631355 0
0.03390808 0.079999998 0.018071828 0 0.64631355 0
0.033025332 0.079999998 0.018070169 0 0.64631355 0
0.03214274 0.079999998 0.018068554 0 0.64631355 0
0.031260304 0.079999998 0.018066984 0 0.64631355 0
0.030378018 0.079999998 0.018065456 0 0.64631355 0
0.02949588 0.079999998 0.018063972 0 0.64631355 0
0.028613886 0.079999998 0.018062534 0 0.64631355 0
0.02773203 0.079999998 0.018061137 0 0.64631355 0
0.026850307 0.079999998 0.018059785 0 0.64631355 0
0.025968714 0.079999998 0.018058477 0 0.64631355 0
0.025087249 0.079999998 0.018057212 0 0.64631355 0
0.024205903 0.079999998 0.018055992 0 0.64631355 0
0.023324674 0.079999998 0.018054815 0 0.64631355 0
0.022443557 0.079999998 0.018053683 0 0.64631355 0
0.02156255 0.079999998 0.018052593 0 0.64631355 0
0.020681648 0.079999998 0.018051546 0 0.64631355 0
0.019800844 0.079999998 0.018050544 0 0.64631355 0
0.018920137 0.079999998 0.018049587 0 0.64631355 0
0.018039521 0.079999998 0.01804867 0 0.64631355 0
0.017158993 0.079999998 0.0180478 0 0.64631355 0
0.016278546 0.079999998 0.018046971 0 0.64631355 0
0.015398178 0.079999998 0.018046187 0 0.64631355 0
0.014517886 0.079999998 0.018045448 0 0.64631355 0
0.013637663 0.079999998 0.018044751 0 0.64631355 0
0.012757505 0.079999998 0.018044097 0 0.64631355 0
0.01187741 0.079999998 0.018043488 0 0.64631355 0
0.010997372 0.079999998 0.018042922 0 0.64631355 0
0.010117386 0.079999998 0.018042399 0 0.64631355 0
0.0092374505 0.079999998 0.01804192 0 0.64631355 0
0.0083575584 0.079999998 0.018041486 0 0.64631355 0
0.0074777077 0.079999998 0.018041093 0 0.64631355 0
0.0065978924 0.079999998 0.018040745 0 0.64631355 0
0.0057181087 0.079999998 0.018040441 0 0.64631355 0
0.004838353 0.079999998 0.018040178 0 0.64631355 0
0.0039586206 0.079999998 0.018039962 0 0.64631355 0
0.0030789075 0.079999998 0.018039787 0 0.64631355 0
0.0021992091 0.079999998 0.018039657 0 0.64631355 0
0.0013195211 0.079999998 0.018039569 0 0.64631355 0
0.00043983967 0.079999998 0.018039526 0 0.64631355 0
0.039208189 0.079999998 0.017200068 0 0.64631355 0
0.03832439 0.079999998 0.017198239 0 0.64631355 0
0.037440773 0.079999998 0.017196452 0 0.64631355 0
0.036557339 0.079999998 0.017194707 0 0.64631355 0
