# .PCD v0.7 - Point Cloud Data file format
VERSION 0.7
FIELDS x y z vp_x vp_y vp_z
SIZE 4 4 4 4 4 4
TYPE F F F F F F
COUNT 1 1 1 1 1 1
WIDTH 694
HEIGHT 1
VIEWPOINT 0 0 0 1 0 0 0
POINTS 694
DATA ascii
0.017213395 0.079785347 0.052991509 0.19972187 0.52287865 0.32315677
0.016218737 0.079616405 0.052702576 0.19972187 0.52287865 0.32315677
0.015198935 0.079391956 0.052379355 0.19972187 0.52287865 0.32315677
0.014149715 0.079102628 0.052016053 0.19972187 0.52287865 0.32315677
0.013066057 0.078737482 0.051605891 0.19972187 0.52287865 0.32315677
0.011938226 0.078274623 0.05113538 0.19972187 0.52287865 0.32315677
0.010775135 0.077736519 0.050618142 0.19972187 0.52287865 0.32315677
0.0095257862 0.077004761 0.049981542 0.19972187 0.52287865 0.32315677
0.0082067251 0.076120831 0.049250767 0.19972187 0.52287865 0.32315677
0.0067700963 0.074975915 0.04835885 0.19972187 0.52287865 0.32315677
0.0051003266 0.073306911 0.047143929 0.19972187 0.52287865 0.32315677
0.0027626362 0.070122056 0.044996027 0.19972187 0.52287865 0.32315677
0.039999999 0.0027800095 0.015903786 0.19972187 0.52287865 0.32315677
0.039999999 0.0060652276 0.017640259 0.19972187 0.52287865 0.32315677
0.039999999 0.0093129445 0.019356923 0.19972187 0.52287865 0.32315677
0.039999999 0.012523813 0.021054126 0.19972187 0.52287865 0.32315677
0.039999999 0.015698472 0.022732204 0.19972187 0.52287865 0.32315677
0.039999999 0.018837547 0.024391487 0.19972187 0.52287865 0.32315677
0.039999999 0.021941645 0.026032295 0.19972187 0.52287865 0.32315677
0.039999999 0.025011364 0.027654946 0.19972187 0.52287865 0.32315677
0.039999999 0.028047288 0.029259745 0.19972187 0.52287865 0.32315677
0.039999999 0.031049982 0.030846994 0.19972187 0.52287865 0.32315677
0.039999999 0.034020007 0.032416988 0.19972187 0.52287865 0.32315677
0.039999999 0.036957905 0.033970013 0.19972187 0.52287865 0.32315677
0.039999999 0.039864209 0.035506349 0.19972187 0.52287865 0.32315677
0.039999999 0.042739436 0.037026275 0.19972187 0.52287865 0.32315677
0.039999999 0.045584101 0.038530055 0.19972187 0.52287865 0.32315677
0.03998987 0.048368607 0.039999999 0.19972187 0.52287865 0.32315677
0.039154947 0.048688088 0.039999999 0.19972187 0.52287865 0.32315677
0.038320102 0.049007513 0.039999999 0.19972187 0.52287865 0.32315677
0.037485335 0.049326878 0.039999999 0.19972187 0.52287865 0.32315677
0.039959226 0.059247702 0.045745026 0.19972187 0.52287865 0.32315677
0.039904509 0.061761886 0.047063109 0.19972187 0.52287865 0.32315677
0.03963938 0.063646965 0.048006076 0.19972187 0.52287865 0.32315677
0.039274346 0.065228894 0.048768587 0.19972187 0.52287865 0.32315677
0.038853142 0.06663686 0.049427789 0.19972187 0.52287865 0.32315677
0.038368478 0.067853235 0.049972881 0.19972187 0.52287865 0.32315677
0.037850447 0.068965629 0.050456267 0.19972187 0.52287865 0.32315677
0.037305433 0.0699936 0.050889578 0.19972187 0.52287865 0.32315677
0.03672589 0.070917629 0.051260971 0.19972187 0.52287865 0.32315677
0.036131646 0.07179413 0.051604278 0.19972187 0.52287865 0.32315677
0.035509836 0.0725886 0.051898655 0.19972187 0.52287865 0.32315677
0.034873441 0.073337793 0.05216616 0.19972187 0.52287865 0.32315677
0.034220617 0.074037477 0.05240418 0.19972187 0.52287865 0.32315677
0.033546686 0.074675828 0.052605525 0.19972187 0.52287865 0.32315677
0.03286976 0.075302444 0.05280007 0.19972187 0.52287865 0.32315677
0.032161199 0.075841106 0.052941728 0.19972187 0.52287865 0.32315677
0.031453386 0.076379187 0.053083248 0.19972187 0.52287865 0.32315677
0.030722974 0.076855071 0.053187329 0.19972187 0.52287865 0.32315677
0.029981853 0.077300981 0.053273413 0.19972187 0.52287865 0.32315677
0.029235462 0.077731609 0.053350367 0.19972187 0.52287865 0.32315677
0.028461631 0.078089632 0.053383395 0.19972187 0.52287865 0.32315677
0.027687984 0.078447558 0.053416427 0.19972187 0.52287865 0.32315677
0.026893402 0.078751147 0.053416509 0.19972187 0.52287865 0.32315677
0.026086416 0.079023063 0.053397357 0.19972187 0.52287865 0.32315677
0.025276281 0.079287358 0.053373549 0.19972187 0.52287865 0.32315677
0.024434704 0.079472587 0.053301595 0.19972187 0.52287865 0.32315677
0.023592651 0.07965792 0.053229615 0.19972187 0.52287865 0.32315677
0.02272943 0.079791568 0.053126045 0.19972187 0.52287865 0.32315677
0.02185021 0.079887219 0.052999165 0.19972187 0.52287865 0.32315677
0.020966446 0.079973854 0.052866612 0.19972187 0.52287865 0.32315677
0.020052169 0.079987608 0.052689373 0.19972187 0.52287865 0.32315677
0.019126438 0.079976365 0.05249662 0.19972187 0.52287865 0.32315677
0.018168231 0.079889223 0.052257188 0.19972187 0.52287865 0.32315677
0.017200876 0.079783984 0.052006353 0.19972187 0.52287865 0.32315677
0.016204648 0.079613306 0.051715098 0.19972187 0.52287865 0.32315677
0.0151839 0.079388641 0.051390361 0.19972187 0.52287865 0.32315677
0.014132818 0.079096936 0.051024061 0.19972187 0.52287865 0.32315677
0.013048138 0.078731447 0.050611977 0.19972187 0.52287865 0.32315677
0.011918026 0.07826528 0.050137497 0.19972187 0.52287865 0.32315677
0.010753815 0.077726655 0.049617831 0.19972187 0.52287865 0.32315677
0.0095015392 0.076990172 0.048975777 0.19972187 0.52287865 0.32315677
0.0081786467 0.076099485 0.048237942 0.19972187 0.52287865 0.32315677
0.0067365635 0.074944153 0.04733612 0.19972187 0.52287865 0.32315677
0.0050579011 0.073256962 0.04610531 0.19972187 0.52287865 0.32315677
0.0026409009 0.069892444 0.04383852 0.19972187 0.52287865 0.32315677
0.039999999 0.002669367 0.014728826 0.19972187 0.52287865 0.32315677
0.039999999 0.0059587662 0.016473927 0.19972187 0.52287865 0.32315677
0.039999999 0.0092105754 0.018199097 0.19972187 0.52287865 0.32315677
0.039999999 0.012425452 0.019904684 0.19972187 0.52287865 0.32315677
0.039999999 0.015604033 0.021591028 0.19972187 0.52287865 0.32315677
0.039999999 0.01874695 0.023258463 0.19972187 0.52287865 0.32315677
0.039999999 0.021854809 0.024907311 0.19972187 0.52287865 0.32315677
0.039999999 0.024928212 0.02653789 0.19972187 0.52287865 0.32315677
0.039999999 0.027967742 0.028150508 0.19972187 0.52287865 0.32315677
0.039999999 0.030973971 0.029745471 0.19972187 0.52287865 0.32315677
0.039999999 0.033947457 0.031323072 0.19972187 0.52287865 0.32315677
0.039999999 0.036888745 0.032883603 0.19972187 0.52287865 0.32315677
0.039999999 0.039798371 0.034427345 0.19972187 0.52287865 0.32315677
0.039999999 0.042676855 0.03595458 0.19972187 0.52287865 0.32315677
0.039999999 0.045524709 0.037465569 0.19972187 0.52287865 0.32315677
0.039999999 0.048342433 0.038960587 0.19972187 0.52287865 0.32315677
0.039751481 0.050396509 0.039999999 0.19972187 0.52287865 0.32315677
0.038918883 0.050714973 0.039999999 0.19972187 0.52287865 0.32315677
0.038086362 0.051033389 0.039999999 0.19972187 0.52287865 0.32315677
0.039956372 0.059195038 0.044709973 0.19972187 0.52287865 0.32315677
0.039906457 0.061725937 0.046042729 0.19972187 0.52287865 0.32315677
0.039643712 0.063620538 0.046994694 0.19972187 0.52287865 0.32315677
0.039279956 0.065208681 0.047763571 0.19972187 0.52287865 0.32315677
0.038859434 0.066621073 0.048427682 0.19972187 0.52287865 0.32315677
0.038374312 0.067838594 0.048975304 0.19972187 0.52287865 0.32315677
0.037856542 0.068954132 0.049462192 0.19972187 0.52287865 0.32315677
0.037311021 0.069983058 0.049897511 0.19972187 0.52287865 0.32315677
0.03673147 0.070909396 0.0502715 0.19972187 0.52287865 0.32315677
0.036136683 0.071786702 0.050616391 0.19972187 0.52287865 0.32315677
0.035514675 0.072582908 0.050912738 0.19972187 0.52287865 0.32315677
0.034877699 0.073332779 0.051181477 0.19972187 0.52287865 0.32315677
0.034224533 0.074033767 0.051421002 0.19972187 0.52287865 0.32315677
0.033549998 0.074672699 0.051623274 0.19972187 0.52287865 0.32315677
0.03287261 0.075300284 0.051818956 0.19972187 0.52287865 0.32315677
0.032163411 0.075839423 0.051961266 0.19972187 0.52287865 0.32315677
0.031454965 0.076377988 0.052103434 0.19972187 0.52287865 0.32315677
0.030723967 0.076854475 0.0522081 0.19972187 0.52287865 0.32315677
0.029982183 0.077300787 0.052294575 0.19972187 0.52287865 0.32315677
0.029235117 0.077731773 0.05237186 0.19972187 0.52287865 0.32315677
0.028460594 0.078090109 0.052405033 0.19972187 0.52287865 0.32315677
0.027686257 0.078448355 0.052438211 0.19972187 0.52287865 0.32315677
0.026890878 0.078751996 0.052438151 0.19972187 0.52287865 0.32315677
0.026083171 0.079024158 0.052418903 0.19972187 0.52287865 0.32315677
0.025272148 0.079288274 0.052394718 0.19972187 0.52287865 0.32315677
0.024429815 0.079473659 0.052322425 0.19972187 0.52287865 0.32315677
0.023587007 0.079659157 0.052250102 0.19972187 0.52287865 0.32315677
0.022722758 0.079792291 0.052145656 0.19972187 0.52287865 0.32315677
0.021842746 0.079888031 0.052018177 0.19972187 0.52287865 0.32315677
0.020957919 0.079974078 0.051884595 0.19972187 0.52287865 0.32315677
0.020043103 0.079988569 0.05170697 0.19972187 0.52287865 0.32315677
0.019116031 0.079976082 0.051512554 0.19972187 0.52287865 0.32315677
0.018156577 0.079887956 0.05127145 0.19972187 0.52287865 0.32315677
0.017188335 0.07978262 0.051019438 0.19972187 0.52287865 0.32315677
0.016190534 0.079610199 0.050725847 0.19972187 0.52287865 0.32315677
0.015168838 0.079385325 0.05039959 0.19972187 0.52287865 0.32315677
0.01411589 0.079091236 0.050030276 0.19972187 0.52287865 0.32315677
0.013030187 0.078725398 0.049616262 0.19972187 0.52287865 0.32315677
0.011897789 0.078255914 0.049137793 0.19972187 0.52287865 0.32315677
0.010732458 0.077716768 0.04861569 0.19972187 0.52287865 0.32315677
0.0094772466 0.076975554 0.047968149 0.19972187 0.52287865 0.32315677
0.0081505151 0.076078102 0.047223214 0.19972187 0.52287865 0.32315677
0.0067029656 0.074912332 0.046311412 0.19972187 0.52287865 0.32315677
0.00501539 0.073206909 0.045064598 0.19972187 0.52287865 0.32315677
0.0025188234 0.069662176 0.042677756 0.19972187 0.52287865 0.32315677
0.039999999 0.0025584865 0.01355134 0.19972187 0.52287865 0.32315677
0.039999999 0.0058520772 0.015305101 0.19972187 0.52287865 0.32315677
0.039999999 0.0091079893 0.017038807 0.19972187 0.52287865 0.32315677
0.039999999 0.012326881 0.018752811 0.19972187 0.52287865 0.32315677
0.039999999 0.015509396 0.020447455 0.19972187 0.52287865 0.32315677
0.039999999 0.018656163 0.02212307 0.19972187 0.52287865 0.32315677
0.039999999 0.021767793 0.023779988 0.19972187 0.52287865 0.32315677
0.039999999 0.024844889 0.025418524 0.19972187 0.52287865 0.32315677
0.039999999 0.027888034 0.027038991 0.19972187 0.52287865 0.32315677
0.039999999 0.030897805 0.028641695 0.19972187 0.52287865 0.32315677
0.039999999 0.033874761 0.030226933 0.19972187 0.52287865 0.32315677
0.039999999 0.036819447 0.031794999 0.19972187 0.52287865 0.32315677
0.039999999 0.0397324 0.033346172 0.19972187 0.52287865 0.32315677
0.039999999 0.042614151 0.034880739 0.19972187 0.52287865 0.32315677
0.039999999 0.045465201 0.03639897 0.19972187 0.52287865 0.32315677
0.039999999 0.048286058 0.037901126 0.19972187 0.52287865 0.32315677
0.039999999 0.051077213 0.039387476 0.19972187 0.52287865 0.32315677
0.039514396 0.052413117 0.039999999 0.19972187 0.52287865 0.32315677
0.038684107 0.052730583 0.039999999 0.19972187 0.52287865 0.32315677
0.039953511 0.059142265 0.043672878 0.19972187 0.52287865 0.32315677
0.039908409 0.061689921 0.045020409 0.19972187 0.52287865 0.32315677
0.039648052 0.063594058 0.04598143 0.19972187 0.52287865 0.32315677
0.039285578 0.065188438 0.046756707 0.19972187 0.52287865 0.32315677
0.038865734 0.066605255 0.047425758 0.19972187 0.52287865 0.32315677
0.038380157 0.067823932 0.047975916 0.19972187 0.52287865 0.32315677
0.037862647 0.068942614 0.048466329 0.19972187 0.52287865 0.32315677
0.03731662 0.069972493 0.048903659 0.19972187 0.52287865 0.32315677
0.036737058 0.070901155 0.04928026 0.19972187 0.52287865 0.32315677
0.036141727 0.071779259 0.049626742 0.19972187 0.52287865 0.32315677
0.035519518 0.072577201 0.049925067 0.19972187 0.52287865 0.32315677
0.034881964 0.073327757 0.050195042 0.19972187 0.52287865 0.32315677
0.034228459 0.074030057 0.05043608 0.19972187 0.52287865 0.32315677
0.03355331 0.074669562 0.050639275 0.19972187 0.52287865 0.32315677
0.032875467 0.075298108 0.050836101 0.19972187 0.52287865 0.32315677
0.032165628 0.075837739 0.050979067 0.19972187 0.52287865 0.32315677
0.031456549 0.076376788 0.051121887 0.19972187 0.52287865 0.32315677
0.030724963 0.076853879 0.051227137 0.19972187 0.52287865 0.32315677
0.029982515 0.077300586 0.051314004 0.19972187 0.52287865 0.32315677
0.029234771 0.07773193 0.05139162 0.19972187 0.52287865 0.32315677
0.028459556 0.078090586 0.051424943 0.19972187 0.52287865 0.32315677
0.027684525 0.07844916 0.051458266 0.19972187 0.52287865 0.32315677
0.02688835 0.078752846 0.051458064 0.19972187 0.52287865 0.32315677
0.026079921 0.079025254 0.051438719 0.19972187 0.52287865 0.32315677
0.025268007 0.079289183 0.051414158 0.19972187 0.52287865 0.32315677
0.02442492 0.07947474 0.051341522 0.19972187 0.52287865 0.32315677
0.023581354 0.079660401 0.051268857 0.19972187 0.52287865 0.32315677
0.022716073 0.079793021 0.051163524 0.19972187 0.52287865 0.32315677
0.021835268 0.079888843 0.051035449 0.19972187 0.52287865 0.32315677
0.020949375 0.079974316 0.050900836 0.19972187 0.52287865 0.32315677
0.020034021 0.07998953 0.050722815 0.19972187 0.52287865 0.32315677
0.019105604 0.079975799 0.050526734 0.19972187 0.52287865 0.32315677
0.018144904 0.079886682 0.050283942 0.19972187 0.52287865 0.32315677
0.017175771 0.079781257 0.050030757 0.19972187 0.52287865 0.32315677
0.016176393 0.079607084 0.049734816 0.19972187 0.52287865 0.32315677
0.015153749 0.07938201 0.049407035 0.19972187 0.52287865 0.32315677
0.014098931 0.079085521 0.049034685 0.19972187 0.52287865 0.32315677
0.013012204 0.07871934 0.048618738 0.19972187 0.52287865 0.32315677
0.011877514 0.078246534 0.048136253 0.19972187 0.52287865 0.32315677
0.01071106 0.077706873 0.04761171 0.19972187 0.52287865 0.32315677
0.0094529092 0.076960914 0.046958648 0.19972187 0.52287865 0.32315677
0.0081223305 0.076056674 0.046206564 0.19972187 0.52287865 0.32315677
0.0066693025 0.074880444 0.045284718 0.19972187 0.52287865 0.32315677
0.0049727932 0.073156767 0.044021785 0.19972187 0.52287865 0.32315677
0.0023964017 0.069431268 0.041513722 0.19972187 0.52287865 0.32315677
0.00050475297 0.06731119 0.039999999 0.19972187 0.52287865 0.32315677
0.039999999 0.0024473669 0.012371311 0.19972187 0.52287865 0.32315677
0.039999999 0.0057451595 0.014133766 0.19972187 0.52287865 0.32315677
0.039999999 0.0090051843 0.015876044 0.19972187 0.52287865 0.32315677
0.039999999 0.012228102 0.017598497 0.19972187 0.52287865 0.32315677
0.039999999 0.015414559 0.019301469 0.19972187 0.52287865 0.32315677
0.039999999 0.018565185 0.020985298 0.19972187 0.52287865 0.32315677
0.039999999 0.021680593 0.022650314 0.19972187 0.52287865 0.32315677
0.039999999 0.02476139 0.024296837 0.19972187 0.52287865 0.32315677
0.039999999 0.027808161 0.025925182 0.19972187 0.52287865 0.32315677
0.039999999 0.030821482 0.027535655 0.19972187 0.52287865 0.32315677
0.039999999 0.033801913 0.029128559 0.19972187 0.52287865 0.32315677
0.039999999 0.036750007 0.030704184 0.19972187 0.52287865 0.32315677
0.039999999 0.039666299 0.032262821 0.19972187 0.52287865 0.32315677
0.039999999 0.042551316 0.033804744 0.19972187 0.52287865 0.32315677
0.039999999 0.045405574 0.03533024 0.19972187 0.52287865 0.32315677
0.023770498 0 0.0077465847 0.19972187 0.52287865 0.32315677
0.039999999 0.0510238 0.038332988 0.19972187 0.52287865 0.32315677
0.039999999 0.053788744 0.039810766 0.19972187 0.52287865 0.32315677
0.039278604 0.054418553 0.039999999 0.19972187 0.52287865 0.32315677
0.039950646 0.059089389 0.042633731 0.19972187 0.52287865 0.32315677
0.039910365 0.061653838 0.043996137 0.19972187 0.52287865 0.32315677
0.039652403 0.063567534 0.044966269 0.19972187 0.52287865 0.32315677
0.03929121 0.06516815 0.045747984 0.19972187 0.52287865 0.32315677
0.038872048 0.066589415 0.046422005 0.19972187 0.52287865 0.32315677
0.03838601 0.067809239 0.046974707 0.19972187 0.52287865 0.32315677
0.037868764 0.068931073 0.047468662 0.19972187 0.52287865 0.32315677
0.037322231 0.069961913 0.047908008 0.19972187 0.52287865 0.32315677
0.036742661 0.070892893 0.048287239 0.19972187 0.52287865 0.32315677
0.036146782 0.071771808 0.048635315 0.19972187 0.52287865 0.32315677
0.035524372 0.072571486 0.048935629 0.19972187 0.52287865 0.32315677
0.034886241 0.073322728 0.049206845 0.19972187 0.52287865 0.32315677
0.034232385 0.074026331 0.049449399 0.19972187 0.52287865 0.32315677
0.033556633 0.074666411 0.04965353 0.19972187 0.52287865 0.32315677
0.032878324 0.07529594 0.049851503 0.19972187 0.52287865 0.32315677
0.032167852 0.075836048 0.049995124 0.19972187 0.52287865 0.32315677
0.031458136 0.076375581 0.050138593 0.19972187 0.52287865 0.32315677
0.03072596 0.076853275 0.050244432 0.19972187 0.52287865 0.32315677
0.029982848 0.077300385 0.050331697 0.19972187 0.52287865 0.32315677
0.029234424 0.077732094 0.050409649 0.19972187 0.52287865 0.32315677
0.028458515 0.07809107 0.050443117 0.19972187 0.52287865 0.32315677
0.027682792 0.078449965 0.050476585 0.19972187 0.52287865 0.32315677
0.026885819 0.078753702 0.050476242 0.19972187 0.52287865 0.32315677
0.026076665 0.079026349 0.0504568 0.19972187 0.52287865 0.32315677
0.025263859 0.079290092 0.050431855 0.19972187 0.52287865 0.32315677
0.024420014 0.07947582 0.05035888 0.19972187 0.52287865 0.32315677
0.023575692 0.079661652 0.050285865 0.19972187 0.52287865 0.32315677
0.022709377 0.079793751 0.050179649 0.19972187 0.52287865 0.32315677
0.021827778 0.079889655 0.050050974 0.19972187 0.52287865 0.32315677
0.020940816 0.079974547 0.049915317 0.19972187 0.52287865 0.32315677
0.020024922 0.079990491 0.04973691 0.19972187 0.52287865 0.32315677
0.01909516 0.079975516 0.049539153 0.19972187 0.52287865 0.32315677
0.018133208 0.079885416 0.049294665 0.19972187 0.52287865 0.32315677
0.017163185 0.079779886 0.049040295 0.19972187 0.52287865 0.32315677
0.016162228 0.07960397 0.048741993 0.19972187 0.52287865 0.32315677
0.015138633 0.079378679 0.048412684 0.19972187 0.52287865 0.32315677
0.014081942 0.079079792 0.048037283 0.19972187 0.52287865 0.32315677
0.012994188 0.078713268 0.047619395 0.19972187 0.52287865 0.32315677
0.011857203 0.078237139 0.047132872 0.19972187 0.52287865 0.32315677
0.010689624 0.077696957 0.046605874 0.19972187 0.52287865 0.32315677
0.0094285263 0.076946244 0.045947261 0.19972187 0.52287865 0.32315677
0.0080940919 0.076035209 0.045187984 0.19972187 0.52287865 0.32315677
0.0066355742 0.074848495 0.044256024 0.19972187 0.52287865 0.32315677
0.0049301097 0.073106512 0.042976856 0.19972187 0.52287865 0.32315677
0.0022736338 0.069199704 0.040346399 0.19972187 0.52287865 0.32315677
0.0012029881 0.068960287 0.039999999 0.19972187 0.52287865 0.32315677
0.00037407555 0.069276594 0.039999999 0.19972187 0.52287865 0.32315677
0.039999999 0.0023360066 0.011188727 0.19972187 0.52287865 0.32315677
0.039999999 0.0056380113 0.01295991 0.19972187 0.52287865 0.32315677
0.039999999 0.0089021595 0.01471079 0.19972187 0.52287865 0.32315677
0.039999999 0.012129114 0.016441723 0.19972187 0.52287865 0.32315677
0.039999999 0.015319522 0.018153058 0.19972187 0.52287865 0.32315677
0.039999999 0.018474016 0.019845132 0.19972187 0.52287865 0.32315677
0.039999999 0.021593213 0.021518277 0.19972187 0.52287865 0.32315677
0.039999999 0.02467772 0.023172816 0.19972187 0.52287865 0.32315677
0.039999999 0.027728124 0.024809068 0.19972187 0.52287865 0.32315677
0.039999999 0.030745002 0.02642734 0.19972187 0.52287865 0.32315677
0.039999999 0.03372892 0.028027935 0.19972187 0.52287865 0.32315677
0.039999999 0.036680426 0.02961115 0.19972187 0.52287865 0.32315677
0.039999999 0.039600063 0.031177273 0.19972187 0.52287865 0.32315677
0.039999999 0.042488359 0.032726586 0.19972187 0.52287865 0.32315677
0.039999999 0.045345824 0.034259368 0.19972187 0.52287865 0.32315677
0.039999999 0.048172969 0.035775885 0.19972187 0.52287865 0.32315677
0.039999999 0.050970282 0.03727641 0.19972187 0.52287865 0.32315677
0.039999999 0.053738248 0.038761191 0.19972187 0.52287865 0.32315677
0.039869878 0.056097377 0.039999999 0.19972187 0.52287865 0.32315677
0.039947774 0.059036408 0.04159252 0.19972187 0.52287865 0.32315677
0.039912324 0.061617687 0.042969901 0.19972187 0.52287865 0.32315677
0.039656762 0.063540958 0.043949205 0.19972187 0.52287865 0.32315677
0.039296851 0.065147825 0.044737399 0.19972187 0.52287865 0.32315677
0.038878374 0.066573545 0.045416415 0.19972187 0.52287865 0.32315677
0.038391873 0.067794524 0.045971666 0.19972187 0.52287865 0.32315677
0.037874892 0.068919517 0.046469186 0.19972187 0.52287865 0.32315677
0.037327848 0.069951318 0.046910558 0.19972187 0.52287865 0.32315677
0.036748271 0.070884615 0.047292426 0.19972187 0.52287865 0.32315677
0.036151845 0.071764335 0.047642101 0.19972187 0.52287865 0.32315677
0.035529237 0.072565764 0.047944415 0.19972187 0.52287865 0.32315677
0.034890521 0.073317684 0.048216879 0.19972187 0.52287865 0.32315677
0.034236323 0.074022606 0.048460957 0.19972187 0.52287865 0.32315677
0.033559956 0.074663267 0.048666023 0.19972187 0.52287865 0.32315677
0.032881189 0.075293757 0.048865151 0.19972187 0.52287865 0.32315677
0.032170076 0.075834356 0.049009427 0.19972187 0.52287865 0.32315677
0.031459723 0.076374374 0.049153551 0.19972187 0.52287865 0.32315677
0.030726958 0.076852672 0.049259983 0.19972187 0.52287865 0.32315677
0.02998318 0.077300183 0.049347639 0.19972187 0.52287865 0.32315677
0.029234076 0.077732258 0.049425926 0.19972187 0.52287865 0.32315677
0.028457474 0.078091554 0.049459547 0.19972187 0.52287865 0.32315677
0.027681055 0.078450762 0.04949316 0.19972187 0.52287865 0.32315677
0.026883284 0.078754552 0.049492672 0.19972187 0.52287865 0.32315677
0.026073404 0.079027452 0.049473129 0.19972187 0.52287865 0.32315677
0.025259703 0.079291008 0.049447805 0.19972187 0.52287865 0.32315677
0.0244151 0.0794769 0.049374484 0.19972187 0.52287865 0.32315677
0.023570018 0.079662897 0.049301125 0.19972187 0.52287865 0.32315677
0.02270267 0.079794481 0.049194016 0.19972187 0.52287865 0.32315677
0.021820273 0.079890475 0.049064737 0.19972187 0.52287865 0.32315677
0.020932242 0.079974778 0.048928034 0.19972187 0.52287865 0.32315677
0.020015806 0.079991452 0.048749238 0.19972187 0.52287865 0.32315677
0.019084698 0.079975232 0.048549794 0.19972187 0.52287865 0.32315677
0.018121492 0.079884142 0.048303608 0.19972187 0.52287865 0.32315677
0.017150577 0.079778515 0.048048049 0.19972187 0.52287865 0.32315677
0.016148038 0.079600841 0.04774737 0.19972187 0.52287865 0.32315677
0.015123488 0.079375349 0.047416527 0.19972187 0.52287865 0.32315677
0.014064921 0.079074062 0.04703806 0.19972187 0.52287865 0.32315677
0.012976139 0.078707188 0.046618219 0.19972187 0.52287865 0.32315677
0.011836854 0.078227721 0.04612764 0.19972187 0.52287865 0.32315677
0.010668147 0.077687018 0.045598183 0.19972187 0.52287865 0.32315677
0.0094040977 0.076931544 0.044933978 0.19972187 0.52287865 0.32315677
0.0080658002 0.076013699 0.044167463 0.19972187 0.52287865 0.32315677
0.0066017797 0.07481648 0.043225326 0.19972187 0.52287865 0.32315677
0.0048873397 0.073056161 0.041929804 0.19972187 0.52287865 0.32315677
0.0027239562 0.070284933 0.039999999 0.19972187 0.52287865 0.32315677
0.0018974392 0.07060045 0.039999999 0.19972187 0.52287865 0.32315677
0.0010708134 0.070916012 0.039999999 0.19972187 0.52287865 0.32315677
0.00024407482 0.071231604 0.039999999 0.19972187 0.52287865 0.32315677
0.039999999 0.0022244041 0.010003573 0.19972187 0.52287865 0.32315677
0.039999999 0.0055306316 0.011783517 0.19972187 0.52287865 0.32315677
0.039999999 0.0087989131 0.013543033 0.19972187 0.52287865 0.32315677
0.039999999 0.012029913 0.01528248 0.19972187 0.52287865 0.32315677
0.039999999 0.015224283 0.017002208 0.19972187 0.52287865 0.32315677
0.039999999 0.018382654 0.018702557 0.19972187 0.52287865 0.32315677
0.039999999 0.02150565 0.020383863 0.19972187 0.52287865 0.32315677
0.039999999 0.024593873 0.022046449 0.19972187 0.52287865 0.32315677
0.039999999 0.027647918 0.023690637 0.19972187 0.52287865 0.32315677
0.039999999 0.030668365 0.025316736 0.19972187 0.52287865 0.32315677
0.039999999 0.033655774 0.026925053 0.19972187 0.52287865 0.32315677
0.039999999 0.036610704 0.028515885 0.19972187 0.52287865 0.32315677
0.039999999 0.039533693 0.030089522 0.19972187 0.52287865 0.32315677
0.039999999 0.042425275 0.031646248 0.19972187 0.52287865 0.32315677
0.039999999 0.045285959 0.033186346 0.19972187 0.52287865 0.32315677
0.039999999 0.048116256 0.034710083 0.19972187 0.52287865 0.32315677
0.039999999 0.050916657 0.03621773 0.19972187 0.52287865 0.32315677
0.039999999 0.053687654 0.037709545 0.19972187 0.52287865 0.32315677
0.039999999 0.056429714 0.039185781 0.19972187 0.52287865 0.32315677
0.039944898 0.058983322 0.040549234 0.19972187 0.52287865 0.32315677
0.039914288 0.061581463 0.041941695 0.19972187 0.52287865 0.32315677
0.039661124 0.063514337 0.04293023 0.19972187 0.52287865 0.32315677
0.039302506 0.06512747 0.043724936 0.19972187 0.52287865 0.32315677
0.038884711 0.066557638 0.044408973 0.19972187 0.52287865 0.32315677
0.038397748 0.067779779 0.044966787 0.19972187 0.52287865 0.32315677
0.037881032 0.068907939 0.045467891 0.19972187 0.52287865 0.32315677
0.037333481 0.069940694 0.04591129 0.19972187 0.52287865 0.32315677
0.036753893 0.070876323 0.04629581 0.19972187 0.52287865 0.32315677
0.036156919 0.071756855 0.046647094 0.19972187 0.52287865 0.32315677
0.035534106 0.072560027 0.046951417 0.19972187 0.52287865 0.32315677
0.034894813 0.073312633 0.047225129 0.19972187 0.52287865 0.32315677
0.034240268 0.074018866 0.047470737 0.19972187 0.52287865 0.32315677
0.03356329 0.074660107 0.047676746 0.19972187 0.52287865 0.32315677
0.032884061 0.075291574 0.047877032 0.19972187 0.52287865 0.32315677
0.032172307 0.075832658 0.048021965 0.19972187 0.52287865 0.32315677
0.031461313 0.07637316 0.048166748 0.19972187 0.52287865 0.32315677
0.030727958 0.076852076 0.048273772 0.19972187 0.52287865 0.32315677
0.029983513 0.077299982 0.048361827 0.19972187 0.52287865 0.32315677
0.029233728 0.077732414 0.048440449 0.19972187 0.52287865 0.32315677
0.028456429 0.078092039 0.048474219 0.19972187 0.52287865 0.32315677
0.027679315 0.078451566 0.048507977 0.19972187 0.52287865 0.32315677
0.026880743 0.078755409 0.048507344 0.19972187 0.52287865 0.32315677
0.026070137 0.079028554 0.048487704 0.19972187 0.52287865 0.32315677
0.02525554 0.079291925 0.048461992 0.19972187 0.52287865 0.32315677
0.024410177 0.079477981 0.048388325 0.19972187 0.52287865 0.32315677
0.023564335 0.079664148 0.04831462 0.19972187 0.52287865 0.32315677
0.022695949 0.079795212 0.048206612 0.19972187 0.52287865 0.32315677
0.021812754 0.079891294 0.04807673 0.19972187 0.52287865 0.32315677
0.020923654 0.079975009 0.047938976 0.19972187 0.52287865 0.32315677
0.020006675 0.079992421 0.047759797 0.19972187 0.52287865 0.32315677
0.019074215 0.079974949 0.04755865 0.19972187 0.52287865 0.32315677
0.018109754 0.07988286 0.047310755 0.19972187 0.52287865 0.32315677
0.017137947 0.079777136 0.047054008 0.19972187 0.52287865 0.32315677
0.016133821 0.079597712 0.046750937 0.19972187 0.52287865 0.32315677
0.015108317 0.079372011 0.046418555 0.19972187 0.52287865 0.32315677
0.014047869 0.079068311 0.046037 0.19972187 0.52287865 0.32315677
0.012958056 0.078701094 0.045615207 0.19972187 0.52287865 0.32315677
0.011816467 0.078218289 0.045120545 0.19972187 0.52287865 0.32315677
0.010646631 0.077677064 0.044588614 0.19972187 0.52287865 0.32315677
0.0093796235 0.076916821 0.043918792 0.19972187 0.52287865 0.32315677
0.0080374544 0.075992152 0.043144993 0.19972187 0.52287865 0.32315677
0.0065679192 0.074784413 0.042192604 0.19972187 0.52287865 0.32315677
0.0048444821 0.073005706 0.040880609 0.19972187 0.52287865 0.32315677
0.0034123855 0.071916983 0.039999999 0.19972187 0.52287865 0.32315677
0.0025881403 0.072231762 0.039999999 0.19972187 0.52287865 0.32315677
0.0017637885 0.072546571 0.039999999 0.19972187 0.52287865 0.32315677
0.00093932642 0.072861426 0.039999999 0.19972187 0.52287865 0.32315677
0.00011474982 0.073176317 0.039999999 0.19972187 0.52287865 0.32315677
0.039999999 0.0021125586 0.0088158362 0.19972187 0.52287865 0.32315677
0.039999999 0.0054230192 0.010604575 0.19972187 0.52287865 0.32315677
0.039999999 0.0086954441 0.012372761 0.19972187 0.52287865 0.32315677
0.039999999 0.0119305 0.014120754 0.19972187 0.52287865 0.32315677
0.039999999 0.01512884 0.015848907 0.19972187 0.52287865 0.32315677
0.039999999 0.018291099 0.017557561 0.19972187 0.52287865 0.32315677
0.039999999 0.021417901 0.019247059 0.19972187 0.52287865 0.32315677
0.039999999 0.024509853 0.020917723 0.19972187 0.52287865 0.32315677
0.039999999 0.027567547 0.022569876 0.19972187 0.52287865 0.32315677
0.039999999 0.030591568 0.024203831 0.19972187 0.52287865 0.32315677
0.039999999 0.033582479 0.025819898 0.19972187 0.52287865 0.32315677
0.039999999 0.03654084 0.027418373 0.19972187 0.52287865 0.32315677
0.039999999 0.039467189 0.028999552 0.19972187 0.52287865 0.32315677
0.039999999 0.04236206 0.030563721 0.19972187 0.52287865 0.32315677
0.039999999 0.04522597 0.03211116 0.19972187 0.52287865 0.32315677
0.039999999 0.048059426 0.033642143 0.19972187 0.52287865 0.32315677
0.039999999 0.050862927 0.035156939 0.19972187 0.52287865 0.32315677
0.039999999 0.053636957 0.03665581 0.19972187 0.52287865 0.32315677
0.039999999 0.056381993 0.038139012 0.19972187 0.52287865 0.32315677
0.039999999 0.059098497 0.039606798 0.19972187 0.52287865 0.32315677
0.039916255 0.061545171 0.040911507 0.19972187 0.52287865 0.32315677
0.039665502 0.063487664 0.041909326 0.19972187 0.52287865 0.32315677
0.039308168 0.06510707 0.042710587 0.19972187 0.52287865 0.32315677
0.038891058 0.066541709 0.043399677 0.19972187 0.52287865 0.32315677
0.038403634 0.067765005 0.043960061 0.19972187 0.52287865 0.32315677
0.037887182 0.068896338 0.044464763 0.19972187 0.52287865 0.32315677
0.037339121 0.069930054 0.0449102 0.19972187 0.52287865 0.32315677
0.036759522 0.070868023 0.045297388 0.19972187 0.52287865 0.32315677
0.036162 0.071749359 0.045650281 0.19972187 0.52287865 0.32315677
0.035538986 0.072554283 0.045956627 0.19972187 0.52287865 0.32315677
0.034899108 0.073307574 0.04623159 0.19972187 0.52287865 0.32315677
0.034244221 0.074015126 0.046478737 0.19972187 0.52287865 0.32315677
0.033566628 0.074656948 0.046685688 0.19972187 0.52287865 0.32315677
0.032886937 0.075289391 0.046887137 0.19972187 0.52287865 0.32315677
0.032174543 0.075830959 0.047032733 0.19972187 0.52287865 0.32315677
0.031462908 0.076371953 0.047178172 0.19972187 0.52287865 0.32315677
0.03072896 0.076851472 0.047285791 0.19972187 0.52287865 0.32315677
0.029983846 0.077299781 0.047374245 0.19972187 0.52287865 0.32315677
0.029233379 0.077732578 0.047453206 0.19972187 0.52287865 0.32315677
0.028455382 0.078092515 0.047487125 0.19972187 0.52287865 0.32315677
0.027677573 0.078452379 0.047521032 0.19972187 0.52287865 0.32315677
0.026878197 0.078756265 0.04752025 0.19972187 0.52287865 0.32315677
0.026066864 0.079029657 0.047500513 0.19972187 0.52287865 0.32315677
0.02525137 0.079292841 0.04747441 0.19972187 0.52287865 0.32315677
0.024405247 0.079479069 0.0474004 0.19972187 0.52287865 0.32315677
0.023558643 0.0796654 0.047326345 0.19972187 0.52287865 0.32315677
0.022689218 0.079795942 0.047217436 0.19972187 0.52287865 0.32315677
0.021805223 0.079892114 0.047086947 0.19972187 0.52287865 0.32315677
0.020915048 0.07997524 0.046948135 0.19972187 0.52287865 0.32315677
0.019997528 0.07999339 0.046768568 0.19972187 0.52287865 0.32315677
0.019063713 0.079974666 0.046565715 0.19972187 0.52287865 0.32315677
0.018097995 0.079881579 0.046316102 0.19972187 0.52287865 0.32315677
0.017125292 0.079775766 0.046058159 0.19972187 0.52287865 0.32315677
0.016119577 0.079594582 0.045752686 0.19972187 0.52287865 0.32315677
0.015093118 0.079368666 0.045418762 0.19972187 0.52287865 0.32315677
0.014030786 0.079062559 0.045034103 0.19972187 0.52287865 0.32315677
0.01293994 0.078694992 0.044610348 0.19972187 0.52287865 0.32315677
0.011796042 0.078208841 0.044111576 0.19972187 0.52287865 0.32315677
0.010624542 0.077665836 0.043576382 0.19972187 0.52287865 0.32315677
0.0093551027 0.076902069 0.042901691 0.19972187 0.52287865 0.32315677
0.0080090538 0.07597056 0.042120561 0.19972187 0.52287865 0.32315677
0.006533992 0.074752271 0.041157853 0.19972187 0.52287865 0.32315677
0.0049189962 0.073226273 0.039999999 0.19972187 0.52287865 0.32315677
0.0040971106 0.073540263 0.039999999 0.19972187 0.52287865 0.32315677
0.0032751248 0.07385429 0.039999999 0.19972187 0.52287865 0.32315677
0.0024530347 0.074168362 0.039999999 0.19972187 0.52287865 0.32315677
0.0016308366 0.074482478 0.039999999 0.19972187 0.52287865 0.32315677
0.00080852624 0.074796639 0.039999999 0.19972187 0.52287865 0.32315677
0.039999999 0.0020004683 0.0076255011 0.19972187 0.52287865 0.32315677
0.039999999 0.005315173 0.0094230697 0.19972187 0.52287865 0.32315677
0.039999999 0.0085917516 0.011199958 0.19972187 0.52287865 0.32315677
0.039999999 0.011830874 0.01295653 0.19972187 0.52287865 0.32315677
0.039999999 0.015033194 0.014693139 0.19972187 0.52287865 0.32315677
0.039999999 0.018199351 0.016410133 0.19972187 0.52287865 0.32315677
0.039999999 0.021329967 0.018107852 0.19972187 0.52287865 0.32315677
0.039999999 0.024425654 0.019786622 0.19972187 0.52287865 0.32315677
0.039999999 0.027487008 0.021446772 0.19972187 0.52287865 0.32315677
0.039999999 0.030514611 0.023088614 0.19972187 0.52287865 0.32315677
0.039999999 0.033509035 0.024712458 0.19972187 0.52287865 0.32315677
0.039999999 0.03647083 0.026318608 0.19972187 0.52287865 0.32315677
0.039999999 0.039400548 0.027907355 0.19972187 0.52287865 0.32315677
0.039999999 0.042298719 0.029478991 0.19972187 0.52287865 0.32315677
0.039999999 0.045165859 0.031033799 0.19972187 0.52287865 0.32315677
0.039999999 0.048002485 0.032572053 0.19972187 0.52287865 0.32315677
0.039999999 0.050809089 0.034094024 0.19972187 0.52287865 0.32315677
0.039999999 0.053586159 0.035599977 0.19972187 0.52287865 0.32315677
0.039999999 0.056334175 0.037090167 0.19972187 0.52287865 0.32315677
0.039999999 0.059053604 0.038564853 0.19972187 0.52287865 0.32315677
0.039986301 0.061705355 0.039999999 0.19972187 0.52287865 0.32315677
0.039669883 0.063460931 0.040886492 0.19972187 0.52287865 0.32315677
0.039313842 0.065086633 0.041694343 0.19972187 0.52287865 0.32315677
0.038897417 0.06652575 0.04238851 0.19972187 0.52287865 0.32315677
0.038409531 0.067750201 0.042951472 0.19972187 0.52287865 0.32315677
0.037893344 0.068884715 0.043459792 0.19972187 0.52287865 0.32315677
0.037344772 0.0699194 0.043907277 0.19972187 0.52287865 0.32315677
0.036765166 0.0708597 0.044297144 0.19972187 0.52287865 0.32315677
0.036167089 0.071741849 0.044651654 0.19972187 0.52287865 0.32315677
0.035543878 0.072548531 0.044960029 0.19972187 0.52287865 0.32315677
0.034903415 0.073302507 0.045236249 0.19972187 0.52287865 0.32315677
0.034248177 0.074011378 0.045484945 0.19972187 0.52287865 0.32315677
0.033569973 0.074653774 0.045692839 0.19972187 0.52287865 0.32315677
0.032889817 0.075287201 0.045895457 0.19972187 0.52287865 0.32315677
0.032176778 0.07582926 0.046041716 0.19972187 0.52287865 0.32315677
0.031464506 0.076370738 0.046187818 0.19972187 0.52287865 0.32315677
0.030729964 0.076850869 0.046296038 0.19972187 0.52287865 0.32315677
0.029984182 0.07729958 0.04638489 0.19972187 0.52287865 0.32315677
0.029233031 0.077732742 0.04646419 0.19972187 0.52287865 0.32315677
0.028454335 0.078093007 0.046498254 0.19972187 0.52287865 0.32315677
0.027675826 0.078453183 0.046532311 0.19972187 0.52287865 0.32315677
0.026875647 0.07875713 0.046531379 0.19972187 0.52287865 0.32315677
0.026063586 0.07903076 0.046511546 0.19972187 0.52287865 0.32315677
0.025247192 0.079293765 0.046485048 0.19972187 0.52287865 0.32315677
0.024400307 0.079480156 0.046410691 0.19972187 0.52287865 0.32315677
0.023552937 0.079666659 0.046336289 0.19972187 0.52287865 0.32315677
0.022682473 0.079796672 0.046226472 0.19972187 0.52287865 0.32315677
0.021797678 0.079892933 0.046095371 0.19972187 0.52287865 0.32315677
0.020906428 0.079975471 0.045955498 0.19972187 0.52287865 0.32315677
0.019988364 0.079994358 0.045775548 0.19972187 0.52287865 0.32315677
0.019053193 0.079974383 0.045570981 0.19972187 0.52287865 0.32315677
0.018086214 0.079880297 0.045319635 0.19972187 0.52287865 0.32315677
0.017112615 0.07977438 0.045060497 0.19972187 0.52287865 0.32315677
0.016105309 0.079591438 0.044752605 0.19972187 0.52287865 0.32315677
0.015077891 0.079365313 0.044417128 0.19972187 0.52287865 0.32315677
0.014013671 0.079056792 0.044029348 0.19972187 0.52287865 0.32315677
0.012921791 0.078688875 0.043603629 0.19972187 0.52287865 0.32315677
0.011775579 0.078199372 0.043100722 0.19972187 0.52287865 0.32315677
0.010601232 0.077651814 0.042560499 0.19972187 0.52287865 0.32315677
0.0093305362 0.076887287 0.041882668 0.19972187 0.52287865 0.32315677
0.0079805991 0.075948924 0.041094158 0.19972187 0.52287865 0.32315677
0.0064999978 0.074720077 0.04012106 0.19972187 0.52287865 0.32315677
0.0055978056 0.074841589 0.039999999 0.19972187 0.52287865 0.32315677
0.0047781649 0.075154833 0.039999999 0.19972187 0.52287865 0.32315677
0.0039584264 0.075468123 0.039999999 0.19972187 0.52287865 0.32315677
0.0031385855 0.075781457 0.039999999 0.19972187 0.52287865 0.32315677
0.0023186388 0.076094836 0.039999999 0.19972187 0.52287865 0.32315677
0.0014985822 0.076408267 0.039999999 0.19972187 0.52287865 0.32315677
0.00067841174 0.076721743 0.039999999 0.19972187 0.52287865 0.32315677
0.039999999 0.001888132 0.0064325538 0.19972187 0.52287865 0.32315677
0.039999999 0.0052070916 0.0082389861 0.19972187 0.52287865 0.32315677
0.039999999 0.0084878346 0.010024611 0.19972187 0.52287865 0.32315677
0.039999999 0.011731032 0.011789794 0.19972187 0.52287865 0.32315677
0.039999999 0.014937342 0.013534893 0.19972187 0.52287865 0.32315677
0.039999999 0.018107405 0.015260259 0.19972187 0.52287865 0.32315677
0.039999999 0.021241846 0.016966229 0.19972187 0.52287865 0.32315677
0.039999999 0.024341278 0.018653138 0.19972187 0.52287865 0.32315677
0.039999999 0.027406299 0.020321313 0.19972187 0.52287865 0.32315677
0.039999999 0.030437496 0.021971071 0.19972187 0.52287865 0.32315677
0.039999999 0.033435434 0.023602722 0.19972187 0.52287865 0.32315677
0.039999999 0.036400676 0.025216572 0.19972187 0.52287865 0.32315677
0.039999999 0.039333768 0.026812917 0.19972187 0.52287865 0.32315677
0.039999999 0.042235248 0.028392049 0.19972187 0.52287865 0.32315677
0.039999999 0.045105629 0.029954251 0.19972187 0.52287865 0.32315677
0.039999999 0.047945425 0.031499803 0.19972187 0.52287865 0.32315677
0.039999999 0.050755143 0.033028975 0.19972187 0.52287865 0.32315677
0.039999999 0.05353526 0.034542032 0.19972187 0.52287865 0.32315677
0.039999999 0.056286264 0.036039241 0.19972187 0.52287865 0.32315677
0.039999999 0.059008621 0.037520848 0.19972187 0.52287865 0.32315677
0.018630091 0 0.00096677343 0.19972187 0.52287865 0.32315677
0.039752401 0.063658439 0.039999999 0.19972187 0.52287865 0.32315677
0.039319526 0.065066159 0.040676191 0.19972187 0.52287865 0.32315677
0.038903788 0.066509761 0.041375462 0.19972187 0.52287865 0.32315677
0.038415439 0.067735374 0.041941013 0.19972187 0.52287865 0.32315677
0.037899517 0.06887307 0.042452976 0.19972187 0.52287865 0.32315677
0.037350431 0.069908723 0.042902507 0.19972187 0.52287865 0.32315677
0.036770817 0.070851363 0.043295071 0.19972187 0.52287865 0.32315677
0.036172189 0.071734324 0.043651205 0.19972187 0.52287865 0.32315677
0.035548776 0.072542764 0.043961618 0.19972187 0.52287865 0.32315677
0.034907728 0.073297426 0.0442391 0.19972187 0.52287865 0.32315677
0.034252144 0.074007623 0.04448935 0.19972187 0.52287865 0.32315677
0.033573322 0.074650601 0.04469819 0.19972187 0.52287865 0.32315677
0.032892704 0.07528501 0.044901982 0.19972187 0.52287865 0.32315677
0.03217902 0.075827554 0.045048911 0.19972187 0.52287865 0.32315677
0.031466104 0.076369524 0.045195673 0.19972187 0.52287865 0.32315677
0.03073097 0.076850258 0.045304492 0.19972187 0.52287865 0.32315677
0.029984517 0.077299379 0.045393746 0.19972187 0.52287865 0.32315677
0.029232681 0.077732898 0.045473386 0.19972187 0.52287865 0.32315677
0.028453285 0.078093491 0.045507602 0.19972187 0.52287865 0.32315677
0.027674077 0.078453995 0.045541804 0.19972187 0.52287865 0.32315677
0.026873093 0.078757986 0.045540724 0.19972187 0.52287865 0.32315677
0.0260603 0.079031862 0.04552079 0.19972187 0.52287865 0.32315677
0.025243007 0.079294682 0.045493901 0.19972187 0.52287865 0.32315677
0.024395356 0.079481244 0.045419194 0.19972187 0.52287865 0.32315677
0.023547225 0.079667911 0.045344442 0.19972187 0.52287865 0.32315677
0.022675717 0.079797409 0.045233712 0.19972187 0.52287865 0.32315677
0.021790119 0.079893753 0.045102004 0.19972187 0.52287865 0.32315677
0.020897793 0.079975709 0.044961058 0.19972187 0.52287865 0.32315677
0.019979183 0.079995327 0.044780727 0.19972187 0.52287865 0.32315677
0.019042654 0.0799741 0.044574428 0.19972187 0.52287865 0.32315677
0.018074412 0.079879016 0.044321347 0.19972187 0.52287865 0.32315677
0.017099915 0.079773001 0.044061009 0.19972187 0.52287865 0.32315677
0.016091013 0.079588294 0.043750685 0.19972187 0.52287865 0.32315677
0.015062635 0.079361953 0.043413654 0.19972187 0.52287865 0.32315677
0.013996525 0.07905101 0.043022733 0.19972187 0.52287865 0.32315677
0.012903608 0.078682743 0.04259504 0.19972187 0.52287865 0.32315677
0.011755078 0.078189887 0.042087976 0.19972187 0.52287865 0.32315677
0.010577878 0.077637762 0.04154269 0.19972187 0.52287865 0.32315677
0.0093059223 0.076872475 0.040861707 0.19972187 0.52287865 0.32315677
0.0079520894 0.07592725 0.040065773 0.19972187 0.52287865 0.32315677
0.007090305 0.076135822 0.039999999 0.19972187 0.52287865 0.32315677
0.0062729893 0.076448277 0.039999999 0.19972187 0.52287865 0.32315677
0.005455581 0.076760776 0.039999999 0.19972187 0.52287865 0.32315677
0.0046380772 0.077073328 0.039999999 0.19972187 0.52287865 0.32315677
0.0038204736 0.077385932 0.039999999 0.19972187 0.52287865 0.32315677
0.0030027661 0.077698581 0.039999999 0.19972187 0.52287865 0.32315677
0.002184951 0.078011282 0.039999999 0.19972187 0.52287865 0.32315677
0.0013670243 0.078324042 0.039999999 0.19972187 0.52287865 0.32315677
0.00054898195 0.078636855 0.039999999 0.19972187 0.52287865 0.32315677
0.039999999 0.0017755484 0.00523698 0.19972187 0.52287865 0.32315677
0.039999999 0.0050987732 0.0070523103 0.19972187 0.52287865 0.32315677
0.039999999 0.0083836904 0.0088467058 0.19972187 0.52287865 0.32315677
0.039999999 0.011630975 0.010620534 0.19972187 0.52287865 0.32315677
0.039999999 0.014841285 0.012374156 0.19972187 0.52287865 0.32315677
0.039999999 0.018015264 0.014107922 0.19972187 0.52287865 0.32315677
0.039999999 0.021153538 0.015822178 0.19972187 0.52287865 0.32315677
0.039999999 0.024256725 0.017517256 0.19972187 0.52287865 0.32315677
0.039999999 0.027325422 0.019193485 0.19972187 0.52287865 0.32315677
0.039999999 0.030360216 0.020851187 0.19972187 0.52287865 0.32315677
0.039999999 0.033361681 0.022490676 0.19972187 0.52287865 0.32315677
0.039999999 0.03633038 0.024112254 0.19972187 0.52287865 0.32315677
0.039999999 0.039266855 0.025716225 0.19972187 0.52287865 0.32315677
0.039999999 0.042171646 0.02730288 0.19972187 0.52287865 0.32315677
0.039999999 0.045045275 0.028872505 0.19972187 0.52287865 0.32315677
0.039999999 0.047888253 0.030425379 0.19972187 0.52287865 0.32315677
0.039999999 0.050701085 0.031961776 0.19972187 0.52287865 0.32315677
0.039999999 0.053484261 0.03348197 0.19972187 0.52287865 0.32315677
0.039999999 0.05623826 0.034986213 0.19972187 0.52287865 0.32315677
0.039999999 0.058963548 0.036474772 0.19972187 0.52287865 0.32315677
0.039999999 0.061660592 0.037947889 0.19972187 0.52287865 0.32315677
0.039999999 0.064329833 0.039405815 0.19972187 0.52287865 0.32315677
0.039519776 0.065600984 0.039999999 0.19972187 0.52287865 0.32315677
0.038910169 0.066493735 0.040360529 0.19972187 0.52287865 0.32315677
0.038421359 0.067720525 0.040928673 0.19972187 0.52287865 0.32315677
0.037905704 0.068861403 0.041444294 0.19972187 0.52287865 0.32315677
0.037356105 0.069898024 0.041895885 0.19972187 0.52287865 0.32315677
0.036776479 0.070843011 0.042291161 0.19972187 0.52287865 0.32315677
0.0361773 0.071726792 0.042648919 0.19972187 0.52287865 0.32315677
0.035553683 0.072536983 0.042961381 0.19972187 0.52287865 0.32315677
0.03491205 0.073292345 0.04324013 0.19972187 0.52287865 0.32315677
0.034256116 0.074003853 0.043491941 0.19972187 0.52287865 0.32315677
0.033576678 0.074647427 0.043701734 0.19972187 0.52287865 0.32315677
0.032895595 0.075282812 0.043906707 0.19972187 0.52287865 0.32315677
0.032181267 0.075825848 0.0440543 0.19972187 0.52287865 0.32315677
0.031467706 0.076368302 0.044201728 0.19972187 0.52287865 0.32315677
0.030731978 0.076849654 0.044311151 0.19972187 0.52287865 0.32315677
0.029984852 0.077299178 0.044400807 0.19972187 0.52287865 0.32315677
0.029232329 0.077733062 0.044480786 0.19972187 0.52287865 0.32315677
0.028452234 0.078093976 0.044515155 0.19972187 0.52287865 0.32315677
0.027672324 0.0784548 0.044549506 0.19972187 0.52287865 0.32315677
0.026870534 0.078758851 0.044548273 0.19972187 0.52287865 0.32315677
0.026057009 0.079032972 0.044528242 0.19972187 0.52287865 0.32315677
0.025238814 0.079295605 0.044500954 0.19972187 0.52287865 0.32315677
0.024390399 0.079482339 0.044425901 0.19972187 0.52287865 0.32315677
0.023541501 0.079669178 0.044350795 0.19972187 0.52287865 0.32315677
0.022668948 0.079798147 0.044239145 0.19972187 0.52287865 0.32315677
0.021782547 0.07989458 0.044106822 0.19972187 0.52287865 0.32315677
0.020889141 0.07997594 0.043964807 0.19972187 0.52287865 0.32315677
0.019969985 0.079996303 0.043784093 0.19972187 0.52287865 0.32315677
0.019032095 0.079973809 0.043576058 0.19972187 0.52287865 0.32315677
0.018062588 0.079877727 0.04332123 0.19972187 0.52287865 0.32315677
0.017087189 0.079771616 0.043059684 0.19972187 0.52287865 0.32315677
0.016076691 0.079585142 0.042746916 0.19972187 0.52287865 0.32315677
0.015047352 0.079358593 0.042408325 0.19972187 0.52287865 0.32315677
0.013979346 0.079045221 0.042014249 0.19972187 0.52287865 0.32315677
0.012885391 0.078676611 0.04158457 0.19972187 0.52287865 0.32315677
0.011734538 0.078180388 0.041073326 0.19972187 0.52287865 0.32315677
0.01055448 0.07762368 0.040522948 0.19972187 0.52287865 0.32315677
0.0093896175 0.077111416 0.039999999 0.19972187 0.52287865 0.32315677
0.0085746879 0.077423029 0.039999999 0.19972187 0.52287865 0.32315677
0.0077596763 0.077734694 0.039999999 0.19972187 0.52287865 0.32315677
0.0069445786 0.078046411 0.039999999 0.19972187 0.52287865 0.32315677
0.0061293915 0.078358173 0.039999999 0.19972187 0.52287865 0.32315677
0.0053141103 0.078669995 0.039999999 0.19972187 0.52287865 0.32315677
0.0044987313 0.078981861 0.039999999 0.19972187 0.52287865 0.32315677
0.0036832511 0.079293787 0.039999999 0.19972187 0.52287865 0.32315677
0.0028676651 0.079605766 0.039999999 0.19972187 0.52287865 0.32315677
0.00205197 0.079917803 0.039999999 0.19972187 0.52287865 0.32315677
0.0011330736 0.079999998 0.039852936 0.19972187 0.52287865 0.32315677
0 0.079609372 0.039402951 0.19972187 0.52287865 0.32315677
0.039999999 0.0016627162 0.0040387651 0.19972187 0.52287865 0.32315677
0.039999999 0.0049902168 0.0058630286 0.19972187 0.52287865 0.32315677
0.039999999 0.0082793199 0.0076662279 0.19972187 0.52287865 0.32315677
0.039999999 0.0115307 0.009448735 0.19972187 0.52287865 0.32315677
0.039999999 0.014745019 0.011210912 0.19972187 0.52287865 0.32315677
0.039999999 0.017922923 0.012953113 0.19972187 0.52287865 0.32315677
0.039999999 0.021065041 0.014675683 0.19972187 0.52287865 0.32315677
0.039999999 0.024171991 0.016378962 0.19972187 0.52287865 0.32315677
0.039999999 0.027244372 0.018063277 0.19972187 0.52287865 0.32315677
0.039999999 0.030282777 0.019728955 0.19972187 0.52287865 0.32315677
