# .PCD v0.7 - Point Cloud Data file format
VERSION 0.7
FIELDS x y z vp_x vp_y vp_z
SIZE 4 4 4 4 4 4
TYPE F F F F F F
COUNT 1 1 1 1 1 1
WIDTH 1002
HEIGHT 1
VIEWPOINT 0 0 0 1 0 0 0
POINTS 1002
DATA ascii
0.031617083 0.029690804 0.039999999 0 0 0.64631355
0.031614713 0.028746804 0.039999999 0 0 0.64631355
0.031612426 0.027802942 0.039999999 0 0 0.64631355
0.031610213 0.026859216 0.039999999 0 0 0.64631355
0.031608075 0.025915619 0.039999999 0 0 0.64631355
0.031606015 0.024972148 0.039999999 0 0 0.64631355
0.031604029 0.024028797 0.039999999 0 0 0.64631355
0.031602122 0.023085563 0.039999999 0 0 0.64631355
0.031600293 0.022142438 0.039999999 0 0 0.64631355
0.031598538 0.021199422 0.039999999 0 0 0.64631355
0.031596862 0.020256508 0.039999999 0 0 0.64631355
0.03159526 0.019313693 0.039999999 0 0 0.64631355
0.031593733 0.018370969 0.039999999 0 0 0.64631355
0.031592283 0.017428337 0.039999999 0 0 0.64631355
0.031590912 0.016485786 0.039999999 0 0 0.64631355
0.031589616 0.015543316 0.039999999 0 0 0.64631355
0.031588398 0.014600921 0.039999999 0 0 0.64631355
0.031587254 0.013658597 0.039999999 0 0 0.64631355
0.031586185 0.012716338 0.039999999 0 0 0.64631355
0.031585194 0.01177414 0.039999999 0 0 0.64631355
0.031584281 0.010832001 0.039999999 0 0 0.64631355
0.031583443 0.0098899128 0.039999999 0 0 0.64631355
0.03158268 0.0089478716 0.039999999 0 0 0.64631355
0.031581994 0.0080058752 0.039999999 0 0 0.64631355
0.031581383 0.0070639164 0.039999999 0 0 0.64631355
0.03158085 0.0061219917 0.039999999 0 0 0.64631355
0.031580392 0.0051800967 0.039999999 0 0 0.64631355
0.031580012 0.0042382269 0.039999999 0 0 0.64631355
0.031579707 0.0032963776 0.039999999 0 0 0.64631355
0.03157948 0.0023545441 0.039999999 0 0 0.64631355
0.031579327 0.0014127219 0.039999999 0 0 0.64631355
0.031579249 0.00047090655 0.039999999 0 0 0.64631355
0.029377865 0.076993905 0.07 0 0 0.64631355
0.029371805 0.0760829 0.07 0 0 0.64631355
0.029365819 0.075172268 0.07 0 0 0.64631355
0.029359905 0.074262008 0.07 0 0 0.64631355
0.029354066 0.073352113 0.07 0 0 0.64631355
0.029348297 0.072442576 0.07 0 0 0.64631355
0.029342605 0.071533397 0.07 0 0 0.64631355
0.029336983 0.070624568 0.07 0 0 0.64631355
0.029331435 0.069716088 0.07 0 0 0.64631355
0.02932596 0.068807945 0.07 0 0 0.64631355
0.029320559 0.067900136 0.07 0 0 0.64631355
0.029315228 0.066992663 0.07 0 0 0.64631355
0.029309971 0.066085517 0.07 0 0 0.64631355
0.029304786 0.065178692 0.07 0 0 0.64631355
0.029299675 0.064272188 0.07 0 0 0.64631355
0.029294634 0.063365996 0.07 0 0 0.64631355
0.029289668 0.062460117 0.07 0 0 0.64631355
0.029284773 0.06155454 0.07 0 0 0.64631355
0.029279951 0.060649265 0.07 0 0 0.64631355
0.029275201 0.059744287 0.07 0 0 0.64631355
0.029270522 0.058839597 0.07 0 0 0.64631355
0.029265916 0.057935197 0.07 0 0 0.64631355
0.029261382 0.057031076 0.07 0 0 0.64631355
0.029256921 0.056127235 0.07 0 0 0.64631355
0.029252531 0.05522367 0.07 0 0 0.64631355
0.029248212 0.054320369 0.07 0 0 0.64631355
0.029243967 0.053417336 0.07 0 0 0.64631355
0.029239792 0.052514561 0.07 0 0 0.64631355
0.029235689 0.051612042 0.07 0 0 0.64631355
0.029231658 0.050709777 0.07 0 0 0.64631355
0.029227698 0.049807753 0.07 0 0 0.64631355
0.029223811 0.048905976 0.07 0 0 0.64631355
0.029219994 0.048004434 0.07 0 0 0.64631355
0.029216249 0.047103126 0.07 0 0 0.64631355
0.029212575 0.046202049 0.07 0 0 0.64631355
0.029208973 0.045301195 0.07 0 0 0.64631355
0.029205441 0.044400558 0.07 0 0 0.64631355
0.029201983 0.04350014 0.07 0 0 0.64631355
0.029198594 0.042599931 0.07 0 0 0.64631355
0.02983138 0.042608481 0.057443373 0 0 0.64631355
0.030711623 0.042923983 0.039999999 0 0 0.64631355
0.030708283 0.041977551 0.039999999 0 0 0.64631355
0.030705018 0.041031327 0.039999999 0 0 0.64631355
0.030701827 0.040085297 0.039999999 0 0 0.64631355
0.030698713 0.039139464 0.039999999 0 0 0.64631355
0.030695671 0.038193822 0.039999999 0 0 0.64631355
0.030692704 0.037248366 0.039999999 0 0 0.64631355
0.030689813 0.036303084 0.039999999 0 0 0.64631355
0.030686997 0.035357982 0.039999999 0 0 0.64631355
0.030684253 0.034413051 0.039999999 0 0 0.64631355
0.030681586 0.033468287 0.039999999 0 0 0.64631355
0.030678991 0.032523684 0.039999999 0 0 0.64631355
0.030676473 0.031579241 0.039999999 0 0 0.64631355
0.030674029 0.030634949 0.039999999 0 0 0.64631355
0.030671658 0.029690804 0.039999999 0 0 0.64631355
0.030669361 0.028746804 0.039999999 0 0 0.64631355
0.030667141 0.027802942 0.039999999 0 0 0.64631355
0.030664993 0.026859216 0.039999999 0 0 0.64631355
0.03066292 0.025915619 0.039999999 0 0 0.64631355
0.030660922 0.024972148 0.039999999 0 0 0.64631355
0.030658998 0.024028797 0.039999999 0 0 0.64631355
0.030657146 0.023085563 0.039999999 0 0 0.64631355
0.030655371 0.022142438 0.039999999 0 0 0.64631355
0.030653669 0.021199422 0.039999999 0 0 0.64631355
0.030652041 0.020256508 0.039999999 0 0 0.64631355
0.030650487 0.019313693 0.039999999 0 0 0.64631355
0.030649008 0.018370969 0.039999999 0 0 0.64631355
0.030647602 0.017428337 0.039999999 0 0 0.64631355
0.03064627 0.016485786 0.039999999 0 0 0.64631355
0.030645013 0.015543316 0.039999999 0 0 0.64631355
0.03064383 0.014600921 0.039999999 0 0 0.64631355
0.030642722 0.013658597 0.039999999 0 0 0.64631355
0.030641686 0.012716338 0.039999999 0 0 0.64631355
0.030640725 0.01177414 0.039999999 0 0 0.64631355
0.030639837 0.010832001 0.039999999 0 0 0.64631355
0.030639024 0.0098899128 0.039999999 0 0 0.64631355
0.030638285 0.0089478716 0.039999999 0 0 0.64631355
0.03063762 0.0080058752 0.039999999 0 0 0.64631355
0.030637028 0.0070639164 0.039999999 0 0 0.64631355
0.03063651 0.0061219917 0.039999999 0 0 0.64631355
0.030636067 0.0051800967 0.039999999 0 0 0.64631355
0.030635698 0.0042382269 0.039999999 0 0 0.64631355
0.030635402 0.0032963776 0.039999999 0 0 0.64631355
0.03063518 0.0023545441 0.039999999 0 0 0.64631355
0.030635033 0.0014127219 0.039999999 0 0 0.64631355
0.030634958 0.00047090655 0.039999999 0 0 0.64631355
0.028478406 0.077905282 0.07 0 0 0.64631355
0.028472463 0.076993905 0.07 0 0 0.64631355
0.02846659 0.0760829 0.07 0 0 0.64631355
0.028460788 0.075172268 0.07 0 0 0.64631355
0.028455056 0.074262008 0.07 0 0 0.64631355
0.028449398 0.073352113 0.07 0 0 0.64631355
0.028443808 0.072442576 0.07 0 0 0.64631355
0.028438289 0.071533397 0.07 0 0 0.64631355
0.028432842 0.070624568 0.07 0 0 0.64631355
0.028427465 0.069716088 0.07 0 0 0.64631355
0.028422158 0.068807945 0.07 0 0 0.64631355
0.028416922 0.067900136 0.07 0 0 0.64631355
0.028411757 0.066992663 0.07 0 0 0.64631355
0.028406661 0.066085517 0.07 0 0 0.64631355
0.028401637 0.065178692 0.07 0 0 0.64631355
0.028396683 0.064272188 0.07 0 0 0.64631355
0.028391799 0.063365996 0.07 0 0 0.64631355
0.028386984 0.062460117 0.07 0 0 0.64631355
0.02838224 0.06155454 0.07 0 0 0.64631355
0.028377566 0.060649265 0.07 0 0 0.64631355
0.028372964 0.059744287 0.07 0 0 0.64631355
0.028368428 0.058839597 0.07 0 0 0.64631355
0.028363965 0.057935197 0.07 0 0 0.64631355
0.028359571 0.057031076 0.07 0 0 0.64631355
0.028355246 0.056127235 0.07 0 0 0.64631355
0.028350992 0.05522367 0.07 0 0 0.64631355
0.028346807 0.054320369 0.07 0 0 0.64631355
0.02834269 0.053417336 0.07 0 0 0.64631355
0.028338645 0.052514561 0.07 0 0 0.64631355
0.028334668 0.051612042 0.07 0 0 0.64631355
0.028330762 0.050709777 0.07 0 0 0.64631355
0.028326925 0.049807753 0.07 0 0 0.64631355
0.028323157 0.048905976 0.07 0 0 0.64631355
0.028319458 0.048004434 0.07 0 0 0.64631355
0.028315827 0.047103126 0.07 0 0 0.64631355
0.028312268 0.046202049 0.07 0 0 0.64631355
0.028308777 0.045301195 0.07 0 0 0.64631355
0.028305354 0.044400558 0.07 0 0 0.64631355
0.028302001 0.04350014 0.07 0 0 0.64631355
0.028298717 0.042599931 0.07 0 0 0.64631355
0.028427621 0.041894637 0.067309044 0 0 0.64631355
0.029345948 0.042319506 0.048538417 0 0 0.64631355
0.029761879 0.041977551 0.039999999 0 0 0.64631355
0.029758714 0.041031327 0.039999999 0 0 0.64631355
0.029755622 0.040085297 0.039999999 0 0 0.64631355
0.029752603 0.039139464 0.039999999 0 0 0.64631355
0.029749656 0.038193822 0.039999999 0 0 0.64631355
0.02974678 0.037248366 0.039999999 0 0 0.64631355
0.029743979 0.036303084 0.039999999 0 0 0.64631355
0.029741248 0.035357982 0.039999999 0 0 0.64631355
0.02973859 0.034413051 0.039999999 0 0 0.64631355
0.029736005 0.033468287 0.039999999 0 0 0.64631355
0.02973349 0.032523684 0.039999999 0 0 0.64631355
0.02973105 0.031579241 0.039999999 0 0 0.64631355
0.029728681 0.030634949 0.039999999 0 0 0.64631355
0.029726382 0.029690804 0.039999999 0 0 0.64631355
0.029724158 0.028746804 0.039999999 0 0 0.64631355
0.029722005 0.027802942 0.039999999 0 0 0.64631355
0.029719923 0.026859216 0.039999999 0 0 0.64631355
0.029717915 0.025915619 0.039999999 0 0 0.64631355
0.029715978 0.024972148 0.039999999 0 0 0.64631355
0.029714111 0.024028797 0.039999999 0 0 0.64631355
0.029712319 0.023085563 0.039999999 0 0 0.64631355
0.029710598 0.022142438 0.039999999 0 0 0.64631355
0.029708948 0.021199422 0.039999999 0 0 0.64631355
0.02970737 0.020256508 0.039999999 0 0 0.64631355
0.029705865 0.019313693 0.039999999 0 0 0.64631355
0.029704431 0.018370969 0.039999999 0 0 0.64631355
0.029703068 0.017428337 0.039999999 0 0 0.64631355
0.029701779 0.016485786 0.039999999 0 0 0.64631355
0.029700559 0.015543316 0.039999999 0 0 0.64631355
0.029699413 0.014600921 0.039999999 0 0 0.64631355
0.029698338 0.013658597 0.039999999 0 0 0.64631355
0.029697334 0.012716338 0.039999999 0 0 0.64631355
0.029696403 0.01177414 0.039999999 0 0 0.64631355
0.029695543 0.010832001 0.039999999 0 0 0.64631355
0.029694755 0.0098899128 0.039999999 0 0 0.64631355
0.029694038 0.0089478716 0.039999999 0 0 0.64631355
0.029693393 0.0080058752 0.039999999 0 0 0.64631355
0.029692819 0.0070639164 0.039999999 0 0 0.64631355
0.029692318 0.0061219917 0.039999999 0 0 0.64631355
0.029691888 0.0051800967 0.039999999 0 0 0.64631355
0.02969153 0.0042382269 0.039999999 0 0 0.64631355
0.029691244 0.0032963776 0.039999999 0 0 0.64631355
0.029691029 0.0023545441 0.039999999 0 0 0.64631355
0.029690886 0.0014127219 0.039999999 0 0 0.64631355
0.029690813 0.00047090655 0.039999999 0 0 0.64631355
0.027572954 0.077905282 0.07 0 0 0.64631355
0.027567199 0.076993905 0.07 0 0 0.64631355
0.027561512 0.0760829 0.07 0 0 0.64631355
0.027555896 0.075172268 0.07 0 0 0.64631355
0.027550347 0.074262008 0.07 0 0 0.64631355
0.027544865 0.073352113 0.07 0 0 0.64631355
0.027539454 0.072442576 0.07 0 0 0.64631355
0.027534112 0.071533397 0.07 0 0 0.64631355
0.027528837 0.070624568 0.07 0 0 0.64631355
0.027523631 0.069716088 0.07 0 0 0.64631355
0.027518494 0.068807945 0.07 0 0 0.64631355
0.027513424 0.067900136 0.07 0 0 0.64631355
0.027508423 0.066992663 0.07 0 0 0.64631355
0.02750349 0.066085517 0.07 0 0 0.64631355
0.027498625 0.065178692 0.07 0 0 0.64631355
0.027493829 0.064272188 0.07 0 0 0.64631355
0.0274891 0.063365996 0.07 0 0 0.64631355
0.027484437 0.062460117 0.07 0 0 0.64631355
0.027479846 0.06155454 0.07 0 0 0.64631355
0.02747532 0.060649265 0.07 0 0 0.64631355
0.027470862 0.059744287 0.07 0 0 0.64631355
0.027466472 0.058839597 0.07 0 0 0.64631355
0.027462151 0.057935197 0.07 0 0 0.64631355
0.027457897 0.057031076 0.07 0 0 0.64631355
0.027453709 0.056127235 0.07 0 0 0.64631355
0.027449589 0.05522367 0.07 0 0 0.64631355
0.027445538 0.054320369 0.07 0 0 0.64631355
0.027441554 0.053417336 0.07 0 0 0.64631355
0.027437637 0.052514561 0.07 0 0 0.64631355
0.027433787 0.051612042 0.07 0 0 0.64631355
0.027430004 0.050709777 0.07 0 0 0.64631355
0.027426288 0.049807753 0.07 0 0 0.64631355
0.027422639 0.048905976 0.07 0 0 0.64631355
0.027419059 0.048004434 0.07 0 0 0.64631355
0.027415544 0.047103126 0.07 0 0 0.64631355
0.027412096 0.046202049 0.07 0 0 0.64631355
0.027408717 0.045301195 0.07 0 0 0.64631355
0.027405404 0.044400558 0.07 0 0 0.64631355
0.027402157 0.04350014 0.07 0 0 0.64631355
0.027398977 0.042599931 0.07 0 0 0.64631355
0.027395865 0.041699931 0.07 0 0 0.64631355
0.027992504 0.04169333 0.057383321 0 0 0.64631355
0.02881562 0.041977551 0.039999999 0 0 0.64631355
0.028812556 0.041031327 0.039999999 0 0 0.64631355
0.028809562 0.040085297 0.039999999 0 0 0.64631355
0.028806638 0.039139464 0.039999999 0 0 0.64631355
0.028803784 0.038193822 0.039999999 0 0 0.64631355
0.028801002 0.037248366 0.039999999 0 0 0.64631355
0.028798288 0.036303084 0.039999999 0 0 0.64631355
0.028795645 0.035357982 0.039999999 0 0 0.64631355
0.02879307 0.034413051 0.039999999 0 0 0.64631355
0.028790567 0.033468287 0.039999999 0 0 0.64631355
0.028788133 0.032523684 0.039999999 0 0 0.64631355
0.028785769 0.031579241 0.039999999 0 0 0.64631355
0.028783476 0.030634949 0.039999999 0 0 0.64631355
0.028781252 0.029690804 0.039999999 0 0 0.64631355
0.028779097 0.028746804 0.039999999 0 0 0.64631355
0.028777013 0.027802942 0.039999999 0 0 0.64631355
0.028774997 0.026859216 0.039999999 0 0 0.64631355
0.028773053 0.025915619 0.039999999 0 0 0.64631355
0.028771177 0.024972148 0.039999999 0 0 0.64631355
0.02876937 0.024028797 0.039999999 0 0 0.64631355
0.028767634 0.023085563 0.039999999 0 0 0.64631355
0.028765967 0.022142438 0.039999999 0 0 0.64631355
0.028764371 0.021199422 0.039999999 0 0 0.64631355
0.028762843 0.020256508 0.039999999 0 0 0.64631355
0.028761385 0.019313693 0.039999999 0 0 0.64631355
0.028759997 0.018370969 0.039999999 0 0 0.64631355
0.028758679 0.017428337 0.039999999 0 0 0.64631355
0.028757429 0.016485786 0.039999999 0 0 0.64631355
0.02875625 0.015543316 0.039999999 0 0 0.64631355
0.02875514 0.014600921 0.039999999 0 0 0.64631355
0.028754098 0.013658597 0.039999999 0 0 0.64631355
0.028753126 0.012716338 0.039999999 0 0 0.64631355
0.028752225 0.01177414 0.039999999 0 0 0.64631355
0.028751392 0.010832001 0.039999999 0 0 0.64631355
0.028750628 0.0098899128 0.039999999 0 0 0.64631355
0.028749935 0.0089478716 0.039999999 0 0 0.64631355
0.028749311 0.0080058752 0.039999999 0 0 0.64631355
0.028748756 0.0070639164 0.039999999 0 0 0.64631355
0.02874827 0.0061219917 0.039999999 0 0 0.64631355
0.028747853 0.0051800967 0.039999999 0 0 0.64631355
0.028747506 0.0042382269 0.039999999 0 0 0.64631355
0.028747229 0.0032963776 0.039999999 0 0 0.64631355
0.028747022 0.0023545441 0.039999999 0 0 0.64631355
0.028746882 0.0014127219 0.039999999 0 0 0.64631355
0.028746814 0.00047090655 0.039999999 0 0 0.64631355
0.026673269 0.078817047 0.07 0 0 0.64631355
0.026667634 0.077905282 0.07 0 0 0.64631355
0.026662068 0.076993905 0.07 0 0 0.64631355
0.026656568 0.0760829 0.07 0 0 0.64631355
0.026651137 0.075172268 0.07 0 0 0.64631355
0.026645768 0.074262008 0.07 0 0 0.64631355
0.026640469 0.073352113 0.07 0 0 0.64631355
0.026635235 0.072442576 0.07 0 0 0.64631355
0.026630068 0.071533397 0.07 0 0 0.64631355
0.026624966 0.070624568 0.07 0 0 0.64631355
0.026619932 0.069716088 0.07 0 0 0.64631355
0.026614962 0.068807945 0.07 0 0 0.64631355
0.02661006 0.067900136 0.07 0 0 0.64631355
0.026605222 0.066992663 0.07 0 0 0.64631355
0.02660045 0.066085517 0.07 0 0 0.64631355
0.026595745 0.065178692 0.07 0 0 0.64631355
0.026591107 0.064272188 0.07 0 0 0.64631355
0.026586533 0.063365996 0.07 0 0 0.64631355
0.026582025 0.062460117 0.07 0 0 0.64631355
0.026577583 0.06155454 0.07 0 0 0.64631355
0.026573205 0.060649265 0.07 0 0 0.64631355
0.026568895 0.059744287 0.07 0 0 0.64631355
0.02656465 0.058839597 0.07 0 0 0.64631355
0.026560469 0.057935197 0.07 0 0 0.64631355
0.026556354 0.057031076 0.07 0 0 0.64631355
0.026552305 0.056127235 0.07 0 0 0.64631355
0.02654832 0.05522367 0.07 0 0 0.64631355
0.026544401 0.054320369 0.07 0 0 0.64631355
0.026540548 0.053417336 0.07 0 0 0.64631355
0.026536759 0.052514561 0.07 0 0 0.64631355
0.026533036 0.051612042 0.07 0 0 0.64631355
0.026529377 0.050709777 0.07 0 0 0.64631355
0.026525784 0.049807753 0.07 0 0 0.64631355
0.026522255 0.048905976 0.07 0 0 0.64631355
0.026518792 0.048004434 0.07 0 0 0.64631355
0.026515393 0.047103126 0.07 0 0 0.64631355
0.026512058 0.046202049 0.07 0 0 0.64631355
0.02650879 0.045301195 0.07 0 0 0.64631355
0.026505586 0.044400558 0.07 0 0 0.64631355
0.026502445 0.04350014 0.07 0 0 0.64631355
0.02649937 0.042599931 0.07 0 0 0.64631355
0.02649636 0.041699931 0.07 0 0 0.64631355
0.026754374 0.041202009 0.064323351 0 0 0.64631355
0.027542608 0.041485183 0.04711166 0 0 0.64631355
0.027866535 0.041031327 0.039999999 0 0 0.64631355
0.02786364 0.040085297 0.039999999 0 0 0.64631355
0.027860813 0.039139464 0.039999999 0 0 0.64631355
0.027858052 0.038193822 0.039999999 0 0 0.64631355
0.027855361 0.037248366 0.039999999 0 0 0.64631355
0.027852736 0.036303084 0.039999999 0 0 0.64631355
0.027850179 0.035357982 0.039999999 0 0 0.64631355
0.027847691 0.034413051 0.039999999 0 0 0.64631355
0.027845269 0.033468287 0.039999999 0 0 0.64631355
0.027842915 0.032523684 0.039999999 0 0 0.64631355
0.027840629 0.031579241 0.039999999 0 0 0.64631355
0.027838411 0.030634949 0.039999999 0 0 0.64631355
0.027836259 0.029690804 0.039999999 0 0 0.64631355
0.027834175 0.028746804 0.039999999 0 0 0.64631355
0.02783216 0.027802942 0.039999999 0 0 0.64631355
0.02783021 0.026859216 0.039999999 0 0 0.64631355
0.027828328 0.025915619 0.039999999 0 0 0.64631355
0.027826516 0.024972148 0.039999999 0 0 0.64631355
0.027824769 0.024028797 0.039999999 0 0 0.64631355
0.027823089 0.023085563 0.039999999 0 0 0.64631355
0.027821478 0.022142438 0.039999999 0 0 0.64631355
0.027819933 0.021199422 0.039999999 0 0 0.64631355
0.027818456 0.020256508 0.039999999 0 0 0.64631355
0.027817046 0.019313693 0.039999999 0 0 0.64631355
0.027815703 0.018370969 0.039999999 0 0 0.64631355
0.027814427 0.017428337 0.039999999 0 0 0.64631355
0.027813219 0.016485786 0.039999999 0 0 0.64631355
0.027812079 0.015543316 0.039999999 0 0 0.64631355
0.027811004 0.014600921 0.039999999 0 0 0.64631355
0.027809996 0.013658597 0.039999999 0 0 0.64631355
0.027809057 0.012716338 0.039999999 0 0 0.64631355
0.027808186 0.01177414 0.039999999 0 0 0.64631355
0.027807379 0.010832001 0.039999999 0 0 0.64631355
0.027806642 0.0098899128 0.039999999 0 0 0.64631355
0.027805971 0.0089478716 0.039999999 0 0 0.64631355
0.027805367 0.0080058752 0.039999999 0 0 0.64631355
0.027804831 0.0070639164 0.039999999 0 0 0.64631355
0.02780436 0.0061219917 0.039999999 0 0 0.64631355
0.027803957 0.0051800967 0.039999999 0 0 0.64631355
0.027803622 0.0042382269 0.039999999 0 0 0.64631355
0.027803354 0.0032963776 0.039999999 0 0 0.64631355
0.027803153 0.0023545441 0.039999999 0 0 0.64631355
0.027803019 0.0014127219 0.039999999 0 0 0.64631355
0.027802952 0.00047090655 0.039999999 0 0 0.64631355
0.025767885 0.078817047 0.07 0 0 0.64631355
0.025762444 0.077905282 0.07 0 0 0.64631355
0.025757067 0.076993905 0.07 0 0 0.64631355
0.025751755 0.0760829 0.07 0 0 0.64631355
0.025746506 0.075172268 0.07 0 0 0.64631355
0.02574132 0.074262008 0.07 0 0 0.64631355
0.0257362 0.073352113 0.07 0 0 0.64631355
0.025731144 0.072442576 0.07 0 0 0.64631355
0.025726153 0.071533397 0.07 0 0 0.64631355
0.025721224 0.070624568 0.07 0 0 0.64631355
0.025716361 0.069716088 0.07 0 0 0.64631355
0.025711559 0.068807945 0.07 0 0 0.64631355
0.025706822 0.067900136 0.07 0 0 0.64631355
0.025702151 0.066992663 0.07 0 0 0.64631355
0.02569754 0.066085517 0.07 0 0 0.64631355
0.025692996 0.065178692 0.07 0 0 0.64631355
0.025688514 0.064272188 0.07 0 0 0.64631355
0.025684096 0.063365996 0.07 0 0 0.64631355
0.025679741 0.062460117 0.07 0 0 0.64631355
0.02567545 0.06155454 0.07 0 0 0.64631355
0.025671221 0.060649265 0.07 0 0 0.64631355
0.025667056 0.059744287 0.07 0 0 0.64631355
0.025662955 0.058839597 0.07 0 0 0.64631355
0.025658917 0.057935197 0.07 0 0 0.64631355
0.025654942 0.057031076 0.07 0 0 0.64631355
0.025651028 0.056127235 0.07 0 0 0.64631355
0.02564718 0.05522367 0.07 0 0 0.64631355
0.025643393 0.054320369 0.07 0 0 0.64631355
0.025639672 0.053417336 0.07 0 0 0.64631355
0.025636012 0.052514561 0.07 0 0 0.64631355
0.025632413 0.051612042 0.07 0 0 0.64631355
0.02562888 0.050709777 0.07 0 0 0.64631355
0.025625408 0.049807753 0.07 0 0 0.64631355
0.025621999 0.048905976 0.07 0 0 0.64631355
0.025618654 0.048004434 0.07 0 0 0.64631355
0.02561537 0.047103126 0.07 0 0 0.64631355
0.025612149 0.046202049 0.07 0 0 0.64631355
0.02560899 0.045301195 0.07 0 0 0.64631355
0.025605895 0.044400558 0.07 0 0 0.64631355
0.025602862 0.04350014 0.07 0 0 0.64631355
0.025599891 0.042599931 0.07 0 0 0.64631355
0.025596984 0.041699931 0.07 0 0 0.64631355
0.025602832 0.040813994 0.069804214 0 0 0.64631355
0.02633559 0.041060898 0.053239923 0 0 0.64631355
0.02692065 0.041031327 0.039999999 0 0 0.64631355
0.026917852 0.040085297 0.039999999 0 0 0.64631355
0.026915122 0.039139464 0.039999999 0 0 0.64631355
0.026912455 0.038193822 0.039999999 0 0 0.64631355
0.026909854 0.037248366 0.039999999 0 0 0.64631355
0.026907319 0.036303084 0.039999999 0 0 0.64631355
0.026904849 0.035357982 0.039999999 0 0 0.64631355
0.026902445 0.034413051 0.039999999 0 0 0.64631355
0.026900105 0.033468287 0.039999999 0 0 0.64631355
0.026897831 0.032523684 0.039999999 0 0 0.64631355
0.026895624 0.031579241 0.039999999 0 0 0.64631355
0.02689348 0.030634949 0.039999999 0 0 0.64631355
0.026891401 0.029690804 0.039999999 0 0 0.64631355
0.026889388 0.028746804 0.039999999 0 0 0.64631355
0.026887441 0.027802942 0.039999999 0 0 0.64631355
0.026885558 0.026859216 0.039999999 0 0 0.64631355
0.02688374 0.025915619 0.039999999 0 0 0.64631355
0.026881989 0.024972148 0.039999999 0 0 0.64631355
0.026880302 0.024028797 0.039999999 0 0 0.64631355
0.026878679 0.023085563 0.039999999 0 0 0.64631355
0.026877122 0.022142438 0.039999999 0 0 0.64631355
0.02687563 0.021199422 0.039999999 0 0 0.64631355
0.026874201 0.020256508 0.039999999 0 0 0.64631355
0.02687284 0.019313693 0.039999999 0 0 0.64631355
0.026871543 0.018370969 0.039999999 0 0 0.64631355
0.02687031 0.017428337 0.039999999 0 0 0.64631355
0.026869142 0.016485786 0.039999999 0 0 0.64631355
0.026868042 0.015543316 0.039999999 0 0 0.64631355
0.026867004 0.014600921 0.039999999 0 0 0.64631355
0.02686603 0.013658597 0.039999999 0 0 0.64631355
0.026865123 0.012716338 0.039999999 0 0 0.64631355
0.026864281 0.01177414 0.039999999 0 0 0.64631355
0.026863502 0.010832001 0.039999999 0 0 0.64631355
0.026862789 0.0098899128 0.039999999 0 0 0.64631355
0.026862141 0.0089478716 0.039999999 0 0 0.64631355
0.026861558 0.0080058752 0.039999999 0 0 0.64631355
0.02686104 0.0070639164 0.039999999 0 0 0.64631355
0.026860585 0.0061219917 0.039999999 0 0 0.64631355
0.026860196 0.0051800967 0.039999999 0 0 0.64631355
0.026859872 0.0042382269 0.039999999 0 0 0.64631355
0.026859613 0.0032963776 0.039999999 0 0 0.64631355
0.026859419 0.0023545441 0.039999999 0 0 0.64631355
0.026859289 0.0014127219 0.039999999 0 0 0.64631355
0.026859224 0.00047090655 0.039999999 0 0 0.64631355
0.024862628 0.078817047 0.07 0 0 0.64631355
0.024857378 0.077905282 0.07 0 0 0.64631355
0.02485219 0.076993905 0.07 0 0 0.64631355
0.024847064 0.0760829 0.07 0 0 0.64631355
0.024842 0.075172268 0.07 0 0 0.64631355
0.024836997 0.074262008 0.07 0 0 0.64631355
0.024832057 0.073352113 0.07 0 0 0.64631355
0.024827179 0.072442576 0.07 0 0 0.64631355
0.024822362 0.071533397 0.07 0 0 0.64631355
0.024817606 0.070624568 0.07 0 0 0.64631355
0.024812913 0.069716088 0.07 0 0 0.64631355
0.02480828 0.068807945 0.07 0 0 0.64631355
0.024803711 0.067900136 0.07 0 0 0.64631355
0.024799202 0.066992663 0.07 0 0 0.64631355
0.024794756 0.066085517 0.07 0 0 0.64631355
0.024790369 0.065178692 0.07 0 0 0.64631355
0.024786046 0.064272188 0.07 0 0 0.64631355
0.024781782 0.063365996 0.07 0 0 0.64631355
0.02477758 0.062460117 0.07 0 0 0.64631355
0.024773439 0.06155454 0.07 0 0 0.64631355
0.02476936 0.060649265 0.07 0 0 0.64631355
0.024765341 0.059744287 0.07 0 0 0.64631355
0.024761384 0.058839597 0.07 0 0 0.64631355
0.024757488 0.057935197 0.07 0 0 0.64631355
0.024753653 0.057031076 0.07 0 0 0.64631355
0.024749877 0.056127235 0.07 0 0 0.64631355
0.024746163 0.05522367 0.07 0 0 0.64631355
0.02474251 0.054320369 0.07 0 0 0.64631355
0.024738919 0.053417336 0.07 0 0 0.64631355
0.024735387 0.052514561 0.07 0 0 0.64631355
0.024731915 0.051612042 0.07 0 0 0.64631355
0.024728507 0.050709777 0.07 0 0 0.64631355
0.024725156 0.049807753 0.07 0 0 0.64631355
0.024721866 0.048905976 0.07 0 0 0.64631355
0.024718639 0.048004434 0.07 0 0 0.64631355
0.02471547 0.047103126 0.07 0 0 0.64631355
0.024712363 0.046202049 0.07 0 0 0.64631355
0.024709316 0.045301195 0.07 0 0 0.64631355
0.024706328 0.044400558 0.07 0 0 0.64631355
0.024703402 0.04350014 0.07 0 0 0.64631355
0.024700535 0.042599931 0.07 0 0 0.64631355
0.02469773 0.041699931 0.07 0 0 0.64631355
0.024694985 0.040800132 0.07 0 0 0.64631355
0.025182037 0.040691901 0.058569636 0 0 0.64631355
0.025900889 0.040914424 0.041727442 0 0 0.64631355
0.025972195 0.040085297 0.039999999 0 0 0.64631355
0.025969559 0.039139464 0.039999999 0 0 0.64631355
0.025966987 0.038193822 0.039999999 0 0 0.64631355
0.025964478 0.037248366 0.039999999 0 0 0.64631355
0.025962032 0.036303084 0.039999999 0 0 0.64631355
0.025959648 0.035357982 0.039999999 0 0 0.64631355
0.025957329 0.034413051 0.039999999 0 0 0.64631355
0.025955072 0.033468287 0.039999999 0 0 0.64631355
0.025952877 0.032523684 0.039999999 0 0 0.64631355
0.025950747 0.031579241 0.039999999 0 0 0.64631355
0.025948679 0.030634949 0.039999999 0 0 0.64631355
0.025946673 0.029690804 0.039999999 0 0 0.64631355
0.025944732 0.028746804 0.039999999 0 0 0.64631355
0.025942853 0.027802942 0.039999999 0 0 0.64631355
0.025941035 0.026859216 0.039999999 0 0 0.64631355
0.025939282 0.025915619 0.039999999 0 0 0.64631355
0.025937591 0.024972148 0.039999999 0 0 0.64631355
0.025935963 0.024028797 0.039999999 0 0 0.64631355
0.025934398 0.023085563 0.039999999 0 0 0.64631355
0.025932895 0.022142438 0.039999999 0 0 0.64631355
0.025931455 0.021199422 0.039999999 0 0 0.64631355
0.025930079 0.020256508 0.039999999 0 0 0.64631355
0.025928764 0.019313693 0.039999999 0 0 0.64631355
0.025927512 0.018370969 0.039999999 0 0 0.64631355
0.025926324 0.017428337 0.039999999 0 0 0.64631355
0.025925197 0.016485786 0.039999999 0 0 0.64631355
0.025924133 0.015543316 0.039999999 0 0 0.64631355
0.025923133 0.014600921 0.039999999 0 0 0.64631355
0.025922194 0.013658597 0.039999999 0 0 0.64631355
0.025921319 0.012716338 0.039999999 0 0 0.64631355
0.025920505 0.01177414 0.039999999 0 0 0.64631355
0.025919754 0.010832001 0.039999999 0 0 0.64631355
0.025919067 0.0098899128 0.039999999 0 0 0.64631355
0.025918441 0.0089478716 0.039999999 0 0 0.64631355
0.025917878 0.0080058752 0.039999999 0 0 0.64631355
0.025917379 0.0070639164 0.039999999 0 0 0.64631355
0.02591694 0.0061219917 0.039999999 0 0 0.64631355
0.025916565 0.0051800967 0.039999999 0 0 0.64631355
0.025916252 0.0042382269 0.039999999 0 0 0.64631355
0.025916003 0.0032963776 0.039999999 0 0 0.64631355
0.025915815 0.0023545441 0.039999999 0 0 0.64631355
0.02591569 0.0014127219 0.039999999 0 0 0.64631355
0.025915626 0.00047090655 0.039999999 0 0 0.64631355
0.023957491 0.078817047 0.07 0 0 0.64631355
0.023952432 0.077905282 0.07 0 0 0.64631355
0.023947433 0.076993905 0.07 0 0 0.64631355
0.023942493 0.0760829 0.07 0 0 0.64631355
0.023937613 0.075172268 0.07 0 0 0.64631355
0.023932792 0.074262008 0.07 0 0 0.64631355
0.023928033 0.073352113 0.07 0 0 0.64631355
0.023923332 0.072442576 0.07 0 0 0.64631355
0.02391869 0.071533397 0.07 0 0 0.64631355
0.023914108 0.070624568 0.07 0 0 0.64631355
0.023909586 0.069716088 0.07 0 0 0.64631355
0.023905123 0.068807945 0.07 0 0 0.64631355
0.023900719 0.067900136 0.07 0 0 0.64631355
0.023896374 0.066992663 0.07 0 0 0.64631355
0.02389209 0.066085517 0.07 0 0 0.64631355
0.023887863 0.065178692 0.07 0 0 0.64631355
0.023883697 0.064272188 0.07 0 0 0.64631355
0.023879588 0.063365996 0.07 0 0 0.64631355
0.023875538 0.062460117 0.07 0 0 0.64631355
0.023871548 0.06155454 0.07 0 0 0.64631355
0.023867618 0.060649265 0.07 0 0 0.64631355
0.023863746 0.059744287 0.07 0 0 0.64631355
0.023859933 0.058839597 0.07 0 0 0.64631355
0.023856178 0.057935197 0.07 0 0 0.64631355
0.023852482 0.057031076 0.07 0 0 0.64631355
0.023848845 0.056127235 0.07 0 0 0.64631355
0.023845267 0.05522367 0.07 0 0 0.64631355
0.023841746 0.054320369 0.07 0 0 0.64631355
0.023838285 0.053417336 0.07 0 0 0.64631355
0.023834882 0.052514561 0.07 0 0 0.64631355
0.023831537 0.051612042 0.07 0 0 0.64631355
0.023828251 0.050709777 0.07 0 0 0.64631355
0.023825023 0.049807753 0.07 0 0 0.64631355
0.023821855 0.048905976 0.07 0 0 0.64631355
0.023818744 0.048004434 0.07 0 0 0.64631355
0.023815691 0.047103126 0.07 0 0 0.64631355
0.023812696 0.046202049 0.07 0 0 0.64631355
0.023809761 0.045301195 0.07 0 0 0.64631355
0.023806883 0.044400558 0.07 0 0 0.64631355
0.023804063 0.04350014 0.07 0 0 0.64631355
0.023801301 0.042599931 0.07 0 0 0.64631355
0.023798596 0.041699931 0.07 0 0 0.64631355
0.023795951 0.040800132 0.07 0 0 0.64631355
0.02412677 0.040459644 0.061924323 0 0 0.64631355
0.024766413 0.040600423 0.046367366 0 0 0.64631355
0.025026664 0.040085297 0.039999999 0 0 0.64631355
0.025024125 0.039139464 0.039999999 0 0 0.64631355
0.025021646 0.038193822 0.039999999 0 0 0.64631355
0.025019228 0.037248366 0.039999999 0 0 0.64631355
0.02501687 0.036303084 0.039999999 0 0 0.64631355
0.025014574 0.035357982 0.039999999 0 0 0.64631355
0.025012339 0.034413051 0.039999999 0 0 0.64631355
0.025010165 0.033468287 0.039999999 0 0 0.64631355
0.025008051 0.032523684 0.039999999 0 0 0.64631355
0.025005996 0.031579241 0.039999999 0 0 0.64631355
0.025004003 0.030634949 0.039999999 0 0 0.64631355
0.025002072 0.029690804 0.039999999 0 0 0.64631355
0.0250002 0.028746804 0.039999999 0 0 0.64631355
0.024998389 0.027802942 0.039999999 0 0 0.64631355
0.024996638 0.026859216 0.039999999 0 0 0.64631355
0.024994949 0.025915619 0.039999999 0 0 0.64631355
0.024993319 0.024972148 0.039999999 0 0 0.64631355
0.024991751 0.024028797 0.039999999 0 0 0.64631355
0.024990242 0.023085563 0.039999999 0 0 0.64631355
0.024988795 0.022142438 0.039999999 0 0 0.64631355
0.024987407 0.021199422 0.039999999 0 0 0.64631355
0.024986081 0.020256508 0.039999999 0 0 0.64631355
0.024984814 0.019313693 0.039999999 0 0 0.64631355
0.024983607 0.018370969 0.039999999 0 0 0.64631355
0.024982462 0.017428337 0.039999999 0 0 0.64631355
0.024981378 0.016485786 0.039999999 0 0 0.64631355
0.024980351 0.015543316 0.039999999 0 0 0.64631355
0.024979388 0.014600921 0.039999999 0 0 0.64631355
0.024978483 0.013658597 0.039999999 0 0 0.64631355
0.024977639 0.012716338 0.039999999 0 0 0.64631355
0.024976855 0.01177414 0.039999999 0 0 0.64631355
0.024976132 0.010832001 0.039999999 0 0 0.64631355
0.024975469 0.0098899128 0.039999999 0 0 0.64631355
0.024974868 0.0089478716 0.039999999 0 0 0.64631355
0.024974324 0.0080058752 0.039999999 0 0 0.64631355
0.024973843 0.0070639164 0.039999999 0 0 0.64631355
0.02497342 0.0061219917 0.039999999 0 0 0.64631355
0.024973059 0.0051800967 0.039999999 0 0 0.64631355
0.024972757 0.0042382269 0.039999999 0 0 0.64631355
0.024972517 0.0032963776 0.039999999 0 0 0.64631355
0.024972336 0.0023545441 0.039999999 0 0 0.64631355
0.024972215 0.0014127219 0.039999999 0 0 0.64631355
0.024972156 0.00047090655 0.039999999 0 0 0.64631355
0.023057397 0.079729199 0.07 0 0 0.64631355
0.023052471 0.078817047 0.07 0 0 0.64631355
0.023047602 0.077905282 0.07 0 0 0.64631355
0.023042792 0.076993905 0.07 0 0 0.64631355
0.023038039 0.0760829 0.07 0 0 0.64631355
0.023033343 0.075172268 0.07 0 0 0.64631355
0.023028705 0.074262008 0.07 0 0 0.64631355
0.023024125 0.073352113 0.07 0 0 0.64631355
0.023019601 0.072442576 0.07 0 0 0.64631355
0.023015134 0.071533397 0.07 0 0 0.64631355
0.023010725 0.070624568 0.07 0 0 0.64631355
0.023006374 0.069716088 0.07 0 0 0.64631355
0.023002081 0.068807945 0.07 0 0 0.64631355
0.022997843 0.067900136 0.07 0 0 0.64631355
0.022993661 0.066992663 0.07 0 0 0.64631355
0.022989539 0.066085517 0.07 0 0 0.64631355
0.022985471 0.065178692 0.07 0 0 0.64631355
0.022981463 0.064272188 0.07 0 0 0.64631355
0.02297751 0.063365996 0.07 0 0 0.64631355
0.022973614 0.062460117 0.07 0 0 0.64631355
0.022969775 0.06155454 0.07 0 0 0.64631355
0.022965992 0.060649265 0.07 0 0 0.64631355
0.022962267 0.059744287 0.07 0 0 0.64631355
0.022958597 0.058839597 0.07 0 0 0.64631355
0.022954984 0.057935197 0.07 0 0 0.64631355
0.022951428 0.057031076 0.07 0 0 0.64631355
0.022947928 0.056127235 0.07 0 0 0.64631355
0.022944484 0.05522367 0.07 0 0 0.64631355
0.022941098 0.054320369 0.07 0 0 0.64631355
0.022937767 0.053417336 0.07 0 0 0.64631355
0.022934493 0.052514561 0.07 0 0 0.64631355
0.022931274 0.051612042 0.07 0 0 0.64631355
0.022928113 0.050709777 0.07 0 0 0.64631355
0.022925006 0.049807753 0.07 0 0 0.64631355
0.022921957 0.048905976 0.07 0 0 0.64631355
0.022918964 0.048004434 0.07 0 0 0.64631355
0.022916026 0.047103126 0.07 0 0 0.64631355
0.022913145 0.046202049 0.07 0 0 0.64631355
0.022910319 0.045301195 0.07 0 0 0.64631355
0.022907551 0.044400558 0.07 0 0 0.64631355
0.022904838 0.04350014 0.07 0 0 0.64631355
0.02290218 0.042599931 0.07 0 0 0.64631355
0.022899577 0.041699931 0.07 0 0 0.64631355
0.022897031 0.040800132 0.07 0 0 0.64631355
0.023093969 0.040248092 0.064979903 0 0 0.64631355
0.023692038 0.04036396 0.049861565 0 0 0.64631355
0.024081254 0.040085297 0.039999999 0 0 0.64631355
0.024078811 0.039139464 0.039999999 0 0 0.64631355
0.024076425 0.038193822 0.039999999 0 0 0.64631355
0.024074098 0.037248366 0.039999999 0 0 0.64631355
0.024071829 0.036303084 0.039999999 0 0 0.64631355
0.02406962 0.035357982 0.039999999 0 0 0.64631355
0.024067469 0.034413051 0.039999999 0 0 0.64631355
0.024065377 0.033468287 0.039999999 0 0 0.64631355
0.024063343 0.032523684 0.039999999 0 0 0.64631355
0.024061367 0.031579241 0.039999999 0 0 0.64631355
0.024059448 0.030634949 0.039999999 0 0 0.64631355
0.024057589 0.029690804 0.039999999 0 0 0.64631355
0.02405579 0.028746804 0.039999999 0 0 0.64631355
0.024054047 0.027802942 0.039999999 0 0 0.64631355
0.024052363 0.026859216 0.039999999 0 0 0.64631355
0.024050737 0.025915619 0.039999999 0 0 0.64631355
0.024049168 0.024972148 0.039999999 0 0 0.64631355
0.02404766 0.024028797 0.039999999 0 0 0.64631355
0.024046209 0.023085563 0.039999999 0 0 0.64631355
0.024044815 0.022142438 0.039999999 0 0 0.64631355
0.02404348 0.021199422 0.039999999 0 0 0.64631355
0.024042204 0.020256508 0.039999999 0 0 0.64631355
0.024040984 0.019313693 0.039999999 0 0 0.64631355
0.024039824 0.018370969 0.039999999 0 0 0.64631355
0.024038723 0.017428337 0.039999999 0 0 0.64631355
0.024037678 0.016485786 0.039999999 0 0 0.64631355
0.024036691 0.015543316 0.039999999 0 0 0.64631355
0.024035763 0.014600921 0.039999999 0 0 0.64631355
0.024034893 0.013658597 0.039999999 0 0 0.64631355
0.024034081 0.012716338 0.039999999 0 0 0.64631355
0.024033327 0.01177414 0.039999999 0 0 0.64631355
0.024032632 0.010832001 0.039999999 0 0 0.64631355
0.024031993 0.0098899128 0.039999999 0 0 0.64631355
0.024031414 0.0089478716 0.039999999 0 0 0.64631355
0.024030892 0.0080058752 0.039999999 0 0 0.64631355
0.024030428 0.0070639164 0.039999999 0 0 0.64631355
0.024030022 0.0061219917 0.039999999 0 0 0.64631355
0.024029674 0.0051800967 0.039999999 0 0 0.64631355
0.024029383 0.0042382269 0.039999999 0 0 0.64631355
0.024029152 0.0032963776 0.039999999 0 0 0.64631355
0.024028977 0.0023545441 0.039999999 0 0 0.64631355
0.024028862 0.0014127219 0.039999999 0 0 0.64631355
0.024028804 0.00047090655 0.039999999 0 0 0.64631355
0.022152293 0.079729199 0.07 0 0 0.64631355
0.02214756 0.078817047 0.07 0 0 0.64631355
0.022142883 0.077905282 0.07 0 0 0.64631355
0.022138262 0.076993905 0.07 0 0 0.64631355
0.022133695 0.0760829 0.07 0 0 0.64631355
0.022129184 0.075172268 0.07 0 0 0.64631355
0.022124728 0.074262008 0.07 0 0 0.64631355
0.022120327 0.073352113 0.07 0 0 0.64631355
0.022115981 0.072442576 0.07 0 0 0.64631355
0.02211169 0.071533397 0.07 0 0 0.64631355
0.022107454 0.070624568 0.07 0 0 0.64631355
0.022103274 0.069716088 0.07 0 0 0.64631355
0.022099148 0.068807945 0.07 0 0 0.64631355
0.022095077 0.067900136 0.07 0 0 0.64631355
0.022091061 0.066992663 0.07 0 0 0.64631355
0.022087099 0.066085517 0.07 0 0 0.64631355
0.022083193 0.065178692 0.07 0 0 0.64631355
0.022079341 0.064272188 0.07 0 0 0.64631355
0.022075543 0.063365996 0.07 0 0 0.64631355
0.022071799 0.062460117 0.07 0 0 0.64631355
0.022068111 0.06155454 0.07 0 0 0.64631355
0.022064477 0.060649265 0.07 0 0 0.64631355
0.022060897 0.059744287 0.07 0 0 0.64631355
0.022057371 0.058839597 0.07 0 0 0.64631355
0.022053901 0.057935197 0.07 0 0 0.64631355
0.022050485 0.057031076 0.07 0 0 0.64631355
0.022047123 0.056127235 0.07 0 0 0.64631355
0.022043813 0.05522367 0.07 0 0 0.64631355
0.022040559 0.054320369 0.07 0 0 0.64631355
0.022037361 0.053417336 0.07 0 0 0.64631355
0.022034215 0.052514561 0.07 0 0 0.64631355
0.022031123 0.051612042 0.07 0 0 0.64631355
0.022028085 0.050709777 0.07 0 0 0.64631355
0.022025101 0.049807753 0.07 0 0 0.64631355
0.022022171 0.048905976 0.07 0 0 0.64631355
0.022019295 0.048004434 0.07 0 0 0.64631355
0.022016473 0.047103126 0.07 0 0 0.64631355
0.022013705 0.046202049 0.07 0 0 0.64631355
0.022010989 0.045301195 0.07 0 0 0.64631355
0.02200833 0.044400558 0.07 0 0 0.64631355
0.022005722 0.04350014 0.07 0 0 0.64631355
0.02200317 0.042599931 0.07 0 0 0.64631355
0.02200067 0.041699931 0.07 0 0 0.64631355
0.021998225 0.040800132 0.07 0 0 0.64631355
0.022129595 0.040143177 0.066495247 0 0 0.64631355
0.022670718 0.040202048 0.052254129 0 0 0.64631355
0.02313596 0.040085297 0.039999999 0 0 0.64631355
0.023133611 0.039139464 0.039999999 0 0 0.64631355
0.02313132 0.038193822 0.039999999 0 0 0.64631355
0.023129085 0.037248366 0.039999999 0 0 0.64631355
0.023126906 0.036303084 0.039999999 0 0 0.64631355
0.023124784 0.035357982 0.039999999 0 0 0.64631355
0.023122717 0.034413051 0.039999999 0 0 0.64631355
0.023120707 0.033468287 0.039999999 0 0 0.64631355
0.023118751 0.032523684 0.039999999 0 0 0.64631355
0.023116853 0.031579241 0.039999999 0 0 0.64631355
0.023115011 0.030634949 0.039999999 0 0 0.64631355
0.023113225 0.029690804 0.039999999 0 0 0.64631355
0.023111494 0.028746804 0.039999999 0 0 0.64631355
0.023109822 0.027802942 0.039999999 0 0 0.64631355
0.023108203 0.026859216 0.039999999 0 0 0.64631355
0.02310664 0.025915619 0.039999999 0 0 0.64631355
0.023105135 0.024972148 0.039999999 0 0 0.64631355
0.023103684 0.024028797 0.039999999 0 0 0.64631355
0.023102289 0.023085563 0.039999999 0 0 0.64631355
0.023100952 0.022142438 0.039999999 0 0 0.64631355
0.023099668 0.021199422 0.039999999 0 0 0.64631355
0.023098443 0.020256508 0.039999999 0 0 0.64631355
0.023097271 0.019313693 0.039999999 0 0 0.64631355
0.023096157 0.018370969 0.039999999 0 0 0.64631355
0.023095097 0.017428337 0.039999999 0 0 0.64631355
0.023094093 0.016485786 0.039999999 0 0 0.64631355
0.023093147 0.015543316 0.039999999 0 0 0.64631355
0.023092255 0.014600921 0.039999999 0 0 0.64631355
0.023091419 0.013658597 0.039999999 0 0 0.64631355
0.023090638 0.012716338 0.039999999 0 0 0.64631355
0.023089914 0.01177414 0.039999999 0 0 0.64631355
0.023089245 0.010832001 0.039999999 0 0 0.64631355
0.023088632 0.0098899128 0.039999999 0 0 0.64631355
0.023088075 0.0089478716 0.039999999 0 0 0.64631355
0.023087574 0.0080058752 0.039999999 0 0 0.64631355
0.023087129 0.0070639164 0.039999999 0 0 0.64631355
0.02308674 0.0061219917 0.039999999 0 0 0.64631355
0.023086404 0.0051800967 0.039999999 0 0 0.64631355
0.023086127 0.0042382269 0.039999999 0 0 0.64631355
0.023085903 0.0032963776 0.039999999 0 0 0.64631355
0.023085736 0.0023545441 0.039999999 0 0 0.64631355
0.023085624 0.0014127219 0.039999999 0 0 0.64631355
0.023085568 0.00047090655 0.039999999 0 0 0.64631355
0.021247298 0.079729199 0.07 0 0 0.64631355
0.021242758 0.078817047 0.07 0 0 0.64631355
0.021238271 0.077905282 0.07 0 0 0.64631355
0.02123384 0.076993905 0.07 0 0 0.64631355
0.021229459 0.0760829 0.07 0 0 0.64631355
0.021225132 0.075172268 0.07 0 0 0.64631355
0.021220857 0.074262008 0.07 0 0 0.64631355
0.021216637 0.073352113 0.07 0 0 0.64631355
0.021212468 0.072442576 0.07 0 0 0.64631355
0.021208353 0.071533397 0.07 0 0 0.64631355
0.021204291 0.070624568 0.07 0 0 0.64631355
0.021200281 0.069716088 0.07 0 0 0.64631355
0.021196323 0.068807945 0.07 0 0 0.64631355
0.021192418 0.067900136 0.07 0 0 0.64631355
0.021188566 0.066992663 0.07 0 0 0.64631355
0.021184767 0.066085517 0.07 0 0 0.64631355
0.021181019 0.065178692 0.07 0 0 0.64631355
0.021177325 0.064272188 0.07 0 0 0.64631355
0.021173682 0.063365996 0.07 0 0 0.64631355
0.021170093 0.062460117 0.07 0 0 0.64631355
0.021166554 0.06155454 0.07 0 0 0.64631355
0.021163069 0.060649265 0.07 0 0 0.64631355
0.021159636 0.059744287 0.07 0 0 0.64631355
0.021156253 0.058839597 0.07 0 0 0.64631355
0.021152925 0.057935197 0.07 0 0 0.64631355
0.021149648 0.057031076 0.07 0 0 0.64631355
0.021146422 0.056127235 0.07 0 0 0.64631355
0.02114325 0.05522367 0.07 0 0 0.64631355
0.021140128 0.054320369 0.07 0 0 0.64631355
0.021137059 0.053417336 0.07 0 0 0.64631355
0.021134041 0.052514561 0.07 0 0 0.64631355
0.021131076 0.051612042 0.07 0 0 0.64631355
0.021128163 0.050709777 0.07 0 0 0.64631355
0.021125302 0.049807753 0.07 0 0 0.64631355
0.021122491 0.048905976 0.07 0 0 0.64631355
0.021119732 0.048004434 0.07 0 0 0.64631355
0.021117026 0.047103126 0.07 0 0 0.64631355
0.02111437 0.046202049 0.07 0 0 0.64631355
0.021111768 0.045301195 0.07 0 0 0.64631355
0.021109214 0.044400558 0.07 0 0 0.64631355
0.021106714 0.04350014 0.07 0 0 0.64631355
0.021104265 0.042599931 0.07 0 0 0.64631355
0.021101868 0.041699931 0.07 0 0 0.64631355
0.021099523 0.040800132 0.07 0 0 0.64631355
0.02117035 0.040038824 0.068002537 0 0 0.64631355
0.021686636 0.04009499 0.0538361 0 0 0.64631355
0.022190778 0.040085297 0.039999999 0 0 0.64631355
0.022188526 0.039139464 0.039999999 0 0 0.64631355
0.022186328 0.038193822 0.039999999 0 0 0.64631355
0.022184184 0.037248366 0.039999999 0 0 0.64631355
0.022182094 0.036303084 0.039999999 0 0 0.64631355
0.022180058 0.035357982 0.039999999 0 0 0.64631355
0.022178076 0.034413051 0.039999999 0 0 0.64631355
0.022176147 0.033468287 0.039999999 0 0 0.64631355
0.022174273 0.032523684 0.039999999 0 0 0.64631355
0.022172451 0.031579241 0.039999999 0 0 0.64631355
0.022170685 0.030634949 0.039999999 0 0 0.64631355
0.022168972 0.029690804 0.039999999 0 0 0.64631355
0.022167312 0.028746804 0.039999999 0 0 0.64631355
0.022165706 0.027802942 0.039999999 0 0 0.64631355
0.022164155 0.026859216 0.039999999 0 0 0.64631355
0.022162655 0.025915619 0.039999999 0 0 0.64631355
0.022161212 0.024972148 0.039999999 0 0 0.64631355
0.02215982 0.024028797 0.039999999 0 0 0.64631355
0.022158483 0.023085563 0.039999999 0 0 0.64631355
0.0221572 0.022142438 0.039999999 0 0 0.64631355
0.022155968 0.021199422 0.039999999 0 0 0.64631355
0.022154793 0.020256508 0.039999999 0 0 0.64631355
0.02215367 0.019313693 0.039999999 0 0 0.64631355
0.022152601 0.018370969 0.039999999 0 0 0.64631355
0.022151584 0.017428337 0.039999999 0 0 0.64631355
0.022150623 0.016485786 0.039999999 0 0 0.64631355
0.022149714 0.015543316 0.039999999 0 0 0.64631355
0.022148859 0.014600921 0.039999999 0 0 0.64631355
0.022148056 0.013658597 0.039999999 0 0 0.64631355
0.022147309 0.012716338 0.039999999 0 0 0.64631355
0.022146614 0.01177414 0.039999999 0 0 0.64631355
0.022145972 0.010832001 0.039999999 0 0 0.64631355
0.022145385 0.0098899128 0.039999999 0 0 0.64631355
0.02214485 0.0089478716 0.039999999 0 0 0.64631355
0.02214437 0.0080058752 0.039999999 0 0 0.64631355
0.022143941 0.0070639164 0.039999999 0 0 0.64631355
0.022143567 0.0061219917 0.039999999 0 0 0.64631355
0.022143247 0.0051800967 0.039999999 0 0 0.64631355
0.02214298 0.0042382269 0.039999999 0 0 0.64631355
0.022142766 0.0032963776 0.039999999 0 0 0.64631355
0.022142606 0.0023545441 0.039999999 0 0 0.64631355
0.0221425 0.0014127219 0.039999999 0 0 0.64631355
0.022142446 0.00047090655 0.039999999 0 0 0.64631355
0.020342404 0.079729199 0.07 0 0 0.64631355
0.020338058 0.078817047 0.07 0 0 0.64631355
0.020333763 0.077905282 0.07 0 0 0.64631355
0.020329518 0.076993905 0.07 0 0 0.64631355
0.020325325 0.0760829 0.07 0 0 0.64631355
0.020321183 0.075172268 0.07 0 0 0.64631355
0.020317091 0.074262008 0.07 0 0 0.64631355
0.020313049 0.073352113 0.07 0 0 0.64631355
0.020309059 0.072442576 0.07 0 0 0.64631355
0.020305118 0.071533397 0.07 0 0 0.64631355
0.020301228 0.070624568 0.07 0 0 0.64631355
0.020297389 0.069716088 0.07 0 0 0.64631355
0.020293601 0.068807945 0.07 0 0 0.64631355
0.020289863 0.067900136 0.07 0 0 0.64631355
0.020286174 0.066992663 0.07 0 0 0.64631355
0.020282537 0.066085517 0.07 0 0 0.64631355
0.020278949 0.065178692 0.07 0 0 0.64631355
0.02027541 0.064272188 0.07 0 0 0.64631355
0.020271923 0.063365996 0.07 0 0 0.64631355
0.020268487 0.062460117 0.07 0 0 0.64631355
0.020265099 0.06155454 0.07 0 0 0.64631355
0.020261763 0.060649265 0.07 0 0 0.64631355
0.020258475 0.059744287 0.07 0 0 0.64631355
0.020255238 0.058839597 0.07 0 0 0.64631355
0.020252051 0.057935197 0.07 0 0 0.64631355
0.020248912 0.057031076 0.07 0 0 0.64631355
0.020245826 0.056127235 0.07 0 0 0.64631355
0.020242788 0.05522367 0.07 0 0 0.64631355
0.020239798 0.054320369 0.07 0 0 0.64631355
0.020236861 0.053417336 0.07 0 0 0.64631355
0.020233972 0.052514561 0.07 0 0 0.64631355
0.020231133 0.051612042 0.07 0 0 0.64631355
0.020228343 0.050709777 0.07 0 0 0.64631355
0.020225603 0.049807753 0.07 0 0 0.64631355
0.020222913 0.048905976 0.07 0 0 0.64631355
0.020220272 0.048004434 0.07 0 0 0.64631355
0.020217679 0.047103126 0.07 0 0 0.64631355
0.020215139 0.046202049 0.07 0 0 0.64631355
0.020212645 0.045301195 0.07 0 0 0.64631355
0.020210203 0.044400558 0.07 0 0 0.64631355
0.020207807 0.04350014 0.07 0 0 0.64631355
0.020205464 0.042599931 0.07 0 0 0.64631355
0.020203168 0.041699931 0.07 0 0 0.64631355
0.020200923 0.040800132 0.07 0 0 0.64631355
0.020263912 0.040029299 0.068140104 0 0 0.64631355
0.020729015 0.040029299 0.054806806 0 0 0.64631355
0.021224173 0.04004468 0.040614404 0 0 0.64631355
0.021243546 0.039139464 0.039999999 0 0 0.64631355
0.021241443 0.038193822 0.039999999 0 0 0.64631355
0.021239391 0.037248366 0.039999999 0 0 0.64631355
0.021237388 0.036303084 0.039999999 0 0 0.64631355
0.02123544 0.035357982 0.039999999 0 0 0.64631355
0.021233542 0.034413051 0.039999999 0 0 0.64631355
0.021231696 0.033468287 0.039999999 0 0 0.64631355
0.0212299 0.032523684 0.039999999 0 0 0.64631355
0.021228157 0.031579241 0.039999999 0 0 0.64631355
0.021226466 0.030634949 0.039999999 0 0 0.64631355
0.021224825 0.029690804 0.039999999 0 0 0.64631355
0.021223236 0.028746804 0.039999999 0 0 0.64631355
0.021221699 0.027802942 0.039999999 0 0 0.64631355
0.021220213 0.026859216 0.039999999 0 0 0.64631355
0.021218779 0.025915619 0.039999999 0 0 0.64631355
0.021217396 0.024972148 0.039999999 0 0 0.64631355
0.021216065 0.024028797 0.039999999 0 0 0.64631355
0.021214783 0.023085563 0.039999999 0 0 0.64631355
0.021213554 0.022142438 0.039999999 0 0 0.64631355
0.021212377 0.021199422 0.039999999 0 0 0.64631355
0.02121125 0.020256508 0.039999999 0 0 0.64631355
0.021210175 0.019313693 0.039999999 0 0 0.64631355
0.021209151 0.018370969 0.039999999 0 0 0.64631355
0.021208178 0.017428337 0.039999999 0 0 0.64631355
0.021207258 0.016485786 0.039999999 0 0 0.64631355
0.021206388 0.015543316 0.039999999 0 0 0.64631355
0.021205569 0.014600921 0.039999999 0 0 0.64631355
0.021204801 0.013658597 0.039999999 0 0 0.64631355
0.021204084 0.012716338 0.039999999 0 0 0.64631355
0.021203419 0.01177414 0.039999999 0 0 0.64631355
0.021202805 0.010832001 0.039999999 0 0 0.64631355
0.021202242 0.0098899128 0.039999999 0 0 0.64631355
0.021201732 0.0089478716 0.039999999 0 0 0.64631355
0.02120127 0.0080058752 0.039999999 0 0 0.64631355
0.021200862 0.0070639164 0.039999999 0 0 0.64631355
0.021200502 0.0061219917 0.039999999 0 0 0.64631355
0.021200197 0.0051800967 0.039999999 0 0 0.64631355
0.02119994 0.0042382269 0.039999999 0 0 0.64631355
0.021199737 0.0032963776 0.039999999 0 0 0.64631355
0.021199582 0.0023545441 0.039999999 0 0 0.64631355
0.02119948 0.0014127219 0.039999999 0 0 0.64631355
0.021199429 0.00047090655 0.039999999 0 0 0.64631355
0.019437609 0.079729199 0.07 0 0 0.64631355
0.019433456 0.078817047 0.07 0 0 0.64631355
