# .PCD v0.7 - Point Cloud Data file format
VERSION 0.7
FIELDS x y z vp_x vp_y vp_z
SIZE 4 4 4 4 4 4
TYPE F F F F F F
COUNT 1 1 1 1 1 1
WIDTH 671
HEIGHT 1
VIEWPOINT 0 0 0 1 0 0 0
POINTS 671
DATA ascii
0.00050535519 0.064435415 0.057553556 -0.32315677 -0.19972187 0.52287865
0.00025325225 0.062992021 0.058634527 -0.32315677 -0.19972187 0.52287865
8.8104804e-05 0.061625008 0.059587561 -0.32315677 -0.19972187 0.52287865
1.8446477e-05 0.060340226 0.060401037 -0.32315677 -0.19972187 0.52287865
4.6708716e-05 0.059138503 0.06107213 -0.32315677 -0.19972187 0.52287865
0.00011013471 0.057968669 0.061691031 -0.32315677 -0.19972187 0.52287865
0.00027390214 0.056882024 0.062165145 -0.32315677 -0.19972187 0.52287865
0.00044999644 0.055807907 0.062620319 -0.32315677 -0.19972187 0.52287865
0.0007157214 0.054806922 0.062946863 -0.32315677 -0.19972187 0.52287865
0.00099101453 0.053815424 0.063258894 -0.32315677 -0.19972187 0.52287865
0.0013385543 0.052882083 0.063467748 -0.32315677 -0.19972187 0.52287865
0.0017042659 0.051964186 0.063650332 -0.32315677 -0.19972187 0.52287865
0.0021215039 0.051087242 0.063759699 -0.32315677 -0.19972187 0.52287865
0.0025723265 0.050236903 0.063821465 -0.32315677 -0.19972187 0.52287865
0.0030523415 0.049409438 0.063842036 -0.32315677 -0.19972187 0.52287865
0.003585665 0.048622847 0.063787721 -0.32315677 -0.19972187 0.52287865
0.0041252947 0.047840986 0.063724793 -0.32315677 -0.19972187 0.52287865
0.004740905 0.047116235 0.06355571 -0.32315677 -0.19972187 0.52287865
0.0053568487 0.046391092 0.063386746 -0.32315677 -0.19972187 0.52287865
0.0060401382 0.045715511 0.063124329 -0.32315677 -0.19972187 0.52287865
0.0067408844 0.04505175 0.06283845 -0.32315677 -0.19972187 0.52287865
0.0074910568 0.04442323 0.0624847 -0.32315677 -0.19972187 0.52287865
0.0082812551 0.043822512 0.062076464 -0.32315677 -0.19972187 0.52287865
0.0091079865 0.043246616 0.061618835 -0.32315677 -0.19972187 0.52287865
0.009995372 0.042712711 0.061078608 -0.32315677 -0.19972187 0.52287865
0.010914316 0.042199094 0.06049642 -0.32315677 -0.19972187 0.52287865
0.011910378 0.041738261 0.059809506 -0.32315677 -0.19972187 0.52287865
0.012946466 0.041302815 0.059069522 -0.32315677 -0.19972187 0.52287865
0.014068146 0.040924858 0.058213919 -0.32315677 -0.19972187 0.52287865
0.015262209 0.040594123 0.0572614 -0.32315677 -0.19972187 0.52287865
0.0165346 0.040314078 0.056204222 -0.32315677 -0.19972187 0.52287865
0.017956311 0.040133834 0.054945476 -0.32315677 -0.19972187 0.52287865
0.019495098 0.040029299 0.053530224 -0.32315677 -0.19972187 0.52287865
0.021214673 0.040043645 0.05187203 -0.32315677 -0.19972187 0.52287865
0.023246052 0.040265799 0.049793039 -0.32315677 -0.19972187 0.52287865
0.025920721 0.040921107 0.046843071 -0.32315677 -0.19972187 0.52287865
0.031460911 0.043527335 0.039999999 -0.32315677 -0.19972187 0.52287865
0.031983186 0.042674493 0.039999999 -0.32315677 -0.19972187 0.52287865
0.032505576 0.041821849 0.039999999 -0.32315677 -0.19972187 0.52287865
0.033028089 0.040969398 0.039999999 -0.32315677 -0.19972187 0.52287865
0.033550728 0.040117133 0.039999999 -0.32315677 -0.19972187 0.52287865
0.034073494 0.039265051 0.039999999 -0.32315677 -0.19972187 0.52287865
0.034596391 0.038413152 0.039999999 -0.32315677 -0.19972187 0.52287865
0.035119422 0.037561424 0.039999999 -0.32315677 -0.19972187 0.52287865
0.035642587 0.036709864 0.039999999 -0.32315677 -0.19972187 0.52287865
0.036165889 0.035858471 0.039999999 -0.32315677 -0.19972187 0.52287865
0.036689337 0.035007238 0.039999999 -0.32315677 -0.19972187 0.52287865
0.037212927 0.034156159 0.039999999 -0.32315677 -0.19972187 0.52287865
0.037736665 0.033305231 0.039999999 -0.32315677 -0.19972187 0.52287865
0.038260553 0.032454453 0.039999999 -0.32315677 -0.19972187 0.52287865
0.038784593 0.031603813 0.039999999 -0.32315677 -0.19972187 0.52287865
0.03930879 0.030753313 0.039999999 -0.32315677 -0.19972187 0.52287865
0.039833143 0.029902944 0.039999999 -0.32315677 -0.19972187 0.52287865
0.0079699112 0.079676256 0.039999999 -0.32315677 -0.19972187 0.52287865
0.008489239 0.07881169 0.039999999 -0.32315677 -0.19972187 0.52287865
0.0090085631 0.077947527 0.039999999 -0.32315677 -0.19972187 0.52287865
0.005369592 0.073623911 0.046035599 -0.32315677 -0.19972187 0.52287865
0.0028246497 0.07023903 0.050466925 -0.32315677 -0.19972187 0.52287865
0.0017141311 0.068060569 0.052808933 -0.32315677 -0.19972187 0.52287865
0.0010011662 0.06622114 0.054569334 -0.32315677 -0.19972187 0.52287865
0.00055323372 0.064607859 0.055941988 -0.32315677 -0.19972187 0.52287865
0.00027792549 0.063142516 0.057061791 -0.32315677 -0.19972187 0.52287865
9.534054e-05 0.061758466 0.058044817 -0.32315677 -0.19972187 0.52287865
2.5522813e-05 0.060470741 0.058862928 -0.32315677 -0.19972187 0.52287865
4.0364772e-05 0.059255511 0.059557177 -0.32315677 -0.19972187 0.52287865
0.00010392971 0.058083117 0.060179587 -0.32315677 -0.19972187 0.52287865
0.00025696578 0.05698533 0.06067225 -0.32315677 -0.19972187 0.52287865
0.00043343191 0.055908948 0.061130006 -0.32315677 -0.19972187 0.52287865
0.00069030048 0.054898478 0.06147185 -0.32315677 -0.19972187 0.52287865
0.00096615677 0.053904951 0.061785687 -0.32315677 -0.19972187 0.52287865
0.0013061853 0.052963324 0.062007461 -0.32315677 -0.19972187 0.52287865
0.0016726245 0.052043602 0.062191159 -0.32315677 -0.19972187 0.52287865
0.0020833272 0.051159251 0.062311675 -0.32315677 -0.19972187 0.52287865
0.0025350249 0.050307263 0.062373925 -0.32315677 -0.19972187 0.52287865
0.0030092185 0.04947304 0.06240429 -0.32315677 -0.19972187 0.52287865
0.0035435543 0.048684955 0.062349856 -0.32315677 -0.19972187 0.52287865
0.0040779072 0.047896843 0.062295638 -0.32315677 -0.19972187 0.52287865
0.0046946267 0.047170717 0.062125903 -0.32315677 -0.19972187 0.52287865
0.0053117163 0.046444226 0.061956245 -0.32315677 -0.19972187 0.52287865
0.0059901662 0.045762844 0.061701208 -0.32315677 -0.19972187 0.52287865
0.0066921921 0.045097873 0.061414044 -0.32315677 -0.19972187 0.52287865
0.0074377242 0.044463772 0.061067067 -0.32315677 -0.19972187 0.52287865
0.0082293404 0.043861978 0.060656946 -0.32315677 -0.19972187 0.52287865
0.0090514841 0.043280609 0.060205638 -0.32315677 -0.19972187 0.52287865
0.0099404352 0.042745765 0.059662882 -0.32315677 -0.19972187 0.52287865
0.010854698 0.042226676 0.05908671 -0.32315677 -0.19972187 0.52287865
0.011852489 0.041765045 0.058396563 -0.32315677 -0.19972187 0.52287865
0.012883613 0.041323993 0.057662442 -0.32315677 -0.19972187 0.52287865
0.014007208 0.040945392 0.056802802 -0.32315677 -0.19972187 0.52287865
0.015195773 0.040608749 0.055856165 -0.32315677 -0.19972187 0.52287865
0.016470296 0.040328231 0.054793995 -0.32315677 -0.19972187 0.52287865
0.01788561 0.040141523 0.053541359 -0.32315677 -0.19972187 0.52287865
0.019416163 0.040029299 0.052134216 -0.32315677 -0.19972187 0.52287865
0.02112432 0.040033817 0.050487682 -0.32315677 -0.19972187 0.52287865
0.023156796 0.040254928 0.048401821 -0.32315677 -0.19972187 0.52287865
0.025781913 0.040874336 0.045511499 -0.32315677 -0.19972187 0.52287865
0.030332204 0.04280021 0.039999999 -0.32315677 -0.19972187 0.52287865
0.030853894 0.041948453 0.039999999 -0.32315677 -0.19972187 0.52287865
0.031375702 0.041096888 0.039999999 -0.32315677 -0.19972187 0.52287865
0.031897627 0.040245514 0.039999999 -0.32315677 -0.19972187 0.52287865
0.032419674 0.03939433 0.039999999 -0.32315677 -0.19972187 0.52287865
0.032941844 0.038543325 0.039999999 -0.32315677 -0.19972187 0.52287865
0.033464145 0.037692495 0.039999999 -0.32315677 -0.19972187 0.52287865
0.033986576 0.036841836 0.039999999 -0.32315677 -0.19972187 0.52287865
0.034509137 0.035991348 0.039999999 -0.32315677 -0.19972187 0.52287865
0.035031833 0.035141021 0.039999999 -0.32315677 -0.19972187 0.52287865
0.03555467 0.03429085 0.039999999 -0.32315677 -0.19972187 0.52287865
0.036077648 0.033440836 0.039999999 -0.32315677 -0.19972187 0.52287865
0.036600769 0.03259097 0.039999999 -0.32315677 -0.19972187 0.52287865
0.037124038 0.031741247 0.039999999 -0.32315677 -0.19972187 0.52287865
0.037647456 0.030891664 0.039999999 -0.32315677 -0.19972187 0.52287865
0.038171027 0.030042218 0.039999999 -0.32315677 -0.19972187 0.52287865
0.038694754 0.0291929 0.039999999 -0.32315677 -0.19972187 0.52287865
0.039218638 0.028343711 0.039999999 -0.32315677 -0.19972187 0.52287865
0.039742686 0.027494641 0.039999999 -0.32315677 -0.19972187 0.52287865
0.006347659 0.079766102 0.039999999 -0.32315677 -0.19972187 0.52287865
0.0068665375 0.078902327 0.039999999 -0.32315677 -0.19972187 0.52287865
0.0073854066 0.078038961 0.039999999 -0.32315677 -0.19972187 0.52287865
0.0079042697 0.077175982 0.039999999 -0.32315677 -0.19972187 0.52287865
0.0064333081 0.074656904 0.042897768 -0.32315677 -0.19972187 0.52287865
0.0030222412 0.070546165 0.048607439 -0.32315677 -0.19972187 0.52287865
0.0017972407 0.068269171 0.051125668 -0.32315677 -0.19972187 0.52287865
0.0010526293 0.066400282 0.052939739 -0.32315677 -0.19972187 0.52287865
0.00060131139 0.064781018 0.054323714 -0.32315677 -0.19972187 0.52287865
0.00030269768 0.063293621 0.055482749 -0.32315677 -0.19972187 0.52287865
0.00010260446 0.061892442 0.056496069 -0.32315677 -0.19972187 0.52287865
3.2626649e-05 0.060601767 0.057318844 -0.32315677 -0.19972187 0.52287865
3.3996745e-05 0.059372962 0.058036476 -0.32315677 -0.19972187 0.52287865
9.7701195e-05 0.058197994 0.058662411 -0.32315677 -0.19972187 0.52287865
0.00023996647 0.05708902 0.059173804 -0.32315677 -0.19972187 0.52287865
0.00041680594 0.056010358 0.059634164 -0.32315677 -0.19972187 0.52287865
0.00066478673 0.05499037 0.059991457 -0.32315677 -0.19972187 0.52287865
0.00094120839 0.053994805 0.060307104 -0.32315677 -0.19972187 0.52287865
0.0012736998 0.053044859 0.060541932 -0.32315677 -0.19972187 0.52287865
0.0016408694 0.052123304 0.060726747 -0.32315677 -0.19972187 0.52287865
0.0020450151 0.051231515 0.060858522 -0.32315677 -0.19972187 0.52287865
0.0024975913 0.050377868 0.060921252 -0.32315677 -0.19972187 0.52287865
0.0029659441 0.049536865 0.060961511 -0.32315677 -0.19972187 0.52287865
0.0035012963 0.048747279 0.060906958 -0.32315677 -0.19972187 0.52287865
0.0040366654 0.04795767 0.060852621 -0.32315677 -0.19972187 0.52287865
0.0046481881 0.04722539 0.060691148 -0.32315677 -0.19972187 0.52287865
0.005266428 0.046497542 0.060520787 -0.32315677 -0.19972187 0.52287865
0.0059400229 0.045810342 0.060273208 -0.32315677 -0.19972187 0.52287865
0.006643333 0.045144152 0.059984755 -0.32315677 -0.19972187 0.52287865
0.0073842104 0.044504456 0.059644617 -0.32315677 -0.19972187 0.52287865
0.0081772497 0.043901578 0.0592326 -0.32315677 -0.19972187 0.52287865
0.0089947907 0.043314721 0.058787685 -0.32315677 -0.19972187 0.52287865
0.009885313 0.042778928 0.058242388 -0.32315677 -0.19972187 0.52287865
0.010794881 0.042254351 0.057672299 -0.32315677 -0.19972187 0.52287865
0.011794406 0.041791916 0.056978896 -0.32315677 -0.19972187 0.52287865
0.012820553 0.041345242 0.056250706 -0.32315677 -0.19972187 0.52287865
0.013946068 0.040965993 0.055387005 -0.32315677 -0.19972187 0.52287865
0.015129119 0.040623419 0.054446328 -0.32315677 -0.19972187 0.52287865
0.016405782 0.040342432 0.053379141 -0.32315677 -0.19972187 0.52287865
0.017814681 0.040149242 0.052132688 -0.32315677 -0.19972187 0.52287865
0.019336974 0.040029299 0.050733756 -0.32315677 -0.19972187 0.52287865
0.021041356 0.040029299 0.049088459 -0.32315677 -0.19972187 0.52287865
0.023069257 0.040245403 0.047003515 -0.32315677 -0.19972187 0.52287865
0.025642712 0.040827431 0.04417615 -0.32315677 -0.19972187 0.52287865
0.029206602 0.042075083 0.039999999 -0.32315677 -0.19972187 0.52287865
0.029727712 0.041224405 0.039999999 -0.32315677 -0.19972187 0.52287865
0.030248934 0.040373921 0.039999999 -0.32315677 -0.19972187 0.52287865
0.030770274 0.039523624 0.039999999 -0.32315677 -0.19972187 0.52287865
0.031291731 0.038673513 0.039999999 -0.32315677 -0.19972187 0.52287865
0.031813312 0.03782358 0.039999999 -0.32315677 -0.19972187 0.52287865
0.032335013 0.036973819 0.039999999 -0.32315677 -0.19972187 0.52287865
0.032856844 0.036124229 0.039999999 -0.32315677 -0.19972187 0.52287865
0.033378806 0.035274807 0.039999999 -0.32315677 -0.19972187 0.52287865
0.033900898 0.034425542 0.039999999 -0.32315677 -0.19972187 0.52287865
0.034423128 0.033576436 0.039999999 -0.32315677 -0.19972187 0.52287865
0.034945492 0.03272748 0.039999999 -0.32315677 -0.19972187 0.52287865
0.035468001 0.031878669 0.039999999 -0.32315677 -0.19972187 0.52287865
0.035990652 0.031030003 0.039999999 -0.32315677 -0.19972187 0.52287865
0.036513451 0.030181475 0.039999999 -0.32315677 -0.19972187 0.52287865
0.037036397 0.029333077 0.039999999 -0.32315677 -0.19972187 0.52287865
0.037559498 0.02848481 0.039999999 -0.32315677 -0.19972187 0.52287865
0.038082752 0.027636668 0.039999999 -0.32315677 -0.19972187 0.52287865
0.038606163 0.026788644 0.039999999 -0.32315677 -0.19972187 0.52287865
0.039129738 0.025940735 0.039999999 -0.32315677 -0.19972187 0.52287865
0.039653473 0.025092937 0.039999999 -0.32315677 -0.19972187 0.52287865
0.0047293417 0.079856098 0.039999999 -0.32315677 -0.19972187 0.52287865
0.0052477797 0.078993119 0.039999999 -0.32315677 -0.19972187 0.52287865
0.0057662036 0.078130536 0.039999999 -0.32315677 -0.19972187 0.52287865
0.0062846155 0.077268355 0.039999999 -0.32315677 -0.19972187 0.52287865
0.0068030185 0.076406568 0.039999999 -0.32315677 -0.19972187 0.52287865
0.0073214155 0.075545162 0.039999999 -0.32315677 -0.19972187 0.52287865
0.003245302 0.07087516 0.046702754 -0.32315677 -0.19972187 0.52287865
0.0018996591 0.068494312 0.049407393 -0.32315677 -0.19972187 0.52287865
0.0011340267 0.066604577 0.051260076 -0.32315677 -0.19972187 0.52287865
0.00064958981 0.064954892 0.052698687 -0.32315677 -0.19972187 0.52287865
0.00032756949 0.06344533 0.053897355 -0.32315677 -0.19972187 0.52287865
0.00010989675 0.06202694 0.054941271 -0.32315677 -0.19972187 0.52287865
3.9758179e-05 0.0607333 0.055768736 -0.32315677 -0.19972187 0.52287865
2.760447e-05 0.05949086 0.056509987 -0.32315677 -0.19972187 0.52287865
9.1449001e-05 0.05831331 0.057139471 -0.32315677 -0.19972187 0.52287865
0.00022290381 0.057193097 0.057669774 -0.32315677 -0.19972187 0.52287865
0.00040011804 0.056112152 0.058132753 -0.32315677 -0.19972187 0.52287865
0.00063917961 0.055082597 0.058505639 -0.32315677 -0.19972187 0.52287865
0.00091616873 0.05408499 0.058823112 -0.32315677 -0.19972187 0.52287865
0.0012410972 0.053126689 0.059071116 -0.32315677 -0.19972187 0.52287865
0.001609 0.052203294 0.059257057 -0.32315677 -0.19972187 0.52287865
0.0020065669 0.051304035 0.059400201 -0.32315677 -0.19972187 0.52287865
0.0024600243 0.050448727 0.059463419 -0.32315677 -0.19972187 0.52287865
0.0029225179 0.049600914 0.059513662 -0.32315677 -0.19972187 0.52287865
0.0034588897 0.048809826 0.059458993 -0.32315677 -0.19972187 0.52287865
0.0039952784 0.048018713 0.059404537 -0.32315677 -0.19972187 0.52287865
0.004601588 0.047280252 0.059251405 -0.32315677 -0.19972187 0.52287865
0.0052209822 0.046551045 0.059080336 -0.32315677 -0.19972187 0.52287865
0.0058897068 0.045858003 0.058840297 -0.32315677 -0.19972187 0.52287865
0.0065943054 0.045190591 0.058550548 -0.32315677 -0.19972187 0.52287865
0.007330514 0.044545274 0.058217317 -0.32315677 -0.19972187 0.52287865
0.0081249811 0.043941312 0.057803396 -0.32315677 -0.19972187 0.52287865
0.0089379065 0.043348946 0.057364941 -0.32315677 -0.19972187 0.52287865
0.0098300055 0.042812206 0.056817088 -0.32315677 -0.19972187 0.52287865
0.010734864 0.042282116 0.05625315 -0.32315677 -0.19972187 0.52287865
0.011736128 0.04181888 0.05555648 -0.32315677 -0.19972187 0.52287865
0.012757284 0.041366559 0.054834291 -0.32315677 -0.19972187 0.52287865
0.013884724 0.040986665 0.053966504 -0.32315677 -0.19972187 0.52287865
0.015062246 0.040638134 0.053031858 -0.32315677 -0.19972187 0.52287865
0.016341055 0.040356677 0.051959626 -0.32315677 -0.19972187 0.52287865
0.01774352 0.040156983 0.05071944 -0.32315677 -0.19972187 0.52287865
0.019257532 0.040029299 0.049328815 -0.32315677 -0.19972187 0.52287865
0.020964634 0.040029299 0.047675814 -0.32315677 -0.19972187 0.52287865
0.022981444 0.040235851 0.045600813 -0.32315677 -0.19972187 0.52287865
0.025503114 0.040780392 0.042837005 -0.32315677 -0.19972187 0.52287865
0.028084088 0.041351944 0.039999999 -0.32315677 -0.19972187 0.52287865
0.028604619 0.040502347 0.039999999 -0.32315677 -0.19972187 0.52287865
0.02912526 0.03965294 0.039999999 -0.32315677 -0.19972187 0.52287865
0.029646013 0.038803715 0.039999999 -0.32315677 -0.19972187 0.52287865
0.030166883 0.037954673 0.039999999 -0.32315677 -0.19972187 0.52287865
0.03068787 0.03710581 0.039999999 -0.32315677 -0.19972187 0.52287865
0.031208981 0.036257118 0.039999999 -0.32315677 -0.19972187 0.52287865
0.031730212 0.035408594 0.039999999 -0.32315677 -0.19972187 0.52287865
0.032251574 0.034560233 0.039999999 -0.32315677 -0.19972187 0.52287865
0.032773063 0.033712029 0.039999999 -0.32315677 -0.19972187 0.52287865
0.033294685 0.032863978 0.039999999 -0.32315677 -0.19972187 0.52287865
0.033816442 0.03201608 0.039999999 -0.32315677 -0.19972187 0.52287865
0.034338336 0.031168325 0.039999999 -0.32315677 -0.19972187 0.52287865
0.034860373 0.03032071 0.039999999 -0.32315677 -0.19972187 0.52287865
0.035382554 0.029473232 0.039999999 -0.32315677 -0.19972187 0.52287865
0.035904881 0.028625883 0.039999999 -0.32315677 -0.19972187 0.52287865
0.036427353 0.027778663 0.039999999 -0.32315677 -0.19972187 0.52287865
0.036949981 0.026931563 0.039999999 -0.32315677 -0.19972187 0.52287865
0.037472762 0.026084581 0.039999999 -0.32315677 -0.19972187 0.52287865
0.0379957 0.025237713 0.039999999 -0.32315677 -0.19972187 0.52287865
0.038518801 0.024390955 0.039999999 -0.32315677 -0.19972187 0.52287865
0.039042063 0.023544298 0.039999999 -0.32315677 -0.19972187 0.52287865
0.039565489 0.022697741 0.039999999 -0.32315677 -0.19972187 0.52287865
0.0031149278 0.079946242 0.039999999 -0.32315677 -0.19972187 0.52287865
0.0036329345 0.079084054 0.039999999 -0.32315677 -0.19972187 0.52287865
0.0041509215 0.07822226 0.039999999 -0.32315677 -0.19972187 0.52287865
0.0046688914 0.077360868 0.039999999 -0.32315677 -0.19972187 0.52287865
0.0051868469 0.076499872 0.039999999 -0.32315677 -0.19972187 0.52287865
0.0057047904 0.075639255 0.039999999 -0.32315677 -0.19972187 0.52287865
0.0062227254 0.074779034 0.039999999 -0.32315677 -0.19972187 0.52287865
0.0034695424 0.071205884 0.044788003 -0.32315677 -0.19972187 0.52287865
0.0020328152 0.068745472 0.047637086 -0.32315677 -0.19972187 0.52287865
0.0012157822 0.066809773 0.049573027 -0.32315677 -0.19972187 0.52287865
0.00069807039 0.065129504 0.051066849 -0.32315677 -0.19972187 0.52287865
0.00035254168 0.063597649 0.052305564 -0.32315677 -0.19972187 0.52287865
0.00011721761 0.062161967 0.053380378 -0.32315677 -0.19972187 0.52287865
4.6917605e-05 0.06086535 0.05421257 -0.32315677 -0.19972187 0.52287865
2.1187778e-05 0.059609212 0.054977663 -0.32315677 -0.19972187 0.52287865
8.5172964e-05 0.058429066 0.05561072 -0.32315677 -0.19972187 0.52287865
0.00020577732 0.057297561 0.056160122 -0.32315677 -0.19972187 0.52287865
0.00038336779 0.056214321 0.056625731 -0.32315677 -0.19972187 0.52287865
0.00061347842 0.055175163 0.057014368 -0.32315677 -0.19972187 0.52287865
0.00089103723 0.054175504 0.057333678 -0.32315677 -0.19972187 0.52287865
0.0012083767 0.053208813 0.057594981 -0.32315677 -0.19972187 0.52287865
0.0015770154 0.05228357 0.057782058 -0.32315677 -0.19972187 0.52287865
0.0019679815 0.051376816 0.057936676 -0.32315677 -0.19972187 0.52287865
0.0024223237 0.050519839 0.058000386 -0.32315677 -0.19972187 0.52287865
0.0028789388 0.049665187 0.058060713 -0.32315677 -0.19972187 0.52287865
0.0034163336 0.04887259 0.058005925 -0.32315677 -0.19972187 0.52287865
0.0039537456 0.048079967 0.05795135 -0.32315677 -0.19972187 0.52287865
0.0045548258 0.047335304 0.057806648 -0.32315677 -0.19972187 0.52287865
0.0051753777 0.046604734 0.057634868 -0.32315677 -0.19972187 0.52287865
0.005839217 0.045905828 0.057402439 -0.32315677 -0.19972187 0.52287865
0.0065451087 0.045237195 0.057111386 -0.32315677 -0.19972187 0.52287865
0.0072766342 0.044586234 0.05678514 -0.32315677 -0.19972187 0.52287865
0.0080725336 0.043981183 0.056369301 -0.32315677 -0.19972187 0.52287865
0.0088808294 0.043383285 0.055937376 -0.32315677 -0.19972187 0.52287865
0.0097745098 0.042845596 0.055386953 -0.32315677 -0.19972187 0.52287865
0.010674644 0.042309977 0.054829236 -0.32315677 -0.19972187 0.52287865
0.011677654 0.041845933 0.054129276 -0.32315677 -0.19972187 0.52287865
0.012693804 0.041387949 0.05341316 -0.32315677 -0.19972187 0.52287865
0.013823176 0.041007403 0.052541267 -0.32315677 -0.19972187 0.52287865
0.014995153 0.040652901 0.051612724 -0.32315677 -0.19972187 0.52287865
0.016276114 0.040370971 0.050535418 -0.32315677 -0.19972187 0.52287865
0.017672129 0.04016475 0.049301583 -0.32315677 -0.19972187 0.52287865
0.019177837 0.040029299 0.047919367 -0.32315677 -0.19972187 0.52287865
0.020887664 0.040029299 0.046258621 -0.32315677 -0.19972187 0.52287865
0.022893354 0.040226266 0.044193689 -0.32315677 -0.19972187 0.52287865
0.025363117 0.040733218 0.041494042 -0.32315677 -0.19972187 0.52287865
0.026964644 0.040630788 0.039999999 -0.32315677 -0.19972187 0.52287865
0.027484598 0.039782263 0.039999999 -0.32315677 -0.19972187 0.52287865
0.028004657 0.038933925 0.039999999 -0.32315677 -0.19972187 0.52287865
0.028524827 0.038085774 0.039999999 -0.32315677 -0.19972187 0.52287865
0.029045111 0.037237801 0.039999999 -0.32315677 -0.19972187 0.52287865
0.029565509 0.036390003 0.039999999 -0.32315677 -0.19972187 0.52287865
0.030086026 0.035542376 0.039999999 -0.32315677 -0.19972187 0.52287865
0.030606663 0.034694914 0.039999999 -0.32315677 -0.19972187 0.52287865
0.031127425 0.033847611 0.039999999 -0.32315677 -0.19972187 0.52287865
0.031648312 0.033000465 0.039999999 -0.32315677 -0.19972187 0.52287865
0.032169331 0.032153472 0.039999999 -0.32315677 -0.19972187 0.52287865
0.03269048 0.031306624 0.039999999 -0.32315677 -0.19972187 0.52287865
0.033211764 0.030459922 0.039999999 -0.32315677 -0.19972187 0.52287865
0.033733185 0.029613357 0.039999999 -0.32315677 -0.19972187 0.52287865
0.034254748 0.028766925 0.039999999 -0.32315677 -0.19972187 0.52287865
0.034776453 0.027920622 0.039999999 -0.32315677 -0.19972187 0.52287865
0.035298306 0.027074445 0.039999999 -0.32315677 -0.19972187 0.52287865
0.035820305 0.026228387 0.039999999 -0.32315677 -0.19972187 0.52287865
0.036342457 0.025382444 0.039999999 -0.32315677 -0.19972187 0.52287865
0.036864765 0.024536613 0.039999999 -0.32315677 -0.19972187 0.52287865
0.037387226 0.023690889 0.039999999 -0.32315677 -0.19972187 0.52287865
0.03790985 0.022845266 0.039999999 -0.32315677 -0.19972187 0.52287865
0.038432639 0.021999741 0.039999999 -0.32315677 -0.19972187 0.52287865
0.038955588 0.021154309 0.039999999 -0.32315677 -0.19972187 0.52287865
0.039478708 0.020308966 0.039999999 -0.32315677 -0.19972187 0.52287865
0.0020219712 0.079175122 0.039999999 -0.32315677 -0.19972187 0.52287865
0.0025395302 0.078314118 0.039999999 -0.32315677 -0.19972187 0.52287865
0.0030570668 0.077453509 0.039999999 -0.32315677 -0.19972187 0.52287865
0.0035745834 0.076593302 0.039999999 -0.32315677 -0.19972187 0.52287865
0.0040920833 0.075733483 0.039999999 -0.32315677 -0.19972187 0.52287865
0.0046095685 0.074874051 0.039999999 -0.32315677 -0.19972187 0.52287865
0.0051270425 0.074014999 0.039999999 -0.32315677 -0.19972187 0.52287865
0.003694972 0.071538374 0.042863093 -0.32315677 -0.19972187 0.52287865
0.0021666023 0.068997823 0.045858387 -0.32315677 -0.19972187 0.52287865
0.0012978988 0.067015879 0.047878526 -0.32315677 -0.19972187 0.52287865
0.0007467547 0.065304846 0.049428161 -0.32315677 -0.19972187 0.52287865
0.00037761498 0.063750587 0.050707329 -0.32315677 -0.19972187 0.52287865
0.00014166618 0.062311385 0.051788434 -0.32315677 -0.19972187 0.52287865
5.4105119e-05 0.060997918 0.052650295 -0.32315677 -0.19972187 0.52287865
1.4746497e-05 0.059728015 0.053439468 -0.32315677 -0.19972187 0.52287865
7.8872916e-05 0.058545265 0.05407612 -0.32315677 -0.19972187 0.52287865
0.00018858659 0.057402417 0.054644804 -0.32315677 -0.19972187 0.52287865
0.0003665548 0.056316875 0.055113062 -0.32315677 -0.19972187 0.52287865
0.00058768253 0.055268068 0.055517603 -0.32315677 -0.19972187 0.52287865
0.00086581317 0.054266352 0.05583876 -0.32315677 -0.19972187 0.52287865
0.0011755376 0.053291235 0.056113496 -0.32315677 -0.19972187 0.52287865
0.0015449148 0.052364141 0.056301709 -0.32315677 -0.19972187 0.52287865
0.0019292579 0.051449854 0.056467917 -0.32315677 -0.19972187 0.52287865
0.002384488 0.050591204 0.056532118 -0.32315677 -0.19972187 0.52287865
0.0028394957 0.049732972 0.056596491 -0.32315677 -0.19972187 0.52287865
0.0033736273 0.048935577 0.056547724 -0.32315677 -0.19972187 0.52287865
0.0039120656 0.048141442 0.056493025 -0.32315677 -0.19972187 0.52287865
0.0045079002 0.04739055 0.05635684 -0.32315677 -0.19972187 0.52287865
0.0051296139 0.046658613 0.056184344 -0.32315677 -0.19972187 0.52287865
0.0057885526 0.045953818 0.055959605 -0.32315677 -0.19972187 0.52287865
0.0064957417 0.045283955 0.055667244 -0.32315677 -0.19972187 0.52287865
0.0072225695 0.044627335 0.055348054 -0.32315677 -0.19972187 0.52287865
0.0080199065 0.044021189 0.054930288 -0.32315677 -0.19972187 0.52287865
0.0088235587 0.043417744 0.054504965 -0.32315677 -0.19972187 0.52287865
0.0097188251 0.042879097 0.053951956 -0.32315677 -0.19972187 0.52287865
0.010616064 0.042339265 0.053397935 -0.32315677 -0.19972187 0.52287865
0.011618984 0.041873075 0.05269726 -0.32315677 -0.19972187 0.52287865
0.012630112 0.041409411 0.051987283 -0.32315677 -0.19972187 0.52287865
0.013761422 0.041028209 0.051111262 -0.32315677 -0.19972187 0.52287865
0.014927838 0.04066772 0.050188899 -0.32315677 -0.19972187 0.52287865
0.016210956 0.04038531 0.04910649 -0.32315677 -0.19972187 0.52287865
0.017600503 0.04017254 0.047879085 -0.32315677 -0.19972187 0.52287865
0.019097883 0.040029299 0.04650538 -0.32315677 -0.19972187 0.52287865
0.020810444 0.040029299 0.044836849 -0.32315677 -0.19972187 0.52287865
0.022804987 0.040216655 0.042782113 -0.32315677 -0.19972187 0.52287865
0.025254518 0.040707853 0.040103175 -0.32315677 -0.19972187 0.52287865
0.025848253 0.039911594 0.039999999 -0.32315677 -0.19972187 0.52287865
0.026367629 0.039064143 0.039999999 -0.32315677 -0.19972187 0.52287865
0.02688711 0.038216874 0.039999999 -0.32315677 -0.19972187 0.52287865
0.027406698 0.037369791 0.039999999 -0.32315677 -0.19972187 0.52287865
0.027926397 0.036522884 0.039999999 -0.32315677 -0.19972187 0.52287865
0.028446207 0.035676148 0.039999999 -0.32315677 -0.19972187 0.52287865
0.028966131 0.034829579 0.039999999 -0.32315677 -0.19972187 0.52287865
0.029486176 0.033983178 0.039999999 -0.32315677 -0.19972187 0.52287865
0.03000634 0.03313693 0.039999999 -0.32315677 -0.19972187 0.52287865
0.030526627 0.032290842 0.039999999 -0.32315677 -0.19972187 0.52287865
0.031047041 0.0314449 0.039999999 -0.32315677 -0.19972187 0.52287865
0.031567585 0.030599104 0.039999999 -0.32315677 -0.19972187 0.52287865
0.032088257 0.02975345 0.039999999 -0.32315677 -0.19972187 0.52287865
0.032609068 0.02890793 0.039999999 -0.32315677 -0.19972187 0.52287865
0.033130016 0.028062545 0.039999999 -0.32315677 -0.19972187 0.52287865
0.033651102 0.027217284 0.039999999 -0.32315677 -0.19972187 0.52287865
0.034172334 0.026372146 0.039999999 -0.32315677 -0.19972187 0.52287865
0.034693711 0.025527127 0.039999999 -0.32315677 -0.19972187 0.52287865
0.035215233 0.024682222 0.039999999 -0.32315677 -0.19972187 0.52287865
0.035736907 0.023837425 0.039999999 -0.32315677 -0.19972187 0.52287865
0.036258738 0.022992732 0.039999999 -0.32315677 -0.19972187 0.52287865
0.036780726 0.022148142 0.039999999 -0.32315677 -0.19972187 0.52287865
0.03730287 0.021303644 0.039999999 -0.32315677 -0.19972187 0.52287865
0.037825178 0.020459238 0.039999999 -0.32315677 -0.19972187 0.52287865
0.038347654 0.01961492 0.039999999 -0.32315677 -0.19972187 0.52287865
0.038870297 0.018770684 0.039999999 -0.32315677 -0.19972187 0.52287865
0.039393108 0.017926523 0.039999999 -0.32315677 -0.19972187 0.52287865
0.039916094 0.017082438 0.039999999 -0.32315677 -0.19972187 0.52287865
0.00041485889 0.079266332 0.039999999 -0.32315677 -0.19972187 0.52287865
0.00093199901 0.078406103 0.039999999 -0.32315677 -0.19972187 0.52287865
0.0014491112 0.077546284 0.039999999 -0.32315677 -0.19972187 0.52287865
0.001966198 0.076686867 0.039999999 -0.32315677 -0.19972187 0.52287865
0.0024832624 0.075827837 0.039999999 -0.32315677 -0.19972187 0.52287865
0.0030003074 0.074969195 0.039999999 -0.32315677 -0.19972187 0.52287865
0.003517335 0.074110933 0.039999999 -0.32315677 -0.19972187 0.52287865
0.0040343488 0.07325305 0.039999999 -0.32315677 -0.19972187 0.52287865
0.0039216019 0.071872622 0.040927935 -0.32315677 -0.19972187 0.52287865
0.0023010259 0.069251366 0.044071227 -0.32315677 -0.19972187 0.52287865
0.0013803791 0.067222893 0.046176519 -0.32315677 -0.19972187 0.52287865
0.00079564424 0.065480925 0.047782559 -0.32315677 -0.19972187 0.52287865
0.00040279012 0.063904144 0.049102601 -0.32315677 -0.19972187 0.52287865
0.00016626858 0.062461451 0.050189961 -0.32315677 -0.19972187 0.52287865
6.1320919e-05 0.061131004 0.051081873 -0.32315677 -0.19972187 0.52287865
8.2804545e-06 0.059847273 0.051895361 -0.32315677 -0.19972187 0.52287865
7.254869e-05 0.058661908 0.052535631 -0.32315677 -0.19972187 0.52287865
0.00017133118 0.057507671 0.053123783 -0.32315677 -0.19972187 0.52287865
0.00034967862 0.056419812 0.053594712 -0.32315677 -0.19972187 0.52287865
0.0005617913 0.055361319 0.054015301 -0.32315677 -0.19972187 0.52287865
0.00084049598 0.054357532 0.054338321 -0.32315677 -0.19972187 0.52287865
0.001142579 0.053373959 0.054626618 -0.32315677 -0.19972187 0.52287865
0.0015126974 0.052445002 0.054815978 -0.32315677 -0.19972187 0.52287865
0.0018903954 0.051523156 0.054993887 -0.32315677 -0.19972187 0.52287865
0.0023465168 0.050662827 0.055058584 -0.32315677 -0.19972187 0.52287865
0.0028024144 0.049802914 0.055123448 -0.32315677 -0.19972187 0.52287865
0.0033307695 0.048998788 0.055084351 -0.32315677 -0.19972187 0.52287865
0.0038702383 0.048203133 0.05502953 -0.32315677 -0.19972187 0.52287865
0.0044608098 0.047445986 0.054901943 -0.32315677 -0.19972187 0.52287865
0.0050836895 0.046712678 0.054728732 -0.32315677 -0.19972187 0.52287865
0.0057377121 0.046001974 0.054511763 -0.32315677 -0.19972187 0.52287865
0.0064462032 0.045330878 0.05421808 -0.32315677 -0.19972187 0.52287865
0.0071683191 0.044668578 0.053906024 -0.32315677 -0.19972187 0.52287865
0.0079670977 0.044061337 0.053486317 -0.32315677 -0.19972187 0.52287865
0.0087671718 0.043453109 0.053066138 -0.32315677 -0.19972187 0.52287865
0.0096629504 0.042912718 0.052512057 -0.32315677 -0.19972187 0.52287865
0.010561788 0.042371921 0.051955428 -0.32315677 -0.19972187 0.52287865
0.011560114 0.041900311 0.051260397 -0.32315677 -0.19972187 0.52287865
0.012569505 0.041433316 0.050551992 -0.32315677 -0.19972187 0.52287865
0.01369946 0.041049089 0.049676459 -0.32315677 -0.19972187 0.52287865
0.014860299 0.040682584 0.048760347 -0.32315677 -0.19972187 0.52287865
0.016145583 0.0403997 0.047672812 -0.32315677 -0.19972187 0.52287865
0.017528642 0.040180359 0.046451919 -0.32315677 -0.19972187 0.52287865
0.019017672 0.040029299 0.045086827 -0.32315677 -0.19972187 0.52287865
0.020732975 0.040029299 0.043410465 -0.32315677 -0.19972187 0.52287865
0.022716338 0.04020701 0.041366059 -0.32315677 -0.19972187 0.52287865
0.024216192 0.040040925 0.039999999 -0.32315677 -0.19972187 0.52287865
0.024734896 0.039194357 0.039999999 -0.32315677 -0.19972187 0.52287865
0.025253696 0.038347971 0.039999999 -0.32315677 -0.19972187 0.52287865
0.0257726 0.037501771 0.039999999 -0.32315677 -0.19972187 0.52287865
0.026291607 0.036655754 0.039999999 -0.32315677 -0.19972187 0.52287865
0.026810721 0.035809908 0.039999999 -0.32315677 -0.19972187 0.52287865
0.027329944 0.034964234 0.039999999 -0.32315677 -0.19972187 0.52287865
0.027849281 0.034118723 0.039999999 -0.32315677 -0.19972187 0.52287865
0.028368732 0.033273377 0.039999999 -0.32315677 -0.19972187 0.52287865
0.0288883 0.032428183 0.039999999 -0.32315677 -0.19972187 0.52287865
0.029407989 0.031583145 0.039999999 -0.32315677 -0.19972187 0.52287865
0.029927801 0.030738255 0.039999999 -0.32315677 -0.19972187 0.52287865
0.03044774 0.029893506 0.039999999 -0.32315677 -0.19972187 0.52287865
0.030967807 0.029048897 0.039999999 -0.32315677 -0.19972187 0.52287865
0.031488005 0.028204422 0.039999999 -0.32315677 -0.19972187 0.52287865
0.032008339 0.027360076 0.039999999 -0.32315677 -0.19972187 0.52287865
0.03252881 0.026515856 0.039999999 -0.32315677 -0.19972187 0.52287865
0.03304942 0.025671756 0.039999999 -0.32315677 -0.19972187 0.52287865
0.033570174 0.024827773 0.039999999 -0.32315677 -0.19972187 0.52287865
0.03409107 0.0239839 0.039999999 -0.32315677 -0.19972187 0.52287865
0.034612119 0.023140134 0.039999999 -0.32315677 -0.19972187 0.52287865
0.035133317 0.022296473 0.039999999 -0.32315677 -0.19972187 0.52287865
0.035654668 0.021452909 0.039999999 -0.32315677 -0.19972187 0.52287865
0.036176175 0.020609438 0.039999999 -0.32315677 -0.19972187 0.52287865
0.036697842 0.019766057 0.039999999 -0.32315677 -0.19972187 0.52287865
0.03721967 0.018922761 0.039999999 -0.32315677 -0.19972187 0.52287865
0.037741665 0.018079543 0.039999999 -0.32315677 -0.19972187 0.52287865
0.038263828 0.017236402 0.039999999 -0.32315677 -0.19972187 0.52287865
0.038786158 0.016393334 0.039999999 -0.32315677 -0.19972187 0.52287865
0.039308663 0.01555033 0.039999999 -0.32315677 -0.19972187 0.52287865
0.039831348 0.014707389 0.039999999 -0.32315677 -0.19972187 0.52287865
5.5511151e-17 0.079077728 0.038994212 -0.32315677 -0.19972187 0.52287865
0 0.07777229 0.039768267 -0.32315677 -0.19972187 0.52287865
0.00036165971 0.076780543 0.039999999 -0.32315677 -0.19972187 0.52287865
0.00087829778 0.075922303 0.039999999 -0.32315677 -0.19972187 0.52287865
0.0013949107 0.075064451 0.039999999 -0.32315677 -0.19972187 0.52287865
0.0019115014 0.074206978 0.039999999 -0.32315677 -0.19972187 0.52287865
0.0024280725 0.073349893 0.039999999 -0.32315677 -0.19972187 0.52287865
0.0029446268 0.072493173 0.039999999 -0.32315677 -0.19972187 0.52287865
0.0034611672 0.071636833 0.039999999 -0.32315677 -0.19972187 0.52287865
0.0024360907 0.069506131 0.042275541 -0.32315677 -0.19972187 0.52287865
0.0014632259 0.067430831 0.04446695 -0.32315677 -0.19972187 0.52287865
0.00084474048 0.065657757 0.046130002 -0.32315677 -0.19972187 0.52287865
0.00042806781 0.064058334 0.047491338 -0.32315677 -0.19972187 0.52287865
0.00019097097 0.062612124 0.04858499 -0.32315677 -0.19972187 0.52287865
6.8565219e-05 0.061264619 0.049507257 -0.32315677 -0.19972187 0.52287865
1.789475e-06 0.059966993 0.050345298 -0.32315677 -0.19972187 0.52287865
6.6200111e-05 0.058779001 0.050989211 -0.32315677 -0.19972187 0.52287865
0.00015401062 0.057613321 0.051597022 -0.32315677 -0.19972187 0.52287865
0.0003327388 0.056523141 0.052070633 -0.32315677 -0.19972187 0.52287865
0.00053580408 0.055454917 0.052507434 -0.32315677 -0.19972187 0.52287865
0.00081508502 0.054449055 0.052832324 -0.32315677 -0.19972187 0.52287865
0.0011095001 0.053456984 0.053134311 -0.32315677 -0.19972187 0.52287865
0.0014803626 0.052526157 0.053324826 -0.32315677 -0.19972187 0.52287865
0.001851393 0.051596723 0.053514551 -0.32315677 -0.19972187 0.52287865
0.0023084087 0.050734702 0.053579744 -0.32315677 -0.19972187 0.52287865
0.0027651999 0.049873106 0.053645108 -0.32315677 -0.19972187 0.52287865
0.0032877591 0.049062222 0.053615775 -0.32315677 -0.19972187 0.52287865
0.0038282622 0.048265044 0.053560834 -0.32315677 -0.19972187 0.52287865
0.0044135535 0.04750162 0.053441931 -0.32315677 -0.19972187 0.52287865
0.0050376034 0.046766933 0.053267993 -0.32315677 -0.19972187 0.52287865
0.0056866948 0.046050299 0.053058878 -0.32315677 -0.19972187 0.52287865
0.006396492 0.045377966 0.052763868 -0.32315677 -0.19972187 0.52287865
0.0071138814 0.044709962 0.052459016 -0.32315677 -0.19972187 0.52287865
0.0079141073 0.044101622 0.052037362 -0.32315677 -0.19972187 0.52287865
0.0087156324 0.043492291 0.051615223 -0.32315677 -0.19972187 0.52287865
0.0096068839 0.04294645 0.051067233 -0.32315677 -0.19972187 0.52287865
0.010507327 0.042404689 0.050507978 -0.32315677 -0.19972187 0.52287865
0.011501045 0.041927639 0.049818654 -0.32315677 -0.19972187 0.52287865
0.012512208 0.041459821 0.049106888 -0.32315677 -0.19972187 0.52287865
0.01363729 0.041070037 0.048236828 -0.32315677 -0.19972187 0.52287865
0.014792536 0.040697496 0.047327045 -0.32315677 -0.19972187 0.52287865
0.016079992 0.040414136 0.046234351 -0.32315677 -0.19972187 0.52287865
0.017456545 0.040188201 0.045020051 -0.32315677 -0.19972187 0.52287865
0.018937202 0.040029299 0.043663681 -0.32315677 -0.19972187 0.52287865
0.020655254 0.040029299 0.041979447 -0.32315677 -0.19972187 0.52287865
0.022588382 0.04017026 0.039999999 -0.32315677 -0.19972187 0.52287865
0.023106422 0.039324563 0.039999999 -0.32315677 -0.19972187 0.52287865
0.023624554 0.03847906 0.039999999 -0.32315677 -0.19972187 0.52287865
0.024142783 0.037633743 0.039999999 -0.32315677 -0.19972187 0.52287865
0.024661111 0.036788609 0.039999999 -0.32315677 -0.19972187 0.52287865
0.025179537 0.03594365 0.039999999 -0.32315677 -0.19972187 0.52287865
0.025698069 0.035098862 0.039999999 -0.32315677 -0.19972187 0.52287865
0.026216708 0.034254245 0.039999999 -0.32315677 -0.19972187 0.52287865
0.026735455 0.033409793 0.039999999 -0.32315677 -0.19972187 0.52287865
0.027254315 0.032565497 0.039999999 -0.32315677 -0.19972187 0.52287865
0.027773289 0.031721357 0.039999999 -0.32315677 -0.19972187 0.52287865
0.02829238 0.030877367 0.039999999 -0.32315677 -0.19972187 0.52287865
0.028811593 0.030033521 0.039999999 -0.32315677 -0.19972187 0.52287865
0.029330928 0.029189819 0.039999999 -0.32315677 -0.19972187 0.52287865
0.02985039 0.028346252 0.039999999 -0.32315677 -0.19972187 0.52287865
0.03036998 0.027502818 0.039999999 -0.32315677 -0.19972187 0.52287865
0.030889701 0.026659511 0.039999999 -0.32315677 -0.19972187 0.52287865
0.031409558 0.025816327 0.039999999 -0.32315677 -0.19972187 0.52287865
0.031929549 0.024973262 0.039999999 -0.32315677 -0.19972187 0.52287865
0.032449681 0.024130311 0.039999999 -0.32315677 -0.19972187 0.52287865
0.032969955 0.02328747 0.039999999 -0.32315677 -0.19972187 0.52287865
0.033490375 0.022444734 0.039999999 -0.32315677 -0.19972187 0.52287865
0.034010939 0.021602098 0.039999999 -0.32315677 -0.19972187 0.52287865
0.034531657 0.02075956 0.039999999 -0.32315677 -0.19972187 0.52287865
0.03505253 0.019917112 0.039999999 -0.32315677 -0.19972187 0.52287865
0.035573557 0.019074753 0.039999999 -0.32315677 -0.19972187 0.52287865
0.036094744 0.018232474 0.039999999 -0.32315677 -0.19972187 0.52287865
0.036616091 0.017390275 0.039999999 -0.32315677 -0.19972187 0.52287865
0.037137605 0.016548151 0.039999999 -0.32315677 -0.19972187 0.52287865
0.037659284 0.015706094 0.039999999 -0.32315677 -0.19972187 0.52287865
0.038181134 0.014864104 0.039999999 -0.32315677 -0.19972187 0.52287865
0.038703158 0.014022173 0.039999999 -0.32315677 -0.19972187 0.52287865
0.039225359 0.013180299 0.039999999 -0.32315677 -0.19972187 0.52287865
0.039747734 0.012338475 0.039999999 -0.32315677 -0.19972187 0.52287865
0 0.079247497 0.037362784 -0.32315677 -0.19972187 0.52287865
5.5511151e-17 0.077938959 0.0381414 -0.32315677 -0.19972187 0.52287865
0 0.07663504 0.038917467 -0.32315677 -0.19972187 0.52287865
5.5511151e-17 0.075335704 0.039691012 -0.32315677 -0.19972187 0.52287865
0.00030951097 0.074303128 0.039999999 -0.32315677 -0.19972187 0.52287865
0.00082564831 0.073446833 0.039999999 -0.32315677 -0.19972187 0.52287865
0.0013417635 0.07259091 0.039999999 -0.32315677 -0.19972187 0.52287865
0.0018578593 0.07173536 0.039999999 -0.32315677 -0.19972187 0.52287865
0.0023739384 0.070880182 0.039999999 -0.32315677 -0.19972187 0.52287865
0.0025718021 0.069762103 0.04047126 -0.32315677 -0.19972187 0.52287865
0.0015464422 0.067639694 0.042749755 -0.32315677 -0.19972187 0.52287865
0.00089404511 0.065835327 0.044470433 -0.32315677 -0.19972187 0.52287865
0.00045344888 0.064213149 0.045873482 -0.32315677 -0.19972187 0.52287865
0.00021577407 0.062763415 0.046973478 -0.32315677 -0.19972187 0.52287865
7.5838216e-05 0.061398763 0.047926404 -0.32315677 -0.19972187 0.52287865
5.1574589e-06 0.060095124 0.048774738 -0.32315677 -0.19972187 0.52287865
5.9827005e-05 0.058896549 0.049436819 -0.32315677 -0.19972187 0.52287865
0.00013662445 0.057719368 0.050064474 -0.32315677 -0.19972187 0.52287865
0.00031573491 0.056626856 0.05054079 -0.32315677 -0.19972187 0.52287865
0.00050972024 0.055548862 0.050993957 -0.32315677 -0.19972187 0.52287865
0.00078957959 0.054540914 0.051320728 -0.32315677 -0.19972187 0.52287865
0.0010762999 0.053540312 0.051636539 -0.32315677 -0.19972187 0.52287865
0.0014479094 0.052607615 0.051828217 -0.32315677 -0.19972187 0.52287865
0.0018191336 0.051675882 0.052019894 -0.32315677 -0.19972187 0.52287865
0.002270163 0.050806843 0.052095566 -0.32315677 -0.19972187 0.52287865
0.0027278508 0.049943555 0.052161425 -0.32315677 -0.19972187 0.52287865
0.0032445956 0.049125884 0.052141957 -0.32315677 -0.19972187 0.52287865
0.0037861362 0.048327174 0.052086893 -0.32315677 -0.19972187 0.52287865
0.004366131 0.047557451 0.051976766 -0.32315677 -0.19972187 0.52287865
0.0049913549 0.046821382 0.051802102 -0.32315677 -0.19972187 0.52287865
0.0056354995 0.046098795 0.051600914 -0.32315677 -0.19972187 0.52287865
0.0063466066 0.045425218 0.051304571 -0.32315677 -0.19972187 0.52287865
0.0070592556 0.044751491 0.051007003 -0.32315677 -0.19972187 0.52287865
0.0078609325 0.044142045 0.050583389 -0.32315677 -0.19972187 0.52287865
0.0086639142 0.043531608 0.050159283 -0.32315677 -0.19972187 0.52287865
0.0095506255 0.042980298 0.049617443 -0.32315677 -0.19972187 0.52287865
0.010452677 0.042437572 0.04905555 -0.32315677 -0.19972187 0.52287865
0.011441775 0.041955061 0.048372004 -0.32315677 -0.19972187 0.52287865
0.012454716 0.041486423 0.04765686 -0.32315677 -0.19972187 0.52287865
0.01357491 0.041091055 0.046792336 -0.32315677 -0.19972187 0.52287865
0.014724547 0.040712461 0.04588896 -0.32315677 -0.19972187 0.52287865
0.016014181 0.04042862 0.044791076 -0.32315677 -0.19972187 0.52287865
0.017384209 0.040196072 0.043583456 -0.32315677 -0.19972187 0.52287865
0.018864628 0.040035017 0.042224444 -0.32315677 -0.19972187 0.52287865
0.020577278 0.040029299 0.040543761 -0.32315677 -0.19972187 0.52287865
0.021482175 0.039454762 0.039999999 -0.32315677 -0.19972187 0.52287865
0.02199965 0.038610134 0.039999999 -0.32315677 -0.19972187 0.52287865
0.022517214 0.037765697 0.039999999 -0.32315677 -0.19972187 0.52287865
0.023034869 0.036921442 0.039999999 -0.32315677 -0.19972187 0.52287865
0.023552621 0.036077369 0.039999999 -0.32315677 -0.19972187 0.52287865
0.024070472 0.035233468 0.039999999 -0.32315677 -0.19972187 0.52287865
0.024588423 0.034389738 0.039999999 -0.32315677 -0.19972187 0.52287865
0.025106477 0.033546176 0.039999999 -0.32315677 -0.19972187 0.52287865
0.025624637 0.032702774 0.039999999 -0.32315677 -0.19972187 0.52287865
0.026142906 0.031859528 0.039999999 -0.32315677 -0.19972187 0.52287865
0.02666129 0.031016437 0.039999999 -0.32315677 -0.19972187 0.52287865
0.027179785 0.030173494 0.039999999 -0.32315677 -0.19972187 0.52287865
0.027698399 0.029330693 0.039999999 -0.32315677 -0.19972187 0.52287865
0.028217133 0.028488031 0.039999999 -0.32315677 -0.19972187 0.52287865
0.02873599 0.027645504 0.039999999 -0.32315677 -0.19972187 0.52287865
0.029254971 0.026803108 0.039999999 -0.32315677 -0.19972187 0.52287865
0.029774083 0.025960837 0.039999999 -0.32315677 -0.19972187 0.52287865
0.030293325 0.025118686 0.039999999 -0.32315677 -0.19972187 0.52287865
0.030812699 0.024276653 0.039999999 -0.32315677 -0.19972187 0.52287865
0.031332213 0.023434732 0.039999999 -0.32315677 -0.19972187 0.52287865
0.031851862 0.022592919 0.039999999 -0.32315677 -0.19972187 0.52287865
0.032371655 0.02175121 0.039999999 -0.32315677 -0.19972187 0.52287865
0.032891594 0.020909598 0.039999999 -0.32315677 -0.19972187 0.52287865
0.033411682 0.020068081 0.039999999 -0.32315677 -0.19972187 0.52287865
0.033931918 0.019226655 0.039999999 -0.32315677 -0.19972187 0.52287865
0.034452308 0.018385313 0.039999999 -0.32315677 -0.19972187 0.52287865
0.034972854 0.017544053 0.039999999 -0.32315677 -0.19972187 0.52287865
0.035493556 0.016702868 0.039999999 -0.32315677 -0.19972187 0.52287865
0.036014423 0.015861757 0.039999999 -0.32315677 -0.19972187 0.52287865
0.036535453 0.015020711 0.039999999 -0.32315677 -0.19972187 0.52287865
0.037056647 0.01417973 0.039999999 -0.32315677 -0.19972187 0.52287865
0.037578017 0.013338807 0.039999999 -0.32315677 -0.19972187 0.52287865
0.038099553 0.012497938 0.039999999 -0.32315677 -0.19972187 0.52287865
0.038621269 0.011657119 0.039999999 -0.32315677 -0.19972187 0.52287865
0.03914316 0.010816345 0.039999999 -0.32315677 -0.19972187 0.52287865
0.039665233 0.0099756112 0.039999999 -0.32315677 -0.19972187 0.52287865
0 0.079417959 0.035724778 -0.32315677 -0.19972187 0.52287865
0 0.078106306 0.036507979 -0.32315677 -0.19972187 0.52287865
0 0.076799296 0.037288614 -0.32315677 -0.19972187 0.52287865
0 0.07549689 0.038066693 -0.32315677 -0.19972187 0.52287865
0 0.074199058 0.038842238 -0.32315677 -0.19972187 0.52287865
0 0.072905779 0.039615266 -0.32315677 -0.19972187 0.52287865
0.00025839082 0.071833983 0.039999999 -0.32315677 -0.19972187 0.52287865
0.00077402883 0.070979595 0.039999999 -0.32315677 -0.19972187 0.52287865
0.0012896475 0.070125572 0.039999999 -0.32315677 -0.19972187 0.52287865
0.0018052497 0.069271907 0.039999999 -0.32315677 -0.19972187 0.52287865
0.0016300307 0.067849487 0.041024882 -0.32315677 -0.19972187 0.52287865
0.00094355957 0.066013664 0.042803798 -0.32315677 -0.19972187 0.52287865
0.00048910774 0.064376898 0.044233948 -0.32315677 -0.19972187 0.52287865
0.00024067862 0.062915325 0.045355372 -0.32315677 -0.19972187 0.52287865
8.3140119e-05 0.06153344 0.046339266 -0.32315677 -0.19972187 0.52287865
1.2295623e-05 0.060226779 0.047192458 -0.32315677 -0.19972187 0.52287865
5.3429212e-05 0.059014548 0.047878407 -0.32315677 -0.19972187 0.52287865
0.00011917224 0.057825822 0.048526108 -0.32315677 -0.19972187 0.52287865
0.00029866648 0.056730971 0.049005143 -0.32315677 -0.19972187 0.52287865
0.00048353901 0.055643156 0.049474832 -0.32315677 -0.19972187 0.52287865
0.0007639791 0.054633118 0.049803499 -0.32315677 -0.19972187 0.52287865
0.0010439648 0.053624716 0.050131828 -0.32315677 -0.19972187 0.52287865
0.001415337 0.052689366 0.050326116 -0.32315677 -0.19972187 0.52287865
0.0017873093 0.051755756 0.050518956 -0.32315677 -0.19972187 0.52287865
0.0022317788 0.050879244 0.050606009 -0.32315677 -0.19972187 0.52287865
0.0026903665 0.050014257 0.050672375 -0.32315677 -0.19972187 0.52287865
0.0032012775 0.049189772 0.050662868 -0.32315677 -0.19972187 0.52287865
0.0037438595 0.048389528 0.050607681 -0.32315677 -0.19972187 0.52287865
0.00431854 0.047613479 0.050506413 -0.32315677 -0.19972187 0.52287865
0.0049449424 0.046876024 0.050331019 -0.32315677 -0.19972187 0.52287865
0.005584124 0.046147458 0.05013784 -0.32315677 -0.19972187 0.52287865
0.0062965467 0.045472637 0.04984016 -0.32315677 -0.19972187 0.52287865
0.0070097395 0.044797085 0.049542349 -0.32315677 -0.19972187 0.52287865
0.0078075733 0.04418261 0.04912436 -0.32315677 -0.19972187 0.52287865
0.0086120162 0.043571062 0.048698273 -0.32315677 -0.19972187 0.52287865
0.0094941733 0.043014262 0.048162661 -0.32315677 -0.19972187 0.52287865
0.010397839 0.042470563 0.047598112 -0.32315677 -0.19972187 0.52287865
0.011382301 0.041982576 0.046920411 -0.32315677 -0.19972187 0.52287865
0.012397027 0.041513111 0.04620187 -0.32315677 -0.19972187 0.52287865
0.01351232 0.041112147 0.045342948 -0.32315677 -0.19972187 0.52287865
0.01465633 0.040727478 0.044446055 -0.32315677 -0.19972187 0.52287865
