# .PCD v0.7 - Point Cloud Data file format
VERSION 0.7
FIELDS x y z vp_x vp_y vp_z
SIZE 4 4 4 4 4 4
TYPE F F F F F F
COUNT 1 1 1 1 1 1
WIDTH 896
HEIGHT 1
VIEWPOINT 0 0 0 1 0 0 0
POINTS 896
DATA ascii
0.029081296 0.0050101099 0.039999999 0 -0.33897066 0.54846609
0.03003634 0.0050123939 0.039999999 0 -0.33897066 0.54846609
0.030991534 0.0050147516 0.039999999 0 -0.33897066 0.54846609
0.031946883 0.0050171837 0.039999999 0 -0.33897066 0.54846609
0.032902393 0.0050196894 0.039999999 0 -0.33897066 0.54846609
0.033858072 0.0050222697 0.039999999 0 -0.33897066 0.54846609
0.034813918 0.0050249235 0.039999999 0 -0.33897066 0.54846609
0.035769939 0.0050276518 0.039999999 0 -0.33897066 0.54846609
0.036726143 0.0050304541 0.039999999 0 -0.33897066 0.54846609
0.03768253 0.005033331 0.039999999 0 -0.33897066 0.54846609
0.038639106 0.0050362819 0.039999999 0 -0.33897066 0.54846609
0.039595876 0.0050393068 0.039999999 0 -0.33897066 0.54846609
0.00047590237 0.0038258722 0.039999999 0 -0.33897066 0.54846609
0.0014277095 0.003825943 0.039999999 0 -0.33897066 0.54846609
0.0023795238 0.0038260841 0.039999999 0 -0.33897066 0.54846609
0.0033313499 0.003826296 0.039999999 0 -0.33897066 0.54846609
0.0042831926 0.0038265784 0.039999999 0 -0.33897066 0.54846609
0.0052350573 0.0038269316 0.039999999 0 -0.33897066 0.54846609
0.0061869477 0.0038273551 0.039999999 0 -0.33897066 0.54846609
0.0071388693 0.0038278494 0.039999999 0 -0.33897066 0.54846609
0.0080908267 0.0038284145 0.039999999 0 -0.33897066 0.54846609
0.0090428246 0.0038290501 0.039999999 0 -0.33897066 0.54846609
0.0099948673 0.0038297563 0.039999999 0 -0.33897066 0.54846609
0.01094696 0.0038305332 0.039999999 0 -0.33897066 0.54846609
0.011899108 0.0038313807 0.039999999 0 -0.33897066 0.54846609
0.012851316 0.003832299 0.039999999 0 -0.33897066 0.54846609
0.013803588 0.0038332881 0.039999999 0 -0.33897066 0.54846609
0.014755929 0.0038343477 0.039999999 0 -0.33897066 0.54846609
0.015708344 0.0038354781 0.039999999 0 -0.33897066 0.54846609
0.016660837 0.003836679 0.039999999 0 -0.33897066 0.54846609
0.017613415 0.003837951 0.039999999 0 -0.33897066 0.54846609
0.018566081 0.0038392935 0.039999999 0 -0.33897066 0.54846609
0.019518839 0.003840707 0.039999999 0 -0.33897066 0.54846609
0.020471696 0.0038421911 0.039999999 0 -0.33897066 0.54846609
0.021424655 0.0038437461 0.039999999 0 -0.33897066 0.54846609
0.022377722 0.003845372 0.039999999 0 -0.33897066 0.54846609
0.023330901 0.0038470686 0.039999999 0 -0.33897066 0.54846609
0.024284195 0.0038488361 0.039999999 0 -0.33897066 0.54846609
0.025237612 0.0038506745 0.039999999 0 -0.33897066 0.54846609
0.026191158 0.0038525839 0.039999999 0 -0.33897066 0.54846609
0.027144833 0.0038545642 0.039999999 0 -0.33897066 0.54846609
0.028098645 0.0038566154 0.039999999 0 -0.33897066 0.54846609
0.029052597 0.0038587379 0.039999999 0 -0.33897066 0.54846609
0.030006696 0.0038609311 0.039999999 0 -0.33897066 0.54846609
0.030960945 0.0038631954 0.039999999 0 -0.33897066 0.54846609
0.031915348 0.0038655307 0.039999999 0 -0.33897066 0.54846609
0.032869913 0.0038679373 0.039999999 0 -0.33897066 0.54846609
0.033824645 0.003870415 0.039999999 0 -0.33897066 0.54846609
0.034779545 0.0038729638 0.039999999 0 -0.33897066 0.54846609
0.03573462 0.0038755839 0.039999999 0 -0.33897066 0.54846609
0.036689874 0.0038782749 0.039999999 0 -0.33897066 0.54846609
0.03764531 0.0038810375 0.039999999 0 -0.33897066 0.54846609
0.03860094 0.0038838712 0.039999999 0 -0.33897066 0.54846609
0.03955676 0.0038867765 0.039999999 0 -0.33897066 0.54846609
0.00047543377 0.0026782639 0.039999999 0 -0.33897066 0.54846609
0.0014263038 0.0026783317 0.039999999 0 -0.33897066 0.54846609
0.0023771808 0.0026784672 0.039999999 0 -0.33897066 0.54846609
0.0033280698 0.0026786702 0.039999999 0 -0.33897066 0.54846609
0.0042789751 0.002678941 0.039999999 0 -0.33897066 0.54846609
0.0052299025 0.0026792795 0.039999999 0 -0.33897066 0.54846609
0.0061808554 0.0026796858 0.039999999 0 -0.33897066 0.54846609
0.0071318396 0.0026801599 0.039999999 0 -0.33897066 0.54846609
0.0080828592 0.0026807017 0.039999999 0 -0.33897066 0.54846609
0.0090339193 0.002681311 0.039999999 0 -0.33897066 0.54846609
0.009985025 0.0026819883 0.039999999 0 -0.33897066 0.54846609
0.01093618 0.0026827331 0.039999999 0 -0.33897066 0.54846609
0.01188739 0.0026835459 0.039999999 0 -0.33897066 0.54846609
0.012838659 0.0026844263 0.039999999 0 -0.33897066 0.54846609
0.013789993 0.0026853746 0.039999999 0 -0.33897066 0.54846609
0.014741396 0.0026863907 0.039999999 0 -0.33897066 0.54846609
0.015692871 0.0026874745 0.039999999 0 -0.33897066 0.54846609
0.016644428 0.0026886261 0.039999999 0 -0.33897066 0.54846609
0.017596064 0.0026898456 0.039999999 0 -0.33897066 0.54846609
0.018547792 0.0026911329 0.039999999 0 -0.33897066 0.54846609
0.019499611 0.0026924883 0.039999999 0 -0.33897066 0.54846609
0.020451527 0.0026939113 0.039999999 0 -0.33897066 0.54846609
0.021403546 0.0026954024 0.039999999 0 -0.33897066 0.54846609
0.022355672 0.0026969612 0.039999999 0 -0.33897066 0.54846609
0.02330791 0.0026985882 0.039999999 0 -0.33897066 0.54846609
0.024260266 0.002700283 0.039999999 0 -0.33897066 0.54846609
0.025212742 0.0027020457 0.039999999 0 -0.33897066 0.54846609
0.026165344 0.0027038765 0.039999999 0 -0.33897066 0.54846609
0.027118078 0.0027057754 0.039999999 0 -0.33897066 0.54846609
0.028070947 0.0027077422 0.039999999 0 -0.33897066 0.54846609
0.029023958 0.0027097771 0.039999999 0 -0.33897066 0.54846609
0.029977113 0.0027118803 0.039999999 0 -0.33897066 0.54846609
0.03093042 0.0027140514 0.039999999 0 -0.33897066 0.54846609
0.03188388 0.0027162908 0.039999999 0 -0.33897066 0.54846609
0.032837503 0.0027185981 0.039999999 0 -0.33897066 0.54846609
0.033791289 0.0027209739 0.039999999 0 -0.33897066 0.54846609
0.034745242 0.0027234177 0.039999999 0 -0.33897066 0.54846609
0.035699371 0.00272593 0.039999999 0 -0.33897066 0.54846609
0.036653679 0.0027285104 0.039999999 0 -0.33897066 0.54846609
0.037608173 0.0027311593 0.039999999 0 -0.33897066 0.54846609
0.038562853 0.0027338765 0.039999999 0 -0.33897066 0.54846609
0.03951773 0.002736662 0.039999999 0 -0.33897066 0.54846609
0.00047496616 0.0015330488 0.039999999 0 -0.33897066 0.54846609
0.0014249008 0.0015331137 0.039999999 0 -0.33897066 0.54846609
0.0023748428 0.0015332432 0.039999999 0 -0.33897066 0.54846609
0.0033247962 0.0015334376 0.039999999 0 -0.33897066 0.54846609
0.0042747664 0.0015336969 0.039999999 0 -0.33897066 0.54846609
0.0052247583 0.001534021 0.039999999 0 -0.33897066 0.54846609
0.0061747758 0.0015344099 0.039999999 0 -0.33897066 0.54846609
0.0071248244 0.0015348636 0.039999999 0 -0.33897066 0.54846609
0.0080749085 0.0015353821 0.039999999 0 -0.33897066 0.54846609
0.0090250326 0.0015359656 0.039999999 0 -0.33897066 0.54846609
0.0099752024 0.0015366138 0.039999999 0 -0.33897066 0.54846609
0.010925421 0.001537327 0.039999999 0 -0.33897066 0.54846609
0.011875696 0.0015381048 0.039999999 0 -0.33897066 0.54846609
0.012826029 0.0015389477 0.039999999 0 -0.33897066 0.54846609
0.013776426 0.0015398555 0.039999999 0 -0.33897066 0.54846609
0.014726892 0.001540828 0.039999999 0 -0.33897066 0.54846609
0.015677432 0.0015418656 0.039999999 0 -0.33897066 0.54846609
0.016628049 0.0015429681 0.039999999 0 -0.33897066 0.54846609
0.017578751 0.0015441355 0.039999999 0 -0.33897066 0.54846609
0.01852954 0.0015453678 0.039999999 0 -0.33897066 0.54846609
0.019480422 0.0015466651 0.039999999 0 -0.33897066 0.54846609
0.020431401 0.0015480274 0.039999999 0 -0.33897066 0.54846609
0.021382481 0.0015494546 0.039999999 0 -0.33897066 0.54846609
0.022333669 0.001550947 0.039999999 0 -0.33897066 0.54846609
0.02328497 0.0015525043 0.039999999 0 -0.33897066 0.54846609
0.024236385 0.0015541266 0.039999999 0 -0.33897066 0.54846609
0.025187923 0.0015558141 0.039999999 0 -0.33897066 0.54846609
0.026139585 0.0015575667 0.039999999 0 -0.33897066 0.54846609
0.02709138 0.0015593843 0.039999999 0 -0.33897066 0.54846609
0.028043309 0.0015612671 0.039999999 0 -0.33897066 0.54846609
0.028995378 0.001563215 0.039999999 0 -0.33897066 0.54846609
0.029947594 0.0015652282 0.039999999 0 -0.33897066 0.54846609
0.030899959 0.0015673066 0.039999999 0 -0.33897066 0.54846609
0.031852476 0.0015694503 0.039999999 0 -0.33897066 0.54846609
0.032805156 0.001571659 0.039999999 0 -0.33897066 0.54846609
0.033758 0.0015739332 0.039999999 0 -0.33897066 0.54846609
0.034711011 0.0015762727 0.039999999 0 -0.33897066 0.54846609
0.035664197 0.0015786774 0.039999999 0 -0.33897066 0.54846609
0.036617562 0.0015811477 0.039999999 0 -0.33897066 0.54846609
0.037571114 0.0015836833 0.039999999 0 -0.33897066 0.54846609
0.038524847 0.0015862844 0.039999999 0 -0.33897066 0.54846609
0.039478779 0.0015889509 0.039999999 0 -0.33897066 0.54846609
0.00047449951 0.00039021365 0.039999999 0 -0.33897066 0.54846609
0.0014235009 0.00039027559 0.039999999 0 -0.33897066 0.54846609
0.0023725093 0.00039039945 0.039999999 0 -0.33897066 0.54846609
0.0033215298 0.00039058525 0.039999999 0 -0.33897066 0.54846609
0.0042705666 0.00039083298 0.039999999 0 -0.33897066 0.54846609
0.0052196248 0.00039114265 0.039999999 0 -0.33897066 0.54846609
0.0061687091 0.00039151424 0.039999999 0 -0.33897066 0.54846609
0.0071178242 0.00039194777 0.039999999 0 -0.33897066 0.54846609
0.0080669746 0.0003924433 0.039999999 0 -0.33897066 0.54846609
0.0090161655 0.00039300075 0.039999999 0 -0.33897066 0.54846609
0.0099654011 0.00039362017 0.039999999 0 -0.33897066 0.54846609
0.010914686 0.00039430155 0.039999999 0 -0.33897066 0.54846609
0.011864026 0.00039504492 0.039999999 0 -0.33897066 0.54846609
0.012813425 0.00039585028 0.039999999 0 -0.33897066 0.54846609
0.013762888 0.00039671766 0.039999999 0 -0.33897066 0.54846609
0.014712419 0.00039764703 0.039999999 0 -0.33897066 0.54846609
0.015662024 0.00039863843 0.039999999 0 -0.33897066 0.54846609
0.016611706 0.00039969184 0.039999999 0 -0.33897066 0.54846609
0.017561473 0.00040080733 0.039999999 0 -0.33897066 0.54846609
0.018511327 0.00040198484 0.039999999 0 -0.33897066 0.54846609
0.019461272 0.00040322446 0.039999999 0 -0.33897066 0.54846609
0.020411316 0.00040452616 0.039999999 0 -0.33897066 0.54846609
0.021361461 0.00040588996 0.039999999 0 -0.33897066 0.54846609
0.022311712 0.00040731591 0.039999999 0 -0.33897066 0.54846609
0.023262074 0.00040880399 0.039999999 0 -0.33897066 0.54846609
0.024212554 0.0004103542 0.039999999 0 -0.33897066 0.54846609
0.025163155 0.00041196661 0.039999999 0 -0.33897066 0.54846609
0.026113881 0.00041364122 0.039999999 0 -0.33897066 0.54846609
0.027064737 0.00041537805 0.039999999 0 -0.33897066 0.54846609
0.028015727 0.00041717713 0.039999999 0 -0.33897066 0.54846609
0.028966859 0.00041903846 0.039999999 0 -0.33897066 0.54846609
0.029918134 0.00042096208 0.039999999 0 -0.33897066 0.54846609
0.03086956 0.00042294801 0.039999999 0 -0.33897066 0.54846609
0.031821139 0.00042499628 0.039999999 0 -0.33897066 0.54846609
0.03277288 0.00042710692 0.039999999 0 -0.33897066 0.54846609
0.033724781 0.00042927993 0.039999999 0 -0.33897066 0.54846609
0.034676854 0.00043151536 0.039999999 0 -0.33897066 0.54846609
0.035629097 0.00043381326 0.039999999 0 -0.33897066 0.54846609
0.036581524 0.00043617358 0.039999999 0 -0.33897066 0.54846609
0.037534129 0.00043859644 0.039999999 0 -0.33897066 0.54846609
0.038486924 0.00044108179 0.039999999 0 -0.33897066 0.54846609
0.039439909 0.00044362975 0.039999999 0 -0.33897066 0.54846609
0.00047508537 0 0.0388721 0 -0.33897066 0.54846609
0.0014252582 0 0.038872186 0 -0.33897066 0.54846609
0.0023754374 0 0.038872365 0 -0.33897066 0.54846609
0.0033256272 0 0.038872633 0 -0.33897066 0.54846609
0.0042758319 0 0.038872987 0 -0.33897066 0.54846609
0.0052260552 0 0.038873434 0 -0.33897066 0.54846609
0.0061763022 0 0.038873967 0 -0.33897066 0.54846609
0.0071265767 0 0.038874589 0 -0.33897066 0.54846609
0.0080768829 0 0.038875304 0 -0.33897066 0.54846609
0.009027225 0 0.038876105 0 -0.33897066 0.54846609
0.0099776071 0 0.038876992 0 -0.33897066 0.54846609
0.010928034 0 0.038877971 0 -0.33897066 0.54846609
0.01187851 0 0.038879041 0 -0.33897066 0.54846609
0.012829038 0 0.038880199 0 -0.33897066 0.54846609
0.013779624 0 0.038881443 0 -0.33897066 0.54846609
0.014730271 0 0.038882781 0 -0.33897066 0.54846609
0.015680984 0 0.038884204 0 -0.33897066 0.54846609
0.016631767 0 0.038885716 0 -0.33897066 0.54846609
0.017582623 0 0.038887318 0 -0.33897066 0.54846609
0.018533558 0 0.038889013 0 -0.33897066 0.54846609
0.019484576 0 0.038890794 0 -0.33897066 0.54846609
0.02043568 0 0.038892664 0 -0.33897066 0.54846609
0.021386877 0 0.038894624 0 -0.33897066 0.54846609
0.022338167 0 0.038896672 0 -0.33897066 0.54846609
0.023289558 0 0.038898811 0 -0.33897066 0.54846609
0.024241053 0 0.038901035 0 -0.33897066 0.54846609
0.025192656 0 0.038903352 0 -0.33897066 0.54846609
0.02614437 0 0.038905758 0 -0.33897066 0.54846609
0.027096203 0 0.038908254 0 -0.33897066 0.54846609
0.028048156 0 0.03891084 0 -0.33897066 0.54846609
0.029000234 0 0.038913511 0 -0.33897066 0.54846609
0.02995244 0 0.038916275 0 -0.33897066 0.54846609
0.030904781 0 0.038919128 0 -0.33897066 0.54846609
0.03185726 0 0.038922071 0 -0.33897066 0.54846609
0.032809883 0 0.038925104 0 -0.33897066 0.54846609
0.033762649 0 0.038928226 0 -0.33897066 0.54846609
0.034715571 0 0.038931437 0 -0.33897066 0.54846609
0.035668641 0 0.038934737 0 -0.33897066 0.54846609
0.036621876 0 0.038938127 0 -0.33897066 0.54846609
0.037575275 0 0.038941607 0 -0.33897066 0.54846609
0.038528837 0 0.038945179 0 -0.33897066 0.54846609
0.039482575 0 0.038948838 0 -0.33897066 0.54846609
0.00047622211 0 0.037151523 0 -0.33897066 0.54846609
0.0014286685 0 0.037151609 0 -0.33897066 0.54846609
0.0023811213 0 0.03715178 0 -0.33897066 0.54846609
0.0033335846 0 0.037152033 0 -0.33897066 0.54846609
0.0042860629 0 0.037152376 0 -0.33897066 0.54846609
0.0052385605 0 0.037152801 0 -0.33897066 0.54846609
0.0061910814 0 0.037153311 0 -0.33897066 0.54846609
0.0071436297 0 0.037153911 0 -0.33897066 0.54846609
0.0080962097 0 0.037154593 0 -0.33897066 0.54846609
0.009048827 0 0.03715536 0 -0.33897066 0.54846609
0.010001484 0 0.037156213 0 -0.33897066 0.54846609
0.010954186 0 0.037157148 0 -0.33897066 0.54846609
0.011906937 0 0.037158173 0 -0.33897066 0.54846609
0.012859741 0 0.037159283 0 -0.33897066 0.54846609
0.013812602 0 0.037160475 0 -0.33897066 0.54846609
0.014765526 0 0.037161756 0 -0.33897066 0.54846609
0.015718516 0 0.03716312 0 -0.33897066 0.54846609
0.016671576 0 0.037164569 0 -0.33897066 0.54846609
0.01762471 0 0.037166104 0 -0.33897066 0.54846609
0.018577922 0 0.037167724 0 -0.33897066 0.54846609
0.01953122 0 0.03716943 0 -0.33897066 0.54846609
0.020484604 0 0.037171222 0 -0.33897066 0.54846609
0.021438079 0 0.0371731 0 -0.33897066 0.54846609
0.022391651 0 0.037175063 0 -0.33897066 0.54846609
0.023345321 0 0.037177112 0 -0.33897066 0.54846609
0.024299098 0 0.037179247 0 -0.33897066 0.54846609
0.025252983 0 0.037181463 0 -0.33897066 0.54846609
0.026206981 0 0.037183769 0 -0.33897066 0.54846609
0.027161097 0 0.037186161 0 -0.33897066 0.54846609
0.028115334 0 0.037188634 0 -0.33897066 0.54846609
0.029069697 0 0.037191197 0 -0.33897066 0.54846609
0.03002419 0 0.037193846 0 -0.33897066 0.54846609
0.030978817 0 0.03719658 0 -0.33897066 0.54846609
0.031933583 0 0.037199397 0 -0.33897066 0.54846609
0.032888494 0 0.037202302 0 -0.33897066 0.54846609
0.033843551 0 0.037205294 0 -0.33897066 0.54846609
0.03479876 0 0.037208371 0 -0.33897066 0.54846609
0.035754126 0 0.037211534 0 -0.33897066 0.54846609
0.036709651 0 0.037214778 0 -0.33897066 0.54846609
0.037665341 0 0.037218116 0 -0.33897066 0.54846609
0.038621198 0 0.037221536 0 -0.33897066 0.54846609
0.039577231 0 0.037225042 0 -0.33897066 0.54846609
0.0004773642 0 0.035422865 0 -0.33897066 0.54846609
0.0014320947 0 0.035422947 0 -0.33897066 0.54846609
0.0023868317 0 0.035423107 0 -0.33897066 0.54846609
0.0033415793 0 0.035423353 0 -0.33897066 0.54846609
0.0042963419 0 0.035423677 0 -0.33897066 0.54846609
0.005251124 0 0.035424087 0 -0.33897066 0.54846609
0.0062059294 0 0.035424575 0 -0.33897066 0.54846609
0.0071607628 0 0.035425145 0 -0.33897066 0.54846609
0.0081156278 0 0.035425797 0 -0.33897066 0.54846609
0.0090705305 0 0.035426531 0 -0.33897066 0.54846609
0.010025472 0 0.035427347 0 -0.33897066 0.54846609
0.010980461 0 0.035428241 0 -0.33897066 0.54846609
0.011935498 0 0.035429221 0 -0.33897066 0.54846609
0.012890588 0 0.035430279 0 -0.33897066 0.54846609
0.013845736 0 0.035431422 0 -0.33897066 0.54846609
0.014800947 0 0.035432644 0 -0.33897066 0.54846609
0.015756223 0 0.035433948 0 -0.33897066 0.54846609
0.016711572 0 0.035435334 0 -0.33897066 0.54846609
0.017666994 0 0.035436802 0 -0.33897066 0.54846609
0.018622497 0 0.035438351 0 -0.33897066 0.54846609
0.019578082 0 0.035439979 0 -0.33897066 0.54846609
0.020533755 0 0.035441693 0 -0.33897066 0.54846609
0.021489521 0 0.035443489 0 -0.33897066 0.54846609
0.022445384 0 0.035445362 0 -0.33897066 0.54846609
0.023401348 0 0.035447322 0 -0.33897066 0.54846609
0.024357416 0 0.03544936 0 -0.33897066 0.54846609
0.025313593 0 0.035451483 0 -0.33897066 0.54846609
0.026269887 0 0.035453685 0 -0.33897066 0.54846609
0.027226295 0 0.035455968 0 -0.33897066 0.54846609
0.028182827 0 0.035458338 0 -0.33897066 0.54846609
0.029139487 0 0.035460785 0 -0.33897066 0.54846609
0.030096278 0 0.035463315 0 -0.33897066 0.54846609
0.031053202 0 0.035465926 0 -0.33897066 0.54846609
0.032010268 0 0.035468623 0 -0.33897066 0.54846609
0.032967474 0 0.035471398 0 -0.33897066 0.54846609
0.033924833 0 0.035474256 0 -0.33897066 0.54846609
0.034882344 0 0.035477195 0 -0.33897066 0.54846609
0.035840012 0 0.03548022 0 -0.33897066 0.54846609
0.03679784 0 0.035483323 0 -0.33897066 0.54846609
0.037755832 0 0.035486512 0 -0.33897066 0.54846609
0.038713995 0 0.035489779 0 -0.33897066 0.54846609
0.039672337 0 0.035493132 0 -0.33897066 0.54846609
0.00047851165 0 0.033686057 0 -0.33897066 0.54846609
0.0014355371 0 0.033686135 0 -0.33897066 0.54846609
0.0023925691 0 0.033686291 0 -0.33897066 0.54846609
0.0033496118 0 0.033686526 0 -0.33897066 0.54846609
0.0043066693 0 0.033686835 0 -0.33897066 0.54846609
0.0052637467 0 0.033687223 0 -0.33897066 0.54846609
0.0062208478 0 0.033687688 0 -0.33897066 0.54846609
0.0071779764 0 0.033688232 0 -0.33897066 0.54846609
0.0081351381 0 0.033688854 0 -0.33897066 0.54846609
0.0090923356 0 0.033689555 0 -0.33897066 0.54846609
0.010049575 0 0.03369033 0 -0.33897066 0.54846609
0.011006859 0 0.033691186 0 -0.33897066 0.54846609
0.011964193 0 0.033692118 0 -0.33897066 0.54846609
0.01292158 0 0.033693127 0 -0.33897066 0.54846609
0.013879026 0 0.033694215 0 -0.33897066 0.54846609
0.014836535 0 0.033695381 0 -0.33897066 0.54846609
0.01579411 0 0.033696625 0 -0.33897066 0.54846609
0.016751757 0 0.033697944 0 -0.33897066 0.54846609
0.017709479 0 0.033699345 0 -0.33897066 0.54846609
0.018667281 0 0.03370082 0 -0.33897066 0.54846609
0.019625166 0 0.033702374 0 -0.33897066 0.54846609
0.02058314 0 0.033704009 0 -0.33897066 0.54846609
0.021541208 0 0.033705719 0 -0.33897066 0.54846609
0.022499371 0 0.033707507 0 -0.33897066 0.54846609
0.023457637 0 0.033709373 0 -0.33897066 0.54846609
0.024416009 0 0.033711318 0 -0.33897066 0.54846609
0.025374491 0 0.033713337 0 -0.33897066 0.54846609
0.026333088 0 0.033715438 0 -0.33897066 0.54846609
0.027291803 0 0.033717617 0 -0.33897066 0.54846609
0.02825064 0 0.033719871 0 -0.33897066 0.54846609
0.029209606 0 0.033722207 0 -0.33897066 0.54846609
0.030168703 5.5511151e-17 0.033724617 0 -0.33897066 0.54846609
0.031127937 0 0.033727109 0 -0.33897066 0.54846609
0.032087311 0 0.033729676 0 -0.33897066 0.54846609
0.03304683 0 0.033732325 0 -0.33897066 0.54846609
0.034006499 0 0.033735048 0 -0.33897066 0.54846609
0.03496632 0 0.033737849 0 -0.33897066 0.54846609
0.035926301 0 0.033740733 0 -0.33897066 0.54846609
0.036886442 0 0.033743691 0 -0.33897066 0.54846609
0.037846752 0 0.033746731 0 -0.33897066 0.54846609
0.038807232 0 0.033749845 0 -0.33897066 0.54846609
0.039767887 0 0.033753041 0 -0.33897066 0.54846609
0.00047966454 0 0.031941038 0 -0.33897066 0.54846609
0.0014389958 0 0.031941112 0 -0.33897066 0.54846609
0.0023983335 0 0.031941261 0 -0.33897066 0.54846609
0.0033576821 0 0.031941481 0 -0.33897066 0.54846609
0.0043170461 0 0.031941779 0 -0.33897066 0.54846609
0.0052764295 0 0.031942148 0 -0.33897066 0.54846609
0.0062358365 0 0.031942591 0 -0.33897066 0.54846609
0.007195272 0 0.031943105 0 -0.33897066 0.54846609
0.0081547396 0 0.031943697 0 -0.33897066 0.54846609
0.009114245 0 0.031944361 0 -0.33897066 0.54846609
0.01007379 0 0.031945098 0 -0.33897066 0.54846609
0.011033382 0 0.03194591 0 -0.33897066 0.54846609
0.011993024 0 0.031946797 0 -0.33897066 0.54846609
0.012952719 0 0.031947758 0 -0.33897066 0.54846609
0.013912473 0 0.031948794 0 -0.33897066 0.54846609
0.01487229 0 0.0319499 0 -0.33897066 0.54846609
0.015832175 0 0.031951081 0 -0.33897066 0.54846609
0.016792132 0 0.031952336 0 -0.33897066 0.54846609
0.017752163 0 0.031953666 0 -0.33897066 0.54846609
0.018712275 0 0.031955071 0 -0.33897066 0.54846609
0.019672472 0 0.031956546 0 -0.33897066 0.54846609
0.020632759 0 0.031958099 0 -0.33897066 0.54846609
0.021593139 0 0.031959724 0 -0.33897066 0.54846609
0.022553615 0 0.031961426 0 -0.33897066 0.54846609
0.023514194 0 0.031963199 0 -0.33897066 0.54846609
0.02447488 0 0.031965047 0 -0.33897066 0.54846609
0.025435677 0 0.031966969 0 -0.33897066 0.54846609
0.026396587 0 0.031968962 0 -0.33897066 0.54846609
0.027357619 0 0.031971034 0 -0.33897066 0.54846609
0.028318774 0 0.031973179 0 -0.33897066 0.54846609
0.029280057 0 0.031975396 0 -0.33897066 0.54846609
0.030241473 0 0.031977691 0 -0.33897066 0.54846609
0.031203026 0 0.031980056 0 -0.33897066 0.54846609
0.032164723 0 0.031982496 0 -0.33897066 0.54846609
0.033126563 0 0.031985015 0 -0.33897066 0.54846609
0.034088552 0 0.031987604 0 -0.33897066 0.54846609
0.035050698 0 0.031990267 0 -0.33897066 0.54846609
0.036013 0 0.031993005 0 -0.33897066 0.54846609
0.036975466 0 0.031995818 0 -0.33897066 0.54846609
0.037938103 0 0.031998705 0 -0.33897066 0.54846609
0.038900908 0 0.032001667 0 -0.33897066 0.54846609
0.039863892 0 0.032004703 0 -0.33897066 0.54846609
0.00048082293 0 0.030187739 0 -0.33897066 0.54846609
0.0014424709 0 0.03018781 0 -0.33897066 0.54846609
0.0024041254 0 0.03018795 0 -0.33897066 0.54846609
0.0033657909 0 0.030188158 0 -0.33897066 0.54846609
0.0043274718 0 0.030188439 0 -0.33897066 0.54846609
0.0052891718 0 0.030188788 0 -0.33897066 0.54846609
0.0062508965 0 0.030189209 0 -0.33897066 0.54846609
0.0072126491 0 0.030189697 0 -0.33897066 0.54846609
0.0081744343 0 0.030190257 0 -0.33897066 0.54846609
0.0091362568 0 0.030190887 0 -0.33897066 0.54846609
0.010098121 0 0.030191585 0 -0.33897066 0.54846609
0.011060031 0 0.030192355 0 -0.33897066 0.54846609
0.012021991 0 0.030193195 0 -0.33897066 0.54846609
0.012984006 0 0.030194104 0 -0.33897066 0.54846609
0.01394608 0 0.030195083 0 -0.33897066 0.54846609
0.014908216 0 0.030196134 0 -0.33897066 0.54846609
0.01587042 0 0.030197253 0 -0.33897066 0.54846609
0.016832698 0 0.030198444 0 -0.33897066 0.54846609
0.017795051 0 0.030199703 0 -0.33897066 0.54846609
0.018757485 0 0.030201033 0 -0.33897066 0.54846609
0.019720003 0 0.030202432 0 -0.33897066 0.54846609
0.020682612 0 0.030203901 0 -0.33897066 0.54846609
0.021645315 0 0.030205442 0 -0.33897066 0.54846609
0.022608116 0 0.030207053 0 -0.33897066 0.54846609
0.023571018 0 0.030208733 0 -0.33897066 0.54846609
0.02453403 0 0.030210484 0 -0.33897066 0.54846609
0.025497152 0 0.030212304 0 -0.33897066 0.54846609
0.026460391 0 0.030214194 0 -0.33897066 0.54846609
0.027423749 0 0.030216156 0 -0.33897066 0.54846609
0.028387232 0 0.030218188 0 -0.33897066 0.54846609
0.029350843 0 0.030220289 0 -0.33897066 0.54846609
0.030314589 0 0.030222461 0 -0.33897066 0.54846609
0.031278472 0 0.030224703 0 -0.33897066 0.54846609
0.032242499 0 0.030227017 0 -0.33897066 0.54846609
0.033206671 0 0.030229399 0 -0.33897066 0.54846609
0.034170993 0 0.030231854 0 -0.33897066 0.54846609
0.035135474 0 0.030234378 0 -0.33897066 0.54846609
0.036100112 0 0.030236972 0 -0.33897066 0.54846609
0.037064914 0 0.030239636 0 -0.33897066 0.54846609
0.038029887 0 0.030242372 0 -0.33897066 0.54846609
0.038995031 0 0.030245179 0 -0.33897066 0.54846609
0.039960355 0 0.030248055 0 -0.33897066 0.54846609
0.00048198679 0 0.02842609 0 -0.33897066 0.54846609
0.0014459626 0 0.028426157 0 -0.33897066 0.54846609
0.002409945 0 0.02842629 0 -0.33897066 0.54846609
0.0033739384 0 0.028426487 0 -0.33897066 0.54846609
0.0043379469 0 0.028426751 0 -0.33897066 0.54846609
0.0053019756 0 0.028427081 0 -0.33897066 0.54846609
0.0062660282 0 0.028427478 0 -0.33897066 0.54846609
0.0072301091 0 0.02842794 0 -0.33897066 0.54846609
0.008194223 0 0.028428467 0 -0.33897066 0.54846609
0.0091583747 0 0.028429061 0 -0.33897066 0.54846609
0.010122567 0 0.028429722 0 -0.33897066 0.54846609
0.011086807 0 0.028430449 0 -0.33897066 0.54846609
0.012051097 0 0.02843124 0 -0.33897066 0.54846609
0.013015442 0 0.028432099 0 -0.33897066 0.54846609
0.013979846 0 0.028433025 0 -0.33897066 0.54846609
0.014944313 0 0.028434014 0 -0.33897066 0.54846609
0.015908848 0 0.028435072 0 -0.33897066 0.54846609
0.016873457 0 0.028436195 0 -0.33897066 0.54846609
0.017838143 0 0.028437383 0 -0.33897066 0.54846609
0.018802909 0 0.028438639 0 -0.33897066 0.54846609
0.019767761 0 0.02843996 0 -0.33897066 0.54846609
0.020732703 0 0.028441347 0 -0.33897066 0.54846609
0.021697739 0 0.028442802 0 -0.33897066 0.54846609
0.022662876 0 0.028444322 0 -0.33897066 0.54846609
0.023628116 0 0.028445907 0 -0.33897066 0.54846609
0.024593461 0 0.028447559 0 -0.33897066 0.54846609
0.025558921 0 0.028449278 0 -0.33897066 0.54846609
0.026524495 0 0.028451063 0 -0.33897066 0.54846609
0.027490193 0 0.028452914 0 -0.33897066 0.54846609
0.028456016 0 0.028454833 0 -0.33897066 0.54846609
0.029421967 0 0.028456816 0 -0.33897066 0.54846609
0.030388054 0 0.028458867 0 -0.33897066 0.54846609
0.031354278 0 0.028460983 0 -0.33897066 0.54846609
0.032320645 0 0.028463166 0 -0.33897066 0.54846609
0.03328716 0 0.028465416 0 -0.33897066 0.54846609
0.034253828 0 0.028467732 0 -0.33897066 0.54846609
0.035220653 0 0.028470114 0 -0.33897066 0.54846609
0.036187638 0 0.028472563 0 -0.33897066 0.54846609
0.03715479 0 0.02847508 0 -0.33897066 0.54846609
0.03812211 0 0.028477661 0 -0.33897066 0.54846609
0.039089601 0 0.02848031 0 -0.33897066 0.54846609
0.00048315624 0 0.026656026 0 -0.33897066 0.54846609
0.0014494709 0 0.026656089 0 -0.33897066 0.54846609
0.0024157923 0 0.026656212 0 -0.33897066 0.54846609
0.0033821245 0 0.026656399 0 -0.33897066 0.54846609
0.0043484722 0 0.026656646 0 -0.33897066 0.54846609
0.00531484 0 0.026656957 0 -0.33897066 0.54846609
0.006281232 0 0.02665733 0 -0.33897066 0.54846609
0.0072476529 0 0.026657764 0 -0.33897066 0.54846609
0.0082141068 0 0.026658261 0 -0.33897066 0.54846609
0.009180598 0 0.02665882 0 -0.33897066 0.54846609
0.010147131 0 0.02665944 0 -0.33897066 0.54846609
0.011113711 0 0.026660122 0 -0.33897066 0.54846609
0.012080342 0 0.026660867 0 -0.33897066 0.54846609
0.013047027 0 0.026661675 0 -0.33897066 0.54846609
0.014013773 0 0.026662543 0 -0.33897066 0.54846609
0.014980583 0 0.026663475 0 -0.33897066 0.54846609
0.015947461 0 0.026664468 0 -0.33897066 0.54846609
0.016914412 0 0.026665524 0 -0.33897066 0.54846609
0.01788144 0 0.026666641 0 -0.33897066 0.54846609
0.01884855 0 0.026667822 0 -0.33897066 0.54846609
0.019815747 0 0.026669065 0 -0.33897066 0.54846609
0.020783033 0 0.026670368 0 -0.33897066 0.54846609
0.021750417 0 0.026671734 0 -0.33897066 0.54846609
0.022717897 0 0.026673162 0 -0.33897066 0.54846609
0.023685483 0 0.026674654 0 -0.33897066 0.54846609
0.024653178 0 0.026676208 0 -0.33897066 0.54846609
0.025620984 0 0.026677823 0 -0.33897066 0.54846609
0.026588909 0 0.026679501 0 -0.33897066 0.54846609
0.027556956 0 0.026681241 0 -0.33897066 0.54846609
0.028525127 0 0.026683044 0 -0.33897066 0.54846609
0.029493431 0 0.026684908 0 -0.33897066 0.54846609
0.030461868 0 0.026686836 0 -0.33897066 0.54846609
0.031430446 0 0.026688825 0 -0.33897066 0.54846609
0.032399166 0 0.026690878 0 -0.33897066 0.54846609
0.033368036 0 0.026692992 0 -0.33897066 0.54846609
0.034337062 0 0.02669517 0 -0.33897066 0.54846609
0.035306241 0 0.026697408 0 -0.33897066 0.54846609
0.036275584 0 0.026699711 0 -0.33897066 0.54846609
0.037245091 0 0.026702076 0 -0.33897066 0.54846609
0.038214773 0 0.026704503 0 -0.33897066 0.54846609
0.039184626 0 0.026706994 0 -0.33897066 0.54846609
0.00048433128 0 0.024877477 0 -0.33897066 0.54846609
0.001452996 0 0.024877535 0 -0.33897066 0.54846609
0.0024216676 0 0.024877651 0 -0.33897066 0.54846609
0.0033903501 0 0.024877826 0 -0.33897066 0.54846609
0.0043590483 0 0.024878057 0 -0.33897066 0.54846609
0.0053277663 0 0.024878347 0 -0.33897066 0.54846609
0.0062965089 0 0.024878696 0 -0.33897066 0.54846609
0.0072652805 0 0.024879102 0 -0.33897066 0.54846609
0.0082340855 0 0.024879567 0 -0.33897066 0.54846609
0.0092029274 0 0.024880089 0 -0.33897066 0.54846609
0.010171812 0 0.02488067 0 -0.33897066 0.54846609
0.011140744 0 0.024881309 0 -0.33897066 0.54846609
0.012109727 0 0.024882006 0 -0.33897066 0.54846609
0.013078765 0 0.02488276 0 -0.33897066 0.54846609
0.014047863 0 0.024883574 0 -0.33897066 0.54846609
0.015017026 0 0.024884446 0 -0.33897066 0.54846609
0.015986258 0 0.024885375 0 -0.33897066 0.54846609
0.016955562 0 0.024886362 0 -0.33897066 0.54846609
0.017924946 0 0.024887407 0 -0.33897066 0.54846609
0.01889441 0 0.024888512 0 -0.33897066 0.54846609
0.019863963 0 0.024889674 0 -0.33897066 0.54846609
0.020833606 0 0.024890894 0 -0.33897066 0.54846609
0.021803346 0 0.024892172 0 -0.33897066 0.54846609
0.022773184 0 0.024893509 0 -0.33897066 0.54846609
0.023743127 0 0.024894904 0 -0.33897066 0.54846609
0.024713181 0 0.024896357 0 -0.33897066 0.54846609
0.025683347 0 0.024897868 0 -0.33897066 0.54846609
0.026653631 0 0.024899438 0 -0.33897066 0.54846609
0.027624037 0 0.024901066 0 -0.33897066 0.54846609
0.028594572 0 0.024902752 0 -0.33897066 0.54846609
0.029565237 0 0.024904497 0 -0.33897066 0.54846609
0.030536039 0 0.0249063 0 -0.33897066 0.54846609
0.031506978 0 0.024908161 0 -0.33897066 0.54846609
0.032478068 0 0.024910081 0 -0.33897066 0.54846609
0.033449303 0 0.024912059 0 -0.33897066 0.54846609
0.034420691 0 0.024914097 0 -0.33897066 0.54846609
0.03539224 0 0.024916193 0 -0.33897066 0.54846609
0.036363952 0 0.024918346 0 -0.33897066 0.54846609
0.037335832 0 0.024920559 0 -0.33897066 0.54846609
0.038307879 0 0.024922829 0 -0.33897066 0.54846609
0.039280109 0 0.024925157 0 -0.33897066 0.54846609
0.00048551199 0 0.023090372 0 -0.33897066 0.54846609
0.0014565382 0 0.023090426 0 -0.33897066 0.54846609
0.002427571 0 0.023090534 0 -0.33897066 0.54846609
0.0033986152 0 0.023090696 0 -0.33897066 0.54846609
0.0043696747 0 0.023090912 0 -0.33897066 0.54846609
0.0053407545 0 0.023091182 0 -0.33897066 0.54846609
0.006311859 0 0.023091506 0 -0.33897066 0.54846609
0.0072829928 0 0.023091884 0 -0.33897066 0.54846609
0.0082541602 0 0.023092316 0 -0.33897066 0.54846609
0.0092253648 0 0.023092803 0 -0.33897066 0.54846609
0.010196612 0 0.023093343 0 -0.33897066 0.54846609
0.011167907 0 0.023093937 0 -0.33897066 0.54846609
0.012139253 0 0.023094585 0 -0.33897066 0.54846609
0.013110654 0 0.023095287 0 -0.33897066 0.54846609
0.014082117 0 0.023096044 0 -0.33897066 0.54846609
0.015053645 0 0.023096856 0 -0.33897066 0.54846609
0.016025241 0 0.02309772 0 -0.33897066 0.54846609
0.016996911 0 0.023098638 0 -0.33897066 0.54846609
0.01796866 0 0.023099611 0 -0.33897066 0.54846609
0.018940492 0 0.023100639 0 -0.33897066 0.54846609
0.019912411 0 0.023101719 0 -0.33897066 0.54846609
0.020884421 0 0.023102855 0 -0.33897066 0.54846609
0.021856528 0 0.023104044 0 -0.33897066 0.54846609
0.022828735 0 0.023105288 0 -0.33897066 0.54846609
0.023801049 0 0.023106586 0 -0.33897066 0.54846609
0.024773471 0 0.023107938 0 -0.33897066 0.54846609
0.025746008 0 0.023109345 0 -0.33897066 0.54846609
0.026718665 0 0.023110805 0 -0.33897066 0.54846609
0.027691443 0 0.023112319 0 -0.33897066 0.54846609
0.028664351 0 0.023113888 0 -0.33897066 0.54846609
0.029637389 0 0.023115512 0 -0.33897066 0.54846609
0.030610565 0 0.02311719 0 -0.33897066 0.54846609
0.031583883 0 0.023118922 0 -0.33897066 0.54846609
0.032557346 0 0.023120709 0 -0.33897066 0.54846609
0.033530958 0 0.023122549 0 -0.33897066 0.54846609
0.034504727 0 0.023124443 0 -0.33897066 0.54846609
0.035478655 0 0.023126394 0 -0.33897066 0.54846609
0.036452744 0 0.023128398 0 -0.33897066 0.54846609
0.037427004 0 0.023130456 0 -0.33897066 0.54846609
0.03840144 0 0.023132568 0 -0.33897066 0.54846609
0.039376047 0 0.023134736 0 -0.33897066 0.54846609
0.00048669838 0 0.02129464 0 -0.33897066 0.54846609
0.0014600974 0 0.021294691 0 -0.33897066 0.54846609
0.002433503 0 0.021294789 0 -0.33897066 0.54846609
0.00340692 0 0.02129494 0 -0.33897066 0.54846609
0.0043803528 0 0.02129514 0 -0.33897066 0.54846609
0.0053538061 0 0.021295389 0 -0.33897066 0.54846609
0.0063272836 0 0.021295689 0 -0.33897066 0.54846609
0.0073007904 0 0.021296039 0 -0.33897066 0.54846609
0.0082743317 0 0.021296438 0 -0.33897066 0.54846609
0.0092479102 0 0.021296889 0 -0.33897066 0.54846609
0.010221533 0 0.021297388 0 -0.33897066 0.54846609
0.011195201 0 0.021297937 0 -0.33897066 0.54846609
0.012168922 0 0.021298537 0 -0.33897066 0.54846609
0.013142699 0 0.021299185 0 -0.33897066 0.54846609
0.014116537 0 0.021299886 0 -0.33897066 0.54846609
0.015090439 0 0.021300634 0 -0.33897066 0.54846609
0.016064413 0 0.021301433 0 -0.33897066 0.54846609
0.017038461 0 0.021302283 0 -0.33897066 0.54846609
0.018012585 0 0.021303182 0 -0.33897066 0.54846609
0.018986795 0 0.021304132 0 -0.33897066 0.54846609
0.019961093 0 0.021305131 0 -0.33897066 0.54846609
0.020935481 0 0.021306181 0 -0.33897066 0.54846609
0.021909969 0 0.02130728 0 -0.33897066 0.54846609
0.022884557 0 0.021308431 0 -0.33897066 0.54846609
0.023859249 0 0.021309631 0 -0.33897066 0.54846609
0.024834054 0 0.021310881 0 -0.33897066 0.54846609
0.025808973 0 0.021312181 0 -0.33897066 0.54846609
0.026784012 0 0.021313531 0 -0.33897066 0.54846609
0.027759174 0 0.021314932 0 -0.33897066 0.54846609
0.028734466 0 0.021316381 0 -0.33897066 0.54846609
0.02970989 0 0.021317882 0 -0.33897066 0.54846609
0.030685453 0 0.021319434 0 -0.33897066 0.54846609
0.031661157 0 0.021321034 0 -0.33897066 0.54846609
0.032637008 0 0.021322686 0 -0.33897066 0.54846609
0.033613008 0 0.021324387 0 -0.33897066 0.54846609
0.034589168 0 0.02132614 0 -0.33897066 0.54846609
0.035565484 0 0.021327943 0 -0.33897066 0.54846609
0.036541969 0 0.021329794 0 -0.33897066 0.54846609
0.03751862 0 0.021331698 0 -0.33897066 0.54846609
0.038495447 0 0.021333652 0 -0.33897066 0.54846609
0.039472453 0 0.021335654 0 -0.33897066 0.54846609
0.00048789053 0 0.019490212 0 -0.33897066 0.54846609
0.0014636738 0 0.019490259 0 -0.33897066 0.54846609
0.002439464 0 0.01949035 0 -0.33897066 0.54846609
0.0034152654 0 0.019490488 0 -0.33897066 0.54846609
0.0043910826 0 0.01949067 0 -0.33897066 0.54846609
0.00536692 0 0.0194909 0 -0.33897066 0.54846609
0.0063427826 0 0.019491175 0 -0.33897066 0.54846609
0.0073186746 0 0.019491496 0 -0.33897066 0.54846609
0.008294601 0 0.019491863 0 -0.33897066 0.54846609
0.0092705647 0 0.019492274 0 -0.33897066 0.54846609
0.010246572 0 0.019492732 0 -0.33897066 0.54846609
0.011222627 0 0.019493237 0 -0.33897066 0.54846609
0.012198734 0 0.019493787 0 -0.33897066 0.54846609
0.013174898 0 0.019494383 0 -0.33897066 0.54846609
0.014151123 0 0.019495023 0 -0.33897066 0.54846609
0.015127414 0 0.019495711 0 -0.33897066 0.54846609
0.016103774 0 0.019496445 0 -0.33897066 0.54846609
0.01708021 0 0.019497225 0 -0.33897066 0.54846609
0.018056724 0 0.01949805 0 -0.33897066 0.54846609
0.019033324 0 0.01949892 0 -0.33897066 0.54846609
0.020010011 0 0.019499838 0 -0.33897066 0.54846609
0.02098679 0 0.019500801 0 -0.33897066 0.54846609
0.021963667 0 0.019501809 0 -0.33897066 0.54846609
0.022940647 0 0.019502865 0 -0.33897066 0.54846609
0.023917733 0 0.019503966 0 -0.33897066 0.54846609
0.02489493 0 0.019505113 0 -0.33897066 0.54846609
0.025872244 0 0.019506305 0 -0.33897066 0.54846609
0.026849676 0 0.019507544 0 -0.33897066 0.54846609
0.027827235 0 0.019508829 0 -0.33897066 0.54846609
0.028804922 0 0.019510159 0 -0.33897066 0.54846609
0.029782742 0 0.019511538 0 -0.33897066 0.54846609
0.030760702 0 0.019512961 0 -0.33897066 0.54846609
0.031738807 0 0.019514428 0 -0.33897066 0.54846609
0.032717057 0 0.019515945 0 -0.33897066 0.54846609
0.033695459 0 0.019517506 0 -0.33897066 0.54846609
0.034674019 0 0.019519113 0 -0.33897066 0.54846609
0.035652738 0 0.019520767 0 -0.33897066 0.54846609
0.036631625 0 0.019522466 0 -0.33897066 0.54846609
0.03761068 0 0.019524213 0 -0.33897066 0.54846609
0.038589913 0 0.019526005 0 -0.33897066 0.54846609
0.039569326 0 0.019527843 0 -0.33897066 0.54846609
0.00048908847 0 0.017677015 0 -0.33897066 0.54846609
0.0014672676 0 0.017677056 0 -0.33897066 0.54846609
0.0024454535 0 0.017677139 0 -0.33897066 0.54846609
0.003423651 0 0.017677264 0 -0.33897066 0.54846609
0.0044018645 0 0.017677432 0 -0.33897066 0.54846609
0.0053800982 0 0.017677639 0 -0.33897066 0.54846609
0.0063583571 0 0.01767789 0 -0.33897066 0.54846609
0.0073366459 0 0.017678181 0 -0.33897066 0.54846609
0.0083149681 0 0.017678514 0 -0.33897066 0.54846609
0.0092933299 0 0.017678889 0 -0.33897066 0.54846609
0.010271735 0 0.017679306 0 -0.33897066 0.54846609
0.011250187 0 0.017679764 0 -0.33897066 0.54846609
0.012228692 0 0.017680265 0 -0.33897066 0.54846609
0.013207254 0 0.017680805 0 -0.33897066 0.54846609
0.014185878 0 0.01768139 0 -0.33897066 0.54846609
0.015164567 0 0.017682014 0 -0.33897066 0.54846609
0.016143328 0 0.017682681 0 -0.33897066 0.54846609
0.017122163 0 0.017683391 0 -0.33897066 0.54846609
0.018101078 0 0.017684141 0 -0.33897066 0.54846609
0.019080078 0 0.017684933 0 -0.33897066 0.54846609
0.020059166 0 0.017685765 0 -0.33897066 0.54846609
0.021038348 0 0.017686641 0 -0.33897066 0.54846609
0.022017628 0 0.017687559 0 -0.33897066 0.54846609
0.02299701 0 0.017688518 0 -0.33897066 0.54846609
0.023976501 0 0.017689519 0 -0.33897066 0.54846609
0.024956103 0 0.017690562 0 -0.33897066 0.54846609
0.025935821 0 0.017691646 0 -0.33897066 0.54846609
0.02691566 0 0.017692773 0 -0.33897066 0.54846609
0.027895626 0 0.017693941 0 -0.33897066 0.54846609
0.02887572 0 0.017695151 0 -0.33897066 0.54846609
0.02985595 0 0.017696403 0 -0.33897066 0.54846609
0.03083632 0 0.017697698 0 -0.33897066 0.54846609
0.031816833 0 0.017699033 0 -0.33897066 0.54846609
0.032797493 0 0.01770041 0 -0.33897066 0.54846609
0.033778306 0 0.017701829 0 -0.33897066 0.54846609
0.034759279 0 0.017703291 0 -0.33897066 0.54846609
0.035740416 0 0.017704794 0 -0.33897066 0.54846609
0.036721718 0 0.01770634 0 -0.33897066 0.54846609
0.03770319 0 0.017707927 0 -0.33897066 0.54846609
0.038684838 0 0.017709557 0 -0.33897066 0.54846609
0.039666671 0 0.017711228 0 -0.33897066 0.54846609
0.00049029221 0 0.015854975 0 -0.33897066 0.54846609
0.001470879 0 0.015855012 0 -0.33897066 0.54846609
0.0024514727 0 0.015855087 0 -0.33897066 0.54846609
0.0034320778 0 0.015855199 0 -0.33897066 0.54846609
0.004412699 0 0.01585535 0 -0.33897066 0.54846609
0.0053933407 0 0.015855536 0 -0.33897066 0.54846609
0.0063740076 0 0.015855761 0 -0.33897066 0.54846609
0.0073547042 0 0.015856024 0 -0.33897066 0.54846609
0.0083354358 0 0.015856324 0 -0.33897066 0.54846609
0.009316206 0 0.015856661 0 -0.33897066 0.54846609
0.010297019 0 0.015857035 0 -0.33897066 0.54846609
0.011277881 0 0.015857447 0 -0.33897066 0.54846609
0.012258796 0 0.015857896 0 -0.33897066 0.54846609
0.013239767 0 0.015858384 0 -0.33897066 0.54846609
0.014220801 0 0.015858909 0 -0.33897066 0.54846609
0.015201902 0 0.01585947 0 -0.33897066 0.54846609
0.016183073 0 0.01586007 0 -0.33897066 0.54846609
0.01716432 0 0.015860707 0 -0.33897066 0.54846609
0.018145647 0 0.015861383 0 -0.33897066 0.54846609
0.01912706 0 0.015862094 0 -0.33897066 0.54846609
0.020108562 0 0.015862843 0 -0.33897066 0.54846609
0.021090157 0 0.015863631 0 -0.33897066 0.54846609
0.022071851 0 0.015864456 0 -0.33897066 0.54846609
0.02305365 0 0.015865318 0 -0.33897066 0.54846609
0.024035556 0 0.015866218 0 -0.33897066 0.54846609
0.025017574 0 0.015867155 0 -0.33897066 0.54846609
0.02599971 0 0.015868131 0 -0.33897066 0.54846609
0.026981967 0 0.015869144 0 -0.33897066 0.54846609
0.02796435 0 0.015870193 0 -0.33897066 0.54846609
0.028946863 0 0.015871283 0 -0.33897066 0.54846609
0.029929513 0 0.015872408 0 -0.33897066 0.54846609
0.030912304 0 0.01587357 0 -0.33897066 0.54846609
0.031895239 0 0.015874771 0 -0.33897066 0.54846609
0.032878324 0 0.01587601 0 -0.33897066 0.54846609
0.033861563 0 0.015877288 0 -0.33897066 0.54846609
0.034844961 0 0.015878601 0 -0.33897066 0.54846609
0.03582852 0 0.015879953 0 -0.33897066 0.54846609
0.03681225 0 0.015881343 0 -0.33897066 0.54846609
0.037796151 0 0.01588277 0 -0.33897066 0.54846609
0.038780227 0 0.015884236 0 -0.33897066 0.54846609
0.03976449 0 0.015885739 0 -0.33897066 0.54846609
0.00049150188 0 0.014024019 0 -0.33897066 0.54846609
0.001474508 0 0.014024052 0 -0.33897066 0.54846609
0.0024575212 0 0.014024119 0 -0.33897066 0.54846609
0.0034405456 0 0.014024219 0 -0.33897066 0.54846609
0.0044235862 0 0.014024351 0 -0.33897066 0.54846609
0.0054066479 0 0.014024517 0 -0.33897066 0.54846609
0.0063897348 0 0.014024717 0 -0.33897066 0.54846609
0.0073728515 0 0.014024949 0 -0.33897066 0.54846609
0.0083560031 0 0.014025215 0 -0.33897066 0.54846609
0.0093391938 0 0.014025514 0 -0.33897066 0.54846609
0.010322428 0 0.014025846 0 -0.33897066 0.54846609
0.01130571 0 0.014026212 0 -0.33897066 0.54846609
0.012289046 0 0.01402661 0 -0.33897066 0.54846609
0.01327244 0 0.014027041 0 -0.33897066 0.54846609
0.014255896 0 0.014027507 0 -0.33897066 0.54846609
0.015239419 0 0.014028005 0 -0.33897066 0.54846609
0.016223013 0 0.014028537 0 -0.33897066 0.54846609
0.017206684 0 0.014029102 0 -0.33897066 0.54846609
0.018190436 0 0.0140297 0 -0.33897066 0.54846609
0.019174272 0 0.014030332 0 -0.33897066 0.54846609
0.0201582 0 0.014030997 0 -0.33897066 0.54846609
0.02114222 0 0.014031694 0 -0.33897066 0.54846609
0.022126341 0 0.014032426 0 -0.33897066 0.54846609
0.023110567 0 0.014033191 0 -0.33897066 0.54846609
0.024094898 0 0.014033988 0 -0.33897066 0.54846609
0.025079345 0 0.01403482 0 -0.33897066 0.54846609
0.02606391 0 0.014035684 0 -0.33897066 0.54846609
0.027048597 0 0.014036583 0 -0.33897066 0.54846609
0.028033411 0 0.014037514 0 -0.33897066 0.54846609
0.029018357 0 0.014038479 0 -0.33897066 0.54846609
0.03000344 0 0.014039476 0 -0.33897066 0.54846609
0.030988662 0 0.014040508 0 -0.33897066 0.54846609
0.031974033 0 0.014041573 0 -0.33897066 0.54846609
0.032959551 0 0.014042672 0 -0.33897066 0.54846609
0.033945225 0 0.014043803 0 -0.33897066 0.54846609
0.03493106 0 0.014044968 0 -0.33897066 0.54846609
0.035917059 0 0.014046167 0 -0.33897066 0.54846609
0.036903225 0 0.014047399 0 -0.33897066 0.54846609
0.037889566 0 0.014048665 0 -0.33897066 0.54846609
0.038876086 0 0.014049964 0 -0.33897066 0.54846609
0.039862789 0 0.014051297 0 -0.33897066 0.54846609
0.00049271749 0 0.012184073 0 -0.33897066 0.54846609
0.0014781549 0 0.012184102 0 -0.33897066 0.54846609
0.0024635992 0 0.01218416 0 -0.33897066 0.54846609
0.0034490551 0 0.012184246 0 -0.33897066 0.54846609
0.0044345274 0 0.012184362 0 -0.33897066 0.54846609
0.0054200203 0 0.012184507 0 -0.33897066 0.54846609
0.0064055389 0 0.01218468 0 -0.33897066 0.54846609
0.0073910877 0 0.012184883 0 -0.33897066 0.54846609
0.008376671 0 0.012185114 0 -0.33897066 0.54846609
0.0093622943 0 0.012185374 0 -0.33897066 0.54846609
0.010347961 0 0.012185664 0 -0.33897066 0.54846609
0.011333677 0 0.012185982 0 -0.33897066 0.54846609
0.012319447 0 0.01218633 0 -0.33897066 0.54846609
0.013305274 0 0.012186706 0 -0.33897066 0.54846609
0.014291164 0 0.012187111 0 -0.33897066 0.54846609
0.015277121 0 0.012187545 0 -0.33897066 0.54846609
0.01626315 0 0.012188008 0 -0.33897066 0.54846609
0.017249256 0 0.0121885 0 -0.33897066 0.54846609
0.018235443 0 0.012189021 0 -0.33897066 0.54846609
0.019221716 0 0.012189571 0 -0.33897066 0.54846609
0.020208079 0 0.01219015 0 -0.33897066 0.54846609
0.02119454 0 0.012190758 0 -0.33897066 0.54846609
0.022181097 0 0.012191395 0 -0.33897066 0.54846609
0.023167761 0 0.012192061 0 -0.33897066 0.54846609
0.024154535 0 0.012192756 0 -0.33897066 0.54846609
0.025141422 0 0.01219348 0 -0.33897066 0.54846609
0.026128426 0 0.012194233 0 -0.33897066 0.54846609
0.027115555 0 0.012195015 0 -0.33897066 0.54846609
0.028102811 0 0.012195827 0 -0.33897066 0.54846609
0.0290902 0 0.012196667 0 -0.33897066 0.54846609
0.030077728 0 0.012197535 0 -0.33897066 0.54846609
0.031065395 0 0.012198434 0 -0.33897066 0.54846609
0.03205321 0 0.012199362 0 -0.33897066 0.54846609
0.033041175 0 0.012200318 0 -0.33897066 0.54846609
0.034029298 0 0.012201305 0 -0.33897066 0.54846609
0.035017584 0 0.012202319 0 -0.33897066 0.54846609
0.03600603 0 0.012203363 0 -0.33897066 0.54846609
0.036994647 0 0.012204437 0 -0.33897066 0.54846609
0.037983444 0 0.012205538 0 -0.33897066 0.54846609
0.038972415 0 0.01220667 0 -0.33897066 0.54846609
0.039961573 0 0.01220783 0 -0.33897066 0.54846609
0.00049393909 0 0.010335061 0 -0.33897066 0.54846609
0.0014818197 0 0.010335086 0 -0.33897066 0.54846609
0.0024697073 0 0.010335135 0 -0.33897066 0.54846609
0.0034576065 0 0.010335209 0 -0.33897066 0.54846609
0.0044455221 0 0.010335307 0 -0.33897066 0.54846609
0.0054334588 0 0.01033543 0 -0.33897066 0.54846609
0.0064214207 0 0.010335578 0 -0.33897066 0.54846609
0.0074094133 0 0.01033575 0 -0.33897066 0.54846609
0.0083974414 0 0.010335946 0 -0.33897066 0.54846609
0.0093855085 0 0.010336168 0 -0.33897066 0.54846609
0.01037362 0 0.010336414 0 -0.33897066 0.54846609
0.011361782 0 0.010336685 0 -0.33897066 0.54846609
0.012349996 0 0.01033698 0 -0.33897066 0.54846609
0.013338269 0 0.0103373 0 -0.33897066 0.54846609
0.014326604 0 0.010337644 0 -0.33897066 0.54846609
0.015315008 0 0.010338013 0 -0.33897066 0.54846609
0.016303485 0 0.010338407 0 -0.33897066 0.54846609
0.017292038 0 0.010338825 0 -0.33897066 0.54846609
0.018280674 0 0.010339268 0 -0.33897066 0.54846609
0.019269394 0 0.010339736 0 -0.33897066 0.54846609
0.020258207 0 0.010340229 0 -0.33897066 0.54846609
0.021247115 0 0.010340746 0 -0.33897066 0.54846609
0.022236126 0 0.010341288 0 -0.33897066 0.54846609
0.023225239 0 0.010341854 0 -0.33897066 0.54846609
0.024214463 0 0.010342444 0 -0.33897066 0.54846609
0.025203804 0 0.01034306 0 -0.33897066 0.54846609
0.026193261 0 0.010343701 0 -0.33897066 0.54846609
0.027182844 0 0.010344366 0 -0.33897066 0.54846609
0.028172554 0 0.010345056 0 -0.33897066 0.54846609
0.029162399 0 0.01034577 0 -0.33897066 0.54846609
0.030152382 0 0.01034651 0 -0.33897066 0.54846609
0.031142507 0 0.010347273 0 -0.33897066 0.54846609
0.032132778 0 0.010348062 0 -0.33897066 0.54846609
0.033123206 0 0.010348875 0 -0.33897066 0.54846609
0.034113787 0 0.010349713 0 -0.33897066 0.54846609
0.035104532 0 0.010350577 0 -0.33897066 0.54846609
0.03609544 0 0.010351464 0 -0.33897066 0.54846609
0.037086524 0 0.010352377 0 -0.33897066 0.54846609
0.038077779 0 0.010353315 0 -0.33897066 0.54846609
0.03906922 0 0.010354277 0 -0.33897066 0.54846609
0.00049516675 0 0.0084769074 0 -0.33897066 0.54846609
0.0014855026 0 0.0084769279 0 -0.33897066 0.54846609
0.0024758454 0 0.0084769679 0 -0.33897066 0.54846609
0.0034662001 0 0.0084770285 0 -0.33897066 0.54846609
0.0044565713 0 0.0084771095 0 -0.33897066 0.54846609
0.0054469635 0 0.008477211 0 -0.33897066 0.54846609
0.0064373817 0 0.0084773321 0 -0.33897066 0.54846609
0.0074278302 0 0.0084774736 0 -0.33897066 0.54846609
0.0084183142 0 0.0084776357 0 -0.33897066 0.54846609
0.0094088381 0 0.0084778173 0 -0.33897066 0.54846609
0.010399407 0 0.0084780194 0 -0.33897066 0.54846609
0.011390024 0 0.008478242 0 -0.33897066 0.54846609
0.012380696 0 0.008478485 0 -0.33897066 0.54846609
0.013371427 0 0.0084787477 0 -0.33897066 0.54846609
