# .PCD v0.7 - Point Cloud Data file format
VERSION 0.7
FIELDS x y z vp_x vp_y vp_z
SIZE 4 4 4 4 4 4
TYPE F F F F F F
COUNT 1 1 1 1 1 1
WIDTH 693
HEIGHT 1
VIEWPOINT 0 0 0 1 0 0 0
POINTS 693
DATA ascii
0.036002908 0.071984015 0.05634328 0.32315677 0.19972187 0.52287865
0.035431873 0.072680384 0.056159284 0.32315677 0.19972187 0.52287865
0.034845304 0.073370919 0.055950798 0.32315677 0.19972187 0.52287865
0.034214493 0.074043281 0.055671517 0.32315677 0.19972187 0.52287865
0.033528402 0.074693151 0.055303968 0.32315677 0.19972187 0.52287865
0.032824278 0.075337023 0.054908607 0.32315677 0.19972187 0.52287865
0.032026995 0.075943127 0.054364663 0.32315677 0.19972187 0.52287865
0.031227643 0.076550804 0.053819213 0.32315677 0.19972187 0.52287865
0.030302303 0.077108175 0.05307347 0.32315677 0.19972187 0.52287865
0.029373145 0.077667229 0.052324057 0.32315677 0.19972187 0.52287865
0.02829339 0.078167468 0.051336274 0.32315677 0.19972187 0.52287865
0.027175166 0.078656204 0.050290279 0.32315677 0.19972187 0.52287865
0.025900224 0.079085805 0.048997838 0.32315677 0.19972187 0.52287865
0.024480416 0.079462528 0.047478978 0.32315677 0.19972187 0.52287865
0.022883404 0.079774819 0.045683369 0.32315677 0.19972187 0.52287865
0.020980803 0.079973459 0.043408599 0.32315677 0.19972187 0.52287865
0.018398531 0.079914279 0.040064275 0.32315677 0.19972187 0.52287865
0.016152924 0.079999998 0.037263017 0.32315677 0.19972187 0.52287865
0.013656119 0.079999998 0.034073871 0.32315677 0.19972187 0.52287865
0.011125482 0.079999998 0.030841412 0.32315677 0.19972187 0.52287865
0 0.076742314 0.014087024 0.32315677 0.19972187 0.52287865
0.0059598684 0.079999998 0.024242904 0.32315677 0.19972187 0.52287865
0.00332342 0.079999998 0.020874973 0.32315677 0.19972187 0.52287865
0.00065019453 0.079999998 0.017459955 0.32315677 0.19972187 0.52287865
0.039999999 0.00022988545 0.0032790643 0.32315677 0.19972187 0.52287865
0.039999999 0.0014118529 0.0042152656 0.32315677 0.19972187 0.52287865
0.039999999 0.0025894525 0.0051478958 0.32315677 0.19972187 0.52287865
0.039999999 0.0037627148 0.0060769795 0.32315677 0.19972187 0.52287865
0.039999999 0.0049316697 0.0070025413 0.32315677 0.19972187 0.52287865
0.039999999 0.0060963468 0.0079246052 0.32315677 0.19972187 0.52287865
0.039999999 0.0072567756 0.0088431956 0.32315677 0.19972187 0.52287865
0.039999999 0.0084129861 0.0097583355 0.32315677 0.19972187 0.52287865
0.039999999 0.009565006 0.01067005 0.32315677 0.19972187 0.52287865
0.039999999 0.010712866 0.011578361 0.32315677 0.19972187 0.52287865
0.039999999 0.011856592 0.012483291 0.32315677 0.19972187 0.52287865
0.039999999 0.012996214 0.013384865 0.32315677 0.19972187 0.52287865
0.039999999 0.014131761 0.014283105 0.32315677 0.19972187 0.52287865
0.039999999 0.015263258 0.015178033 0.32315677 0.19972187 0.52287865
0.039999999 0.016390735 0.016069671 0.32315677 0.19972187 0.52287865
0.039999999 0.01751422 0.016958043 0.32315677 0.19972187 0.52287865
0.039999999 0.018633734 0.01784317 0.32315677 0.19972187 0.52287865
0.039999999 0.019749312 0.018725073 0.32315677 0.19972187 0.52287865
0.039999999 0.020860976 0.019603774 0.32315677 0.19972187 0.52287865
0.039999999 0.021968752 0.020479295 0.32315677 0.19972187 0.52287865
0.039999999 0.023072667 0.021351656 0.32315677 0.19972187 0.52287865
0.039999999 0.024172749 0.02222088 0.32315677 0.19972187 0.52287865
0.039999999 0.025269022 0.023086987 0.32315677 0.19972187 0.52287865
0.039999999 0.02636151 0.023949997 0.32315677 0.19972187 0.52287865
0.039999999 0.027450241 0.02480993 0.32315677 0.19972187 0.52287865
0.039999999 0.028535239 0.025666809 0.32315677 0.19972187 0.52287865
0.039999999 0.029616527 0.026520653 0.32315677 0.19972187 0.52287865
0.039999999 0.030694133 0.027371479 0.32315677 0.19972187 0.52287865
0.039999999 0.03176808 0.028219311 0.32315677 0.19972187 0.52287865
0.039999999 0.032838389 0.029064167 0.32315677 0.19972187 0.52287865
0.039999999 0.033905089 0.029906066 0.32315677 0.19972187 0.52287865
0.039999999 0.034968201 0.030745029 0.32315677 0.19972187 0.52287865
0.039999999 0.036027752 0.031581074 0.32315677 0.19972187 0.52287865
0.039999999 0.03708376 0.03241422 0.32315677 0.19972187 0.52287865
0.039999999 0.038136251 0.033244483 0.32315677 0.19972187 0.52287865
0.039999999 0.039185248 0.034071889 0.32315677 0.19972187 0.52287865
0.039999999 0.040230777 0.034896452 0.32315677 0.19972187 0.52287865
0.039999999 0.041272856 0.035718188 0.32315677 0.19972187 0.52287865
0.039999999 0.042311508 0.036537118 0.32315677 0.19972187 0.52287865
0.039999999 0.043346759 0.037353262 0.32315677 0.19972187 0.52287865
0.039999999 0.044378623 0.038166635 0.32315677 0.19972187 0.52287865
0.039999999 0.045407135 0.038977254 0.32315677 0.19972187 0.52287865
0.039999999 0.046432305 0.039785139 0.32315677 0.19972187 0.52287865
0.03965342 0.047267787 0.039999999 0.32315677 0.19972187 0.52287865
0.03918092 0.048035204 0.039999999 0.32315677 0.19972187 0.52287865
0.03870843 0.048802741 0.039999999 0.32315677 0.19972187 0.52287865
0.038235944 0.049570393 0.039999999 0.32315677 0.19972187 0.52287865
0.037763465 0.050338171 0.039999999 0.32315677 0.19972187 0.52287865
0.038115807 0.05153488 0.041393261 0.32315677 0.19972187 0.52287865
0.038633183 0.052811094 0.043060236 0.32315677 0.19972187 0.52287865
0.039071321 0.054039832 0.044588324 0.32315677 0.19972187 0.52287865
0.039394461 0.055203754 0.045918088 0.32315677 0.19972187 0.52287865
0.039633956 0.056319963 0.047103133 0.32315677 0.19972187 0.52287865
0.039811056 0.05740004 0.048179772 0.32315677 0.19972187 0.52287865
0.039915424 0.058439512 0.049131252 0.32315677 0.19972187 0.52287865
0.039970223 0.059450634 0.049996872 0.32315677 0.19972187 0.52287865
0.039976455 0.060434435 0.050778717 0.32315677 0.19972187 0.52287865
0.03992483 0.061386902 0.051461753 0.32315677 0.19972187 0.52287865
0.039855618 0.062328182 0.052113365 0.32315677 0.19972187 0.52287865
0.039707892 0.063229136 0.052632637 0.32315677 0.19972187 0.52287865
0.03956046 0.064128265 0.053150762 0.32315677 0.19972187 0.52287865
0.039340399 0.064990968 0.05354714 0.32315677 0.19972187 0.52287865
0.039103497 0.065844283 0.053914472 0.32315677 0.19972187 0.52287865
0.038835302 0.066681638 0.054229092 0.32315677 0.19972187 0.52287865
0.038512249 0.067492411 0.054452471 0.32315677 0.19972187 0.52287865
0.038189437 0.068302579 0.054675583 0.32315677 0.19972187 0.52287865
0.037791144 0.069077477 0.054774214 0.32315677 0.19972187 0.52287865
0.037382822 0.069847628 0.05485617 0.32315677 0.19972187 0.52287865
0.036939863 0.070602022 0.054881286 0.32315677 0.19972187 0.52287865
0.036444299 0.071332976 0.054820515 0.32315677 0.19972187 0.52287865
0.035948489 0.072064281 0.05475961 0.32315677 0.19972187 0.52287865
0.03536607 0.072757855 0.054558031 0.32315677 0.19972187 0.52287865
0.034778096 0.073450036 0.054348152 0.32315677 0.19972187 0.52287865
0.034134444 0.074119106 0.054048698 0.32315677 0.19972187 0.52287865
0.033446655 0.074770585 0.053678799 0.32315677 0.19972187 0.52287865
0.032727685 0.075410455 0.053259745 0.32315677 0.19972187 0.52287865
0.031928346 0.076018117 0.052712355 0.32315677 0.19972187 0.52287865
0.031111935 0.076621048 0.052139271 0.32315677 0.19972187 0.52287865
0.030183485 0.07717967 0.051387787 0.32315677 0.19972187 0.52287865
0.029233376 0.077732578 0.050603967 0.32315677 0.19972187 0.52287865
0.028149756 0.07823392 0.049608536 0.32315677 0.19972187 0.52287865
0.027003668 0.078713991 0.048516281 0.32315677 0.19972187 0.52287865
0.025724847 0.079144895 0.047215294 0.32315677 0.19972187 0.52287865
0.024267346 0.079509422 0.045633193 0.32315677 0.19972187 0.52287865
0.0226174 0.079803757 0.043749362 0.32315677 0.19972187 0.52287865
0.020655159 0.079982273 0.041374445 0.32315677 0.19972187 0.52287865
0.018258592 0.079999998 0.038316809 0.32315677 0.19972187 0.52287865
0.015784524 0.079999998 0.035145849 0.32315677 0.19972187 0.52287865
0.013277059 0.079999998 0.031931981 0.32315677 0.19972187 0.52287865
0.010735506 0.079999998 0.028674318 0.32315677 0.19972187 0.52287865
0.0081591504 0.079999998 0.025371933 0.32315677 0.19972187 0.52287865
0.0055472571 0.079999998 0.022023892 0.32315677 0.19972187 0.52287865
0.0028990728 0.079999998 0.018629219 0.32315677 0.19972187 0.52287865
0.00021382183 0.079999998 0.015186924 0.32315677 0.19972187 0.52287865
0.039999999 0.00017195649 0.0014780426 0.32315677 0.19972187 0.52287865
0.039999999 0.001356822 0.0024197954 0.32315677 0.19972187 0.52287865
0.039999999 0.0025372985 0.0033579436 0.32315677 0.19972187 0.52287865
0.039999999 0.0037134164 0.0042925123 0.32315677 0.19972187 0.52287865
0.039999999 0.0048852065 0.0052235257 0.32315677 0.19972187 0.52287865
0.039999999 0.006052698 0.0061510089 0.32315677 0.19972187 0.52287865
0.039999999 0.0072159213 0.0070749857 0.32315677 0.19972187 0.52287865
0.039999999 0.0083749052 0.0079954807 0.32315677 0.19972187 0.52287865
0.039999999 0.00952968 0.0089125168 0.32315677 0.19972187 0.52287865
0.039999999 0.010680274 0.0098261181 0.32315677 0.19972187 0.52287865
0.039999999 0.011826715 0.010736308 0.32315677 0.19972187 0.52287865
0.039999999 0.012969034 0.01164311 0.32315677 0.19972187 0.52287865
0.039999999 0.014107256 0.012546547 0.32315677 0.19972187 0.52287865
0.039999999 0.015241412 0.013446642 0.32315677 0.19972187 0.52287865
0.039999999 0.016371526 0.014343416 0.32315677 0.19972187 0.52287865
0.039999999 0.017497629 0.015236894 0.32315677 0.19972187 0.52287865
0.039999999 0.018619748 0.016127096 0.32315677 0.19972187 0.52287865
0.039999999 0.019737909 0.017014045 0.32315677 0.19972187 0.52287865
0.039999999 0.020852137 0.017897764 0.32315677 0.19972187 0.52287865
0.039999999 0.02196246 0.018778272 0.32315677 0.19972187 0.52287865
0.039999999 0.023068907 0.019655593 0.32315677 0.19972187 0.52287865
0.039999999 0.0241715 0.020529747 0.32315677 0.19972187 0.52287865
0.039999999 0.025270266 0.021400755 0.32315677 0.19972187 0.52287865
0.039999999 0.026365234 0.022268638 0.32315677 0.19972187 0.52287865
0.039999999 0.027456425 0.023133418 0.32315677 0.19972187 0.52287865
0.039999999 0.028543865 0.023995113 0.32315677 0.19972187 0.52287865
0.039999999 0.02962758 0.024853745 0.32315677 0.19972187 0.52287865
0.039999999 0.030707596 0.025709335 0.32315677 0.19972187 0.52287865
0.039999999 0.031783935 0.026561901 0.32315677 0.19972187 0.52287865
0.039999999 0.032856625 0.027411466 0.32315677 0.19972187 0.52287865
0.039999999 0.033925686 0.028258046 0.32315677 0.19972187 0.52287865
0.039999999 0.034991145 0.029101662 0.32315677 0.19972187 0.52287865
0.039999999 0.036053024 0.029942336 0.32315677 0.19972187 0.52287865
0.039999999 0.037111346 0.030780084 0.32315677 0.19972187 0.52287865
0.039999999 0.038166136 0.031614926 0.32315677 0.19972187 0.52287865
0.039999999 0.039217416 0.03244688 0.32315677 0.19972187 0.52287865
0.039999999 0.040265214 0.033275966 0.32315677 0.19972187 0.52287865
0.039999999 0.041309543 0.034102201 0.32315677 0.19972187 0.52287865
0.039999999 0.042350437 0.034925606 0.32315677 0.19972187 0.52287865
0.039999999 0.043387908 0.035746198 0.32315677 0.19972187 0.52287865
0.039999999 0.044421986 0.036563996 0.32315677 0.19972187 0.52287865
0.039999999 0.045452688 0.037379019 0.32315677 0.19972187 0.52287865
0.039999999 0.046480037 0.038191278 0.32315677 0.19972187 0.52287865
0.039999999 0.04750406 0.039000798 0.32315677 0.19972187 0.52287865
0.039999999 0.048524771 0.039807595 0.32315677 0.19972187 0.52287865
0.039640855 0.049351711 0.039999999 0.32315677 0.19972187 0.52287865
0.039168943 0.050118554 0.039999999 0.32315677 0.19972187 0.52287865
0.038697038 0.050885521 0.039999999 0.32315677 0.19972187 0.52287865
0.038225137 0.051652618 0.039999999 0.32315677 0.19972187 0.52287865
0.038664736 0.052890282 0.041542169 0.32315677 0.19972187 0.52287865
0.039092325 0.054115482 0.043058969 0.32315677 0.19972187 0.52287865
0.039416082 0.055281632 0.04439567 0.32315677 0.19972187 0.52287865
0.039646268 0.056395046 0.045570444 0.32315677 0.19972187 0.52287865
0.039823715 0.057477243 0.046652723 0.32315677 0.19972187 0.52287865
0.039919481 0.058514375 0.047594406 0.32315677 0.19972187 0.52287865
0.039974391 0.059527528 0.048464574 0.32315677 0.19972187 0.52287865
0.039972398 0.060509261 0.049236737 0.32315677 0.19972187 0.52287865
0.039920669 0.061463688 0.04992336 0.32315677 0.19972187 0.52287865
0.039843343 0.062403038 0.050565094 0.32315677 0.19972187 0.52287865
0.039695304 0.063305885 0.051087081 0.32315677 0.19972187 0.52287865
0.039547566 0.064206898 0.051607899 0.32315677 0.19972187 0.52287865
0.039319109 0.065067664 0.051993154 0.32315677 0.19972187 0.52287865
0.039081696 0.065922804 0.052362371 0.32315677 0.19972187 0.52287865
0.038804807 0.066758171 0.052665163 0.32315677 0.19972187 0.52287865
0.038481046 0.067570724 0.052889634 0.32315677 0.19972187 0.52287865
0.038157526 0.068382673 0.053113829 0.32315677 0.19972187 0.52287865
0.037749831 0.069155402 0.053198837 0.32315677 0.19972187 0.52287865
0.037340593 0.069927283 0.053281091 0.32315677 0.19972187 0.52287865
0.036887489 0.07067927 0.05329119 0.32315677 0.19972187 0.52287865
0.036390774 0.071411923 0.053229898 0.32315677 0.19972187 0.52287865
0.035888657 0.072142638 0.053160034 0.32315677 0.19972187 0.52287865
0.035299946 0.072835691 0.052949101 0.32315677 0.19972187 0.52287865
0.034710567 0.073529534 0.052737821 0.32315677 0.19972187 0.52287865
0.034054004 0.074195296 0.052417967 0.32315677 0.19972187 0.52287865
0.033364508 0.074848391 0.052045699 0.32315677 0.19972187 0.52287865
0.032630615 0.075484253 0.05160268 0.32315677 0.19972187 0.52287865
0.031829208 0.076093487 0.051051814 0.32315677 0.19972187 0.52287865
0.030995023 0.076691389 0.050449781 0.32315677 0.19972187 0.52287865
0.030064059 0.077251524 0.049693499 0.32315677 0.19972187 0.52287865
0.029092085 0.077797949 0.048873592 0.32315677 0.19972187 0.52287865
0.028005369 0.078300722 0.047871716 0.32315677 0.19972187 0.52287865
0.026831239 0.07877209 0.046732638 0.32315677 0.19972187 0.52287865
0.025548514 0.079204313 0.045423027 0.32315677 0.19972187 0.52287865
0.024053063 0.079556584 0.0437769 0.32315677 0.19972187 0.52287865
0.02234979 0.079832867 0.041803677 0.32315677 0.19972187 0.52287865
0.020349832 0.079999998 0.039363012 0.32315677 0.19972187 0.52287865
0.015413672 0.079999998 0.033014596 0.32315677 0.19972187 0.52287865
0.012895461 0.079999998 0.029775748 0.32315677 0.19972187 0.52287865
0.010342901 0.079999998 0.026492609 0.32315677 0.19972187 0.52287865
0.0077552698 0.079999998 0.02316425 0.32315677 0.19972187 0.52287865
0.0051318253 0.079999998 0.019789713 0.32315677 0.19972187 0.52287865
0.0024718058 0.079999998 0.016368015 0.32315677 0.19972187 0.52287865
0.039999999 0.0013015231 0.00061558746 0.32315677 0.19972187 0.52287865
0.039999999 0.0024848909 0.0015592964 0.32315677 0.19972187 0.52287865
0.039999999 0.0036638789 0.002499392 0.32315677 0.19972187 0.52287865
0.039999999 0.0048385183 0.0034358993 0.32315677 0.19972187 0.52287865
0.039999999 0.0060088383 0.004368843 0.32315677 0.19972187 0.52287865
0.039999999 0.0071748695 0.0052982476 0.32315677 0.19972187 0.52287865
0.039999999 0.0083366418 0.0062241373 0.32315677 0.19972187 0.52287865
0.039999999 0.0094941845 0.0071465368 0.32315677 0.19972187 0.52287865
0.039999999 0.010647526 0.0080654686 0.32315677 0.19972187 0.52287865
0.039999999 0.011796695 0.0089809587 0.32315677 0.19972187 0.52287865
0.039999999 0.012941723 0.0098930281 0.32315677 0.19972187 0.52287865
0.039999999 0.014082634 0.010801702 0.32315677 0.19972187 0.52287865
0.039999999 0.015219459 0.011707002 0.32315677 0.19972187 0.52287865
0.039999999 0.016352227 0.012608952 0.32315677 0.19972187 0.52287865
0.039999999 0.017480962 0.013507574 0.32315677 0.19972187 0.52287865
0.039999999 0.018605694 0.014402891 0.32315677 0.19972187 0.52287865
0.039999999 0.01972645 0.015294923 0.32315677 0.19972187 0.52287865
0.039999999 0.020843256 0.016183697 0.32315677 0.19972187 0.52287865
0.039999999 0.02195614 0.01706923 0.32315677 0.19972187 0.52287865
0.039999999 0.023065127 0.017951546 0.32315677 0.19972187 0.52287865
0.039999999 0.024170244 0.018830666 0.32315677 0.19972187 0.52287865
0.039999999 0.025271518 0.019706612 0.32315677 0.19972187 0.52287865
0.039999999 0.026368974 0.020579405 0.32315677 0.19972187 0.52287865
0.039999999 0.027462637 0.021449065 0.32315677 0.19972187 0.52287865
0.039999999 0.028552532 0.022315614 0.32315677 0.19972187 0.52287865
0.039999999 0.029638685 0.023179071 0.32315677 0.19972187 0.52287865
0.039999999 0.030721122 0.024039458 0.32315677 0.19972187 0.52287865
0.039999999 0.031799868 0.024896795 0.32315677 0.19972187 0.52287865
0.039999999 0.032874946 0.025751101 0.32315677 0.19972187 0.52287865
0.039999999 0.03394638 0.026602397 0.32315677 0.19972187 0.52287865
0.039999999 0.035014194 0.027450703 0.32315677 0.19972187 0.52287865
0.039999999 0.036078412 0.028296037 0.32315677 0.19972187 0.52287865
0.039999999 0.037139058 0.02913842 0.32315677 0.19972187 0.52287865
0.039999999 0.038196158 0.029977871 0.32315677 0.19972187 0.52287865
0.039999999 0.039249733 0.030814409 0.32315677 0.19972187 0.52287865
0.039999999 0.040299807 0.031648051 0.32315677 0.19972187 0.52287865
0.039999999 0.041346401 0.032478821 0.32315677 0.19972187 0.52287865
0.039999999 0.042389542 0.033306733 0.32315677 0.19972187 0.52287865
0.039999999 0.043429248 0.034131806 0.32315677 0.19972187 0.52287865
0.039999999 0.044465542 0.03495406 0.32315677 0.19972187 0.52287865
0.039999999 0.045498449 0.035773512 0.32315677 0.19972187 0.52287865
0.039999999 0.046527989 0.036590181 0.32315677 0.19972187 0.52287865
0.039999999 0.047554184 0.037404083 0.32315677 0.19972187 0.52287865
0.039999999 0.048577055 0.038215239 0.32315677 0.19972187 0.52287865
0.039999999 0.049596626 0.03902366 0.32315677 0.19972187 0.52287865
0.039999999 0.050612919 0.039829373 0.32315677 0.19972187 0.52287865
0.039628685 0.051431745 0.039999999 0.32315677 0.19972187 0.52287865
0.039157357 0.052198034 0.039999999 0.32315677 0.19972187 0.52287865
0.038696423 0.05296981 0.040017623 0.32315677 0.19972187 0.52287865
0.039113417 0.054191459 0.041522983 0.32315677 0.19972187 0.52287865
0.039437797 0.055359844 0.04286667 0.32315677 0.19972187 0.52287865
0.039658632 0.056470461 0.044031039 0.32315677 0.19972187 0.52287865
0.039836429 0.057554789 0.045118999 0.32315677 0.19972187 0.52287865
0.039923556 0.05858957 0.046050753 0.32315677 0.19972187 0.52287865
0.039978579 0.059604764 0.046925496 0.32315677 0.19972187 0.52287865
0.039968323 0.060584426 0.047687862 0.32315677 0.19972187 0.52287865
0.039916489 0.061540816 0.048378095 0.32315677 0.19972187 0.52287865
0.039831016 0.062478233 0.04900983 0.32315677 0.19972187 0.52287865
0.039682664 0.063382976 0.049534544 0.32315677 0.19972187 0.52287865
0.039534617 0.064285889 0.050058085 0.32315677 0.19972187 0.52287865
0.039297719 0.065144703 0.050432082 0.32315677 0.19972187 0.52287865
0.039059795 0.066001691 0.050803196 0.32315677 0.19972187 0.52287865
0.038774174 0.066835053 0.051094014 0.32315677 0.19972187 0.52287865
0.038449697 0.067649402 0.051319584 0.32315677 0.19972187 0.52287865
0.038118549 0.06845995 0.051533438 0.32315677 0.19972187 0.52287865
0.037708327 0.069233686 0.051616106 0.32315677 0.19972187 0.52287865
0.037298162 0.070007309 0.051698659 0.32315677 0.19972187 0.52287865
0.036834866 0.07075689 0.05169357 0.32315677 0.19972187 0.52287865
0.036336996 0.071491241 0.051631749 0.32315677 0.19972187 0.52287865
0.035823632 0.072219186 0.051544774 0.32315677 0.19972187 0.52287865
0.035233509 0.072913907 0.051332433 0.32315677 0.19972187 0.52287865
0.034642711 0.073609419 0.051119741 0.32315677 0.19972187 0.52287865
0.033973172 0.074271865 0.050779253 0.32315677 0.19972187 0.52287865
0.03328196 0.074926585 0.050404597 0.32315677 0.19972187 0.52287865
0.032533053 0.075558417 0.049937338 0.32315677 0.19972187 0.52287865
0.031729572 0.07616923 0.049382966 0.32315677 0.19972187 0.52287865
0.030877514 0.076762088 0.048751645 0.32315677 0.19972187 0.52287865
0.029944023 0.077323742 0.047990527 0.32315677 0.19972187 0.52287865
0.02895005 0.077863663 0.047134109 0.32315677 0.19972187 0.52287865
0.027860219 0.078367874 0.046125732 0.32315677 0.19972187 0.52287865
0.026657868 0.07883051 0.044939257 0.32315677 0.19972187 0.52287865
0.025371216 0.07926406 0.043620951 0.32315677 0.19972187 0.52287865
0.023837557 0.079604015 0.041909993 0.32315677 0.19972187 0.52287865
0.022176422 0.079900324 0.039999999 0.32315677 0.19972187 0.52287865
0.019997414 0.079999998 0.037266564 0.32315677 0.19972187 0.52287865
0.017535485 0.079999998 0.034089323 0.32315677 0.19972187 0.52287865
0.015040343 0.079999998 0.030869102 0.32315677 0.19972187 0.52287865
0 0.075178184 0.0076577854 0.32315677 0.19972187 0.52287865
0.009947638 0.079999998 0.024296131 0.32315677 0.19972187 0.52287865
0.0073486362 0.079999998 0.020941516 0.32315677 0.19972187 0.52287865
0.0047135432 0.079999998 0.017540202 0.32315677 0.19972187 0.52287865
0.0020415862 0.079999998 0.014091183 0.32315677 0.19972187 0.52287865
0.039999999 0.0036141006 0.00069754664 0.32315677 0.19972187 0.52287865
0.039999999 0.0047916034 0.0016395899 0.32315677 0.19972187 0.52287865
0.039999999 0.0059647663 0.0025780362 0.32315677 0.19972187 0.52287865
0.039999999 0.0071336194 0.0035129101 0.32315677 0.19972187 0.52287865
0.039999999 0.0082981931 0.0044442369 0.32315677 0.19972187 0.52287865
0.039999999 0.0094585167 0.00537204 0.32315677 0.19972187 0.52287865
0.039999999 0.010614621 0.0062963441 0.32315677 0.19972187 0.52287865
0.039999999 0.011766532 0.007217173 0.32315677 0.19972187 0.52287865
0.039999999 0.01291428 0.0081345504 0.32315677 0.19972187 0.52287865
0.039999999 0.014057894 0.0090485001 0.32315677 0.19972187 0.52287865
0.039999999 0.015197403 0.0099590458 0.32315677 0.19972187 0.52287865
0.039999999 0.016332835 0.010866209 0.32315677 0.19972187 0.52287865
0.039999999 0.017464215 0.011770015 0.32315677 0.19972187 0.52287865
0.039999999 0.018591573 0.012670484 0.32315677 0.19972187 0.52287865
0.039999999 0.019714938 0.01356764 0.32315677 0.19972187 0.52287865
0.039999999 0.020834334 0.014461505 0.32315677 0.19972187 0.52287865
0.039999999 0.021949789 0.015352101 0.32315677 0.19972187 0.52287865
0.039999999 0.023061329 0.016239451 0.32315677 0.19972187 0.52287865
0.039999999 0.024168983 0.017123574 0.32315677 0.19972187 0.52287865
0.039999999 0.025272775 0.018004496 0.32315677 0.19972187 0.52287865
0.039999999 0.026372731 0.018882234 0.32315677 0.19972187 0.52287865
0.039999999 0.027468877 0.019756811 0.32315677 0.19972187 0.52287865
0.039999999 0.02856124 0.020628247 0.32315677 0.19972187 0.52287865
0.039999999 0.029649843 0.021496566 0.32315677 0.19972187 0.52287865
0.039999999 0.030734712 0.022361785 0.32315677 0.19972187 0.52287865
0.039999999 0.031815872 0.023223927 0.32315677 0.19972187 0.52287865
0.039999999 0.032893348 0.024083011 0.32315677 0.19972187 0.52287865
0.039999999 0.033967167 0.024939056 0.32315677 0.19972187 0.52287865
0.039999999 0.03503735 0.025792085 0.32315677 0.19972187 0.52287865
0.039999999 0.036103919 0.026642116 0.32315677 0.19972187 0.52287865
0.039999999 0.037166901 0.027489169 0.32315677 0.19972187 0.52287865
0.039999999 0.038226321 0.028333263 0.32315677 0.19972187 0.52287865
0.039999999 0.039282199 0.029174417 0.32315677 0.19972187 0.52287865
0.039999999 0.04033456 0.030012652 0.32315677 0.19972187 0.52287865
0.039999999 0.04138343 0.030847985 0.32315677 0.19972187 0.52287865
0.039999999 0.042428825 0.031680435 0.32315677 0.19972187 0.52287865
0.039999999 0.043470774 0.032510024 0.32315677 0.19972187 0.52287865
0.039999999 0.044509299 0.033336766 0.32315677 0.19972187 0.52287865
0.039999999 0.045544419 0.034160681 0.32315677 0.19972187 0.52287865
0.039999999 0.046576157 0.034981787 0.32315677 0.19972187 0.52287865
0.039999999 0.047604539 0.035800103 0.32315677 0.19972187 0.52287865
0.039999999 0.048629582 0.036615647 0.32315677 0.19972187 0.52287865
0.039999999 0.04965131 0.037428435 0.32315677 0.19972187 0.52287865
0.039999999 0.050669741 0.038238488 0.32315677 0.19972187 0.52287865
0.039999999 0.051684901 0.039045822 0.32315677 0.19972187 0.52287865
0.039999999 0.052696809 0.039850451 0.32315677 0.19972187 0.52287865
0.03961692 0.053507943 0.039999999 0.32315677 0.19972187 0.52287865
0.039146181 0.054273695 0.039999999 0.32315677 0.19972187 0.52287865
0.039459605 0.055438396 0.041331034 0.32315677 0.19972187 0.52287865
0.039671052 0.056546204 0.042484861 0.32315677 0.19972187 0.52287865
0.039849199 0.05763267 0.043578543 0.32315677 0.19972187 0.52287865
0.03992765 0.0586651 0.044500239 0.32315677 0.19972187 0.52287865
0.039982785 0.059682343 0.045379598 0.32315677 0.19972187 0.52287865
0.039964233 0.060659926 0.046132036 0.32315677 0.19972187 0.52287865
0.039912291 0.061618291 0.046825904 0.32315677 0.19972187 0.52287865
0.03981863 0.062553771 0.047447518 0.32315677 0.19972187 0.52287865
0.039669964 0.063460425 0.047974981 0.32315677 0.19972187 0.52287865
0.039515 0.064362079 0.048490208 0.32315677 0.19972187 0.52287865
0.039276231 0.065222099 0.048863865 0.32315677 0.19972187 0.52287865
0.039037794 0.066080928 0.049236886 0.32315677 0.19972187 0.52287865
0.038743395 0.066912293 0.049515598 0.32315677 0.19972187 0.52287865
0.038418204 0.067728437 0.049742274 0.32315677 0.19972187 0.52287865
0.038077779 0.068536848 0.049942989 0.32315677 0.19972187 0.52287865
0.037666626 0.069312334 0.050025962 0.32315677 0.19972187 0.52287865
0.037255533 0.070087716 0.050108813 0.32315677 0.19972187 0.52287865
0.036781996 0.070834875 0.050088361 0.32315677 0.19972187 0.52287865
0.036282964 0.07157094 0.050026007 0.32315677 0.19972187 0.52287865
0.035758294 0.072296105 0.049921725 0.32315677 0.19972187 0.52287865
0.035166748 0.072992496 0.049707968 0.32315677 0.19972187 0.52287865
0.034574531 0.073689684 0.049493849 0.32315677 0.19972187 0.52287865
0.033891942 0.0743488 0.049132492 0.32315677 0.19972187 0.52287865
0.033199005 0.075005159 0.04875543 0.32315677 0.19972187 0.52287865
0.032435007 0.075632952 0.04826365 0.32315677 0.19972187 0.52287865
0.031629436 0.076245353 0.047705747 0.32315677 0.19972187 0.52287865
0.0307594 0.076833159 0.047044795 0.32315677 0.19972187 0.52287865
0.029823368 0.077396341 0.046278801 0.32315677 0.19972187 0.52287865
0.028807266 0.07792972 0.045385431 0.32315677 0.19972187 0.52287865
0.027714301 0.078435384 0.044370499 0.32315677 0.19972187 0.52287865
0.026483549 0.078889251 0.043136057 0.32315677 0.19972187 0.52287865
0.025163425 0.079312198 0.04176132 0.32315677 0.19972187 0.52287865
0.023620812 0.079651721 0.040032372 0.32315677 0.19972187 0.52287865
0.022082223 0.079999998 0.038315441 0.32315677 0.19972187 0.52287865
0.019642662 0.079999998 0.035156235 0.32315677 0.19972187 0.52287865
0.014664508 0.079999998 0.028709216 0.32315677 0.19972187 0.52287865
0.012124537 0.079999998 0.025419613 0.32315677 0.19972187 0.52287865
0.0095496867 0.079999998 0.022084719 0.32315677 0.19972187 0.52287865
0.0069392198 0.079999998 0.018703571 0.32315677 0.19972187 0.52287865
0.0042923777 0.079999998 0.015275187 0.32315677 0.19972187 0.52287865
0.039999999 0.0059204795 0.00077851699 0.32315677 0.19972187 0.52287865
0.039999999 0.007092169 0.0017189026 0.32315677 0.19972187 0.52287865
0.039999999 0.0082595581 0.0026557075 0.32315677 0.19972187 0.52287865
0.039999999 0.0094226776 0.0035889563 0.32315677 0.19972187 0.52287865
0.039999999 0.010581556 0.0045186733 0.32315677 0.19972187 0.52287865
0.039999999 0.011736222 0.0054448824 0.32315677 0.19972187 0.52287865
0.039999999 0.012886706 0.0063676084 0.32315677 0.19972187 0.52287865
0.039999999 0.014033036 0.007286875 0.32315677 0.19972187 0.52287865
0.039999999 0.015175241 0.0082027046 0.32315677 0.19972187 0.52287865
0.039999999 0.01631335 0.0091151223 0.32315677 0.19972187 0.52287865
0.039999999 0.017447388 0.01002415 0.32315677 0.19972187 0.52287865
0.039999999 0.018577386 0.010929811 0.32315677 0.19972187 0.52287865
0.039999999 0.019703371 0.011832128 0.32315677 0.19972187 0.52287865
0.039999999 0.020825369 0.012731124 0.32315677 0.19972187 0.52287865
0.039999999 0.021943409 0.01362682 0.32315677 0.19972187 0.52287865
0.039999999 0.023057515 0.014519241 0.32315677 0.19972187 0.52287865
0.039999999 0.024167717 0.015408406 0.32315677 0.19972187 0.52287865
0.039999999 0.025274038 0.016294338 0.32315677 0.19972187 0.52287865
0.039999999 0.026376506 0.017177058 0.32315677 0.19972187 0.52287865
0.039999999 0.027475148 0.01805659 0.32315677 0.19972187 0.52287865
0.039999999 0.028569989 0.018932952 0.32315677 0.19972187 0.52287865
0.039999999 0.029661052 0.019806167 0.32315677 0.19972187 0.52287865
0.039999999 0.030748365 0.020676255 0.32315677 0.19972187 0.52287865
0.039999999 0.031831954 0.021543236 0.32315677 0.19972187 0.52287865
0.039999999 0.032911841 0.022407133 0.32315677 0.19972187 0.52287865
0.039999999 0.033988051 0.023267964 0.32315677 0.19972187 0.52287865
0.039999999 0.035060611 0.024125751 0.32315677 0.19972187 0.52287865
0.039999999 0.036129542 0.024980512 0.32315677 0.19972187 0.52287865
0.039999999 0.03719487 0.025832269 0.32315677 0.19972187 0.52287865
0.039999999 0.038256623 0.026681039 0.32315677 0.19972187 0.52287865
0.039999999 0.039314814 0.027526844 0.32315677 0.19972187 0.52287865
0.039999999 0.040369473 0.028369702 0.32315677 0.19972187 0.52287865
0.039999999 0.041420627 0.029209634 0.32315677 0.19972187 0.52287865
0.039999999 0.042468291 0.030046657 0.32315677 0.19972187 0.52287865
0.039999999 0.043512493 0.03088079 0.32315677 0.19972187 0.52287865
0.039999999 0.044553258 0.031712055 0.32315677 0.19972187 0.52287865
0.039999999 0.045590598 0.032540467 0.32315677 0.19972187 0.52287865
0.039999999 0.046624549 0.033366043 0.32315677 0.19972187 0.52287865
0.039999999 0.04765512 0.034188803 0.32315677 0.19972187 0.52287865
0.039999999 0.048682343 0.035008769 0.32315677 0.19972187 0.52287865
0.039999999 0.049706239 0.035825953 0.32315677 0.19972187 0.52287865
0.039999999 0.050726824 0.03664038 0.32315677 0.19972187 0.52287865
0.039999999 0.051744118 0.037452057 0.32315677 0.19972187 0.52287865
0.039999999 0.05275815 0.038261011 0.32315677 0.19972187 0.52287865
0.039999999 0.05376894 0.039067257 0.32315677 0.19972187 0.52287865
0.039999999 0.054776501 0.03987081 0.32315677 0.19972187 0.52287865
0.039605577 0.055580363 0.039999999 0.32315677 0.19972187 0.52287865
0.039683528 0.056622285 0.040931862 0.32315677 0.19972187 0.52287865
0.039862026 0.057710893 0.042031303 0.32315677 0.19972187 0.52287865
0.039931763 0.058740966 0.042942818 0.32315677 0.19972187 0.52287865
0.039987005 0.059760265 0.043826818 0.32315677 0.19972187 0.52287865
0.039960124 0.06073577 0.044569205 0.32315677 0.19972187 0.52287865
0.039908074 0.061696116 0.045266736 0.32315677 0.19972187 0.52287865
0.039806187 0.062629648 0.045878097 0.32315677 0.19972187 0.52287865
0.039657209 0.063538216 0.046408333 0.32315677 0.19972187 0.52287865
0.03949393 0.064437971 0.046912856 0.32315677 0.19972187 0.52287865
0.039254647 0.065299854 0.047288444 0.32315677 0.19972187 0.52287865
0.039015695 0.066160537 0.047663391 0.32315677 0.19972187 0.52287865
0.038712479 0.066989891 0.047929849 0.32315677 0.19972187 0.52287865
0.038386565 0.067807846 0.04815764 0.32315677 0.19972187 0.52287865
0.038036816 0.068614103 0.048345059 0.32315677 0.19972187 0.52287865
0.037624732 0.069391355 0.048428342 0.32315677 0.19972187 0.52287865
0.037212703 0.070168503 0.04851149 0.32315677 0.19972187 0.52287865
0.03672887 0.070913225 0.0484755 0.32315677 0.19972187 0.52287865
0.036228675 0.071651012 0.048412614 0.32315677 0.19972187 0.52287865
0.035692636 0.072373398 0.048290819 0.32315677 0.19972187 0.52287865
0.035099667 0.073071472 0.048075635 0.32315677 0.19972187 0.52287865
0.03450371 0.073769331 0.047856282 0.32315677 0.19972187 0.52287865
0.033810314 0.074426122 0.047477614 0.32315677 0.19972187 0.52287865
0.03311564 0.075084127 0.04709813 0.32315677 0.19972187 0.52287865
0.032336466 0.07570786 0.046581544 0.32315677 0.19972187 0.52287865
0.031528797 0.076321863 0.046020079 0.32315677 0.19972187 0.52287865
0.030640678 0.076904587 0.04532915 0.32315677 0.19972187 0.52287865
0.029702092 0.077469312 0.044558238 0.32315677 0.19972187 0.52287865
0.028663723 0.077996127 0.043627482 0.32315677 0.19972187 0.52287865
0.027567606 0.078503251 0.04260594 0.32315677 0.19972187 0.52287865
0.02630827 0.078948312 0.041322943 0.32315677 0.19972187 0.52287865
0.025021706 0.079387762 0.039999999 0.32315677 0.19972187 0.52287865
0.024152817 0.079999998 0.039356761 0.32315677 0.19972187 0.52287865
0.021735368 0.079999998 0.03621541 0.32315677 0.19972187 0.52287865
0.019285554 0.079999998 0.033031881 0.32315677 0.19972187 0.52287865
0.016802708 0.079999998 0.029805301 0.32315677 0.19972187 0.52287865
0.014286144 0.079999998 0.026534781 0.32315677 0.19972187 0.52287865
0.0091490196 0.079999998 0.019858209 0.32315677 0.19972187 0.52287865
0.0065269894 0.079999998 0.016450243 0.32315677 0.19972187 0.52287865
0 0.078549527 0.0068170629 0.32315677 0.19972187 0.52287865
0.0011721582 0.079999998 0.0094899498 0.32315677 0.19972187 0.52287865
0.039999999 0.0082207359 0.00085847825 0.32315677 0.19972187 0.52287865
0.039999999 0.0093866633 0.0017972143 0.32315677 0.19972187 0.52287865
0.039999999 0.010548331 0.0027323856 0.32315677 0.19972187 0.52287865
0.039999999 0.011705766 0.0036640167 0.32315677 0.19972187 0.52287865
0.039999999 0.012858998 0.0045921318 0.32315677 0.19972187 0.52287865
0.039999999 0.014008057 0.0055167554 0.32315677 0.19972187 0.52287865
0.039999999 0.015152972 0.0064379103 0.32315677 0.19972187 0.52287865
0.039999999 0.01629377 0.0073556211 0.32315677 0.19972187 0.52287865
0.039999999 0.017430481 0.0082699107 0.32315677 0.19972187 0.52287865
0.039999999 0.018563131 0.0091808029 0.32315677 0.19972187 0.52287865
0.039999999 0.019691749 0.01008832 0.32315677 0.19972187 0.52287865
0.039999999 0.020816362 0.010992485 0.32315677 0.19972187 0.52287865
0.039999999 0.021936996 0.011893322 0.32315677 0.19972187 0.52287865
0.039999999 0.023053681 0.01279085 0.32315677 0.19972187 0.52287865
0.039999999 0.024166442 0.013685095 0.32315677 0.19972187 0.52287865
0.039999999 0.025275307 0.014576077 0.32315677 0.19972187 0.52287865
0.039999999 0.026380301 0.015463817 0.32315677 0.19972187 0.52287865
0.039999999 0.027481448 0.01634834 0.32315677 0.19972187 0.52287865
0.039999999 0.028578779 0.017229663 0.32315677 0.19972187 0.52287865
0.039999999 0.029672315 0.018107811 0.32315677 0.19972187 0.52287865
0.039999999 0.030762084 0.018982803 0.32315677 0.19972187 0.52287865
0.039999999 0.03184811 0.019854661 0.32315677 0.19972187 0.52287865
0.039999999 0.032930419 0.020723406 0.32315677 0.19972187 0.52287865
0.039999999 0.034009036 0.021589058 0.32315677 0.19972187 0.52287865
0.039999999 0.035083983 0.022451637 0.32315677 0.19972187 0.52287865
0.039999999 0.036155287 0.023311164 0.32315677 0.19972187 0.52287865
0.039999999 0.037222974 0.024167659 0.32315677 0.19972187 0.52287865
0.039999999 0.038287062 0.02502114 0.32315677 0.19972187 0.52287865
0.039999999 0.039347582 0.025871631 0.32315677 0.19972187 0.52287865
0.039999999 0.040404551 0.026719147 0.32315677 0.19972187 0.52287865
0.039999999 0.041457996 0.02756371 0.32315677 0.19972187 0.52287865
0.039999999 0.042507939 0.028405339 0.32315677 0.19972187 0.52287865
0.039999999 0.043554407 0.02924405 0.32315677 0.19972187 0.52287865
0.039999999 0.044597417 0.030079868 0.32315677 0.19972187 0.52287865
0.039999999 0.045636993 0.030912807 0.32315677 0.19972187 0.52287865
0.039999999 0.04667316 0.031742886 0.32315677 0.19972187 0.52287865
0.039999999 0.047705937 0.032570127 0.32315677 0.19972187 0.52287865
0.039999999 0.04873535 0.033394545 0.32315677 0.19972187 0.52287865
0.039999999 0.049761418 0.034216158 0.32315677 0.19972187 0.52287865
0.039999999 0.050784163 0.035034984 0.32315677 0.19972187 0.52287865
0.039999999 0.051803607 0.035851043 0.32315677 0.19972187 0.52287865
0.039999999 0.052819774 0.036664352 0.32315677 0.19972187 0.52287865
0.039999999 0.05383268 0.037474927 0.32315677 0.19972187 0.52287865
0.039999999 0.054842349 0.038282789 0.32315677 0.19972187 0.52287865
0.039999999 0.0558488 0.039087951 0.32315677 0.19972187 0.52287865
0.039999999 0.056852058 0.039890431 0.32315677 0.19972187 0.52287865
0.039874908 0.057789467 0.040477231 0.32315677 0.19972187 0.52287865
0.039935891 0.058817174 0.041378431 0.32315677 0.19972187 0.52287865
0.039991248 0.059838537 0.042267106 0.32315677 0.19972187 0.52287865
0.039955992 0.060811952 0.042999316 0.32315677 0.19972187 0.52287865
0.039903834 0.061774287 0.043700535 0.32315677 0.19972187 0.52287865
0.039793689 0.062705867 0.044301521 0.32315677 0.19972187 0.52287865
0.039644398 0.063616365 0.044834543 0.32315677 0.19972187 0.52287865
0.039472762 0.064514212 0.045328233 0.32315677 0.19972187 0.52287865
0.039232962 0.065377958 0.045705765 0.32315677 0.19972187 0.52287865
0.038993493 0.066240512 0.046082653 0.32315677 0.19972187 0.52287865
0.038681414 0.067067854 0.04633671 0.32315677 0.19972187 0.52287865
0.038354781 0.067887619 0.046565626 0.32315677 0.19972187 0.52287865
0.037995663 0.06869173 0.046739597 0.32315677 0.19972187 0.52287865
0.03758264 0.069470748 0.046823185 0.32315677 0.19972187 0.52287865
0.037169673 0.070249662 0.046906635 0.32315677 0.19972187 0.52287865
0.036675494 0.070991963 0.046854928 0.32315677 0.19972187 0.52287865
0.036174122 0.071731478 0.046791501 0.32315677 0.19972187 0.52287865
0.035626665 0.07245107 0.046651997 0.32315677 0.19972187 0.52287865
0.035032257 0.073150828 0.046435371 0.32315677 0.19972187 0.52287865
0.034423411 0.073845394 0.046195656 0.32315677 0.19972187 0.52287865
0.033728279 0.074503824 0.045814555 0.32315677 0.19972187 0.52287865
0.033031862 0.075163476 0.045432623 0.32315677 0.19972187 0.52287865
0.032237429 0.075783148 0.044890948 0.32315677 0.19972187 0.52287865
0.031427648 0.076398753 0.044325896 0.32315677 0.19972187 0.52287865
0.030521343 0.076976389 0.043604638 0.32315677 0.19972187 0.52287865
0.029580185 0.077542655 0.042828768 0.32315677 0.19972187 0.52287865
0.028519416 0.078062892 0.041860178 0.32315677 0.19972187 0.52287865
0.027420131 0.078571483 0.040831968 0.32315677 0.19972187 0.52287865
0.026439371 0.079132609 0.039999999 0.32315677 0.19972187 0.52287865
0.025968965 0.079903081 0.039999999 0.32315677 0.19972187 0.52287865
0.02381376 0.079999998 0.037266914 0.32315677 0.19972187 0.52287865
0.021386214 0.079999998 0.034101453 0.32315677 0.19972187 0.52287865
0.018926062 0.079999998 0.030893344 0.32315677 0.19972187 0.52287865
0 0.073585942 0.0011095816 0.32315677 0.19972187 0.52287865
0.011343122 0.079999998 0.0210042 0.32315677 0.19972187 0.52287865
0.0087456051 0.079999998 0.017616438 0.32315677 0.19972187 0.52287865
0.0061119134 0.079999998 0.014181362 0.32315677 0.19972187 0.52287865
0.0034412718 0.079999998 0.010697962 0.32315677 0.19972187 0.52287865
0.00073288265 0.079999998 0.0071651931 0.32315677 0.19972187 0.52287865
0.039999999 0.010514944 0.00093740999 0.32315677 0.19972187 0.52287865
0.039999999 0.011675161 0.0018745045 0.32315677 0.19972187 0.52287865
0.039999999 0.012831156 0.0028080503 0.32315677 0.19972187 0.52287865
0.039999999 0.013982958 0.0037380715 0.32315677 0.19972187 0.52287865
0.039999999 0.015130595 0.0046645924 0.32315677 0.19972187 0.52287865
0.039999999 0.016274096 0.0055876374 0.32315677 0.19972187 0.52287865
0.039999999 0.017413491 0.0065072291 0.32315677 0.19972187 0.52287865
0.039999999 0.018548807 0.007423392 0.32315677 0.19972187 0.52287865
0.039999999 0.01968007 0.0083361492 0.32315677 0.19972187 0.52287865
0.039999999 0.020807311 0.0092455223 0.32315677 0.19972187 0.52287865
0.039999999 0.021930555 0.010151536 0.32315677 0.19972187 0.52287865
0.039999999 0.02304983 0.011054213 0.32315677 0.19972187 0.52287865
0.039999999 0.024165163 0.011953575 0.32315677 0.19972187 0.52287865
0.039999999 0.025276581 0.012849644 0.32315677 0.19972187 0.52287865
0.039999999 0.026384111 0.013742442 0.32315677 0.19972187 0.52287865
0.039999999 0.027487779 0.014631992 0.32315677 0.19972187 0.52287865
0.039999999 0.02858761 0.015518315 0.32315677 0.19972187 0.52287865
0.039999999 0.029683629 0.016401432 0.32315677 0.19972187 0.52287865
0.039999999 0.030775866 0.017281367 0.32315677 0.19972187 0.52287865
0.039999999 0.031864341 0.018158136 0.32315677 0.19972187 0.52287865
0.039999999 0.032949083 0.019031765 0.32315677 0.19972187 0.52287865
0.039999999 0.034030117 0.019902274 0.32315677 0.19972187 0.52287865
0.039999999 0.035107464 0.02076968 0.32315677 0.19972187 0.52287865
0.039999999 0.036181152 0.021634009 0.32315677 0.19972187 0.52287865
0.039999999 0.037251204 0.022495275 0.32315677 0.19972187 0.52287865
0.039999999 0.038317647 0.023353504 0.32315677 0.19972187 0.52287865
0.039999999 0.039380498 0.024208711 0.32315677 0.19972187 0.52287865
0.039999999 0.040439788 0.02506092 0.32315677 0.19972187 0.52287865
0.039999999 0.041495539 0.025910148 0.32315677 0.19972187 0.52287865
0.039999999 0.04254777 0.026756417 0.32315677 0.19972187 0.52287865
0.039999999 0.04359651 0.027599743 0.32315677 0.19972187 0.52287865
0.039999999 0.044641778 0.028440146 0.32315677 0.19972187 0.52287865
0.039999999 0.0456836 0.029277647 0.32315677 0.19972187 0.52287865
0.039999999 0.046721995 0.030112263 0.32315677 0.19972187 0.52287865
0.039999999 0.047756985 0.030944012 0.32315677 0.19972187 0.52287865
0.039999999 0.048788596 0.031772915 0.32315677 0.19972187 0.52287865
0.039999999 0.049816851 0.032598987 0.32315677 0.19972187 0.52287865
0.039999999 0.050841767 0.03342225 0.32315677 0.19972187 0.52287865
0.039999999 0.051863369 0.034242719 0.32315677 0.19972187 0.52287865
0.039999999 0.052881673 0.035060413 0.32315677 0.19972187 0.52287865
0.039999999 0.05389671 0.03587535 0.32315677 0.19972187 0.52287865
0.039999999 0.054908492 0.036687549 0.32315677 0.19972187 0.52287865
0.039999999 0.055917047 0.037497025 0.32315677 0.19972187 0.52287865
0.039999999 0.056922391 0.038303796 0.32315677 0.19972187 0.52287865
0.039999999 0.057924546 0.039107878 0.32315677 0.19972187 0.52287865
0.039999999 0.058923535 0.039909292 0.32315677 0.19972187 0.52287865
0.03999551 0.059917159 0.040700406 0.32315677 0.19972187 0.52287865
0.039951846 0.06088848 0.041422311 0.32315677 0.19972187 0.52287865
0.03989958 0.061852816 0.042127244 0.32315677 0.19972187 0.52287865
0.039781135 0.062782444 0.042717721 0.32315677 0.19972187 0.52287865
0.039631523 0.063694872 0.043253556 0.32315677 0.19972187 0.52287865
0.039451499 0.064590804 0.043736279 0.32315677 0.19972187 0.52287865
0.039211176 0.065456428 0.044115774 0.32315677 0.19972187 0.52287865
0.038971186 0.066320851 0.04449461 0.32315677 0.19972187 0.52287865
0.038650207 0.067146182 0.044736121 0.32315677 0.19972187 0.52287865
0.038322844 0.067967772 0.044966169 0.32315677 0.19972187 0.52287865
0.037954312 0.068769723 0.045126531 0.32315677 0.19972187 0.52287865
0.037540346 0.069550522 0.045210429 0.32315677 0.19972187 0.52287865
0.037124161 0.07033018 0.045290388 0.32315677 0.19972187 0.52287865
0.036621861 0.071071066 0.045226578 0.32315677 0.19972187 0.52287865
0.036119312 0.071812324 0.045162607 0.32315677 0.19972187 0.52287865
0.035560369 0.072529115 0.045005187 0.32315677 0.19972187 0.52287865
0.034964524 0.073230572 0.044787109 0.32315677 0.19972187 0.52287865
0.034342717 0.073921822 0.044526797 0.32315677 0.19972187 0.52287865
0.033645838 0.074581914 0.044143245 0.32315677 0.19972187 0.52287865
0.032947663 0.075243227 0.043758839 0.32315677 0.19972187 0.52287865
0.032137889 0.075858824 0.043191787 0.32315677 0.19972187 0.52287865
0.031325988 0.076476038 0.042623118 0.32315677 0.19972187 0.52287865
0.030401388 0.077048562 0.041871179 0.32315677 0.19972187 0.52287865
0.029457647 0.077616386 0.041090313 0.32315677 0.19972187 0.52287865
0.02837434 0.078130014 0.040083434 0.32315677 0.19972187 0.52287865
0.027853752 0.078878194 0.039999999 0.32315677 0.19972187 0.52287865
0.02738405 0.079647645 0.039999999 0.32315677 0.19972187 0.52287865
0.025877995 0.079999998 0.038310822 0.32315677 0.19972187 0.52287865
0.023472458 0.079999998 0.035163242 0.32315677 0.19972187 0.52287865
0.0013570571 0.072202325 0 0.32315677 0.19972187 0.52287865
0.018564159 0.079999998 0.028740477 0.32315677 0.19972187 0.52287865
0.016060051 0.079999998 0.02546352 0.32315677 0.19972187 0.52287865
0.013521708 0.079999998 0.022141628 0.32315677 0.19972187 0.52287865
0.010948409 0.079999998 0.018773858 0.32315677 0.19972187 0.52287865
0.0083394144 0.079999998 0.015359235 0.32315677 0.19972187 0.52287865
0.0056939614 0.079999998 0.011896758 0.32315677 0.19972187 0.52287865
0 0.078873903 0.0035461138 0.32315677 0.19972187 0.52287865
0.00029052058 0.079999998 0.004824101 0.32315677 0.19972187 0.52287865
0.039999999 0.011644408 7.6273893e-05 0.32315677 0.19972187 0.52287865
0.039999999 0.012803179 0.001015292 0.32315677 0.19972187 0.52287865
0.039999999 0.013957737 0.0019507529 0.32315677 0.19972187 0.52287865
0.039999999 0.01510811 0.0028826809 0.32315677 0.19972187 0.52287865
0.039999999 0.016254328 0.0038111003 0.32315677 0.19972187 0.52287865
0.039999999 0.01739642 0.0047360351 0.32315677 0.19972187 0.52287865
0.039999999 0.018534413 0.0056575085 0.32315677 0.19972187 0.52287865
0.039999999 0.019668335 0.0065755448 0.32315677 0.19972187 0.52287865
0.039999999 0.020798216 0.0074901665 0.32315677 0.19972187 0.52287865
0.039999999 0.021924082 0.0084013976 0.32315677 0.19972187 0.52287865
0.039999999 0.023045961 0.0093092602 0.32315677 0.19972187 0.52287865
0.039999999 0.024163878 0.010213778 0.32315677 0.19972187 0.52287865
0.039999999 0.025277862 0.011114973 0.32315677 0.19972187 0.52287865
0.039999999 0.026387941 0.012012867 0.32315677 0.19972187 0.52287865
0.039999999 0.027494138 0.012907483 0.32315677 0.19972187 0.52287865
0.039999999 0.028596483 0.013798842 0.32315677 0.19972187 0.52287865
0.039999999 0.029694999 0.014686966 0.32315677 0.19972187 0.52287865
0.039999999 0.030789712 0.015571878 0.32315677 0.19972187 0.52287865
0.039999999 0.031880651 0.016453598 0.32315677 0.19972187 0.52287865
0.039999999 0.032967836 0.017332148 0.32315677 0.19972187 0.52287865
0.039999999 0.034051295 0.018207548 0.32315677 0.19972187 0.52287865
0.039999999 0.035131056 0.019079819 0.32315677 0.19972187 0.52287865
0.039999999 0.036207139 0.019948982 0.32315677 0.19972187 0.52287865
0.039999999 0.037279569 0.02081506 0.32315677 0.19972187 0.52287865
0.039999999 0.038348373 0.021678068 0.32315677 0.19972187 0.52287865
0.039999999 0.039413571 0.022538031 0.32315677 0.19972187 0.52287865
0.039999999 0.040475193 0.023394965 0.32315677 0.19972187 0.52287865
0.039999999 0.041533258 0.024248892 0.32315677 0.19972187 0.52287865
0.039999999 0.042587787 0.025099833 0.32315677 0.19972187 0.52287865
0.039999999 0.043638811 0.025947805 0.32315677 0.19972187 0.52287865
0.039999999 0.044686347 0.02679283 0.32315677 0.19972187 0.52287865
0.039999999 0.045730423 0.027634924 0.32315677 0.19972187 0.52287865
0.039999999 0.046771053 0.028474107 0.32315677 0.19972187 0.52287865
0.039999999 0.047808271 0.0293104 0.32315677 0.19972187 0.52287865
0.039999999 0.048842091 0.03014382 0.32315677 0.19972187 0.52287865
0.039999999 0.049872536 0.030974384 0.32315677 0.19972187 0.52287865
0.039999999 0.050899632 0.031802114 0.32315677 0.19972187 0.52287865
0.039999999 0.051923402 0.032627027 0.32315677 0.19972187 0.52287865
0.039999999 0.052943859 0.033449139 0.32315677 0.19972187 0.52287865
0.039999999 0.053961031 0.034268469 0.32315677 0.19972187 0.52287865
0.039999999 0.05497494 0.035085034 0.32315677 0.19972187 0.52287865
0.039999999 0.055985603 0.035898857 0.32315677 0.19972187 0.52287865
0.039999999 0.056993045 0.036709946 0.32315677 0.19972187 0.52287865
0.039999999 0.057997283 0.037518326 0.32315677 0.19972187 0.52287865
0.039999999 0.058998339 0.038324013 0.32315677 0.19972187 0.52287865
0.039999999 0.059996236 0.039127022 0.32315677 0.19972187 0.52287865
0.039999999 0.060990993 0.039927375 0.32315677 0.19972187 0.52287865
