# .PCD v0.7 - Point Cloud Data file format
VERSION 0.7
FIELDS x y z vp_x vp_y vp_z
SIZE 4 4 4 4 4 4
TYPE F F F F F F
COUNT 1 1 1 1 1 1
WIDTH 729
HEIGHT 1
VIEWPOINT 0 0 0 1 0 0 0
POINTS 729
DATA ascii
0.039999999 0.04572238 0.011500184 0.32315677 0.19972187 -0.52287865
0.039999999 0.046818737 0.010547875 0.32315677 0.19972187 -0.52287865
0.039999999 0.047911298 0.0095991138 0.32315677 0.19972187 -0.52287865
0.039999999 0.049000088 0.0086538754 0.32315677 0.19972187 -0.52287865
0.039999999 0.050085131 0.007712137 0.32315677 0.19972187 -0.52287865
0.039999999 0.05116646 0.0067738751 0.32315677 0.19972187 -0.52287865
0.039999999 0.05224409 0.0058390656 0.32315677 0.19972187 -0.52287865
0.039999999 0.053318053 0.0049076867 0.32315677 0.19972187 -0.52287865
0.039999999 0.054388374 0.0039797141 0.32315677 0.19972187 -0.52287865
0.039999999 0.055455074 0.0030551266 0.32315677 0.19972187 -0.52287865
0.039999999 0.056518178 0.0021339008 0.32315677 0.19972187 -0.52287865
0.039999999 0.057577711 0.0012160146 0.32315677 0.19972187 -0.52287865
0.039999999 0.0586337 0.00030144607 0.32315677 0.19972187 -0.52287865
0.039669372 0.059522655 0 0.32315677 0.19972187 -0.52287865
0.039175652 0.060330503 0 0.32315677 0.19972187 -0.52287865
0.038681988 0.061138548 0 0.32315677 0.19972187 -0.52287865
0.038188376 0.061946787 0 0.32315677 0.19972187 -0.52287865
0.037694812 0.062755227 0 0.32315677 0.19972187 -0.52287865
0.0372013 0.063563876 0 0.32315677 0.19972187 -0.52287865
0.036707833 0.064372726 0 0.32315677 0.19972187 -0.52287865
0.036214411 0.065181792 0 0.32315677 0.19972187 -0.52287865
0.03572103 0.065991066 0 0.32315677 0.19972187 -0.52287865
0.03522769 0.066800565 0 0.32315677 0.19972187 -0.52287865
0.034734387 0.067610286 0 0.32315677 0.19972187 -0.52287865
0.034241121 0.068420231 0 0.32315677 0.19972187 -0.52287865
0.033747885 0.0692304 0 0.32315677 0.19972187 -0.52287865
0.033254683 0.070040807 0 0.32315677 0.19972187 -0.52287865
0.03276151 0.070851453 0 0.32315677 0.19972187 -0.52287865
0.032268364 0.071662337 0 0.32315677 0.19972187 -0.52287865
0.03177524 0.072473466 0 0.32315677 0.19972187 -0.52287865
0.031282142 0.073284842 0 0.32315677 0.19972187 -0.52287865
0.030789064 0.074096464 0 0.32315677 0.19972187 -0.52287865
0.030296003 0.074908346 0 0.32315677 0.19972187 -0.52287865
0.029802959 0.075720489 0 0.32315677 0.19972187 -0.52287865
0.029309928 0.076532893 0 0.32315677 0.19972187 -0.52287865
0.02881691 0.077345558 0 0.32315677 0.19972187 -0.52287865
0.028323902 0.078158498 0 0.32315677 0.19972187 -0.52287865
0.027830901 0.078971706 0 0.32315677 0.19972187 -0.52287865
0.027337903 0.079785191 0 0.32315677 0.19972187 -0.52287865
0.025355024 0.079999998 0.0026290871 0.32315677 0.19972187 -0.52287865
0.02280705 0.079999998 0.0062449663 0.32315677 0.19972187 -0.52287865
0.020223025 0.079999998 0.0099122562 0.32315677 0.19972187 -0.52287865
0.017602162 0.079999998 0.013632076 0.32315677 0.19972187 -0.52287865
0.014943657 0.079999998 0.017405581 0.32315677 0.19972187 -0.52287865
0.012246673 0.079999998 0.021233955 0.32315677 0.19972187 -0.52287865
0.0095103532 0.079999998 0.025118425 0.32315677 0.19972187 -0.52287865
0.0067338161 0.079999998 0.029060246 0.32315677 0.19972187 -0.52287865
0.0039161509 0.079999998 0.033060718 0.32315677 0.19972187 -0.52287865
0.0010564206 0.079999998 0.03712118 0.32315677 0.19972187 -0.52287865
0.039999999 0.010961822 0.039836522 0.32315677 0.19972187 -0.52287865
0.039999999 0.01218227 0.038772088 0.32315677 0.19972187 -0.52287865
0.039999999 0.013398048 0.037711985 0.32315677 0.19972187 -0.52287865
0.039999999 0.014609192 0.036656182 0.32315677 0.19972187 -0.52287865
0.039999999 0.015815731 0.035604648 0.32315677 0.19972187 -0.52287865
0.039999999 0.017017702 0.03455735 0.32315677 0.19972187 -0.52287865
0.039999999 0.018215135 0.033514261 0.32315677 0.19972187 -0.52287865
0.039999999 0.019408064 0.032475352 0.32315677 0.19972187 -0.52287865
0.039999999 0.020596521 0.031440593 0.32315677 0.19972187 -0.52287865
0.039999999 0.021780537 0.030409953 0.32315677 0.19972187 -0.52287865
0.039999999 0.022960145 0.029383402 0.32315677 0.19972187 -0.52287865
0.039999999 0.024135377 0.028360916 0.32315677 0.19972187 -0.52287865
0.039999999 0.025306262 0.027342463 0.32315677 0.19972187 -0.52287865
0.039999999 0.026472831 0.026328016 0.32315677 0.19972187 -0.52287865
0.039999999 0.027635116 0.025317546 0.32315677 0.19972187 -0.52287865
0.039999999 0.028793147 0.024311027 0.32315677 0.19972187 -0.52287865
0.039999999 0.029946953 0.02330843 0.32315677 0.19972187 -0.52287865
0.039999999 0.031096565 0.022309728 0.32315677 0.19972187 -0.52287865
0.039999999 0.032242011 0.021314895 0.32315677 0.19972187 -0.52287865
0.039999999 0.033383321 0.020323904 0.32315677 0.19972187 -0.52287865
0.039999999 0.034520525 0.019336728 0.32315677 0.19972187 -0.52287865
0.039999999 0.035653647 0.018353341 0.32315677 0.19972187 -0.52287865
0.039999999 0.036782723 0.017373716 0.32315677 0.19972187 -0.52287865
0.039999999 0.037907775 0.01639783 0.32315677 0.19972187 -0.52287865
0.039999999 0.039028835 0.015425655 0.32315677 0.19972187 -0.52287865
0.039999999 0.040145926 0.014457166 0.32315677 0.19972187 -0.52287865
0.039999999 0.041259076 0.013492339 0.32315677 0.19972187 -0.52287865
0.039999999 0.042368319 0.012531148 0.32315677 0.19972187 -0.52287865
0.039999999 0.043473676 0.01157357 0.32315677 0.19972187 -0.52287865
0.039999999 0.044575173 0.010619578 0.32315677 0.19972187 -0.52287865
0.039999999 0.045672841 0.0096691493 0.32315677 0.19972187 -0.52287865
0.039999999 0.046766702 0.0087222597 0.32315677 0.19972187 -0.52287865
0.039999999 0.047856785 0.0077788848 0.32315677 0.19972187 -0.52287865
0.039999999 0.048943114 0.006839002 0.32315677 0.19972187 -0.52287865
0.039999999 0.050025713 0.0059025874 0.32315677 0.19972187 -0.52287865
0.039999999 0.051104613 0.0049696174 0.32315677 0.19972187 -0.52287865
0.039999999 0.052179836 0.0040400699 0.32315677 0.19972187 -0.52287865
0.039999999 0.053251404 0.0031139213 0.32315677 0.19972187 -0.52287865
0.039999999 0.054319344 0.0021911494 0.32315677 0.19972187 -0.52287865
0.039999999 0.055383686 0.0012717315 0.32315677 0.19972187 -0.52287865
0.039999999 0.056444444 0.00035564543 0.32315677 0.19972187 -0.52287865
0.039697971 0.05734995 0 0.32315677 0.19972187 -0.52287865
0.039203539 0.058158252 0 0.32315677 0.19972187 -0.52287865
0.038709167 0.058966741 0 0.32315677 0.19972187 -0.52287865
0.038214847 0.059775416 0 0.32315677 0.19972187 -0.52287865
0.03772058 0.060584284 0 0.32315677 0.19972187 -0.52287865
0.037226364 0.06139335 0 0.32315677 0.19972187 -0.52287865
0.036732197 0.062202614 0 0.32315677 0.19972187 -0.52287865
0.036238078 0.063012078 0 0.32315677 0.19972187 -0.52287865
0.035744 0.063821755 0 0.32315677 0.19972187 -0.52287865
0.035249963 0.064631641 0 0.32315677 0.19972187 -0.52287865
0.034755968 0.065441735 0 0.32315677 0.19972187 -0.52287865
0.034262013 0.066252053 0 0.32315677 0.19972187 -0.52287865
0.033768088 0.067062587 0 0.32315677 0.19972187 -0.52287865
0.0332742 0.067873351 0 0.32315677 0.19972187 -0.52287865
0.032780342 0.06868434 0 0.32315677 0.19972187 -0.52287865
0.032286514 0.069495559 0 0.32315677 0.19972187 -0.52287865
0.031792711 0.070307016 0 0.32315677 0.19972187 -0.52287865
0.031298935 0.07111872 0 0.32315677 0.19972187 -0.52287865
0.03080518 0.071930654 0 0.32315677 0.19972187 -0.52287865
0.030311445 0.072742842 0 0.32315677 0.19972187 -0.52287865
0.029817728 0.073555283 0 0.32315677 0.19972187 -0.52287865
0.029324029 0.07436797 0 0.32315677 0.19972187 -0.52287865
0.028830342 0.075180925 0 0.32315677 0.19972187 -0.52287865
0.028336667 0.075994134 0 0.32315677 0.19972187 -0.52287865
0.027843 0.076807611 0 0.32315677 0.19972187 -0.52287865
0.027349342 0.077621356 0 0.32315677 0.19972187 -0.52287865
0.026855689 0.078435369 0 0.32315677 0.19972187 -0.52287865
0.026362039 0.079249665 0 0.32315677 0.19972187 -0.52287865
0.025708789 0.079999998 0.00028070729 0.32315677 0.19972187 -0.52287865
0.023172008 0.079999998 0.0038677971 0.32315677 0.19972187 -0.52287865
0.020599458 0.079999998 0.0075057074 0.32315677 0.19972187 -0.52287865
0.017990366 0.079999998 0.011195542 0.32315677 0.19972187 -0.52287865
0.015343928 0.079999998 0.014938438 0.32315677 0.19972187 -0.52287865
0.012659322 0.079999998 0.018735563 0.32315677 0.19972187 -0.52287865
0.0099357031 0.079999998 0.022588124 0.32315677 0.19972187 -0.52287865
0.0071721957 0.079999998 0.026497358 0.32315677 0.19972187 -0.52287865
0.0043679019 0.079999998 0.030464545 0.32315677 0.19972187 -0.52287865
0.0015218954 0.079999998 0.034490999 0.32315677 0.19972187 -0.52287865
0.039999999 0.0085472288 0.039966058 0.32315677 0.19972187 -0.52287865
0.039999999 0.009773979 0.038899414 0.32315677 0.19972187 -0.52287865
0.039999999 0.010996016 0.037837125 0.32315677 0.19972187 -0.52287865
0.039999999 0.012213372 0.036779154 0.32315677 0.19972187 -0.52287865
0.039999999 0.013426081 0.035725471 0.32315677 0.19972187 -0.52287865
0.039999999 0.014634177 0.034676049 0.32315677 0.19972187 -0.52287865
0.039999999 0.015837694 0.033630855 0.32315677 0.19972187 -0.52287865
0.039999999 0.017036663 0.03258986 0.32315677 0.19972187 -0.52287865
0.039999999 0.01823112 0.031553034 0.32315677 0.19972187 -0.52287865
0.039999999 0.019421093 0.030520346 0.32315677 0.19972187 -0.52287865
0.039999999 0.020606617 0.029491771 0.32315677 0.19972187 -0.52287865
0.039999999 0.021787722 0.028467277 0.32315677 0.19972187 -0.52287865
0.039999999 0.02296444 0.027446834 0.32315677 0.19972187 -0.52287865
0.039999999 0.024136802 0.026430419 0.32315677 0.19972187 -0.52287865
0.039999999 0.025304841 0.025417998 0.32315677 0.19972187 -0.52287865
0.039999999 0.026468584 0.024409546 0.32315677 0.19972187 -0.52287865
0.039999999 0.027628064 0.023405036 0.32315677 0.19972187 -0.52287865
0.039999999 0.028783308 0.022404438 0.32315677 0.19972187 -0.52287865
0.039999999 0.02993435 0.021407727 0.32315677 0.19972187 -0.52287865
0.039999999 0.031081216 0.020414876 0.32315677 0.19972187 -0.52287865
0.039999999 0.032223936 0.019425856 0.32315677 0.19972187 -0.52287865
0.039999999 0.033362541 0.018440643 0.32315677 0.19972187 -0.52287865
0.039999999 0.03449706 0.017459212 0.32315677 0.19972187 -0.52287865
0.039999999 0.035627518 0.016481536 0.32315677 0.19972187 -0.52287865
0.039999999 0.036753945 0.015507585 0.32315677 0.19972187 -0.52287865
0.039999999 0.037876368 0.01453734 0.32315677 0.19972187 -0.52287865
0.039999999 0.038994815 0.013570772 0.32315677 0.19972187 -0.52287865
0.039999999 0.040109318 0.012607857 0.32315677 0.19972187 -0.52287865
0.039999999 0.041219898 0.011648569 0.32315677 0.19972187 -0.52287865
0.039999999 0.042326581 0.010692885 0.32315677 0.19972187 -0.52287865
0.039999999 0.043429401 0.0097407801 0.32315677 0.19972187 -0.52287865
0.039999999 0.04452838 0.0087922299 0.32315677 0.19972187 -0.52287865
0.039999999 0.045623548 0.0078472113 0.32315677 0.19972187 -0.52287865
0.039999999 0.046714924 0.0069056987 0.32315677 0.19972187 -0.52287865
0.039999999 0.047802541 0.0059676697 0.32315677 0.19972187 -0.52287865
0.039999999 0.048886422 0.005033101 0.32315677 0.19972187 -0.52287865
0.039999999 0.049966589 0.0041019693 0.32315677 0.19972187 -0.52287865
0.039999999 0.051043071 0.0031742519 0.32315677 0.19972187 -0.52287865
0.039999999 0.052115895 0.0022499254 0.32315677 0.19972187 -0.52287865
0.039999999 0.053185083 0.0013289676 0.32315677 0.19972187 -0.52287865
0.039999999 0.054250658 0.00041135619 0.32315677 0.19972187 -0.52287865
0.039727382 0.055173613 0 0.32315677 0.19972187 -0.52287865
0.039232239 0.055982385 0 0.32315677 0.19972187 -0.52287865
0.038737155 0.056791335 0 0.32315677 0.19972187 -0.52287865
0.038242128 0.057600468 0 0.32315677 0.19972187 -0.52287865
0.037747156 0.058409784 0 0.32315677 0.19972187 -0.52287865
0.037252236 0.059219286 0 0.32315677 0.19972187 -0.52287865
0.036757365 0.060028981 0 0.32315677 0.19972187 -0.52287865
0.036262546 0.060838871 0 0.32315677 0.19972187 -0.52287865
0.035767771 0.061648957 0 0.32315677 0.19972187 -0.52287865
0.035273038 0.062459249 0 0.32315677 0.19972187 -0.52287865
0.034778349 0.063269742 0 0.32315677 0.19972187 -0.52287865
0.034283701 0.064080447 0 0.32315677 0.19972187 -0.52287865
0.033789091 0.064891368 0 0.32315677 0.19972187 -0.52287865
0.033294514 0.065702505 0 0.32315677 0.19972187 -0.52287865
0.03279997 0.066513859 0 0.32315677 0.19972187 -0.52287865
0.03230546 0.067325436 0 0.32315677 0.19972187 -0.52287865
0.031810977 0.068137243 0 0.32315677 0.19972187 -0.52287865
0.031316519 0.068949282 0 0.32315677 0.19972187 -0.52287865
0.030822089 0.069761559 0 0.32315677 0.19972187 -0.52287865
0.03032768 0.070574068 0 0.32315677 0.19972187 -0.52287865
0.029833289 0.071386822 0 0.32315677 0.19972187 -0.52287865
0.029338919 0.072199829 0 0.32315677 0.19972187 -0.52287865
0.028844561 0.073013075 0 0.32315677 0.19972187 -0.52287865
0.028350221 0.073826581 0 0.32315677 0.19972187 -0.52287865
0.02785589 0.074640341 0 0.32315677 0.19972187 -0.52287865
0.027361568 0.075454362 0 0.32315677 0.19972187 -0.52287865
0.026867254 0.076268643 0 0.32315677 0.19972187 -0.52287865
0.026372945 0.0770832 0 0.32315677 0.19972187 -0.52287865
0.025878638 0.077898026 0 0.32315677 0.19972187 -0.52287865
0.025384331 0.078713126 0 0.32315677 0.19972187 -0.52287865
0.024890024 0.079528503 0 0.32315677 0.19972187 -0.52287865
0.023534382 0.079999998 0.0015074639 0.32315677 0.19972187 -0.52287865
0.020973209 0.079999998 0.0051163184 0.32315677 0.19972187 -0.52287865
0.01837578 0.079999998 0.0087765008 0.32315677 0.19972187 -0.52287865
0.015741305 0.079999998 0.012489129 0.32315677 0.19972187 -0.52287865
0.013068969 0.079999998 0.016255356 0.32315677 0.19972187 -0.52287865
0.010357935 0.079999998 0.020076368 0.32315677 0.19972187 -0.52287865
0.0076073399 0.079999998 0.023953384 0.32315677 0.19972187 -0.52287865
0.0048162951 0.079999998 0.027887665 0.32315677 0.19972187 -0.52287865
0.0019838859 0.079999998 0.031880505 0.32315677 0.19972187 -0.52287865
0.039999999 0.0073591145 0.039028637 0.32315677 0.19972187 -0.52287865
0.039999999 0.0085874666 0.037964143 0.32315677 0.19972187 -0.52287865
0.039999999 0.009811094 0.036903992 0.32315677 0.19972187 -0.52287865
0.039999999 0.01103003 0.035848152 0.32315677 0.19972187 -0.52287865
0.039999999 0.01224431 0.034796588 0.32315677 0.19972187 -0.52287865
0.039999999 0.013453967 0.033749279 0.32315677 0.19972187 -0.52287865
0.039999999 0.014659034 0.032706182 0.32315677 0.19972187 -0.52287865
0.039999999 0.015859544 0.031667281 0.32315677 0.19972187 -0.52287865
0.039999999 0.01705553 0.030632535 0.32315677 0.19972187 -0.52287865
0.039999999 0.018247023 0.029601922 0.32315677 0.19972187 -0.52287865
0.039999999 0.019434055 0.028575409 0.32315677 0.19972187 -0.52287865
0.039999999 0.020616662 0.027552968 0.32315677 0.19972187 -0.52287865
0.039999999 0.02179487 0.02653457 0.32315677 0.19972187 -0.52287865
0.039999999 0.022968713 0.025520187 0.32315677 0.19972187 -0.52287865
0.039999999 0.024138222 0.024509791 0.32315677 0.19972187 -0.52287865
0.039999999 0.025303427 0.023503356 0.32315677 0.19972187 -0.52287865
0.039999999 0.026464358 0.022500852 0.32315677 0.19972187 -0.52287865
0.039999999 0.027621046 0.021502253 0.32315677 0.19972187 -0.52287865
0.039999999 0.02877352 0.020507529 0.32315677 0.19972187 -0.52287865
0.039999999 0.029921809 0.019516658 0.32315677 0.19972187 -0.52287865
0.039999999 0.031065945 0.018529611 0.32315677 0.19972187 -0.52287865
0.039999999 0.032205954 0.017546361 0.32315677 0.19972187 -0.52287865
0.039999999 0.033341866 0.016566882 0.32315677 0.19972187 -0.52287865
0.039999999 0.034473713 0.015591149 0.32315677 0.19972187 -0.52287865
0.039999999 0.035601515 0.014619136 0.32315677 0.19972187 -0.52287865
0.039999999 0.036725309 0.013650818 0.32315677 0.19972187 -0.52287865
0.039999999 0.037845116 0.012686169 0.32315677 0.19972187 -0.52287865
0.039999999 0.038960967 0.011725164 0.32315677 0.19972187 -0.52287865
0.039999999 0.040072888 0.010767778 0.32315677 0.19972187 -0.52287865
0.039999999 0.041180909 0.0098139886 0.32315677 0.19972187 -0.52287865
0.039999999 0.042285055 0.0088637685 0.32315677 0.19972187 -0.52287865
0.039999999 0.043385349 0.0079170959 0.32315677 0.19972187 -0.52287865
0.039999999 0.044481821 0.0069739455 0.32315677 0.19972187 -0.52287865
0.039999999 0.045574497 0.0060342937 0.32315677 0.19972187 -0.52287865
0.039999999 0.046663404 0.0050981175 0.32315677 0.19972187 -0.52287865
0.039999999 0.047748566 0.0041653938 0.32315677 0.19972187 -0.52287865
0.039999999 0.048830006 0.0032360984 0.32315677 0.19972187 -0.52287865
0.039999999 0.049907755 0.0023102092 0.32315677 0.19972187 -0.52287865
0.039999999 0.050981835 0.0013877035 0.32315677 0.19972187 -0.52287865
0.039999999 0.052052267 0.00046855854 0.32315677 0.19972187 -0.52287865
0.039757591 0.052993577 0 0.32315677 0.19972187 -0.52287865
0.039261736 0.053802844 0 0.32315677 0.19972187 -0.52287865
0.038765937 0.054612279 0 0.32315677 0.19972187 -0.52287865
0.038270202 0.055421885 0 0.32315677 0.19972187 -0.52287865
0.037774522 0.056231666 0 0.32315677 0.19972187 -0.52287865
0.037278898 0.057041626 0 0.32315677 0.19972187 -0.52287865
0.036783326 0.057851773 0 0.32315677 0.19972187 -0.52287865
0.036287803 0.058662105 0 0.32315677 0.19972187 -0.52287865
0.035792332 0.059472628 0 0.32315677 0.19972187 -0.52287865
0.035296902 0.060283344 0 0.32315677 0.19972187 -0.52287865
0.03480152 0.061094258 0 0.32315677 0.19972187 -0.52287865
0.03430618 0.061905373 0 0.32315677 0.19972187 -0.52287865
0.033810876 0.062716693 0 0.32315677 0.19972187 -0.52287865
0.033315614 0.063528217 0 0.32315677 0.19972187 -0.52287865
0.032820385 0.064339958 0 0.32315677 0.19972187 -0.52287865
0.03232519 0.065151915 0 0.32315677 0.19972187 -0.52287865
0.031830024 0.065964095 0 0.32315677 0.19972187 -0.52287865
0.031334888 0.066776492 0 0.32315677 0.19972187 -0.52287865
0.030839778 0.067589119 0 0.32315677 0.19972187 -0.52287865
0.030344693 0.068401977 0 0.32315677 0.19972187 -0.52287865
0.02984963 0.069215067 0 0.32315677 0.19972187 -0.52287865
0.029354585 0.070028394 0 0.32315677 0.19972187 -0.52287865
0.028859561 0.070841968 0 0.32315677 0.19972187 -0.52287865
0.02836455 0.07165578 0 0.32315677 0.19972187 -0.52287865
0.027869554 0.072469845 0 0.32315677 0.19972187 -0.52287865
0.027374569 0.073284157 0 0.32315677 0.19972187 -0.52287865
0.026879594 0.074098736 0 0.32315677 0.19972187 -0.52287865
0.026384624 0.074913569 0 0.32315677 0.19972187 -0.52287865
0.025889659 0.075728662 0 0.32315677 0.19972187 -0.52287865
0.025394699 0.076544024 0 0.32315677 0.19972187 -0.52287865
0.024899736 0.077359661 0 0.32315677 0.19972187 -0.52287865
0.024404773 0.078175567 0 0.32315677 0.19972187 -0.52287865
0.023909805 0.078991756 0 0.32315677 0.19972187 -0.52287865
0.023414832 0.079808228 0 0.32315677 0.19972187 -0.52287865
0.021344306 0.079999998 0.0027438949 0.32315677 0.19972187 -0.52287865
0 0.07262218 0.038989805 0.32315677 0.19972187 -0.52287865
0.016135823 0.079999998 0.010057448 0.32315677 0.19972187 -0.52287865
0.013475647 0.079999998 0.013793122 0.32315677 0.19972187 -0.52287865
0.010777086 0.079999998 0.01758294 0.32315677 0.19972187 -0.52287865
0.0080392864 0.079999998 0.021428104 0.32315677 0.19972187 -0.52287865
0.0052613704 0.079999998 0.025329854 0.32315677 0.19972187 -0.52287865
0.002442433 0.079999998 0.029289467 0.32315677 0.19972187 -0.52287865
0.039999999 0.0049375887 0.03915973 0.32315677 0.19972187 -0.52287865
0.039999999 0.0061723161 0.038093023 0.32315677 0.19972187 -0.52287865
0.039999999 0.0074022729 0.037030682 0.32315677 0.19972187 -0.52287865
0.039999999 0.0086274948 0.035972666 0.32315677 0.19972187 -0.52287865
0.039999999 0.0098480154 0.034918956 0.32315677 0.19972187 -0.52287865
0.039999999 0.011063869 0.033869512 0.32315677 0.19972187 -0.52287865
0.039999999 0.01227509 0.032824308 0.32315677 0.19972187 -0.52287865
0.039999999 0.013481709 0.031783316 0.32315677 0.19972187 -0.52287865
0.039999999 0.014683763 0.030746501 0.32315677 0.19972187 -0.52287865
0.039999999 0.015881281 0.029713837 0.32315677 0.19972187 -0.52287865
0.039999999 0.017074298 0.028685292 0.32315677 0.19972187 -0.52287865
0.039999999 0.018262845 0.027660839 0.32315677 0.19972187 -0.52287865
0.039999999 0.019446952 0.026640451 0.32315677 0.19972187 -0.52287865
0.039999999 0.020626655 0.025624095 0.32315677 0.19972187 -0.52287865
0.039999999 0.021801982 0.024611745 0.32315677 0.19972187 -0.52287865
0.039999999 0.022972964 0.023603374 0.32315677 0.19972187 -0.52287865
0.039999999 0.024139633 0.022598952 0.32315677 0.19972187 -0.52287865
0.039999999 0.025302021 0.021598453 0.32315677 0.19972187 -0.52287865
0.039999999 0.026460154 0.02060185 0.32315677 0.19972187 -0.52287865
0.039999999 0.027614063 0.019609114 0.32315677 0.19972187 -0.52287865
0.039999999 0.02876378 0.018620221 0.32315677 0.19972187 -0.52287865
0.039999999 0.029909333 0.017635142 0.32315677 0.19972187 -0.52287865
0.039999999 0.031050751 0.016653854 0.32315677 0.19972187 -0.52287865
0.039999999 0.032188062 0.015676327 0.32315677 0.19972187 -0.52287865
0.039999999 0.033321299 0.014702537 0.32315677 0.19972187 -0.52287865
0.039999999 0.034450483 0.013732459 0.32315677 0.19972187 -0.52287865
0.039999999 0.035575647 0.012766067 0.32315677 0.19972187 -0.52287865
0.039999999 0.036696818 0.011803335 0.32315677 0.19972187 -0.52287865
0.039999999 0.037814021 0.010844239 0.32315677 0.19972187 -0.52287865
0.039999999 0.038927291 0.0098887542 0.32315677 0.19972187 -0.52287865
0.039999999 0.040036645 0.0089368559 0.32315677 0.19972187 -0.52287865
0.039999999 0.041142117 0.00798852 0.32315677 0.19972187 -0.52287865
0.039999999 0.04224373 0.007043723 0.32315677 0.19972187 -0.52287865
0.039999999 0.043341514 0.0061024399 0.32315677 0.19972187 -0.52287865
0.039999999 0.04443549 0.0051646475 0.32315677 0.19972187 -0.52287865
0.039999999 0.045525692 0.0042303223 0.32315677 0.19972187 -0.52287865
0.039999999 0.046612136 0.0032994414 0.32315677 0.19972187 -0.52287865
0.039999999 0.047694854 0.0023719813 0.32315677 0.19972187 -0.52287865
0.039999999 0.04877387 0.0014479193 0.32315677 0.19972187 -0.52287865
0.039999999 0.049849208 0.00052723283 0.32315677 0.19972187 -0.52287865
0.039788589 0.050809797 0 0.32315677 0.19972187 -0.52287865
0.039292015 0.051619574 0 0.32315677 0.19972187 -0.52287865
0.038795508 0.052429512 0 0.32315677 0.19972187 -0.52287865
0.038299061 0.05323961 0 0.32315677 0.19972187 -0.52287865
0.037802674 0.054049879 0 0.32315677 0.19972187 -0.52287865
0.037306342 0.05486032 0 0.32315677 0.19972187 -0.52287865
0.036810067 0.055670936 0 0.32315677 0.19972187 -0.52287865
0.036313843 0.05648173 0 0.32315677 0.19972187 -0.52287865
0.035817672 0.057292704 0 0.32315677 0.19972187 -0.52287865
0.035321545 0.058103867 0 0.32315677 0.19972187 -0.52287865
0.034825467 0.058915216 0 0.32315677 0.19972187 -0.52287865
0.034329433 0.059726764 0 0.32315677 0.19972187 -0.52287865
0.03383344 0.060538504 0 0.32315677 0.19972187 -0.52287865
0.033337485 0.061350446 0 0.32315677 0.19972187 -0.52287865
0.032841571 0.062162589 0 0.32315677 0.19972187 -0.52287865
0.03234569 0.062974945 0 0.32315677 0.19972187 -0.52287865
0.031849843 0.063787505 0 0.32315677 0.19972187 -0.52287865
0.031354025 0.064600289 0 0.32315677 0.19972187 -0.52287865
0.030858235 0.065413289 0 0.32315677 0.19972187 -0.52287865
0.030362474 0.066226505 0 0.32315677 0.19972187 -0.52287865
0.029866736 0.067039952 0 0.32315677 0.19972187 -0.52287865
0.029371019 0.06785363 0 0.32315677 0.19972187 -0.52287865
0.028875325 0.068667538 0 0.32315677 0.19972187 -0.52287865
0.028379645 0.069481686 0 0.32315677 0.19972187 -0.52287865
0.027883984 0.070296071 0 0.32315677 0.19972187 -0.52287865
0.027388334 0.071110703 0 0.32315677 0.19972187 -0.52287865
0.026892696 0.071925581 0 0.32315677 0.19972187 -0.52287865
0.026397066 0.072740711 0 0.32315677 0.19972187 -0.52287865
0.025901442 0.073556095 0 0.32315677 0.19972187 -0.52287865
0.025405824 0.07437174 0 0.32315677 0.19972187 -0.52287865
0.024910208 0.075187653 0 0.32315677 0.19972187 -0.52287865
0.024414593 0.076003827 0 0.32315677 0.19972187 -0.52287865
0.023918975 0.076820269 0 0.32315677 0.19972187 -0.52287865
0.023423353 0.077636987 0 0.32315677 0.19972187 -0.52287865
0.022927724 0.078453988 0 0.32315677 0.19972187 -0.52287865
0.022432087 0.079271264 0 0.32315677 0.19972187 -0.52287865
0 0.071376525 0.038078755 0.32315677 0.19972187 -0.52287865
0.019138377 0.079999998 0.0039900974 0.32315677 0.19972187 -0.52287865
0.016527513 0.079999998 0.0076431953 0.32315677 0.19972187 -0.52287865
0.01387939 0.079999998 0.011348656 0.32315677 0.19972187 -0.52287865
0.011193192 0.079999998 0.01510763 0.32315677 0.19972187 -0.52287865
0.0084680729 0.079999998 0.018921303 0.32315677 0.19972187 -0.52287865
0.0057031657 0.079999998 0.022790892 0.32315677 0.19972187 -0.52287865
0 0.078916803 0.031690184 0.32315677 0.19972187 -0.52287865
5.0386683e-05 0.079999998 0.030702887 0.32315677 0.19972187 -0.52287865
0.039999999 0.0025093157 0.039292686 0.32315677 0.19972187 -0.52287865
0.039999999 0.0037504768 0.038223751 0.32315677 0.19972187 -0.52287865
0.039999999 0.0049868226 0.037159201 0.32315677 0.19972187 -0.52287865
0.039999999 0.0062183877 0.036099002 0.32315677 0.19972187 -0.52287865
0.039999999 0.0074452073 0.035043128 0.32315677 0.19972187 -0.52287865
0.039999999 0.0086673154 0.033991542 0.32315677 0.19972187 -0.52287865
0.039999999 0.0098847458 0.032944217 0.32315677 0.19972187 -0.52287865
0.039999999 0.011097533 0.031901121 0.32315677 0.19972187 -0.52287865
0.039999999 0.01230571 0.030862223 0.32315677 0.19972187 -0.52287865
0.039999999 0.013509308 0.029827496 0.32315677 0.19972187 -0.52287865
0.039999999 0.014708363 0.028796911 0.32315677 0.19972187 -0.52287865
0.039999999 0.015902907 0.027770435 0.32315677 0.19972187 -0.52287865
0.039999999 0.017092969 0.026748043 0.32315677 0.19972187 -0.52287865
0.039999999 0.018278584 0.025729703 0.32315677 0.19972187 -0.52287865
0.039999999 0.019459782 0.024715386 0.32315677 0.19972187 -0.52287865
0.039999999 0.020636598 0.023705069 0.32315677 0.19972187 -0.52287865
0.039999999 0.021809056 0.022698719 0.32315677 0.19972187 -0.52287865
0.039999999 0.022977194 0.02169631 0.32315677 0.19972187 -0.52287865
0.039999999 0.024141038 0.020697815 0.32315677 0.19972187 -0.52287865
0.039999999 0.02530062 0.019703206 0.32315677 0.19972187 -0.52287865
0.039999999 0.02645597 0.018712457 0.32315677 0.19972187 -0.52287865
0.039999999 0.027607117 0.01772554 0.32315677 0.19972187 -0.52287865
0.039999999 0.028754091 0.016742431 0.32315677 0.19972187 -0.52287865
0.039999999 0.029896919 0.0157631 0.32315677 0.19972187 -0.52287865
0.039999999 0.031035634 0.014787523 0.32315677 0.19972187 -0.52287865
0.039999999 0.032170262 0.013815675 0.32315677 0.19972187 -0.52287865
0.039999999 0.033300828 0.01284753 0.32315677 0.19972187 -0.52287865
0.039999999 0.034427367 0.011883061 0.32315677 0.19972187 -0.52287865
0.039999999 0.035549905 0.010922246 0.32315677 0.19972187 -0.52287865
0.039999999 0.036668468 0.0099650575 0.32315677 0.19972187 -0.52287865
0.039999999 0.037783083 0.0090114716 0.32315677 0.19972187 -0.52287865
0.039999999 0.038893778 0.0080614649 0.32315677 0.19972187 -0.52287865
0.039999999 0.04000058 0.0071150111 0.32315677 0.19972187 -0.52287865
0.039999999 0.041103516 0.006172088 0.32315677 0.19972187 -0.52287865
0.039999999 0.042202614 0.0052326708 0.32315677 0.19972187 -0.52287865
0.039999999 0.043297894 0.0042967363 0.32315677 0.19972187 -0.52287865
0.039999999 0.044389389 0.003364261 0.32315677 0.19972187 -0.52287865
0.039999999 0.045477122 0.0024352218 0.32315677 0.19972187 -0.52287865
0.039999999 0.046561122 0.0015095954 0.32315677 0.19972187 -0.52287865
0.039999999 0.047641408 0.00058735925 0.32315677 0.19972187 -0.52287865
0.039820362 0.04862221 0 0.32315677 0.19972187 -0.52287865
0.039323073 0.049432516 0 0.32315677 0.19972187 -0.52287865
0.038825851 0.050242979 0 0.32315677 0.19972187 -0.52287865
0.038328692 0.051053595 0 0.32315677 0.19972187 -0.52287865
0.037831597 0.051864371 0 0.32315677 0.19972187 -0.52287865
0.037334558 0.052675307 0 0.32315677 0.19972187 -0.52287865
0.036837578 0.053486414 0 0.32315677 0.19972187 -0.52287865
0.03634065 0.054297689 0 0.32315677 0.19972187 -0.52287865
0.035843775 0.05510914 0 0.32315677 0.19972187 -0.52287865
0.035346955 0.055920765 0 0.32315677 0.19972187 -0.52287865
0.034850176 0.056732576 0 0.32315677 0.19972187 -0.52287865
0.03435345 0.057544567 0 0.32315677 0.19972187 -0.52287865
0.033856764 0.058356751 0 0.32315677 0.19972187 -0.52287865
0.03336012 0.059169125 0 0.32315677 0.19972187 -0.52287865
0.032863516 0.059981693 0 0.32315677 0.19972187 -0.52287865
0.03236695 0.060794462 0 0.32315677 0.19972187 -0.52287865
0.031870417 0.061607435 0 0.32315677 0.19972187 -0.52287865
0.031373918 0.062420614 0 0.32315677 0.19972187 -0.52287865
0.03087745 0.063234001 0 0.32315677 0.19972187 -0.52287865
0.030381011 0.064047605 0 0.32315677 0.19972187 -0.52287865
0.029884599 0.064861432 0 0.32315677 0.19972187 -0.52287865
0.02938821 0.065675475 0 0.32315677 0.19972187 -0.52287865
0.028891841 0.066489741 0 0.32315677 0.19972187 -0.52287865
0.028395494 0.067304239 0 0.32315677 0.19972187 -0.52287865
0.027899165 0.068118967 0 0.32315677 0.19972187 -0.52287865
0.02740285 0.068933934 0 0.32315677 0.19972187 -0.52287865
0.026906548 0.069749139 0 0.32315677 0.19972187 -0.52287865
0.026410257 0.070564583 0 0.32315677 0.19972187 -0.52287865
0.025913974 0.07138028 0 0.32315677 0.19972187 -0.52287865
0.0254177 0.07219623 0 0.32315677 0.19972187 -0.52287865
0.024921428 0.073012426 0 0.32315677 0.19972187 -0.52287865
0.02442516 0.073828891 0 0.32315677 0.19972187 -0.52287865
0.02392889 0.074645609 0 0.32315677 0.19972187 -0.52287865
0.02343262 0.075462595 0 0.32315677 0.19972187 -0.52287865
0.022936344 0.076279856 0 0.32315677 0.19972187 -0.52287865
0.022440061 0.077097386 0 0.32315677 0.19972187 -0.52287865
0.02194377 0.077915192 0 0.32315677 0.19972187 -0.52287865
0.021447467 0.07873328 0 0.32315677 0.19972187 -0.52287865
0.020951152 0.079551652 0 0.32315677 0.19972187 -0.52287865
0.019515621 0.079999998 0.0016223473 0.32315677 0.19972187 -0.52287865
0.016916407 0.079999998 0.0052461713 0.32315677 0.19972187 -0.52287865
0.014280233 0.079999998 0.0089217545 0.32315677 0.19972187 -0.52287865
0.011606286 0.079999998 0.012650229 0.32315677 0.19972187 -0.52287865
0.0088937348 0.079999998 0.016432762 0.32315677 0.19972187 -0.52287865
0.0061417199 0.079999998 0.020270556 0.32315677 0.19972187 -0.52287865
5.5511151e-17 0.078746147 0.029894061 0.32315677 0.19972187 -0.52287865
0.00051574188 0.079999998 0.02811691 0.32315677 0.19972187 -0.52287865
0.039999999 7.4206597e-05 0.039427478 0.32315677 0.19972187 -0.52287865
0.039999999 0.0013218618 0.038356304 0.32315677 0.19972187 -0.52287865
0.039999999 0.0025646554 0.037289534 0.32315677 0.19972187 -0.52287865
0.039999999 0.0038026231 0.036227141 0.32315677 0.19972187 -0.52287865
0.039999999 0.0050357999 0.035169087 0.32315677 0.19972187 -0.52287865
0.039999999 0.00626422 0.034115344 0.32315677 0.19972187 -0.52287865
0.039999999 0.0074879187 0.033065885 0.32315677 0.19972187 -0.52287865
0.039999999 0.0087069292 0.032020677 0.32315677 0.19972187 -0.52287865
0.039999999 0.0099212863 0.030979685 0.32315677 0.19972187 -0.52287865
0.039999999 0.011131022 0.029942885 0.32315677 0.19972187 -0.52287865
0.039999999 0.012336171 0.028910244 0.32315677 0.19972187 -0.52287865
0.039999999 0.013536765 0.027881734 0.32315677 0.19972187 -0.52287865
0.039999999 0.014732838 0.026857326 0.32315677 0.19972187 -0.52287865
0.039999999 0.01592442 0.025836989 0.32315677 0.19972187 -0.52287865
0.039999999 0.017111545 0.024820698 0.32315677 0.19972187 -0.52287865
0.039999999 0.018294243 0.023808422 0.32315677 0.19972187 -0.52287865
0.039999999 0.019472549 0.022800133 0.32315677 0.19972187 -0.52287865
0.039999999 0.020646488 0.021795804 0.32315677 0.19972187 -0.52287865
0.039999999 0.021816097 0.020795407 0.32315677 0.19972187 -0.52287865
0.039999999 0.022981402 0.019798914 0.32315677 0.19972187 -0.52287865
0.039999999 0.024142437 0.018806297 0.32315677 0.19972187 -0.52287865
0.039999999 0.025299229 0.017817533 0.32315677 0.19972187 -0.52287865
0.039999999 0.026451807 0.016832592 0.32315677 0.19972187 -0.52287865
0.039999999 0.027600205 0.015851447 0.32315677 0.19972187 -0.52287865
0.039999999 0.028744448 0.014874075 0.32315677 0.19972187 -0.52287865
0.039999999 0.029884567 0.013900448 0.32315677 0.19972187 -0.52287865
0.039999999 0.031020591 0.012930539 0.32315677 0.19972187 -0.52287865
0.039999999 0.032152548 0.011964326 0.32315677 0.19972187 -0.52287865
0.039999999 0.033280466 0.011001781 0.32315677 0.19972187 -0.52287865
0.039999999 0.034404371 0.01004288 0.32315677 0.19972187 -0.52287865
0.039999999 0.035524294 0.009087597 0.32315677 0.19972187 -0.52287865
0.039999999 0.03664026 0.0081359092 0.32315677 0.19972187 -0.52287865
0.039999999 0.037752297 0.0071877912 0.32315677 0.19972187 -0.52287865
0.039999999 0.038860433 0.0062432191 0.32315677 0.19972187 -0.52287865
0.039999999 0.039964695 0.0053021684 0.32315677 0.19972187 -0.52287865
0.039999999 0.041065104 0.0043646158 0.32315677 0.19972187 -0.52287865
0.039999999 0.042161696 0.0034305379 0.32315677 0.19972187 -0.52287865
0.039999999 0.043254491 0.002499911 0.32315677 0.19972187 -0.52287865
0.039999999 0.044343516 0.001572712 0.32315677 0.19972187 -0.52287865
0.039999999 0.045428794 0.00064891804 0.32315677 0.19972187 -0.52287865
0.039852899 0.046430763 0 0.32315677 0.19972187 -0.52287865
0.039354894 0.047241621 0 0.32315677 0.19972187 -0.52287865
0.038856957 0.048052624 0 0.32315677 0.19972187 -0.52287865
0.038359087 0.048863776 0 0.32315677 0.19972187 -0.52287865
0.037861276 0.049675077 0 0.32315677 0.19972187 -0.52287865
0.037363533 0.050486535 0 0.32315677 0.19972187 -0.52287865
0.036865845 0.051298153 0 0.32315677 0.19972187 -0.52287865
0.036368214 0.052109927 0 0.32315677 0.19972187 -0.52287865
0.035870638 0.052921873 0 0.32315677 0.19972187 -0.52287865
0.035373114 0.053733986 0 0.32315677 0.19972187 -0.52287865
0.034875643 0.054546271 0 0.32315677 0.19972187 -0.52287865
0.034378219 0.055358734 0 0.32315677 0.19972187 -0.52287865
0.033880841 0.056171376 0 0.32315677 0.19972187 -0.52287865
0.033383504 0.056984201 0 0.32315677 0.19972187 -0.52287865
0.032886211 0.057797216 0 0.32315677 0.19972187 -0.52287865
0.032388959 0.058610421 0 0.32315677 0.19972187 -0.52287865
0.031891741 0.059423819 0 0.32315677 0.19972187 -0.52287865
0.03139456 0.060237419 0 0.32315677 0.19972187 -0.52287865
0.030897412 0.06105122 0 0.32315677 0.19972187 -0.52287865
0.030400293 0.061865225 0 0.32315677 0.19972187 -0.52287865
0.029903203 0.06267944 0 0.32315677 0.19972187 -0.52287865
0.02940614 0.06349387 0 0.32315677 0.19972187 -0.52287865
0.0289091 0.064308517 0 0.32315677 0.19972187 -0.52287865
0.028412083 0.065123387 0 0.32315677 0.19972187 -0.52287865
0.027915085 0.065938473 0 0.32315677 0.19972187 -0.52287865
0.027418103 0.066753797 0 0.32315677 0.19972187 -0.52287865
0.026921138 0.067569345 0 0.32315677 0.19972187 -0.52287865
0.026424186 0.068385132 0 0.32315677 0.19972187 -0.52287865
0.025927244 0.069201156 0 0.32315677 0.19972187 -0.52287865
0.025430311 0.07001742 0 0.32315677 0.19972187 -0.52287865
0.024933383 0.070833936 0 0.32315677 0.19972187 -0.52287865
0.024436461 0.071650699 0 0.32315677 0.19972187 -0.52287865
0.023939539 0.072467722 0 0.32315677 0.19972187 -0.52287865
0.023442619 0.073284999 0 0.32315677 0.19972187 -0.52287865
0.022945695 0.074102528 0 0.32315677 0.19972187 -0.52287865
0.022448767 0.074920334 0 0.32315677 0.19972187 -0.52287865
0.021951832 0.075738408 0 0.32315677 0.19972187 -0.52287865
0.021454887 0.07655675 0 0.32315677 0.19972187 -0.52287865
0.020957932 0.077375367 0 0.32315677 0.19972187 -0.52287865
0.020460961 0.078194268 0 0.32315677 0.19972187 -0.52287865
0.019963978 0.079013452 0 0.32315677 0.19972187 -0.52287865
0.019466974 0.079832919 0 0.32315677 0.19972187 -0.52287865
0.017302539 0.079999998 0.0028661813 0.32315677 0.19972187 -0.52287865
0.014678207 0.079999998 0.0065122163 0.32315677 0.19972187 -0.52287865
0.012016405 0.079999998 0.010210532 0.32315677 0.19972187 -0.52287865
5.5511151e-17 0.076446071 0.029898321 0.32315677 0.19972187 -0.52287865
0.0065770708 0.079999998 0.017768631 0.32315677 0.19972187 -0.52287865
0.0037978175 0.079999998 0.021630818 0.32315677 0.19972187 -0.52287865
0.00097764947 0.079999998 0.02555009 0.32315677 0.19972187 -0.52287865
0.039999999 0.00013568468 0.037421662 0.32315677 0.19972187 -0.52287865
0.039999999 0.0013801142 0.036357056 0.32315677 0.19972187 -0.52287865
0.039999999 0.002619707 0.035296816 0.32315677 0.19972187 -0.52287865
0.039999999 0.0038544983 0.034240905 0.32315677 0.19972187 -0.52287865
0.039999999 0.005084523 0.0331893 0.32315677 0.19972187 -0.52287865
0.039999999 0.0063098152 0.032141961 0.32315677 0.19972187 -0.52287865
0.039999999 0.0075304094 0.031098865 0.32315677 0.19972187 -0.52287865
0.039999999 0.008746339 0.03005998 0.32315677 0.19972187 -0.52287865
0.039999999 0.0099576376 0.029025273 0.32315677 0.19972187 -0.52287865
0.039999999 0.011164339 0.027994717 0.32315677 0.19972187 -0.52287865
0.039999999 0.012366476 0.026968282 0.32315677 0.19972187 -0.52287865
0.039999999 0.013564082 0.025945939 0.32315677 0.19972187 -0.52287865
0.039999999 0.014757187 0.024927661 0.32315677 0.19972187 -0.52287865
0.039999999 0.015945826 0.023913415 0.32315677 0.19972187 -0.52287865
0.039999999 0.017130027 0.022903176 0.32315677 0.19972187 -0.52287865
0.039999999 0.018309824 0.021896916 0.32315677 0.19972187 -0.52287865
0.039999999 0.019485248 0.020894606 0.32315677 0.19972187 -0.52287865
0.039999999 0.020656331 0.019896217 0.32315677 0.19972187 -0.52287865
0.039999999 0.021823101 0.018901726 0.32315677 0.19972187 -0.52287865
0.039999999 0.022985589 0.017911101 0.32315677 0.19972187 -0.52287865
0.039999999 0.024143826 0.01692432 0.32315677 0.19972187 -0.52287865
0.039999999 0.025297843 0.015941352 0.32315677 0.19972187 -0.52287865
0.039999999 0.026447667 0.014962173 0.32315677 0.19972187 -0.52287865
0.039999999 0.027593328 0.013986756 0.32315677 0.19972187 -0.52287865
0.039999999 0.028734855 0.013015077 0.32315677 0.19972187 -0.52287865
0.039999999 0.029872278 0.012047107 0.32315677 0.19972187 -0.52287865
0.039999999 0.031005625 0.011082823 0.32315677 0.19972187 -0.52287865
0.039999999 0.03213492 0.0101222 0.32315677 0.19972187 -0.52287865
0.039999999 0.0332602 0.0091652125 0.32315677 0.19972187 -0.52287865
0.039999999 0.034381486 0.0082118344 0.32315677 0.19972187 -0.52287865
0.039999999 0.035498805 0.0072620427 0.32315677 0.19972187 -0.52287865
0.039999999 0.03661219 0.0063158129 0.32315677 0.19972187 -0.52287865
0.039999999 0.037721664 0.0053731203 0.32315677 0.19972187 -0.52287865
0.039999999 0.038827252 0.0044339411 0.32315677 0.19972187 -0.52287865
0.039999999 0.039928984 0.003498252 0.32315677 0.19972187 -0.52287865
0.039999999 0.041026883 0.0025660293 0.32315677 0.19972187 -0.52287865
0.039999999 0.042120982 0.0016372495 0.32315677 0.19972187 -0.52287865
0.039999999 0.0432113 0.00071188959 0.32315677 0.19972187 -0.52287865
0.039886191 0.044235397 0 0.32315677 0.19972187 -0.52287865
0.039387468 0.045046829 0 0.32315677 0.19972187 -0.52287865
0.038888816 0.045858394 0 0.32315677 0.19972187 -0.52287865
0.03839023 0.046670102 0 0.32315677 0.19972187 -0.52287865
0.037891708 0.04748195 0 0.32315677 0.19972187 -0.52287865
0.037393253 0.048293944 0 0.32315677 0.19972187 -0.52287865
0.036894858 0.049106091 0 0.32315677 0.19972187 -0.52287865
0.036396522 0.049918391 0 0.32315677 0.19972187 -0.52287865
0.035898246 0.050730847 0 0.32315677 0.19972187 -0.52287865
0.035400022 0.051543467 0 0.32315677 0.19972187 -0.52287865
0.03490185 0.052356251 0 0.32315677 0.19972187 -0.52287865
0.034403726 0.053169202 0 0.32315677 0.19972187 -0.52287865
0.033905655 0.053982325 0 0.32315677 0.19972187 -0.52287865
0.033407629 0.054795623 0 0.32315677 0.19972187 -0.52287865
0.032909647 0.0556091 0 0.32315677 0.19972187 -0.52287865
0.032411702 0.056422763 0 0.32315677 0.19972187 -0.52287865
0.031913802 0.057236608 0 0.32315677 0.19972187 -0.52287865
0.031415936 0.058050647 0 0.32315677 0.19972187 -0.52287865
0.030918106 0.058864877 0 0.32315677 0.19972187 -0.52287865
0.030420309 0.059679307 0 0.32315677 0.19972187 -0.52287865
0.029922541 0.060493939 0 0.32315677 0.19972187 -0.52287865
0.029424801 0.061308775 0 0.32315677 0.19972187 -0.52287865
0.02892709 0.062123816 0 0.32315677 0.19972187 -0.52287865
0.0284294 0.062939078 0 0.32315677 0.19972187 -0.52287865
0.027931733 0.063754544 0 0.32315677 0.19972187 -0.52287865
0.027434086 0.064570241 0 0.32315677 0.19972187 -0.52287865
0.026936455 0.065386154 0 0.32315677 0.19972187 -0.52287865
0.02643884 0.066202298 0 0.32315677 0.19972187 -0.52287865
0.025941236 0.067018673 0 0.32315677 0.19972187 -0.52287865
0.025443645 0.067835279 0 0.32315677 0.19972187 -0.52287865
0.024946062 0.068652123 0 0.32315677 0.19972187 -0.52287865
0.024448484 0.069469213 0 0.32315677 0.19972187 -0.52287865
0.02395091 0.07028655 0 0.32315677 0.19972187 -0.52287865
0.023453338 0.071104132 0 0.32315677 0.19972187 -0.52287865
0.022955766 0.071921967 0 0.32315677 0.19972187 -0.52287865
0.022458192 0.072740056 0 0.32315677 0.19972187 -0.52287865
0.021960612 0.073558412 0 0.32315677 0.19972187 -0.52287865
0.021463025 0.07437703 0 0.32315677 0.19972187 -0.52287865
0.020965429 0.075195916 0 0.32315677 0.19972187 -0.52287865
0.020467822 0.07601507 0 0.32315677 0.19972187 -0.52287865
0.019970199 0.076834507 0 0.32315677 0.19972187 -0.52287865
0.019472562 0.077654213 0 0.32315677 0.19972187 -0.52287865
0.018974906 0.078474209 0 0.32315677 0.19972187 -0.52287865
0.018477231 0.079294495 0 0.32315677 0.19972187 -0.52287865
0.017685937 0.079999998 0.00050303288 0.32315677 0.19972187 -0.52287865
0.015073346 0.079999998 0.0041198456 0.32315677 0.19972187 -0.52287865
0.012423581 0.079999998 0.007788335 0.32315677 0.19972187 -0.52287865
0.0097358311 0.079999998 0.011509633 0.32315677 0.19972187 -0.52287865
0.0070092548 0.079999998 0.015284904 0.32315677 0.19972187 -0.52287865
0.0042429906 0.079999998 0.019115349 0.32315677 0.19972187 -0.52287865
0.0014361497 0.079999998 0.023002204 0.32315677 0.19972187 -0.52287865
0.039999999 0.00019684252 0.035426296 0.32315677 0.19972187 -0.52287865
0.039999999 0.0014380638 0.034368206 0.32315677 0.19972187 -0.52287865
0.039999999 0.002674473 0.033314437 0.32315677 0.19972187 -0.52287865
0.039999999 0.0039061047 0.032264963 0.32315677 0.19972187 -0.52287865
0.039999999 0.0051329941 0.031219749 0.32315677 0.19972187 -0.52287865
0.039999999 0.0063551748 0.030178763 0.32315677 0.19972187 -0.52287865
0.039999999 0.0075726807 0.029141979 0.32315677 0.19972187 -0.52287865
0.039999999 0.0087855458 0.028109366 0.32315677 0.19972187 -0.52287865
0.039999999 0.0099938037 0.027080894 0.32315677 0.19972187 -0.52287865
0.039999999 0.011197486 0.026056532 0.32315677 0.19972187 -0.52287865
0.039999999 0.012396627 0.025036253 0.32315677 0.19972187 -0.52287865
0.039999999 0.013591259 0.024020029 0.32315677 0.19972187 -0.52287865
0.039999999 0.014781413 0.023007829 0.32315677 0.19972187 -0.52287865
0.039999999 0.015967121 0.021999625 0.32315677 0.19972187 -0.52287865
0.039999999 0.017148415 0.020995392 0.32315677 0.19972187 -0.52287865
0.039999999 0.018325325 0.019995099 0.32315677 0.19972187 -0.52287865
0.039999999 0.019497884 0.01899872 0.32315677 0.19972187 -0.52287865
0.039999999 0.020666122 0.018006228 0.32315677 0.19972187 -0.52287865
0.039999999 0.021830069 0.017017594 0.32315677 0.19972187 -0.52287865
0.039999999 0.022989755 0.016032793 0.32315677 0.19972187 -0.52287865
0.039999999 0.02414521 0.015051797 0.32315677 0.19972187 -0.52287865
0.039999999 0.025296465 0.014074582 0.32315677 0.19972187 -0.52287865
0.039999999 0.026443547 0.01310112 0.32315677 0.19972187 -0.52287865
0.039999999 0.027586484 0.012131386 0.32315677 0.19972187 -0.52287865
0.039999999 0.028725309 0.011165355 0.32315677 0.19972187 -0.52287865
0.039999999 0.029860049 0.010203 0.32315677 0.19972187 -0.52287865
0.039999999 0.030990731 0.0092442976 0.32315677 0.19972187 -0.52287865
0.039999999 0.032117385 0.0082892207 0.32315677 0.19972187 -0.52287865
0.039999999 0.033240035 0.0073377471 0.32315677 0.19972187 -0.52287865
0.039999999 0.034358714 0.0063898503 0.32315677 0.19972187 -0.52287865
0.039999999 0.035473447 0.0054455069 0.32315677 0.19972187 -0.52287865
0.039999999 0.036584258 0.0045046927 0.32315677 0.19972187 -0.52287865
0.039999999 0.03769118 0.0035673841 0.32315677 0.19972187 -0.52287865
0.039999999 0.038794234 0.002633557 0.32315677 0.19972187 -0.52287865
0.039999999 0.039893448 0.0017031879 0.32315677 0.19972187 -0.52287865
0.039999999 0.040988851 0.00077625405 0.32315677 0.19972187 -0.52287865
0.039920226 0.042036053 0 0.32315677 0.19972187 -0.52287865
0.039420784 0.042848077 0 0.32315677 0.19972187 -0.52287865
0.038921412 0.043660227 0 0.32315677 0.19972187 -0.52287865
0.038422111 0.044472512 0 0.32315677 0.19972187 -0.52287865
0.037922878 0.045284927 0 0.32315677 0.19972187 -0.52287865
0.037423711 0.046097483 0 0.32315677 0.19972187 -0.52287865
0.036924608 0.046910178 0 0.32315677 0.19972187 -0.52287865
0.036425564 0.047723021 0 0.32315677 0.19972187 -0.52287865
0.035926584 0.048536014 0 0.32315677 0.19972187 -0.52287865
0.035427656 0.049349155 0 0.32315677 0.19972187 -0.52287865
0.034928784 0.050162457 0 0.32315677 0.19972187 -0.52287865
0.034429967 0.050975915 0 0.32315677 0.19972187 -0.52287865
0.033931199 0.051789541 0 0.32315677 0.19972187 -0.52287865
0.03343248 0.05260333 0 0.32315677 0.19972187 -0.52287865
0.032933805 0.053417291 0 0.32315677 0.19972187 -0.52287865
0.032435175 0.054231431 0 0.32315677 0.19972187 -0.52287865
0.031936586 0.055045746 0 0.32315677 0.19972187 -0.52287865
0.031438034 0.055860244 0 0.32315677 0.19972187 -0.52287865
0.030939521 0.056674924 0 0.32315677 0.19972187 -0.52287865
0.030441044 0.057489797 0 0.32315677 0.19972187 -0.52287865
0.029942598 0.058304861 0 0.32315677 0.19972187 -0.52287865
0.029444182 0.059120122 0 0.32315677 0.19972187 -0.52287865
0.028945796 0.059935585 0 0.32315677 0.19972187 -0.52287865
0.028447434 0.060751252 0 0.32315677 0.19972187 -0.52287865
0.027949098 0.061567124 0 0.32315677 0.19972187 -0.52287865
0.027450781 0.062383208 0 0.32315677 0.19972187 -0.52287865
0.026952486 0.063199513 0 0.32315677 0.19972187 -0.52287865
0.026454207 0.064016029 0 0.32315677 0.19972187 -0.52287865
0.025955942 0.064832769 0 0.32315677 0.19972187 -0.52287865
0.025457691 0.06564974 0 0.32315677 0.19972187 -0.52287865
0.024959451 0.066466935 0 0.32315677 0.19972187 -0.52287865
0.024461217 0.067284368 0 0.32315677 0.19972187 -0.52287865
0.023962989 0.068102039 0 0.32315677 0.19972187 -0.52287865
0.023464767 0.068919949 0 0.32315677 0.19972187 -0.52287865
0.022966545 0.069738097 0 0.32315677 0.19972187 -0.52287865
0.022468323 0.070556507 0 0.32315677 0.19972187 -0.52287865
0.021970099 0.071375161 0 0.32315677 0.19972187 -0.52287865
0.021471867 0.07219407 0 0.32315677 0.19972187 -0.52287865
0.02097363 0.073013239 0 0.32315677 0.19972187 -0.52287865
0.020475384 0.073832676 0 0.32315677 0.19972187 -0.52287865
0.019977124 0.074652381 0 0.32315677 0.19972187 -0.52287865
0.019478852 0.075472355 0 0.32315677 0.19972187 -0.52287865
0.018980565 0.076292597 0 0.32315677 0.19972187 -0.52287865
0.018482257 0.077113129 0 0.32315677 0.19972187 -0.52287865
0.017983928 0.077933937 0 0.32315677 0.19972187 -0.52287865
0.017485578 0.078755029 0 0.32315677 0.19972187 -0.52287865
0.016987203 0.07957641 0 0.32315677 0.19972187 -0.52287865
0 0.073982336 0.028113926 0.32315677 0.19972187 -0.52287865
0.01282785 0.079999998 0.0053834403 0.32315677 0.19972187 -0.52287865
0.010152335 0.079999998 0.0090746302 0.32315677 0.19972187 -0.52287865
0.007438309 0.079999998 0.012819165 0.32315677 0.19972187 -0.52287865
0 0.078238815 0.024554558 0.32315677 0.19972187 -0.52287865
