# .PCD v0.7 - Point Cloud Data file format
VERSION 0.7
FIELDS x y z vp_x vp_y vp_z
SIZE 4 4 4 4 4 4
TYPE F F F F F F
COUNT 1 1 1 1 1 1
WIDTH 682
HEIGHT 1
VIEWPOINT 0 0 0 1 0 0 0
POINTS 682
DATA ascii
0.0089873672 0 0.031067895 -0.32315677 -0.19972187 -0.52287865
0.011033999 0 0.033556685 -0.32315677 -0.19972187 -0.52287865
0.013099159 0 0.03606806 -0.32315677 -0.19972187 -0.52287865
0.015183111 0 0.038602337 -0.32315677 -0.19972187 -0.52287865
0.00096355926 0.066085696 0.069074303 -0.32315677 -0.19972187 -0.52287865
0.00045549823 0.064225651 0.067062773 -0.32315677 -0.19972187 -0.52287865
0.00018362861 0.062567338 0.065488696 -0.32315677 -0.19972187 -0.52287865
5.6029476e-05 0.061033409 0.064182706 -0.32315677 -0.19972187 -0.52287865
2.2676159e-05 0.05958176 0.063052632 -0.32315677 -0.19972187 -0.52287865
9.643408e-05 0.058221366 0.062120799 -0.32315677 -0.19972187 -0.52287865
0.00026431866 0.056940477 0.061362654 -0.32315677 -0.19972187 -0.52287865
0.0004696674 0.055693116 0.060675081 -0.32315677 -0.19972187 -0.52287865
0.00078995468 0.054539565 0.060197137 -0.32315677 -0.19972187 -0.52287865
0.0011304612 0.053404372 0.059757508 -0.32315677 -0.19972187 -0.52287865
0.0015556187 0.052337274 0.059471529 -0.32315677 -0.19972187 -0.52287865
0.0020112002 0.051295295 0.059241291 -0.32315677 -0.19972187 -0.52287865
0.0025350985 0.050307125 0.0591342 -0.32315677 -0.19972187 -0.52287865
0.0030946978 0.049346969 0.059091419 -0.32315677 -0.19972187 -0.52287865
0.0037144397 0.048432916 0.059156109 -0.32315677 -0.19972187 -0.52287865
0.0043736529 0.047548596 0.059290957 -0.32315677 -0.19972187 -0.52287865
0.0050892169 0.04670617 0.059525527 -0.32315677 -0.19972187 -0.52287865
0.005849408 0.045896176 0.059838522 -0.32315677 -0.19972187 -0.52287865
0.0066635711 0.045124982 0.060246043 -0.32315677 -0.19972187 -0.52287865
0.0075319763 0.04439212 0.060748059 -0.32315677 -0.19972187 -0.52287865
0.0084504727 0.04369387 0.061336752 -0.32315677 -0.19972187 -0.52287865
0.0094414726 0.043045972 0.06205108 -0.32315677 -0.19972187 -0.52287865
0.010473765 0.042424884 0.062835574 -0.32315677 -0.19972187 -0.52287865
0.011611613 0.041876487 0.063802496 -0.32315677 -0.19972187 -0.52287865
0.012792555 0.041354675 0.064841598 -0.32315677 -0.19972187 -0.52287865
0.014095879 0.040915512 0.066090971 -0.32315677 -0.19972187 -0.52287865
0.015499542 0.040541887 0.067511082 -0.32315677 -0.19972187 -0.52287865
5.5511151e-17 0.028238039 0.039509833 -0.32315677 -0.19972187 -0.52287865
0 0.026935209 0.038532961 -0.32315677 -0.19972187 -0.52287865
0 0.025637031 0.037559621 -0.32315677 -0.19972187 -0.52287865
5.5511151e-17 0.024343474 0.036589798 -0.32315677 -0.19972187 -0.52287865
5.5511151e-17 0.023054507 0.035623461 -0.32315677 -0.19972187 -0.52287865
0 0.021770099 0.034660589 -0.32315677 -0.19972187 -0.52287865
5.5511151e-17 0.020490222 0.033701155 -0.32315677 -0.19972187 -0.52287865
5.5511151e-17 0.019214842 0.032745145 -0.32315677 -0.19972187 -0.52287865
5.5511151e-17 0.01794393 0.031792529 -0.32315677 -0.19972187 -0.52287865
0 0.016677458 0.030843286 -0.32315677 -0.19972187 -0.52287865
0 0.015415396 0.029897396 -0.32315677 -0.19972187 -0.52287865
5.5511151e-17 0.014157712 0.028954832 -0.32315677 -0.19972187 -0.52287865
5.5511151e-17 0.012904381 0.028015578 -0.32315677 -0.19972187 -0.52287865
5.5511151e-17 0.011655372 0.027079606 -0.32315677 -0.19972187 -0.52287865
0 0.010410656 0.0261469 -0.32315677 -0.19972187 -0.52287865
0 0.0091702063 0.025217436 -0.32315677 -0.19972187 -0.52287865
5.5511151e-17 0.0079339929 0.024291193 -0.32315677 -0.19972187 -0.52287865
5.5511151e-17 0.0067019905 0.02336815 -0.32315677 -0.19972187 -0.52287865
0 0.0054741693 0.022448285 -0.32315677 -0.19972187 -0.52287865
5.5511151e-17 0.0042505031 0.021531578 -0.32315677 -0.19972187 -0.52287865
5.5511151e-17 0.0030309644 0.020618008 -0.32315677 -0.19972187 -0.52287865
5.5511151e-17 0.0018155265 0.019707557 -0.32315677 -0.19972187 -0.52287865
5.5511151e-17 0.00060416252 0.018800203 -0.32315677 -0.19972187 -0.52287865
0.00097887975 0 0.019533994 -0.32315677 -0.19972187 -0.52287865
0.0029495743 0 0.021922333 -0.32315677 -0.19972187 -0.52287865
0.0049377149 0 0.02433186 -0.32315677 -0.19972187 -0.52287865
0.0069435444 0 0.026762873 -0.32315677 -0.19972187 -0.52287865
0.015454854 0.003901266 0.039999999 -0.32315677 -0.19972187 -0.52287865
0.011009263 0 0.031690553 -0.32315677 -0.19972187 -0.52287865
0.013069661 0 0.034187842 -0.32315677 -0.19972187 -0.52287865
0.015148765 0 0.036707848 -0.32315677 -0.19972187 -0.52287865
0.017246842 0 0.039250899 -0.32315677 -0.19972187 -0.52287865
0.0016755044 0.067963623 0.069381729 -0.32315677 -0.19972187 -0.52287865
0.0009073721 0.065883331 0.066898413 -0.32315677 -0.19972187 -0.52287865
0.00042667304 0.064049825 0.064946637 -0.32315677 -0.19972187 -0.52287865
0.00015555335 0.06239609 0.063382313 -0.32315677 -0.19972187 -0.52287865
4.7822778e-05 0.060882047 0.062119707 -0.32315677 -0.19972187 -0.52287865
3.0006511e-05 0.059446558 0.061024424 -0.32315677 -0.19972187 -0.52287865
0.00010357929 0.05808958 0.060098205 -0.32315677 -0.19972187 -0.52287865
0.00028375266 0.056821939 0.059367508 -0.32315677 -0.19972187 -0.52287865
0.00049938267 0.055586092 0.058703426 -0.32315677 -0.19972187 -0.52287865
0.00081891852 0.054435246 0.058228374 -0.32315677 -0.19972187 -0.52287865
0.0011680413 0.053310052 0.057808254 -0.32315677 -0.19972187 -0.52287865
0.001592229 0.052245386 0.057524055 -0.32315677 -0.19972187 -0.52287865
0.0020552117 0.051212281 0.057310324 -0.32315677 -0.19972187 -0.52287865
0.0025779444 0.050226308 0.057204001 -0.32315677 -0.19972187 -0.52287865
0.0031440458 0.049274184 0.057175383 -0.32315677 -0.19972187 -0.52287865
0.0037624396 0.048362125 0.057239886 -0.32315677 -0.19972187 -0.52287865
0.0044274973 0.047485206 0.057387039 -0.32315677 -0.19972187 -0.52287865
0.0051415358 0.046644576 0.057620492 -0.32315677 -0.19972187 -0.52287865
0.0059071076 0.045841519 0.05794429 -0.32315677 -0.19972187 -0.52287865
0.0067195664 0.045071945 0.058349762 -0.32315677 -0.19972187 -0.52287865
0.0075930492 0.044345692 0.058861338 -0.32315677 -0.19972187 -0.52287865
0.0085096546 0.043648876 0.059447017 -0.32315677 -0.19972187 -0.52287865
0.0095055932 0.043007392 0.060169876 -0.32315677 -0.19972187 -0.52287865
0.010535795 0.04238756 0.060950331 -0.32315677 -0.19972187 -0.52287865
0.011678597 0.041845497 0.061924897 -0.32315677 -0.19972187 -0.52287865
0.01286494 0.041330285 0.062972143 -0.32315677 -0.19972187 -0.52287865
5.5511151e-17 0.030787505 0.039560325 -0.32315677 -0.19972187 -0.52287865
5.5511151e-17 0.029478384 0.038581986 -0.32315677 -0.19972187 -0.52287865
5.5511151e-17 0.028173957 0.037607197 -0.32315677 -0.19972187 -0.52287865
5.5511151e-17 0.026874192 0.036635935 -0.32315677 -0.19972187 -0.52287865
5.5511151e-17 0.025579058 0.035668176 -0.32315677 -0.19972187 -0.52287865
0 0.024288524 0.034703895 -0.32315677 -0.19972187 -0.52287865
5.5511151e-17 0.023002559 0.033743069 -0.32315677 -0.19972187 -0.52287865
5.5511151e-17 0.021721132 0.032785676 -0.32315677 -0.19972187 -0.52287865
5.5511151e-17 0.020444212 0.031831697 -0.32315677 -0.19972187 -0.52287865
5.5511151e-17 0.019171773 0.030881101 -0.32315677 -0.19972187 -0.52287865
5.5511151e-17 0.017903781 0.029933872 -0.32315677 -0.19972187 -0.52287865
0 0.016640207 0.028989986 -0.32315677 -0.19972187 -0.52287865
5.5511151e-17 0.015381023 0.028049419 -0.32315677 -0.19972187 -0.52287865
0 0.014126199 0.027112152 -0.32315677 -0.19972187 -0.52287865
0 0.012875707 0.026178161 -0.32315677 -0.19972187 -0.52287865
5.5511151e-17 0.011629517 0.025247425 -0.32315677 -0.19972187 -0.52287865
5.5511151e-17 0.010387602 0.024319924 -0.32315677 -0.19972187 -0.52287865
5.5511151e-17 0.0091499342 0.023395635 -0.32315677 -0.19972187 -0.52287865
5.5511151e-17 0.007916484 0.022474539 -0.32315677 -0.19972187 -0.52287865
5.5511151e-17 0.0066872248 0.021556612 -0.32315677 -0.19972187 -0.52287865
5.5511151e-17 0.0054621296 0.020641835 -0.32315677 -0.19972187 -0.52287865
5.5511151e-17 0.0042411704 0.01973019 -0.32315677 -0.19972187 -0.52287865
0 0.0030243206 0.018821651 -0.32315677 -0.19972187 -0.52287865
0 0.0018115536 0.017916204 -0.32315677 -0.19972187 -0.52287865
0 0.00060284266 0.017013825 -0.32315677 -0.19972187 -0.52287865
0.00097673829 0 0.017743597 -0.32315677 -0.19972187 -0.52287865
0.0029430934 0 0.020118818 -0.32315677 -0.19972187 -0.52287865
0.004926818 0 0.02251506 -0.32315677 -0.19972187 -0.52287865
0.0069281524 0 0.024932615 -0.32315677 -0.19972187 -0.52287865
0.0089473426 0 0.027371783 -0.32315677 -0.19972187 -0.52287865
0.01098464 0 0.029832864 -0.32315677 -0.19972187 -0.52287865
0.013040298 0 0.032316167 -0.32315677 -0.19972187 -0.52287865
0.015114577 0 0.03482201 -0.32315677 -0.19972187 -0.52287865
0.01720774 2.7755576e-17 0.037350707 -0.32315677 -0.19972187 -0.52287865
0.01932006 0 0.039902586 -0.32315677 -0.19972187 -0.52287865
0.0015808187 0.067725971 0.067134872 -0.32315677 -0.19972187 -0.52287865
0.00085147441 0.065682009 0.064733729 -0.32315677 -0.19972187 -0.52287865
0.00039799127 0.063874878 0.062841028 -0.32315677 -0.19972187 -0.52287865
0.0001276174 0.062225692 0.061286375 -0.32315677 -0.19972187 -0.52287865
3.9655719e-05 0.060731411 0.06006667 -0.32315677 -0.19972187 -0.52287865
3.7302219e-05 0.059311993 0.059005797 -0.32315677 -0.19972187 -0.52287865
0.00011069079 0.057958413 0.058085151 -0.32315677 -0.19972187 -0.52287865
0.00030309657 0.056703947 0.057381604 -0.32315677 -0.19972187 -0.52287865
0.00052896241 0.055479556 0.056740765 -0.32315677 -0.19972187 -0.52287865
0.00084775034 0.054331407 0.05626858 -0.32315677 -0.19972187 -0.52287865
0.0012054523 0.053216152 0.055867769 -0.32315677 -0.19972187 -0.52287865
0.0016286749 0.052153911 0.055585332 -0.32315677 -0.19972187 -0.52287865
0.0020990279 0.051129635 0.055387933 -0.32315677 -0.19972187 -0.52287865
0.0026206004 0.05014585 0.055282369 -0.32315677 -0.19972187 -0.52287865
0.0031931773 0.049201719 0.055267762 -0.32315677 -0.19972187 -0.52287865
0.0038102288 0.048291638 0.055332076 -0.32315677 -0.19972187 -0.52287865
0.0044811079 0.047422092 0.055491399 -0.32315677 -0.19972187 -0.52287865
0.005193627 0.04658325 0.055723742 -0.32315677 -0.19972187 -0.52287865
0.0059645581 0.045787103 0.056058221 -0.32315677 -0.19972187 -0.52287865
0.00677532 0.045019131 0.056461658 -0.32315677 -0.19972187 -0.52287865
0.0076538613 0.044299465 0.056982677 -0.32315677 -0.19972187 -0.52287865
0.008568584 0.04360408 0.057565365 -0.32315677 -0.19972187 -0.52287865
0.0095694428 0.042968977 0.058296651 -0.32315677 -0.19972187 -0.52287865
0.010597562 0.0423504 0.059073091 -0.32315677 -0.19972187 -0.52287865
5.5511151e-17 0.033343744 0.039611217 -0.32315677 -0.19972187 -0.52287865
5.5511151e-17 0.032028276 0.038631406 -0.32315677 -0.19972187 -0.52287865
5.5511151e-17 0.030717548 0.03765516 -0.32315677 -0.19972187 -0.52287865
5.5511151e-17 0.029411521 0.036682453 -0.32315677 -0.19972187 -0.52287865
5.5511151e-17 0.028110167 0.035713267 -0.32315677 -0.19972187 -0.52287865
5.5511151e-17 0.026813453 0.034747571 -0.32315677 -0.19972187 -0.52287865
0 0.025521349 0.033785347 -0.32315677 -0.19972187 -0.52287865
5.5511151e-17 0.024233824 0.032826573 -0.32315677 -0.19972187 -0.52287865
0 0.022950847 0.031871218 -0.32315677 -0.19972187 -0.52287865
0 0.021672387 0.030919269 -0.32315677 -0.19972187 -0.52287865
5.5511151e-17 0.020398414 0.029970696 -0.32315677 -0.19972187 -0.52287865
5.5511151e-17 0.019128898 0.02902548 -0.32315677 -0.19972187 -0.52287865
5.5511151e-17 0.017863812 0.0280836 -0.32315677 -0.19972187 -0.52287865
5.5511151e-17 0.016603123 0.02714503 -0.32315677 -0.19972187 -0.52287865
0 0.015346806 0.026209751 -0.32315677 -0.19972187 -0.52287865
5.5511151e-17 0.014094827 0.025277739 -0.32315677 -0.19972187 -0.52287865
0 0.012847161 0.024348976 -0.32315677 -0.19972187 -0.52287865
0 0.011603779 0.023423439 -0.32315677 -0.19972187 -0.52287865
5.5511151e-17 0.010364652 0.022501105 -0.32315677 -0.19972187 -0.52287865
5.5511151e-17 0.0091297524 0.021581955 -0.32315677 -0.19972187 -0.52287865
5.5511151e-17 0.0078990525 0.020665968 -0.32315677 -0.19972187 -0.52287865
5.5511151e-17 0.0066725253 0.019753121 -0.32315677 -0.19972187 -0.52287865
5.5511151e-17 0.005450143 0.018843397 -0.32315677 -0.19972187 -0.52287865
0 0.004231879 0.017936775 -0.32315677 -0.19972187 -0.52287865
5.5511151e-17 0.0030177061 0.017033234 -0.32315677 -0.19972187 -0.52287865
0 0.0018075982 0.016132755 -0.32315677 -0.19972187 -0.52287865
0 0.00060152856 0.015235317 -0.32315677 -0.19972187 -0.52287865
0.00097460632 0 0.015961098 -0.32315677 -0.19972187 -0.52287865
0.0029366412 0 0.018323291 -0.32315677 -0.19972187 -0.52287865
0.004915969 0 0.020706343 -0.32315677 -0.19972187 -0.52287865
0.0069128289 0 0.023110539 -0.32315677 -0.19972187 -0.52287865
0.0089274654 0 0.025536176 -0.32315677 -0.19972187 -0.52287865
0.010960127 0 0.027983552 -0.32315677 -0.19972187 -0.52287865
0.013011067 0 0.030452972 -0.32315677 -0.19972187 -0.52287865
0.015080542 0 0.032944746 -0.32315677 -0.19972187 -0.52287865
0.017168818 0 0.035459198 -0.32315677 -0.19972187 -0.52287865
0.019276159 0 0.037996642 -0.32315677 -0.19972187 -0.52287865
0.0026412613 0.069893122 0.068070166 -0.32315677 -0.19972187 -0.52287865
0.0014866424 0.067489602 0.0649001 -0.32315677 -0.19972187 -0.52287865
0.00079586369 0.065481715 0.062580161 -0.32315677 -0.19972187 -0.52287865
0.00036945171 0.063700795 0.060745858 -0.32315677 -0.19972187 -0.52287865
0.00011201502 0.062066011 0.059222765 -0.32315677 -0.19972187 -0.52287865
3.1527976e-05 0.060581502 0.05802352 -0.32315677 -0.19972187 -0.52287865
4.4563563e-05 0.059178066 0.056996681 -0.32315677 -0.19972187 -0.52287865
0.00011871369 0.05782862 0.056083258 -0.32315677 -0.19972187 -0.52287865
0.00032235117 0.0565865 0.055404872 -0.32315677 -0.19972187 -0.52287865
0.00055840769 0.055373505 0.054787029 -0.32315677 -0.19972187 -0.52287865
0.0008764512 0.054228038 0.054317687 -0.32315677 -0.19972187 -0.52287865
0.0012426956 0.053122677 0.053935975 -0.32315677 -0.19972187 -0.52287865
0.0016649576 0.052062847 0.053655289 -0.32315677 -0.19972187 -0.52287865
0.0021426498 0.051047359 0.053474046 -0.32315677 -0.19972187 -0.52287865
0.0026630678 0.050065748 0.053369235 -0.32315677 -0.19972187 -0.52287865
0.0032420938 0.049129575 0.05336849 -0.32315677 -0.19972187 -0.52287865
0.0038578089 0.048221465 0.053432617 -0.32315677 -0.19972187 -0.52287865
0.0045344862 0.04735925 0.053603973 -0.32315677 -0.19972187 -0.52287865
0.0052454923 0.046522189 0.053835213 -0.32315677 -0.19972187 -0.52287865
0.0060217623 0.045732915 0.05418025 -0.32315677 -0.19972187 -0.52287865
0.0068308343 0.044966549 0.054581665 -0.32315677 -0.19972187 -0.52287865
0.007714414 0.044253431 0.055112019 -0.32315677 -0.19972187 -0.52287865
0.0086272629 0.043559473 0.055691738 -0.32315677 -0.19972187 -0.52287865
5.5511151e-17 0.035906836 0.03966248 -0.32315677 -0.19972187 -0.52287865
5.5511151e-17 0.034584969 0.03868119 -0.32315677 -0.19972187 -0.52287865
0 0.033267882 0.037703481 -0.32315677 -0.19972187 -0.52287865
5.5511151e-17 0.03195554 0.036729328 -0.32315677 -0.19972187 -0.52287865
0 0.030647911 0.035758708 -0.32315677 -0.19972187 -0.52287865
0 0.029344965 0.034791593 -0.32315677 -0.19972187 -0.52287865
0 0.028046668 0.033827968 -0.32315677 -0.19972187 -0.52287865
5.5511151e-17 0.026752992 0.0328678 -0.32315677 -0.19972187 -0.52287865
5.5511151e-17 0.025463903 0.031911075 -0.32315677 -0.19972187 -0.52287865
0 0.024179371 0.030957762 -0.32315677 -0.19972187 -0.52287865
5.5511151e-17 0.022899367 0.030007843 -0.32315677 -0.19972187 -0.52287865
5.5511151e-17 0.021623861 0.029061293 -0.32315677 -0.19972187 -0.52287865
5.5511151e-17 0.02035282 0.028118093 -0.32315677 -0.19972187 -0.52287865
5.5511151e-17 0.019086218 0.027178217 -0.32315677 -0.19972187 -0.52287865
5.5511151e-17 0.017824024 0.026241645 -0.32315677 -0.19972187 -0.52287865
5.5511151e-17 0.016566208 0.025308354 -0.32315677 -0.19972187 -0.52287865
0 0.015312741 0.024378324 -0.32315677 -0.19972187 -0.52287865
5.5511151e-17 0.014063596 0.023451533 -0.32315677 -0.19972187 -0.52287865
0 0.012818743 0.022527959 -0.32315677 -0.19972187 -0.52287865
5.5511151e-17 0.011578155 0.021607582 -0.32315677 -0.19972187 -0.52287865
5.5511151e-17 0.010341804 0.020690378 -0.32315677 -0.19972187 -0.52287865
0 0.0091096601 0.019776331 -0.32315677 -0.19972187 -0.52287865
5.5511151e-17 0.0078816982 0.018865416 -0.32315677 -0.19972187 -0.52287865
0 0.0066578905 0.017957617 -0.32315677 -0.19972187 -0.52287865
0 0.0054382095 0.017052909 -0.32315677 -0.19972187 -0.52287865
5.5511151e-17 0.0042226282 0.016151275 -0.32315677 -0.19972187 -0.52287865
5.5511151e-17 0.0030111207 0.015252696 -0.32315677 -0.19972187 -0.52287865
0 0.0018036601 0.01435715 -0.32315677 -0.19972187 -0.52287865
5.5511151e-17 0.00060022023 0.013464618 -0.32315677 -0.19972187 -0.52287865
0.016551474 0.0095994584 0.039999999 -0.32315677 -0.19972187 -0.52287865
0.0029302174 0 0.016535694 -0.32315677 -0.19972187 -0.52287865
0.0049051684 0 0.018905647 -0.32315677 -0.19972187 -0.52287865
0.0068975738 0 0.021296579 -0.32315677 -0.19972187 -0.52287865
0.0089076776 0 0.023708779 -0.32315677 -0.19972187 -0.52287865
0.010935725 0 0.026142549 -0.32315677 -0.19972187 -0.52287865
0.012981968 0 0.028598186 -0.32315677 -0.19972187 -0.52287865
0.015046664 0 0.031075999 -0.32315677 -0.19972187 -0.52287865
0.017130071 0 0.033576302 -0.32315677 -0.19972187 -0.52287865
0.019232459 0 0.036099419 -0.32315677 -0.19972187 -0.52287865
0.021354098 0 0.038645666 -0.32315677 -0.19972187 -0.52287865
0.0024879507 0.06960395 0.065725386 -0.32315677 -0.19972187 -0.52287865
0.0013929709 0.067254499 0.062677309 -0.32315677 -0.19972187 -0.52287865
0.00074053748 0.065282457 0.060437612 -0.32315677 -0.19972187 -0.52287865
0.00034105315 0.063527577 0.05866104 -0.32315677 -0.19972187 -0.52287865
0.00010371666 0.061912954 0.057182141 -0.32315677 -0.19972187 -0.52287865
2.3439234e-05 0.060432315 0.055990174 -0.32315677 -0.19972187 -0.52287865
5.1790823e-05 0.059044767 0.054996993 -0.32315677 -0.19972187 -0.52287865
0.00013836968 0.057708725 0.054111566 -0.32315677 -0.19972187 -0.52287865
0.00034151712 0.056469593 0.053437237 -0.32315677 -0.19972187 -0.52287865
0.00058771949 0.055267937 0.05284214 -0.32315677 -0.19972187 -0.52287865
0.00090502208 0.054125134 0.05237563 -0.32315677 -0.19972187 -0.52287865
0.0012797727 0.053029615 0.052012812 -0.32315677 -0.19972187 -0.52287865
0.0017010783 0.051972188 0.051733866 -0.32315677 -0.19972187 -0.52287865
0.0021860797 0.05096544 0.051568601 -0.32315677 -0.19972187 -0.52287865
0.0027053477 0.049986001 0.051464539 -0.32315677 -0.19972187 -0.52287865
0.0032907969 0.049057744 0.051477499 -0.32315677 -0.19972187 -0.52287865
0.0039051813 0.048151594 0.051541444 -0.32315677 -0.19972187 -0.52287865
0.0045876335 0.047296681 0.051724698 -0.32315677 -0.19972187 -0.52287865
0.0052971337 0.046461392 0.051954847 -0.32315677 -0.19972187 -0.52287865
0.0060787215 0.045678966 0.052310318 -0.32315677 -0.19972187 -0.52287865
0.0068861106 0.04491419 0.052709725 -0.32315677 -0.19972187 -0.52287865
5.5511151e-17 0.038476855 0.039714091 -0.32315677 -0.19972187 -0.52287865
5.5511151e-17 0.037148535 0.038731318 -0.32315677 -0.19972187 -0.52287865
0 0.035825033 0.03775214 -0.32315677 -0.19972187 -0.52287865
5.5511151e-17 0.034506321 0.036776531 -0.32315677 -0.19972187 -0.52287865
5.5511151e-17 0.033192366 0.035804473 -0.32315677 -0.19972187 -0.52287865
5.5511151e-17 0.031883132 0.034835938 -0.32315677 -0.19972187 -0.52287865
5.5511151e-17 0.030578591 0.033870902 -0.32315677 -0.19972187 -0.52287865
0 0.02927871 0.032909341 -0.32315677 -0.19972187 -0.52287865
5.5511151e-17 0.027983459 0.031951234 -0.32315677 -0.19972187 -0.52287865
5.5511151e-17 0.026692804 0.030996557 -0.32315677 -0.19972187 -0.52287865
5.5511151e-17 0.025406716 0.030045286 -0.32315677 -0.19972187 -0.52287865
5.5511151e-17 0.024125166 0.029097399 -0.32315677 -0.19972187 -0.52287865
5.5511151e-17 0.022848122 0.028152874 -0.32315677 -0.19972187 -0.52287865
5.5511151e-17 0.021575553 0.027211687 -0.32315677 -0.19972187 -0.52287865
5.5511151e-17 0.020307433 0.026273819 -0.32315677 -0.19972187 -0.52287865
5.5511151e-17 0.019043729 0.025339244 -0.32315677 -0.19972187 -0.52287865
5.5511151e-17 0.017784413 0.024407944 -0.32315677 -0.19972187 -0.52287865
5.5511151e-17 0.016529456 0.023479894 -0.32315677 -0.19972187 -0.52287865
5.5511151e-17 0.015278828 0.022555076 -0.32315677 -0.19972187 -0.52287865
5.5511151e-17 0.014032503 0.021633467 -0.32315677 -0.19972187 -0.52287865
0 0.012790451 0.020715045 -0.32315677 -0.19972187 -0.52287865
5.5511151e-17 0.011552645 0.019799791 -0.32315677 -0.19972187 -0.52287865
5.5511151e-17 0.010319056 0.018887684 -0.32315677 -0.19972187 -0.52287865
5.5511151e-17 0.0090896571 0.017978702 -0.32315677 -0.19972187 -0.52287865
0 0.0078644212 0.017072825 -0.32315677 -0.19972187 -0.52287865
0 0.0066433204 0.016170034 -0.32315677 -0.19972187 -0.52287865
5.5511151e-17 0.0054263286 0.01527031 -0.32315677 -0.19972187 -0.52287865
5.5511151e-17 0.0042134188 0.014373629 -0.32315677 -0.19972187 -0.52287865
0 0.0030045642 0.013479976 -0.32315677 -0.19972187 -0.52287865
0 0.0017997393 0.012589328 -0.32315677 -0.19972187 -0.52287865
5.5511151e-17 0.00059891766 0.011701668 -0.32315677 -0.19972187 -0.52287865
0.00097037043 0 0.012419549 -0.32315677 -0.19972187 -0.52287865
0.002923822 0 0.014755965 -0.32315677 -0.19972187 -0.52287865
0.018798588 0.0084650433 0.039999999 -0.32315677 -0.19972187 -0.52287865
0.0068823867 0 0.019490672 -0.32315677 -0.19972187 -0.52287865
0.0088879773 0 0.021889534 -0.32315677 -0.19972187 -0.52287865
0.010911432 0 0.024309792 -0.32315677 -0.19972187 -0.52287865
0.012953 0 0.026751744 -0.32315677 -0.19972187 -0.52287865
0.015012938 0 0.029215693 -0.32315677 -0.19972187 -0.52287865
0.017091503 0 0.031701956 -0.32315677 -0.19972187 -0.52287865
0.019188959 0 0.034210842 -0.32315677 -0.19972187 -0.52287865
0.021305578 0 0.03674268 -0.32315677 -0.19972187 -0.52287865
0.023441633 0 0.039297793 -0.32315677 -0.19972187 -0.52287865
0.004398664 0.07248085 0.068186536 -0.32315677 -0.19972187 -0.52287865
0.0023355156 0.069316424 0.063393988 -0.32315677 -0.19972187 -0.52287865
0.0012997997 0.067020647 0.060466394 -0.32315677 -0.19972187 -0.52287865
0.00068549335 0.065084204 0.058305983 -0.32315677 -0.19972187 -0.52287865
0.00031279444 0.063355207 0.056586489 -0.32315677 -0.19972187 -0.52287865
9.5458061e-05 0.061760634 0.055151291 -0.32315677 -0.19972187 -0.52287865
1.5389165e-05 0.060283836 0.053966548 -0.32315677 -0.19972187 -0.52287865
5.8984268e-05 0.058912091 0.05300666 -0.32315677 -0.19972187 -0.52287865
0.00015793537 0.057589382 0.052148927 -0.32315677 -0.19972187 -0.52287865
0.00036059518 0.056353226 0.051478632 -0.32315677 -0.19972187 -0.52287865
0.00061689893 0.055162843 0.05090604 -0.32315677 -0.19972187 -0.52287865
0.00093346409 0.0540227 0.050442334 -0.32315677 -0.19972187 -0.52287865
0.0013166848 0.052936971 0.050098211 -0.32315677 -0.19972187 -0.52287865
0.0017370383 0.051881932 0.049820989 -0.32315677 -0.19972187 -0.52287865
0.0022293185 0.050883882 0.049671534 -0.32315677 -0.19972187 -0.52287865
0.0027474419 0.049906604 0.049568214 -0.32315677 -0.19972187 -0.52287865
0.0033392881 0.048986223 0.049594734 -0.32315677 -0.19972187 -0.52287865
0.0039523477 0.048082031 0.049658492 -0.32315677 -0.19972187 -0.52287865
0.0046405522 0.047234379 0.049853515 -0.32315677 -0.19972187 -0.52287865
0.0053485529 0.046400856 0.050082576 -0.32315677 -0.19972187 -0.52287865
5.5511151e-17 0.041053884 0.039766021 -0.32315677 -0.19972187 -0.52287865
5.5511151e-17 0.039719053 0.038781758 -0.32315677 -0.19972187 -0.52287865
0 0.038389083 0.037801109 -0.32315677 -0.19972187 -0.52287865
5.5511151e-17 0.037063949 0.036824044 -0.32315677 -0.19972187 -0.52287865
5.5511151e-17 0.035743609 0.03585054 -0.32315677 -0.19972187 -0.52287865
5.5511151e-17 0.034428034 0.034880579 -0.32315677 -0.19972187 -0.52287865
5.5511151e-17 0.033117194 0.033914126 -0.32315677 -0.19972187 -0.52287865
5.5511151e-17 0.031811055 0.032951169 -0.32315677 -0.19972187 -0.52287865
5.5511151e-17 0.030509587 0.031991675 -0.32315677 -0.19972187 -0.52287865
5.5511151e-17 0.029212756 0.031035628 -0.32315677 -0.19972187 -0.52287865
0 0.027920533 0.030083001 -0.32315677 -0.19972187 -0.52287865
5.5511151e-17 0.026632888 0.029133771 -0.32315677 -0.19972187 -0.52287865
0 0.025349788 0.028187918 -0.32315677 -0.19972187 -0.52287865
5.5511151e-17 0.024071204 0.027245417 -0.32315677 -0.19972187 -0.52287865
5.5511151e-17 0.022797106 0.026306245 -0.32315677 -0.19972187 -0.52287865
5.5511151e-17 0.021527464 0.025370384 -0.32315677 -0.19972187 -0.52287865
5.5511151e-17 0.020262249 0.024437809 -0.32315677 -0.19972187 -0.52287865
5.5511151e-17 0.01900143 0.023508498 -0.32315677 -0.19972187 -0.52287865
5.5511151e-17 0.017744979 0.02258243 -0.32315677 -0.19972187 -0.52287865
5.5511151e-17 0.016492868 0.021659587 -0.32315677 -0.19972187 -0.52287865
5.5511151e-17 0.015245067 0.020739943 -0.32315677 -0.19972187 -0.52287865
5.5511151e-17 0.014001548 0.019823479 -0.32315677 -0.19972187 -0.52287865
0 0.012762285 0.018910173 -0.32315677 -0.19972187 -0.52287865
5.5511151e-17 0.011527248 0.018000005 -0.32315677 -0.19972187 -0.52287865
5.5511151e-17 0.010296409 0.017092956 -0.32315677 -0.19972187 -0.52287865
0 0.0090697426 0.016189005 -0.32315677 -0.19972187 -0.52287865
5.5511151e-17 0.0078472197 0.015288131 -0.32315677 -0.19972187 -0.52287865
5.5511151e-17 0.0066288142 0.014390315 -0.32315677 -0.19972187 -0.52287865
0 0.0054144994 0.013495537 -0.32315677 -0.19972187 -0.52287865
5.5511151e-17 0.004204249 0.012603776 -0.32315677 -0.19972187 -0.52287865
0 0.0029980366 0.011715014 -0.32315677 -0.19972187 -0.52287865
5.5511151e-17 0.0017958357 0.010829231 -0.32315677 -0.19972187 -0.52287865
0 0.00059762073 0.0099464087 -0.32315677 -0.19972187 -0.52287865
0.00096826634 0 0.01066038 -0.32315677 -0.19972187 -0.52287865
0.0029174546 0 0.012984043 -0.32315677 -0.19972187 -0.52287865
0.0048837098 0 0.015328076 -0.32315677 -0.19972187 -0.52287865
0.020486053 0.0082417317 0.039999999 -0.32315677 -0.19972187 -0.52287865
0.0088683646 0 0.020078374 -0.32315677 -0.19972187 -0.52287865
0.010887247 0 0.022485215 -0.32315677 -0.19972187 -0.52287865
0.012924163 0 0.024913581 -0.32315677 -0.19972187 -0.52287865
0.014979363 0 0.027363768 -0.32315677 -0.19972187 -0.52287865
0.017053107 0 0.029836088 -0.32315677 -0.19972187 -0.52287865
0.019145658 0 0.032330852 -0.32315677 -0.19972187 -0.52287865
0.021257281 0 0.034848377 -0.32315677 -0.19972187 -0.52287865
0.02338825 0 0.037388995 -0.32315677 -0.19972187 -0.52287865
0.025538841 2.7755576e-17 0.039953031 -0.32315677 -0.19972187 -0.52287865
0.0039938344 0.071979158 0.065392978 -0.32315677 -0.19972187 -0.52287865
0.0021839479 0.069030538 0.061075862 -0.32315677 -0.19972187 -0.52287865
0.0012071243 0.06678804 0.058267239 -0.32315677 -0.19972187 -0.52287865
0.00063072884 0.064886965 0.056185186 -0.32315677 -0.19972187 -0.52287865
0.0002846744 0.06318368 0.054522119 -0.32315677 -0.19972187 -0.52287865
8.7238906e-05 0.061609037 0.053130142 -0.32315677 -0.19972187 -0.52287865
7.3774595e-06 0.060136069 0.051952567 -0.32315677 -0.19972187 -0.52287865
6.6144174e-05 0.058780033 0.05102561 -0.32315677 -0.19972187 -0.52287865
0.00017741151 0.057470582 0.050195273 -0.32315677 -0.19972187 -0.52287865
0.00037958598 0.056237388 0.049528979 -0.32315677 -0.19972187 -0.52287865
0.00064594706 0.055058222 0.048978657 -0.32315677 -0.19972187 -0.52287865
0.00096177816 0.05392072 0.04851773 -0.32315677 -0.19972187 -0.52287865
0.0013534329 0.052844737 0.048192102 -0.32315677 -0.19972187 -0.52287865
0.0017728388 0.051792078 0.047916595 -0.32315677 -0.19972187 -0.52287865
0.0022723679 0.050802685 0.047782779 -0.32315677 -0.19972187 -0.52287865
0.0027893516 0.049827553 0.047680195 -0.32315677 -0.19972187 -0.52287865
0.0033875692 0.048915014 0.047720127 -0.32315677 -0.19972187 -0.52287865
0.0039993101 0.048012767 0.047783699 -0.32315677 -0.19972187 -0.52287865
5.5511151e-17 0.043638002 0.039818246 -0.32315677 -0.19972187 -0.52287865
5.5511151e-17 0.0422966 0.038832493 -0.32315677 -0.19972187 -0.52287865
5.5511151e-17 0.040960111 0.037850361 -0.32315677 -0.19972187 -0.52287865
5.5511151e-17 0.039628491 0.036871836 -0.32315677 -0.19972187 -0.52287865
5.5511151e-17 0.038301714 0.035896882 -0.32315677 -0.19972187 -0.52287865
5.5511151e-17 0.036979746 0.034925487 -0.32315677 -0.19972187 -0.52287865
5.5511151e-17 0.035662554 0.033957619 -0.32315677 -0.19972187 -0.52287865
5.5511151e-17 0.034350101 0.032993257 -0.32315677 -0.19972187 -0.52287865
5.5511151e-17 0.033042364 0.032032374 -0.32315677 -0.19972187 -0.52287865
5.5511151e-17 0.031739306 0.03107495 -0.32315677 -0.19972187 -0.52287865
5.5511151e-17 0.030440895 0.030120963 -0.32315677 -0.19972187 -0.52287865
5.5511151e-17 0.029147102 0.029170386 -0.32315677 -0.19972187 -0.52287865
5.5511151e-17 0.027857894 0.0282232 -0.32315677 -0.19972187 -0.52287865
5.5511151e-17 0.026573243 0.027279379 -0.32315677 -0.19972187 -0.52287865
5.5511151e-17 0.025293116 0.026338903 -0.32315677 -0.19972187 -0.52287865
5.5511151e-17 0.024017485 0.025401749 -0.32315677 -0.19972187 -0.52287865
0 0.022746319 0.024467895 -0.32315677 -0.19972187 -0.52287865
5.5511151e-17 0.021479588 0.023537319 -0.32315677 -0.19972187 -0.52287865
0 0.020217266 0.022609999 -0.32315677 -0.19972187 -0.52287865
5.5511151e-17 0.018959319 0.021685915 -0.32315677 -0.19972187 -0.52287865
5.5511151e-17 0.01770572 0.020765046 -0.32315677 -0.19972187 -0.52287865
5.5511151e-17 0.016456442 0.019847367 -0.32315677 -0.19972187 -0.52287865
0 0.015211456 0.01893286 -0.32315677 -0.19972187 -0.52287865
5.5511151e-17 0.013970732 0.018021505 -0.32315677 -0.19972187 -0.52287865
5.5511151e-17 0.012734244 0.01711328 -0.32315677 -0.19972187 -0.52287865
5.5511151e-17 0.011501962 0.016208164 -0.32315677 -0.19972187 -0.52287865
5.5511151e-17 0.010273863 0.015306138 -0.32315677 -0.19972187 -0.52287865
5.5511151e-17 0.0090499148 0.014407182 -0.32315677 -0.19972187 -0.52287865
5.5511151e-17 0.0078300936 0.013511275 -0.32315677 -0.19972187 -0.52287865
0 0.0066143717 0.012618398 -0.32315677 -0.19972187 -0.52287865
0 0.0054027229 0.011728532 -0.32315677 -0.19972187 -0.52287865
5.5511151e-17 0.0041951197 0.010841656 -0.32315677 -0.19972187 -0.52287865
0 0.0029915373 0.0099577513 -0.32315677 -0.19972187 -0.52287865
0 0.001791949 0.0090767993 -0.32315677 -0.19972187 -0.52287865
0 0.00059632951 0.0081987809 -0.32315677 -0.19972187 -0.52287865
0.00096617144 0 0.0089088706 -0.32315677 -0.19972187 -0.52287865
0.0029111151 0 0.011219869 -0.32315677 -0.19972187 -0.52287865
0.0048730513 0 0.013551077 -0.32315677 -0.19972187 -0.52287865
0.0068522133 0 0.015902771 -0.32315677 -0.19972187 -0.52287865
0.0088488385 0 0.018275237 -0.32315677 -0.19972187 -0.52287865
0.01086317 0 0.020668758 -0.32315677 -0.19972187 -0.52287865
0.012895454 0 0.023083633 -0.32315677 -0.19972187 -0.52287865
0.01494594 0 0.025520155 -0.32315677 -0.19972187 -0.52287865
0.017014885 0 0.027978634 -0.32315677 -0.19972187 -0.52287865
0.019102551 0 0.030459374 -0.32315677 -0.19972187 -0.52287865
0.021209203 0 0.032962695 -0.32315677 -0.19972187 -0.52287865
0.02333511 0 0.035488918 -0.32315677 -0.19972187 -0.52287865
0.025480548 0 0.038038373 -0.32315677 -0.19972187 -0.52287865
0.0037387719 0.07160297 0.062882692 -0.32315677 -0.19972187 -0.52287865
0.0020332397 0.068746269 0.05877088 -0.32315677 -0.19972187 -0.52287865
0.0011149405 0.06655667 0.056079749 -0.32315677 -0.19972187 -0.52287865
0.00057624158 0.064690724 0.054075122 -0.32315677 -0.19972187 -0.52287865
0.00025669188 0.063013002 0.052467845 -0.32315677 -0.19972187 -0.52287865
7.9058867e-05 0.061458167 0.051118612 -0.32315677 -0.19972187 -0.52287865
5.4641077e-07 0.059989922 0.049950175 -0.32315677 -0.19972187 -0.52287865
7.3270799e-05 0.05864859 0.049053766 -0.32315677 -0.19972187 -0.52287865
0.00019679878 0.057352327 0.048250534 -0.32315677 -0.19972187 -0.52287865
0.00039849026 0.056122079 0.047588214 -0.32315677 -0.19972187 -0.52287865
0.0006748648 0.054954074 0.047059916 -0.32315677 -0.19972187 -0.52287865
0.0009899654 0.053819202 0.046601757 -0.32315677 -0.19972187 -0.52287865
0.0013900186 0.052752912 0.046294425 -0.32315677 -0.19972187 -0.52287865
0.0018084809 0.051702619 0.04602062 -0.32315677 -0.19972187 -0.52287865
0.0023152295 0.050721839 0.045902275 -0.32315677 -0.19972187 -0.52287865
0.0028310784 0.049748849 0.045800421 -0.32315677 -0.19972187 -0.52287865
5.5511151e-17 0.046229284 0.039870743 -0.32315677 -0.19972187 -0.52287865
5.5511151e-17 0.044881258 0.038883489 -0.32315677 -0.19972187 -0.52287865
0 0.043538187 0.037899874 -0.32315677 -0.19972187 -0.52287865
5.5511151e-17 0.042200033 0.036919881 -0.32315677 -0.19972187 -0.52287865
5.5511151e-17 0.040866762 0.035943475 -0.32315677 -0.19972187 -0.52287865
0 0.039538343 0.034970641 -0.32315677 -0.19972187 -0.52287865
5.5511151e-17 0.038214743 0.03400135 -0.32315677 -0.19972187 -0.52287865
0 0.036895927 0.033035576 -0.32315677 -0.19972187 -0.52287865
0 0.035581864 0.0320733 -0.32315677 -0.19972187 -0.52287865
5.5511151e-17 0.034272525 0.0311145 -0.32315677 -0.19972187 -0.52287865
0 0.032967873 0.030159146 -0.32315677 -0.19972187 -0.52287865
5.5511151e-17 0.031667881 0.029207218 -0.32315677 -0.19972187 -0.52287865
0 0.030372513 0.028258694 -0.32315677 -0.19972187 -0.52287865
0 0.029081741 0.027313551 -0.32315677 -0.19972187 -0.52287865
5.5511151e-17 0.027795536 0.026371764 -0.32315677 -0.19972187 -0.52287865
0 0.026513865 0.025433315 -0.32315677 -0.19972187 -0.52287865
5.5511151e-17 0.025236698 0.024498178 -0.32315677 -0.19972187 -0.52287865
0 0.023964006 0.023566332 -0.32315677 -0.19972187 -0.52287865
5.5511151e-17 0.022695759 0.022637757 -0.32315677 -0.19972187 -0.52287865
5.5511151e-17 0.021431927 0.02171243 -0.32315677 -0.19972187 -0.52287865
5.5511151e-17 0.020172482 0.020790327 -0.32315677 -0.19972187 -0.52287865
0 0.018917395 0.019871432 -0.32315677 -0.19972187 -0.52287865
5.5511151e-17 0.017666636 0.018955721 -0.32315677 -0.19972187 -0.52287865
0 0.016420178 0.018043173 -0.32315677 -0.19972187 -0.52287865
5.5511151e-17 0.015177992 0.017133769 -0.32315677 -0.19972187 -0.52287865
5.5511151e-17 0.01394005 0.016227486 -0.32315677 -0.19972187 -0.52287865
0 0.012706325 0.015324304 -0.32315677 -0.19972187 -0.52287865
0 0.011476789 0.014424205 -0.32315677 -0.19972187 -0.52287865
0 0.010251414 0.013527166 -0.32315677 -0.19972187 -0.52287865
5.5511151e-17 0.0090301745 0.01263317 -0.32315677 -0.19972187 -0.52287865
0 0.007813043 0.011742195 -0.32315677 -0.19972187 -0.52287865
0 0.0065999925 0.010854224 -0.32315677 -0.19972187 -0.52287865
5.5511151e-17 0.005390997 0.0099692345 -0.32315677 -0.19972187 -0.52287865
5.5511151e-17 0.00418603 0.0090872096 -0.32315677 -0.19972187 -0.52287865
5.5511151e-17 0.0029850663 0.0082081286 -0.32315677 -0.19972187 -0.52287865
0 0.0017880793 0.0073319739 -0.32315677 -0.19972187 -0.52287865
0 0.00059504382 0.0064587262 -0.32315677 -0.19972187 -0.52287865
0.00096408563 0 0.0071649621 -0.32315677 -0.19972187 -0.52287865
0.0029048033 0 0.0094633829 -0.32315677 -0.19972187 -0.52287865
0.0048624394 0 0.011781855 -0.32315677 -0.19972187 -0.52287865
0.006837226 0 0.014120655 -0.32315677 -0.19972187 -0.52287865
0.008829399 0 0.01648006 -0.32315677 -0.19972187 -0.52287865
0.0108392 0 0.018860357 -0.32315677 -0.19972187 -0.52287865
0.012866872 0 0.021261835 -0.32315677 -0.19972187 -0.52287865
0.014912666 0 0.023684792 -0.32315677 -0.19972187 -0.52287865
0.016976835 0 0.026129527 -0.32315677 -0.19972187 -0.52287865
0.019059639 0 0.028596347 -0.32315677 -0.19972187 -0.52287865
0.021161342 0 0.031085566 -0.32315677 -0.19972187 -0.52287865
0.023282211 0 0.033597499 -0.32315677 -0.19972187 -0.52287865
0.025422523 0 0.036132477 -0.32315677 -0.19972187 -0.52287865
0.027582554 0 0.038690824 -0.32315677 -0.19972187 -0.52287865
0.0034853122 0.071229145 0.060388181 -0.32315677 -0.19972187 -0.52287865
0.0018833826 0.068463609 0.056478914 -0.32315677 -0.19972187 -0.52287865
0.0010325464 0.066334158 0.05392037 -0.32315677 -0.19972187 -0.52287865
0.00052202924 0.064495467 0.051975708 -0.32315677 -0.19972187 -0.52287865
0.00022884578 0.062843151 0.050423581 -0.32315677 -0.19972187 -0.52287865
7.0917631e-05 0.061308008 0.049116623 -0.32315677 -0.19972187 -0.52287865
7.8199937e-06 0.059855767 0.047982104 -0.32315677 -0.19972187 -0.52287865
8.0364422e-05 0.058517754 0.047091056 -0.32315677 -0.19972187 -0.52287865
0.00021609788 0.057234608 0.046314638 -0.32315677 -0.19972187 -0.52287865
0.00041730868 0.056007292 0.04565626 -0.32315677 -0.19972187 -0.52287865
0.00070365326 0.054850388 0.045149758 -0.32315677 -0.19972187 -0.52287865
0.0010180266 0.053718135 0.044694345 -0.32315677 -0.19972187 -0.52287865
0.0014264431 0.05266149 0.044405114 -0.32315677 -0.19972187 -0.52287865
0.0018439662 0.051613554 0.044132996 -0.32315677 -0.19972187 -0.52287865
5.5511151e-17 0.048827808 0.039923485 -0.32315677 -0.19972187 -0.52287865
5.5511151e-17 0.047473107 0.038934726 -0.32315677 -0.19972187 -0.52287865
5.5511151e-17 0.046123397 0.037949625 -0.32315677 -0.19972187 -0.52287865
5.5511151e-17 0.044778652 0.036968153 -0.32315677 -0.19972187 -0.52287865
5.5511151e-17 0.043438833 0.035990294 -0.32315677 -0.19972187 -0.52287865
5.5511151e-17 0.042103905 0.035016015 -0.32315677 -0.19972187 -0.52287865
0 0.040773842 0.034045294 -0.32315677 -0.19972187 -0.52287865
5.5511151e-17 0.039448608 0.033078108 -0.32315677 -0.19972187 -0.52287865
5.5511151e-17 0.038128167 0.032114435 -0.32315677 -0.19972187 -0.52287865
5.5511151e-17 0.036812492 0.031154249 -0.32315677 -0.19972187 -0.52287865
5.5511151e-17 0.035501543 0.030197525 -0.32315677 -0.19972187 -0.52287865
5.5511151e-17 0.034195296 0.029244242 -0.32315677 -0.19972187 -0.52287865
5.5511151e-17 0.032893717 0.028294375 -0.32315677 -0.19972187 -0.52287865
5.5511151e-17 0.031596776 0.027347904 -0.32315677 -0.19972187 -0.52287865
5.5511151e-17 0.030304439 0.026404805 -0.32315677 -0.19972187 -0.52287865
5.5511151e-17 0.029016675 0.025465054 -0.32315677 -0.19972187 -0.52287865
0 0.027733458 0.02452863 -0.32315677 -0.19972187 -0.52287865
5.5511151e-17 0.026454752 0.023595512 -0.32315677 -0.19972187 -0.52287865
5.5511151e-17 0.025180532 0.022665676 -0.32315677 -0.19972187 -0.52287865
5.5511151e-17 0.023910766 0.021739101 -0.32315677 -0.19972187 -0.52287865
5.5511151e-17 0.022645423 0.020815767 -0.32315677 -0.19972187 -0.52287865
5.5511151e-17 0.021384478 0.01989565 -0.32315677 -0.19972187 -0.52287865
0 0.020127898 0.01897873 -0.32315677 -0.19972187 -0.52287865
0 0.018875657 0.018064987 -0.32315677 -0.19972187 -0.52287865
5.5511151e-17 0.017627725 0.017154399 -0.32315677 -0.19972187 -0.52287865
5.5511151e-17 0.016384074 0.016246945 -0.32315677 -0.19972187 -0.52287865
5.5511151e-17 0.015144676 0.015342604 -0.32315677 -0.19972187 -0.52287865
0 0.013909504 0.014441359 -0.32315677 -0.19972187 -0.52287865
5.5511151e-17 0.012678529 0.013543186 -0.32315677 -0.19972187 -0.52287865
5.5511151e-17 0.011451726 0.012648067 -0.32315677 -0.19972187 -0.52287865
5.5511151e-17 0.010229065 0.011755981 -0.32315677 -0.19972187 -0.52287865
0 0.0090105208 0.01086691 -0.32315677 -0.19972187 -0.52287865
5.5511151e-17 0.0077960668 0.0099808341 -0.32315677 -0.19972187 -0.52287865
5.5511151e-17 0.0065856758 0.0090977326 -0.32315677 -0.19972187 -0.52287865
5.5511151e-17 0.0053793225 0.0082175871 -0.32315677 -0.19972187 -0.52287865
5.5511151e-17 0.0041769799 0.0073403786 -0.32315677 -0.19972187 -0.52287865
0 0.0029786231 0.0064660884 -0.32315677 -0.19972187 -0.52287865
5.5511151e-17 0.0017842263 0.0055946978 -0.32315677 -0.19972187 -0.52287865
5.5511151e-17 0.00059376372 0.0047261878 -0.32315677 -0.19972187 -0.52287865
0.00096200884 0 0.0054285959 -0.32315677 -0.19972187 -0.52287865
0.0028985187 0 0.0077145272 -0.32315677 -0.19972187 -0.52287865
0.004851874 0 0.010020353 -0.32315677 -0.19972187 -0.52287865
0.0068223043 0 0.012346347 -0.32315677 -0.19972187 -0.52287865
0.0088100452 0 0.014692785 -0.32315677 -0.19972187 -0.52287865
0.010815335 0 0.01705995 -0.32315677 -0.19972187 -0.52287865
0.025571203 0.0075686071 0.039999999 -0.32315677 -0.19972187 -0.52287865
0.014879541 0 0.021857614 -0.32315677 -0.19972187 -0.52287865
0.016938956 0 0.024288705 -0.32315677 -0.19972187 -0.52287865
0.019016922 0 0.026741702 -0.32315677 -0.19972187 -0.52287865
0.021113699 0 0.029216919 -0.32315677 -0.19972187 -0.52287865
0.023229554 0 0.03171467 -0.32315677 -0.19972187 -0.52287865
0.025364762 0 0.034235273 -0.32315677 -0.19972187 -0.52287865
0.027519597 0 0.036779061 -0.32315677 -0.19972187 -0.52287865
0.029694343 0 0.039346363 -0.32315677 -0.19972187 -0.52287865
0.0032334395 0.070857659 0.057909288 -0.32315677 -0.19972187 -0.52287865
0.0017766026 0.068217367 0.054274864 -0.32315677 -0.19972187 -0.52287865
0.00097713328 0.066134579 0.051819313 -0.32315677 -0.19972187 -0.52287865
0.00046808948 0.0643012 0.049886849 -0.32315677 -0.19972187 -0.52287865
0.0002011349 0.06267412 0.048389249 -0.32315677 -0.19972187 -0.52287865
6.2814885e-05 0.06115856 0.047124099 -0.32315677 -0.19972187 -0.52287865
1.5059945e-05 0.059722234 0.046023134 -0.32315677 -0.19972187 -0.52287865
8.7425302e-05 0.058387522 0.045137402 -0.32315677 -0.19972187 -0.52287865
0.0002353095 0.057117425 0.044387519 -0.32315677 -0.19972187 -0.52287865
0.00043604194 0.055893026 0.043733053 -0.32315677 -0.19972187 -0.52287865
0.00073231343 0.054747164 0.043248113 -0.32315677 -0.19972187 -0.52287865
0.0010459629 0.053617522 0.042795423 -0.32315677 -0.19972187 -0.52287865
5.5511151e-17 0.051433664 0.039976444 -0.32315677 -0.19972187 -0.52287865
5.5511151e-17 0.050072219 0.038986176 -0.32315677 -0.19972187 -0.52287865
5.5511151e-17 0.048715819 0.037999578 -0.32315677 -0.19972187 -0.52287865
5.5511151e-17 0.047364421 0.03701663 -0.32315677 -0.19972187 -0.52287865
5.5511151e-17 0.046017997 0.036037307 -0.32315677 -0.19972187 -0.52287865
5.5511151e-17 0.044676512 0.035061579 -0.32315677 -0.19972187 -0.52287865
5.5511151e-17 0.04333993 0.034089427 -0.32315677 -0.19972187 -0.52287865
0 0.042008217 0.033120826 -0.32315677 -0.19972187 -0.52287865
5.5511151e-17 0.040681347 0.032155748 -0.32315677 -0.19972187 -0.52287865
5.5511151e-17 0.039359279 0.031194171 -0.32315677 -0.19972187 -0.52287865
5.5511151e-17 0.038041983 0.030236075 -0.32315677 -0.19972187 -0.52287865
5.5511151e-17 0.036729433 0.02928143 -0.32315677 -0.19972187 -0.52287865
5.5511151e-17 0.035421588 0.02833022 -0.32315677 -0.19972187 -0.52287865
5.5511151e-17 0.034118418 0.027382417 -0.32315677 -0.19972187 -0.52287865
5.5511151e-17 0.032819897 0.026437998 -0.32315677 -0.19972187 -0.52287865
0 0.031525992 0.025496943 -0.32315677 -0.19972187 -0.52287865
5.5511151e-17 0.030236669 0.02455923 -0.32315677 -0.19972187 -0.52287865
0 0.028951902 0.023624834 -0.32315677 -0.19972187 -0.52287865
5.5511151e-17 0.027671656 0.022693735 -0.32315677 -0.19972187 -0.52287865
5.5511151e-17 0.026395904 0.021765908 -0.32315677 -0.19972187 -0.52287865
5.5511151e-17 0.025124617 0.020841336 -0.32315677 -0.19972187 -0.52287865
5.5511151e-17 0.023857761 0.019919995 -0.32315677 -0.19972187 -0.52287865
5.5511151e-17 0.022595312 0.019001862 -0.32315677 -0.19972187 -0.52287865
5.5511151e-17 0.021337239 0.01808692 -0.32315677 -0.19972187 -0.52287865
5.5511151e-17 0.020083511 0.017175145 -0.32315677 -0.19972187 -0.52287865
5.5511151e-17 0.018834103 0.016266517 -0.32315677 -0.19972187 -0.52287865
5.5511151e-17 0.017588986 0.015361015 -0.32315677 -0.19972187 -0.52287865
0 0.016348129 0.014458619 -0.32315677 -0.19972187 -0.52287865
5.5511151e-17 0.015111507 0.013559309 -0.32315677 -0.19972187 -0.52287865
5.5511151e-17 0.013879091 0.012663064 -0.32315677 -0.19972187 -0.52287865
0 0.012650856 0.011769865 -0.32315677 -0.19972187 -0.52287865
0 0.011426772 0.010879691 -0.32315677 -0.19972187 -0.52287865
5.5511151e-17 0.010206813 0.0099925241 -0.32315677 -0.19972187 -0.52287865
5.5511151e-17 0.0089909527 0.0091083432 -0.32315677 -0.19972187 -0.52287865
0 0.0077791638 0.0082271304 -0.32315677 -0.19972187 -0.52287865
5.5511151e-17 0.0065714214 0.0073488662 -0.32315677 -0.19972187 -0.52287865
5.5511151e-17 0.0053676981 0.0064735305 -0.32315677 -0.19972187 -0.52287865
0 0.0041679689 0.0056011057 -0.32315677 -0.19972187 -0.52287865
5.5511151e-17 0.002972208 0.0047315732 -0.32315677 -0.19972187 -0.52287865
0 0.0017803898 0.0038649135 -0.32315677 -0.19972187 -0.52287865
5.5511151e-17 0.00059248909 0.0030011088 -0.32315677 -0.19972187 -0.52287865
0.00095994101 0 0.0036997155 -0.32315677 -0.19972187 -0.52287865
0.0028922614 0 0.0059732427 -0.32315677 -0.19972187 -0.52287865
0.0048413542 0 0.0082665104 -0.32315677 -0.19972187 -0.52287865
0.0068074479 0 0.010579788 -0.32315677 -0.19972187 -0.52287865
0.0087907761 0 0.012913349 -0.32315677 -0.19972187 -0.52287865
0.010791576 0 0.015267474 -0.32315677 -0.19972187 -0.52287865
0.01281009 0 0.017642446 -0.32315677 -0.19972187 -0.52287865
0.027273934 0.0073431768 0.039999999 -0.32315677 -0.19972187 -0.52287865
0.016901245 0 0.022456098 -0.32315677 -0.19972187 -0.52287865
0.018974394 0 0.024895376 -0.32315677 -0.19972187 -0.52287865
0.021066269 0 0.02735669 -0.32315677 -0.19972187 -0.52287865
0.023177136 0 0.029840358 -0.32315677 -0.19972187 -0.52287865
0.025307262 0 0.032346696 -0.32315677 -0.19972187 -0.52287865
0.030677941 0.0018348024 0.039999999 -0.32315677 -0.19972187 -0.52287865
0.029626409 0 0.037428681 -0.32315677 -0.19972187 -0.52287865
0.0029831375 0.070488498 0.055445854 -0.32315677 -0.19972187 -0.52287865
0.0016832341 0.067983024 0.052105334 -0.32315677 -0.19972187 -0.52287865
0.00092199881 0.065936007 0.049728822 -0.32315677 -0.19972187 -0.52287865
0.00043955442 0.064128399 0.047852781 -0.32315677 -0.19972187 -0.52287865
0.00017355816 0.062505916 0.046364762 -0.32315677 -0.19972187 -0.52287865
5.4750311e-05 0.061009817 0.045140963 -0.32315677 -0.19972187 -0.52287865
2.2266533e-05 0.059589315 0.044073191 -0.32315677 -0.19972187 -0.52287865
9.4453695e-05 0.058257893 0.043192741 -0.32315677 -0.19972187 -0.52287865
0.00025443436 0.057000771 0.042469103 -0.32315677 -0.19972187 -0.52287865
0.00045469066 0.055779275 0.041818522 -0.32315677 -0.19972187 -0.52287865
0.00076084625 0.054644402 0.041354917 -0.32315677 -0.19972187 -0.52287865
5.5511151e-17 0.052678682 0.039037813 -0.32315677 -0.19972187 -0.52287865
0 0.051315527 0.038049717 -0.32315677 -0.19972187 -0.52287865
0 0.049957424 0.037065286 -0.32315677 -0.19972187 -0.52287865
5.5511151e-17 0.048604339 0.036084495 -0.32315677 -0.19972187 -0.52287865
5.5511151e-17 0.047256235 0.035107315 -0.32315677 -0.19972187 -0.52287865
5.5511151e-17 0.045913078 0.034133725 -0.32315677 -0.19972187 -0.52287865
5.5511151e-17 0.044574838 0.0331637 -0.32315677 -0.19972187 -0.52287865
0 0.043241479 0.032197215 -0.32315677 -0.19972187 -0.52287865
5.5511151e-17 0.041912965 0.031234244 -0.32315677 -0.19972187 -0.52287865
5.5511151e-17 0.040589269 0.030274767 -0.32315677 -0.19972187 -0.52287865
5.5511151e-17 0.039270353 0.029318761 -0.32315677 -0.19972187 -0.52287865
5.5511151e-17 0.037956189 0.028366199 -0.32315677 -0.19972187 -0.52287865
0 0.036646746 0.02741706 -0.32315677 -0.19972187 -0.52287865
5.5511151e-17 0.035341989 0.026471319 -0.32315677 -0.19972187 -0.52287865
5.5511151e-17 0.034041885 0.025528956 -0.32315677 -0.19972187 -0.52287865
5.5511151e-17 0.032746408 0.024589948 -0.32315677 -0.19972187 -0.52287865
5.5511151e-17 0.031455524 0.023654271 -0.32315677 -0.19972187 -0.52287865
0 0.030169204 0.022721903 -0.32315677 -0.19972187 -0.52287865
5.5511151e-17 0.028887415 0.021792823 -0.32315677 -0.19972187 -0.52287865
5.5511151e-17 0.027610131 0.020867009 -0.32315677 -0.19972187 -0.52287865
0 0.026337318 0.019944441 -0.32315677 -0.19972187 -0.52287865
5.5511151e-17 0.025068948 0.019025093 -0.32315677 -0.19972187 -0.52287865
0 0.023804992 0.018108947 -0.32315677 -0.19972187 -0.52287865
5.5511151e-17 0.022545423 0.017195981 -0.32315677 -0.19972187 -0.52287865
