# .PCD v0.7 - Point Cloud Data file format
VERSION 0.7
FIELDS x y z vp_x vp_y vp_z
SIZE 4 4 4 4 4 4
TYPE F F F F F F
COUNT 1 1 1 1 1 1
WIDTH 736
HEIGHT 1
VIEWPOINT 0 0 0 1 0 0 0
POINTS 736
DATA ascii
0.035616361 0 0.0070063439 0.19972187 -0.52287865 -0.32315677
0.036656689 0 0.0067834817 0.19972187 -0.52287865 -0.32315677
0.037695777 0 0.0065609189 0.19972187 -0.52287865 -0.32315677
0.038733639 0 0.0063386541 0.19972187 -0.52287865 -0.32315677
0.039770283 0 0.0061166855 0.19972187 -0.52287865 -0.32315677
0.039999999 0.0026510195 0.00756332 0.19972187 -0.52287865 -0.32315677
0.039999999 0.0060935584 0.0095057776 0.19972187 -0.52287865 -0.32315677
0.039999999 0.0095774271 0.01147159 0.19972187 -0.52287865 -0.32315677
0.039999999 0.01310339 0.013461191 0.19972187 -0.52287865 -0.32315677
0.039999999 0.016672233 0.015475024 0.19972187 -0.52287865 -0.32315677
0.039999999 0.020284763 0.017513545 0.19972187 -0.52287865 -0.32315677
0.039999999 0.023941802 0.019577218 0.19972187 -0.52287865 -0.32315677
0.039999999 0.027644198 0.021666523 0.19972187 -0.52287865 -0.32315677
0.039999999 0.031392816 0.023781948 0.19972187 -0.52287865 -0.32315677
0.039999999 0.035188552 0.025923999 0.19972187 -0.52287865 -0.32315677
0.039999999 0.03903231 0.028093189 0.19972187 -0.52287865 -0.32315677
0.039999999 0.042925034 0.030290049 0.19972187 -0.52287865 -0.32315677
0.039999999 0.04686768 0.03251512 0.19972187 -0.52287865 -0.32315677
0.039999999 0.050861236 0.034768965 0.19972187 -0.52287865 -0.32315677
0.039999999 0.054906718 0.037052147 0.19972187 -0.52287865 -0.32315677
0.039999999 0.05900516 0.039365262 0.19972187 -0.52287865 -0.32315677
0.00054275797 0 0.013355366 0.19972187 -0.52287865 -0.32315677
0.0016271506 0 0.013122689 0.19972187 -0.52287865 -0.32315677
0.0027100525 0 0.012890364 0.19972187 -0.52287865 -0.32315677
0.0037914719 0 0.01265839 0.19972187 -0.52287865 -0.32315677
0.0048714173 0 0.012426766 0.19972187 -0.52287865 -0.32315677
0.0059498968 0 0.012195488 0.19972187 -0.52287865 -0.32315677
0.0070269187 0 0.011964555 0.19972187 -0.52287865 -0.32315677
0.0081024915 0 0.011733966 0.19972187 -0.52287865 -0.32315677
0.0091766231 0 0.011503718 0.19972187 -0.52287865 -0.32315677
0.010249321 0 0.011273811 0.19972187 -0.52287865 -0.32315677
0.011320595 0 0.011044241 0.19972187 -0.52287865 -0.32315677
0.012390452 0 0.010815007 0.19972187 -0.52287865 -0.32315677
0.013458899 0 0.010586108 0.19972187 -0.52287865 -0.32315677
0.014525947 0 0.010357541 0.19972187 -0.52287865 -0.32315677
0.015591601 0 0.010129306 0.19972187 -0.52287865 -0.32315677
0.016655872 0 0.0099013988 0.19972187 -0.52287865 -0.32315677
0.017718764 0 0.0096738199 0.19972187 -0.52287865 -0.32315677
0.018780287 0 0.0094465669 0.19972187 -0.52287865 -0.32315677
0.019840449 0 0.0092196371 0.19972187 -0.52287865 -0.32315677
0.020899259 0 0.0089930296 0.19972187 -0.52287865 -0.32315677
0.021956721 0 0.0087667424 0.19972187 -0.52287865 -0.32315677
0.023012847 0 0.0085407738 0.19972187 -0.52287865 -0.32315677
0.024067642 0 0.0083151218 0.19972187 -0.52287865 -0.32315677
0.025121115 0 0.0080897855 0.19972187 -0.52287865 -0.32315677
0.026173273 0 0.007864763 0.19972187 -0.52287865 -0.32315677
0.027224123 0 0.0076400526 0.19972187 -0.52287865 -0.32315677
0.028273674 0 0.0074156518 0.19972187 -0.52287865 -0.32315677
0.029321931 0 0.0071915598 0.19972187 -0.52287865 -0.32315677
0.030368906 0 0.0069677746 0.19972187 -0.52287865 -0.32315677
0.031414602 0 0.0067442949 0.19972187 -0.52287865 -0.32315677
0.032459028 0 0.0065211183 0.19972187 -0.52287865 -0.32315677
0.033502195 0 0.006298244 0.19972187 -0.52287865 -0.32315677
0.034544103 0 0.0060756695 0.19972187 -0.52287865 -0.32315677
0.035584766 0 0.005853394 0.19972187 -0.52287865 -0.32315677
0.036624186 0 0.0056314156 0.19972187 -0.52287865 -0.32315677
0.037662376 0 0.0054097325 0.19972187 -0.52287865 -0.32315677
0.03869934 0 0.0051883431 0.19972187 -0.52287865 -0.32315677
0.039735086 0 0.0049672462 0.19972187 -0.52287865 -0.32315677
0.039999999 0.0025316863 0.0063340892 0.19972187 -0.52287865 -0.32315677
0.039999999 0.0059696659 0.0082670506 0.19972187 -0.52287865 -0.32315677
0.039999999 0.0094488729 0.010223224 0.19972187 -0.52287865 -0.32315677
0.039999999 0.01297007 0.01220304 0.19972187 -0.52287865 -0.32315677
0.039999999 0.016534042 0.014206938 0.19972187 -0.52287865 -0.32315677
0.039999999 0.020141589 0.01623537 0.19972187 -0.52287865 -0.32315677
0.039999999 0.023793532 0.018288799 0.19972187 -0.52287865 -0.32315677
0.039999999 0.027490716 0.020367701 0.19972187 -0.52287865 -0.32315677
0.039999999 0.031234005 0.022472559 0.19972187 -0.52287865 -0.32315677
0.039999999 0.035024285 0.024603875 0.19972187 -0.52287865 -0.32315677
0.039999999 0.038862463 0.02676216 0.19972187 -0.52287865 -0.32315677
0.039999999 0.042749479 0.02894794 0.19972187 -0.52287865 -0.32315677
0.039999999 0.046686284 0.031161753 0.19972187 -0.52287865 -0.32315677
0.039999999 0.050673861 0.033404153 0.19972187 -0.52287865 -0.32315677
0.039999999 0.054713219 0.035675708 0.19972187 -0.52287865 -0.32315677
0.039999999 0.058805399 0.037976999 0.19972187 -0.52287865 -0.32315677
0.00054226664 0 0.012173059 0.19972187 -0.52287865 -0.32315677
0.0016256786 0 0.011941406 0.19972187 -0.52287865 -0.32315677
0.0027076025 0 0.011710102 0.19972187 -0.52287865 -0.32315677
0.0037880465 0 0.011479143 0.19972187 -0.52287865 -0.32315677
0.0048670191 0 0.011248529 0.19972187 -0.52287865 -0.32315677
0.0059445286 0 0.011018257 0.19972187 -0.52287865 -0.32315677
0.0070205829 0 0.010788326 0.19972187 -0.52287865 -0.32315677
0.0080951909 0 0.010558734 0.19972187 -0.52287865 -0.32315677
0.0091683604 0 0.010329479 0.19972187 -0.52287865 -0.32315677
0.010240098 0 0.010100559 0.19972187 -0.52287865 -0.32315677
0.011310415 0 0.0098719737 0.19972187 -0.52287865 -0.32315677
0.012379318 0 0.0096437186 0.19972187 -0.52287865 -0.32315677
0.013446813 0 0.0094157942 0.19972187 -0.52287865 -0.32315677
0.014512911 0 0.0091881985 0.19972187 -0.52287865 -0.32315677
0.015577618 0 0.0089609288 0.19972187 -0.52287865 -0.32315677
0.016640943 0 0.0087339841 0.19972187 -0.52287865 -0.32315677
0.017702892 0 0.0085073616 0.19972187 -0.52287865 -0.32315677
0.018763477 0 0.0082810614 0.19972187 -0.52287865 -0.32315677
0.019822702 0 0.0080550797 0.19972187 -0.52287865 -0.32315677
0.020880576 0 0.0078294165 0.19972187 -0.52287865 -0.32315677
0.021937106 0 0.0076040691 0.19972187 -0.52287865 -0.32315677
0.0229923 0 0.0073790359 0.19972187 -0.52287865 -0.32315677
0.024046168 0 0.0071543157 0.19972187 -0.52287865 -0.32315677
0.025098713 0 0.0069299066 0.19972187 -0.52287865 -0.32315677
0.026149947 0 0.0067058066 0.19972187 -0.52287865 -0.32315677
0.027199877 0 0.006482014 0.19972187 -0.52287865 -0.32315677
0.028248508 0 0.0062585277 0.19972187 -0.52287865 -0.32315677
0.029295851 0 0.0060353456 0.19972187 -0.52287865 -0.32315677
0.030341908 0 0.0058124661 0.19972187 -0.52287865 -0.32315677
0.031386692 0 0.005589888 0.19972187 -0.52287865 -0.32315677
0.032430209 0 0.0053676092 0.19972187 -0.52287865 -0.32315677
0.033472467 0 0.005145628 0.19972187 -0.52287865 -0.32315677
0.03451347 0 0.004923943 0.19972187 -0.52287865 -0.32315677
0.035553228 0 0.0047025522 0.19972187 -0.52287865 -0.32315677
0.036591746 0 0.0044814544 0.19972187 -0.52287865 -0.32315677
0.037629034 0 0.004260648 0.19972187 -0.52287865 -0.32315677
0.038665101 0 0.0040401318 0.19972187 -0.52287865 -0.32315677
0.039699949 0 0.0038199031 0.19972187 -0.52287865 -0.32315677
0.039999999 0.0024126251 0.0051076561 0.19972187 -0.52287865 -0.32315677
0.039999999 0.0058460566 0.0070311595 0.19972187 -0.52287865 -0.32315677
0.039999999 0.0093206149 0.0089777326 0.19972187 -0.52287865 -0.32315677
0.039999999 0.01283706 0.010947802 0.19972187 -0.52287865 -0.32315677
0.039999999 0.016396172 0.012941806 0.19972187 -0.52287865 -0.32315677
0.039999999 0.01999875 0.014960191 0.19972187 -0.52287865 -0.32315677
0.039999999 0.023645611 0.017003419 0.19972187 -0.52287865 -0.32315677
0.039999999 0.027337598 0.019071959 0.19972187 -0.52287865 -0.32315677
0.039999999 0.031075571 0.021166293 0.19972187 -0.52287865 -0.32315677
0.039999999 0.034860414 0.02328692 0.19972187 -0.52287865 -0.32315677
0.039999999 0.038693029 0.025434345 0.19972187 -0.52287865 -0.32315677
0.039999999 0.04257435 0.027609091 0.19972187 -0.52287865 -0.32315677
0.039999999 0.046505328 0.029811693 0.19972187 -0.52287865 -0.32315677
0.039999999 0.050486945 0.032042701 0.19972187 -0.52287865 -0.32315677
0.039999999 0.054520205 0.034302674 0.19972187 -0.52287865 -0.32315677
0.039999999 0.058606133 0.036592197 0.19972187 -0.52287865 -0.32315677
0.039999999 0.062745795 0.038911857 0.19972187 -0.52287865 -0.32315677
0.00054177619 0 0.010992951 0.19972187 -0.52287865 -0.32315677
0.0016242092 0 0.010762319 0.19972187 -0.52287865 -0.32315677
0.002705157 0 0.010532031 0.19972187 -0.52287865 -0.32315677
0.0037846274 0 0.010302084 0.19972187 -0.52287865 -0.32315677
0.0048626293 0 0.010072477 0.19972187 -0.52287865 -0.32315677
0.0059391703 0 0.0098432079 0.19972187 -0.52287865 -0.32315677
0.0070142592 0 0.0096142758 0.19972187 -0.52287865 -0.32315677
0.0080879042 0 0.0093856771 0.19972187 -0.52287865 -0.32315677
0.0091601126 0 0.0091574118 0.19972187 -0.52287865 -0.32315677
0.010230893 0 0.0089294771 0.19972187 -0.52287865 -0.32315677
0.011300255 0 0.0087018711 0.19972187 -0.52287865 -0.32315677
0.012368204 0 0.0084745931 0.19972187 -0.52287865 -0.32315677
0.013434749 0 0.0082476409 0.19972187 -0.52287865 -0.32315677
0.014499899 0 0.0080210119 0.19972187 -0.52287865 -0.32315677
0.01556366 0 0.0077947048 0.19972187 -0.52287865 -0.32315677
0.016626041 0 0.0075687179 0.19972187 -0.52287865 -0.32315677
0.017687052 0 0.0073430501 0.19972187 -0.52287865 -0.32315677
0.018746696 0 0.0071176989 0.19972187 -0.52287865 -0.32315677
0.019804986 0 0.0068926634 0.19972187 -0.52287865 -0.32315677
0.020861926 0 0.0066679409 0.19972187 -0.52287865 -0.32315677
0.021917526 0 0.0064435303 0.19972187 -0.52287865 -0.32315677
0.022971792 0 0.0062194299 0.19972187 -0.52287865 -0.32315677
0.024024732 0 0.0059956377 0.19972187 -0.52287865 -0.32315677
0.025076354 0 0.0057721524 0.19972187 -0.52287865 -0.32315677
0.026126666 0 0.0055489722 0.19972187 -0.52287865 -0.32315677
0.027175674 0 0.005326095 0.19972187 -0.52287865 -0.32315677
0.02822339 0 0.0051035201 0.19972187 -0.52287865 -0.32315677
0.029269814 0 0.0048812451 0.19972187 -0.52287865 -0.32315677
0.030314961 0 0.0046592685 0.19972187 -0.52287865 -0.32315677
0.031358834 0 0.0044375891 0.19972187 -0.52287865 -0.32315677
0.032401443 0 0.0042162044 0.19972187 -0.52287865 -0.32315677
0.033442792 0 0.003995114 0.19972187 -0.52287865 -0.32315677
0.034482889 0 0.0037743149 0.19972187 -0.52287865 -0.32315677
0.035521746 0 0.0035538066 0.19972187 -0.52287865 -0.32315677
0.036559366 0 0.003333587 0.19972187 -0.52287865 -0.32315677
0.037595756 0 0.0031136547 0.19972187 -0.52287865 -0.32315677
0.038630925 0 0.0028940078 0.19972187 -0.52287865 -0.32315677
0.039664879 0 0.0026746453 0.19972187 -0.52287865 -0.32315677
0.039999999 0.0022938338 0.0038840047 0.19972187 -0.52287865 -0.32315677
0.039999999 0.0057227295 0.0057980879 0.19972187 -0.52287865 -0.32315677
0.039999999 0.0091926511 0.0077350992 0.19972187 -0.52287865 -0.32315677
0.039999999 0.012704356 0.009695462 0.19972187 -0.52287865 -0.32315677
0.039999999 0.016258622 0.011679611 0.19972187 -0.52287865 -0.32315677
0.039999999 0.019856244 0.013687992 0.19972187 -0.52287865 -0.32315677
0.039999999 0.023498038 0.015721058 0.19972187 -0.52287865 -0.32315677
0.039999999 0.027184842 0.01777928 0.19972187 -0.52287865 -0.32315677
0.039999999 0.030917514 0.019863136 0.19972187 -0.52287865 -0.32315677
0.039999999 0.034696933 0.021973116 0.19972187 -0.52287865 -0.32315677
0.039999999 0.038524002 0.024109729 0.19972187 -0.52287865 -0.32315677
0.039999999 0.042399649 0.026273489 0.19972187 -0.52287865 -0.32315677
0.039999999 0.046324819 0.028464926 0.19972187 -0.52287865 -0.32315677
0.039999999 0.05030049 0.030684588 0.19972187 -0.52287865 -0.32315677
0.039999999 0.054327663 0.03293303 0.19972187 -0.52287865 -0.32315677
0.039999999 0.058407363 0.035210833 0.19972187 -0.52287865 -0.32315677
0.039999999 0.06254065 0.03751858 0.19972187 -0.52287865 -0.32315677
0.039999999 0.066728599 0.039856881 0.19972187 -0.52287865 -0.32315677
0.00054128666 0 0.0098150289 0.19972187 -0.52287865 -0.32315677
0.0016227426 0 0.009585415 0.19972187 -0.52287865 -0.32315677
0.002702716 0 0.0093561392 0.19972187 -0.52287865 -0.32315677
0.0037812148 0 0.0091272015 0.19972187 -0.52287865 -0.32315677
0.0048582475 0 0.0088985991 0.19972187 -0.52287865 -0.32315677
0.0059338221 0 0.00867033 0.19972187 -0.52287865 -0.32315677
0.0070079472 0 0.0084423926 0.19972187 -0.52287865 -0.32315677
0.0080806306 0 0.0082147848 0.19972187 -0.52287865 -0.32315677
0.0091518806 0 0.0079875048 0.19972187 -0.52287865 -0.32315677
0.010221705 0 0.0077605522 0.19972187 -0.52287865 -0.32315677
0.011290113 0 0.0075339237 0.19972187 -0.52287865 -0.32315677
0.01235711 0 0.0073076184 0.19972187 -0.52287865 -0.32315677
0.013422707 0 0.0070816339 0.19972187 -0.52287865 -0.32315677
0.014486911 0 0.0068559693 0.19972187 -0.52287865 -0.32315677
0.015549729 0 0.0066306219 0.19972187 -0.52287865 -0.32315677
0.016611168 0 0.0064055906 0.19972187 -0.52287865 -0.32315677
0.01767124 0 0.0061808736 0.19972187 -0.52287865 -0.32315677
0.018729948 0 0.0059564691 0.19972187 -0.52287865 -0.32315677
0.019787302 0 0.0057323757 0.19972187 -0.52287865 -0.32315677
0.020843312 0 0.0055085914 0.19972187 -0.52287865 -0.32315677
0.021897981 0 0.0052851145 0.19972187 -0.52287865 -0.32315677
0.02295132 0 0.0050619435 0.19972187 -0.52287865 -0.32315677
0.024003334 0 0.0048390767 0.19972187 -0.52287865 -0.32315677
0.025054034 0 0.004616512 0.19972187 -0.52287865 -0.32315677
0.026103426 0 0.0043942486 0.19972187 -0.52287865 -0.32315677
0.027151518 0 0.0041722842 0.19972187 -0.52287865 -0.32315677
0.028198315 0 0.0039506177 0.19972187 -0.52287865 -0.32315677
0.029243827 0 0.0037292468 0.19972187 -0.52287865 -0.32315677
0.030288061 0 0.0035081701 0.19972187 -0.52287865 -0.32315677
0.031331025 0 0.0032873864 0.19972187 -0.52287865 -0.32315677
0.032372728 0 0.0030668937 0.19972187 -0.52287865 -0.32315677
0.033413172 0 0.0028466906 0.19972187 -0.52287865 -0.32315677
0.034452368 0 0.0026267751 0.19972187 -0.52287865 -0.32315677
0.035490323 0 0.0024071462 0.19972187 -0.52287865 -0.32315677
0.036527041 0 0.0021878018 0.19972187 -0.52287865 -0.32315677
0.037562538 0 0.0019687407 0.19972187 -0.52287865 -0.32315677
0.038596813 0 0.0017499609 0.19972187 -0.52287865 -0.32315677
0.039629873 0 0.0015314614 0.19972187 -0.52287865 -0.32315677
0.039999999 0.0021753109 0.0026631197 0.19972187 -0.52287865 -0.32315677
0.039999999 0.0055996827 0.0045678201 0.19972187 -0.52287865 -0.32315677
0.039999999 0.0090649799 0.0064953077 0.19972187 -0.52287865 -0.32315677
0.039999999 0.012571957 0.0084460033 0.19972187 -0.52287865 -0.32315677
0.039999999 0.016121389 0.010420338 0.19972187 -0.52287865 -0.32315677
0.039999999 0.01971407 0.012418753 0.19972187 -0.52287865 -0.32315677
0.039999999 0.023350811 0.014441702 0.19972187 -0.52287865 -0.32315677
0.039999999 0.027032448 0.016489647 0.19972187 -0.52287865 -0.32315677
0.039999999 0.030759832 0.018563068 0.19972187 -0.52287865 -0.32315677
0.039999999 0.034533843 0.020662447 0.19972187 -0.52287865 -0.32315677
0.039999999 0.03835538 0.022788292 0.19972187 -0.52287865 -0.32315677
0.039999999 0.042225365 0.024941109 0.19972187 -0.52287865 -0.32315677
0.039999999 0.046144746 0.027121432 0.19972187 -0.52287865 -0.32315677
0.039999999 0.05011449 0.029329797 0.19972187 -0.52287865 -0.32315677
0.039999999 0.054135595 0.031566761 0.19972187 -0.52287865 -0.32315677
0.039999999 0.058209088 0.033832893 0.19972187 -0.52287865 -0.32315677
0.039999999 0.062336013 0.036128778 0.19972187 -0.52287865 -0.32315677
0.039999999 0.066517457 0.038455017 0.19972187 -0.52287865 -0.32315677
0.00054079801 0 0.0086392816 0.19972187 -0.52287865 -0.32315677
0.0016212788 0 0.008410682 0.19972187 -0.52287865 -0.32315677
0.0027002795 0 0.0081824167 0.19972187 -0.52287865 -0.32315677
0.0037778083 0 0.0079544848 0.19972187 -0.52287865 -0.32315677
0.004853874 0 0.0077268826 0.19972187 -0.52287865 -0.32315677
0.0059284838 0 0.0074996096 0.19972187 -0.52287865 -0.32315677
0.0070016468 0 0.007272664 0.19972187 -0.52287865 -0.32315677
0.0080733709 0 0.0070460439 0.19972187 -0.52287865 -0.32315677
0.0091436636 0 0.0068197474 0.19972187 -0.52287865 -0.32315677
0.010212534 0 0.0065937727 0.19972187 -0.52287865 -0.32315677
0.011279989 0 0.0063681183 0.19972187 -0.52287865 -0.32315677
0.012346038 0 0.0061427825 0.19972187 -0.52287865 -0.32315677
0.013410687 0 0.0059177638 0.19972187 -0.52287865 -0.32315677
0.014473946 0 0.0056930594 0.19972187 -0.52287865 -0.32315677
0.015535822 0 0.0054686689 0.19972187 -0.52287865 -0.32315677
0.016596323 0 0.0052445899 0.19972187 -0.52287865 -0.32315677
0.017655456 0 0.005020821 0.19972187 -0.52287865 -0.32315677
0.01871323 0 0.0047973599 0.19972187 -0.52287865 -0.32315677
0.019769652 0 0.0045742057 0.19972187 -0.52287865 -0.32315677
0.02082473 0 0.0043513565 0.19972187 -0.52287865 -0.32315677
0.021878472 0 0.00412881 0.19972187 -0.52287865 -0.32315677
0.022930885 0 0.0039065657 0.19972187 -0.52287865 -0.32315677
0.023981977 0 0.0036846211 0.19972187 -0.52287865 -0.32315677
0.025031757 0 0.0034629747 0.19972187 -0.52287865 -0.32315677
0.026080228 0 0.0032416249 0.19972187 -0.52287865 -0.32315677
0.027127404 0 0.0030205701 0.19972187 -0.52287865 -0.32315677
0.028173286 0 0.002799809 0.19972187 -0.52287865 -0.32315677
0.029217888 0 0.0025793393 0.19972187 -0.52287865 -0.32315677
0.030261211 0 0.00235916 0.19972187 -0.52287865 -0.32315677
0.031303268 0 0.0021392691 0.19972187 -0.52287865 -0.32315677
0.032344062 0 0.0019196651 0.19972187 -0.52287865 -0.32315677
0.033383604 0 0.0017003467 0.19972187 -0.52287865 -0.32315677
0.034421898 0 0.001481312 0.19972187 -0.52287865 -0.32315677
0.035458956 0 0.0012625594 0.19972187 -0.52287865 -0.32315677
0.036494777 0 0.0010440877 0.19972187 -0.52287865 -0.32315677
0.037529375 0 0.00082589488 0.19972187 -0.52287865 -0.32315677
0.03856276 0 0.00060797966 0.19972187 -0.52287865 -0.32315677
0.03959493 0 0.00039034037 0.19972187 -0.52287865 -0.32315677
0.039999999 0.0020570552 0.0014449861 0.19972187 -0.52287865 -0.32315677
0.039999999 0.0054769148 0.0033403409 0.19972187 -0.52287865 -0.32315677
0.039999999 0.0089375991 0.0052583432 0.19972187 -0.52287865 -0.32315677
0.039999999 0.012439862 0.0071994103 0.19972187 -0.52287865 -0.32315677
0.039999999 0.015984474 0.0091639701 0.19972187 -0.52287865 -0.32315677
0.039999999 0.019572226 0.01115246 0.19972187 -0.52287865 -0.32315677
0.039999999 0.023203928 0.013165331 0.19972187 -0.52287865 -0.32315677
0.039999999 0.02688041 0.015203045 0.19972187 -0.52287865 -0.32315677
0.039999999 0.030602524 0.01726607 0.19972187 -0.52287865 -0.32315677
0.039999999 0.034371141 0.019354895 0.19972187 -0.52287865 -0.32315677
0.039999999 0.038187165 0.021470014 0.19972187 -0.52287865 -0.32315677
0.039999999 0.042051505 0.023611939 0.19972187 -0.52287865 -0.32315677
0.039999999 0.045965109 0.025781192 0.19972187 -0.52287865 -0.32315677
0.039999999 0.049928941 0.027978308 0.19972187 -0.52287865 -0.32315677
0.039999999 0.053943999 0.03020384 0.19972187 -0.52287865 -0.32315677
0.039999999 0.058011297 0.032458354 0.19972187 -0.52287865 -0.32315677
0.039999999 0.062131889 0.034742426 0.19972187 -0.52287865 -0.32315677
0.039999999 0.066306844 0.037056658 0.19972187 -0.52287865 -0.32315677
0.039999999 0.070537262 0.039401662 0.19972187 -0.52287865 -0.32315677
0.00054031028 0 0.0074656983 0.19972187 -0.52287865 -0.32315677
0.0016198176 0 0.0072381096 0.19972187 -0.52287865 -0.32315677
0.0026978476 0 0.0070108511 0.19972187 -0.52287865 -0.32315677
0.0037744083 0 0.0067839203 0.19972187 -0.52287865 -0.32315677
0.0048495079 0 0.0065573161 0.19972187 -0.52287865 -0.32315677
0.0059231552 0 0.0063310363 0.19972187 -0.52287865 -0.32315677
0.0069953576 0 0.0061050793 0.19972187 -0.52287865 -0.32315677
0.0080661243 0 0.0058794431 0.19972187 -0.52287865 -0.32315677
0.0091354614 0 0.0056541264 0.19972187 -0.52287865 -0.32315677
0.010203379 0 0.0054291273 0.19972187 -0.52287865 -0.32315677
0.011269884 0 0.0052044438 0.19972187 -0.52287865 -0.32315677
0.012334985 0 0.0049800747 0.19972187 -0.52287865 -0.32315677
0.013398689 0 0.0047560176 0.19972187 -0.52287865 -0.32315677
0.014461005 0 0.0045322715 0.19972187 -0.52287865 -0.32315677
0.015521941 0 0.0043088342 0.19972187 -0.52287865 -0.32315677
0.016581504 0 0.0040857047 0.19972187 -0.52287865 -0.32315677
0.017639702 0 0.0038628802 0.19972187 -0.52287865 -0.32315677
0.018696543 0 0.00364036 0.19972187 -0.52287865 -0.32315677
0.019752033 0 0.003418142 0.19972187 -0.52287865 -0.32315677
0.020806184 0 0.0031962246 0.19972187 -0.52287865 -0.32315677
0.021859 0 0.0029746061 0.19972187 -0.52287865 -0.32315677
0.022910489 0 0.002753285 0.19972187 -0.52287865 -0.32315677
0.023960659 0 0.0025322598 0.19972187 -0.52287865 -0.32315677
0.025009518 0 0.0023115284 0.19972187 -0.52287865 -0.32315677
0.026057074 0 0.0020910895 0.19972187 -0.52287865 -0.32315677
0.027103333 0 0.0018709416 0.19972187 -0.52287865 -0.32315677
0.028148305 0 0.0016510828 0.19972187 -0.52287865 -0.32315677
0.029191995 0 0.0014315116 0.19972187 -0.52287865 -0.32315677
0.030234411 0 0.0012122265 0.19972187 -0.52287865 -0.32315677
0.031275559 0 0.00099322572 0.19972187 -0.52287865 -0.32315677
0.032315452 0 0.00077450782 0.19972187 -0.52287865 -0.32315677
0.033354089 0 0.00055607123 0.19972187 -0.52287865 -0.32315677
0.034391485 0 0.00033791439 0.19972187 -0.52287865 -0.32315677
0.035427645 0 0.00012003564 0.19972187 -0.52287865 -0.32315677
0.036413267 0.0001579136 0 0.19972187 -0.52287865 -0.32315677
0.037338044 0.00051000551 0 0.19972187 -0.52287865 -0.32315677
0.038262989 0.00086212781 0 0.19972187 -0.52287865 -0.32315677
0.039188106 0.0012142821 0 0.19972187 -0.52287865 -0.32315677
0.039999999 0.0019390652 0.00022958856 0.19972187 -0.52287865 -0.32315677
0.039999999 0.005354424 0.002115635 0.19972187 -0.52287865 -0.32315677
0.039999999 0.008810509 0.0040241894 0.19972187 -0.52287865 -0.32315677
0.039999999 0.01230807 0.0059556663 0.19972187 -0.52287865 -0.32315677
0.039999999 0.015847875 0.007910491 0.19972187 -0.52287865 -0.32315677
0.039999999 0.01943071 0.009889097 0.19972187 -0.52287865 -0.32315677
0.039999999 0.023057386 0.011891932 0.19972187 -0.52287865 -0.32315677
0.039999999 0.026728727 0.013919453 0.19972187 -0.52287865 -0.32315677
0.039999999 0.030445585 0.01597213 0.19972187 -0.52287865 -0.32315677
0.039999999 0.034208827 0.018050442 0.19972187 -0.52287865 -0.32315677
0.039999999 0.038019348 0.020154882 0.19972187 -0.52287865 -0.32315677
0.039999999 0.04187806 0.022285957 0.19972187 -0.52287865 -0.32315677
0.039999999 0.045785904 0.024444187 0.19972187 -0.52287865 -0.32315677
0.039999999 0.049743846 0.026630104 0.19972187 -0.52287865 -0.32315677
0.039999999 0.053752869 0.028844252 0.19972187 -0.52287865 -0.32315677
0.039999999 0.057813998 0.031087196 0.19972187 -0.52287865 -0.32315677
0.039999999 0.061928269 0.033359509 0.19972187 -0.52287865 -0.32315677
0.039999999 0.066096753 0.035661787 0.19972187 -0.52287865 -0.32315677
0.039999999 0.070320547 0.037994634 0.19972187 -0.52287865 -0.32315677
0.00053982344 0 0.0062942663 0.19972187 -0.52287865 -0.32315677
0.0016183591 0 0.0060676858 0.19972187 -0.52287865 -0.32315677
0.0026954201 0 0.0058414303 0.19972187 -0.52287865 -0.32315677
0.0037710143 0 0.0056154984 0.19972187 -0.52287865 -0.32315677
0.0048451503 0 0.0053898883 0.19972187 -0.52287865 -0.32315677
0.0059178364 0 0.0051645986 0.19972187 -0.52287865 -0.32315677
0.0069890805 0 0.0049396269 0.19972187 -0.52287865 -0.32315677
0.0080588907 0 0.0047149719 0.19972187 -0.52287865 -0.32315677
0.0091272742 0 0.0044906316 0.19972187 -0.52287865 -0.32315677
0.010194241 0 0.0042666043 0.19972187 -0.52287865 -0.32315677
0.011259798 0 0.004042889 0.19972187 -0.52287865 -0.32315677
0.012323952 0 0.0038194831 0.19972187 -0.52287865 -0.32315677
0.013386713 0 0.0035963852 0.19972187 -0.52287865 -0.32315677
0.014448089 0 0.0033735938 0.19972187 -0.52287865 -0.32315677
0.015508085 0 0.0031511069 0.19972187 -0.52287865 -0.32315677
0.016566712 0 0.0029289231 0.19972187 -0.52287865 -0.32315677
0.017623976 0 0.0027070406 0.19972187 -0.52287865 -0.32315677
0.018679885 0 0.0024854578 0.19972187 -0.52287865 -0.32315677
0.019734446 0 0.002264173 0.19972187 -0.52287865 -0.32315677
0.020787669 0 0.0020431846 0.19972187 -0.52287865 -0.32315677
0.021839561 0 0.0018224911 0.19972187 -0.52287865 -0.32315677
0.022890128 0 0.0016020905 0.19972187 -0.52287865 -0.32315677
0.023939379 0 0.0013819814 0.19972187 -0.52287865 -0.32315677
0.024987319 0 0.0011621623 0.19972187 -0.52287865 -0.32315677
0.02603396 0 0.00094263145 0.19972187 -0.52287865 -0.32315677
0.027079307 0 0.00072338723 0.19972187 -0.52287865 -0.32315677
0.028123366 0 0.00050442806 0.19972187 -0.52287865 -0.32315677
0.029166147 0 0.00028575241 0.19972187 -0.52287865 -0.32315677
0.030207656 0 6.7358647e-05 0.19972187 -0.52287865 -0.32315677
0.031169271 0.00024404022 0 0.19972187 -0.52287865 -0.32315677
0.032095697 0.00059707131 0 0.19972187 -0.52287865 -0.32315677
0.033022266 0.000950129 0 0.19972187 -0.52287865 -0.32315677
0.033948984 0.001303215 0 0.19972187 -0.52287865 -0.32315677
0.034875851 0.0016563311 0 0.19972187 -0.52287865 -0.32315677
0.035802875 0.0020094789 0 0.19972187 -0.52287865 -0.32315677
0.036730062 0.0023626601 0 0.19972187 -0.52287865 -0.32315677
0.03765741 0.0027158763 0 0.19972187 -0.52287865 -0.32315677
0.038584929 0.0030691291 0 0.19972187 -0.52287865 -0.32315677
0.039512619 0.0034224205 0 0.19972187 -0.52287865 -0.32315677
0.039999999 0.0052322093 0.00089368701 0.19972187 -0.52287865 -0.32315677
0.039999999 0.0086837057 0.0027928313 0.19972187 -0.52287865 -0.32315677
0.039999999 0.012176577 0.0047147567 0.19972187 -0.52287865 -0.32315677
0.039999999 0.015711587 0.0066598845 0.19972187 -0.52287865 -0.32315677
0.039999999 0.019289522 0.0086286468 0.19972187 -0.52287865 -0.32315677
0.039999999 0.022911184 0.010621487 0.19972187 -0.52287865 -0.32315677
0.039999999 0.0265774 0.012638859 0.19972187 -0.52287865 -0.32315677
0.039999999 0.030289015 0.014681227 0.19972187 -0.52287865 -0.32315677
0.039999999 0.034046896 0.016749069 0.19972187 -0.52287865 -0.32315677
0.039999999 0.03785193 0.018842876 0.19972187 -0.52287865 -0.32315677
0.039999999 0.041705027 0.020963147 0.19972187 -0.52287865 -0.32315677
0.039999999 0.045607131 0.023110401 0.19972187 -0.52287865 -0.32315677
0.039999999 0.049559198 0.025285164 0.19972187 -0.52287865 -0.32315677
0.039999999 0.053562209 0.027487978 0.19972187 -0.52287865 -0.32315677
0.039999999 0.05761718 0.029719403 0.19972187 -0.52287865 -0.32315677
0.039999999 0.061725151 0.031980008 0.19972187 -0.52287865 -0.32315677
0.039999999 0.065887183 0.034270383 0.19972187 -0.52287865 -0.32315677
0.039999999 0.070104368 0.036591128 0.19972187 -0.52287865 -0.32315677
0.039999999 0.074377842 0.038942859 0.19972187 -0.52287865 -0.32315677
0.00053933752 0 0.0051249745 0.19972187 -0.52287865 -0.32315677
0.0016169032 0 0.0048993984 0.19972187 -0.52287865 -0.32315677
0.0026929968 0 0.0046741427 0.19972187 -0.52287865 -0.32315677
0.0037676266 0 0.0044492064 0.19972187 -0.52287865 -0.32315677
0.0048408005 0 0.0042245877 0.19972187 -0.52287865 -0.32315677
0.005912527 0 0.0040002842 0.19972187 -0.52287865 -0.32315677
0.0069828141 0 0.0037762949 0.19972187 -0.52287865 -0.32315677
0.0080516702 0 0.0035526177 0.19972187 -0.52287865 -0.32315677
0.0091191027 0 0.003329251 0.19972187 -0.52287865 -0.32315677
0.01018512 0 0.0031061929 0.19972187 -0.52287865 -0.32315677
0.011249729 0 0.002883442 0.19972187 -0.52287865 -0.32315677
0.01231294 0 0.0026609963 0.19972187 -0.52287865 -0.32315677
0.013374759 0 0.0024388544 0.19972187 -0.52287865 -0.32315677
0.014435194 0 0.0022170146 0.19972187 -0.52287865 -0.32315677
0.015494254 0 0.001995475 0.19972187 -0.52287865 -0.32315677
0.016551945 0 0.0017742343 0.19972187 -0.52287865 -0.32315677
0.017608277 0 0.0015532906 0.19972187 -0.52287865 -0.32315677
0.018663257 0 0.0013326424 0.19972187 -0.52287865 -0.32315677
0.019716892 0 0.0011122879 0.19972187 -0.52287865 -0.32315677
0.02076919 0 0.00089222548 0.19972187 -0.52287865 -0.32315677
0.021820158 0 0.00067245361 0.19972187 -0.52287865 -0.32315677
0.022869805 0 0.00045297068 0.19972187 -0.52287865 -0.32315677
0.023918137 0 0.00023377506 0.19972187 -0.52287865 -0.32315677
0.024965161 0 1.4865135e-05 0.19972187 -0.52287865 -0.32315677
0.02590129 0.00032989972 0 0.19972187 -0.52287865 -0.32315677
0.026829492 0.00068387185 0 0.19972187 -0.52287865 -0.32315677
0.027757816 0.0010378669 0 0.19972187 -0.52287865 -0.32315677
0.028686265 0.0013918865 0 0.19972187 -0.52287865 -0.32315677
0.029614842 0.0017459324 0 0.19972187 -0.52287865 -0.32315677
0.030543551 0.0021000062 0 0.19972187 -0.52287865 -0.32315677
0.0314724 0.0024541097 0 0.19972187 -0.52287865 -0.32315677
0.03240139 0.0028082444 0 0.19972187 -0.52287865 -0.32315677
0.033330526 0.0031624122 0 0.19972187 -0.52287865 -0.32315677
0.034259811 0.0035166147 0 0.19972187 -0.52287865 -0.32315677
0.035189252 0.0038708537 0 0.19972187 -0.52287865 -0.32315677
0.036118854 0.0042251307 0 0.19972187 -0.52287865 -0.32315677
0.037048619 0.0045794472 0 0.19972187 -0.52287865 -0.32315677
0.037978556 0.0049338052 0 0.19972187 -0.52287865 -0.32315677
0.038908664 0.0052882065 0 0.19972187 -0.52287865 -0.32315677
0.039838947 0.0056426525 0 0.19972187 -0.52287865 -0.32315677
0.039999999 0.0085571893 0.0015642534 0.19972187 -0.52287865 -0.32315677
0.039999999 0.012045383 0.0034766651 0.19972187 -0.52287865 -0.32315677
0.039999999 0.015575611 0.0054121357 0.19972187 -0.52287865 -0.32315677
0.039999999 0.019148657 0.0073710936 0.19972187 -0.52287865 -0.32315677
0.039999999 0.02276532 0.0093539786 0.19972187 -0.52287865 -0.32315677
0.039999999 0.026426423 0.011361242 0.19972187 -0.52287865 -0.32315677
0.039999999 0.030132812 0.013393345 0.19972187 -0.52287865 -0.32315677
0.039999999 0.033885341 0.015450762 0.19972187 -0.52287865 -0.32315677
0.039999999 0.037684906 0.017533978 0.19972187 -0.52287865 -0.32315677
0.039999999 0.041532412 0.019643491 0.19972187 -0.52287865 -0.32315677
0.039999999 0.04542879 0.021779815 0.19972187 -0.52287865 -0.32315677
0.039999999 0.049374994 0.023943473 0.19972187 -0.52287865 -0.32315677
0.039999999 0.053372011 0.026135001 0.19972187 -0.52287865 -0.32315677
0.039999999 0.057420846 0.028354956 0.19972187 -0.52287865 -0.32315677
0.039999999 0.061522532 0.030603902 0.19972187 -0.52287865 -0.32315677
0.039999999 0.065678135 0.032882422 0.19972187 -0.52287865 -0.32315677
0.039999999 0.069888733 0.035191119 0.19972187 -0.52287865 -0.32315677
0.039999999 0.074155465 0.037530601 0.19972187 -0.52287865 -0.32315677
0.039999999 0.078479476 0.039901502 0.19972187 -0.52287865 -0.32315677
0.00053885242 0 0.0039578113 0.19972187 -0.52287865 -0.32315677
0.00161545 0 0.0037332363 0.19972187 -0.52287865 -0.32315677
0.0026905781 0 0.0035089778 0.19972187 -0.52287865 -0.32315677
0.003764245 0 0.0032850336 0.19972187 -0.52287865 -0.32315677
0.0048364587 0 0.0030614026 0.19972187 -0.52287865 -0.32315677
0.0059072278 0 0.0028380828 0.19972187 -0.52287865 -0.32315677
0.0069765593 0 0.0026150723 0.19972187 -0.52287865 -0.32315677
0.0080444627 0 0.0023923698 0.19972187 -0.52287865 -0.32315677
0.0091109453 0 0.0021699732 0.19972187 -0.52287865 -0.32315677
0.010176015 0 0.0019478811 0.19972187 -0.52287865 -0.32315677
0.01123968 0 0.0017260916 0.19972187 -0.52287865 -0.32315677
0.012301947 0 0.0015046033 0.19972187 -0.52287865 -0.32315677
0.013362826 0 0.0012834143 0.19972187 -0.52287865 -0.32315677
0.014422324 0 0.001062523 0.19972187 -0.52287865 -0.32315677
0.015480448 0 0.00084192783 0.19972187 -0.52287865 -0.32315677
0.016537208 0 0.00062162708 0.19972187 -0.52287865 -0.32315677
0.017592609 0 0.00040161909 0.19972187 -0.52287865 -0.32315677
0.018646659 0 0.0001819023 0.19972187 -0.52287865 -0.32315677
0.019678462 6.0723673e-05 0 0.19972187 -0.52287865 -0.32315677
0.020608483 0.00041562159 0 0.19972187 -0.52287865 -0.32315677
0.021538597 0.00077053689 0 0.19972187 -0.52287865 -0.32315677
0.022468807 0.0011254712 0 0.19972187 -0.52287865 -0.32315677
0.023399118 0.0014804264 0 0.19972187 -0.52287865 -0.32315677
0.024329536 0.001835404 0 0.19972187 -0.52287865 -0.32315677
0.025260063 0.0021904057 0 0.19972187 -0.52287865 -0.32315677
0.026190706 0.0025454334 0 0.19972187 -0.52287865 -0.32315677
0.027121466 0.0029004884 0 0.19972187 -0.52287865 -0.32315677
0.028052351 0.0032555729 0 0.19972187 -0.52287865 -0.32315677
0.028983362 0.0036106883 0 0.19972187 -0.52287865 -0.32315677
0.029914506 0.003965836 0 0.19972187 -0.52287865 -0.32315677
0.030845787 0.0043210182 0 0.19972187 -0.52287865 -0.32315677
0.031777211 0.0046762368 0 0.19972187 -0.52287865 -0.32315677
0.032708775 0.0050314926 0 0.19972187 -0.52287865 -0.32315677
0.033640496 0.0053867879 0 0.19972187 -0.52287865 -0.32315677
0.034572367 0.0057421247 0 0.19972187 -0.52287865 -0.32315677
0.035504397 0.0060975039 0 0.19972187 -0.52287865 -0.32315677
0.036436595 0.0064529278 0 0.19972187 -0.52287865 -0.32315677
0.037368957 0.0068083983 0 0.19972187 -0.52287865 -0.32315677
0.038301494 0.0071639162 0 0.19972187 -0.52287865 -0.32315677
0.039234206 0.007519484 0 0.19972187 -0.52287865 -0.32315677
0.039999999 0.0084309578 0.00033844006 0.19972187 -0.52287865 -0.32315677
0.039999999 0.011914486 0.0022413763 0.19972187 -0.52287865 -0.32315677
0.039999999 0.015439944 0.004167228 0.19972187 -0.52287865 -0.32315677
0.039999999 0.019008115 0.0061164214 0.19972187 -0.52287865 -0.32315677
0.039999999 0.022619793 0.0080893924 0.19972187 -0.52287865 -0.32315677
0.039999999 0.026275799 0.010086589 0.19972187 -0.52287865 -0.32315677
0.039999999 0.029976971 0.012108468 0.19972187 -0.52287865 -0.32315677
0.039999999 0.03372417 0.014155501 0.19972187 -0.52287865 -0.32315677
0.039999999 0.037518281 0.016228171 0.19972187 -0.52287865 -0.32315677
0.039999999 0.041360203 0.018326972 0.19972187 -0.52287865 -0.32315677
0.039999999 0.04525087 0.020452412 0.19972187 -0.52287865 -0.32315677
0.039999999 0.049191236 0.022605009 0.19972187 -0.52287865 -0.32315677
0.039999999 0.053182274 0.024785301 0.19972187 -0.52287865 -0.32315677
0.039999999 0.057224989 0.026993833 0.19972187 -0.52287865 -0.32315677
0.039999999 0.061320409 0.029231172 0.19972187 -0.52287865 -0.32315677
0.039999999 0.0654696 0.031497892 0.19972187 -0.52287865 -0.32315677
0.039999999 0.069673635 0.033794589 0.19972187 -0.52287865 -0.32315677
0.039999999 0.073933646 0.036121875 0.19972187 -0.52287865 -0.32315677
0.039999999 0.078250766 0.038480371 0.19972187 -0.52287865 -0.32315677
0.00053836824 0 0.0027927654 0.19972187 -0.52287865 -0.32315677
0.0016139995 0 0.0025691884 0.19972187 -0.52287865 -0.32315677
0.0026881639 0 0.0023459233 0.19972187 -0.52287865 -0.32315677
0.0037608696 0 0.0021229684 0.19972187 -0.52287865 -0.32315677
0.0048321248 0 0.0019003219 0.19972187 -0.52287865 -0.32315677
0.0059019374 0 0.0016779823 0.19972187 -0.52287865 -0.32315677
0.0069703162 0 0.0014559478 0.19972187 -0.52287865 -0.32315677
0.0080372682 0 0.0012342166 0.19972187 -0.52287865 -0.32315677
0.0091028027 0 0.0010127872 0.19972187 -0.52287865 -0.32315677
0.010166926 0 0.00079165789 0.19972187 -0.52287865 -0.32315677
0.011229647 0 0.00057082687 0.19972187 -0.52287865 -0.32315677
0.012290974 0 0.00035029266 0.19972187 -0.52287865 -0.32315677
0.013350915 0 0.00013005346 0.19972187 -0.52287865 -0.32315677
0.014357914 0.0001454892 0 0.19972187 -0.52287865 -0.32315677
0.015290003 0.00050133647 0 0.19972187 -0.52287865 -0.32315677
0.016222162 0.00085719727 0 0.19972187 -0.52287865 -0.32315677
0.017154394 0.0012130731 0 0.19972187 -0.52287865 -0.32315677
0.018086702 0.0015689661 0 0.19972187 -0.52287865 -0.32315677
0.019019093 0.0019248775 0 0.19972187 -0.52287865 -0.32315677
0.019951573 0.0022808092 0 0.19972187 -0.52287865 -0.32315677
0.020884141 0.002636763 0 0.19972187 -0.52287865 -0.32315677
0.021816807 0.0029927404 0 0.19972187 -0.52287865 -0.32315677
0.022749571 0.0033487433 0 0.19972187 -0.52287865 -0.32315677
0.023682442 0.0037047733 0 0.19972187 -0.52287865 -0.32315677
0.02461542 0.0040608319 0 0.19972187 -0.52287865 -0.32315677
0.025548512 0.0044169212 0 0.19972187 -0.52287865 -0.32315677
0.026481722 0.0047730426 0 0.19972187 -0.52287865 -0.32315677
0.027415054 0.0051291985 0 0.19972187 -0.52287865 -0.32315677
0.028348515 0.0054853894 0 0.19972187 -0.52287865 -0.32315677
0.029282106 0.0058416179 0 0.19972187 -0.52287865 -0.32315677
0.030215831 0.0061978856 0 0.19972187 -0.52287865 -0.32315677
0.0311497 0.0065541938 0 0.19972187 -0.52287865 -0.32315677
0.032083713 0.0069105448 0 0.19972187 -0.52287865 -0.32315677
0.033017874 0.0072669396 0 0.19972187 -0.52287865 -0.32315677
0.033952191 0.0076233805 0 0.19972187 -0.52287865 -0.32315677
0.034886666 0.0079798689 0 0.19972187 -0.52287865 -0.32315677
0.0358213 0.0083364071 0 0.19972187 -0.52287865 -0.32315677
0.036756106 0.0086929956 0 0.19972187 -0.52287865 -0.32315677
0.037691083 0.0090496372 0 0.19972187 -0.52287865 -0.32315677
0.038626235 0.0094063338 0 0.19972187 -0.52287865 -0.32315677
0.03956157 0.0097630862 0 0.19972187 -0.52287865 -0.32315677
0.039999999 0.011783884 0.0010088746 0.19972187 -0.52287865 -0.32315677
0.039999999 0.015304586 0.0029251464 0.19972187 -0.52287865 -0.32315677
0.039999999 0.018867893 0.004864614 0.19972187 -0.52287865 -0.32315677
0.039999999 0.0224746 0.0068277107 0.19972187 -0.52287865 -0.32315677
0.039999999 0.02612552 0.0088148806 0.19972187 -0.52287865 -0.32315677
0.039999999 0.029821495 0.010826578 0.19972187 -0.52287865 -0.32315677
0.039999999 0.033563375 0.012863272 0.19972187 -0.52287865 -0.32315677
0.039999999 0.037352044 0.014925439 0.19972187 -0.52287865 -0.32315677
0.039999999 0.041188404 0.01701357 0.19972187 -0.52287865 -0.32315677
0.039999999 0.045073379 0.019128172 0.19972187 -0.52287865 -0.32315677
0.039999999 0.049007919 0.021269757 0.19972187 -0.52287865 -0.32315677
0.039999999 0.052992992 0.023438858 0.19972187 -0.52287865 -0.32315677
0.039999999 0.057029605 0.025636019 0.19972187 -0.52287865 -0.32315677
0.039999999 0.061118782 0.027861798 0.19972187 -0.52287865 -0.32315677
0.039999999 0.06526158 0.030116769 0.19972187 -0.52287865 -0.32315677
0.039999999 0.069459073 0.032401521 0.19972187 -0.52287865 -0.32315677
0.039999999 0.073712379 0.034716658 0.19972187 -0.52287865 -0.32315677
0.039999999 0.078022629 0.037062805 0.19972187 -0.52287865 -0.32315677
0.00053788495 0 0.0016298251 0.19972187 -0.52287865 -0.32315677
0.0016125515 0 0.001407243 0.19972187 -0.52287865 -0.32315677
0.0026857539 0 0.0011849682 0.19972187 -0.52287865 -0.32315677
0.0037575001 0 0.00096299918 0.19972187 -0.52287865 -0.32315677
0.0048277983 0 0.00074133428 0.19972187 -0.52287865 -0.32315677
0.0058966572 0 0.00051997177 0.19972187 -0.52287865 -0.32315677
0.0069640838 0 0.00029890993 0.19972187 -0.52287865 -0.32315677
0.0080300868 0 7.8147161e-05 0.19972187 -0.52287865 -0.32315677
0.0090106856 0.00023037721 0 0.19972187 -0.52287865 -0.32315677
0.0099449791 0.00058717642 0 0.19972187 -0.52287865 -0.32315677
0.010879319 0.00094398519 0 0.19972187 -0.52287865 -0.32315677
0.011813708 0.0013008051 0 0.19972187 -0.52287865 -0.32315677
0.012748151 0.0016576381 0 0.19972187 -0.52287865 -0.32315677
0.013682653 0.0020144857 0 0.19972187 -0.52287865 -0.32315677
0.014617218 0.0023713496 0 0.19972187 -0.52287865 -0.32315677
0.01555185 0.0027282317 0 0.19972187 -0.52287865 -0.32315677
0.016486555 0.0030851336 0 0.19972187 -0.52287865 -0.32315677
0.017421337 0.0034420569 0 0.19972187 -0.52287865 -0.32315677
0.018356198 0.0037990035 0 0.19972187 -0.52287865 -0.32315677
0.019291146 0.0041559753 0 0.19972187 -0.52287865 -0.32315677
0.020226184 0.0045129731 0 0.19972187 -0.52287865 -0.32315677
0.021161316 0.0048699998 0 0.19972187 -0.52287865 -0.32315677
0.022096548 0.0052270568 0 0.19972187 -0.52287865 -0.32315677
0.023031883 0.005584145 0 0.19972187 -0.52287865 -0.32315677
0.023967326 0.0059412671 0 0.19972187 -0.52287865 -0.32315677
0.02490288 0.0062984247 0 0.19972187 -0.52287865 -0.32315677
0.025838554 0.0066556185 0 0.19972187 -0.52287865 -0.32315677
0.026774349 0.0070128515 0 0.19972187 -0.52287865 -0.32315677
0.027710268 0.007370125 0 0.19972187 -0.52287865 -0.32315677
0.02864632 0.0077274404 0 0.19972187 -0.52287865 -0.32315677
0.029582506 0.0080848001 0 0.19972187 -0.52287865 -0.32315677
0.030518832 0.0084422044 0 0.19972187 -0.52287865 -0.32315677
0.031455301 0.0087996572 0 0.19972187 -0.52287865 -0.32315677
0.032391921 0.0091571584 0 0.19972187 -0.52287865 -0.32315677
0.03332869 0.0095147109 0 0.19972187 -0.52287865 -0.32315677
0.034265622 0.0098723145 0 0.19972187 -0.52287865 -0.32315677
0.035202712 0.010229974 0 0.19972187 -0.52287865 -0.32315677
0.036139973 0.010587689 0 0.19972187 -0.52287865 -0.32315677
0.037077401 0.010945461 0 0.19972187 -0.52287865 -0.32315677
0.038015008 0.011303293 0 0.19972187 -0.52287865 -0.32315677
0.038952794 0.011661185 0 0.19972187 -0.52287865 -0.32315677
0.039890766 0.012019142 0 0.19972187 -0.52287865 -0.32315677
0.039999999 0.015169534 0.0016858745 0.19972187 -0.52287865 -0.32315677
0.039999999 0.018727992 0.0036156555 0.19972187 -0.52287865 -0.32315677
0.039999999 0.022329738 0.0055689178 0.19972187 -0.52287865 -0.32315677
0.039999999 0.025975591 0.0075461022 0.19972187 -0.52287865 -0.32315677
0.039999999 0.029666377 0.0095476611 0.19972187 -0.52287865 -0.32315677
0.039999999 0.033402957 0.011574056 0.19972187 -0.52287865 -0.32315677
0.039999999 0.037186202 0.013625764 0.19972187 -0.52287865 -0.32315677
0.039999999 0.041017011 0.015703272 0.19972187 -0.52287865 -0.32315677
0.039999999 0.044896308 0.017807079 0.19972187 -0.52287865 -0.32315677
0.039999999 0.048825037 0.019937698 0.19972187 -0.52287865 -0.32315677
0.039999999 0.052804168 0.022095656 0.19972187 -0.52287865 -0.32315677
0.039999999 0.056834698 0.024281492 0.19972187 -0.52287865 -0.32315677
0.039999999 0.060917649 0.026495762 0.19972187 -0.52287865 -0.32315677
0.039999999 0.065054066 0.028739035 0.19972187 -0.52287865 -0.32315677
0.039999999 0.069245033 0.031011892 0.19972187 -0.52287865 -0.32315677
0.039999999 0.073491655 0.03331494 0.19972187 -0.52287865 -0.32315677
0.039999999 0.077795073 0.035648789 0.19972187 -0.52287865 -0.32315677
0.00053740252 0 0.0004689795 0.19972187 -0.52287865 -0.32315677
0.0016111062 0 0.00024738885 0.19972187 -0.52287865 -0.32315677
0.0026833483 0 2.6101223e-05 0.19972187 -0.52287865 -0.32315677
0.003635884 0.00031552088 0 0.19972187 -0.52287865 -0.32315677
0.0045725228 0.0006732748 0 0.19972187 -0.52287865 -0.32315677
0.0055091828 0.0010310343 0 0.19972187 -0.52287865 -0.32315677
0.0064458689 0.0013888009 0 0.19972187 -0.52287865 -0.32315677
0.0073825847 0.0017465764 0 0.19972187 -0.52287865 -0.32315677
0.0083193351 0.0021043627 0 0.19972187 -0.52287865 -0.32315677
0.0092561254 0.0024621612 0 0.19972187 -0.52287865 -0.32315677
0.010192959 0.002819974 0 0.19972187 -0.52287865 -0.32315677
0.011129841 0.0031778025 0 0.19972187 -0.52287865 -0.32315677
0.012066775 0.0035356488 0 0.19972187 -0.52287865 -0.32315677
0.013003767 0.0038935142 0 0.19972187 -0.52287865 -0.32315677
0.01394082 0.0042514005 0 0.19972187 -0.52287865 -0.32315677
0.014877941 0.0046093101 0 0.19972187 -0.52287865 -0.32315677
0.015815131 0.0049672434 0 0.19972187 -0.52287865 -0.32315677
0.016752398 0.0053252033 0 0.19972187 -0.52287865 -0.32315677
0.017689744 0.0056831911 0 0.19972187 -0.52287865 -0.32315677
0.018627174 0.0060412087 0 0.19972187 -0.52287865 -0.32315677
0.019564694 0.0063992576 0 0.19972187 -0.52287865 -0.32315677
0.020502307 0.0067573395 0 0.19972187 -0.52287865 -0.32315677
0.021440018 0.0071154558 0 0.19972187 -0.52287865 -0.32315677
0.02237783 0.0074736094 0 0.19972187 -0.52287865 -0.32315677
0.023315752 0.0078318007 0 0.19972187 -0.52287865 -0.32315677
0.024253784 0.0081900321 0 0.19972187 -0.52287865 -0.32315677
0.025191931 0.0085483063 0 0.19972187 -0.52287865 -0.32315677
0.026130199 0.0089066224 0 0.19972187 -0.52287865 -0.32315677
0.027068594 0.0092649851 0 0.19972187 -0.52287865 -0.32315677
0.028007118 0.0096233943 0 0.19972187 -0.52287865 -0.32315677
0.028945776 0.009981852 0 0.19972187 -0.52287865 -0.32315677
0.029884573 0.01034036 0 0.19972187 -0.52287865 -0.32315677
0.030823514 0.01069892 0 0.19972187 -0.52287865 -0.32315677
0.0317626 0.011057534 0 0.19972187 -0.52287865 -0.32315677
0.032701842 0.011416204 0 0.19972187 -0.52287865 -0.32315677
0.033641241 0.011774932 0 0.19972187 -0.52287865 -0.32315677
0.034580801 0.012133718 0 0.19972187 -0.52287865 -0.32315677
0.035520524 0.012492565 0 0.19972187 -0.52287865 -0.32315677
0.036460422 0.012851476 0 0.19972187 -0.52287865 -0.32315677
0.037400495 0.01321045 0 0.19972187 -0.52287865 -0.32315677
0.038340747 0.013569491 0 0.19972187 -0.52287865 -0.32315677
0.039281182 0.013928599 0 0.19972187 -0.52287865 -0.32315677
0.039999999 0.015034786 0.00044939751 0.19972187 -0.52287865 -0.32315677
0.039999999 0.018588407 0.0023695307 0.19972187 -0.52287865 -0.32315677
0.039999999 0.022185208 0.0043129981 0.19972187 -0.52287865 -0.32315677
0.039999999 0.025826003 0.0062802378 0.19972187 -0.52287865 -0.32315677
0.039999999 0.029511619 0.0082716979 0.19972187 -0.52287865 -0.32315677
0.039999999 0.033242907 0.010287838 0.19972187 -0.52287865 -0.32315677
0.039999999 0.037020747 0.01232913 0.19972187 -0.52287865 -0.32315677
0.039999999 0.04084602 0.014396057 0.19972187 -0.52287865 -0.32315677
0.039999999 0.044719659 0.016489115 0.19972187 -0.52287865 -0.32315677
0.039999999 0.048642594 0.018608814 0.19972187 -0.52287865 -0.32315677
0.039999999 0.052615799 0.020755677 0.19972187 -0.52287865 -0.32315677
0.039999999 0.05664026 0.022930237 0.19972187 -0.52287865 -0.32315677
0.039999999 0.060717002 0.025133045 0.19972187 -0.52287865 -0.32315677
0.039999999 0.064847067 0.027364669 0.19972187 -0.52287865 -0.32315677
0.039999999 0.069031529 0.029625686 0.19972187 -0.52287865 -0.32315677
0.039999999 0.073271483 0.031916693 0.19972187 -0.52287865 -0.32315677
0.039999999 0.077568077 0.034238301 0.19972187 -0.52287865 -0.32315677
0.00011084827 0.0011184794 0 0.19972187 -0.52287865 -0.32315677
0.0010499724 0.0014771955 0 0.19972187 -0.52287865 -0.32315677
0.0019891025 0.0018359165 0 0.19972187 -0.52287865 -0.32315677
0.002928243 0.0021946442 0 0.19972187 -0.52287865 -0.32315677
0.0038673985 0.0025533801 0 0.19972187 -0.52287865 -0.32315677
0.0048065735 0.002912126 0 0.19972187 -0.52287865 -0.32315677
0.0057457727 0.0032708838 0 0.19972187 -0.52287865 -0.32315677
0.0066850008 0.0036296553 0 0.19972187 -0.52287865 -0.32315677
0.007624262 0.003988442 0 0.19972187 -0.52287865 -0.32315677
0.0085635604 0.0043472457 0 0.19972187 -0.52287865 -0.32315677
0.0095029017 0.004706068 0 0.19972187 -0.52287865 -0.32315677
0.01044229 0.0050649107 0 0.19972187 -0.52287865 -0.32315677
0.01138173 0.0054237759 0 0.19972187 -0.52287865 -0.32315677
0.012321224 0.0057826652 0 0.19972187 -0.52287865 -0.32315677
0.01326078 0.0061415797 0 0.19972187 -0.52287865 -0.32315677
0.014200401 0.0065005221 0 0.19972187 -0.52287865 -0.32315677
0.015140091 0.0068594934 0 0.19972187 -0.52287865 -0.32315677
0.016079856 0.0072184959 0 0.19972187 -0.52287865 -0.32315677
0.017019698 0.0075775306 0 0.19972187 -0.52287865 -0.32315677
0.017959625 0.0079366006 0 0.19972187 -0.52287865 -0.32315677
0.01889964 0.0082957055 0 0.19972187 -0.52287865 -0.32315677
0.019839745 0.0086548487 0 0.19972187 -0.52287865 -0.32315677
0.020779949 0.0090140318 0 0.19972187 -0.52287865 -0.32315677
0.021720255 0.0093732569 0 0.19972187 -0.52287865 -0.32315677
0.022660665 0.0097325239 0 0.19972187 -0.52287865 -0.32315677
0.023601187 0.010091837 0 0.19972187 -0.52287865 -0.32315677
0.024541823 0.010451196 0 0.19972187 -0.52287865 -0.32315677
