# .PCD v0.7 - Point Cloud Data file format
VERSION 0.7
FIELDS x y z vp_x vp_y vp_z
SIZE 4 4 4 4 4 4
TYPE F F F F F F
COUNT 1 1 1 1 1 1
WIDTH 757
HEIGHT 1
VIEWPOINT 0 0 0 1 0 0 0
POINTS 757
DATA ascii
0.035456985 0.023603359 0 -0.19972187 -0.52287865 -0.32315677
0.036440633 0.023229891 0 -0.19972187 -0.52287865 -0.32315677
0.037424438 0.022856457 0 -0.19972187 -0.52287865 -0.32315677
0.038408402 0.022483056 0 -0.19972187 -0.52287865 -0.32315677
0.039392535 0.022109685 0 -0.19972187 -0.52287865 -0.32315677
0 0.076577239 0.018753702 -0.19972187 -0.52287865 -0.32315677
0 0.07306736 0.016979065 -0.19972187 -0.52287865 -0.32315677
2.7755576e-17 0.069594145 0.015222908 -0.19972187 -0.52287865 -0.32315677
0 0.066156998 0.013484937 -0.19972187 -0.52287865 -0.32315677
0 0.062755339 0.01176486 -0.19972187 -0.52287865 -0.32315677
2.7755576e-17 0.059388615 0.010062394 -0.19972187 -0.52287865 -0.32315677
2.7755576e-17 0.056056269 0.0083772605 -0.19972187 -0.52287865 -0.32315677
2.7755576e-17 0.052757766 0.0067091892 -0.19972187 -0.52287865 -0.32315677
2.7755576e-17 0.049492572 0.0050579123 -0.19972187 -0.52287865 -0.32315677
2.7755576e-17 0.046260174 0.003423169 -0.19972187 -0.52287865 -0.32315677
0 0.043060064 0.0018047045 -0.19972187 -0.52287865 -0.32315677
0 0.03989175 0.00020226835 -0.19972187 -0.52287865 -0.32315677
0.0008592779 0.039162491 0 -0.19972187 -0.52287865 -0.32315677
0.0018434558 0.038785364 0 -0.19972187 -0.52287865 -0.32315677
0.0028276085 0.038408354 0 -0.19972187 -0.52287865 -0.32315677
0.0038117408 0.038031448 0 -0.19972187 -0.52287865 -0.32315677
0.0047958582 0.037654649 0 -0.19972187 -0.52287865 -0.32315677
0.0057799653 0.037277952 0 -0.19972187 -0.52287865 -0.32315677
0.0067640678 0.036901359 0 -0.19972187 -0.52287865 -0.32315677
0.0077481698 0.036524866 0 -0.19972187 -0.52287865 -0.32315677
0.0087322779 0.03614847 0 -0.19972187 -0.52287865 -0.32315677
0.0097163962 0.035772171 0 -0.19972187 -0.52287865 -0.32315677
0.010700529 0.035395965 0 -0.19972187 -0.52287865 -0.32315677
0.011684683 0.035019852 0 -0.19972187 -0.52287865 -0.32315677
0.012668863 0.034643829 0 -0.19972187 -0.52287865 -0.32315677
0.013653074 0.034267895 0 -0.19972187 -0.52287865 -0.32315677
0.01463732 0.033892047 0 -0.19972187 -0.52287865 -0.32315677
0.015621608 0.03351628 0 -0.19972187 -0.52287865 -0.32315677
0.016605942 0.0331406 0 -0.19972187 -0.52287865 -0.32315677
0.017590325 0.032764997 0 -0.19972187 -0.52287865 -0.32315677
0.018574767 0.032389473 0 -0.19972187 -0.52287865 -0.32315677
0.01955927 0.032014027 0 -0.19972187 -0.52287865 -0.32315677
0.020543838 0.031638656 0 -0.19972187 -0.52287865 -0.32315677
0.021528479 0.031263355 0 -0.19972187 -0.52287865 -0.32315677
0.022513196 0.030888127 0 -0.19972187 -0.52287865 -0.32315677
0.023497995 0.030512968 0 -0.19972187 -0.52287865 -0.32315677
0.024482882 0.030137874 0 -0.19972187 -0.52287865 -0.32315677
0.02546786 0.029762847 0 -0.19972187 -0.52287865 -0.32315677
0.026452934 0.029387882 0 -0.19972187 -0.52287865 -0.32315677
0.027438112 0.029012978 0 -0.19972187 -0.52287865 -0.32315677
0.028423397 0.028638132 0 -0.19972187 -0.52287865 -0.32315677
0.029408794 0.028263345 0 -0.19972187 -0.52287865 -0.32315677
0.030394308 0.027888613 0 -0.19972187 -0.52287865 -0.32315677
0.031379946 0.027513932 0 -0.19972187 -0.52287865 -0.32315677
0.032365713 0.027139304 0 -0.19972187 -0.52287865 -0.32315677
0.033351611 0.026764726 0 -0.19972187 -0.52287865 -0.32315677
0.034337647 0.026390195 0 -0.19972187 -0.52287865 -0.32315677
0.035323828 0.02601571 0 -0.19972187 -0.52287865 -0.32315677
0.036310155 0.025641268 0 -0.19972187 -0.52287865 -0.32315677
0.037296638 0.025266867 0 -0.19972187 -0.52287865 -0.32315677
0.038283281 0.024892507 0 -0.19972187 -0.52287865 -0.32315677
0.039270084 0.024518184 0 -0.19972187 -0.52287865 -0.32315677
2.7755576e-17 0.076500945 0.017447164 -0.19972187 -0.52287865 -0.32315677
2.7755576e-17 0.072994947 0.01568114 -0.19972187 -0.52287865 -0.32315677
0 0.069525532 0.013933484 -0.19972187 -0.52287865 -0.32315677
0 0.066092111 0.012203906 -0.19972187 -0.52287865 -0.32315677
0 0.06269411 0.010492113 -0.19972187 -0.52287865 -0.32315677
2.7755576e-17 0.059330963 0.0087978272 -0.19972187 -0.52287865 -0.32315677
2.7755576e-17 0.056002133 0.0071207713 -0.19972187 -0.52287865 -0.32315677
0 0.052707072 0.0054606753 -0.19972187 -0.52287865 -0.32315677
0 0.049445257 0.0038172742 -0.19972187 -0.52287865 -0.32315677
0 0.046216171 0.0021903096 -0.19972187 -0.52287865 -0.32315677
0 0.04301931 0.00057952752 -0.19972187 -0.52287865 -0.32315677
0.00062948035 0.041627791 0 -0.19972187 -0.52287865 -0.32315677
0.0016164533 0.04124942 0 -0.19972187 -0.52287865 -0.32315677
0.0026033975 0.040871162 0 -0.19972187 -0.52287865 -0.32315677
0.0035903179 0.040493023 0 -0.19972187 -0.52287865 -0.32315677
0.00457722 0.040114999 0 -0.19972187 -0.52287865 -0.32315677
0.0055641085 0.039737083 0 -0.19972187 -0.52287865 -0.32315677
0.0065509891 0.039359279 0 -0.19972187 -0.52287865 -0.32315677
0.0075378665 0.038981579 0 -0.19972187 -0.52287865 -0.32315677
0.0085247457 0.038603988 0 -0.19972187 -0.52287865 -0.32315677
0.0095116328 0.0382265 0 -0.19972187 -0.52287865 -0.32315677
0.010498531 0.037849113 0 -0.19972187 -0.52287865 -0.32315677
0.011485447 0.037471823 0 -0.19972187 -0.52287865 -0.32315677
0.012472386 0.037094634 0 -0.19972187 -0.52287865 -0.32315677
0.013459353 0.036717542 0 -0.19972187 -0.52287865 -0.32315677
0.014446353 0.036340542 0 -0.19972187 -0.52287865 -0.32315677
0.01543339 0.035963632 0 -0.19972187 -0.52287865 -0.32315677
0.016420471 0.035586815 0 -0.19972187 -0.52287865 -0.32315677
0.0174076 0.035210084 0 -0.19972187 -0.52287865 -0.32315677
0.018394781 0.034833439 0 -0.19972187 -0.52287865 -0.32315677
0.019382022 0.034456875 0 -0.19972187 -0.52287865 -0.32315677
0.020369327 0.034080397 0 -0.19972187 -0.52287865 -0.32315677
0.0213567 0.033703998 0 -0.19972187 -0.52287865 -0.32315677
0.022344148 0.033327676 0 -0.19972187 -0.52287865 -0.32315677
0.023331674 0.032951433 0 -0.19972187 -0.52287865 -0.32315677
0.024319286 0.032575261 0 -0.19972187 -0.52287865 -0.32315677
0.025306987 0.032199163 0 -0.19972187 -0.52287865 -0.32315677
0.026294781 0.031823136 0 -0.19972187 -0.52287865 -0.32315677
0.027282676 0.031447176 0 -0.19972187 -0.52287865 -0.32315677
0.028270675 0.031071283 0 -0.19972187 -0.52287865 -0.32315677
0.029258784 0.030695453 0 -0.19972187 -0.52287865 -0.32315677
0.030247008 0.030319687 0 -0.19972187 -0.52287865 -0.32315677
0.031235354 0.02994398 0 -0.19972187 -0.52287865 -0.32315677
0.032223824 0.029568333 0 -0.19972187 -0.52287865 -0.32315677
0.033212423 0.029192742 0 -0.19972187 -0.52287865 -0.32315677
0.03420116 0.028817207 0 -0.19972187 -0.52287865 -0.32315677
0.035190038 0.028441722 0 -0.19972187 -0.52287865 -0.32315677
0.036179062 0.028066291 0 -0.19972187 -0.52287865 -0.32315677
0.037168238 0.027690906 0 -0.19972187 -0.52287865 -0.32315677
0.038157571 0.027315568 0 -0.19972187 -0.52287865 -0.32315677
0.039147064 0.026940277 0 -0.19972187 -0.52287865 -0.32315677
0 0.079964019 0.01791911 -0.19972187 -0.52287865 -0.32315677
2.7755576e-17 0.076424792 0.01614311 -0.19972187 -0.52287865 -0.32315677
0 0.072922669 0.014385669 -0.19972187 -0.52287865 -0.32315677
2.7755576e-17 0.069457047 0.012646486 -0.19972187 -0.52287865 -0.32315677
0 0.066027343 0.01092527 -0.19972187 -0.52287865 -0.32315677
2.7755576e-17 0.062632985 0.0092217354 -0.19972187 -0.52287865 -0.32315677
0 0.059273422 0.0075356015 -0.19972187 -0.52287865 -0.32315677
0 0.055948094 0.0058665946 -0.19972187 -0.52287865 -0.32315677
0 0.052656468 0.004214447 -0.19972187 -0.52287865 -0.32315677
2.7755576e-17 0.049398024 0.0025788958 -0.19972187 -0.52287865 -0.32315677
2.7755576e-17 0.046172246 0.00095968356 -0.19972187 -0.52287865 -0.32315677
0.00039846214 0.04410756 0 -0.19972187 -0.52287865 -0.32315677
0.0013882478 0.043727916 0 -0.19972187 -0.52287865 -0.32315677
0.0023780011 0.043348398 0 -0.19972187 -0.52287865 -0.32315677
0.0033677274 0.042969007 0 -0.19972187 -0.52287865 -0.32315677
0.0043574315 0.042589732 0 -0.19972187 -0.52287865 -0.32315677
0.0053471192 0.042210579 0 -0.19972187 -0.52287865 -0.32315677
0.0063367952 0.041831542 0 -0.19972187 -0.52287865 -0.32315677
0.0073264646 0.04145262 0 -0.19972187 -0.52287865 -0.32315677
0.0083161332 0.04107381 0 -0.19972187 -0.52287865 -0.32315677
0.009305805 0.040695112 0 -0.19972187 -0.52287865 -0.32315677
0.010295487 0.040316526 0 -0.19972187 -0.52287865 -0.32315677
0.011285182 0.039938044 0 -0.19972187 -0.52287865 -0.32315677
0.012274898 0.03955967 0 -0.19972187 -0.52287865 -0.32315677
0.013264637 0.039181396 0 -0.19972187 -0.52287865 -0.32315677
0.014254407 0.038803227 0 -0.19972187 -0.52287865 -0.32315677
0.015244211 0.038425155 0 -0.19972187 -0.52287865 -0.32315677
0.016234055 0.03804718 0 -0.19972187 -0.52287865 -0.32315677
0.017223947 0.037669301 0 -0.19972187 -0.52287865 -0.32315677
0.018213887 0.037291516 0 -0.19972187 -0.52287865 -0.32315677
0.019203883 0.03691382 0 -0.19972187 -0.52287865 -0.32315677
0.02019394 0.036536217 0 -0.19972187 -0.52287865 -0.32315677
0.021184063 0.0361587 0 -0.19972187 -0.52287865 -0.32315677
0.022174256 0.035781268 0 -0.19972187 -0.52287865 -0.32315677
0.023164527 0.035403918 0 -0.19972187 -0.52287865 -0.32315677
0.024154879 0.035026651 0 -0.19972187 -0.52287865 -0.32315677
0.025145318 0.034649465 0 -0.19972187 -0.52287865 -0.32315677
0.026135849 0.034272358 0 -0.19972187 -0.52287865 -0.32315677
0.027126478 0.033895321 0 -0.19972187 -0.52287865 -0.32315677
0.028117208 0.033518363 0 -0.19972187 -0.52287865 -0.32315677
0.029108046 0.033141475 0 -0.19972187 -0.52287865 -0.32315677
0.030098995 0.032764655 0 -0.19972187 -0.52287865 -0.32315677
0.031090064 0.032387905 0 -0.19972187 -0.52287865 -0.32315677
0.032081254 0.032011222 0 -0.19972187 -0.52287865 -0.32315677
0.033072576 0.031634599 0 -0.19972187 -0.52287865 -0.32315677
0.034064028 0.031258043 0 -0.19972187 -0.52287865 -0.32315677
0.035055619 0.030881543 0 -0.19972187 -0.52287865 -0.32315677
0.036047354 0.030505102 0 -0.19972187 -0.52287865 -0.32315677
0.037039239 0.030128717 0 -0.19972187 -0.52287865 -0.32315677
0.03803128 0.029752387 0 -0.19972187 -0.52287865 -0.32315677
0.039023478 0.029376108 0 -0.19972187 -0.52287865 -0.32315677
0 0.079884067 0.016608862 -0.19972187 -0.52287865 -0.32315677
0 0.076348789 0.014841529 -0.19972187 -0.52287865 -0.32315677
2.7755576e-17 0.072850525 0.01309264 -0.19972187 -0.52287865 -0.32315677
2.7755576e-17 0.069388688 0.0113619 -0.19972187 -0.52287865 -0.32315677
0 0.065962702 0.0096490178 -0.19972187 -0.52287865 -0.32315677
2.7755576e-17 0.06257198 0.0079537118 -0.19972187 -0.52287865 -0.32315677
2.7755576e-17 0.059215982 0.0062757027 -0.19972187 -0.52287865 -0.32315677
0 0.055894155 0.0046147183 -0.19972187 -0.52287865 -0.32315677
0 0.052605961 0.0029704927 -0.19972187 -0.52287865 -0.32315677
0 0.04935088 0.0013427647 -0.19972187 -0.52287865 -0.32315677
0.00016621689 0.046601951 0 -0.19972187 -0.52287865 -0.32315677
0.001158833 0.046221018 0 -0.19972187 -0.52287865 -0.32315677
0.0021514134 0.045840215 0 -0.19972187 -0.52287865 -0.32315677
0.0031439629 0.045459546 0 -0.19972187 -0.52287865 -0.32315677
0.0041364874 0.045079008 0 -0.19972187 -0.52287865 -0.32315677
0.0051289913 0.044698592 0 -0.19972187 -0.52287865 -0.32315677
0.0061214804 0.044318303 0 -0.19972187 -0.52287865 -0.32315677
0.0071139596 0.043938138 0 -0.19972187 -0.52287865 -0.32315677
0.0081064347 0.043558095 0 -0.19972187 -0.52287865 -0.32315677
0.0090989098 0.043178167 0 -0.19972187 -0.52287865 -0.32315677
0.010091391 0.042798359 0 -0.19972187 -0.52287865 -0.32315677
0.011083883 0.042418662 0 -0.19972187 -0.52287865 -0.32315677
0.012076392 0.042039081 0 -0.19972187 -0.52287865 -0.32315677
0.013068922 0.041659612 0 -0.19972187 -0.52287865 -0.32315677
0.014061479 0.041280251 0 -0.19972187 -0.52287865 -0.32315677
0.015054068 0.040900998 0 -0.19972187 -0.52287865 -0.32315677
0.016046694 0.040521849 0 -0.19972187 -0.52287865 -0.32315677
0.017039362 0.040142801 0 -0.19972187 -0.52287865 -0.32315677
0.018032078 0.039763857 0 -0.19972187 -0.52287865 -0.32315677
0.019024845 0.03938501 0 -0.19972187 -0.52287865 -0.32315677
0.020017672 0.039006259 0 -0.19972187 -0.52287865 -0.32315677
0.021010561 0.038627606 0 -0.19972187 -0.52287865 -0.32315677
0.022003518 0.038249046 0 -0.19972187 -0.52287865 -0.32315677
0.02299655 0.037870575 0 -0.19972187 -0.52287865 -0.32315677
0.023989661 0.037492193 0 -0.19972187 -0.52287865 -0.32315677
0.024982855 0.037113901 0 -0.19972187 -0.52287865 -0.32315677
0.025976138 0.036735691 0 -0.19972187 -0.52287865 -0.32315677
0.026969517 0.036357563 0 -0.19972187 -0.52287865 -0.32315677
0.027962994 0.035979521 0 -0.19972187 -0.52287865 -0.32315677
0.028956577 0.035601556 0 -0.19972187 -0.52287865 -0.32315677
0.02995027 0.035223667 0 -0.19972187 -0.52287865 -0.32315677
0.030944077 0.034845855 0 -0.19972187 -0.52287865 -0.32315677
0.031938005 0.034468114 0 -0.19972187 -0.52287865 -0.32315677
0.032932062 0.034090444 0 -0.19972187 -0.52287865 -0.32315677
0.033926245 0.033712845 0 -0.19972187 -0.52287865 -0.32315677
0.03492057 0.033335313 0 -0.19972187 -0.52287865 -0.32315677
0.035915032 0.032957848 0 -0.19972187 -0.52287865 -0.32315677
0.036909644 0.032580446 0 -0.19972187 -0.52287865 -0.32315677
0.037904404 0.032203104 0 -0.19972187 -0.52287865 -0.32315677
0.038899325 0.031825822 0 -0.19972187 -0.52287865 -0.32315677
0.039894406 0.031448595 0 -0.19972187 -0.52287865 -0.32315677
2.7755576e-17 0.079804279 0.015301104 -0.19972187 -0.52287865 -0.32315677
2.7755576e-17 0.076272927 0.013542404 -0.19972187 -0.52287865 -0.32315677
2.7755576e-17 0.072778523 0.011802039 -0.19972187 -0.52287865 -0.32315677
2.7755576e-17 0.069320463 0.010079713 -0.19972187 -0.52287865 -0.32315677
2.7755576e-17 0.065898173 0.0083751371 -0.19972187 -0.52287865 -0.32315677
2.7755576e-17 0.062511086 0.0066880314 -0.19972187 -0.52287865 -0.32315677
0 0.059158649 0.0050181188 -0.19972187 -0.52287865 -0.32315677
0 0.055840313 0.0033651299 -0.19972187 -0.52287865 -0.32315677
0 0.052555542 0.0017287995 -0.19972187 -0.52287865 -0.32315677
2.7755576e-17 0.049303818 0.00010886888 -0.19972187 -0.52287865 -0.32315677
0.0009282027 0.048728876 0 -0.19972187 -0.52287865 -0.32315677
0.0019236279 0.048346773 0 -0.19972187 -0.52287865 -0.32315677
0.002919019 0.047964804 0 -0.19972187 -0.52287865 -0.32315677
0.0039143814 0.047582977 0 -0.19972187 -0.52287865 -0.32315677
0.0049097198 0.047201283 0 -0.19972187 -0.52287865 -0.32315677
0.0059050396 0.04681972 0 -0.19972187 -0.52287865 -0.32315677
0.0069003464 0.046438292 0 -0.19972187 -0.52287865 -0.32315677
0.0078956457 0.04605699 0 -0.19972187 -0.52287865 -0.32315677
0.0088909417 0.045675814 0 -0.19972187 -0.52287865 -0.32315677
0.0098862406 0.045294765 0 -0.19972187 -0.52287865 -0.32315677
0.010881547 0.044913836 0 -0.19972187 -0.52287865 -0.32315677
0.011876866 0.044533029 0 -0.19972187 -0.52287865 -0.32315677
0.012872204 0.044152342 0 -0.19972187 -0.52287865 -0.32315677
0.013867565 0.04377177 0 -0.19972187 -0.52287865 -0.32315677
0.014862956 0.043391313 0 -0.19972187 -0.52287865 -0.32315677
0.01585838 0.043010972 0 -0.19972187 -0.52287865 -0.32315677
0.016853843 0.04263074 0 -0.19972187 -0.52287865 -0.32315677
0.017849352 0.042250615 0 -0.19972187 -0.52287865 -0.32315677
0.01884491 0.041870594 0 -0.19972187 -0.52287865 -0.32315677
0.019840522 0.041490681 0 -0.19972187 -0.52287865 -0.32315677
0.020836195 0.041110873 0 -0.19972187 -0.52287865 -0.32315677
0.021831933 0.040731162 0 -0.19972187 -0.52287865 -0.32315677
0.022827743 0.040351551 0 -0.19972187 -0.52287865 -0.32315677
0.023823628 0.039972037 0 -0.19972187 -0.52287865 -0.32315677
0.024819594 0.039592616 0 -0.19972187 -0.52287865 -0.32315677
0.025815647 0.039213289 0 -0.19972187 -0.52287865 -0.32315677
0.026811793 0.038834054 0 -0.19972187 -0.52287865 -0.32315677
0.027808035 0.038454905 0 -0.19972187 -0.52287865 -0.32315677
0.028804379 0.038075842 0 -0.19972187 -0.52287865 -0.32315677
0.02980083 0.037696868 0 -0.19972187 -0.52287865 -0.32315677
0.030797394 0.037317973 0 -0.19972187 -0.52287865 -0.32315677
0.031794079 0.036939159 0 -0.19972187 -0.52287865 -0.32315677
0.032790884 0.036560427 0 -0.19972187 -0.52287865 -0.32315677
0.033787817 0.03618177 0 -0.19972187 -0.52287865 -0.32315677
0.034784887 0.035803188 0 -0.19972187 -0.52287865 -0.32315677
0.035782095 0.035424676 0 -0.19972187 -0.52287865 -0.32315677
0.036779445 0.035046238 0 -0.19972187 -0.52287865 -0.32315677
0.037776947 0.034667868 0 -0.19972187 -0.52287865 -0.32315677
0.038774606 0.034289565 0 -0.19972187 -0.52287865 -0.32315677
0.039772421 0.033911325 0 -0.19972187 -0.52287865 -0.32315677
2.7755576e-17 0.079724632 0.01399582 -0.19972187 -0.52287865 -0.32315677
2.7755576e-17 0.076197207 0.012245725 -0.19972187 -0.52287865 -0.32315677
2.7755576e-17 0.072706647 0.010513853 -0.19972187 -0.52287865 -0.32315677
2.7755576e-17 0.069252364 0.0087999115 -0.19972187 -0.52287865 -0.32315677
0 0.06583377 0.007103614 -0.19972187 -0.52287865 -0.32315677
0 0.062450308 0.0054246807 -0.19972187 -0.52287865 -0.32315677
0 0.059101421 0.003762838 -0.19972187 -0.52287865 -0.32315677
2.7755576e-17 0.055786569 0.0021178173 -0.19972187 -0.52287865 -0.32315677
0 0.052505217 0.00048935576 -0.19972187 -0.52287865 -0.32315677
0.00069635035 0.051251654 0 -0.19972187 -0.52287865 -0.32315677
0.0016946387 0.050868224 0 -0.19972187 -0.52287865 -0.32315677
0.0026928894 0.05048494 0 -0.19972187 -0.52287865 -0.32315677
0.0036911075 0.050101802 0 -0.19972187 -0.52287865 -0.32315677
0.0046892986 0.049718808 0 -0.19972187 -0.52287865 -0.32315677
0.0056874673 0.049335953 0 -0.19972187 -0.52287865 -0.32315677
0.0066856197 0.048953235 0 -0.19972187 -0.52287865 -0.32315677
0.0076837605 0.048570659 0 -0.19972187 -0.52287865 -0.32315677
0.0086818952 0.048188213 0 -0.19972187 -0.52287865 -0.32315677
0.0096800299 0.047805902 0 -0.19972187 -0.52287865 -0.32315677
0.010678168 0.04742372 0 -0.19972187 -0.52287865 -0.32315677
0.011676316 0.047041669 0 -0.19972187 -0.52287865 -0.32315677
0.01267448 0.046659742 0 -0.19972187 -0.52287865 -0.32315677
0.013672663 0.04627794 0 -0.19972187 -0.52287865 -0.32315677
0.014670872 0.045896262 0 -0.19972187 -0.52287865 -0.32315677
0.015669113 0.045514703 0 -0.19972187 -0.52287865 -0.32315677
0.016667388 0.045133263 0 -0.19972187 -0.52287865 -0.32315677
0.017665707 0.044751942 0 -0.19972187 -0.52287865 -0.32315677
0.018664071 0.044370733 0 -0.19972187 -0.52287865 -0.32315677
0.019662488 0.043989636 0 -0.19972187 -0.52287865 -0.32315677
0.020660961 0.043608651 0 -0.19972187 -0.52287865 -0.32315677
0.021659497 0.043227769 0 -0.19972187 -0.52287865 -0.32315677
0.022658102 0.042847 0 -0.19972187 -0.52287865 -0.32315677
0.02365678 0.042466331 0 -0.19972187 -0.52287865 -0.32315677
0.024655536 0.042085767 0 -0.19972187 -0.52287865 -0.32315677
0.025654374 0.041705303 0 -0.19972187 -0.52287865 -0.32315677
0.026653303 0.041324936 0 -0.19972187 -0.52287865 -0.32315677
0.027652327 0.040944666 0 -0.19972187 -0.52287865 -0.32315677
0.028651448 0.040564492 0 -0.19972187 -0.52287865 -0.32315677
0.029650677 0.040184408 0 -0.19972187 -0.52287865 -0.32315677
0.030650014 0.039804414 0 -0.19972187 -0.52287865 -0.32315677
0.031649467 0.039424513 0 -0.19972187 -0.52287865 -0.32315677
0.03264904 0.039044693 0 -0.19972187 -0.52287865 -0.32315677
0.033648741 0.038664959 0 -0.19972187 -0.52287865 -0.32315677
0.034648571 0.038285308 0 -0.19972187 -0.52287865 -0.32315677
0.03564854 0.037905734 0 -0.19972187 -0.52287865 -0.32315677
0.03664865 0.037526242 0 -0.19972187 -0.52287865 -0.32315677
0.037648909 0.037146825 0 -0.19972187 -0.52287865 -0.32315677
0.038649321 0.036767483 0 -0.19972187 -0.52287865 -0.32315677
0.039649889 0.036388215 0 -0.19972187 -0.52287865 -0.32315677
2.7755576e-17 0.079645142 0.012692997 -0.19972187 -0.52287865 -0.32315677
2.7755576e-17 0.076121628 0.010951477 -0.19972187 -0.52287865 -0.32315677
2.7755576e-17 0.072634906 0.0092280703 -0.19972187 -0.52287865 -0.32315677
2.7755576e-17 0.069184385 0.0075224843 -0.19972187 -0.52287865 -0.32315677
0 0.065769486 0.005834436 -0.19972187 -0.52287865 -0.32315677
2.7755576e-17 0.062389638 0.004163648 -0.19972187 -0.52287865 -0.32315677
2.7755576e-17 0.059044302 0.0025098473 -0.19972187 -0.52287865 -0.32315677
2.7755576e-17 0.055732924 0.00087276805 -0.19972187 -0.52287865 -0.32315677
0.00046326936 0.053789511 0 -0.19972187 -0.52287865 -0.32315677
0.0014644394 0.053404734 0 -0.19972187 -0.52287865 -0.32315677
0.002465568 0.053020112 0 -0.19972187 -0.52287865 -0.32315677
0.0034666604 0.052635644 0 -0.19972187 -0.52287865 -0.32315677
0.004467722 0.052251324 0 -0.19972187 -0.52287865 -0.32315677
0.0054687583 0.051867157 0 -0.19972187 -0.52287865 -0.32315677
0.0064697741 0.051483136 0 -0.19972187 -0.52287865 -0.32315677
0.0074707749 0.051099256 0 -0.19972187 -0.52287865 -0.32315677
0.0084717665 0.050715521 0 -0.19972187 -0.52287865 -0.32315677
0.0094727539 0.050331928 0 -0.19972187 -0.52287865 -0.32315677
0.010473742 0.049948473 0 -0.19972187 -0.52287865 -0.32315677
0.011474737 0.049565155 0 -0.19972187 -0.52287865 -0.32315677
0.012475744 0.049181972 0 -0.19972187 -0.52287865 -0.32315677
0.013476768 0.048798919 0 -0.19972187 -0.52287865 -0.32315677
0.014477813 0.048415996 0 -0.19972187 -0.52287865 -0.32315677
0.015478887 0.048033204 0 -0.19972187 -0.52287865 -0.32315677
0.016479993 0.047650538 0 -0.19972187 -0.52287865 -0.32315677
0.017481139 0.047267996 0 -0.19972187 -0.52287865 -0.32315677
0.018482327 0.046885576 0 -0.19972187 -0.52287865 -0.32315677
0.019483564 0.046503276 0 -0.19972187 -0.52287865 -0.32315677
0.020484857 0.046121094 0 -0.19972187 -0.52287865 -0.32315677
0.021486208 0.045739029 0 -0.19972187 -0.52287865 -0.32315677
0.022487625 0.045357078 0 -0.19972187 -0.52287865 -0.32315677
0.023489112 0.044975236 0 -0.19972187 -0.52287865 -0.32315677
0.024490675 0.044593509 0 -0.19972187 -0.52287865 -0.32315677
0.025492318 0.044211887 0 -0.19972187 -0.52287865 -0.32315677
0.026494047 0.043830372 0 -0.19972187 -0.52287865 -0.32315677
0.027495869 0.043448962 0 -0.19972187 -0.52287865 -0.32315677
0.028497785 0.043067653 0 -0.19972187 -0.52287865 -0.32315677
0.029499806 0.042686444 0 -0.19972187 -0.52287865 -0.32315677
0.030501934 0.042305335 0 -0.19972187 -0.52287865 -0.32315677
0.031504177 0.04192432 0 -0.19972187 -0.52287865 -0.32315677
0.032506533 0.041543398 0 -0.19972187 -0.52287865 -0.32315677
0.033509016 0.041162569 0 -0.19972187 -0.52287865 -0.32315677
0.034511629 0.04078183 0 -0.19972187 -0.52287865 -0.32315677
0.035514373 0.040401179 0 -0.19972187 -0.52287865 -0.32315677
0.036517259 0.040020615 0 -0.19972187 -0.52287865 -0.32315677
0.037520289 0.039640132 0 -0.19972187 -0.52287865 -0.32315677
0.038523469 0.039259732 0 -0.19972187 -0.52287865 -0.32315677
0.039526809 0.038879413 0 -0.19972187 -0.52287865 -0.32315677
0 0.079565801 0.011392622 -0.19972187 -0.52287865 -0.32315677
0 0.076046199 0.0096596479 -0.19972187 -0.52287865 -0.32315677
2.7755576e-17 0.072563305 0.0079446761 -0.19972187 -0.52287865 -0.32315677
2.7755576e-17 0.069116533 0.0062474175 -0.19972187 -0.52287865 -0.32315677
0 0.065705314 0.004567591 -0.19972187 -0.52287865 -0.32315677
0 0.06232908 0.0029049199 -0.19972187 -0.52287865 -0.32315677
2.7755576e-17 0.058987282 0.0012591346 -0.19972187 -0.52287865 -0.32315677
0.00022895313 0.056342613 0 -0.19972187 -0.52287865 -0.32315677
0.0012330234 0.055956464 0 -0.19972187 -0.52287865 -0.32315677
0.0022370485 0.055570483 0 -0.19972187 -0.52287865 -0.32315677
0.0032410338 0.055184662 0 -0.19972187 -0.52287865 -0.32315677
0.0042449846 0.054799002 0 -0.19972187 -0.52287865 -0.32315677
0.0052489061 0.054413497 0 -0.19972187 -0.52287865 -0.32315677
0.0062528038 0.054028146 0 -0.19972187 -0.52287865 -0.32315677
0.0072566834 0.053642951 0 -0.19972187 -0.52287865 -0.32315677
0.00826055 0.053257905 0 -0.19972187 -0.52287865 -0.32315677
0.0092644086 0.052873008 0 -0.19972187 -0.52287865 -0.32315677
0.010268264 0.052488256 0 -0.19972187 -0.52287865 -0.32315677
0.011272124 0.05210365 0 -0.19972187 -0.52287865 -0.32315677
0.012275992 0.051719185 0 -0.19972187 -0.52287865 -0.32315677
0.013279874 0.051334862 0 -0.19972187 -0.52287865 -0.32315677
0.014283774 0.05095068 0 -0.19972187 -0.52287865 -0.32315677
0.015287699 0.050566632 0 -0.19972187 -0.52287865 -0.32315677
0.016291654 0.050182715 0 -0.19972187 -0.52287865 -0.32315677
0.017295646 0.049798936 0 -0.19972187 -0.52287865 -0.32315677
0.018299675 0.049415283 0 -0.19972187 -0.52287865 -0.32315677
0.019303752 0.049031761 0 -0.19972187 -0.52287865 -0.32315677
0.02030788 0.048648365 0 -0.19972187 -0.52287865 -0.32315677
0.021312064 0.048265092 0 -0.19972187 -0.52287865 -0.32315677
0.022316311 0.047881939 0 -0.19972187 -0.52287865 -0.32315677
0.023320625 0.047498908 0 -0.19972187 -0.52287865 -0.32315677
0.024325011 0.047115996 0 -0.19972187 -0.52287865 -0.32315677
0.025329474 0.046733201 0 -0.19972187 -0.52287865 -0.32315677
0.026334023 0.046350516 0 -0.19972187 -0.52287865 -0.32315677
0.027338659 0.045967944 0 -0.19972187 -0.52287865 -0.32315677
0.028343391 0.045585483 0 -0.19972187 -0.52287865 -0.32315677
0.029348221 0.045203131 0 -0.19972187 -0.52287865 -0.32315677
0.030353155 0.044820882 0 -0.19972187 -0.52287865 -0.32315677
0.031358201 0.044438738 0 -0.19972187 -0.52287865 -0.32315677
0.032363363 0.044056695 0 -0.19972187 -0.52287865 -0.32315677
0.033368643 0.043674752 0 -0.19972187 -0.52287865 -0.32315677
0.034374055 0.043292906 0 -0.19972187 -0.52287865 -0.32315677
0.035379592 0.042911157 0 -0.19972187 -0.52287865 -0.32315677
0.036385272 0.042529501 0 -0.19972187 -0.52287865 -0.32315677
0.037391093 0.042147938 0 -0.19972187 -0.52287865 -0.32315677
0.038397059 0.041766461 0 -0.19972187 -0.52287865 -0.32315677
0.039403182 0.041385073 0 -0.19972187 -0.52287865 -0.32315677
2.7755576e-17 0.079486601 0.010094683 -0.19972187 -0.52287865 -0.32315677
2.7755576e-17 0.075970903 0.0083702244 -0.19972187 -0.52287865 -0.32315677
2.7755576e-17 0.072491832 0.0066636587 -0.19972187 -0.52287865 -0.32315677
0 0.069048814 0.0049746991 -0.19972187 -0.52287865 -0.32315677
2.7755576e-17 0.065641262 0.0033030659 -0.19972187 -0.52287865 -0.32315677
0 0.062268633 0.0016484848 -0.19972187 -0.52287865 -0.32315677
2.7755576e-17 0.058930364 1.0687731e-05 -0.19972187 -0.52287865 -0.32315677
0.0010003842 0.058523588 0 -0.19972187 -0.52287865 -0.32315677
0.0020073245 0.058136221 0 -0.19972187 -0.52287865 -0.32315677
0.0030142213 0.057749029 0 -0.19972187 -0.52287865 -0.32315677
0.0040210797 0.057362001 0 -0.19972187 -0.52287865 -0.32315677
0.0050279056 0.056975137 0 -0.19972187 -0.52287865 -0.32315677
0.0060347039 0.056588437 0 -0.19972187 -0.52287865 -0.32315677
0.0070414804 0.056201901 0 -0.19972187 -0.52287865 -0.32315677
0.0080482401 0.055815522 0 -0.19972187 -0.52287865 -0.32315677
0.0090549886 0.055429298 0 -0.19972187 -0.52287865 -0.32315677
0.010061732 0.055043232 0 -0.19972187 -0.52287865 -0.32315677
0.011068474 0.054657318 0 -0.19972187 -0.52287865 -0.32315677
0.012075221 0.054271553 0 -0.19972187 -0.52287865 -0.32315677
0.013081979 0.053885937 0 -0.19972187 -0.52287865 -0.32315677
0.014088753 0.05350047 0 -0.19972187 -0.52287865 -0.32315677
0.015095547 0.053115144 0 -0.19972187 -0.52287865 -0.32315677
0.016102368 0.052729964 0 -0.19972187 -0.52287865 -0.32315677
0.017109221 0.052344922 0 -0.19972187 -0.52287865 -0.32315677
0.018116113 0.051960018 0 -0.19972187 -0.52287865 -0.32315677
0.019123046 0.051575251 0 -0.19972187 -0.52287865 -0.32315677
0.020130027 0.051190618 0 -0.19972187 -0.52287865 -0.32315677
0.021137062 0.05080612 0 -0.19972187 -0.52287865 -0.32315677
0.022144156 0.050421748 0 -0.19972187 -0.52287865 -0.32315677
0.023151314 0.050037507 0 -0.19972187 -0.52287865 -0.32315677
0.024158543 0.049653389 0 -0.19972187 -0.52287865 -0.32315677
0.025165845 0.049269397 0 -0.19972187 -0.52287865 -0.32315677
0.026173228 0.048885524 0 -0.19972187 -0.52287865 -0.32315677
0.0271807 0.048501775 0 -0.19972187 -0.52287865 -0.32315677
0.02818826 0.048118141 0 -0.19972187 -0.52287865 -0.32315677
0.029195918 0.047734622 0 -0.19972187 -0.52287865 -0.32315677
0.030203678 0.047351219 0 -0.19972187 -0.52287865 -0.32315677
0.031211546 0.046967924 0 -0.19972187 -0.52287865 -0.32315677
0.032219525 0.04658474 0 -0.19972187 -0.52287865 -0.32315677
0.033227626 0.046201665 0 -0.19972187 -0.52287865 -0.32315677
0.034235846 0.045818698 0 -0.19972187 -0.52287865 -0.32315677
0.0352442 0.045435827 0 -0.19972187 -0.52287865 -0.32315677
0.036252685 0.045053065 0 -0.19972187 -0.52287865 -0.32315677
0.037261311 0.044670396 0 -0.19972187 -0.52287865 -0.32315677
0.038270086 0.044287827 0 -0.19972187 -0.52287865 -0.32315677
0.039279006 0.043905355 0 -0.19972187 -0.52287865 -0.32315677
2.7755576e-17 0.079407558 0.0087991646 -0.19972187 -0.52287865 -0.32315677
2.7755576e-17 0.075895742 0.0070831929 -0.19972187 -0.52287865 -0.32315677
2.7755576e-17 0.072420493 0.0053850049 -0.19972187 -0.52287865 -0.32315677
2.7755576e-17 0.068981208 0.003704316 -0.19972187 -0.52287865 -0.32315677
2.7755576e-17 0.065577328 0.0020408486 -0.19972187 -0.52287865 -0.32315677
2.7755576e-17 0.062208295 0.00039433013 -0.19972187 -0.52287865 -0.32315677
0.00076651503 0.061106265 0 -0.19972187 -0.52287865 -0.32315677
0.0017763897 0.060717497 0 -0.19972187 -0.52287865 -0.32315677
0.0027862168 0.060328905 0 -0.19972187 -0.52287865 -0.32315677
0.0037960021 0.059940487 0 -0.19972187 -0.52287865 -0.32315677
0.0048057507 0.059552245 0 -0.19972187 -0.52287865 -0.32315677
0.0058154687 0.059164174 0 -0.19972187 -0.52287865 -0.32315677
0.0068251607 0.058776274 0 -0.19972187 -0.52287865 -0.32315677
0.0078348322 0.058388539 0 -0.19972187 -0.52287865 -0.32315677
0.0088444892 0.058000971 0 -0.19972187 -0.52287865 -0.32315677
0.009854137 0.057613567 0 -0.19972187 -0.52287865 -0.32315677
0.010863781 0.057226323 0 -0.19972187 -0.52287865 -0.32315677
0.011873426 0.056839235 0 -0.19972187 -0.52287865 -0.32315677
0.012883078 0.056452308 0 -0.19972187 -0.52287865 -0.32315677
0.013892743 0.056065533 0 -0.19972187 -0.52287865 -0.32315677
0.014902426 0.055678912 0 -0.19972187 -0.52287865 -0.32315677
0.015912132 0.055292442 0 -0.19972187 -0.52287865 -0.32315677
0.016921867 0.054906119 0 -0.19972187 -0.52287865 -0.32315677
0.017931635 0.054519944 0 -0.19972187 -0.52287865 -0.32315677
0.018941443 0.054133911 0 -0.19972187 -0.52287865 -0.32315677
0.019951295 0.053748023 0 -0.19972187 -0.52287865 -0.32315677
0.020961199 0.053362273 0 -0.19972187 -0.52287865 -0.32315677
0.021971159 0.052976664 0 -0.19972187 -0.52287865 -0.32315677
0.02298118 0.05259119 0 -0.19972187 -0.52287865 -0.32315677
0.023991268 0.052205849 0 -0.19972187 -0.52287865 -0.32315677
0.025001427 0.05182064 0 -0.19972187 -0.52287865 -0.32315677
0.026011664 0.05143556 0 -0.19972187 -0.52287865 -0.32315677
0.027021986 0.051050607 0 -0.19972187 -0.52287865 -0.32315677
0.028032394 0.050665785 0 -0.19972187 -0.52287865 -0.32315677
0.029042896 0.050281081 0 -0.19972187 -0.52287865 -0.32315677
0.030053498 0.049896501 0 -0.19972187 -0.52287865 -0.32315677
0.031064205 0.04951204 0 -0.19972187 -0.52287865 -0.32315677
0.032075021 0.049127698 0 -0.19972187 -0.52287865 -0.32315677
0.033085957 0.048743468 0 -0.19972187 -0.52287865 -0.32315677
0.034097008 0.048359353 0 -0.19972187 -0.52287865 -0.32315677
0.03510819 0.04797535 0 -0.19972187 -0.52287865 -0.32315677
0.036119506 0.047591455 0 -0.19972187 -0.52287865 -0.32315677
0.037130956 0.047207668 0 -0.19972187 -0.52287865 -0.32315677
0.038142547 0.046823986 0 -0.19972187 -0.52287865 -0.32315677
0.039154291 0.046440408 0 -0.19972187 -0.52287865 -0.32315677
2.7755576e-17 0.079328656 0.0075060558 -0.19972187 -0.52287865 -0.32315677
0 0.075820729 0.0057985415 -0.19972187 -0.52287865 -0.32315677
0 0.07234928 0.0041087023 -0.19972187 -0.52287865 -0.32315677
2.7755576e-17 0.068913735 0.002436256 -0.19972187 -0.52287865 -0.32315677
2.7755576e-17 0.065513514 0.00078092649 -0.19972187 -0.52287865 -0.32315677
0.00053140923 0.063704669 0 -0.19972187 -0.52287865 -0.32315677
0.0015442374 0.063314475 0 -0.19972187 -0.52287865 -0.32315677
0.0025570141 0.062924467 0 -0.19972187 -0.52287865 -0.32315677
0.0035697452 0.062534638 0 -0.19972187 -0.52287865 -0.32315677
0.0045824358 0.062144991 0 -0.19972187 -0.52287865 -0.32315677
0.0055950922 0.061755527 0 -0.19972187 -0.52287865 -0.32315677
0.0066077188 0.061366241 0 -0.19972187 -0.52287865 -0.32315677
0.0076203211 0.060977131 0 -0.19972187 -0.52287865 -0.32315677
0.0086329058 0.060588192 0 -0.19972187 -0.52287865 -0.32315677
0.0096454769 0.060199428 0 -0.19972187 -0.52287865 -0.32315677
0.010658041 0.059810832 0 -0.19972187 -0.52287865 -0.32315677
0.011670602 0.0594224 0 -0.19972187 -0.52287865 -0.32315677
0.012683168 0.059034139 0 -0.19972187 -0.52287865 -0.32315677
0.013695743 0.058646038 0 -0.19972187 -0.52287865 -0.32315677
0.014708332 0.058258098 0 -0.19972187 -0.52287865 -0.32315677
0.015720941 0.057870317 0 -0.19972187 -0.52287865 -0.32315677
0.016733574 0.057482693 0 -0.19972187 -0.52287865 -0.32315677
0.01774624 0.057095222 0 -0.19972187 -0.52287865 -0.32315677
0.018758941 0.056707907 0 -0.19972187 -0.52287865 -0.32315677
0.019771684 0.056320738 0 -0.19972187 -0.52287865 -0.32315677
0.020784475 0.055933721 0 -0.19972187 -0.52287865 -0.32315677
0.021797318 0.05554685 0 -0.19972187 -0.52287865 -0.32315677
0.022810219 0.055160124 0 -0.19972187 -0.52287865 -0.32315677
0.023823183 0.054773536 0 -0.19972187 -0.52287865 -0.32315677
0.024836218 0.054387093 0 -0.19972187 -0.52287865 -0.32315677
0.025849327 0.054000784 0 -0.19972187 -0.52287865 -0.32315677
0.026862515 0.053614613 0 -0.19972187 -0.52287865 -0.32315677
0.02787579 0.053228576 0 -0.19972187 -0.52287865 -0.32315677
0.028889157 0.052842669 0 -0.19972187 -0.52287865 -0.32315677
0.029902618 0.052456893 0 -0.19972187 -0.52287865 -0.32315677
0.030916182 0.052071244 0 -0.19972187 -0.52287865 -0.32315677
0.031929854 0.051685721 0 -0.19972187 -0.52287865 -0.32315677
0.03294364 0.051300321 0 -0.19972187 -0.52287865 -0.32315677
0.033957541 0.05091504 0 -0.19972187 -0.52287865 -0.32315677
0.034971569 0.050529882 0 -0.19972187 -0.52287865 -0.32315677
0.035985727 0.05014484 0 -0.19972187 -0.52287865 -0.32315677
0.037000019 0.049759913 0 -0.19972187 -0.52287865 -0.32315677
0.038014449 0.049375098 0 -0.19972187 -0.52287865 -0.32315677
0.039029028 0.048990395 0 -0.19972187 -0.52287865 -0.32315677
2.7755576e-17 0.079249904 0.0062153423 -0.19972187 -0.52287865 -0.32315677
0 0.075745851 0.004516257 -0.19972187 -0.52287865 -0.32315677
2.7755576e-17 0.072278202 0.0028347382 -0.19972187 -0.52287865 -0.32315677
0 0.068846382 0.0011705065 -0.19972187 -0.52287865 -0.32315677
0.00029505978 0.066318981 0 -0.19972187 -0.52287865 -0.32315677
0.0013108609 0.065927334 0 -0.19972187 -0.52287865 -0.32315677
0.0023266068 0.065535881 0 -0.19972187 -0.52287865 -0.32315677
0.003342303 0.065144621 0 -0.19972187 -0.52287865 -0.32315677
0.004357955 0.064753547 0 -0.19972187 -0.52287865 -0.32315677
0.0053735683 0.064362668 0 -0.19972187 -0.52287865 -0.32315677
0.0063891485 0.063971974 0 -0.19972187 -0.52287865 -0.32315677
0.0074047013 0.063581459 0 -0.19972187 -0.52287865 -0.32315677
0.0084202318 0.063191131 0 -0.19972187 -0.52287865 -0.32315677
0.0094357459 0.062800989 0 -0.19972187 -0.52287865 -0.32315677
0.010451249 0.062411014 0 -0.19972187 -0.52287865 -0.32315677
0.011466746 0.062021218 0 -0.19972187 -0.52287865 -0.32315677
0.012482244 0.061631598 0 -0.19972187 -0.52287865 -0.32315677
0.013497747 0.061242148 0 -0.19972187 -0.52287865 -0.32315677
0.014513261 0.06085287 0 -0.19972187 -0.52287865 -0.32315677
0.015528792 0.060463756 0 -0.19972187 -0.52287865 -0.32315677
0.016544344 0.06007481 0 -0.19972187 -0.52287865 -0.32315677
0.017559923 0.059686024 0 -0.19972187 -0.52287865 -0.32315677
0.018575536 0.059297401 0 -0.19972187 -0.52287865 -0.32315677
0.019591188 0.058908936 0 -0.19972187 -0.52287865 -0.32315677
0.020606883 0.058520626 0 -0.19972187 -0.52287865 -0.32315677
0.021622628 0.058132473 0 -0.19972187 -0.52287865 -0.32315677
0.022638429 0.057744473 0 -0.19972187 -0.52287865 -0.32315677
0.02365429 0.057356622 0 -0.19972187 -0.52287865 -0.32315677
0.024670217 0.05696892 0 -0.19972187 -0.52287865 -0.32315677
0.025686216 0.056581363 0 -0.19972187 -0.52287865 -0.32315677
0.02670229 0.056193952 0 -0.19972187 -0.52287865 -0.32315677
0.027718449 0.055806682 0 -0.19972187 -0.52287865 -0.32315677
0.028734695 0.055419549 0 -0.19972187 -0.52287865 -0.32315677
0.029751036 0.055032559 0 -0.19972187 -0.52287865 -0.32315677
0.030767474 0.054645699 0 -0.19972187 -0.52287865 -0.32315677
0.03178402 0.054258976 0 -0.19972187 -0.52287865 -0.32315677
0.032800674 0.053872384 0 -0.19972187 -0.52287865 -0.32315677
0.033817444 0.053485923 0 -0.19972187 -0.52287865 -0.32315677
0.034834336 0.053099588 0 -0.19972187 -0.52287865 -0.32315677
0.035851352 0.052713376 0 -0.19972187 -0.52287865 -0.32315677
0.036868505 0.05232729 0 -0.19972187 -0.52287865 -0.32315677
0.037885793 0.051941324 0 -0.19972187 -0.52287865 -0.32315677
0.038903225 0.051555477 0 -0.19972187 -0.52287865 -0.32315677
0.039920807 0.051169746 0 -0.19972187 -0.52287865 -0.32315677
0 0.079171292 0.0049270126 -0.19972187 -0.52287865 -0.32315677
0 0.075671107 0.0032363264 -0.19972187 -0.52287865 -0.32315677
2.7755576e-17 0.072207257 0.0015630999 -0.19972187 -0.52287865 -0.32315677
5.745974e-05 0.068949364 0 -0.19972187 -0.52287865 -0.32315677
0.0010762534 0.068556242 0 -0.19972187 -0.52287865 -0.32315677
0.002094988 0.068163328 0 -0.19972187 -0.52287865 -0.32315677
0.0031136689 0.067770608 0 -0.19972187 -0.52287865 -0.32315677
0.0041323015 0.067378089 0 -0.19972187 -0.52287865 -0.32315677
0.0051508918 0.066985771 0 -0.19972187 -0.52287865 -0.32315677
0.0061694453 0.06659364 0 -0.19972187 -0.52287865 -0.32315677
0.0071879672 0.066201709 0 -0.19972187 -0.52287865 -0.32315677
0.0082064634 0.065809965 0 -0.19972187 -0.52287865 -0.32315677
0.0092249392 0.065418415 0 -0.19972187 -0.52287865 -0.32315677
0.010243401 0.065027043 0 -0.19972187 -0.52287865 -0.32315677
0.011261852 0.064635865 0 -0.19972187 -0.52287865 -0.32315677
0.012280301 0.064244859 0 -0.19972187 -0.52287865 -0.32315677
0.013298752 0.063854039 0 -0.19972187 -0.52287865 -0.32315677
0.01431721 0.063463397 0 -0.19972187 -0.52287865 -0.32315677
0.01533568 0.063072935 0 -0.19972187 -0.52287865 -0.32315677
0.01635417 0.062682636 0 -0.19972187 -0.52287865 -0.32315677
0.017372683 0.06229252 0 -0.19972187 -0.52287865 -0.32315677
0.018391227 0.061902564 0 -0.19972187 -0.52287865 -0.32315677
0.019409806 0.061512779 0 -0.19972187 -0.52287865 -0.32315677
0.020428425 0.061123163 0 -0.19972187 -0.52287865 -0.32315677
0.02144709 0.060733702 0 -0.19972187 -0.52287865 -0.32315677
0.022465808 0.060344409 0 -0.19972187 -0.52287865 -0.32315677
0.023484582 0.059955269 0 -0.19972187 -0.52287865 -0.32315677
0.024503421 0.059566289 0 -0.19972187 -0.52287865 -0.32315677
0.025522327 0.059177462 0 -0.19972187 -0.52287865 -0.32315677
0.026541308 0.058788788 0 -0.19972187 -0.52287865 -0.32315677
0.027560368 0.058400266 0 -0.19972187 -0.52287865 -0.32315677
0.028579514 0.058011889 0 -0.19972187 -0.52287865 -0.32315677
0.02959875 0.057623658 0 -0.19972187 -0.52287865 -0.32315677
0.030618083 0.057235572 0 -0.19972187 -0.52287865 -0.32315677
0.031637516 0.056847632 0 -0.19972187 -0.52287865 -0.32315677
0.032657061 0.056459825 0 -0.19972187 -0.52287865 -0.32315677
0.033676714 0.056072161 0 -0.19972187 -0.52287865 -0.32315677
0.03469649 0.05568463 0 -0.19972187 -0.52287865 -0.32315677
0.035716385 0.055297229 0 -0.19972187 -0.52287865 -0.32315677
0.036736414 0.054909963 0 -0.19972187 -0.52287865 -0.32315677
0.037756577 0.054522827 0 -0.19972187 -0.52287865 -0.32315677
0.038776878 0.054135818 0 -0.19972187 -0.52287865 -0.32315677
0.039797328 0.053748932 0 -0.19972187 -0.52287865 -0.32315677
0 0.07909283 0.0036410526 -0.19972187 -0.52287865 -0.32315677
2.7755576e-17 0.075596504 0.0019587376 -0.19972187 -0.52287865 -0.32315677
0 0.072136432 0.00029377508 -0.19972187 -0.52287865 -0.32315677
0.00084040809 0.071201392 0 -0.19972187 -0.52287865 -0.32315677
0.0018621511 0.07080698 0 -0.19972187 -0.52287865 -0.32315677
0.0028838364 0.070412777 0 -0.19972187 -0.52287865 -0.32315677
0.0039054698 0.070018791 0 -0.19972187 -0.52287865 -0.32315677
0.0049270564 0.069625005 0 -0.19972187 -0.52287865 -0.32315677
0.0059486027 0.069231428 0 -0.19972187 -0.52287865 -0.32315677
0.0069701136 0.068838045 0 -0.19972187 -0.52287865 -0.32315677
0.0079915952 0.06844487 0 -0.19972187 -0.52287865 -0.32315677
0.0090130521 0.068051882 0 -0.19972187 -0.52287865 -0.32315677
0.01003449 0.067659102 0 -0.19972187 -0.52287865 -0.32315677
0.011055917 0.067266509 0 -0.19972187 -0.52287865 -0.32315677
0.012077335 0.066874102 0 -0.19972187 -0.52287865 -0.32315677
0.013098752 0.066481888 0 -0.19972187 -0.52287865 -0.32315677
0.014120174 0.066089861 0 -0.19972187 -0.52287865 -0.32315677
0.015141604 0.06569802 0 -0.19972187 -0.52287865 -0.32315677
0.016163049 0.065306358 0 -0.19972187 -0.52287865 -0.32315677
0.017184516 0.064914875 0 -0.19972187 -0.52287865 -0.32315677
0.018206008 0.064523578 0 -0.19972187 -0.52287865 -0.32315677
0.019227533 0.064132445 0 -0.19972187 -0.52287865 -0.32315677
0.020249095 0.06374149 0 -0.19972187 -0.52287865 -0.32315677
0.0212707 0.063350715 0 -0.19972187 -0.52287865 -0.32315677
0.022292353 0.062960096 0 -0.19972187 -0.52287865 -0.32315677
0.023314061 0.062569655 0 -0.19972187 -0.52287865 -0.32315677
0.02433583 0.062179372 0 -0.19972187 -0.52287865 -0.32315677
0.025357662 0.061789256 0 -0.19972187 -0.52287865 -0.32315677
0.026379567 0.0613993 0 -0.19972187 -0.52287865 -0.32315677
0.027401548 0.0610095 0 -0.19972187 -0.52287865 -0.32315677
0.028423609 0.060619857 0 -0.19972187 -0.52287865 -0.32315677
0.029445762 0.060230371 0 -0.19972187 -0.52287865 -0.32315677
0.030468006 0.059841037 0 -0.19972187 -0.52287865 -0.32315677
0.031490348 0.059451852 0 -0.19972187 -0.52287865 -0.32315677
0.032512795 0.059062812 0 -0.19972187 -0.52287865 -0.32315677
0.033535354 0.058673922 0 -0.19972187 -0.52287865 -0.32315677
0.034558028 0.058285173 0 -0.19972187 -0.52287865 -0.32315677
0.035580825 0.057896569 0 -0.19972187 -0.52287865 -0.32315677
0.036603745 0.057508104 0 -0.19972187 -0.52287865 -0.32315677
0.037626799 0.057119776 0 -0.19972187 -0.52287865 -0.32315677
0.038649995 0.056731582 0 -0.19972187 -0.52287865 -0.32315677
0.039673332 0.056343522 0 -0.19972187 -0.52287865 -0.32315677
2.7755576e-17 0.07901451 0.0023574503 -0.19972187 -0.52287865 -0.32315677
2.7755576e-17 0.075522035 0.00068347773 -0.19972187 -0.52287865 -0.32315677
0.00060331787 0.073862948 0 -0.19972187 -0.52287865 -0.32315677
0.0016280893 0.073467024 0 -0.19972187 -0.52287865 -0.32315677
0.002652799 0.073071316 0 -0.19972187 -0.52287865 -0.32315677
0.0036774529 0.072675832 0 -0.19972187 -0.52287865 -0.32315677
0.0047020563 0.072280563 0 -0.19972187 -0.52287865 -0.32315677
0.005726615 0.071885504 0 -0.19972187 -0.52287865 -0.32315677
0.0067511345 0.071490653 0 -0.19972187 -0.52287865 -0.32315677
0.0077756201 0.071096018 0 -0.19972187 -0.52287865 -0.32315677
0.0088000782 0.070701584 0 -0.19972187 -0.52287865 -0.32315677
0.0098245144 0.070307352 0 -0.19972187 -0.52287865 -0.32315677
0.010848934 0.069913328 0 -0.19972187 -0.52287865 -0.32315677
0.011873342 0.069519497 0 -0.19972187 -0.52287865 -0.32315677
0.012897746 0.069125868 0 -0.19972187 -0.52287865 -0.32315677
0.013922148 0.068732433 0 -0.19972187 -0.52287865 -0.32315677
0.014946559 0.068339191 0 -0.19972187 -0.52287865 -0.32315677
0.015970979 0.067946136 0 -0.19972187 -0.52287865 -0.32315677
0.016995417 0.067553274 0 -0.19972187 -0.52287865 -0.32315677
0.018019877 0.067160599 0 -0.19972187 -0.52287865 -0.32315677
0.019044368 0.06676811 0 -0.19972187 -0.52287865 -0.32315677
0.020068891 0.066375799 0 -0.19972187 -0.52287865 -0.32315677
0.021093454 0.065983668 0 -0.19972187 -0.52287865 -0.32315677
0.022118064 0.065591715 0 -0.19972187 -0.52287865 -0.32315677
0.023142723 0.065199941 0 -0.19972187 -0.52287865 -0.32315677
0.024167439 0.064808339 0 -0.19972187 -0.52287865 -0.32315677
0.025192218 0.064416908 0 -0.19972187 -0.52287865 -0.32315677
0.026217064 0.064025648 0 -0.19972187 -0.52287865 -0.32315677
0.027241984 0.063634552 0 -0.19972187 -0.52287865 -0.32315677
0.028266983 0.063243628 0 -0.19972187 -0.52287865 -0.32315677
0.029292068 0.062852859 0 -0.19972187 -0.52287865 -0.32315677
0.030317241 0.062462255 0 -0.19972187 -0.52287865 -0.32315677
0.03134251 0.062071808 0 -0.19972187 -0.52287865 -0.32315677
0.032367885 0.061681516 0 -0.19972187 -0.52287865 -0.32315677
0.033393364 0.061291378 0 -0.19972187 -0.52287865 -0.32315677
0.034418955 0.060901396 0 -0.19972187 -0.52287865 -0.32315677
0.035444666 0.060511559 0 -0.19972187 -0.52287865 -0.32315677
0.036470503 0.060121875 0 -0.19972187 -0.52287865 -0.32315677
0.037496466 0.059732333 0 -0.19972187 -0.52287865 -0.32315677
0.038522568 0.059342936 0 -0.19972187 -0.52287865 -0.32315677
0.039548811 0.05895368 0 -0.19972187 -0.52287865 -0.32315677
2.7755576e-17 0.078936331 0.0010761931 -0.19972187 -0.52287865 -0.32315677
0.00036497554 0.076541096 0 -0.19972187 -0.52287865 -0.32315677
0.0013927958 0.076143637 0 -0.19972187 -0.52287865 -0.32315677
0.0024205502 0.075746402 0 -0.19972187 -0.52287865 -0.32315677
0.0034482446 0.075349398 0 -0.19972187 -0.52287865 -0.32315677
0.0044758846 0.074952617 0 -0.19972187 -0.52287865 -0.32315677
0.0055034757 0.074556053 0 -0.19972187 -0.52287865 -0.32315677
0.0065310239 0.074159712 0 -0.19972187 -0.52287865 -0.32315677
0.0075585344 0.073763587 0 -0.19972187 -0.52287865 -0.32315677
0.0085860137 0.073367678 0 -0.19972187 -0.52287865 -0.32315677
0.0096134664 0.072971985 0 -0.19972187 -0.52287865 -0.32315677
0.010640899 0.0725765 0 -0.19972187 -0.52287865 -0.32315677
0.011668317 0.072181225 0 -0.19972187 -0.52287865 -0.32315677
0.012695726 0.07178615 0 -0.19972187 -0.52287865 -0.32315677
0.013723131 0.071391284 0 -0.19972187 -0.52287865 -0.32315677
0.014750539 0.070996627 0 -0.19972187 -0.52287865 -0.32315677
0.015777955 0.070602156 0 -0.19972187 -0.52287865 -0.32315677
0.016805384 0.070207894 0 -0.19972187 -0.52287865 -0.32315677
0.017832832 0.069813818 0 -0.19972187 -0.52287865 -0.32315677
0.018860307 0.069419943 0 -0.19972187 -0.52287865 -0.32315677
0.019887811 0.069026254 0 -0.19972187 -0.52287865 -0.32315677
0.020915352 0.068632759 0 -0.19972187 -0.52287865 -0.32315677
0.021942934 0.068239443 0 -0.19972187 -0.52287865 -0.32315677
0.022970565 0.067846313 0 -0.19972187 -0.52287865 -0.32315677
0.023998249 0.067453369 0 -0.19972187 -0.52287865 -0.32315677
0.025025992 0.067060605 0 -0.19972187 -0.52287865 -0.32315677
0.026053799 0.066668019 0 -0.19972187 -0.52287865 -0.32315677
0.027081678 0.066275604 0 -0.19972187 -0.52287865 -0.32315677
0.028109631 0.065883368 0 -0.19972187 -0.52287865 -0.32315677
0.029137667 0.065491304 0 -0.19972187 -0.52287865 -0.32315677
0.03016579 0.065099403 0 -0.19972187 -0.52287865 -0.32315677
0.031194007 0.064707674 0 -0.19972187 -0.52287865 -0.32315677
0.032222323 0.064316109 0 -0.19972187 -0.52287865 -0.32315677
0.033250742 0.0639247 0 -0.19972187 -0.52287865 -0.32315677
0.034279272 0.063533463 0 -0.19972187 -0.52287865 -0.32315677
0.035307914 0.063142374 0 -0.19972187 -0.52287865 -0.32315677
0.036336683 0.06275145 0 -0.19972187 -0.52287865 -0.32315677
0.037365574 0.062360678 0 -0.19972187 -0.52287865 -0.32315677
0.038394604 0.061970055 0 -0.19972187 -0.52287865 -0.32315677
0.039423767 0.061579585 0 -0.19972187 -0.52287865 -0.32315677
0.0001253739 0.079236031 0 -0.19972187 -0.52287865 -0.32315677
0.0011562635 0.078837007 0 -0.19972187 -0.52287865 -0.32315677
0.0021870832 0.078438222 0 -0.19972187 -0.52287865 -0.32315677
0.0032178387 0.078039669 0 -0.19972187 -0.52287865 -0.32315677
0.0042485353 0.077641353 0 -0.19972187 -0.52287865 -0.32315677
0.0052791797 0.077243268 0 -0.19972187 -0.52287865 -0.32315677
0.0063097766 0.076845407 0 -0.19972187 -0.52287865 -0.32315677
0.007340332 0.076447777 0 -0.19972187 -0.52287865 -0.32315677
