# .PCD v0.7 - Point Cloud Data file format
VERSION 0.7
FIELDS x y z vp_x vp_y vp_z
SIZE 4 4 4 4 4 4
TYPE F F F F F F
COUNT 1 1 1 1 1 1
WIDTH 760
HEIGHT 1
VIEWPOINT 0 0 0 1 0 0 0
POINTS 760
DATA ascii
0.026398946 0 0.019201798 -0.52287865 -0.32315677 0.19972187
0.028432015 0 0.018712685 -0.52287865 -0.32315677 0.19972187
0.030476294 0 0.018220939 -0.52287865 -0.32315677 0.19972187
0.032531884 0 0.017726535 -0.52287865 -0.32315677 0.19972187
0.034598887 0 0.017229449 -0.52287865 -0.32315677 0.19972187
0.036677413 0 0.016729657 -0.52287865 -0.32315677 0.19972187
0.038767561 0 0.016227134 -0.52287865 -0.32315677 0.19972187
0 0.079343602 0.012764226 -0.52287865 -0.32315677 0.19972187
0 0.078002408 0.012961097 -0.52287865 -0.32315677 0.19972187
0 0.076664485 0.01315755 -0.52287865 -0.32315677 0.19972187
0 0.075329825 0.013353587 -0.52287865 -0.32315677 0.19972187
0 0.073998399 0.013549211 -0.52287865 -0.32315677 0.19972187
0 0.072670199 0.013744424 -0.52287865 -0.32315677 0.19972187
1.110223e-16 0.071345195 0.013939229 -0.52287865 -0.32315677 0.19972187
0 0.07002338 0.014133628 -0.52287865 -0.32315677 0.19972187
0 0.068704739 0.014327622 -0.52287865 -0.32315677 0.19972187
0 0.067389242 0.014521215 -0.52287865 -0.32315677 0.19972187
0 0.066076875 0.01471441 -0.52287865 -0.32315677 0.19972187
0 0.064767629 0.014907207 -0.52287865 -0.32315677 0.19972187
0 0.063461475 0.01509961 -0.52287865 -0.32315677 0.19972187
0 0.062158406 0.015291622 -0.52287865 -0.32315677 0.19972187
0 0.060858399 0.015483243 -0.52287865 -0.32315677 0.19972187
0 0.059561439 0.015674477 -0.52287865 -0.32315677 0.19972187
1.110223e-16 0.058267511 0.015865326 -0.52287865 -0.32315677 0.19972187
0 0.056976594 0.016055793 -0.52287865 -0.32315677 0.19972187
0 0.055688675 0.016245877 -0.52287865 -0.32315677 0.19972187
0 0.054403733 0.016435584 -0.52287865 -0.32315677 0.19972187
0 0.053121757 0.016624916 -0.52287865 -0.32315677 0.19972187
0 0.05184273 0.016813872 -0.52287865 -0.32315677 0.19972187
0 0.050566632 0.017002456 -0.52287865 -0.32315677 0.19972187
0 0.049293447 0.017190671 -0.52287865 -0.32315677 0.19972187
0 0.048023164 0.017378518 -0.52287865 -0.32315677 0.19972187
0 0.046755765 0.017566001 -0.52287865 -0.32315677 0.19972187
0 0.045491233 0.017753119 -0.52287865 -0.32315677 0.19972187
0 0.044229552 0.017939877 -0.52287865 -0.32315677 0.19972187
1.110223e-16 0.042970706 0.018126275 -0.52287865 -0.32315677 0.19972187
1.110223e-16 0.041714683 0.018312316 -0.52287865 -0.32315677 0.19972187
0 0.040461462 0.018498003 -0.52287865 -0.32315677 0.19972187
0 0.039211035 0.018683337 -0.52287865 -0.32315677 0.19972187
0 0.037963379 0.01886832 -0.52287865 -0.32315677 0.19972187
1.110223e-16 0.036718484 0.019052953 -0.52287865 -0.32315677 0.19972187
0 0.035476334 0.019237241 -0.52287865 -0.32315677 0.19972187
1.110223e-16 0.034236915 0.019421183 -0.52287865 -0.32315677 0.19972187
0 0.033000208 0.019604784 -0.52287865 -0.32315677 0.19972187
1.110223e-16 0.031766202 0.019788042 -0.52287865 -0.32315677 0.19972187
0 0.030534882 0.019970963 -0.52287865 -0.32315677 0.19972187
0 0.029306233 0.020153545 -0.52287865 -0.32315677 0.19972187
1.110223e-16 0.02808024 0.020335795 -0.52287865 -0.32315677 0.19972187
0 0.026856888 0.020517711 -0.52287865 -0.32315677 0.19972187
0 0.025636164 0.020699296 -0.52287865 -0.32315677 0.19972187
0 0.024418052 0.020880552 -0.52287865 -0.32315677 0.19972187
0 0.023202542 0.02106148 -0.52287865 -0.32315677 0.19972187
0 0.021989616 0.021242084 -0.52287865 -0.32315677 0.19972187
1.110223e-16 0.020779261 0.021422364 -0.52287865 -0.32315677 0.19972187
0 0.019571463 0.021602323 -0.52287865 -0.32315677 0.19972187
0 0.018366208 0.021781962 -0.52287865 -0.32315677 0.19972187
0 0.017163485 0.021961285 -0.52287865 -0.32315677 0.19972187
0 0.015963277 0.022140291 -0.52287865 -0.32315677 0.19972187
0 0.014765571 0.022318983 -0.52287865 -0.32315677 0.19972187
0 0.013570354 0.022497363 -0.52287865 -0.32315677 0.19972187
0 0.012377613 0.022675432 -0.52287865 -0.32315677 0.19972187
0 0.011187335 0.022853192 -0.52287865 -0.32315677 0.19972187
0 0.0099995052 0.023030646 -0.52287865 -0.32315677 0.19972187
0 0.0088141123 0.023207795 -0.52287865 -0.32315677 0.19972187
0 0.0076311417 0.023384642 -0.52287865 -0.32315677 0.19972187
0 0.0064505809 0.023561185 -0.52287865 -0.32315677 0.19972187
0 0.0052724173 0.023737431 -0.52287865 -0.32315677 0.19972187
0 0.0040966379 0.023913378 -0.52287865 -0.32315677 0.19972187
0 0.0029232295 0.024089027 -0.52287865 -0.32315677 0.19972187
0 0.0017521798 0.024264384 -0.52287865 -0.32315677 0.19972187
1.110223e-16 0.0005834761 0.024439447 -0.52287865 -0.32315677 0.19972187
0.00094484707 0 0.024297798 -0.52287865 -0.32315677 0.19972187
0.0028419779 0 0.023837896 -0.52287865 -0.32315677 0.19972187
0.0047490969 0 0.02337563 -0.52287865 -0.32315677 0.19972187
0.0066662924 0 0.022910984 -0.52287865 -0.32315677 0.19972187
0.0085936533 0 0.022443932 -0.52287865 -0.32315677 0.19972187
0.010531271 0 0.021974452 -0.52287865 -0.32315677 0.19972187
0.012479235 0 0.021502526 -0.52287865 -0.32315677 0.19972187
0.01443764 0 0.021028131 -0.52287865 -0.32315677 0.19972187
0.016406577 0 0.020551244 -0.52287865 -0.32315677 0.19972187
0.018386142 0 0.020071842 -0.52287865 -0.32315677 0.19972187
0.020376433 0 0.019589905 -0.52287865 -0.32315677 0.19972187
0.022377541 0 0.019105406 -0.52287865 -0.32315677 0.19972187
0.024389571 0 0.018618325 -0.52287865 -0.32315677 0.19972187
0.026412616 0 0.018128637 -0.52287865 -0.32315677 0.19972187
0.028446781 0 0.01763632 -0.52287865 -0.32315677 0.19972187
0.030492164 0 0.017141346 -0.52287865 -0.32315677 0.19972187
0.032548871 0 0.016643696 -0.52287865 -0.32315677 0.19972187
0.034617003 0 0.016143339 -0.52287865 -0.32315677 0.19972187
0.036696669 0 0.015640255 -0.52287865 -0.32315677 0.19972187
0.038787976 0 0.015134418 -0.52287865 -0.32315677 0.19972187
0 0.079386145 0.011649633 -0.52287865 -0.32315677 0.19972187
0 0.078044176 0.011847976 -0.52287865 -0.32315677 0.19972187
0 0.076705493 0.012045893 -0.52287865 -0.32315677 0.19972187
0 0.075370066 0.012243388 -0.52287865 -0.32315677 0.19972187
0 0.07403788 0.012440464 -0.52287865 -0.32315677 0.19972187
0 0.072708927 0.012637123 -0.52287865 -0.32315677 0.19972187
1.110223e-16 0.071383171 0.012833366 -0.52287865 -0.32315677 0.19972187
0 0.070060611 0.013029198 -0.52287865 -0.32315677 0.19972187
1.110223e-16 0.068741217 0.013224619 -0.52287865 -0.32315677 0.19972187
0 0.067424983 0.013419633 -0.52287865 -0.32315677 0.19972187
0 0.066111878 0.013614241 -0.52287865 -0.32315677 0.19972187
1.110223e-16 0.064801894 0.013808447 -0.52287865 -0.32315677 0.19972187
0 0.063495018 0.014002252 -0.52287865 -0.32315677 0.19972187
0 0.062191218 0.014195659 -0.52287865 -0.32315677 0.19972187
0 0.060890488 0.01438867 -0.52287865 -0.32315677 0.19972187
0 0.059592806 0.014581288 -0.52287865 -0.32315677 0.19972187
0 0.058298159 0.014773514 -0.52287865 -0.32315677 0.19972187
0 0.05700653 0.014965352 -0.52287865 -0.32315677 0.19972187
1.110223e-16 0.055717897 0.015156803 -0.52287865 -0.32315677 0.19972187
0 0.054432251 0.015347869 -0.52287865 -0.32315677 0.19972187
1.110223e-16 0.05314957 0.015538553 -0.52287865 -0.32315677 0.19972187
1.110223e-16 0.051869839 0.015728857 -0.52287865 -0.32315677 0.19972187
0 0.050593045 0.015918784 -0.52287865 -0.32315677 0.19972187
0 0.04931917 0.016108334 -0.52287865 -0.32315677 0.19972187
1.110223e-16 0.048048194 0.016297512 -0.52287865 -0.32315677 0.19972187
0 0.046780106 0.016486319 -0.52287865 -0.32315677 0.19972187
0 0.045514889 0.016674755 -0.52287865 -0.32315677 0.19972187
0 0.044252526 0.016862826 -0.52287865 -0.32315677 0.19972187
0 0.042993002 0.017050531 -0.52287865 -0.32315677 0.19972187
0 0.041736301 0.017237874 -0.52287865 -0.32315677 0.19972187
0 0.040482409 0.017424855 -0.52287865 -0.32315677 0.19972187
0 0.039231312 0.017611479 -0.52287865 -0.32315677 0.19972187
1.110223e-16 0.037982989 0.017797748 -0.52287865 -0.32315677 0.19972187
0 0.036737431 0.01798366 -0.52287865 -0.32315677 0.19972187
0 0.035494618 0.018169221 -0.52287865 -0.32315677 0.19972187
0 0.03425454 0.018354431 -0.52287865 -0.32315677 0.19972187
0 0.033017181 0.018539295 -0.52287865 -0.32315677 0.19972187
1.110223e-16 0.031782519 0.01872381 -0.52287865 -0.32315677 0.19972187
0 0.030550551 0.018907983 -0.52287865 -0.32315677 0.19972187
0 0.029321255 0.019091811 -0.52287865 -0.32315677 0.19972187
0 0.028094618 0.019275302 -0.52287865 -0.32315677 0.19972187
0 0.026870625 0.019458452 -0.52287865 -0.32315677 0.19972187
0 0.025649263 0.019641267 -0.52287865 -0.32315677 0.19972187
1.110223e-16 0.024430515 0.019823749 -0.52287865 -0.32315677 0.19972187
0 0.023214372 0.020005897 -0.52287865 -0.32315677 0.19972187
0 0.022000816 0.020187715 -0.52287865 -0.32315677 0.19972187
1.110223e-16 0.020789832 0.020369204 -0.52287865 -0.32315677 0.19972187
1.110223e-16 0.019581409 0.020550366 -0.52287865 -0.32315677 0.19972187
0 0.018375533 0.020731205 -0.52287865 -0.32315677 0.19972187
0 0.017172189 0.02091172 -0.52287865 -0.32315677 0.19972187
1.110223e-16 0.015971364 0.021091914 -0.52287865 -0.32315677 0.19972187
0 0.014773044 0.021271788 -0.52287865 -0.32315677 0.19972187
1.110223e-16 0.013577214 0.021451345 -0.52287865 -0.32315677 0.19972187
0 0.012383864 0.021630587 -0.52287865 -0.32315677 0.19972187
0 0.011192979 0.021809516 -0.52287865 -0.32315677 0.19972187
0 0.010004546 0.021988133 -0.52287865 -0.32315677 0.19972187
0 0.00881855 0.02216644 -0.52287865 -0.32315677 0.19972187
0 0.0076349801 0.022344438 -0.52287865 -0.32315677 0.19972187
0 0.0064538224 0.022522129 -0.52287865 -0.32315677 0.19972187
0 0.0052750641 0.022699516 -0.52287865 -0.32315677 0.19972187
1.110223e-16 0.004098692 0.022876602 -0.52287865 -0.32315677 0.19972187
1.110223e-16 0.002924694 0.023053385 -0.52287865 -0.32315677 0.19972187
1.110223e-16 0.0017530568 0.023229869 -0.52287865 -0.32315677 0.19972187
0 0.00058376777 0.023406055 -0.52287865 -0.32315677 0.19972187
0.00094531983 0 0.023263499 -0.52287865 -0.32315677 0.19972187
0.0028434035 0 0.02280065 -0.52287865 -0.32315677 0.19972187
0.0047514858 0 0.022335421 -0.52287865 -0.32315677 0.19972187
0.0066696545 0 0.021867787 -0.52287865 -0.32315677 0.19972187
0.0085979989 0 0.02139773 -0.52287865 -0.32315677 0.19972187
0.01053661 0 0.020925228 -0.52287865 -0.32315677 0.19972187
0.01248558 0 0.020450259 -0.52287865 -0.32315677 0.19972187
0.014444998 0 0.019972797 -0.52287865 -0.32315677 0.19972187
0.016414963 0 0.019492825 -0.52287865 -0.32315677 0.19972187
0.018395565 0 0.01901032 -0.52287865 -0.32315677 0.19972187
0.020386903 0 0.018525256 -0.52287865 -0.32315677 0.19972187
0.022389071 0 0.018037612 -0.52287865 -0.32315677 0.19972187
0.024402171 0 0.017547362 -0.52287865 -0.32315677 0.19972187
0.026426299 0 0.017054485 -0.52287865 -0.32315677 0.19972187
0.028461559 0 0.016558956 -0.52287865 -0.32315677 0.19972187
0.030508049 0 0.016060753 -0.52287865 -0.32315677 0.19972187
0.032565873 0 0.015559847 -0.52287865 -0.32315677 0.19972187
0.034635138 0 0.015056215 -0.52287865 -0.32315677 0.19972187
0.036715947 0 0.014549833 -0.52287865 -0.32315677 0.19972187
0.038808405 0 0.014040675 -0.52287865 -0.32315677 0.19972187
0 0.079428725 0.010533965 -0.52287865 -0.32315677 0.19972187
1.110223e-16 0.078085989 0.010733781 -0.52287865 -0.32315677 0.19972187
0 0.076746538 0.010933166 -0.52287865 -0.32315677 0.19972187
0 0.075410344 0.011132124 -0.52287865 -0.32315677 0.19972187
0 0.074077405 0.011330654 -0.52287865 -0.32315677 0.19972187
0 0.072747692 0.011528761 -0.52287865 -0.32315677 0.19972187
0 0.071421184 0.011726446 -0.52287865 -0.32315677 0.19972187
0 0.070097871 0.011923714 -0.52287865 -0.32315677 0.19972187
0 0.06877774 0.012120564 -0.52287865 -0.32315677 0.19972187
0 0.067460753 0.012317001 -0.52287865 -0.32315677 0.19972187
0 0.066146918 0.012513027 -0.52287865 -0.32315677 0.19972187
0 0.064836197 0.012708643 -0.52287865 -0.32315677 0.19972187
0 0.063528582 0.012903852 -0.52287865 -0.32315677 0.19972187
0 0.06222406 0.013098658 -0.52287865 -0.32315677 0.19972187
1.110223e-16 0.060922604 0.013293061 -0.52287865 -0.32315677 0.19972187
0 0.059624203 0.013487065 -0.52287865 -0.32315677 0.19972187
0 0.058328837 0.013680671 -0.52287865 -0.32315677 0.19972187
0 0.057036493 0.013873884 -0.52287865 -0.32315677 0.19972187
0 0.055747151 0.014066702 -0.52287865 -0.32315677 0.19972187
0 0.054460794 0.014259131 -0.52287865 -0.32315677 0.19972187
0 0.053177409 0.014451171 -0.52287865 -0.32315677 0.19972187
0 0.051896978 0.014642825 -0.52287865 -0.32315677 0.19972187
0 0.050619487 0.014834096 -0.52287865 -0.32315677 0.19972187
1.110223e-16 0.049344912 0.015024985 -0.52287865 -0.32315677 0.19972187
1.110223e-16 0.048073247 0.015215496 -0.52287865 -0.32315677 0.19972187
1.110223e-16 0.046804469 0.015405629 -0.52287865 -0.32315677 0.19972187
1.110223e-16 0.045538567 0.015595387 -0.52287865 -0.32315677 0.19972187
1.110223e-16 0.044275519 0.015784772 -0.52287865 -0.32315677 0.19972187
1.110223e-16 0.043015316 0.015973788 -0.52287865 -0.32315677 0.19972187
0 0.041757941 0.016162435 -0.52287865 -0.32315677 0.19972187
0 0.040503375 0.016350714 -0.52287865 -0.32315677 0.19972187
0 0.039251607 0.016538631 -0.52287865 -0.32315677 0.19972187
1.110223e-16 0.038002618 0.016726186 -0.52287865 -0.32315677 0.19972187
0 0.036756393 0.01691338 -0.52287865 -0.32315677 0.19972187
0 0.03551292 0.017100217 -0.52287865 -0.32315677 0.19972187
0 0.034272183 0.017286697 -0.52287865 -0.32315677 0.19972187
0 0.033034164 0.017472824 -0.52287865 -0.32315677 0.19972187
0 0.031798854 0.017658601 -0.52287865 -0.32315677 0.19972187
1.110223e-16 0.030566234 0.017844025 -0.52287865 -0.32315677 0.19972187
0 0.02933629 0.018029105 -0.52287865 -0.32315677 0.19972187
0 0.028109008 0.018213836 -0.52287865 -0.32315677 0.19972187
0 0.026884373 0.018398225 -0.52287865 -0.32315677 0.19972187
0 0.025662372 0.018582273 -0.52287865 -0.32315677 0.19972187
0 0.024442989 0.01876598 -0.52287865 -0.32315677 0.19972187
0 0.023226211 0.01894935 -0.52287865 -0.32315677 0.19972187
1.110223e-16 0.022012023 0.019132385 -0.52287865 -0.32315677 0.19972187
0 0.020800414 0.019315084 -0.52287865 -0.32315677 0.19972187
0 0.019591365 0.019497454 -0.52287865 -0.32315677 0.19972187
0 0.018384866 0.019679492 -0.52287865 -0.32315677 0.19972187
0 0.017180901 0.019861203 -0.52287865 -0.32315677 0.19972187
0 0.015979458 0.020042587 -0.52287865 -0.32315677 0.19972187
0 0.014780523 0.020223647 -0.52287865 -0.32315677 0.19972187
0 0.013584082 0.020404384 -0.52287865 -0.32315677 0.19972187
0 0.012390121 0.020584801 -0.52287865 -0.32315677 0.19972187
0 0.011198629 0.0207649 -0.52287865 -0.32315677 0.19972187
0 0.01000959 0.020944681 -0.52287865 -0.32315677 0.19972187
0 0.0088229915 0.021124147 -0.52287865 -0.32315677 0.19972187
1.110223e-16 0.0076388214 0.0213033 -0.52287865 -0.32315677 0.19972187
0 0.0064570662 0.021482142 -0.52287865 -0.32315677 0.19972187
0 0.0052777128 0.021660674 -0.52287865 -0.32315677 0.19972187
0 0.0041007483 0.021838898 -0.52287865 -0.32315677 0.19972187
1.110223e-16 0.0029261597 0.022016816 -0.52287865 -0.32315677 0.19972187
0 0.0017539343 0.02219443 -0.52287865 -0.32315677 0.19972187
0 0.00058405974 0.022371741 -0.52287865 -0.32315677 0.19972187
0.000945793 0 0.022228278 -0.52287865 -0.32315677 0.19972187
0.0028448305 0 0.021762477 -0.52287865 -0.32315677 0.19972187
0.0047538765 0 0.021294277 -0.52287865 -0.32315677 0.19972187
0.0066730189 0 0.020823654 -0.52287865 -0.32315677 0.19972187
0.0086023482 0 0.020350587 -0.52287865 -0.32315677 0.19972187
0.010541954 0 0.019875053 -0.52287865 -0.32315677 0.19972187
0.012491928 0 0.019397033 -0.52287865 -0.32315677 0.19972187
0.014452364 0 0.018916504 -0.52287865 -0.32315677 0.19972187
0.016423356 0 0.018433442 -0.52287865 -0.32315677 0.19972187
0.018404996 0 0.017947825 -0.52287865 -0.32315677 0.19972187
0.020397382 0 0.017459629 -0.52287865 -0.32315677 0.19972187
0.022400612 0 0.016968831 -0.52287865 -0.32315677 0.19972187
0.024414783 0 0.016475409 -0.52287865 -0.32315677 0.19972187
0.026439996 0 0.015979337 -0.52287865 -0.32315677 0.19972187
0.02847635 0 0.015480592 -0.52287865 -0.32315677 0.19972187
0.030523947 0 0.014979149 -0.52287865 -0.32315677 0.19972187
0.03258289 0 0.014474983 -0.52287865 -0.32315677 0.19972187
0.034653287 0 0.01396807 -0.52287865 -0.32315677 0.19972187
0.03673524 0 0.013458383 -0.52287865 -0.32315677 0.19972187
0.038828857 0 0.012945897 -0.52287865 -0.32315677 0.19972187
0 0.07947135 0.0094172154 -0.52287865 -0.32315677 0.19972187
0 0.078127846 0.0096185086 -0.52287865 -0.32315677 0.19972187
0 0.076787621 0.0098193651 -0.52287865 -0.32315677 0.19972187
0 0.075450666 0.010019786 -0.52287865 -0.32315677 0.19972187
1.110223e-16 0.07411696 0.010219774 -0.52287865 -0.32315677 0.19972187
0 0.072786495 0.010419331 -0.52287865 -0.32315677 0.19972187
0 0.071459234 0.010618462 -0.52287865 -0.32315677 0.19972187
0 0.070135169 0.010817168 -0.52287865 -0.32315677 0.19972187
1.110223e-16 0.068814293 0.011015451 -0.52287865 -0.32315677 0.19972187
1.110223e-16 0.067496568 0.011213314 -0.52287865 -0.32315677 0.19972187
0 0.066181988 0.011410759 -0.52287865 -0.32315677 0.19972187
0 0.064870536 0.011607789 -0.52287865 -0.32315677 0.19972187
0 0.063562185 0.011804405 -0.52287865 -0.32315677 0.19972187
0 0.062256932 0.012000612 -0.52287865 -0.32315677 0.19972187
0 0.060954753 0.01219641 -0.52287865 -0.32315677 0.19972187
0 0.059655629 0.012391803 -0.52287865 -0.32315677 0.19972187
0 0.058359545 0.012586792 -0.52287865 -0.32315677 0.19972187
0 0.057066485 0.01278138 -0.52287865 -0.32315677 0.19972187
0 0.055776432 0.01297557 -0.52287865 -0.32315677 0.19972187
0 0.054489367 0.013169363 -0.52287865 -0.32315677 0.19972187
0 0.053205278 0.013362762 -0.52287865 -0.32315677 0.19972187
0 0.051924143 0.013555769 -0.52287865 -0.32315677 0.19972187
0 0.050645951 0.013748387 -0.52287865 -0.32315677 0.19972187
0 0.049370684 0.013940617 -0.52287865 -0.32315677 0.19972187
0 0.048098322 0.014132462 -0.52287865 -0.32315677 0.19972187
1.110223e-16 0.046828855 0.014323925 -0.52287865 -0.32315677 0.19972187
1.110223e-16 0.045562267 0.014515007 -0.52287865 -0.32315677 0.19972187
0 0.044298537 0.01470571 -0.52287865 -0.32315677 0.19972187
0 0.043037653 0.014896038 -0.52287865 -0.32315677 0.19972187
0 0.0417796 0.015085991 -0.52287865 -0.32315677 0.19972187
0 0.04052436 0.015275572 -0.52287865 -0.32315677 0.19972187
0 0.039271917 0.015464784 -0.52287865 -0.32315677 0.19972187
0 0.038022261 0.015653627 -0.52287865 -0.32315677 0.19972187
0 0.036775373 0.015842106 -0.52287865 -0.32315677 0.19972187
0 0.035531238 0.01603022 -0.52287865 -0.32315677 0.19972187
1.110223e-16 0.034289841 0.016217975 -0.52287865 -0.32315677 0.19972187
0 0.033051167 0.016405368 -0.52287865 -0.32315677 0.19972187
1.110223e-16 0.031815201 0.016592406 -0.52287865 -0.32315677 0.19972187
1.110223e-16 0.030581931 0.016779087 -0.52287865 -0.32315677 0.19972187
0 0.029351339 0.016965417 -0.52287865 -0.32315677 0.19972187
0 0.028123412 0.017151395 -0.52287865 -0.32315677 0.19972187
0 0.026898134 0.017337024 -0.52287865 -0.32315677 0.19972187
0 0.025675494 0.017522305 -0.52287865 -0.32315677 0.19972187
0 0.024455475 0.017707242 -0.52287865 -0.32315677 0.19972187
0 0.023238063 0.017891835 -0.52287865 -0.32315677 0.19972187
1.110223e-16 0.022023244 0.018076088 -0.52287865 -0.32315677 0.19972187
0 0.020811005 0.018260002 -0.52287865 -0.32315677 0.19972187
0 0.01960133 0.018443579 -0.52287865 -0.32315677 0.19972187
0 0.018394208 0.01862682 -0.52287865 -0.32315677 0.19972187
1.110223e-16 0.017189622 0.018809728 -0.52287865 -0.32315677 0.19972187
0 0.01598756 0.018992305 -0.52287865 -0.32315677 0.19972187
1.110223e-16 0.014788009 0.019174553 -0.52287865 -0.32315677 0.19972187
0 0.013590955 0.019356472 -0.52287865 -0.32315677 0.19972187
0 0.012396384 0.019538065 -0.52287865 -0.32315677 0.19972187
1.110223e-16 0.011204283 0.019719336 -0.52287865 -0.32315677 0.19972187
1.110223e-16 0.010014638 0.019900285 -0.52287865 -0.32315677 0.19972187
0 0.0088274376 0.020080913 -0.52287865 -0.32315677 0.19972187
0 0.0076426668 0.020261222 -0.52287865 -0.32315677 0.19972187
0 0.0064603132 0.020441215 -0.52287865 -0.32315677 0.19972187
0 0.0052803638 0.020620896 -0.52287865 -0.32315677 0.19972187
0 0.0041028061 0.020800261 -0.52287865 -0.32315677 0.19972187
0 0.0029276265 0.020979317 -0.52287865 -0.32315677 0.19972187
0 0.0017548128 0.021158062 -0.52287865 -0.32315677 0.19972187
0 0.00058435195 0.021336501 -0.52287865 -0.32315677 0.19972187
0.00094626658 0 0.021192128 -0.52287865 -0.32315677 0.19972187
0.0028462587 0 0.020723371 -0.52287865 -0.32315677 0.19972187
0.0047562695 0 0.020252192 -0.52287865 -0.32315677 0.19972187
0.006676387 0 0.019778574 -0.52287865 -0.32315677 0.19972187
0.0086067012 0 0.019302491 -0.52287865 -0.32315677 0.19972187
0.010547304 0 0.018823922 -0.52287865 -0.32315677 0.19972187
0.012498284 0 0.018342847 -0.52287865 -0.32315677 0.19972187
0.014459737 0 0.017859241 -0.52287865 -0.32315677 0.19972187
0.016431756 0 0.017373083 -0.52287865 -0.32315677 0.19972187
0.018414436 0 0.016884349 -0.52287865 -0.32315677 0.19972187
0.020407872 0 0.016393015 -0.52287865 -0.32315677 0.19972187
0.022412164 0 0.01589906 -0.52287865 -0.32315677 0.19972187
0.024427408 0 0.015402459 -0.52287865 -0.32315677 0.19972187
0.026453706 0 0.014903186 -0.52287865 -0.32315677 0.19972187
0.028491154 0 0.014401218 -0.52287865 -0.32315677 0.19972187
0.030539861 0 0.01389653 -0.52287865 -0.32315677 0.19972187
0.032599926 0 0.013389098 -0.52287865 -0.32315677 0.19972187
0.034671456 0 0.012878897 -0.52287865 -0.32315677 0.19972187
0.036754552 0 0.012365899 -0.52287865 -0.32315677 0.19972187
0.038849328 0 0.01185008 -0.52287865 -0.32315677 0.19972187
0 0.079514019 0.0082993777 -0.52287865 -0.32315677 0.19972187
0 0.078169741 0.0085021509 -0.52287865 -0.32315677 0.19972187
0 0.076828748 0.0087044798 -0.52287865 -0.32315677 0.19972187
0 0.075491026 0.0089063682 -0.52287865 -0.32315677 0.19972187
0 0.07415656 0.009107817 -0.52287865 -0.32315677 0.19972187
0 0.072825335 0.009308829 -0.52287865 -0.32315677 0.19972187
1.110223e-16 0.071497321 0.009509407 -0.52287865 -0.32315677 0.19972187
0 0.070172504 0.0097095538 -0.52287865 -0.32315677 0.19972187
0 0.068850875 0.0099092713 -0.52287865 -0.32315677 0.19972187
1.110223e-16 0.067532413 0.010108563 -0.52287865 -0.32315677 0.19972187
1.110223e-16 0.066217095 0.01030743 -0.52287865 -0.32315677 0.19972187
0 0.064904898 0.010505877 -0.52287865 -0.32315677 0.19972187
1.110223e-16 0.063595824 0.010703903 -0.52287865 -0.32315677 0.19972187
1.110223e-16 0.062289838 0.010901514 -0.52287865 -0.32315677 0.19972187
0 0.060986932 0.011098709 -0.52287865 -0.32315677 0.19972187
0 0.059687085 0.011295494 -0.52287865 -0.32315677 0.19972187
0 0.058390282 0.011491868 -0.52287865 -0.32315677 0.19972187
1.110223e-16 0.057096504 0.011687836 -0.52287865 -0.32315677 0.19972187
1.110223e-16 0.055805739 0.011883399 -0.52287865 -0.32315677 0.19972187
1.110223e-16 0.054517966 0.012078559 -0.52287865 -0.32315677 0.19972187
0 0.053233169 0.012273319 -0.52287865 -0.32315677 0.19972187
0 0.05195133 0.012467682 -0.52287865 -0.32315677 0.19972187
0 0.050672438 0.012661649 -0.52287865 -0.32315677 0.19972187
1.110223e-16 0.049396474 0.012855223 -0.52287865 -0.32315677 0.19972187
0 0.048123423 0.013048407 -0.52287865 -0.32315677 0.19972187
0 0.046853267 0.013241201 -0.52287865 -0.32315677 0.19972187
0 0.045585986 0.013433609 -0.52287865 -0.32315677 0.19972187
1.110223e-16 0.044321574 0.013625633 -0.52287865 -0.32315677 0.19972187
0 0.043060008 0.013817275 -0.52287865 -0.32315677 0.19972187
0 0.041801278 0.014008537 -0.52287865 -0.32315677 0.19972187
0 0.040545363 0.014199421 -0.52287865 -0.32315677 0.19972187
0 0.03929225 0.01438993 -0.52287865 -0.32315677 0.19972187
0 0.038041927 0.014580066 -0.52287865 -0.32315677 0.19972187
1.110223e-16 0.036794372 0.014769831 -0.52287865 -0.32315677 0.19972187
0 0.035549574 0.014959226 -0.52287865 -0.32315677 0.19972187
0 0.034307517 0.015148255 -0.52287865 -0.32315677 0.19972187
0 0.033068184 0.015336919 -0.52287865 -0.32315677 0.19972187
0 0.031831566 0.01552522 -0.52287865 -0.32315677 0.19972187
0 0.030597642 0.015713161 -0.52287865 -0.32315677 0.19972187
1.110223e-16 0.029366402 0.015900742 -0.52287865 -0.32315677 0.19972187
0 0.028137829 0.016087968 -0.52287865 -0.32315677 0.19972187
0 0.026911909 0.01627484 -0.52287865 -0.32315677 0.19972187
0 0.025688628 0.016461357 -0.52287865 -0.32315677 0.19972187
0 0.024467971 0.016647527 -0.52287865 -0.32315677 0.19972187
1.110223e-16 0.023249924 0.016833346 -0.52287865 -0.32315677 0.19972187
1.110223e-16 0.022034474 0.017018821 -0.52287865 -0.32315677 0.19972187
0 0.020821605 0.017203949 -0.52287865 -0.32315677 0.19972187
0 0.019611303 0.017388737 -0.52287865 -0.32315677 0.19972187
0 0.018403556 0.017573183 -0.52287865 -0.32315677 0.19972187
0 0.01719835 0.017757291 -0.52287865 -0.32315677 0.19972187
1.110223e-16 0.01599567 0.017941063 -0.52287865 -0.32315677 0.19972187
0 0.014795502 0.018124498 -0.52287865 -0.32315677 0.19972187
1.110223e-16 0.013597834 0.018307604 -0.52287865 -0.32315677 0.19972187
0 0.012402652 0.018490376 -0.52287865 -0.32315677 0.19972187
0 0.011209942 0.01867282 -0.52287865 -0.32315677 0.19972187
0 0.010019692 0.018854938 -0.52287865 -0.32315677 0.19972187
1.110223e-16 0.0088318875 0.019036731 -0.52287865 -0.32315677 0.19972187
1.110223e-16 0.0076465155 0.019218199 -0.52287865 -0.32315677 0.19972187
0 0.0064635631 0.019399347 -0.52287865 -0.32315677 0.19972187
0 0.0052830176 0.019580174 -0.52287865 -0.32315677 0.19972187
0 0.0041048657 0.019760685 -0.52287865 -0.32315677 0.19972187
0 0.0029290949 0.019940879 -0.52287865 -0.32315677 0.19972187
0 0.0017556919 0.020120759 -0.52287865 -0.32315677 0.19972187
0 0.00058464444 0.020300327 -0.52287865 -0.32315677 0.19972187
0.00094674056 0 0.020155041 -0.52287865 -0.32315677 0.19972187
0.0028476883 0 0.019683322 -0.52287865 -0.32315677 0.19972187
0.0047586644 0 0.019209161 -0.52287865 -0.32315677 0.19972187
0.006679758 0 0.01873254 -0.52287865 -0.32315677 0.19972187
0.0086110588 0 0.018253436 -0.52287865 -0.32315677 0.19972187
0.010552657 0 0.017771829 -0.52287865 -0.32315677 0.19972187
0.012504645 0 0.017287692 -0.52287865 -0.32315677 0.19972187
0.014467116 0 0.016801005 -0.52287865 -0.32315677 0.19972187
0.016440164 0 0.016311744 -0.52287865 -0.32315677 0.19972187
0.018423883 0 0.015819889 -0.52287865 -0.32315677 0.19972187
0.020418372 0 0.015325411 -0.52287865 -0.32315677 0.19972187
0.022423726 0 0.014828292 -0.52287865 -0.32315677 0.19972187
0.024440045 0 0.014328504 -0.52287865 -0.32315677 0.19972187
0.026467426 0 0.013826025 -0.52287865 -0.32315677 0.19972187
0.028505975 0 0.013320828 -0.52287865 -0.32315677 0.19972187
0.03055579 0 0.01281289 -0.52287865 -0.32315677 0.19972187
0.032616977 0 0.012302185 -0.52287865 -0.32315677 0.19972187
0.034689639 0 0.011788689 -0.52287865 -0.32315677 0.19972187
0.036773883 0 0.011272374 -0.52287865 -0.32315677 0.19972187
0.038869817 0 0.010753213 -0.52287865 -0.32315677 0.19972187
0 0.079556726 0.007180444 -0.52287865 -0.32315677 0.19972187
0 0.078211673 0.0073847002 -0.52287865 -0.32315677 0.19972187
0 0.076869912 0.0075885057 -0.52287865 -0.32315677 0.19972187
0 0.075531423 0.0077918633 -0.52287865 -0.32315677 0.19972187
0 0.074196197 0.0079947757 -0.52287865 -0.32315677 0.19972187
0 0.072864212 0.0081972443 -0.52287865 -0.32315677 0.19972187
0 0.071535446 0.0083992733 -0.52287865 -0.32315677 0.19972187
0 0.070209876 0.0086008636 -0.52287865 -0.32315677 0.19972187
0 0.068887502 0.0088020191 -0.52287865 -0.32315677 0.19972187
0 0.067568287 0.0090027424 -0.52287865 -0.32315677 0.19972187
0 0.066252232 0.0092030345 -0.52287865 -0.32315677 0.19972187
0 0.064939305 0.0094029 -0.52287865 -0.32315677 0.19972187
0 0.063629486 0.009602339 -0.52287865 -0.32315677 0.19972187
0 0.062322773 0.0098013561 -0.52287865 -0.32315677 0.19972187
1.110223e-16 0.061019141 0.0099999523 -0.52287865 -0.32315677 0.19972187
0 0.059718572 0.01019813 -0.52287865 -0.32315677 0.19972187
1.110223e-16 0.058421049 0.010395894 -0.52287865 -0.32315677 0.19972187
0 0.057126556 0.010593243 -0.52287865 -0.32315677 0.19972187
1.110223e-16 0.055835076 0.010790182 -0.52287865 -0.32315677 0.19972187
0 0.054546591 0.010986713 -0.52287865 -0.32315677 0.19972187
0 0.053261086 0.011182837 -0.52287865 -0.32315677 0.19972187
0 0.051978547 0.011378557 -0.52287865 -0.32315677 0.19972187
0 0.050698955 0.011573877 -0.52287865 -0.32315677 0.19972187
0 0.049422294 0.011768797 -0.52287865 -0.32315677 0.19972187
0 0.048148546 0.011963321 -0.52287865 -0.32315677 0.19972187
0 0.046877697 0.012157449 -0.52287865 -0.32315677 0.19972187
0 0.045609731 0.012351186 -0.52287865 -0.32315677 0.19972187
0 0.044344634 0.012544533 -0.52287865 -0.32315677 0.19972187
0 0.04308239 0.012737492 -0.52287865 -0.32315677 0.19972187
0 0.041822977 0.012930065 -0.52287865 -0.32315677 0.19972187
0 0.040566389 0.013122256 -0.52287865 -0.32315677 0.19972187
0 0.039312605 0.013314065 -0.52287865 -0.32315677 0.19972187
0 0.038061608 0.013505494 -0.52287865 -0.32315677 0.19972187
0 0.036813386 0.013696548 -0.52287865 -0.32315677 0.19972187
0 0.035567924 0.013887227 -0.52287865 -0.32315677 0.19972187
0 0.034325209 0.014077533 -0.52287865 -0.32315677 0.19972187
0 0.03308522 0.014267469 -0.52287865 -0.32315677 0.19972187
0 0.031847943 0.014457037 -0.52287865 -0.32315677 0.19972187
0 0.03061337 0.014646238 -0.52287865 -0.32315677 0.19972187
0 0.02938148 0.014835075 -0.52287865 -0.32315677 0.19972187
0 0.028152261 0.015023551 -0.52287865 -0.32315677 0.19972187
0 0.026925696 0.015211667 -0.52287865 -0.32315677 0.19972187
0 0.025701774 0.015399425 -0.52287865 -0.32315677 0.19972187
0 0.024480479 0.015586827 -0.52287865 -0.32315677 0.19972187
0 0.023261797 0.015773876 -0.52287865 -0.32315677 0.19972187
0 0.022045713 0.015960572 -0.52287865 -0.32315677 0.19972187
0 0.020832215 0.016146921 -0.52287865 -0.32315677 0.19972187
0 0.019621287 0.016332919 -0.52287865 -0.32315677 0.19972187
0 0.018412914 0.016518572 -0.52287865 -0.32315677 0.19972187
0 0.017207086 0.016703883 -0.52287865 -0.32315677 0.19972187
1.110223e-16 0.016003786 0.016888851 -0.52287865 -0.32315677 0.19972187
1.110223e-16 0.014803002 0.01707348 -0.52287865 -0.32315677 0.19972187
0 0.01360472 0.017257771 -0.52287865 -0.32315677 0.19972187
0 0.012408926 0.017441725 -0.52287865 -0.32315677 0.19972187
0 0.011215607 0.017625345 -0.52287865 -0.32315677 0.19972187
0 0.01002475 0.017808635 -0.52287865 -0.32315677 0.19972187
0 0.0088363411 0.017991593 -0.52287865 -0.32315677 0.19972187
0 0.0076503674 0.018174222 -0.52287865 -0.32315677 0.19972187
1.110223e-16 0.0064668162 0.018356526 -0.52287865 -0.32315677 0.19972187
0 0.0052856738 0.018538505 -0.52287865 -0.32315677 0.19972187
0 0.0041069277 0.018720161 -0.52287865 -0.32315677 0.19972187
0 0.0029305646 0.018901497 -0.52287865 -0.32315677 0.19972187
0 0.0017565719 0.019082513 -0.52287865 -0.32315677 0.19972187
0 0.00058493717 0.019263212 -0.52287865 -0.32315677 0.19972187
0.00094721501 0 0.019117014 -0.52287865 -0.32315677 0.19972187
0.002849119 0 0.018642325 -0.52287865 -0.32315677 0.19972187
0.0047610616 0 0.018165179 -0.52287865 -0.32315677 0.19972187
0.0066831321 0 0.017685551 -0.52287865 -0.32315677 0.19972187
0.0086154193 0 0.01720342 -0.52287865 -0.32315677 0.19972187
0.010558016 0 0.016718764 -0.52287865 -0.32315677 0.19972187
0.012511012 0 0.016231561 -0.52287865 -0.32315677 0.19972187
0.014474502 0 0.015741786 -0.52287865 -0.32315677 0.19972187
0.01644858 0 0.015249419 -0.52287865 -0.32315677 0.19972187
0.01843334 0 0.014754434 -0.52287865 -0.32315677 0.19972187
0.020428881 0 0.014256809 -0.52287865 -0.32315677 0.19972187
0.022435298 0 0.013756518 -0.52287865 -0.32315677 0.19972187
0.024452692 0 0.013253539 -0.52287865 -0.32315677 0.19972187
0.026481161 0 0.012747847 -0.52287865 -0.32315677 0.19972187
0.028520808 0 0.012239415 -0.52287865 -0.32315677 0.19972187
0.030571735 0 0.011728221 -0.52287865 -0.32315677 0.19972187
0.032634042 0 0.011214237 -0.52287865 -0.32315677 0.19972187
0.034707841 0 0.010697439 -0.52287865 -0.32315677 0.19972187
0.036793232 0 0.0101778 -0.52287865 -0.32315677 0.19972187
0.038890328 0 0.009655294 -0.52287865 -0.32315677 0.19972187
0 0.079599477 0.0060604075 -0.52287865 -0.32315677 0.19972187
1.110223e-16 0.078253649 0.0062661497 -0.52287865 -0.32315677 0.19972187
0 0.076911114 0.0064714346 -0.52287865 -0.32315677 0.19972187
0 0.075571865 0.006676265 -0.52287865 -0.32315677 0.19972187
0 0.074235871 0.0068806428 -0.52287865 -0.32315677 0.19972187
0 0.072903126 0.0070845718 -0.52287865 -0.32315677 0.19972187
0 0.0715736 0.0072880541 -0.52287865 -0.32315677 0.19972187
1.110223e-16 0.070247285 0.0074910917 -0.52287865 -0.32315677 0.19972187
0 0.068924159 0.0076936879 -0.52287865 -0.32315677 0.19972187
0 0.067604207 0.007895845 -0.52287865 -0.32315677 0.19972187
0 0.066287398 0.0080975657 -0.52287865 -0.32315677 0.19972187
0 0.064973734 0.0082988525 -0.52287865 -0.32315677 0.19972187
0 0.063663192 0.0084997071 -0.52287865 -0.32315677 0.19972187
0 0.062355742 0.0087001333 -0.52287865 -0.32315677 0.19972187
0 0.061051384 0.008900132 -0.52287865 -0.32315677 0.19972187
0 0.059750088 0.0090997079 -0.52287865 -0.32315677 0.19972187
0 0.058451843 0.009298861 -0.52287865 -0.32315677 0.19972187
0 0.057156634 0.009497596 -0.52287865 -0.32315677 0.19972187
0 0.055864438 0.0096959136 -0.52287865 -0.32315677 0.19972187
0 0.054575242 0.009893816 -0.52287865 -0.32315677 0.19972187
1.110223e-16 0.053289033 0.010091308 -0.52287865 -0.32315677 0.19972187
0 0.052005786 0.010288388 -0.52287865 -0.32315677 0.19972187
0 0.050725494 0.010485063 -0.52287865 -0.32315677 0.19972187
0 0.049448133 0.010681332 -0.52287865 -0.32315677 0.19972187
1.110223e-16 0.048173692 0.010877199 -0.52287865 -0.32315677 0.19972187
0 0.046902154 0.011072665 -0.52287865 -0.32315677 0.19972187
0 0.045633499 0.011267732 -0.52287865 -0.32315677 0.19972187
0 0.044367716 0.011462404 -0.52287865 -0.32315677 0.19972187
0 0.043104786 0.011656683 -0.52287865 -0.32315677 0.19972187
0 0.0418447 0.01185057 -0.52287865 -0.32315677 0.19972187
1.110223e-16 0.040587433 0.012044068 -0.52287865 -0.32315677 0.19972187
0 0.039332975 0.01223718 -0.52287865 -0.32315677 0.19972187
1.110223e-16 0.038081307 0.012429907 -0.52287865 -0.32315677 0.19972187
0 0.036832418 0.012622251 -0.52287865 -0.32315677 0.19972187
0 0.035586294 0.012814215 -0.52287865 -0.32315677 0.19972187
0 0.034342915 0.013005801 -0.52287865 -0.32315677 0.19972187
1.110223e-16 0.033102266 0.013197012 -0.52287865 -0.32315677 0.19972187
0 0.031864338 0.013387849 -0.52287865 -0.32315677 0.19972187
0 0.030629111 0.013578313 -0.52287865 -0.32315677 0.19972187
0 0.029396571 0.013768409 -0.52287865 -0.32315677 0.19972187
0 0.028166706 0.013958137 -0.52287865 -0.32315677 0.19972187
0 0.026939496 0.0141475 -0.52287865 -0.32315677 0.19972187
0 0.025714934 0.014336499 -0.52287865 -0.32315677 0.19972187
0 0.024493 0.014525138 -0.52287865 -0.32315677 0.19972187
0 0.023273682 0.014713418 -0.52287865 -0.32315677 0.19972187
0 0.022056965 0.01490134 -0.52287865 -0.32315677 0.19972187
0 0.020842835 0.015088907 -0.52287865 -0.32315677 0.19972187
0 0.019631278 0.015276121 -0.52287865 -0.32315677 0.19972187
0 0.018422281 0.015462984 -0.52287865 -0.32315677 0.19972187
0 0.017215831 0.015649499 -0.52287865 -0.32315677 0.19972187
0 0.016011911 0.015835667 -0.52287865 -0.32315677 0.19972187
1.110223e-16 0.014810509 0.016021488 -0.52287865 -0.32315677 0.19972187
0 0.013611612 0.016206969 -0.52287865 -0.32315677 0.19972187
0 0.012415206 0.016392106 -0.52287865 -0.32315677 0.19972187
1.110223e-16 0.011221277 0.016576905 -0.52287865 -0.32315677 0.19972187
0 0.010029812 0.016761368 -0.52287865 -0.32315677 0.19972187
1.110223e-16 0.0088407993 0.016945494 -0.52287865 -0.32315677 0.19972187
0 0.0076542231 0.017129287 -0.52287865 -0.32315677 0.19972187
0 0.0064700721 0.017312748 -0.52287865 -0.32315677 0.19972187
0 0.0052883322 0.01749588 -0.52287865 -0.32315677 0.19972187
0 0.004108991 0.017678685 -0.52287865 -0.32315677 0.19972187
0 0.0029320354 0.017861163 -0.52287865 -0.32315677 0.19972187
1.110223e-16 0.0017574527 0.018043319 -0.52287865 -0.32315677 0.19972187
0 0.00058523018 0.01822515 -0.52287865 -0.32315677 0.19972187
0.00094768987 0 0.018078038 -0.52287865 -0.32315677 0.19972187
0.0028505512 0 0.017600376 -0.52287865 -0.32315677 0.19972187
0.0047634612 0 0.017120237 -0.52287865 -0.32315677 0.19972187
0.0066865091 0 0.016637595 -0.52287865 -0.32315677 0.19972187
0.0086197844 0 0.016152432 -0.52287865 -0.32315677 0.19972187
0.010563379 0 0.015664725 -0.52287865 -0.32315677 0.19972187
0.012517385 0 0.015174448 -0.52287865 -0.32315677 0.19972187
0.014481895 0 0.014681581 -0.52287865 -0.32315677 0.19972187
0.016457003 0 0.0141861 -0.52287865 -0.32315677 0.19972187
0.018442806 0 0.013687981 -0.52287865 -0.32315677 0.19972187
0.020439399 0 0.013187201 -0.52287865 -0.32315677 0.19972187
0.022446882 0 0.012683734 -0.52287865 -0.32315677 0.19972187
0.024465352 0 0.012177558 -0.52287865 -0.32315677 0.19972187
0.026494909 0 0.011668645 -0.52287865 -0.32315677 0.19972187
0.028535655 0 0.011156973 -0.52287865 -0.32315677 0.19972187
0.030587694 0 0.010642515 -0.52287865 -0.32315677 0.19972187
0.032651126 0 0.010125247 -0.52287865 -0.32315677 0.19972187
0.034726061 0 0.0096051414 -0.52287865 -0.32315677 0.19972187
0.036812603 0 0.0090821721 -0.52287865 -0.32315677 0.19972187
0.038910858 0 0.0085563129 -0.52287865 -0.32315677 0.19972187
0 0.079642273 0.0049392618 -0.52287865 -0.32315677 0.19972187
0 0.078295663 0.0051464927 -0.52287865 -0.32315677 0.19972187
0 0.076952361 0.0053532599 -0.52287865 -0.32315677 0.19972187
0 0.075612344 0.0055595655 -0.52287865 -0.32315677 0.19972187
0 0.07427559 0.0057654129 -0.52287865 -0.32315677 0.19972187
0 0.072942078 0.0059708045 -0.52287865 -0.32315677 0.19972187
0 0.071611799 0.0061757425 -0.52287865 -0.32315677 0.19972187
0 0.070284732 0.0063802302 -0.52287865 -0.32315677 0.19972187
0 0.068960853 0.0065842699 -0.52287865 -0.32315677 0.19972187
0 0.067640156 0.006787864 -0.52287865 -0.32315677 0.19972187
0 0.06632261 0.0069910153 -0.52287865 -0.32315677 0.19972187
1.110223e-16 0.065008201 0.0071937265 -0.52287865 -0.32315677 0.19972187
0 0.063696921 0.0073959995 -0.52287865 -0.32315677 0.19972187
0 0.062388744 0.0075978376 -0.52287865 -0.32315677 0.19972187
1.110223e-16 0.061083656 0.0077992426 -0.52287865 -0.32315677 0.19972187
0 0.059781633 0.0080002174 -0.52287865 -0.32315677 0.19972187
0 0.058482669 0.0082007647 -0.52287865 -0.32315677 0.19972187
0 0.057186741 0.0084008863 -0.52287865 -0.32315677 0.19972187
0 0.055893831 0.0086005852 -0.52287865 -0.32315677 0.19972187
0 0.054603923 0.008799864 -0.52287865 -0.32315677 0.19972187
0 0.053317007 0.0089987246 -0.52287865 -0.32315677 0.19972187
0 0.052033056 0.009197169 -0.52287865 -0.32315677 0.19972187
0 0.050752059 0.0093952008 -0.52287865 -0.32315677 0.19972187
0 0.049474001 0.0095928209 -0.52287865 -0.32315677 0.19972187
0 0.048198864 0.0097900331 -0.52287865 -0.32315677 0.19972187
0 0.046926633 0.0099868383 -0.52287865 -0.32315677 0.19972187
1.110223e-16 0.045657288 0.01018324 -0.52287865 -0.32315677 0.19972187
0 0.04439082 0.01037924 -0.52287865 -0.32315677 0.19972187
0 0.043127209 0.010574841 -0.52287865 -0.32315677 0.19972187
0 0.04186644 0.010770044 -0.52287865 -0.32315677 0.19972187
1.110223e-16 0.040608495 0.010964854 -0.52287865 -0.32315677 0.19972187
0 0.039353363 0.01115927 -0.52287865 -0.32315677 0.19972187
0 0.038101029 0.011353296 -0.52287865 -0.32315677 0.19972187
0 0.036851473 0.011546934 -0.52287865 -0.32315677 0.19972187
1.110223e-16 0.035604682 0.011740186 -0.52287865 -0.32315677 0.19972187
0 0.03436064 0.011933055 -0.52287865 -0.32315677 0.19972187
0 0.033119332 0.012125542 -0.52287865 -0.32315677 0.19972187
0 0.031880748 0.01231765 -0.52287865 -0.32315677 0.19972187
0 0.030644868 0.01250938 -0.52287865 -0.32315677 0.19972187
0 0.029411677 0.012700737 -0.52287865 -0.32315677 0.19972187
0 0.028181164 0.012891719 -0.52287865 -0.32315677 0.19972187
1.110223e-16 0.02695331 0.013082331 -0.52287865 -0.32315677 0.19972187
0 0.025728105 0.013272575 -0.52287865 -0.32315677 0.19972187
0 0.024505531 0.013462452 -0.52287865 -0.32315677 0.19972187
0 0.023285577 0.013651964 -0.52287865 -0.32315677 0.19972187
0 0.022068227 0.013841114 -0.52287865 -0.32315677 0.19972187
0 0.020853465 0.014029904 -0.52287865 -0.32315677 0.19972187
0 0.01964128 0.014218336 -0.52287865 -0.32315677 0.19972187
0 0.018431658 0.014406411 -0.52287865 -0.32315677 0.19972187
0 0.017224582 0.014594132 -0.52287865 -0.32315677 0.19972187
0 0.016020043 0.0147815 -0.52287865 -0.32315677 0.19972187
1.110223e-16 0.014818023 0.014968519 -0.52287865 -0.32315677 0.19972187
0 0.01361851 0.01515519 -0.52287865 -0.32315677 0.19972187
0 0.012421492 0.015341514 -0.52287865 -0.32315677 0.19972187
0 0.011226952 0.015527493 -0.52287865 -0.32315677 0.19972187
0 0.01003488 0.015713131 -0.52287865 -0.32315677 0.19972187
1.110223e-16 0.0088452613 0.015898427 -0.52287865 -0.32315677 0.19972187
0 0.0076580825 0.016083386 -0.52287865 -0.32315677 0.19972187
0 0.0064733308 0.016268007 -0.52287865 -0.32315677 0.19972187
1.110223e-16 0.005290993 0.016452296 -0.52287865 -0.32315677 0.19972187
1.110223e-16 0.0041110562 0.016636251 -0.52287865 -0.32315677 0.19972187
0 0.0029335078 0.016819874 -0.52287865 -0.32315677 0.19972187
1.110223e-16 0.0017583343 0.017003169 -0.52287865 -0.32315677 0.19972187
1.110223e-16 0.00058552349 0.017186137 -0.52287865 -0.32315677 0.19972187
0.00094816519 0 0.017038107 -0.52287865 -0.32315677 0.19972187
0.0028519847 0 0.016557466 -0.52287865 -0.32315677 0.19972187
0.0047658631 0 0.016074328 -0.52287865 -0.32315677 0.19972187
0.0066898894 0 0.01558867 -0.52287865 -0.32315677 0.19972187
0.0086241541 0 0.015100469 -0.52287865 -0.32315677 0.19972187
0.010568748 0 0.014609703 -0.52287865 -0.32315677 0.19972187
0.012523764 0 0.014116349 -0.52287865 -0.32315677 0.19972187
0.014489295 0 0.013620383 -0.52287865 -0.32315677 0.19972187
0.016465435 0 0.013121782 -0.52287865 -0.32315677 0.19972187
0.018452281 0 0.012620524 -0.52287865 -0.32315677 0.19972187
0.020449929 0 0.012116581 -0.52287865 -0.32315677 0.19972187
0.022458477 0 0.011609932 -0.52287865 -0.32315677 0.19972187
0.024478024 0 0.011100552 -0.52287865 -0.32315677 0.19972187
0.02650867 0 0.010588414 -0.52287865 -0.32315677 0.19972187
0.028550517 0 0.010073495 -0.52287865 -0.32315677 0.19972187
0.030603668 0 0.0095557682 -0.52287865 -0.32315677 0.19972187
0.032668225 0 0.0090352083 -0.52287865 -0.32315677 0.19972187
0.034744296 0 0.0085117891 -0.52287865 -0.32315677 0.19972187
0.03683199 0 0.0079854829 -0.52287865 -0.32315677 0.19972187
0.038931407 0 0.0074562649 -0.52287865 -0.32315677 0.19972187
0 0.079685107 0.0038169993 -0.52287865 -0.32315677 0.19972187
0 0.078337729 0.0040257219 -0.52287865 -0.32315677 0.19972187
0 0.076993652 0.004233974 -0.52287865 -0.32315677 0.19972187
0 0.07565286 0.0044417586 -0.52287865 -0.32315677 0.19972187
0 0.074315339 0.004649078 -0.52287865 -0.32315677 0.19972187
1.110223e-16 0.072981074 0.004855935 -0.52287865 -0.32315677 0.19972187
1.110223e-16 0.071650036 0.0050623324 -0.52287865 -0.32315677 0.19972187
0 0.070322216 0.0052682725 -0.52287865 -0.32315677 0.19972187
1.110223e-16 0.068997584 0.0054737586 -0.52287865 -0.32315677 0.19972187
0 0.067676134 0.0056787925 -0.52287865 -0.32315677 0.19972187
1.110223e-16 0.066357851 0.0058833775 -0.52287865 -0.32315677 0.19972187
1.110223e-16 0.065042704 0.006087516 -0.52287865 -0.32315677 0.19972187
0 0.063730687 0.0062912102 -0.52287865 -0.32315677 0.19972187
0 0.062421776 0.006494463 -0.52287865 -0.32315677 0.19972187
0 0.061115958 0.0066972766 -0.52287865 -0.32315677 0.19972187
0 0.059813213 0.0068996539 -0.52287865 -0.32315677 0.19972187
0 0.058513526 0.0071015973 -0.52287865 -0.32315677 0.19972187
1.110223e-16 0.057216875 0.0073031089 -0.52287865 -0.32315677 0.19972187
0 0.055923253 0.0075041922 -0.52287865 -0.32315677 0.19972187
0 0.054632634 0.0077048484 -0.52287865 -0.32315677 0.19972187
1.110223e-16 0.053345006 0.0079050809 -0.52287865 -0.32315677 0.19972187
0 0.052060351 0.0081048915 -0.52287865 -0.32315677 0.19972187
0 0.05077865 0.008304283 -0.52287865 -0.32315677 0.19972187
1.110223e-16 0.049499892 0.0085032573 -0.52287865 -0.32315677 0.19972187
0 0.048224062 0.0087018171 -0.52287865 -0.32315677 0.19972187
0 0.046951134 0.0088999653 -0.52287865 -0.32315677 0.19972187
1.110223e-16 0.045681104 0.0090977028 -0.52287865 -0.32315677 0.19972187
0 0.044413947 0.0092950333 -0.52287865 -0.32315677 0.19972187
1.110223e-16 0.04314965 0.0094919596 -0.52287865 -0.32315677 0.19972187
0 0.041888203 0.0096884817 -0.52287865 -0.32315677 0.19972187
0 0.040629581 0.0098846043 -0.52287865 -0.32315677 0.19972187
1.110223e-16 0.039373774 0.010080328 -0.52287865 -0.32315677 0.19972187
0 0.038120765 0.010275655 -0.52287865 -0.32315677 0.19972187
0 0.036870543 0.01047059 -0.52287865 -0.32315677 0.19972187
1.110223e-16 0.035623085 0.010665133 -0.52287865 -0.32315677 0.19972187
0 0.034378383 0.010859286 -0.52287865 -0.32315677 0.19972187
1.110223e-16 0.033136416 0.011053053 -0.52287865 -0.32315677 0.19972187
0 0.031897172 0.011246434 -0.52287865 -0.32315677 0.19972187
0 0.030660639 0.011439433 -0.52287865 -0.32315677 0.19972187
1.110223e-16 0.029426796 0.011632051 -0.52287865 -0.32315677 0.19972187
0 0.028195634 0.011824291 -0.52287865 -0.32315677 0.19972187
0 0.026967136 0.012016155 -0.52287865 -0.32315677 0.19972187
0 0.025741288 0.012207645 -0.52287865 -0.32315677 0.19972187
1.110223e-16 0.024518074 0.012398763 -0.52287865 -0.32315677 0.19972187
0 0.023297483 0.012589511 -0.52287865 -0.32315677 0.19972187
0 0.022079498 0.012779891 -0.52287865 -0.32315677 0.19972187
1.110223e-16 0.020864105 0.012969905 -0.52287865 -0.32315677 0.19972187
0 0.019651292 0.013159555 -0.52287865 -0.32315677 0.19972187
1.110223e-16 0.018441042 0.013348845 -0.52287865 -0.32315677 0.19972187
0 0.017233344 0.013537775 -0.52287865 -0.32315677 0.19972187
1.110223e-16 0.016028183 0.013726347 -0.52287865 -0.32315677 0.19972187
0 0.014825543 0.013914565 -0.52287865 -0.32315677 0.19972187
0 0.013625415 0.014102428 -0.52287865 -0.32315677 0.19972187
0 0.012427783 0.01428994 -0.52287865 -0.32315677 0.19972187
0 0.011232633 0.014477102 -0.52287865 -0.32315677 0.19972187
1.110223e-16 0.010039953 0.014663918 -0.52287865 -0.32315677 0.19972187
1.110223e-16 0.008849727 0.014850387 -0.52287865 -0.32315677 0.19972187
0 0.0076619452 0.015036513 -0.52287865 -0.32315677 0.19972187
0 0.0064765927 0.015222298 -0.52287865 -0.32315677 0.19972187
0 0.0052936566 0.015407743 -0.52287865 -0.32315677 0.19972187
0 0.0041131238 0.01559285 -0.52287865 -0.32315677 0.19972187
0 0.0029349814 0.015777621 -0.52287865 -0.32315677 0.19972187
1.110223e-16 0.0017592169 0.015962059 -0.52287865 -0.32315677 0.19972187
0 0.00058581703 0.016146163 -0.52287865 -0.32315677 0.19972187
0.00094864098 0 0.015997216 -0.52287865 -0.32315677 0.19972187
0.0028534194 0 0.015513591 -0.52287865 -0.32315677 0.19972187
0.0047682668 0 0.015027449 -0.52287865 -0.32315677 0.19972187
0.0066932729 0 0.014538767 -0.52287865 -0.32315677 0.19972187
0.0086285276 0 0.014047522 -0.52287865 -0.32315677 0.19972187
0.010574122 0 0.013553692 -0.52287865 -0.32315677 0.19972187
0.012530149 0 0.013057253 -0.52287865 -0.32315677 0.19972187
0.014496702 0 0.012558184 -0.52287865 -0.32315677 0.19972187
0.016473874 0 0.012056458 -0.52287865 -0.32315677 0.19972187
0.018461766 0 0.011552053 -0.52287865 -0.32315677 0.19972187
0.020460468 0 0.011044944 -0.52287865 -0.32315677 0.19972187
0.022470083 0 0.010535106 -0.52287865 -0.32315677 0.19972187
0.024490708 0 0.010022515 -0.52287865 -0.32315677 0.19972187
0.026522445 0 0.0095071467 -0.52287865 -0.32315677 0.19972187
0.028565394 0 0.0089889746 -0.52287865 -0.32315677 0.19972187
0.030619659 0 0.0084679723 -0.52287865 -0.32315677 0.19972187
0.032685343 0 0.0079441145 -0.52287865 -0.32315677 0.19972187
