# .PCD v0.7 - Point Cloud Data file format
VERSION 0.7
FIELDS x y z vp_x vp_y vp_z
SIZE 4 4 4 4 4 4
TYPE F F F F F F
COUNT 1 1 1 1 1 1
WIDTH 938
HEIGHT 1
VIEWPOINT 0 0 0 1 0 0 0
POINTS 938
DATA ascii
0.039999999 0.015543316 0.022149714 0.64631355 0 0
0.039999999 0.016485786 0.022150623 0.64631355 0 0
0.039999999 0.017428337 0.022151584 0.64631355 0 0
0.039999999 0.018370969 0.022152601 0.64631355 0 0
0.039999999 0.019313693 0.02215367 0.64631355 0 0
0.039999999 0.020256508 0.022154793 0.64631355 0 0
0.039999999 0.021199422 0.022155968 0.64631355 0 0
0.039999999 0.022142438 0.0221572 0.64631355 0 0
0.039999999 0.023085563 0.022158483 0.64631355 0 0
0.039999999 0.024028797 0.02215982 0.64631355 0 0
0.039999999 0.024972148 0.022161212 0.64631355 0 0
0.039999999 0.025915619 0.022162655 0.64631355 0 0
0.039999999 0.026859216 0.022164155 0.64631355 0 0
0.039999999 0.027802942 0.022165706 0.64631355 0 0
0.039999999 0.028746804 0.022167312 0.64631355 0 0
0.039999999 0.029690804 0.022168972 0.64631355 0 0
0.039999999 0.030634949 0.022170685 0.64631355 0 0
0.039999999 0.031579241 0.022172451 0.64631355 0 0
0.039999999 0.032523684 0.022174273 0.64631355 0 0
0.039999999 0.033468287 0.022176147 0.64631355 0 0
0.039999999 0.034413051 0.022178076 0.64631355 0 0
0.039999999 0.035357982 0.022180058 0.64631355 0 0
0.039999999 0.036303084 0.022182094 0.64631355 0 0
0.039999999 0.037248366 0.022184184 0.64631355 0 0
0.039999999 0.038193822 0.022186328 0.64631355 0 0
0.039999999 0.039139464 0.022188526 0.64631355 0 0
0.039999999 0.040085297 0.022190778 0.64631355 0 0
0.039999999 0.041031327 0.022193084 0.64631355 0 0
0.039999999 0.041977551 0.022195444 0.64631355 0 0
0.039999999 0.042923983 0.022197857 0.64631355 0 0
0.039999999 0.04387062 0.022200326 0.64631355 0 0
0.039999999 0.04481747 0.022202848 0.64631355 0 0
0.039999999 0.045764539 0.022205425 0.64631355 0 0
0.039999999 0.046711829 0.022208055 0.64631355 0 0
0.039999999 0.047659349 0.02221074 0.64631355 0 0
0.039999999 0.048607096 0.02221348 0.64631355 0 0
0.039999999 0.049555082 0.022216272 0.64631355 0 0
0.039999999 0.050503306 0.02221912 0.64631355 0 0
0.039999999 0.051451776 0.022222022 0.64631355 0 0
0.039999999 0.0524005 0.022224979 0.64631355 0 0
0.039999999 0.053349473 0.02222799 0.64631355 0 0
0.039999999 0.05429871 0.022231055 0.64631355 0 0
0.039999999 0.055248208 0.022234175 0.64631355 0 0
0.039999999 0.056197975 0.022237349 0.64631355 0 0
0.039999999 0.057148017 0.022240577 0.64631355 0 0
0.039999999 0.058098339 0.022243861 0.64631355 0 0
0.039999999 0.059048939 0.022247199 0.64631355 0 0
0.039999999 0.059999831 0.022250593 0.64631355 0 0
0.039999999 0.060951013 0.02225404 0.64631355 0 0
0.039999999 0.061902493 0.022257542 0.64631355 0 0
0.039999999 0.062854275 0.0222611 0.64631355 0 0
0.039999999 0.063806362 0.022264712 0.64631355 0 0
0.039999999 0.064758763 0.022268379 0.64631355 0 0
0.039999999 0.065711476 0.022272101 0.64631355 0 0
0.039999999 0.066664517 0.022275878 0.64631355 0 0
0.039999999 0.067617878 0.02227971 0.64631355 0 0
0.039999999 0.068571568 0.022283597 0.64631355 0 0
0.039999999 0.069525599 0.02228754 0.64631355 0 0
0.039999999 0.070479967 0.022291537 0.64631355 0 0
0.039999999 0.071434677 0.02229559 0.64631355 0 0
0.039999999 0.072389737 0.022299698 0.64631355 0 0
0.039999999 0.073345155 0.022303861 0.64631355 0 0
0.039999999 0.07430093 0.02230808 0.64631355 0 0
0.039999999 0.07525707 0.022312354 0.64631355 0 0
0.039999999 0.076213576 0.022316683 0.64631355 0 0
0.039999999 0.077170461 0.02232107 0.64631355 0 0
0.039999999 0.078127719 0.02232551 0.64631355 0 0
0.039999999 0.079085365 0.022330007 0.64631355 0 0
0.039999999 0.00047090655 0.021199429 0.64631355 0 0
0.039999999 0.0014127219 0.02119948 0.64631355 0 0
0.039999999 0.0023545441 0.021199582 0.64631355 0 0
0.039999999 0.0032963776 0.021199737 0.64631355 0 0
0.039999999 0.0042382269 0.02119994 0.64631355 0 0
0.039999999 0.0051800967 0.021200197 0.64631355 0 0
0.039999999 0.0061219917 0.021200502 0.64631355 0 0
0.039999999 0.0070639164 0.021200862 0.64631355 0 0
0.039999999 0.0080058752 0.02120127 0.64631355 0 0
0.039999999 0.0089478716 0.021201732 0.64631355 0 0
0.039999999 0.0098899128 0.021202242 0.64631355 0 0
0.039999999 0.010832001 0.021202805 0.64631355 0 0
0.039999999 0.01177414 0.021203419 0.64631355 0 0
0.039999999 0.012716338 0.021204084 0.64631355 0 0
0.039999999 0.013658597 0.021204801 0.64631355 0 0
0.039999999 0.014600921 0.021205569 0.64631355 0 0
0.039999999 0.015543316 0.021206388 0.64631355 0 0
0.039999999 0.016485786 0.021207258 0.64631355 0 0
0.039999999 0.017428337 0.021208178 0.64631355 0 0
0.039999999 0.018370969 0.021209151 0.64631355 0 0
0.039999999 0.019313693 0.021210175 0.64631355 0 0
0.039999999 0.020256508 0.02121125 0.64631355 0 0
0.039999999 0.021199422 0.021212377 0.64631355 0 0
0.039999999 0.022142438 0.021213554 0.64631355 0 0
0.039999999 0.023085563 0.021214783 0.64631355 0 0
0.039999999 0.024028797 0.021216065 0.64631355 0 0
0.039999999 0.024972148 0.021217396 0.64631355 0 0
0.039999999 0.025915619 0.021218779 0.64631355 0 0
0.039999999 0.026859216 0.021220213 0.64631355 0 0
0.039999999 0.027802942 0.021221699 0.64631355 0 0
0.039999999 0.028746804 0.021223236 0.64631355 0 0
0.039999999 0.029690804 0.021224825 0.64631355 0 0
0.039999999 0.030634949 0.021226466 0.64631355 0 0
0.039999999 0.031579241 0.021228157 0.64631355 0 0
0.039999999 0.032523684 0.0212299 0.64631355 0 0
0.039999999 0.033468287 0.021231696 0.64631355 0 0
0.039999999 0.034413051 0.021233542 0.64631355 0 0
0.039999999 0.035357982 0.02123544 0.64631355 0 0
0.039999999 0.036303084 0.021237388 0.64631355 0 0
0.039999999 0.037248366 0.021239391 0.64631355 0 0
0.039999999 0.038193822 0.021241443 0.64631355 0 0
0.039999999 0.039139464 0.021243546 0.64631355 0 0
0.039999999 0.040085297 0.021245703 0.64631355 0 0
0.039999999 0.041031327 0.02124791 0.64631355 0 0
0.039999999 0.041977551 0.02125017 0.64631355 0 0
0.039999999 0.042923983 0.021252481 0.64631355 0 0
0.039999999 0.04387062 0.021254845 0.64631355 0 0
0.039999999 0.04481747 0.021257259 0.64631355 0 0
0.039999999 0.045764539 0.021259725 0.64631355 0 0
0.039999999 0.046711829 0.021262245 0.64631355 0 0
0.039999999 0.047659349 0.021264816 0.64631355 0 0
0.039999999 0.048607096 0.021267436 0.64631355 0 0
0.039999999 0.049555082 0.021270111 0.64631355 0 0
0.039999999 0.050503306 0.021272838 0.64631355 0 0
0.039999999 0.051451776 0.021275617 0.64631355 0 0
0.039999999 0.0524005 0.021278447 0.64631355 0 0
0.039999999 0.053349473 0.02128133 0.64631355 0 0
0.039999999 0.05429871 0.021284264 0.64631355 0 0
0.039999999 0.055248208 0.021287251 0.64631355 0 0
0.039999999 0.056197975 0.021290291 0.64631355 0 0
0.039999999 0.057148017 0.021293381 0.64631355 0 0
0.039999999 0.058098339 0.021296525 0.64631355 0 0
0.039999999 0.059048939 0.021299722 0.64631355 0 0
0.039999999 0.059999831 0.02130297 0.64631355 0 0
0.039999999 0.060951013 0.021306271 0.64631355 0 0
0.039999999 0.061902493 0.021309623 0.64631355 0 0
0.039999999 0.062854275 0.02131303 0.64631355 0 0
0.039999999 0.063806362 0.021316489 0.64631355 0 0
0.039999999 0.064758763 0.021319998 0.64631355 0 0
0.039999999 0.065711476 0.021323564 0.64631355 0 0
0.039999999 0.066664517 0.021327179 0.64631355 0 0
0.039999999 0.067617878 0.021330848 0.64631355 0 0
0.039999999 0.068571568 0.02133457 0.64631355 0 0
0.039999999 0.069525599 0.021338344 0.64631355 0 0
0.039999999 0.070479967 0.021342171 0.64631355 0 0
0.039999999 0.071434677 0.021346051 0.64631355 0 0
0.039999999 0.072389737 0.021349983 0.64631355 0 0
0.039999999 0.073345155 0.021353969 0.64631355 0 0
0.039999999 0.07430093 0.021358009 0.64631355 0 0
0.039999999 0.07525707 0.021362102 0.64631355 0 0
0.039999999 0.076213576 0.021366246 0.64631355 0 0
0.039999999 0.077170461 0.021370444 0.64631355 0 0
0.039999999 0.078127719 0.021374697 0.64631355 0 0
0.039999999 0.079085365 0.021379001 0.64631355 0 0
0.039999999 0.00047090655 0.020256516 0.64631355 0 0
0.039999999 0.0014127219 0.020256564 0.64631355 0 0
0.039999999 0.0023545441 0.020256661 0.64631355 0 0
0.039999999 0.0032963776 0.020256808 0.64631355 0 0
0.039999999 0.0042382269 0.020257004 0.64631355 0 0
0.039999999 0.0051800967 0.020257248 0.64631355 0 0
0.039999999 0.0061219917 0.020257542 0.64631355 0 0
0.039999999 0.0070639164 0.020257883 0.64631355 0 0
0.039999999 0.0080058752 0.020258274 0.64631355 0 0
0.039999999 0.0089478716 0.020258715 0.64631355 0 0
0.039999999 0.0098899128 0.020259203 0.64631355 0 0
0.039999999 0.010832001 0.020259742 0.64631355 0 0
0.039999999 0.01177414 0.020260328 0.64631355 0 0
0.039999999 0.012716338 0.020260964 0.64631355 0 0
0.039999999 0.013658597 0.020261647 0.64631355 0 0
0.039999999 0.014600921 0.020262381 0.64631355 0 0
0.039999999 0.015543316 0.020263163 0.64631355 0 0
0.039999999 0.016485786 0.020263996 0.64631355 0 0
0.039999999 0.017428337 0.020264875 0.64631355 0 0
0.039999999 0.018370969 0.020265805 0.64631355 0 0
0.039999999 0.019313693 0.020266782 0.64631355 0 0
0.039999999 0.020256508 0.020267811 0.64631355 0 0
0.039999999 0.021199422 0.020268887 0.64631355 0 0
0.039999999 0.022142438 0.020270012 0.64631355 0 0
0.039999999 0.023085563 0.020271186 0.64631355 0 0
0.039999999 0.024028797 0.02027241 0.64631355 0 0
0.039999999 0.024972148 0.020273682 0.64631355 0 0
0.039999999 0.025915619 0.020275004 0.64631355 0 0
0.039999999 0.026859216 0.020276375 0.64631355 0 0
0.039999999 0.027802942 0.020277794 0.64631355 0 0
0.039999999 0.028746804 0.020279264 0.64631355 0 0
0.039999999 0.029690804 0.020280782 0.64631355 0 0
0.039999999 0.030634949 0.020282349 0.64631355 0 0
0.039999999 0.031579241 0.020283965 0.64631355 0 0
0.039999999 0.032523684 0.020285631 0.64631355 0 0
0.039999999 0.033468287 0.020287346 0.64631355 0 0
0.039999999 0.034413051 0.02028911 0.64631355 0 0
0.039999999 0.035357982 0.020290924 0.64631355 0 0
0.039999999 0.036303084 0.020292787 0.64631355 0 0
0.039999999 0.037248366 0.020294698 0.64631355 0 0
0.039999999 0.038193822 0.020296659 0.64631355 0 0
0.039999999 0.039139464 0.020298671 0.64631355 0 0
0.039999999 0.040085297 0.020300731 0.64631355 0 0
0.039999999 0.041031327 0.02030284 0.64631355 0 0
0.039999999 0.041977551 0.020304998 0.64631355 0 0
0.039999999 0.042923983 0.020307207 0.64631355 0 0
0.039999999 0.04387062 0.020309465 0.64631355 0 0
0.039999999 0.04481747 0.020311773 0.64631355 0 0
0.039999999 0.045764539 0.020314129 0.64631355 0 0
0.039999999 0.046711829 0.020316536 0.64631355 0 0
0.039999999 0.047659349 0.020318992 0.64631355 0 0
0.039999999 0.048607096 0.020321498 0.64631355 0 0
0.039999999 0.049555082 0.020324053 0.64631355 0 0
0.039999999 0.050503306 0.020326659 0.64631355 0 0
0.039999999 0.051451776 0.020329313 0.64631355 0 0
0.039999999 0.0524005 0.020332018 0.64631355 0 0
0.039999999 0.053349473 0.020334773 0.64631355 0 0
0.039999999 0.05429871 0.020337578 0.64631355 0 0
0.039999999 0.055248208 0.020340431 0.64631355 0 0
0.039999999 0.056197975 0.020343335 0.64631355 0 0
0.039999999 0.057148017 0.02034629 0.64631355 0 0
0.039999999 0.058098339 0.020349292 0.64631355 0 0
0.039999999 0.059048939 0.020352347 0.64631355 0 0
0.039999999 0.059999831 0.02035545 0.64631355 0 0
0.039999999 0.060951013 0.020358605 0.64631355 0 0
0.039999999 0.061902493 0.020361809 0.64631355 0 0
0.039999999 0.062854275 0.020365063 0.64631355 0 0
0.039999999 0.063806362 0.020368367 0.64631355 0 0
0.039999999 0.064758763 0.020371722 0.64631355 0 0
0.039999999 0.065711476 0.020375127 0.64631355 0 0
0.039999999 0.066664517 0.020378582 0.64631355 0 0
0.039999999 0.067617878 0.020382088 0.64631355 0 0
0.039999999 0.068571568 0.020385645 0.64631355 0 0
0.039999999 0.069525599 0.020389251 0.64631355 0 0
0.039999999 0.070479967 0.020392908 0.64631355 0 0
0.039999999 0.071434677 0.020396616 0.64631355 0 0
0.039999999 0.072389737 0.020400373 0.64631355 0 0
0.039999999 0.073345155 0.020404182 0.64631355 0 0
0.039999999 0.07430093 0.020408042 0.64631355 0 0
0.039999999 0.07525707 0.020411951 0.64631355 0 0
0.039999999 0.076213576 0.020415913 0.64631355 0 0
0.039999999 0.077170461 0.020419925 0.64631355 0 0
0.039999999 0.078127719 0.020423988 0.64631355 0 0
0.039999999 0.079085365 0.020428101 0.64631355 0 0
0.039999999 0.00047090655 0.019313699 0.64631355 0 0
0.039999999 0.0014127219 0.019313745 0.64631355 0 0
0.039999999 0.0023545441 0.019313838 0.64631355 0 0
0.039999999 0.0032963776 0.019313978 0.64631355 0 0
0.039999999 0.0042382269 0.019314164 0.64631355 0 0
0.039999999 0.0051800967 0.019314397 0.64631355 0 0
0.039999999 0.0061219917 0.019314677 0.64631355 0 0
0.039999999 0.0070639164 0.019315004 0.64631355 0 0
0.039999999 0.0080058752 0.019315377 0.64631355 0 0
0.039999999 0.0089478716 0.019315796 0.64631355 0 0
0.039999999 0.0098899128 0.019316262 0.64631355 0 0
0.039999999 0.010832001 0.019316774 0.64631355 0 0
0.039999999 0.01177414 0.019317335 0.64631355 0 0
0.039999999 0.012716338 0.01931794 0.64631355 0 0
0.039999999 0.013658597 0.019318594 0.64631355 0 0
0.039999999 0.014600921 0.019319292 0.64631355 0 0
0.039999999 0.015543316 0.019320039 0.64631355 0 0
0.039999999 0.016485786 0.019320831 0.64631355 0 0
0.039999999 0.017428337 0.019321671 0.64631355 0 0
0.039999999 0.018370969 0.019322556 0.64631355 0 0
0.039999999 0.019313693 0.019323489 0.64631355 0 0
0.039999999 0.020256508 0.019324468 0.64631355 0 0
0.039999999 0.021199422 0.019325495 0.64631355 0 0
0.039999999 0.022142438 0.019326568 0.64631355 0 0
0.039999999 0.023085563 0.019327687 0.64631355 0 0
0.039999999 0.024028797 0.019328853 0.64631355 0 0
0.039999999 0.024972148 0.019330068 0.64631355 0 0
0.039999999 0.025915619 0.019331327 0.64631355 0 0
0.039999999 0.026859216 0.019332634 0.64631355 0 0
0.039999999 0.027802942 0.019333988 0.64631355 0 0
0.039999999 0.028746804 0.019335389 0.64631355 0 0
0.039999999 0.029690804 0.019336836 0.64631355 0 0
0.039999999 0.030634949 0.01933833 0.64631355 0 0
0.039999999 0.031579241 0.019339873 0.64631355 0 0
0.039999999 0.032523684 0.019341459 0.64631355 0 0
0.039999999 0.033468287 0.019343095 0.64631355 0 0
0.039999999 0.034413051 0.019344777 0.64631355 0 0
0.039999999 0.035357982 0.019346505 0.64631355 0 0
0.039999999 0.036303084 0.019348282 0.64631355 0 0
0.039999999 0.037248366 0.019350104 0.64631355 0 0
0.039999999 0.038193822 0.019351974 0.64631355 0 0
0.039999999 0.039139464 0.019353893 0.64631355 0 0
0.039999999 0.040085297 0.019355856 0.64631355 0 0
0.039999999 0.041031327 0.019357868 0.64631355 0 0
0.039999999 0.041977551 0.019359926 0.64631355 0 0
0.039999999 0.042923983 0.019362032 0.64631355 0 0
0.039999999 0.04387062 0.019364184 0.64631355 0 0
0.039999999 0.04481747 0.019366385 0.64631355 0 0
0.039999999 0.045764539 0.019368632 0.64631355 0 0
0.039999999 0.046711829 0.019370927 0.64631355 0 0
0.039999999 0.047659349 0.019373268 0.64631355 0 0
0.039999999 0.048607096 0.019375658 0.64631355 0 0
0.039999999 0.049555082 0.019378094 0.64631355 0 0
0.039999999 0.050503306 0.019380579 0.64631355 0 0
0.039999999 0.051451776 0.019383108 0.64631355 0 0
0.039999999 0.0524005 0.019385688 0.64631355 0 0
0.039999999 0.053349473 0.019388314 0.64631355 0 0
0.039999999 0.05429871 0.019390987 0.64631355 0 0
0.039999999 0.055248208 0.019393709 0.64631355 0 0
0.039999999 0.056197975 0.019396478 0.64631355 0 0
0.039999999 0.057148017 0.019399295 0.64631355 0 0
0.039999999 0.058098339 0.019402159 0.64631355 0 0
0.039999999 0.059048939 0.019405071 0.64631355 0 0
0.039999999 0.059999831 0.01940803 0.64631355 0 0
0.039999999 0.060951013 0.019411037 0.64631355 0 0
0.039999999 0.061902493 0.019414091 0.64631355 0 0
0.039999999 0.062854275 0.019417195 0.64631355 0 0
0.039999999 0.063806362 0.019420346 0.64631355 0 0
0.039999999 0.064758763 0.019423544 0.64631355 0 0
0.039999999 0.065711476 0.019426791 0.64631355 0 0
0.039999999 0.066664517 0.019430084 0.64631355 0 0
0.039999999 0.067617878 0.019433428 0.64631355 0 0
0.039999999 0.068571568 0.019436818 0.64631355 0 0
0.039999999 0.069525599 0.019440256 0.64631355 0 0
0.039999999 0.070479967 0.019443743 0.64631355 0 0
0.039999999 0.071434677 0.019447278 0.64631355 0 0
0.039999999 0.072389737 0.019450862 0.64631355 0 0
0.039999999 0.073345155 0.019454492 0.64631355 0 0
0.039999999 0.07430093 0.019458173 0.64631355 0 0
0.039999999 0.07525707 0.019461902 0.64631355 0 0
0.039999999 0.076213576 0.019465677 0.64631355 0 0
0.039999999 0.077170461 0.019469503 0.64631355 0 0
0.039999999 0.078127719 0.019473376 0.64631355 0 0
0.039999999 0.079085365 0.019477298 0.64631355 0 0
0.039999999 0.00047090655 0.018370975 0.64631355 0 0
0.039999999 0.0014127219 0.01837102 0.64631355 0 0
0.039999999 0.0023545441 0.018371109 0.64631355 0 0
0.039999999 0.0032963776 0.018371241 0.64631355 0 0
0.039999999 0.0042382269 0.018371418 0.64631355 0 0
0.039999999 0.0051800967 0.01837164 0.64631355 0 0
0.039999999 0.0061219917 0.018371906 0.64631355 0 0
0.039999999 0.0070639164 0.018372217 0.64631355 0 0
0.039999999 0.0080058752 0.018372571 0.64631355 0 0
0.039999999 0.0089478716 0.01837297 0.64631355 0 0
0.039999999 0.0098899128 0.018373413 0.64631355 0 0
0.039999999 0.010832001 0.018373901 0.64631355 0 0
0.039999999 0.01177414 0.018374434 0.64631355 0 0
0.039999999 0.012716338 0.018375009 0.64631355 0 0
0.039999999 0.013658597 0.018375631 0.64631355 0 0
0.039999999 0.014600921 0.018376296 0.64631355 0 0
0.039999999 0.015543316 0.018377006 0.64631355 0 0
0.039999999 0.016485786 0.01837776 0.64631355 0 0
0.039999999 0.017428337 0.018378558 0.64631355 0 0
0.039999999 0.018370969 0.018379401 0.64631355 0 0
0.039999999 0.019313693 0.018380288 0.64631355 0 0
0.039999999 0.020256508 0.018381219 0.64631355 0 0
0.039999999 0.021199422 0.018382195 0.64631355 0 0
0.039999999 0.022142438 0.018383216 0.64631355 0 0
0.039999999 0.023085563 0.018384282 0.64631355 0 0
0.039999999 0.024028797 0.018385392 0.64631355 0 0
0.039999999 0.024972148 0.018386545 0.64631355 0 0
0.039999999 0.025915619 0.018387744 0.64631355 0 0
0.039999999 0.026859216 0.018388987 0.64631355 0 0
0.039999999 0.027802942 0.018390276 0.64631355 0 0
0.039999999 0.028746804 0.018391607 0.64631355 0 0
0.039999999 0.029690804 0.018392984 0.64631355 0 0
0.039999999 0.030634949 0.018394405 0.64631355 0 0
0.039999999 0.031579241 0.018395871 0.64631355 0 0
0.039999999 0.032523684 0.018397382 0.64631355 0 0
0.039999999 0.033468287 0.018398937 0.64631355 0 0
0.039999999 0.034413051 0.018400537 0.64631355 0 0
0.039999999 0.035357982 0.018402182 0.64631355 0 0
0.039999999 0.036303084 0.018403871 0.64631355 0 0
0.039999999 0.037248366 0.018405605 0.64631355 0 0
0.039999999 0.038193822 0.018407384 0.64631355 0 0
0.039999999 0.039139464 0.018409207 0.64631355 0 0
0.039999999 0.040085297 0.018411076 0.64631355 0 0
0.039999999 0.041031327 0.018412989 0.64631355 0 0
0.039999999 0.041977551 0.018414946 0.64631355 0 0
0.039999999 0.042923983 0.01841695 0.64631355 0 0
0.039999999 0.04387062 0.018418998 0.64631355 0 0
0.039999999 0.04481747 0.018421089 0.64631355 0 0
0.039999999 0.045764539 0.018423228 0.64631355 0 0
0.039999999 0.046711829 0.018425411 0.64631355 0 0
0.039999999 0.047659349 0.018427638 0.64631355 0 0
0.039999999 0.048607096 0.018429911 0.64631355 0 0
0.039999999 0.049555082 0.018432228 0.64631355 0 0
0.039999999 0.050503306 0.01843459 0.64631355 0 0
0.039999999 0.051451776 0.018436998 0.64631355 0 0
0.039999999 0.0524005 0.018439451 0.64631355 0 0
0.039999999 0.053349473 0.018441949 0.64631355 0 0
0.039999999 0.05429871 0.018444492 0.64631355 0 0
0.039999999 0.055248208 0.018447081 0.64631355 0 0
0.039999999 0.056197975 0.018449714 0.64631355 0 0
0.039999999 0.057148017 0.018452393 0.64631355 0 0
0.039999999 0.058098339 0.018455118 0.64631355 0 0
0.039999999 0.059048939 0.018457888 0.64631355 0 0
0.039999999 0.059999831 0.018460702 0.64631355 0 0
0.039999999 0.060951013 0.018463563 0.64631355 0 0
0.039999999 0.061902493 0.018466469 0.64631355 0 0
0.039999999 0.062854275 0.018469419 0.64631355 0 0
0.039999999 0.063806362 0.018472416 0.64631355 0 0
0.039999999 0.064758763 0.01847546 0.64631355 0 0
0.039999999 0.065711476 0.018478548 0.64631355 0 0
0.039999999 0.066664517 0.018481681 0.64631355 0 0
0.039999999 0.067617878 0.018484861 0.64631355 0 0
0.039999999 0.068571568 0.018488085 0.64631355 0 0
0.039999999 0.069525599 0.018491356 0.64631355 0 0
0.039999999 0.070479967 0.018494673 0.64631355 0 0
0.039999999 0.071434677 0.018498035 0.64631355 0 0
0.039999999 0.072389737 0.018501444 0.64631355 0 0
0.039999999 0.073345155 0.018504897 0.64631355 0 0
0.039999999 0.07430093 0.018508399 0.64631355 0 0
0.039999999 0.07525707 0.018511944 0.64631355 0 0
0.039999999 0.076213576 0.018515537 0.64631355 0 0
0.039999999 0.077170461 0.018519174 0.64631355 0 0
0.039999999 0.078127719 0.018522859 0.64631355 0 0
0.039999999 0.079085365 0.018526589 0.64631355 0 0
0.039999999 0.00047090655 0.017428342 0.64631355 0 0
0.039999999 0.0014127219 0.017428383 0.64631355 0 0
0.039999999 0.0023545441 0.017428467 0.64631355 0 0
0.039999999 0.0032963776 0.017428594 0.64631355 0 0
0.039999999 0.0042382269 0.017428761 0.64631355 0 0
0.039999999 0.0051800967 0.017428972 0.64631355 0 0
0.039999999 0.0061219917 0.017429225 0.64631355 0 0
0.039999999 0.0070639164 0.017429519 0.64631355 0 0
0.039999999 0.0080058752 0.017429855 0.64631355 0 0
0.039999999 0.0089478716 0.017430235 0.64631355 0 0
0.039999999 0.0098899128 0.017430654 0.64631355 0 0
0.039999999 0.010832001 0.017431118 0.64631355 0 0
0.039999999 0.01177414 0.017431622 0.64631355 0 0
0.039999999 0.012716338 0.017432168 0.64631355 0 0
0.039999999 0.013658597 0.017432759 0.64631355 0 0
0.039999999 0.014600921 0.017433388 0.64631355 0 0
0.039999999 0.015543316 0.017434062 0.64631355 0 0
0.039999999 0.016485786 0.017434778 0.64631355 0 0
0.039999999 0.017428337 0.017435536 0.64631355 0 0
0.039999999 0.018370969 0.017436335 0.64631355 0 0
0.039999999 0.019313693 0.017437177 0.64631355 0 0
0.039999999 0.020256508 0.01743806 0.64631355 0 0
0.039999999 0.021199422 0.017438985 0.64631355 0 0
0.039999999 0.022142438 0.017439954 0.64631355 0 0
0.039999999 0.023085563 0.017440965 0.64631355 0 0
0.039999999 0.024028797 0.017442018 0.64631355 0 0
0.039999999 0.024972148 0.017443113 0.64631355 0 0
0.039999999 0.025915619 0.017444249 0.64631355 0 0
0.039999999 0.026859216 0.017445428 0.64631355 0 0
0.039999999 0.027802942 0.01744665 0.64631355 0 0
0.039999999 0.028746804 0.017447915 0.64631355 0 0
0.039999999 0.029690804 0.017449221 0.64631355 0 0
0.039999999 0.030634949 0.017450569 0.64631355 0 0
0.039999999 0.031579241 0.017451959 0.64631355 0 0
0.039999999 0.032523684 0.017453393 0.64631355 0 0
0.039999999 0.033468287 0.017454868 0.64631355 0 0
0.039999999 0.034413051 0.017456386 0.64631355 0 0
0.039999999 0.035357982 0.017457945 0.64631355 0 0
0.039999999 0.036303084 0.017459549 0.64631355 0 0
0.039999999 0.037248366 0.017461194 0.64631355 0 0
0.039999999 0.038193822 0.017462881 0.64631355 0 0
0.039999999 0.039139464 0.017464612 0.64631355 0 0
0.039999999 0.040085297 0.017466383 0.64631355 0 0
0.039999999 0.041031327 0.017468199 0.64631355 0 0
0.039999999 0.041977551 0.017470056 0.64631355 0 0
0.039999999 0.042923983 0.017471956 0.64631355 0 0
0.039999999 0.04387062 0.017473899 0.64631355 0 0
0.039999999 0.04481747 0.017475884 0.64631355 0 0
0.039999999 0.045764539 0.017477913 0.64631355 0 0
0.039999999 0.046711829 0.017479982 0.64631355 0 0
0.039999999 0.047659349 0.017482096 0.64631355 0 0
0.039999999 0.048607096 0.017484251 0.64631355 0 0
0.039999999 0.049555082 0.017486451 0.64631355 0 0
0.039999999 0.050503306 0.017488692 0.64631355 0 0
0.039999999 0.051451776 0.017490976 0.64631355 0 0
0.039999999 0.0524005 0.017493304 0.64631355 0 0
0.039999999 0.053349473 0.017495673 0.64631355 0 0
0.039999999 0.05429871 0.017498085 0.64631355 0 0
0.039999999 0.055248208 0.017500542 0.64631355 0 0
0.039999999 0.056197975 0.01750304 0.64631355 0 0
0.039999999 0.057148017 0.017505582 0.64631355 0 0
0.039999999 0.058098339 0.017508166 0.64631355 0 0
0.039999999 0.059048939 0.017510794 0.64631355 0 0
0.039999999 0.059999831 0.017513463 0.64631355 0 0
0.039999999 0.060951013 0.017516177 0.64631355 0 0
0.039999999 0.061902493 0.017518934 0.64631355 0 0
0.039999999 0.062854275 0.017521735 0.64631355 0 0
0.039999999 0.063806362 0.017524578 0.64631355 0 0
0.039999999 0.064758763 0.017527465 0.64631355 0 0
0.039999999 0.065711476 0.017530393 0.64631355 0 0
0.039999999 0.066664517 0.017533366 0.64631355 0 0
0.039999999 0.067617878 0.017536383 0.64631355 0 0
0.039999999 0.068571568 0.017539442 0.64631355 0 0
0.039999999 0.069525599 0.017542545 0.64631355 0 0
0.039999999 0.070479967 0.017545691 0.64631355 0 0
0.039999999 0.071434677 0.017548881 0.64631355 0 0
0.039999999 0.072389737 0.017552115 0.64631355 0 0
0.039999999 0.073345155 0.017555391 0.64631355 0 0
0.039999999 0.07430093 0.017558713 0.64631355 0 0
0.039999999 0.07525707 0.017562076 0.64631355 0 0
0.039999999 0.076213576 0.017565485 0.64631355 0 0
0.039999999 0.077170461 0.017568937 0.64631355 0 0
0.039999999 0.078127719 0.017572431 0.64631355 0 0
0.039999999 0.079085365 0.01757597 0.64631355 0 0
0.039999999 0.00047090655 0.016485792 0.64631355 0 0
0.039999999 0.0014127219 0.016485831 0.64631355 0 0
0.039999999 0.0023545441 0.016485911 0.64631355 0 0
0.039999999 0.0032963776 0.01648603 0.64631355 0 0
0.039999999 0.0042382269 0.016486188 0.64631355 0 0
0.039999999 0.0051800967 0.016486388 0.64631355 0 0
0.039999999 0.0061219917 0.016486626 0.64631355 0 0
0.039999999 0.0070639164 0.016486906 0.64631355 0 0
0.039999999 0.0080058752 0.016487224 0.64631355 0 0
0.039999999 0.0089478716 0.016487582 0.64631355 0 0
0.039999999 0.0098899128 0.01648798 0.64631355 0 0
0.039999999 0.010832001 0.016488418 0.64631355 0 0
0.039999999 0.01177414 0.016488895 0.64631355 0 0
0.039999999 0.012716338 0.016489413 0.64631355 0 0
0.039999999 0.013658597 0.01648997 0.64631355 0 0
0.039999999 0.014600921 0.016490566 0.64631355 0 0
0.039999999 0.015543316 0.016491203 0.64631355 0 0
0.039999999 0.016485786 0.016491879 0.64631355 0 0
0.039999999 0.017428337 0.016492596 0.64631355 0 0
0.039999999 0.018370969 0.016493352 0.64631355 0 0
0.039999999 0.019313693 0.016494147 0.64631355 0 0
0.039999999 0.020256508 0.016494984 0.64631355 0 0
0.039999999 0.021199422 0.016495861 0.64631355 0 0
0.039999999 0.022142438 0.016496776 0.64631355 0 0
0.039999999 0.023085563 0.016497731 0.64631355 0 0
0.039999999 0.024028797 0.016498728 0.64631355 0 0
0.039999999 0.024972148 0.016499763 0.64631355 0 0
0.039999999 0.025915619 0.016500838 0.64631355 0 0
0.039999999 0.026859216 0.016501954 0.64631355 0 0
0.039999999 0.027802942 0.016503111 0.64631355 0 0
0.039999999 0.028746804 0.016504306 0.64631355 0 0
0.039999999 0.029690804 0.016505541 0.64631355 0 0
0.039999999 0.030634949 0.016506817 0.64631355 0 0
0.039999999 0.031579241 0.016508132 0.64631355 0 0
0.039999999 0.032523684 0.016509488 0.64631355 0 0
0.039999999 0.033468287 0.016510883 0.64631355 0 0
0.039999999 0.034413051 0.016512319 0.64631355 0 0
0.039999999 0.035357982 0.016513795 0.64631355 0 0
0.039999999 0.036303084 0.016515311 0.64631355 0 0
0.039999999 0.037248366 0.016516868 0.64631355 0 0
0.039999999 0.038193822 0.016518464 0.64631355 0 0
0.039999999 0.039139464 0.0165201 0.64631355 0 0
0.039999999 0.040085297 0.016521776 0.64631355 0 0
0.039999999 0.041031327 0.016523493 0.64631355 0 0
0.039999999 0.041977551 0.01652525 0.64631355 0 0
0.039999999 0.042923983 0.016527047 0.64631355 0 0
0.039999999 0.04387062 0.016528886 0.64631355 0 0
0.039999999 0.04481747 0.016530763 0.64631355 0 0
0.039999999 0.045764539 0.016532682 0.64631355 0 0
0.039999999 0.046711829 0.01653464 0.64631355 0 0
0.039999999 0.047659349 0.016536638 0.64631355 0 0
0.039999999 0.048607096 0.016538678 0.64631355 0 0
0.039999999 0.049555082 0.016540758 0.64631355 0 0
0.039999999 0.050503306 0.016542878 0.64631355 0 0
0.039999999 0.051451776 0.016545039 0.64631355 0 0
0.039999999 0.0524005 0.01654724 0.64631355 0 0
0.039999999 0.053349473 0.016549481 0.64631355 0 0
0.039999999 0.05429871 0.016551765 0.64631355 0 0
0.039999999 0.055248208 0.016554087 0.64631355 0 0
0.039999999 0.056197975 0.016556451 0.64631355 0 0
0.039999999 0.057148017 0.016558854 0.64631355 0 0
0.039999999 0.058098339 0.0165613 0.64631355 0 0
0.039999999 0.059048939 0.016563784 0.64631355 0 0
0.039999999 0.059999831 0.01656631 0.64631355 0 0
0.039999999 0.060951013 0.016568877 0.64631355 0 0
0.039999999 0.061902493 0.016571485 0.64631355 0 0
0.039999999 0.062854275 0.016574133 0.64631355 0 0
0.039999999 0.063806362 0.016576823 0.64631355 0 0
0.039999999 0.064758763 0.016579553 0.64631355 0 0
0.039999999 0.065711476 0.016582325 0.64631355 0 0
0.039999999 0.066664517 0.016585136 0.64631355 0 0
0.039999999 0.067617878 0.016587989 0.64631355 0 0
0.039999999 0.068571568 0.016590884 0.64631355 0 0
0.039999999 0.069525599 0.016593819 0.64631355 0 0
0.039999999 0.070479967 0.016596796 0.64631355 0 0
0.039999999 0.071434677 0.016599812 0.64631355 0 0
0.039999999 0.072389737 0.016602872 0.64631355 0 0
0.039999999 0.073345155 0.016605971 0.64631355 0 0
0.039999999 0.07430093 0.016609112 0.64631355 0 0
0.039999999 0.07525707 0.016612293 0.64631355 0 0
0.039999999 0.076213576 0.016615517 0.64631355 0 0
0.039999999 0.077170461 0.016618783 0.64631355 0 0
0.039999999 0.078127719 0.016622089 0.64631355 0 0
0.039999999 0.079085365 0.016625436 0.64631355 0 0
0.039999999 0.00047090655 0.015543321 0.64631355 0 0
0.039999999 0.0014127219 0.015543358 0.64631355 0 0
0.039999999 0.0023545441 0.015543434 0.64631355 0 0
0.039999999 0.0032963776 0.015543546 0.64631355 0 0
0.039999999 0.0042382269 0.015543696 0.64631355 0 0
0.039999999 0.0051800967 0.015543884 0.64631355 0 0
0.039999999 0.0061219917 0.015544109 0.64631355 0 0
0.039999999 0.0070639164 0.015544371 0.64631355 0 0
0.039999999 0.0080058752 0.015544672 0.64631355 0 0
0.039999999 0.0089478716 0.015545009 0.64631355 0 0
0.039999999 0.0098899128 0.015545384 0.64631355 0 0
0.039999999 0.010832001 0.015545797 0.64631355 0 0
0.039999999 0.01177414 0.015546246 0.64631355 0 0
0.039999999 0.012716338 0.015546734 0.64631355 0 0
0.039999999 0.013658597 0.01554726 0.64631355 0 0
0.039999999 0.014600921 0.015547822 0.64631355 0 0
0.039999999 0.015543316 0.015548423 0.64631355 0 0
0.039999999 0.016485786 0.015549061 0.64631355 0 0
0.039999999 0.017428337 0.015549736 0.64631355 0 0
0.039999999 0.018370969 0.015550449 0.64631355 0 0
0.039999999 0.019313693 0.0155512 0.64631355 0 0
0.039999999 0.020256508 0.015551989 0.64631355 0 0
0.039999999 0.021199422 0.015552814 0.64631355 0 0
0.039999999 0.022142438 0.015553677 0.64631355 0 0
0.039999999 0.023085563 0.015554579 0.64631355 0 0
0.039999999 0.024028797 0.015555518 0.64631355 0 0
0.039999999 0.024972148 0.015556495 0.64631355 0 0
0.039999999 0.025915619 0.015557508 0.64631355 0 0
0.039999999 0.026859216 0.01555856 0.64631355 0 0
0.039999999 0.027802942 0.01555965 0.64631355 0 0
0.039999999 0.028746804 0.015560777 0.64631355 0 0
0.039999999 0.029690804 0.015561942 0.64631355 0 0
0.039999999 0.030634949 0.015563144 0.64631355 0 0
0.039999999 0.031579241 0.015564385 0.64631355 0 0
0.039999999 0.032523684 0.015565663 0.64631355 0 0
0.039999999 0.033468287 0.015566979 0.64631355 0 0
0.039999999 0.034413051 0.015568332 0.64631355 0 0
0.039999999 0.035357982 0.015569724 0.64631355 0 0
0.039999999 0.036303084 0.015571153 0.64631355 0 0
0.039999999 0.037248366 0.015572621 0.64631355 0 0
0.039999999 0.038193822 0.015574126 0.64631355 0 0
0.039999999 0.039139464 0.015575668 0.64631355 0 0
0.039999999 0.040085297 0.015577249 0.64631355 0 0
0.039999999 0.041031327 0.015578868 0.64631355 0 0
0.039999999 0.041977551 0.015580524 0.64631355 0 0
0.039999999 0.042923983 0.015582219 0.64631355 0 0
0.039999999 0.04387062 0.015583951 0.64631355 0 0
0.039999999 0.04481747 0.015585721 0.64631355 0 0
0.039999999 0.045764539 0.01558753 0.64631355 0 0
0.039999999 0.046711829 0.015589377 0.64631355 0 0
0.039999999 0.047659349 0.015591262 0.64631355 0 0
0.039999999 0.048607096 0.015593184 0.64631355 0 0
0.039999999 0.049555082 0.015595146 0.64631355 0 0
0.039999999 0.050503306 0.015597144 0.64631355 0 0
0.039999999 0.051451776 0.015599181 0.64631355 0 0
0.039999999 0.0524005 0.015601257 0.64631355 0 0
0.039999999 0.053349473 0.01560337 0.64631355 0 0
0.039999999 0.05429871 0.015605522 0.64631355 0 0
0.039999999 0.055248208 0.015607712 0.64631355 0 0
0.039999999 0.056197975 0.015609941 0.64631355 0 0
0.039999999 0.057148017 0.015612207 0.64631355 0 0
0.039999999 0.058098339 0.015614512 0.64631355 0 0
0.039999999 0.059048939 0.015616856 0.64631355 0 0
0.039999999 0.059999831 0.015619237 0.64631355 0 0
0.039999999 0.060951013 0.015621657 0.64631355 0 0
0.039999999 0.061902493 0.015624116 0.64631355 0 0
0.039999999 0.062854275 0.015626613 0.64631355 0 0
0.039999999 0.063806362 0.015629148 0.64631355 0 0
0.039999999 0.064758763 0.015631722 0.64631355 0 0
0.039999999 0.065711476 0.015634336 0.64631355 0 0
0.039999999 0.066664517 0.015636986 0.64631355 0 0
0.039999999 0.067617878 0.015639676 0.64631355 0 0
0.039999999 0.068571568 0.015642405 0.64631355 0 0
0.039999999 0.069525599 0.015645172 0.64631355 0 0
0.039999999 0.070479967 0.015647979 0.64631355 0 0
0.039999999 0.071434677 0.015650824 0.64631355 0 0
0.039999999 0.072389737 0.015653707 0.64631355 0 0
0.039999999 0.073345155 0.01565663 0.64631355 0 0
0.039999999 0.07430093 0.015659591 0.64631355 0 0
0.039999999 0.07525707 0.015662592 0.64631355 0 0
0.039999999 0.076213576 0.015665632 0.64631355 0 0
0.039999999 0.077170461 0.015668709 0.64631355 0 0
0.039999999 0.078127719 0.015671827 0.64631355 0 0
0.039999999 0.079085365 0.015674982 0.64631355 0 0
0.039999999 0.00047090655 0.014600926 0.64631355 0 0
0.039999999 0.0014127219 0.014600961 0.64631355 0 0
0.039999999 0.0023545441 0.014601031 0.64631355 0 0
0.039999999 0.0032963776 0.014601137 0.64631355 0 0
0.039999999 0.0042382269 0.014601278 0.64631355 0 0
0.039999999 0.0051800967 0.014601454 0.64631355 0 0
0.039999999 0.0061219917 0.014601666 0.64631355 0 0
0.039999999 0.0070639164 0.014601912 0.64631355 0 0
0.039999999 0.0080058752 0.014602194 0.64631355 0 0
0.039999999 0.0089478716 0.014602511 0.64631355 0 0
0.039999999 0.0098899128 0.014602863 0.64631355 0 0
0.039999999 0.010832001 0.014603252 0.64631355 0 0
0.039999999 0.01177414 0.014603674 0.64631355 0 0
0.039999999 0.012716338 0.014604133 0.64631355 0 0
0.039999999 0.013658597 0.014604625 0.64631355 0 0
0.039999999 0.014600921 0.014605154 0.64631355 0 0
0.039999999 0.015543316 0.014605719 0.64631355 0 0
0.039999999 0.016485786 0.014606318 0.64631355 0 0
0.039999999 0.017428337 0.014606952 0.64631355 0 0
0.039999999 0.018370969 0.014607622 0.64631355 0 0
0.039999999 0.019313693 0.014608327 0.64631355 0 0
0.039999999 0.020256508 0.014609068 0.64631355 0 0
0.039999999 0.021199422 0.014609843 0.64631355 0 0
0.039999999 0.022142438 0.014610655 0.64631355 0 0
0.039999999 0.023085563 0.014611501 0.64631355 0 0
0.039999999 0.024028797 0.014612383 0.64631355 0 0
0.039999999 0.024972148 0.014613301 0.64631355 0 0
0.039999999 0.025915619 0.014614252 0.64631355 0 0
0.039999999 0.026859216 0.014615241 0.64631355 0 0
0.039999999 0.027802942 0.014616264 0.64631355 0 0
0.039999999 0.028746804 0.014617323 0.64631355 0 0
0.039999999 0.029690804 0.014618417 0.64631355 0 0
0.039999999 0.030634949 0.014619547 0.64631355 0 0
0.039999999 0.031579241 0.014620712 0.64631355 0 0
0.039999999 0.032523684 0.014621913 0.64631355 0 0
0.039999999 0.033468287 0.014623149 0.64631355 0 0
0.039999999 0.034413051 0.014624421 0.64631355 0 0
0.039999999 0.035357982 0.014625727 0.64631355 0 0
0.039999999 0.036303084 0.01462707 0.64631355 0 0
0.039999999 0.037248366 0.014628449 0.64631355 0 0
0.039999999 0.038193822 0.014629862 0.64631355 0 0
0.039999999 0.039139464 0.014631311 0.64631355 0 0
0.039999999 0.040085297 0.014632797 0.64631355 0 0
0.039999999 0.041031327 0.014634317 0.64631355 0 0
0.039999999 0.041977551 0.014635873 0.64631355 0 0
0.039999999 0.042923983 0.014637465 0.64631355 0 0
0.039999999 0.04387062 0.014639093 0.64631355 0 0
0.039999999 0.04481747 0.014640756 0.64631355 0 0
0.039999999 0.045764539 0.014642455 0.64631355 0 0
0.039999999 0.046711829 0.014644189 0.64631355 0 0
0.039999999 0.047659349 0.014645959 0.64631355 0 0
0.039999999 0.048607096 0.014647766 0.64631355 0 0
0.039999999 0.049555082 0.014649608 0.64631355 0 0
0.039999999 0.050503306 0.014651486 0.64631355 0 0
0.039999999 0.051451776 0.0146534 0.64631355 0 0
0.039999999 0.0524005 0.014655349 0.64631355 0 0
0.039999999 0.053349473 0.014657334 0.64631355 0 0
0.039999999 0.05429871 0.014659355 0.64631355 0 0
0.039999999 0.055248208 0.014661413 0.64631355 0 0
0.039999999 0.056197975 0.014663506 0.64631355 0 0
0.039999999 0.057148017 0.014665635 0.64631355 0 0
0.039999999 0.058098339 0.014667801 0.64631355 0 0
0.039999999 0.059048939 0.014670001 0.64631355 0 0
0.039999999 0.059999831 0.014672238 0.64631355 0 0
0.039999999 0.060951013 0.014674513 0.64631355 0 0
0.039999999 0.061902493 0.014676821 0.64631355 0 0
0.039999999 0.062854275 0.014679167 0.64631355 0 0
0.039999999 0.063806362 0.01468155 0.64631355 0 0
0.039999999 0.064758763 0.014683967 0.64631355 0 0
0.039999999 0.065711476 0.014686421 0.64631355 0 0
0.039999999 0.066664517 0.014688913 0.64631355 0 0
0.039999999 0.067617878 0.014691439 0.64631355 0 0
0.039999999 0.068571568 0.014694002 0.64631355 0 0
0.039999999 0.069525599 0.014696602 0.64631355 0 0
0.039999999 0.070479967 0.014699238 0.64631355 0 0
0.039999999 0.071434677 0.01470191 0.64631355 0 0
0.039999999 0.072389737 0.01470462 0.64631355 0 0
0.039999999 0.073345155 0.014707364 0.64631355 0 0
0.039999999 0.07430093 0.014710147 0.64631355 0 0
0.039999999 0.07525707 0.014712965 0.64631355 0 0
0.039999999 0.076213576 0.01471582 0.64631355 0 0
0.039999999 0.077170461 0.014718711 0.64631355 0 0
0.039999999 0.078127719 0.01472164 0.64631355 0 0
0.039999999 0.079085365 0.014724605 0.64631355 0 0
0.039999999 0.00047090655 0.013658601 0.64631355 0 0
0.039999999 0.0014127219 0.013658633 0.64631355 0 0
0.039999999 0.0023545441 0.0136587 0.64631355 0 0
0.039999999 0.0032963776 0.013658798 0.64631355 0 0
0.039999999 0.0042382269 0.013658931 0.64631355 0 0
0.039999999 0.0051800967 0.013659095 0.64631355 0 0
0.039999999 0.0061219917 0.013659293 0.64631355 0 0
0.039999999 0.0070639164 0.013659524 0.64631355 0 0
0.039999999 0.0080058752 0.013659787 0.64631355 0 0
0.039999999 0.0089478716 0.013660084 0.64631355 0 0
0.039999999 0.0098899128 0.013660413 0.64631355 0 0
0.039999999 0.010832001 0.013660776 0.64631355 0 0
0.039999999 0.01177414 0.013661172 0.64631355 0 0
0.039999999 0.012716338 0.013661601 0.64631355 0 0
0.039999999 0.013658597 0.013662062 0.64631355 0 0
0.039999999 0.014600921 0.013662556 0.64631355 0 0
0.039999999 0.015543316 0.013663084 0.64631355 0 0
0.039999999 0.016485786 0.013663645 0.64631355 0 0
0.039999999 0.017428337 0.013664238 0.64631355 0 0
0.039999999 0.018370969 0.013664865 0.64631355 0 0
0.039999999 0.019313693 0.013665524 0.64631355 0 0
0.039999999 0.020256508 0.013666217 0.64631355 0 0
0.039999999 0.021199422 0.013666943 0.64631355 0 0
0.039999999 0.022142438 0.013667702 0.64631355 0 0
0.039999999 0.023085563 0.013668493 0.64631355 0 0
0.039999999 0.024028797 0.013669319 0.64631355 0 0
0.039999999 0.024972148 0.013670176 0.64631355 0 0
0.039999999 0.025915619 0.013671068 0.64631355 0 0
0.039999999 0.026859216 0.013671992 0.64631355 0 0
0.039999999 0.027802942 0.01367295 0.64631355 0 0
0.039999999 0.028746804 0.01367394 0.64631355 0 0
0.039999999 0.029690804 0.013674963 0.64631355 0 0
0.039999999 0.030634949 0.01367602 0.64631355 0 0
0.039999999 0.031579241 0.01367711 0.64631355 0 0
0.039999999 0.032523684 0.013678233 0.64631355 0 0
0.039999999 0.033468287 0.01367939 0.64631355 0 0
0.039999999 0.034413051 0.013680579 0.64631355 0 0
0.039999999 0.035357982 0.013681802 0.64631355 0 0
0.039999999 0.036303084 0.013683058 0.64631355 0 0
0.039999999 0.037248366 0.013684347 0.64631355 0 0
0.039999999 0.038193822 0.01368567 0.64631355 0 0
0.039999999 0.039139464 0.013687026 0.64631355 0 0
0.039999999 0.040085297 0.013688414 0.64631355 0 0
0.039999999 0.041031327 0.013689837 0.64631355 0 0
0.039999999 0.041977551 0.013691293 0.64631355 0 0
0.039999999 0.042923983 0.013692782 0.64631355 0 0
0.039999999 0.04387062 0.013694304 0.64631355 0 0
0.039999999 0.04481747 0.01369586 0.64631355 0 0
0.039999999 0.045764539 0.013697449 0.64631355 0 0
0.039999999 0.046711829 0.013699072 0.64631355 0 0
0.039999999 0.047659349 0.013700728 0.64631355 0 0
0.039999999 0.048607096 0.013702418 0.64631355 0 0
0.039999999 0.049555082 0.013704141 0.64631355 0 0
0.039999999 0.050503306 0.013705898 0.64631355 0 0
0.039999999 0.051451776 0.013707688 0.64631355 0 0
0.039999999 0.0524005 0.013709512 0.64631355 0 0
0.039999999 0.053349473 0.013711369 0.64631355 0 0
0.039999999 0.05429871 0.013713259 0.64631355 0 0
0.039999999 0.055248208 0.013715184 0.64631355 0 0
0.039999999 0.056197975 0.013717142 0.64631355 0 0
0.039999999 0.057148017 0.013719134 0.64631355 0 0
0.039999999 0.058098339 0.01372116 0.64631355 0 0
0.039999999 0.059048939 0.013723219 0.64631355 0 0
0.039999999 0.059999831 0.013725311 0.64631355 0 0
0.039999999 0.060951013 0.013727439 0.64631355 0 0
0.039999999 0.061902493 0.013729598 0.64631355 0 0
0.039999999 0.062854275 0.013731793 0.64631355 0 0
0.039999999 0.063806362 0.013734021 0.64631355 0 0
0.039999999 0.064758763 0.013736283 0.64631355 0 0
0.039999999 0.065711476 0.013738579 0.64631355 0 0
0.039999999 0.066664517 0.013740909 0.64631355 0 0
0.039999999 0.067617878 0.013743273 0.64631355 0 0
0.039999999 0.068571568 0.01374567 0.64631355 0 0
0.039999999 0.069525599 0.013748102 0.64631355 0 0
0.039999999 0.070479967 0.013750568 0.64631355 0 0
0.039999999 0.071434677 0.013753068 0.64631355 0 0
0.039999999 0.072389737 0.013755602 0.64631355 0 0
0.039999999 0.073345155 0.01375817 0.64631355 0 0
0.039999999 0.07430093 0.013760773 0.64631355 0 0
0.039999999 0.07525707 0.013763409 0.64631355 0 0
0.039999999 0.076213576 0.01376608 0.64631355 0 0
0.039999999 0.077170461 0.013768785 0.64631355 0 0
0.039999999 0.078127719 0.013771525 0.64631355 0 0
0.039999999 0.079085365 0.013774298 0.64631355 0 0
0.039999999 0.00047090655 0.012716342 0.64631355 0 0
0.039999999 0.0014127219 0.012716372 0.64631355 0 0
0.039999999 0.0023545441 0.012716434 0.64631355 0 0
0.039999999 0.0032963776 0.012716526 0.64631355 0 0
0.039999999 0.0042382269 0.012716649 0.64631355 0 0
0.039999999 0.0051800967 0.012716802 0.64631355 0 0
0.039999999 0.0061219917 0.012716986 0.64631355 0 0
0.039999999 0.0070639164 0.012717201 0.64631355 0 0
0.039999999 0.0080058752 0.012717446 0.64631355 0 0
0.039999999 0.0089478716 0.012717723 0.64631355 0 0
0.039999999 0.0098899128 0.012718029 0.64631355 0 0
0.039999999 0.010832001 0.012718367 0.64631355 0 0
0.039999999 0.01177414 0.012718735 0.64631355 0 0
0.039999999 0.012716338 0.012719135 0.64631355 0 0
0.039999999 0.013658597 0.012719564 0.64631355 0 0
0.039999999 0.014600921 0.012720025 0.64631355 0 0
0.039999999 0.015543316 0.012720516 0.64631355 0 0
0.039999999 0.016485786 0.012721037 0.64631355 0 0
0.039999999 0.017428337 0.012721591 0.64631355 0 0
0.039999999 0.018370969 0.012722174 0.64631355 0 0
0.039999999 0.019313693 0.012722788 0.64631355 0 0
0.039999999 0.020256508 0.012723433 0.64631355 0 0
0.039999999 0.021199422 0.012724109 0.64631355 0 0
0.039999999 0.022142438 0.012724815 0.64631355 0 0
0.039999999 0.023085563 0.012725553 0.64631355 0 0
0.039999999 0.024028797 0.01272632 0.64631355 0 0
0.039999999 0.024972148 0.012727119 0.64631355 0 0
0.039999999 0.025915619 0.012727949 0.64631355 0 0
0.039999999 0.026859216 0.012728809 0.64631355 0 0
0.039999999 0.027802942 0.012729701 0.64631355 0 0
0.039999999 0.028746804 0.012730623 0.64631355 0 0
0.039999999 0.029690804 0.012731575 0.64631355 0 0
0.039999999 0.030634949 0.01273256 0.64631355 0 0
0.039999999 0.031579241 0.012733574 0.64631355 0 0
0.039999999 0.032523684 0.01273462 0.64631355 0 0
0.039999999 0.033468287 0.012735697 0.64631355 0 0
0.039999999 0.034413051 0.012736804 0.64631355 0 0
0.039999999 0.035357982 0.012737943 0.64631355 0 0
0.039999999 0.036303084 0.012739112 0.64631355 0 0
0.039999999 0.037248366 0.012740312 0.64631355 0 0
0.039999999 0.038193822 0.012741543 0.64631355 0 0
0.039999999 0.039139464 0.012742805 0.64631355 0 0
0.039999999 0.040085297 0.012744099 0.64631355 0 0
0.039999999 0.041031327 0.012745423 0.64631355 0 0
0.039999999 0.041977551 0.012746778 0.64631355 0 0
0.039999999 0.042923983 0.012748165 0.64631355 0 0
0.039999999 0.04387062 0.012749583 0.64631355 0 0
0.039999999 0.04481747 0.012751031 0.64631355 0 0
0.039999999 0.045764539 0.012752511 0.64631355 0 0
0.039999999 0.046711829 0.012754021 0.64631355 0 0
0.039999999 0.047659349 0.012755563 0.64631355 0 0
0.039999999 0.048607096 0.012757136 0.64631355 0 0
0.039999999 0.049555082 0.01275874 0.64631355 0 0
0.039999999 0.050503306 0.012760376 0.64631355 0 0
0.039999999 0.051451776 0.012762043 0.64631355 0 0
0.039999999 0.0524005 0.01276374 0.64631355 0 0
0.039999999 0.053349473 0.01276547 0.64631355 0 0
0.039999999 0.05429871 0.01276723 0.64631355 0 0
0.039999999 0.055248208 0.012769022 0.64631355 0 0
0.039999999 0.056197975 0.012770845 0.64631355 0 0
0.039999999 0.057148017 0.012772699 0.64631355 0 0
0.039999999 0.058098339 0.012774585 0.64631355 0 0
0.039999999 0.059048939 0.012776501 0.64631355 0 0
0.039999999 0.059999831 0.012778451 0.64631355 0 0
0.039999999 0.060951013 0.012780431 0.64631355 0 0
0.039999999 0.061902493 0.012782441 0.64631355 0 0
0.039999999 0.062854275 0.012784485 0.64631355 0 0
0.039999999 0.063806362 0.012786559 0.64631355 0 0
0.039999999 0.064758763 0.012788665 0.64631355 0 0
0.039999999 0.065711476 0.012790803 0.64631355 0 0
0.039999999 0.066664517 0.012792972 0.64631355 0 0
0.039999999 0.067617878 0.012795173 0.64631355 0 0
0.039999999 0.068571568 0.012797405 0.64631355 0 0
0.039999999 0.069525599 0.012799669 0.64631355 0 0
0.039999999 0.070479967 0.012801965 0.64631355 0 0
0.039999999 0.071434677 0.012804292 0.64631355 0 0
0.039999999 0.072389737 0.012806651 0.64631355 0 0
0.039999999 0.073345155 0.012809043 0.64631355 0 0
0.039999999 0.07430093 0.012811465 0.64631355 0 0
0.039999999 0.07525707 0.01281392 0.64631355 0 0
0.039999999 0.076213576 0.012816407 0.64631355 0 0
0.039999999 0.077170461 0.012818925 0.64631355 0 0
0.039999999 0.078127719 0.012821475 0.64631355 0 0
0.039999999 0.079085365 0.012824058 0.64631355 0 0
0.039999999 0.00047090655 0.011774144 0.64631355 0 0
0.039999999 0.0014127219 0.011774173 0.64631355 0 0
0.039999999 0.0023545441 0.01177423 0.64631355 0 0
0.039999999 0.0032963776 0.011774315 0.64631355 0 0
0.039999999 0.0042382269 0.011774428 0.64631355 0 0
0.039999999 0.0051800967 0.011774571 0.64631355 0 0
0.039999999 0.0061219917 0.011774741 0.64631355 0 0
0.039999999 0.0070639164 0.011774939 0.64631355 0 0
0.039999999 0.0080058752 0.011775168 0.64631355 0 0
0.039999999 0.0089478716 0.011775423 0.64631355 0 0
0.039999999 0.0098899128 0.011775707 0.64631355 0 0
0.039999999 0.010832001 0.01177602 0.64631355 0 0
0.039999999 0.01177414 0.011776361 0.64631355 0 0
0.039999999 0.012716338 0.01177673 0.64631355 0 0
0.039999999 0.013658597 0.011777128 0.64631355 0 0
0.039999999 0.014600921 0.011777555 0.64631355 0 0
0.039999999 0.015543316 0.011778009 0.64631355 0 0
0.039999999 0.016485786 0.011778492 0.64631355 0 0
0.039999999 0.017428337 0.011779004 0.64631355 0 0
0.039999999 0.018370969 0.011779544 0.64631355 0 0
0.039999999 0.019313693 0.011780113 0.64631355 0 0
0.039999999 0.020256508 0.01178071 0.64631355 0 0
0.039999999 0.021199422 0.011781336 0.64631355 0 0
0.039999999 0.022142438 0.01178199 0.64631355 0 0
0.039999999 0.023085563 0.011782672 0.64631355 0 0
0.039999999 0.024028797 0.011783384 0.64631355 0 0
0.039999999 0.024972148 0.011784123 0.64631355 0 0
0.039999999 0.025915619 0.011784892 0.64631355 0 0
0.039999999 0.026859216 0.011785688 0.64631355 0 0
0.039999999 0.027802942 0.011786513 0.64631355 0 0
