# .PCD v0.7 - Point Cloud Data file format
VERSION 0.7
FIELDS x y z vp_x vp_y vp_z
SIZE 4 4 4 4 4 4
TYPE F F F F F F
COUNT 1 1 1 1 1 1
WIDTH 715
HEIGHT 1
VIEWPOINT 0 0 0 1 0 0 0
POINTS 715
DATA ascii
0.021041779 0 0.032635655 0.52287865 -0.32315677 0.19972187
0.022814151 0 0.033058535 0.52287865 -0.32315677 0.19972187
0.024577692 0 0.03347937 0.52287865 -0.32315677 0.19972187
0.026332479 0 0.033898182 0.52287865 -0.32315677 0.19972187
0.028078586 0 0.034314986 0.52287865 -0.32315677 0.19972187
0.029816084 0 0.034729797 0.52287865 -0.32315677 0.19972187
0.031545043 0 0.03514263 0.52287865 -0.32315677 0.19972187
0.033265539 0 0.035553508 0.52287865 -0.32315677 0.19972187
0.034977637 0 0.035962444 0.52287865 -0.32315677 0.19972187
0.036681406 0 0.03636945 0.52287865 -0.32315677 0.19972187
0.03837692 0 0.036774546 0.52287865 -0.32315677 0.19972187
0.039999999 4.2999443e-05 0.03715612 0.52287865 -0.32315677 0.19972187
0.039999999 0.0011709919 0.036991533 0.52287865 -0.32315677 0.19972187
0.039999999 0.0023014166 0.036826648 0.52287865 -0.32315677 0.19972187
0.039999999 0.0034342865 0.036661472 0.52287865 -0.32315677 0.19972187
0.039999999 0.0045696152 0.036496002 0.52287865 -0.32315677 0.19972187
0.039999999 0.0057074158 0.036330231 0.52287865 -0.32315677 0.19972187
0.039999999 0.0068477024 0.036164161 0.52287865 -0.32315677 0.19972187
0.039999999 0.0079904879 0.035997789 0.52287865 -0.32315677 0.19972187
0 0.036661755 0.02225497 0.52287865 -0.32315677 0.19972187
0.039999999 0.010283611 0.035664134 0.52287865 -0.32315677 0.19972187
0.039999999 0.011433976 0.03549685 0.52287865 -0.32315677 0.19972187
0.039999999 0.012586895 0.035329256 0.52287865 -0.32315677 0.19972187
0.039999999 0.013742383 0.03516135 0.52287865 -0.32315677 0.19972187
0.039999999 0.014900452 0.034993134 0.52287865 -0.32315677 0.19972187
0.039999999 0.01606112 0.034824602 0.52287865 -0.32315677 0.19972187
0.039999999 0.017224396 0.034655757 0.52287865 -0.32315677 0.19972187
0.039999999 0.018390298 0.034486592 0.52287865 -0.32315677 0.19972187
0.039999999 0.019558839 0.034317106 0.52287865 -0.32315677 0.19972187
0.039999999 0.020730035 0.0341473 0.52287865 -0.32315677 0.19972187
0.039999999 0.021903899 0.033977173 0.52287865 -0.32315677 0.19972187
1.110223e-16 0.051761542 0.020062877 0.52287865 -0.32315677 0.19972187
0.039999999 0.024259692 0.033635937 0.52287865 -0.32315677 0.19972187
0.039999999 0.02544165 0.033464823 0.52287865 -0.32315677 0.19972187
0.039999999 0.026626337 0.033293381 0.52287865 -0.32315677 0.19972187
0.039999999 0.027813768 0.033121608 0.52287865 -0.32315677 0.19972187
0.039999999 0.029003955 0.032949496 0.52287865 -0.32315677 0.19972187
0.039999999 0.030196916 0.032777049 0.52287865 -0.32315677 0.19972187
0.039999999 0.031392667 0.032604262 0.52287865 -0.32315677 0.19972187
0.039999999 0.03259122 0.032431133 0.52287865 -0.32315677 0.19972187
0.039999999 0.033792596 0.032257665 0.52287865 -0.32315677 0.19972187
0.039999999 0.034996808 0.032083847 0.52287865 -0.32315677 0.19972187
1.110223e-16 0.06597206 0.018008703 0.52287865 -0.32315677 0.19972187
0.039999999 0.037413795 0.031735174 0.52287865 -0.32315677 0.19972187
0.039999999 0.038626608 0.031560309 0.52287865 -0.32315677 0.19972187
0.039999999 0.039842319 0.031385094 0.52287865 -0.32315677 0.19972187
0.039999999 0.041060947 0.031209519 0.52287865 -0.32315677 0.19972187
0.039999999 0.042282503 0.03103359 0.52287865 -0.32315677 0.19972187
0.039999999 0.04350701 0.0308573 0.52287865 -0.32315677 0.19972187
0.039999999 0.044734482 0.030680649 0.52287865 -0.32315677 0.19972187
0.039999999 0.045964934 0.030503633 0.52287865 -0.32315677 0.19972187
0.039999999 0.047198385 0.030326251 0.52287865 -0.32315677 0.19972187
0.039999999 0.04843485 0.030148501 0.52287865 -0.32315677 0.19972187
0.039999999 0.049674347 0.02997038 0.52287865 -0.32315677 0.19972187
0.039999999 0.050916892 0.029791886 0.52287865 -0.32315677 0.19972187
0.0041848077 0.079999998 0.016996013 0.52287865 -0.32315677 0.19972187
0.039999999 0.053411197 0.02943377 0.52287865 -0.32315677 0.19972187
0.039999999 0.054662991 0.029254146 0.52287865 -0.32315677 0.19972187
0.0093233846 0.079999998 0.018233122 0.52287865 -0.32315677 0.19972187
0.011022101 0.079999998 0.018642226 0.52287865 -0.32315677 0.19972187
0.039999999 0.058437157 0.028712969 0.52287865 -0.32315677 0.19972187
0.039999999 0.059701532 0.028531803 0.52287865 -0.32315677 0.19972187
0.016076546 0.079999998 0.019859912 0.52287865 -0.32315677 0.19972187
0.039999999 0.062239867 0.028168295 0.52287865 -0.32315677 0.19972187
0.039999999 0.06351386 0.027985949 0.52287865 -0.32315677 0.19972187
0.021069488 0.079999998 0.021063399 0.52287865 -0.32315677 0.19972187
0.039999999 0.066071607 0.027620059 0.52287865 -0.32315677 0.19972187
0.039999999 0.067355387 0.027436512 0.52287865 -0.32315677 0.19972187
0.039999999 0.068642467 0.027252559 0.52287865 -0.32315677 0.19972187
0.039999999 0.069932871 0.027068198 0.52287865 -0.32315677 0.19972187
0.039999999 0.071226612 0.026883425 0.52287865 -0.32315677 0.19972187
0.039999999 0.072523706 0.026698243 0.52287865 -0.32315677 0.19972187
0.039999999 0.073824182 0.026512643 0.52287865 -0.32315677 0.19972187
0.039999999 0.075128049 0.026326627 0.52287865 -0.32315677 0.19972187
0.039999999 0.076435328 0.026140191 0.52287865 -0.32315677 0.19972187
0.039999999 0.077746049 0.02595333 0.52287865 -0.32315677 0.19972187
0.039999999 0.079060219 0.025766047 0.52287865 -0.32315677 0.19972187
0.00094144332 0 0.026815372 0.52287865 -0.32315677 0.19972187
0.0028169942 0 0.027264809 0.52287865 -0.32315677 0.19972187
0.0046828347 0 0.027711982 0.52287865 -0.32315677 0.19972187
0.0065390486 0 0.02815691 0.52287865 -0.32315677 0.19972187
0.0083857188 0 0.028599614 0.52287865 -0.32315677 0.19972187
0.010222929 0 0.029040113 0.52287865 -0.32315677 0.19972187
0.012050757 0 0.029478425 0.52287865 -0.32315677 0.19972187
0.013869287 0 0.029914569 0.52287865 -0.32315677 0.19972187
0.015678596 0 0.030348562 0.52287865 -0.32315677 0.19972187
0.017478762 0 0.030780425 0.52287865 -0.32315677 0.19972187
0.019269863 0 0.031210177 0.52287865 -0.32315677 0.19972187
0.021051977 0 0.031637833 0.52287865 -0.32315677 0.19972187
0.02282518 0 0.03206341 0.52287865 -0.32315677 0.19972187
0.024589544 0 0.032486927 0.52287865 -0.32315677 0.19972187
0.026345147 0 0.032908402 0.52287865 -0.32315677 0.19972187
0.02809206 0 0.033327851 0.52287865 -0.32315677 0.19972187
0.029830355 0 0.033745296 0.52287865 -0.32315677 0.19972187
0.031560104 0 0.034160748 0.52287865 -0.32315677 0.19972187
0.033281382 0 0.034574222 0.52287865 -0.32315677 0.19972187
0.034994256 0 0.03498574 0.52287865 -0.32315677 0.19972187
0.036698792 0 0.035395317 0.52287865 -0.32315677 0.19972187
0.038395066 0 0.035802964 0.52287865 -0.32315677 0.19972187
0.039999999 5.5650813e-05 0.036180545 0.52287865 -0.32315677 0.19972187
0.039999999 0.0011842338 0.036014821 0.52287865 -0.32315677 0.19972187
0.039999999 0.0023152514 0.0358488 0.52287865 -0.32315677 0.19972187
0 0.030503588 0.022094021 0.52287865 -0.32315677 0.19972187
0.039999999 0.004584644 0.035515856 0.52287865 -0.32315677 0.19972187
0.039999999 0.0057230457 0.035348933 0.52287865 -0.32315677 0.19972187
0.039999999 0.0068639354 0.035181701 0.52287865 -0.32315677 0.19972187
0.039999999 0.0080073271 0.035014167 0.52287865 -0.32315677 0.19972187
0.039999999 0.0091532338 0.034846324 0.52287865 -0.32315677 0.19972187
0 0.037924215 0.021006519 0.52287865 -0.32315677 0.19972187
0.039999999 0.01145265 0.034509704 0.52287865 -0.32315677 0.19972187
0.039999999 0.012606186 0.034340926 0.52287865 -0.32315677 0.19972187
0 0.041671503 0.020458234 0.52287865 -0.32315677 0.19972187
0.039999999 0.014920985 0.034002416 0.52287865 -0.32315677 0.19972187
0.039999999 0.016082276 0.033832684 0.52287865 -0.32315677 0.19972187
0.039999999 0.017246181 0.033662632 0.52287865 -0.32315677 0.19972187
0.039999999 0.018412715 0.033492256 0.52287865 -0.32315677 0.19972187
0.039999999 0.01958189 0.033321556 0.52287865 -0.32315677 0.19972187
0 0.049242079 0.019352335 0.52287865 -0.32315677 0.19972187
1.110223e-16 0.050513875 0.019166784 0.52287865 -0.32315677 0.19972187
0.039999999 0.023105416 0.032807488 0.52287865 -0.32315677 0.19972187
0.039999999 0.024285307 0.032635469 0.52287865 -0.32315677 0.19972187
0.039999999 0.025467914 0.032463115 0.52287865 -0.32315677 0.19972187
0.039999999 0.026653251 0.032290425 0.52287865 -0.32315677 0.19972187
0.039999999 0.027841335 0.032117393 0.52287865 -0.32315677 0.19972187
0.039999999 0.02903218 0.031944025 0.52287865 -0.32315677 0.19972187
0.039999999 0.030225802 0.031770311 0.52287865 -0.32315677 0.19972187
0.039999999 0.031422216 0.031596255 0.52287865 -0.32315677 0.19972187
0 0.062092878 0.017480459 0.52287865 -0.32315677 0.19972187
0.039999999 0.033823483 0.0312471 0.52287865 -0.32315677 0.19972187
0.039999999 0.035028365 0.031071996 0.52287865 -0.32315677 0.19972187
0.039999999 0.036236104 0.030896541 0.52287865 -0.32315677 0.19972187
0.039999999 0.037446711 0.030720731 0.52287865 -0.32315677 0.19972187
0.039999999 0.038660206 0.030544562 0.52287865 -0.32315677 0.19972187
0.039999999 0.039876603 0.030368036 0.52287865 -0.32315677 0.19972187
0.039999999 0.041095916 0.030191148 0.52287865 -0.32315677 0.19972187
0 0.072592847 0.015955873 0.52287865 -0.32315677 0.19972187
0 0.073919542 0.015763544 0.52287865 -0.32315677 0.19972187
0.039999999 0.044771541 0.029658295 0.52287865 -0.32315677 0.19972187
0.039999999 0.046002693 0.029479939 0.52287865 -0.32315677 0.19972187
0.039999999 0.047236852 0.029301213 0.52287865 -0.32315677 0.19972187
0.039999999 0.048474025 0.029122112 0.52287865 -0.32315677 0.19972187
0.039999999 0.049714234 0.028942635 0.52287865 -0.32315677 0.19972187
0.039999999 0.050957497 0.028762778 0.52287865 -0.32315677 0.19972187
0.039999999 0.052203827 0.028582541 0.52287865 -0.32315677 0.19972187
0.039999999 0.053453244 0.028401919 0.52287865 -0.32315677 0.19972187
0.039999999 0.054705769 0.028220912 0.52287865 -0.32315677 0.19972187
0.039999999 0.055961411 0.028039519 0.52287865 -0.32315677 0.19972187
0.039999999 0.057220194 0.027857734 0.52287865 -0.32315677 0.19972187
0.039999999 0.058482133 0.027675558 0.52287865 -0.32315677 0.19972187
0.039999999 0.059747249 0.027492985 0.52287865 -0.32315677 0.19972187
0.039999999 0.061015557 0.027310016 0.52287865 -0.32315677 0.19972187
0.039999999 0.062287077 0.027126648 0.52287865 -0.32315677 0.19972187
0.039999999 0.063561827 0.026942877 0.52287865 -0.32315677 0.19972187
0.039999999 0.064839825 0.026758702 0.52287865 -0.32315677 0.19972187
0.039999999 0.066121086 0.02657412 0.52287865 -0.32315677 0.19972187
0.039999999 0.067405634 0.026389128 0.52287865 -0.32315677 0.19972187
0.039999999 0.068693481 0.026203725 0.52287865 -0.32315677 0.19972187
0.039999999 0.06998466 0.026017908 0.52287865 -0.32315677 0.19972187
0.039999999 0.071279176 0.025831675 0.52287865 -0.32315677 0.19972187
0.039999999 0.072577052 0.025645021 0.52287865 -0.32315677 0.19972187
0.039999999 0.073878303 0.025457947 0.52287865 -0.32315677 0.19972187
0.039999999 0.075182959 0.025270447 0.52287865 -0.32315677 0.19972187
0.039999999 0.076491036 0.025082521 0.52287865 -0.32315677 0.19972187
0.039999999 0.077802546 0.024894167 0.52287865 -0.32315677 0.19972187
0.039999999 0.079117522 0.024705378 0.52287865 -0.32315677 0.19972187
0.00094191276 0 0.025785817 0.52287865 -0.32315677 0.19972187
0.0028183952 0 0.026238153 0.52287865 -0.32315677 0.19972187
0.0046851574 0 0.026688205 0.52287865 -0.32315677 0.19972187
0.006542284 0 0.027135996 0.52287865 -0.32315677 0.19972187
0.0083898576 0 0.027581543 0.52287865 -0.32315677 0.19972187
0.010227961 0 0.028024865 0.52287865 -0.32315677 0.19972187
0.012056674 0 0.028465984 0.52287865 -0.32315677 0.19972187
0.013876079 0 0.028904917 0.52287865 -0.32315677 0.19972187
0.015686255 0 0.029341683 0.52287865 -0.32315677 0.19972187
0.017487278 0 0.029776299 0.52287865 -0.32315677 0.19972187
0.019279229 0 0.030208787 0.52287865 -0.32315677 0.19972187
0.021062184 0 0.030639162 0.52287865 -0.32315677 0.19972187
0.022836218 0 0.031067442 0.52287865 -0.32315677 0.19972187
0.024601405 0 0.031493645 0.52287865 -0.32315677 0.19972187
0.026357824 0 0.031917792 0.52287865 -0.32315677 0.19972187
0.028105544 0 0.032339893 0.52287865 -0.32315677 0.19972187
0.02984464 0 0.032759972 0.52287865 -0.32315677 0.19972187
0.031575181 0 0.033178043 0.52287865 -0.32315677 0.19972187
0.033297241 0 0.033594124 0.52287865 -0.32315677 0.19972187
0.035010889 0 0.034008231 0.52287865 -0.32315677 0.19972187
0.036716197 0 0.034420379 0.52287865 -0.32315677 0.19972187
0.038413227 0 0.034830581 0.52287865 -0.32315677 0.19972187
0.039999999 6.8313559e-05 0.03520409 0.52287865 -0.32315677 0.19972187
0.039999999 0.0011974876 0.035037231 0.52287865 -0.32315677 0.19972187
0.039999999 0.0023290988 0.034870066 0.52287865 -0.32315677 0.19972187
0.039999999 0.0034631607 0.034702599 0.52287865 -0.32315677 0.19972187
0.039999999 0.0045996862 0.034534827 0.52287865 -0.32315677 0.19972187
0 0.032983255 0.020669296 0.52287865 -0.32315677 0.19972187
0.039999999 0.0068801828 0.034198355 0.52287865 -0.32315677 0.19972187
0 0.035458069 0.020304281 0.52287865 -0.32315677 0.19972187
0.039999999 0.0091706971 0.033860639 0.52287865 -0.32315677 0.19972187
0.039999999 0.010319746 0.033691306 0.52287865 -0.32315677 0.19972187
0.039999999 0.01147134 0.03352166 0.52287865 -0.32315677 0.19972187
0.039999999 0.012625493 0.033351693 0.52287865 -0.32315677 0.19972187
0.039999999 0.013782221 0.033181407 0.52287865 -0.32315677 0.19972187
0.039999999 0.014941536 0.033010796 0.52287865 -0.32315677 0.19972187
0.039999999 0.016103454 0.032839861 0.52287865 -0.32315677 0.19972187
0.039999999 0.017267987 0.032668602 0.52287865 -0.32315677 0.19972187
0.039999999 0.018435152 0.032497011 0.52287865 -0.32315677 0.19972187
0.039999999 0.01960496 0.032325093 0.52287865 -0.32315677 0.19972187
0.039999999 0.02077743 0.032152843 0.52287865 -0.32315677 0.19972187
0 0.050540242 0.018085122 0.52287865 -0.32315677 0.19972187
0.039999999 0.023130408 0.031807337 0.52287865 -0.32315677 0.19972187
0.039999999 0.024310945 0.031634077 0.52287865 -0.32315677 0.19972187
0.039999999 0.025494201 0.031460479 0.52287865 -0.32315677 0.19972187
0.039999999 0.02668019 0.031286538 0.52287865 -0.32315677 0.19972187
0 0.056946687 0.017145213 0.52287865 -0.32315677 0.19972187
0.039999999 0.029060433 0.03093762 0.52287865 -0.32315677 0.19972187
0.039999999 0.030254716 0.030762641 0.52287865 -0.32315677 0.19972187
0.039999999 0.031451792 0.030587312 0.52287865 -0.32315677 0.19972187
0.039999999 0.032651681 0.030411629 0.52287865 -0.32315677 0.19972187
0.039999999 0.033854395 0.030235594 0.52287865 -0.32315677 0.19972187
0.039999999 0.035059955 0.030059202 0.52287865 -0.32315677 0.19972187
0.039999999 0.036268368 0.02988245 0.52287865 -0.32315677 0.19972187
0.039999999 0.037479654 0.029705338 0.52287865 -0.32315677 0.19972187
0.039999999 0.038693834 0.029527863 0.52287865 -0.32315677 0.19972187
0 0.069986187 0.015237008 0.52287865 -0.32315677 0.19972187
0.039999999 0.041130923 0.029171819 0.52287865 -0.32315677 0.19972187
0.039999999 0.042353865 0.028993243 0.52287865 -0.32315677 0.19972187
0 0.073958956 0.014656902 0.52287865 -0.32315677 0.19972187
0.039999999 0.044808634 0.028634975 0.52287865 -0.32315677 0.19972187
0.039999999 0.04604049 0.02845528 0.52287865 -0.32315677 0.19972187
0.039999999 0.047275353 0.028275205 0.52287865 -0.32315677 0.19972187
0 0.079301096 0.013877751 0.52287865 -0.32315677 0.19972187
0.039999999 0.049754161 0.027913913 0.52287865 -0.32315677 0.19972187
0.039999999 0.05099814 0.027732691 0.52287865 -0.32315677 0.19972187
0.039999999 0.052245192 0.027551083 0.52287865 -0.32315677 0.19972187
0.0060202708 0.079999998 0.015240775 0.52287865 -0.32315677 0.19972187
0.039999999 0.054748584 0.027186694 0.52287865 -0.32315677 0.19972187
0.039999999 0.05600496 0.02700391 0.52287865 -0.32315677 0.19972187
0.039999999 0.057264477 0.02682073 0.52287865 -0.32315677 0.19972187
0.039999999 0.058527157 0.02663715 0.52287865 -0.32315677 0.19972187
0.039999999 0.05979301 0.026453171 0.52287865 -0.32315677 0.19972187
0.039999999 0.061062068 0.026268788 0.52287865 -0.32315677 0.19972187
0.039999999 0.062334336 0.026083997 0.52287865 -0.32315677 0.19972187
0.039999999 0.063609838 0.025898799 0.52287865 -0.32315677 0.19972187
0.021195559 0.079999998 0.01893688 0.52287865 -0.32315677 0.19972187
0.039999999 0.066170618 0.025527168 0.52287865 -0.32315677 0.19972187
0.024492916 0.079999998 0.019740684 0.52287865 -0.32315677 0.19972187
0.039999999 0.068744548 0.025153875 0.52287865 -0.32315677 0.19972187
0.039999999 0.070036493 0.024966599 0.52287865 -0.32315677 0.19972187
0.039999999 0.071331784 0.024778899 0.52287865 -0.32315677 0.19972187
0.031008802 0.079999998 0.021329833 0.52287865 -0.32315677 0.19972187
0.039999999 0.073932484 0.02440222 0.52287865 -0.32315677 0.19972187
0.039999999 0.07523793 0.024213236 0.52287865 -0.32315677 0.19972187
0.039999999 0.076546796 0.024023818 0.52287865 -0.32315677 0.19972187
0.039999999 0.077859104 0.023833964 0.52287865 -0.32315677 0.19972187
0.039999999 0.079174876 0.023643671 0.52287865 -0.32315677 0.19972187
0.00094238261 0 0.024755359 0.52287865 -0.32315677 0.19972187
0.0028197975 0 0.025210597 0.52287865 -0.32315677 0.19972187
0.0046874825 0 0.025663534 0.52287865 -0.32315677 0.19972187
0.0065455223 0 0.02611419 0.52287865 -0.32315677 0.19972187
0.0083939992 0 0.026562586 0.52287865 -0.32315677 0.19972187
0.010232997 0 0.027008738 0.52287865 -0.32315677 0.19972187
0.012062596 0 0.02745267 0.52287865 -0.32315677 0.19972187
0.013882877 0 0.027894396 0.52287865 -0.32315677 0.19972187
0.01569392 0 0.028333938 0.52287865 -0.32315677 0.19972187
0.017495802 0 0.028771315 0.52287865 -0.32315677 0.19972187
0.019288603 0 0.029206542 0.52287865 -0.32315677 0.19972187
0.021072399 0 0.029639643 0.52287865 -0.32315677 0.19972187
0.022847265 0 0.030070631 0.52287865 -0.32315677 0.19972187
0.024613278 0 0.030499525 0.52287865 -0.32315677 0.19972187
0.026370512 0 0.030926345 0.52287865 -0.32315677 0.19972187
0.028119041 0 0.031351104 0.52287865 -0.32315677 0.19972187
0.029858934 0 0.031773824 0.52287865 -0.32315677 0.19972187
0.031590268 0 0.032194518 0.52287865 -0.32315677 0.19972187
0.03331311 0 0.032613207 0.52287865 -0.32315677 0.19972187
0.035027537 0 0.033029906 0.52287865 -0.32315677 0.19972187
0.036733612 0 0.033444628 0.52287865 -0.32315677 0.19972187
0.038431406 0 0.033857394 0.52287865 -0.32315677 0.19972187
0 0.026856888 0.020517711 0.52287865 -0.32315677 0.19972187
0.039999999 0.0012107533 0.034058757 0.52287865 -0.32315677 0.19972187
0.039999999 0.0023429587 0.033890449 0.52287865 -0.32315677 0.19972187
0.039999999 0.0034776172 0.033721834 0.52287865 -0.32315677 0.19972187
0.039999999 0.004614742 0.033552907 0.52287865 -0.32315677 0.19972187
0.039999999 0.005754347 0.033383667 0.52287865 -0.32315677 0.19972187
0.039999999 0.0068964455 0.033214111 0.52287865 -0.32315677 0.19972187
0.039999999 0.0080410512 0.033044241 0.52287865 -0.32315677 0.19972187
0.039999999 0.0091881771 0.032874051 0.52287865 -0.32315677 0.19972187
0.039999999 0.010337838 0.032703541 0.52287865 -0.32315677 0.19972187
0.039999999 0.011490047 0.032532711 0.52287865 -0.32315677 0.19972187
0.039999999 0.012644819 0.032361556 0.52287865 -0.32315677 0.19972187
0 0.041714683 0.018312316 0.52287865 -0.32315677 0.19972187
0.039999999 0.014962106 0.032018263 0.52287865 -0.32315677 0.19972187
0.039999999 0.016124651 0.031846125 0.52287865 -0.32315677 0.19972187
0.039999999 0.017289814 0.031673655 0.52287865 -0.32315677 0.19972187
0.039999999 0.01845761 0.03150085 0.52287865 -0.32315677 0.19972187
0.039999999 0.019628054 0.03132771 0.52287865 -0.32315677 0.19972187
0.039999999 0.02080116 0.031154234 0.52287865 -0.32315677 0.19972187
0 0.050566632 0.017002456 0.52287865 -0.32315677 0.19972187
0.039999999 0.023155423 0.030806258 0.52287865 -0.32315677 0.19972187
0.039999999 0.024336606 0.030631756 0.52287865 -0.32315677 0.19972187
0.039999999 0.025520511 0.03045691 0.52287865 -0.32315677 0.19972187
0.039999999 0.026707154 0.030281717 0.52287865 -0.32315677 0.19972187
0.039999999 0.027896548 0.030106172 0.52287865 -0.32315677 0.19972187
0.039999999 0.029088711 0.029930277 0.52287865 -0.32315677 0.19972187
0.039999999 0.030283656 0.029754028 0.52287865 -0.32315677 0.19972187
0.039999999 0.031481396 0.029577423 0.52287865 -0.32315677 0.19972187
0.039999999 0.032681953 0.02940046 0.52287865 -0.32315677 0.19972187
0.039999999 0.033885341 0.029223137 0.52287865 -0.32315677 0.19972187
0.039999999 0.035091572 0.029045453 0.52287865 -0.32315677 0.19972187
0.039999999 0.036300663 0.028867405 0.52287865 -0.32315677 0.19972187
0.039999999 0.03751263 0.02868899 0.52287865 -0.32315677 0.19972187
0.039999999 0.038727492 0.028510205 0.52287865 -0.32315677 0.19972187
0.039999999 0.039945263 0.028331051 0.52287865 -0.32315677 0.19972187
0.039999999 0.041165959 0.028151525 0.52287865 -0.32315677 0.19972187
0.039999999 0.042389598 0.027971622 0.52287865 -0.32315677 0.19972187
0.039999999 0.043616194 0.027791344 0.52287865 -0.32315677 0.19972187
0.039999999 0.044845764 0.027610684 0.52287865 -0.32315677 0.19972187
0.039999999 0.046078324 0.027429644 0.52287865 -0.32315677 0.19972187
0.039999999 0.047313895 0.027248221 0.52287865 -0.32315677 0.19972187
0.039999999 0.048552491 0.02706641 0.52287865 -0.32315677 0.19972187
0.039999999 0.049794126 0.026884209 0.52287865 -0.32315677 0.19972187
0.039999999 0.051038824 0.02670162 0.52287865 -0.32315677 0.19972187
0.039999999 0.052286595 0.026518637 0.52287865 -0.32315677 0.19972187
0.039999999 0.053537462 0.026335258 0.52287865 -0.32315677 0.19972187
0.039999999 0.054791439 0.026151482 0.52287865 -0.32315677 0.19972187
0.039999999 0.056048546 0.025967306 0.52287865 -0.32315677 0.19972187
0.039999999 0.057308801 0.025782727 0.52287865 -0.32315677 0.19972187
0.039999999 0.058572218 0.025597742 0.52287865 -0.32315677 0.19972187
0.0145809 0.079999998 0.016236566 0.52287865 -0.32315677 0.19972187
0.039999999 0.061108619 0.02522655 0.52287865 -0.32315677 0.19972187
0.039999999 0.06238164 0.025040338 0.52287865 -0.32315677 0.19972187
0.019599397 0.079999998 0.017465899 0.52287865 -0.32315677 0.19972187
0.039999999 0.064937405 0.024666665 0.52287865 -0.32315677 0.19972187
0.039999999 0.066220194 0.024479199 0.52287865 -0.32315677 0.19972187
0.039999999 0.067506269 0.024291312 0.52287865 -0.32315677 0.19972187
0.039999999 0.068795659 0.024103001 0.52287865 -0.32315677 0.19972187
0.039999999 0.070088379 0.023914263 0.52287865 -0.32315677 0.19972187
0.039999999 0.071384452 0.023725094 0.52287865 -0.32315677 0.19972187
0.039999999 0.072683886 0.023535494 0.52287865 -0.32315677 0.19972187
0.039999999 0.073986717 0.023345459 0.52287865 -0.32315677 0.19972187
0.039999999 0.075292952 0.023154985 0.52287865 -0.32315677 0.19972187
0.039999999 0.076602608 0.022964071 0.52287865 -0.32315677 0.19972187
0.037490591 0.079999998 0.021853153 0.52287865 -0.32315677 0.19972187
0.039999999 0.07923229 0.022580914 0.52287865 -0.32315677 0.19972187
0.00094285287 0 0.023723988 0.52287865 -0.32315677 0.19972187
0.002821201 0 0.024182135 0.52287865 -0.32315677 0.19972187
0.0046898094 0 0.024637962 0.52287865 -0.32315677 0.19972187
0.0065487633 0 0.02509149 0.52287865 -0.32315677 0.19972187
0.0083981454 0 0.025542738 0.52287865 -0.32315677 0.19972187
0.010238038 0 0.025991727 0.52287865 -0.32315677 0.19972187
0.012068523 0 0.026438473 0.52287865 -0.32315677 0.19972187
0.013889682 0 0.026882999 0.52287865 -0.32315677 0.19972187
0.015701592 0 0.027325323 0.52287865 -0.32315677 0.19972187
0.017504334 0 0.027765462 0.52287865 -0.32315677 0.19972187
0.019297985 0 0.028203439 0.52287865 -0.32315677 0.19972187
0.021082623 0 0.028639266 0.52287865 -0.32315677 0.19972187
0.022858324 0 0.029072966 0.52287865 -0.32315677 0.19972187
0.02462516 0 0.029504556 0.52287865 -0.32315677 0.19972187
0.026383212 0 0.029934054 0.52287865 -0.32315677 0.19972187
0.028132547 0 0.030361477 0.52287865 -0.32315677 0.19972187
0.029873243 0 0.03078684 0.52287865 -0.32315677 0.19972187
0.031605367 0 0.031210165 0.52287865 -0.32315677 0.19972187
0.033328995 0 0.031631466 0.52287865 -0.32315677 0.19972187
0.035044197 0 0.032050762 0.52287865 -0.32315677 0.19972187
0.036751043 0 0.032468066 0.52287865 -0.32315677 0.19972187
0.038449597 0 0.032883398 0.52287865 -0.32315677 0.19972187
0.039999999 9.3673472e-05 0.033248529 0.52287865 -0.32315677 0.19972187
0.039999999 0.0012240312 0.033079389 0.52287865 -0.32315677 0.19972187
0.039999999 0.0023568315 0.032909937 0.52287865 -0.32315677 0.19972187
0.039999999 0.0034920871 0.032740168 0.52287865 -0.32315677 0.19972187
0.039999999 0.0046298122 0.032570086 0.52287865 -0.32315677 0.19972187
0.039999999 0.0057700193 0.032399688 0.52287865 -0.32315677 0.19972187
0.039999999 0.0069127227 0.032228965 0.52287865 -0.32315677 0.19972187
0.039999999 0.0080579361 0.032057922 0.52287865 -0.32315677 0.19972187
0.039999999 0.0092056729 0.031886559 0.52287865 -0.32315677 0.19972187
0.039999999 0.010355947 0.031714868 0.52287865 -0.32315677 0.19972187
0.039999999 0.011508772 0.031542849 0.52287865 -0.32315677 0.19972187
0.039999999 0.012664163 0.031370502 0.52287865 -0.32315677 0.19972187
0.039999999 0.013822133 0.031197825 0.52287865 -0.32315677 0.19972187
0.039999999 0.014982696 0.031024814 0.52287865 -0.32315677 0.19972187
0.039999999 0.016145866 0.030851467 0.52287865 -0.32315677 0.19972187
0.039999999 0.017311659 0.030677784 0.52287865 -0.32315677 0.19972187
0.039999999 0.018480089 0.030503763 0.52287865 -0.32315677 0.19972187
0.039999999 0.019651169 0.030329401 0.52287865 -0.32315677 0.19972187
0.039999999 0.020824915 0.030154694 0.52287865 -0.32315677 0.19972187
0 0.050593045 0.015918784 0.52287865 -0.32315677 0.19972187
0.039999999 0.023180461 0.029804247 0.52287865 -0.32315677 0.19972187
0.039999999 0.024362292 0.0296285 0.52287865 -0.32315677 0.19972187
0.039999999 0.025546847 0.029452404 0.52287865 -0.32315677 0.19972187
0 0.055717897 0.015156803 0.52287865 -0.32315677 0.19972187
0.039999999 0.027924193 0.02909915 0.52287865 -0.32315677 0.19972187
0.039999999 0.029117014 0.028921988 0.52287865 -0.32315677 0.19972187
0.039999999 0.030312622 0.028744467 0.52287865 -0.32315677 0.19972187
0.039999999 0.031511031 0.028566584 0.52287865 -0.32315677 0.19972187
0.039999999 0.032712255 0.028388338 0.52287865 -0.32315677 0.19972187
0.039999999 0.033916313 0.028209727 0.52287865 -0.32315677 0.19972187
0.039999999 0.035123218 0.028030748 0.52287865 -0.32315677 0.19972187
0 0.066111878 0.013614241 0.52287865 -0.32315677 0.19972187
0.039999999 0.03754564 0.027671678 0.52287865 -0.32315677 0.19972187
0.039999999 0.038761184 0.027491583 0.52287865 -0.32315677 0.19972187
0.039999999 0.039979644 0.027311111 0.52287865 -0.32315677 0.19972187
0.039999999 0.041201029 0.027130261 0.52287865 -0.32315677 0.19972187
0.039999999 0.042425361 0.026949029 0.52287865 -0.32315677 0.19972187
0.039999999 0.043652657 0.026767414 0.52287865 -0.32315677 0.19972187
0.039999999 0.044882927 0.026585415 0.52287865 -0.32315677 0.19972187
0.039999999 0.046116192 0.026403029 0.52287865 -0.32315677 0.19972187
0.039999999 0.04735247 0.026220251 0.52287865 -0.32315677 0.19972187
0.039999999 0.048591778 0.026037082 0.52287865 -0.32315677 0.19972187
0.039999999 0.049834128 0.025853518 0.52287865 -0.32315677 0.19972187
0.039999999 0.051079545 0.025669558 0.52287865 -0.32315677 0.19972187
0.004413479 0.079999998 0.012644544 0.52287865 -0.32315677 0.19972187
0.039999999 0.053579632 0.025300436 0.52287865 -0.32315677 0.19972187
0.039999999 0.05483434 0.02511527 0.52287865 -0.32315677 0.19972187
0.039999999 0.056092177 0.024929699 0.52287865 -0.32315677 0.19972187
0.039999999 0.057353169 0.024743719 0.52287865 -0.32315677 0.19972187
0.039999999 0.058617327 0.024557328 0.52287865 -0.32315677 0.19972187
0.014641745 0.079999998 0.015161987 0.52287865 -0.32315677 0.19972187
0.039999999 0.061155219 0.024183301 0.52287865 -0.32315677 0.19972187
0.039999999 0.062428989 0.02399566 0.52287865 -0.32315677 0.19972187
0.039999999 0.063706003 0.0238076 0.52287865 -0.32315677 0.19972187
0.039999999 0.064986274 0.023619115 0.52287865 -0.32315677 0.19972187
0.022974942 0.079999998 0.017214615 0.52287865 -0.32315677 0.19972187
0.039999999 0.067556664 0.023240866 0.52287865 -0.32315677 0.19972187
0.039999999 0.068846822 0.023051096 0.52287865 -0.32315677 0.19972187
0.039999999 0.070140317 0.022860894 0.52287865 -0.32315677 0.19972187
0.039999999 0.071437165 0.022670254 0.52287865 -0.32315677 0.19972187
0.031141672 0.079999998 0.019227687 0.52287865 -0.32315677 0.19972187
0.039999999 0.074041001 0.022287654 0.52287865 -0.32315677 0.19972187
0.039999999 0.075348027 0.02209569 0.52287865 -0.32315677 0.19972187
0.039999999 0.07665848 0.021903278 0.52287865 -0.32315677 0.19972187
0.039999999 0.077972382 0.021710418 0.52287865 -0.32315677 0.19972187
0.039999999 0.079289764 0.021517105 0.52287865 -0.32315677 0.19972187
0.0009433236 0 0.022691699 0.52287865 -0.32315677 0.19972187
0.0028226057 0 0.023152759 0.52287865 -0.32315677 0.19972187
0.0046921386 0 0.023611482 0.52287865 -0.32315677 0.19972187
0.006552007 0 0.024067886 0.52287865 -0.32315677 0.19972187
0.0084022945 0 0.024521993 0.52287865 -0.32315677 0.19972187
0.010243083 0 0.024973821 0.52287865 -0.32315677 0.19972187
0.012074456 0 0.025423391 0.52287865 -0.32315677 0.19972187
0.013896491 0 0.02587072 0.52287865 -0.32315677 0.19972187
0.01570927 0 0.026315831 0.52287865 -0.32315677 0.19972187
0.017512873 0 0.02675874 0.52287865 -0.32315677 0.19972187
0.019307375 0 0.027199466 0.52287865 -0.32315677 0.19972187
0.021092854 0 0.027638029 0.52287865 -0.32315677 0.19972187
0.02286939 0 0.028074445 0.52287865 -0.32315677 0.19972187
0.024637053 0 0.028508736 0.52287865 -0.32315677 0.19972187
0.026395921 0 0.028940916 0.52287865 -0.32315677 0.19972187
0.028146066 0 0.029371005 0.52287865 -0.32315677 0.19972187
0.029887563 0 0.02979902 0.52287865 -0.32315677 0.19972187
0.03162048 0 0.030224977 0.52287865 -0.32315677 0.19972187
0.033344895 0 0.030648896 0.52287865 -0.32315677 0.19972187
0.035060871 0 0.031070791 0.52287865 -0.32315677 0.19972187
0.036768485 0 0.031490684 0.52287865 -0.32315677 0.19972187
0.038467802 0 0.031908583 0.52287865 -0.32315677 0.19972187
0.039999999 0.0001063708 0.032269411 0.52287865 -0.32315677 0.19972187
0.039999999 0.0012373213 0.032099128 0.52287865 -0.32315677 0.19972187
0.039999999 0.0023707165 0.031928524 0.52287865 -0.32315677 0.19972187
0.039999999 0.0035065704 0.031757608 0.52287865 -0.32315677 0.19972187
0.039999999 0.0046448954 0.031586364 0.52287865 -0.32315677 0.19972187
0.039999999 0.005785706 0.031414803 0.52287865 -0.32315677 0.19972187
0.039999999 0.0069290153 0.031242913 0.52287865 -0.32315677 0.19972187
0.039999999 0.0080748368 0.031070698 0.52287865 -0.32315677 0.19972187
0.039999999 0.0092231845 0.030898154 0.52287865 -0.32315677 0.19972187
0.039999999 0.010374073 0.03072528 0.52287865 -0.32315677 0.19972187
0.039999999 0.011527514 0.030552074 0.52287865 -0.32315677 0.19972187
0.039999999 0.012683524 0.030378534 0.52287865 -0.32315677 0.19972187
0 0.041757941 0.016162435 0.52287865 -0.32315677 0.19972187
0.039999999 0.015003304 0.030030441 0.52287865 -0.32315677 0.19972187
0 0.044275519 0.015784772 0.52287865 -0.32315677 0.19972187
0.039999999 0.017333526 0.029680988 0.52287865 -0.32315677 0.19972187
0.039999999 0.018502587 0.029505745 0.52287865 -0.32315677 0.19972187
0.039999999 0.019674305 0.029330157 0.52287865 -0.32315677 0.19972187
0.039999999 0.02084869 0.029154221 0.52287865 -0.32315677 0.19972187
0.039999999 0.022025757 0.028977934 0.52287865 -0.32315677 0.19972187
0.039999999 0.023205522 0.028801296 0.52287865 -0.32315677 0.19972187
0.039999999 0.024388 0.028624304 0.52287865 -0.32315677 0.19972187
0.039999999 0.025573207 0.028446954 0.52287865 -0.32315677 0.19972187
0.039999999 0.026761157 0.028269246 0.52287865 -0.32315677 0.19972187
0 0.057036493 0.013873884 0.52287865 -0.32315677 0.19972187
0 0.058328837 0.013680671 0.52287865 -0.32315677 0.19972187
0.039999999 0.030341616 0.027733952 0.52287865 -0.32315677 0.19972187
0.039999999 0.031540692 0.027554788 0.52287865 -0.32315677 0.19972187
0.039999999 0.032742586 0.027375257 0.52287865 -0.32315677 0.19972187
0.039999999 0.033947315 0.027195355 0.52287865 -0.32315677 0.19972187
0.039999999 0.035154898 0.027015079 0.52287865 -0.32315677 0.19972187
0.039999999 0.036365345 0.026834426 0.52287865 -0.32315677 0.19972187
0.039999999 0.037578676 0.026653396 0.52287865 -0.32315677 0.19972187
0.039999999 0.038794909 0.026471987 0.52287865 -0.32315677 0.19972187
0.039999999 0.040014055 0.026290195 0.52287865 -0.32315677 0.19972187
0.039999999 0.041236136 0.026108019 0.52287865 -0.32315677 0.19972187
0.039999999 0.042461161 0.025925456 0.52287865 -0.32315677 0.19972187
0.039999999 0.043689154 0.025742505 0.52287865 -0.32315677 0.19972187
0.039999999 0.044920128 0.025559161 0.52287865 -0.32315677 0.19972187
0.039999999 0.0461541 0.025375426 0.52287865 -0.32315677 0.19972187
0.039999999 0.047391087 0.025191292 0.52287865 -0.32315677 0.19972187
0 0.079428725 0.010533965 0.52287865 -0.32315677 0.19972187
0.039999999 0.049874172 0.024821831 0.52287865 -0.32315677 0.19972187
0.039999999 0.051120307 0.024636496 0.52287865 -0.32315677 0.19972187
0.004470753 0.079999998 0.011554658 0.52287865 -0.32315677 0.19972187
0.039999999 0.05362184 0.024264609 0.52287865 -0.32315677 0.19972187
0.039999999 0.054877277 0.024078052 0.52287865 -0.32315677 0.19972187
0.039999999 0.057397578 0.023703698 0.52287865 -0.32315677 0.19972187
0.039999999 0.058662478 0.023515897 0.52287865 -0.32315677 0.19972187
0.039999999 0.059930567 0.023327675 0.52287865 -0.32315677 0.19972187
0.039999999 0.061201863 0.023139032 0.52287865 -0.32315677 0.19972187
0.039999999 0.062476385 0.022949962 0.52287865 -0.32315677 0.19972187
0.039999999 0.063754149 0.022760466 0.52287865 -0.32315677 0.19972187
0.039999999 0.065035179 0.022570539 0.52287865 -0.32315677 0.19972187
0.039999999 0.066319495 0.022380181 0.52287865 -0.32315677 0.19972187
0.039999999 0.067607105 0.022189386 0.52287865 -0.32315677 0.19972187
0.039999999 0.068898037 0.021998156 0.52287865 -0.32315677 0.19972187
0.039999999 0.070192307 0.021806484 0.52287865 -0.32315677 0.19972187
0.039999999 0.071489938 0.021614369 0.52287865 -0.32315677 0.19972187
0.039999999 0.072790936 0.021421809 0.52287865 -0.32315677 0.19972187
0.039999999 0.074095339 0.021228801 0.52287865 -0.32315677 0.19972187
0.039999999 0.075403154 0.021035342 0.52287865 -0.32315677 0.19972187
0.039999999 0.076714404 0.020841429 0.52287865 -0.32315677 0.19972187
0.039999999 0.078029111 0.02064706 0.52287865 -0.32315677 0.19972187
0.039999999 0.07934729 0.020452233 0.52287865 -0.32315677 0.19972187
0.00094379473 0 0.021658486 0.52287865 -0.32315677 0.19972187
0.0028240117 0 0.022122467 0.52287865 -0.32315677 0.19972187
0.0046944697 0 0.02258409 0.52287865 -0.32315677 0.19972187
0.0065552541 0 0.023043375 0.52287865 -0.32315677 0.19972187
0.0084064472 0 0.023500346 0.52287865 -0.32315677 0.19972187
0.010248133 0 0.023955019 0.52287865 -0.32315677 0.19972187
0.012080393 0 0.024407415 0.52287865 -0.32315677 0.19972187
0.013903307 0 0.024857555 0.52287865 -0.32315677 0.19972187
0.015716957 0 0.025305456 0.52287865 -0.32315677 0.19972187
0.017521419 0 0.025751138 0.52287865 -0.32315677 0.19972187
0.019316774 0 0.026194621 0.52287865 -0.32315677 0.19972187
0.021103097 0 0.026635922 0.52287865 -0.32315677 0.19972187
0.022880467 0 0.027075062 0.52287865 -0.32315677 0.19972187
0.024648955 0 0.027512055 0.52287865 -0.32315677 0.19972187
0.026408641 0 0.027946923 0.52287865 -0.32315677 0.19972187
0.028159596 0 0.028379684 0.52287865 -0.32315677 0.19972187
0.029901894 0 0.028810352 0.52287865 -0.32315677 0.19972187
0.031635609 0 0.029238949 0.52287865 -0.32315677 0.19972187
0.033360805 0 0.029665489 0.52287865 -0.32315677 0.19972187
0.035077561 0 0.030089991 0.52287865 -0.32315677 0.19972187
0.036785945 0 0.030512471 0.52287865 -0.32315677 0.19972187
0.038486026 0 0.030932946 0.52287865 -0.32315677 0.19972187
0.039999999 0.0001190798 0.031289387 0.52287865 -0.32315677 0.19972187
0.039999999 0.0012506235 0.031117961 0.52287865 -0.32315677 0.19972187
0.039999999 0.0023846147 0.03094621 0.52287865 -0.32315677 0.19972187
0.039999999 0.0035210669 0.030774135 0.52287865 -0.32315677 0.19972187
0.039999999 0.0046599931 0.030601734 0.52287865 -0.32315677 0.19972187
0.039999999 0.0058014072 0.030429006 0.52287865 -0.32315677 0.19972187
0 0.034289841 0.016217975 0.52287865 -0.32315677 0.19972187
0.039999999 0.0080917533 0.030082555 0.52287865 -0.32315677 0.19972187
0.039999999 0.009240713 0.029908832 0.52287865 -0.32315677 0.19972187
0.039999999 0.010392215 0.029734772 0.52287865 -0.32315677 0.19972187
0.039999999 0.011546274 0.029560374 0.52287865 -0.32315677 0.19972187
0.039999999 0.012702904 0.029385637 0.52287865 -0.32315677 0.19972187
0 0.0417796 0.015085991 0.52287865 -0.32315677 0.19972187
0.039999999 0.015023931 0.029035138 0.52287865 -0.32315677 0.19972187
0.039999999 0.016188357 0.028859371 0.52287865 -0.32315677 0.19972187
0.039999999 0.017355412 0.028683256 0.52287865 -0.32315677 0.19972187
0.039999999 0.018525109 0.028506791 0.52287865 -0.32315677 0.19972187
0.039999999 0.019697461 0.028329976 0.52287865 -0.32315677 0.19972187
0.039999999 0.020872487 0.028152807 0.52287865 -0.32315677 0.19972187
0.039999999 0.022050196 0.027975282 0.52287865 -0.32315677 0.19972187
0.039999999 0.023230609 0.027797399 0.52287865 -0.32315677 0.19972187
0.039999999 0.024413735 0.027619157 0.52287865 -0.32315677 0.19972187
0.039999999 0.025599593 0.027440554 0.52287865 -0.32315677 0.19972187
0 0.055776432 0.01297557 0.52287865 -0.32315677 0.19972187
0.039999999 0.027979562 0.027082251 0.52287865 -0.32315677 0.19972187
0.039999999 0.029173704 0.026902549 0.52287865 -0.32315677 0.19972187
0.039999999 0.030370638 0.026722476 0.52287865 -0.32315677 0.19972187
0.039999999 0.031570379 0.02654203 0.52287865 -0.32315677 0.19972187
0.039999999 0.032772943 0.02636121 0.52287865 -0.32315677 0.19972187
0.039999999 0.033978347 0.026180014 0.52287865 -0.32315677 0.19972187
0.039999999 0.035186604 0.025998438 0.52287865 -0.32315677 0.19972187
0.039999999 0.036397733 0.025816482 0.52287865 -0.32315677 0.19972187
0.039999999 0.037611749 0.02563414 0.52287865 -0.32315677 0.19972187
0.039999999 0.038828664 0.025451414 0.52287865 -0.32315677 0.19972187
0.039999999 0.040048502 0.0252683 0.52287865 -0.32315677 0.19972187
0.039999999 0.041271273 0.025084795 0.52287865 -0.32315677 0.19972187
0 0.072786495 0.010419331 0.52287865 -0.32315677 0.19972187
0 0.07411696 0.010219774 0.52287865 -0.32315677 0.19972187
0.039999999 0.044957362 0.024531918 0.52287865 -0.32315677 0.19972187
0.039999999 0.046192039 0.024346828 0.52287865 -0.32315677 0.19972187
0.039999999 0.047429737 0.024161339 0.52287865 -0.32315677 0.19972187
0 0.07947135 0.0094172154 0.52287865 -0.32315677 0.19972187
0.039999999 0.049914252 0.023789141 0.52287865 -0.32315677 0.19972187
0.0027971677 0.079999998 0.010033511 0.52287865 -0.32315677 0.19972187
0.039999999 0.052411046 0.02341531 0.52287865 -0.32315677 0.19972187
0.039999999 0.053664092 0.023227775 0.52287865 -0.32315677 0.19972187
0.039999999 0.05492026 0.023039823 0.52287865 -0.32315677 0.19972187
0.039999999 0.056179568 0.022851452 0.52287865 -0.32315677 0.19972187
0.039999999 0.057442032 0.022662662 0.52287865 -0.32315677 0.19972187
0.039999999 0.058707673 0.022473445 0.52287865 -0.32315677 0.19972187
0.014763569 0.079999998 0.013010453 0.52287865 -0.32315677 0.19972187
0.039999999 0.061248552 0.022093736 0.52287865 -0.32315677 0.19972187
0.039999999 0.062523827 0.021903234 0.52287865 -0.32315677 0.19972187
0.039999999 0.063802354 0.021712299 0.52287865 -0.32315677 0.19972187
0.039999999 0.065084144 0.021520928 0.52287865 -0.32315677 0.19972187
0.039999999 0.066369221 0.021329118 0.52287865 -0.32315677 0.19972187
0.039999999 0.067657597 0.021136865 0.52287865 -0.32315677 0.19972187
0.039999999 0.068949305 0.020944169 0.52287865 -0.32315677 0.19972187
0.039999999 0.07024435 0.020751027 0.52287865 -0.32315677 0.19972187
0.039999999 0.071542755 0.020557435 0.52287865 -0.32315677 0.19972187
0.039999999 0.072844543 0.02036339 0.52287865 -0.32315677 0.19972187
0.032889698 0.079999998 0.017525006 0.52287865 -0.32315677 0.19972187
0.039999999 0.07545834 0.019973936 0.52287865 -0.32315677 0.19972187
0.039999999 0.076770388 0.019778518 0.52287865 -0.32315677 0.19972187
0.037696455 0.079999998 0.018723294 0.52287865 -0.32315677 0.19972187
0.039999999 0.079404876 0.019386293 0.52287865 -0.32315677 0.19972187
0.00094426627 0 0.020624343 0.52287865 -0.32315677 0.19972187
0.002825419 0 0.021091249 0.52287865 -0.32315677 0.19972187
0.0046968032 0 0.021555778 0.52287865 -0.32315677 0.19972187
0.0065585035 0 0.02201795 0.52287865 -0.32315677 0.19972187
0.0084106037 0 0.022477789 0.52287865 -0.32315677 0.19972187
0.010253187 0 0.022935312 0.52287865 -0.32315677 0.19972187
0.012086336 0 0.023390541 0.52287865 -0.32315677 0.19972187
0.01391013 0 0.023843493 0.52287865 -0.32315677 0.19972187
0.015724648 0 0.02429419 0.52287865 -0.32315677 0.19972187
0.017529972 0 0.024742652 0.52287865 -0.32315677 0.19972187
0.01932618 0 0.025188895 0.52287865 -0.32315677 0.19972187
0.021113347 0 0.02563294 0.52287865 -0.32315677 0.19972187
0.022891551 0 0.026074806 0.52287865 -0.32315677 0.19972187
0.024660869 0 0.02651451 0.52287865 -0.32315677 0.19972187
0.026421374 0 0.026952071 0.52287865 -0.32315677 0.19972187
0.028173139 0 0.027387507 0.52287865 -0.32315677 0.19972187
0.029916238 0 0.027820837 0.52287865 -0.32315677 0.19972187
0.031650744 0 0.028252074 0.52287865 -0.32315677 0.19972187
0.033376731 0 0.028681241 0.52287865 -0.32315677 0.19972187
0.035094265 0 0.029108353 0.52287865 -0.32315677 0.19972187
0.036803421 0 0.029533427 0.52287865 -0.32315677 0.19972187
0.038504262 0 0.02995648 0.52287865 -0.32315677 0.19972187
0.039999999 0.00013180055 0.030308463 0.52287865 -0.32315677 0.19972187
0.039999999 0.0012639381 0.030135887 0.52287865 -0.32315677 0.19972187
0.039999999 0.0023985258 0.029962983 0.52287865 -0.32315677 0.19972187
0.039999999 0.0035355769 0.029789751 0.52287865 -0.32315677 0.19972187
0.039999999 0.0046751047 0.029616188 0.52287865 -0.32315677 0.19972187
0.039999999 0.0058171232 0.029442292 0.52287865 -0.32315677 0.19972187
1.110223e-16 0.034307517 0.015148255 0.52287865 -0.32315677 0.19972187
0 0.035549574 0.014959226 0.52287865 -0.32315677 0.19972187
0 0.036794372 0.014769831 0.52287865 -0.32315677 0.19972187
0.039999999 0.010410375 0.028743338 0.52287865 -0.32315677 0.19972187
0.039999999 0.011565051 0.028567748 0.52287865 -0.32315677 0.19972187
0.039999999 0.012722301 0.028391812 0.52287865 -0.32315677 0.19972187
0.039999999 0.013882139 0.028215531 0.52287865 -0.32315677 0.19972187
0.039999999 0.015044578 0.0280389 0.52287865 -0.32315677 0.19972187
0.039999999 0.016209634 0.027861919 0.52287865 -0.32315677 0.19972187
0.039999999 0.017377319 0.027684584 0.52287865 -0.32315677 0.19972187
0.039999999 0.01854765 0.027506895 0.52287865 -0.32315677 0.19972187
0.039999999 0.019720642 0.027328851 0.52287865 -0.32315677 0.19972187
0.039999999 0.020896306 0.027150445 0.52287865 -0.32315677 0.19972187
0.039999999 0.02207466 0.026971679 0.52287865 -0.32315677 0.19972187
0.039999999 0.023255717 0.02679255 0.52287865 -0.32315677 0.19972187
0.039999999 0.024439493 0.026613057 0.52287865 -0.32315677 0.19972187
0.039999999 0.025626004 0.026433196 0.52287865 -0.32315677 0.19972187
0.039999999 0.026815264 0.026252965 0.52287865 -0.32315677 0.19972187
0.039999999 0.028007288 0.026072362 0.52287865 -0.32315677 0.19972187
0.039999999 0.029202091 0.025891386 0.52287865 -0.32315677 0.19972187
0.039999999 0.030399688 0.025710033 0.52287865 -0.32315677 0.19972187
0.039999999 0.031600095 0.025528304 0.52287865 -0.32315677 0.19972187
0.039999999 0.032803331 0.025346193 0.52287865 -0.32315677 0.19972187
0.039999999 0.034009408 0.025163699 0.52287865 -0.32315677 0.19972187
0.039999999 0.035218343 0.024980823 0.52287865 -0.32315677 0.19972187
0.039999999 0.03643015 0.024797557 0.52287865 -0.32315677 0.19972187
0.039999999 0.037644852 0.024613902 0.52287865 -0.32315677 0.19972187
0.039999999 0.038862456 0.024429858 0.52287865 -0.32315677 0.19972187
0 0.070172504 0.0097095538 0.52287865 -0.32315677 0.19972187
0.039999999 0.041306444 0.024060583 0.52287865 -0.32315677 0.19972187
0.039999999 0.042532865 0.023875348 0.52287865 -0.32315677 0.19972187
0.039999999 0.043762255 0.023689713 0.52287865 -0.32315677 0.19972187
0.039999999 0.044994634 0.023503676 0.52287865 -0.32315677 0.19972187
0.039999999 0.046230018 0.023317233 0.52287865 -0.32315677 0.19972187
0.039999999 0.047468424 0.023130381 0.52287865 -0.32315677 0.19972187
0 0.079514019 0.0082993777 0.52287865 -0.32315677 0.19972187
0.039999999 0.049954373 0.022755446 0.52287865 -0.32315677 0.19972187
0.039999999 0.051201947 0.022567356 0.52287865 -0.32315677 0.19972187
0.0045854305 0.079999998 0.0093724206 0.52287865 -0.32315677 0.19972187
0.0063097226 0.079999998 0.0098035792 0.52287865 -0.32315677 0.19972187
0.039999999 0.054963283 0.022000574 0.52287865 -0.32315677 0.19972187
0.039999999 0.056223325 0.0218108 0.52287865 -0.32315677 0.19972187
0.011439736 0.079999998 0.011086649 0.52287865 -0.32315677 0.19972187
0.039999999 0.058752913 0.021429967 0.52287865 -0.32315677 0.19972187
0.039999999 0.060022492 0.021238904 0.52287865 -0.32315677 0.19972187
0.039999999 0.06129529 0.021047406 0.52287865 -0.32315677 0.19972187
0.018181682 0.079999998 0.012773596 0.52287865 -0.32315677 0.19972187
0.039999999 0.063850597 0.020663094 0.52287865 -0.32315677 0.19972187
0.039999999 0.065133147 0.020470275 0.52287865 -0.32315677 0.19972187
0.039999999 0.06641899 0.02027701 0.52287865 -0.32315677 0.19972187
0.039999999 0.067708142 0.020083297 0.52287865 -0.32315677 0.19972187
0.039999999 0.069000617 0.019889133 0.52287865 -0.32315677 0.19972187
0.039999999 0.070296437 0.019694516 0.52287865 -0.32315677 0.19972187
0.039999999 0.071595632 0.019499445 0.52287865 -0.32315677 0.19972187
0.039999999 0.072898202 0.019303914 0.52287865 -0.32315677 0.19972187
0.039999999 0.074204177 0.019107921 0.52287865 -0.32315677 0.19972187
0.039999999 0.075513579 0.018911464 0.52287865 -0.32315677 0.19972187
0.039999999 0.076826423 0.01871454 0.52287865 -0.32315677 0.19972187
0.039999999 0.078142732 0.018517146 0.52287865 -0.32315677 0.19972187
0.039999999 0.079462521 0.018319279 0.52287865 -0.32315677 0.19972187
0.00094473822 0 0.019589264 0.52287865 -0.32315677 0.19972187
0.0028268273 0 0.020059099 0.52287865 -0.32315677 0.19972187
0.0046991385 0 0.02052654 0.52287865 -0.32315677 0.19972187
0.0065617561 0 0.020991605 0.52287865 -0.32315677 0.19972187
0.0084147649 0 0.021454316 0.52287865 -0.32315677 0.19972187
0.010258246 0 0.021914694 0.52287865 -0.32315677 0.19972187
0.012092284 0 0.02237276 0.52287865 -0.32315677 0.19972187
0.013916957 0 0.022828532 0.52287865 -0.32315677 0.19972187
0.015732348 0 0.023282031 0.52287865 -0.32315677 0.19972187
0.017538534 0 0.023733277 0.52287865 -0.32315677 0.19972187
0.019335594 0 0.024182286 0.52287865 -0.32315677 0.19972187
0.021123607 0 0.024629079 0.52287865 -0.32315677 0.19972187
0.022902647 0 0.025073677 0.52287865 -0.32315677 0.19972187
0.024672791 0 0.025516095 0.52287865 -0.32315677 0.19972187
0.026434116 0 0.025956353 0.52287865 -0.32315677 0.19972187
0.028186692 0 0.02639447 0.52287865 -0.32315677 0.19972187
0.029930595 0 0.026830463 0.52287865 -0.32315677 0.19972187
0.031665899 0 0.027264349 0.52287865 -0.32315677 0.19972187
0.033392671 0 0.027696146 0.52287865 -0.32315677 0.19972187
0.035110984 0 0.028125873 0.52287865 -0.32315677 0.19972187
0.036820911 0 0.028553545 0.52287865 -0.32315677 0.19972187
0.038522515 0 0.028979182 0.52287865 -0.32315677 0.19972187
1.110223e-16 0.026925696 0.015211667 0.52287865 -0.32315677 0.19972187
