# .PCD v0.7 - Point Cloud Data file format
VERSION 0.7
FIELDS x y z vp_x vp_y vp_z
SIZE 4 4 4 4 4 4
TYPE F F F F F F
COUNT 1 1 1 1 1 1
WIDTH 809
HEIGHT 1
VIEWPOINT 0 0 0 1 0 0 0
POINTS 809
DATA ascii
0.039999999 0.018915839 0.036411099 0.33897066 0.54846609 0
0.039999999 0.020831952 0.036311239 0.33897066 0.54846609 0
0.039999999 0.022737587 0.036212012 0.33897066 0.54846609 0
0.039999999 0.024632841 0.036113411 0.33897066 0.54846609 0
0.039999999 0.026517805 0.036015432 0.33897066 0.54846609 0
0.039999999 0.028392574 0.035918072 0.33897066 0.54846609 0
0.039999999 0.030257238 0.035821322 0.33897066 0.54846609 0
0.039999999 0.032111891 0.035725176 0.33897066 0.54846609 0
0.039999999 0.033956613 0.035629634 0.33897066 0.54846609 0
0.039999999 0.035791505 0.035534684 0.33897066 0.54846609 0
0.039999999 0.037616644 0.035440326 0.33897066 0.54846609 0
0.039999999 0.039432123 0.035346553 0.33897066 0.54846609 0
0.039999999 0.041238021 0.035253357 0.33897066 0.54846609 0
0.039999999 0.043034427 0.035160739 0.33897066 0.54846609 0
0.039999999 0.044821423 0.035068691 0.33897066 0.54846609 0
0.039999999 0.04659909 0.034977205 0.33897066 0.54846609 0
0.039999999 0.048367515 0.034886282 0.33897066 0.54846609 0
0.039999999 0.050126769 0.034795914 0.33897066 0.54846609 0
0.039999999 0.05187694 0.034706093 0.33897066 0.54846609 0
0.039999999 0.0536181 0.034616821 0.33897066 0.54846609 0
0.039999999 0.05535033 0.034528088 0.33897066 0.54846609 0
0.039999999 0.057073709 0.034439892 0.33897066 0.54846609 0
0.039999999 0.058788307 0.034352232 0.33897066 0.54846609 0
0.039999999 0.060494207 0.034265094 0.33897066 0.54846609 0
0.039999999 0.062191475 0.034178484 0.33897066 0.54846609 0
0.039999999 0.06388019 0.034092389 0.33897066 0.54846609 0
0.039999999 0.065560423 0.034006812 0.33897066 0.54846609 0
0.039999999 0.067232244 0.033921741 0.33897066 0.54846609 0
0.039999999 0.068895727 0.033837177 0.33897066 0.54846609 0
0.039999999 0.070550941 0.033753116 0.33897066 0.54846609 0
0.039999999 0.072197951 0.033669554 0.33897066 0.54846609 0
0.039999999 0.073836841 0.033586483 0.33897066 0.54846609 0
0.039999999 0.075467661 0.033503905 0.33897066 0.54846609 0
0.039999999 0.077090479 0.033421811 0.33897066 0.54846609 0
0.039999999 0.078705378 0.033340197 0.33897066 0.54846609 0
0 0.017677009 0.037708871 0.33897066 0.54846609 0
0 0.019490207 0.037617415 0.33897066 0.54846609 0
0 0.021294635 0.037526496 0.33897066 0.54846609 0
0.036717907 0.079999998 0.033380959 0.33897066 0.54846609 0
0.035686262 0.079999998 0.033414487 0.33897066 0.54846609 0
0 0.026656019 0.037256889 0.33897066 0.54846609 0
0.033616729 0.079999998 0.033481989 0.33897066 0.54846609 0
0.032578822 0.079999998 0.033515964 0.33897066 0.54846609 0
0.031538799 0.079999998 0.033550091 0.33897066 0.54846609 0
0.030496657 0.079999998 0.033584367 0.33897066 0.54846609 0
0.02945238 0.079999998 0.033618793 0.33897066 0.54846609 0
0.028405957 0.079999998 0.033653371 0.33897066 0.54846609 0
0.027357377 0.079999998 0.033688106 0.33897066 0.54846609 0
0.026306627 0.079999998 0.033722989 0.33897066 0.54846609 0
0.025253698 0.079999998 0.033758029 0.33897066 0.54846609 0
0 0.043985967 0.036391124 0.33897066 0.54846609 0
0.023141246 0.079999998 0.033828568 0.33897066 0.54846609 0
0.022081701 0.079999998 0.033864073 0.33897066 0.54846609 0
0.021019928 0.079999998 0.033899736 0.33897066 0.54846609 0
0.019955913 0.079999998 0.033935554 0.33897066 0.54846609 0
0 0.052353378 0.035976365 0.33897066 0.54846609 0
0.017821111 0.079999998 0.034007661 0.33897066 0.54846609 0
0.016750298 0.079999998 0.034043957 0.33897066 0.54846609 0
0.015677195 0.079999998 0.034080409 0.33897066 0.54846609 0
0.01460179 0.079999998 0.034117024 0.33897066 0.54846609 0
0 0.060532697 0.035573073 0.33897066 0.54846609 0
0.012444018 0.079999998 0.034190737 0.33897066 0.54846609 0
0.011361627 0.079999998 0.034227837 0.33897066 0.54846609 0
0.010276881 0.079999998 0.034265097 0.33897066 0.54846609 0
0.0091897687 0.079999998 0.034302525 0.33897066 0.54846609 0
0.0081002759 0.079999998 0.034340117 0.33897066 0.54846609 0
0.0070083896 0.079999998 0.034377873 0.33897066 0.54846609 0
0.0059140977 0.079999998 0.0344158 0.33897066 0.54846609 0
0.0048173857 0.079999998 0.034453887 0.33897066 0.54846609 0
0.0037182404 0.079999998 0.034492146 0.33897066 0.54846609 0
0.0026166493 0.079999998 0.034530576 0.33897066 0.54846609 0
0.0015125979 0.079999998 0.03456917 0.33897066 0.54846609 0
0.00040607303 0.079999998 0.034607936 0.33897066 0.54846609 0
0.039999999 0.001183143 0.036367241 0.33897066 0.54846609 0
0.039999999 0.0031980094 0.03626417 0.33897066 0.54846609 0
0.039999999 0.0052014915 0.036161765 0.33897066 0.54846609 0
0.039999999 0.0071936958 0.036060024 0.33897066 0.54846609 0
0.039999999 0.009174726 0.035958942 0.33897066 0.54846609 0
0.039999999 0.011144686 0.035858512 0.33897066 0.54846609 0
0.039999999 0.013103677 0.035758726 0.33897066 0.54846609 0
0.039999999 0.0150518 0.035659581 0.33897066 0.54846609 0
0.039999999 0.016989155 0.03556107 0.33897066 0.54846609 0
0.039999999 0.018915839 0.035463184 0.33897066 0.54846609 0
0.039999999 0.020831952 0.035365924 0.33897066 0.54846609 0
0.039999999 0.022737587 0.035269279 0.33897066 0.54846609 0
0.039999999 0.024632841 0.035173245 0.33897066 0.54846609 0
0.039999999 0.026517805 0.035077818 0.33897066 0.54846609 0
0.039999999 0.028392574 0.034982994 0.33897066 0.54846609 0
0.039999999 0.030257238 0.034888763 0.33897066 0.54846609 0
0.039999999 0.032111891 0.03479512 0.33897066 0.54846609 0
0.039999999 0.033956613 0.034702063 0.33897066 0.54846609 0
0.039999999 0.035791505 0.034609586 0.33897066 0.54846609 0
0.039999999 0.037616644 0.034517687 0.33897066 0.54846609 0
0.039999999 0.039432123 0.034426354 0.33897066 0.54846609 0
0.039999999 0.041238021 0.034335583 0.33897066 0.54846609 0
0.039999999 0.043034427 0.034245376 0.33897066 0.54846609 0
0.039999999 0.044821423 0.034155723 0.33897066 0.54846609 0
0.039999999 0.04659909 0.034066621 0.33897066 0.54846609 0
0.039999999 0.048367515 0.033978064 0.33897066 0.54846609 0
0.039999999 0.050126769 0.033890046 0.33897066 0.54846609 0
0.039999999 0.05187694 0.033802565 0.33897066 0.54846609 0
0.039999999 0.0536181 0.033715617 0.33897066 0.54846609 0
0.039999999 0.05535033 0.033629198 0.33897066 0.54846609 0
0.039999999 0.057073709 0.033543296 0.33897066 0.54846609 0
0.039999999 0.058788307 0.033457916 0.33897066 0.54846609 0
0.039999999 0.060494207 0.03337305 0.33897066 0.54846609 0
0.039999999 0.062191475 0.033288691 0.33897066 0.54846609 0
0.039999999 0.06388019 0.033204839 0.33897066 0.54846609 0
0.039999999 0.065560423 0.033121489 0.33897066 0.54846609 0
0.039999999 0.067232244 0.033038635 0.33897066 0.54846609 0
0.039999999 0.068895727 0.032956272 0.33897066 0.54846609 0
0.039999999 0.070550941 0.032874402 0.33897066 0.54846609 0
0.039999999 0.072197951 0.032793012 0.33897066 0.54846609 0
0.039999999 0.073836841 0.032712106 0.33897066 0.54846609 0
0.039999999 0.075467661 0.032631677 0.33897066 0.54846609 0
0.039999999 0.077090479 0.032551717 0.33897066 0.54846609 0
0.039999999 0.078705378 0.03247223 0.33897066 0.54846609 0
0.039800491 0.079999998 0.032414824 0.33897066 0.54846609 0
0.038775008 0.079999998 0.032447048 0.33897066 0.54846609 0
0.037747484 0.079999998 0.032479417 0.33897066 0.54846609 0
0.036717907 0.079999998 0.032511931 0.33897066 0.54846609 0
0.035686262 0.079999998 0.032544587 0.33897066 0.54846609 0
0 0.026656019 0.036286954 0.33897066 0.54846609 0
0.033616729 0.079999998 0.032610331 0.33897066 0.54846609 0
0.032578822 0.079999998 0.032643422 0.33897066 0.54846609 0
0.031538799 0.079999998 0.03267666 0.33897066 0.54846609 0
0 0.033686049 0.035943855 0.33897066 0.54846609 0
0.02945238 0.079999998 0.032743573 0.33897066 0.54846609 0
0.028405957 0.079999998 0.032777254 0.33897066 0.54846609 0
0.027357377 0.079999998 0.032811079 0.33897066 0.54846609 0
0.026306627 0.079999998 0.032845058 0.33897066 0.54846609 0
0.025253698 0.079999998 0.032879181 0.33897066 0.54846609 0
0 0.043985967 0.035443731 0.33897066 0.54846609 0
0.023141246 0.079999998 0.032947887 0.33897066 0.54846609 0
0.022081701 0.079999998 0.032982469 0.33897066 0.54846609 0
0.021019928 0.079999998 0.033017199 0.33897066 0.54846609 0
0 0.050695181 0.035119653 0.33897066 0.54846609 0
0.018889645 0.079999998 0.033087123 0.33897066 0.54846609 0
0.017821111 0.079999998 0.03312232 0.33897066 0.54846609 0
0.016750298 0.079999998 0.033157669 0.33897066 0.54846609 0
0 0.05728307 0.03480278 0.33897066 0.54846609 0
0.01460179 0.079999998 0.033228833 0.33897066 0.54846609 0
0.013524069 0.079999998 0.033264648 0.33897066 0.54846609 0
0.012444018 0.079999998 0.033300627 0.33897066 0.54846609 0
0.011361627 0.079999998 0.033336759 0.33897066 0.54846609 0
0.010276881 0.079999998 0.03337305 0.33897066 0.54846609 0
0.0091897687 0.079999998 0.033409506 0.33897066 0.54846609 0
0 0.068531141 0.034264937 0.33897066 0.54846609 0
0.0070083896 0.079999998 0.033482894 0.33897066 0.54846609 0
0.0059140977 0.079999998 0.033519831 0.33897066 0.54846609 0
0.0048173857 0.079999998 0.033556927 0.33897066 0.54846609 0
0.0037182404 0.079999998 0.033594191 0.33897066 0.54846609 0
0.0026166493 0.079999998 0.033631619 0.33897066 0.54846609 0
0 0.077900179 0.033820126 0.33897066 0.54846609 0
0 0.07943812 0.033747394 0.33897066 0.54846609 0
0.039999999 0.001183143 0.035395339 0.33897066 0.54846609 0
0.039999999 0.0031980094 0.035295021 0.33897066 0.54846609 0
0.039999999 0.0052014915 0.035195354 0.33897066 0.54846609 0
0.039999999 0.0071936958 0.035096332 0.33897066 0.54846609 0
0.039999999 0.009174726 0.034997951 0.33897066 0.54846609 0
0.039999999 0.011144686 0.034900203 0.33897066 0.54846609 0
0.039999999 0.013103677 0.034803085 0.33897066 0.54846609 0
0.039999999 0.0150518 0.034706589 0.33897066 0.54846609 0
0.039999999 0.016989155 0.034610711 0.33897066 0.54846609 0
0.039999999 0.018915839 0.034515444 0.33897066 0.54846609 0
0.039999999 0.020831952 0.034420781 0.33897066 0.54846609 0
0.039999999 0.022737587 0.034326721 0.33897066 0.54846609 0
0.039999999 0.024632841 0.034233253 0.33897066 0.54846609 0
0.039999999 0.026517805 0.034140375 0.33897066 0.54846609 0
0.039999999 0.028392574 0.034048084 0.33897066 0.54846609 0
0.039999999 0.030257238 0.033956371 0.33897066 0.54846609 0
0.039999999 0.032111891 0.033865232 0.33897066 0.54846609 0
0.039999999 0.033956613 0.033774663 0.33897066 0.54846609 0
0.039999999 0.035791505 0.033684656 0.33897066 0.54846609 0
0.039999999 0.037616644 0.033595212 0.33897066 0.54846609 0
0.039999999 0.039432123 0.033506319 0.33897066 0.54846609 0
0.039999999 0.041238021 0.033417977 0.33897066 0.54846609 0
0.039999999 0.043034427 0.03333018 0.33897066 0.54846609 0
0.039999999 0.044821423 0.033242922 0.33897066 0.54846609 0
0.039999999 0.04659909 0.033156201 0.33897066 0.54846609 0
0.039999999 0.048367515 0.033070009 0.33897066 0.54846609 0
0.039999999 0.050126769 0.032984346 0.33897066 0.54846609 0
0.039999999 0.05187694 0.032899205 0.33897066 0.54846609 0
0.039999999 0.0536181 0.032814577 0.33897066 0.54846609 0
0.039999999 0.05535033 0.032730468 0.33897066 0.54846609 0
0.039999999 0.057073709 0.032646865 0.33897066 0.54846609 0
0.039999999 0.058788307 0.032563765 0.33897066 0.54846609 0
0.039999999 0.060494207 0.032481164 0.33897066 0.54846609 0
0.039999999 0.062191475 0.032399062 0.33897066 0.54846609 0
0.039999999 0.06388019 0.032317452 0.33897066 0.54846609 0
0.039999999 0.065560423 0.032236326 0.33897066 0.54846609 0
0.039999999 0.067232244 0.032155689 0.33897066 0.54846609 0
0.039999999 0.068895727 0.032075528 0.33897066 0.54846609 0
0.039999999 0.070550941 0.031995844 0.33897066 0.54846609 0
0.039999999 0.072197951 0.03191663 0.33897066 0.54846609 0
0.039999999 0.073836841 0.031837884 0.33897066 0.54846609 0
0.039999999 0.075467661 0.031759605 0.33897066 0.54846609 0
0.039999999 0.077090479 0.031681783 0.33897066 0.54846609 0
0.039999999 0.078705378 0.03160442 0.33897066 0.54846609 0
0.039800491 0.079999998 0.031548548 0.33897066 0.54846609 0
0.038775008 0.079999998 0.031579912 0.33897066 0.54846609 0
0.037747484 0.079999998 0.031611416 0.33897066 0.54846609 0
0.036717907 0.079999998 0.031643059 0.33897066 0.54846609 0
0 0.02487747 0.035401892 0.33897066 0.54846609 0
0.034652539 0.079999998 0.031706765 0.33897066 0.54846609 0
0.033616729 0.079999998 0.031738829 0.33897066 0.54846609 0
0.032578822 0.079999998 0.031771038 0.33897066 0.54846609 0
0.031538799 0.079999998 0.031803384 0.33897066 0.54846609 0
0 0.033686049 0.034983266 0.33897066 0.54846609 0
0 0.035422854 0.034900978 0.33897066 0.54846609 0
0 0.037151512 0.034819156 0.33897066 0.54846609 0
0.027357377 0.079999998 0.031934213 0.33897066 0.54846609 0
0.026306627 0.079999998 0.031967282 0.33897066 0.54846609 0
0.025253698 0.079999998 0.032000497 0.33897066 0.54846609 0
0.024198575 0.079999998 0.032033857 0.33897066 0.54846609 0
0.023141246 0.079999998 0.032067366 0.33897066 0.54846609 0
0.022081701 0.079999998 0.03210102 0.33897066 0.54846609 0
0.021019928 0.079999998 0.032134827 0.33897066 0.54846609 0
0 0.050695181 0.034181092 0.33897066 0.54846609 0
0.018889645 0.079999998 0.032202881 0.33897066 0.54846609 0
0.017821111 0.079999998 0.032237135 0.33897066 0.54846609 0
0.016750298 0.079999998 0.032271538 0.33897066 0.54846609 0
0.015677195 0.079999998 0.032306094 0.33897066 0.54846609 0
0.01460179 0.079999998 0.032340802 0.33897066 0.54846609 0
0.013524069 0.079999998 0.032375664 0.33897066 0.54846609 0
0.012444018 0.079999998 0.032410678 0.33897066 0.54846609 0
0 0.063753389 0.033571079 0.33897066 0.54846609 0
0.010276881 0.079999998 0.032481167 0.33897066 0.54846609 0
0.0091897687 0.079999998 0.032516647 0.33897066 0.54846609 0
0.0081002759 0.079999998 0.03255228 0.33897066 0.54846609 0
0.0070083896 0.079999998 0.032588072 0.33897066 0.54846609 0
0.0059140977 0.079999998 0.032624021 0.33897066 0.54846609 0
0.0048173857 0.079999998 0.03266013 0.33897066 0.54846609 0
0.0037182404 0.079999998 0.032696396 0.33897066 0.54846609 0
0 0.076355591 0.032987468 0.33897066 0.54846609 0
0.0015125979 0.079999998 0.032769408 0.33897066 0.54846609 0
0 0.07943812 0.032845505 0.33897066 0.54846609 0
0.039999999 0.001183143 0.034423605 0.33897066 0.54846609 0
0.039999999 0.0031980094 0.034326043 0.33897066 0.54846609 0
0.039999999 0.0052014915 0.034229111 0.33897066 0.54846609 0
0.039999999 0.0071936958 0.034132808 0.33897066 0.54846609 0
0.039999999 0.009174726 0.034037128 0.33897066 0.54846609 0
0.039999999 0.011144686 0.033942066 0.33897066 0.54846609 0
0.039999999 0.013103677 0.033847615 0.33897066 0.54846609 0
0.039999999 0.0150518 0.033753768 0.33897066 0.54846609 0
0.039999999 0.016989155 0.03366052 0.33897066 0.54846609 0
0.039999999 0.018915839 0.033567868 0.33897066 0.54846609 0
0.039999999 0.020831952 0.033475805 0.33897066 0.54846609 0
0.039999999 0.022737587 0.033384323 0.33897066 0.54846609 0
0.039999999 0.024632841 0.033293426 0.33897066 0.54846609 0
0.039999999 0.026517805 0.033203099 0.33897066 0.54846609 0
0.039999999 0.028392574 0.033113338 0.33897066 0.54846609 0
0.039999999 0.030257238 0.033024143 0.33897066 0.54846609 0
0.039999999 0.032111891 0.032935508 0.33897066 0.54846609 0
0.039999999 0.033956613 0.032847423 0.33897066 0.54846609 0
0.039999999 0.035791505 0.03275989 0.33897066 0.54846609 0
0.039999999 0.037616644 0.032672901 0.33897066 0.54846609 0
0.039999999 0.039432123 0.032586448 0.33897066 0.54846609 0
0.039999999 0.041238021 0.032500532 0.33897066 0.54846609 0
0.039999999 0.043034427 0.032415144 0.33897066 0.54846609 0
0.039999999 0.044821423 0.032330282 0.33897066 0.54846609 0
0.039999999 0.04659909 0.032245941 0.33897066 0.54846609 0
0.039999999 0.048367515 0.032162119 0.33897066 0.54846609 0
0.039999999 0.050126769 0.032078806 0.33897066 0.54846609 0
0.039999999 0.05187694 0.031996001 0.33897066 0.54846609 0
0.039999999 0.0536181 0.031913698 0.33897066 0.54846609 0
0.039999999 0.05535033 0.031831894 0.33897066 0.54846609 0
0.039999999 0.057073709 0.031750586 0.33897066 0.54846609 0
0.039999999 0.058788307 0.031669769 0.33897066 0.54846609 0
0.039999999 0.060494207 0.031589437 0.33897066 0.54846609 0
0.039999999 0.062191475 0.031509589 0.33897066 0.54846609 0
0.039999999 0.06388019 0.031430218 0.33897066 0.54846609 0
0.039999999 0.065560423 0.03135132 0.33897066 0.54846609 0
0.039999999 0.067232244 0.031272896 0.33897066 0.54846609 0
0.039999999 0.068895727 0.031194936 0.33897066 0.54846609 0
0.039999999 0.070550941 0.031117439 0.33897066 0.54846609 0
0.039999999 0.072197951 0.0310404 0.33897066 0.54846609 0
0.039999999 0.073836841 0.030963818 0.33897066 0.54846609 0
0.039999999 0.075467661 0.030887686 0.33897066 0.54846609 0
0.039999999 0.077090479 0.030812003 0.33897066 0.54846609 0
0.039999999 0.078705378 0.030736761 0.33897066 0.54846609 0
0.039800491 0.079999998 0.030682424 0.33897066 0.54846609 0
0.038775008 0.079999998 0.030712927 0.33897066 0.54846609 0
0.037747484 0.079999998 0.030743567 0.33897066 0.54846609 0
0.036717907 0.079999998 0.03077434 0.33897066 0.54846609 0
0.035686262 0.079999998 0.030805251 0.33897066 0.54846609 0
0 0.026656019 0.034347612 0.33897066 0.54846609 0
0.033616729 0.079999998 0.030867483 0.33897066 0.54846609 0
0.032578822 0.079999998 0.030898806 0.33897066 0.54846609 0
0.031538799 0.079999998 0.030930266 0.33897066 0.54846609 0
0 0.033686049 0.034022845 0.33897066 0.54846609 0
0 0.035422854 0.033942819 0.33897066 0.54846609 0
0 0.037151512 0.033863243 0.33897066 0.54846609 0
0.027357377 0.079999998 0.031057503 0.33897066 0.54846609 0
0.026306627 0.079999998 0.031089664 0.33897066 0.54846609 0
0.025253698 0.079999998 0.031121965 0.33897066 0.54846609 0
0.024198575 0.079999998 0.031154411 0.33897066 0.54846609 0
0.023141246 0.079999998 0.031187 0.33897066 0.54846609 0
0 0.047355983 0.033395208 0.33897066 0.54846609 0
0.021019928 0.079999998 0.031252608 0.33897066 0.54846609 0
0.019955913 0.079999998 0.031285629 0.33897066 0.54846609 0
0 0.052353378 0.033167079 0.33897066 0.54846609 0
0.017821111 0.079999998 0.031352106 0.33897066 0.54846609 0
0.016750298 0.079999998 0.031385567 0.33897066 0.54846609 0
0.015677195 0.079999998 0.031419173 0.33897066 0.54846609 0
0 0.058911528 0.032868814 0.33897066 0.54846609 0
0 0.060532697 0.03279528 0.33897066 0.54846609 0
0.012444018 0.079999998 0.031520884 0.33897066 0.54846609 0
0.011361627 0.079999998 0.031555086 0.33897066 0.54846609 0
0.010276881 0.079999998 0.031589441 0.33897066 0.54846609 0
0.0091897687 0.079999998 0.031623945 0.33897066 0.54846609 0
0.0081002759 0.079999998 0.031658601 0.33897066 0.54846609 0
0.0070083896 0.079999998 0.03169341 0.33897066 0.54846609 0
0.0059140977 0.079999998 0.031728372 0.33897066 0.54846609 0
0.0048173857 0.079999998 0.03176349 0.33897066 0.54846609 0
0.0026166493 0.079999998 0.031834189 0.33897066 0.54846609 0
0.0015125979 0.079999998 0.031869769 0.33897066 0.54846609 0
0.00040607303 0.079999998 0.03190551 0.33897066 0.54846609 0
0.039999999 0.001183143 0.033452041 0.33897066 0.54846609 0
0.039999999 0.0031980094 0.033357229 0.33897066 0.54846609 0
0.039999999 0.0052014915 0.033263035 0.33897066 0.54846609 0
0.039999999 0.0071936958 0.033169452 0.33897066 0.54846609 0
0.039999999 0.009174726 0.033076473 0.33897066 0.54846609 0
0.039999999 0.011144686 0.032984093 0.33897066 0.54846609 0
0.039999999 0.013103677 0.032892305 0.33897066 0.54846609 0
0.039999999 0.0150518 0.032801107 0.33897066 0.54846609 0
0.039999999 0.016989155 0.032710493 0.33897066 0.54846609 0
0.039999999 0.018915839 0.032620456 0.33897066 0.54846609 0
0.039999999 0.020831952 0.032530989 0.33897066 0.54846609 0
0.039999999 0.022737587 0.032442093 0.33897066 0.54846609 0
0.039999999 0.024632841 0.032353759 0.33897066 0.54846609 0
0.039999999 0.026517805 0.03226598 0.33897066 0.54846609 0
0.039999999 0.028392574 0.032178756 0.33897066 0.54846609 0
0.039999999 0.030257238 0.032092076 0.33897066 0.54846609 0
0.039999999 0.032111891 0.032005943 0.33897066 0.54846609 0
0.039999999 0.033956613 0.031920344 0.33897066 0.54846609 0
0.039999999 0.035791505 0.03183528 0.33897066 0.54846609 0
0.039999999 0.037616644 0.031750746 0.33897066 0.54846609 0
0.039999999 0.039432123 0.031666733 0.33897066 0.54846609 0
0.039999999 0.041238021 0.031583242 0.33897066 0.54846609 0
0.039999999 0.043034427 0.031500265 0.33897066 0.54846609 0
0.039999999 0.044821423 0.031417798 0.33897066 0.54846609 0
0.039999999 0.04659909 0.031335838 0.33897066 0.54846609 0
0.039999999 0.048367515 0.031254381 0.33897066 0.54846609 0
0.039999999 0.050126769 0.031173419 0.33897066 0.54846609 0
0.039999999 0.05187694 0.031092951 0.33897066 0.54846609 0
0.039999999 0.0536181 0.031012973 0.33897066 0.54846609 0
0.039999999 0.05535033 0.030933479 0.33897066 0.54846609 0
0.039999999 0.057073709 0.030854465 0.33897066 0.54846609 0
0.039999999 0.058788307 0.030775927 0.33897066 0.54846609 0
0.039999999 0.060494207 0.030697864 0.33897066 0.54846609 0
0.039999999 0.062191475 0.030620268 0.33897066 0.54846609 0
0.039999999 0.06388019 0.030543137 0.33897066 0.54846609 0
0.039999999 0.065560423 0.030466469 0.33897066 0.54846609 0
0.039999999 0.067232244 0.030390255 0.33897066 0.54846609 0
0.039999999 0.068895727 0.030314496 0.33897066 0.54846609 0
0.039999999 0.070550941 0.030239187 0.33897066 0.54846609 0
0.039999999 0.072197951 0.030164324 0.33897066 0.54846609 0
0.039999999 0.073836841 0.030089902 0.33897066 0.54846609 0
0.039999999 0.075467661 0.030015917 0.33897066 0.54846609 0
0.039999999 0.077090479 0.029942371 0.33897066 0.54846609 0
0.039999999 0.078705378 0.029869253 0.33897066 0.54846609 0
0.039800491 0.079999998 0.029816449 0.33897066 0.54846609 0
0.038775008 0.079999998 0.029846093 0.33897066 0.54846609 0
0.037747484 0.079999998 0.029875865 0.33897066 0.54846609 0
0.036717907 0.079999998 0.029905772 0.33897066 0.54846609 0
0.035686262 0.079999998 0.029935811 0.33897066 0.54846609 0
0.034652539 0.079999998 0.029965982 0.33897066 0.54846609 0
0.033616729 0.079999998 0.029996285 0.33897066 0.54846609 0
0.032578822 0.079999998 0.030026723 0.33897066 0.54846609 0
0 0.03194103 0.033140812 0.33897066 0.54846609 0
0.030496657 0.079999998 0.030088004 0.33897066 0.54846609 0
0.02945238 0.079999998 0.030118847 0.33897066 0.54846609 0
0.028405957 0.079999998 0.030149825 0.33897066 0.54846609 0
0.027357377 0.079999998 0.030180942 0.33897066 0.54846609 0
0 0.040584646 0.03275416 0.33897066 0.54846609 0
0.025253698 0.079999998 0.030243585 0.33897066 0.54846609 0
0 0.043985967 0.03260256 0.33897066 0.54846609 0
0.023141246 0.079999998 0.030306784 0.33897066 0.54846609 0
0 0.047355983 0.032452669 0.33897066 0.54846609 0
0.021019928 0.079999998 0.030370541 0.33897066 0.54846609 0
0.019955913 0.079999998 0.030402629 0.33897066 0.54846609 0
0.018889645 0.079999998 0.03043486 0.33897066 0.54846609 0
0.017821111 0.079999998 0.030467233 0.33897066 0.54846609 0
0.016750298 0.079999998 0.030499747 0.33897066 0.54846609 0
0.015677195 0.079999998 0.030532405 0.33897066 0.54846609 0
0.01460179 0.079999998 0.030565208 0.33897066 0.54846609 0
0.013524069 0.079999998 0.030598154 0.33897066 0.54846609 0
0.012444018 0.079999998 0.030631246 0.33897066 0.54846609 0
0.011361627 0.079999998 0.030664483 0.33897066 0.54846609 0
0.010276881 0.079999998 0.030697867 0.33897066 0.54846609 0
0.0091897687 0.079999998 0.030731397 0.33897066 0.54846609 0
0.0081002759 0.079999998 0.030765075 0.33897066 0.54846609 0
0 0.07010974 0.031449128 0.33897066 0.54846609 0
0.0059140977 0.079999998 0.030832877 0.33897066 0.54846609 0
0.0048173857 0.079999998 0.030867003 0.33897066 0.54846609 0
0.0037182404 0.079999998 0.030901279 0.33897066 0.54846609 0
0.0026166493 0.079999998 0.030935705 0.33897066 0.54846609 0
0.0015125979 0.079999998 0.030970283 0.33897066 0.54846609 0
0.00040607303 0.079999998 0.031005014 0.33897066 0.54846609 0
0.039999999 0.001183143 0.032480638 0.33897066 0.54846609 0
0.039999999 0.0031980094 0.032388579 0.33897066 0.54846609 0
0.039999999 0.0052014915 0.032297123 0.33897066 0.54846609 0
0.039999999 0.0071936958 0.032206256 0.33897066 0.54846609 0
0.039999999 0.009174726 0.032115977 0.33897066 0.54846609 0
0.039999999 0.011144686 0.032026276 0.33897066 0.54846609 0
0.039999999 0.013103677 0.031937156 0.33897066 0.54846609 0
0.039999999 0.0150518 0.031848606 0.33897066 0.54846609 0
0.039999999 0.016989155 0.031760622 0.33897066 0.54846609 0
0.039999999 0.018915839 0.0316732 0.33897066 0.54846609 0
0.039999999 0.020831952 0.031586334 0.33897066 0.54846609 0
0.039999999 0.022737587 0.031500015 0.33897066 0.54846609 0
0.039999999 0.024632841 0.031414248 0.33897066 0.54846609 0
0.039999999 0.026517805 0.031329017 0.33897066 0.54846609 0
0.039999999 0.028392574 0.031244326 0.33897066 0.54846609 0
0.039999999 0.030257238 0.031160165 0.33897066 0.54846609 0
0.039999999 0.032111891 0.031076532 0.33897066 0.54846609 0
0.039999999 0.033956613 0.030993421 0.33897066 0.54846609 0
0.039999999 0.035791505 0.030910827 0.33897066 0.54846609 0
0.039999999 0.037616644 0.030828746 0.33897066 0.54846609 0
0.039999999 0.039432123 0.030747175 0.33897066 0.54846609 0
0.039999999 0.041238021 0.030666107 0.33897066 0.54846609 0
0.039999999 0.043034427 0.03058554 0.33897066 0.54846609 0
0.039999999 0.044821423 0.030505467 0.33897066 0.54846609 0
0.039999999 0.04659909 0.030425888 0.33897066 0.54846609 0
0.039999999 0.048367515 0.030346794 0.33897066 0.54846609 0
0.039999999 0.050126769 0.030268185 0.33897066 0.54846609 0
0.039999999 0.05187694 0.030190052 0.33897066 0.54846609 0
0.039999999 0.0536181 0.030112397 0.33897066 0.54846609 0
0.039999999 0.05535033 0.030035211 0.33897066 0.54846609 0
0.039999999 0.057073709 0.029958492 0.33897066 0.54846609 0
0.039999999 0.058788307 0.029882235 0.33897066 0.54846609 0
0.039999999 0.060494207 0.029806439 0.33897066 0.54846609 0
0.039999999 0.062191475 0.029731097 0.33897066 0.54846609 0
0.039999999 0.06388019 0.029656205 0.33897066 0.54846609 0
0.039999999 0.065560423 0.029581763 0.33897066 0.54846609 0
0.039999999 0.067232244 0.029507762 0.33897066 0.54846609 0
0.039999999 0.068895727 0.029434204 0.33897066 0.54846609 0
0.039999999 0.070550941 0.02936108 0.33897066 0.54846609 0
0.039999999 0.072197951 0.029288391 0.33897066 0.54846609 0
0.039999999 0.073836841 0.029216131 0.33897066 0.54846609 0
0.039999999 0.075467661 0.029144296 0.33897066 0.54846609 0
0.039999999 0.077090479 0.029072883 0.33897066 0.54846609 0
0.039999999 0.078705378 0.02900189 0.33897066 0.54846609 0
0.039800491 0.079999998 0.028950619 0.33897066 0.54846609 0
0.038775008 0.079999998 0.0289794 0.33897066 0.54846609 0
0.037747484 0.079999998 0.02900831 0.33897066 0.54846609 0
0.036717907 0.079999998 0.029037347 0.33897066 0.54846609 0
0.035686262 0.079999998 0.029066514 0.33897066 0.54846609 0
0.034652539 0.079999998 0.029095808 0.33897066 0.54846609 0
0.033616729 0.079999998 0.029125232 0.33897066 0.54846609 0
0.032578822 0.079999998 0.029154787 0.33897066 0.54846609 0
0 0.03194103 0.032178447 0.33897066 0.54846609 0
0.030496657 0.079999998 0.029214287 0.33897066 0.54846609 0
0 0.035422854 0.032026988 0.33897066 0.54846609 0
0.028405957 0.079999998 0.029274315 0.33897066 0.54846609 0
0.027357377 0.079999998 0.029304527 0.33897066 0.54846609 0
0 0.040584646 0.031803023 0.33897066 0.54846609 0
0.025253698 0.079999998 0.029365351 0.33897066 0.54846609 0
0 0.043985967 0.031655826 0.33897066 0.54846609 0
0.023141246 0.079999998 0.029426714 0.33897066 0.54846609 0
0 0.047355983 0.031510286 0.33897066 0.54846609 0
0.021019928 0.079999998 0.029488619 0.33897066 0.54846609 0
0.019955913 0.079999998 0.029519776 0.33897066 0.54846609 0
0.018889645 0.079999998 0.029551072 0.33897066 0.54846609 0
0.017821111 0.079999998 0.029582504 0.33897066 0.54846609 0
0.016750298 0.079999998 0.029614074 0.33897066 0.54846609 0
0 0.05728307 0.031083371 0.33897066 0.54846609 0
0.01460179 0.079999998 0.029677633 0.33897066 0.54846609 0
0.013524069 0.079999998 0.029709624 0.33897066 0.54846609 0
0.012444018 0.079999998 0.029741755 0.33897066 0.54846609 0
0.011361627 0.079999998 0.029774027 0.33897066 0.54846609 0
0.010276881 0.079999998 0.029806441 0.33897066 0.54846609 0
0.0091897687 0.079999998 0.029838998 0.33897066 0.54846609 0
0.0081002759 0.079999998 0.029871698 0.33897066 0.54846609 0
0.0070083896 0.079999998 0.029904542 0.33897066 0.54846609 0
0.0059140977 0.079999998 0.029937532 0.33897066 0.54846609 0
0.0048173857 0.079999998 0.029970666 0.33897066 0.54846609 0
0 0.074804306 0.030336717 0.33897066 0.54846609 0
0.0026166493 0.079999998 0.030037373 0.33897066 0.54846609 0
0.0015125979 0.079999998 0.030070947 0.33897066 0.54846609 0
0.00040607303 0.079999998 0.030104669 0.33897066 0.54846609 0
0.039999999 0.001183143 0.031509392 0.33897066 0.54846609 0
0.039999999 0.0031980094 0.031420089 0.33897066 0.54846609 0
0.039999999 0.0052014915 0.031331364 0.33897066 0.54846609 0
0.039999999 0.0071936958 0.031243214 0.33897066 0.54846609 0
0.039999999 0.009174726 0.031155633 0.33897066 0.54846609 0
0.039999999 0.011144686 0.031068617 0.33897066 0.54846609 0
0.039999999 0.013103677 0.030982161 0.33897066 0.54846609 0
0.039999999 0.0150518 0.030896259 0.33897066 0.54846609 0
0.039999999 0.016989155 0.030810907 0.33897066 0.54846609 0
0.039999999 0.018915839 0.030726098 0.33897066 0.54846609 0
0.039999999 0.020831952 0.030641828 0.33897066 0.54846609 0
0.039999999 0.022737587 0.030558094 0.33897066 0.54846609 0
0.039999999 0.024632841 0.030474888 0.33897066 0.54846609 0
0.039999999 0.026517805 0.030392209 0.33897066 0.54846609 0
0.039999999 0.028392574 0.030310048 0.33897066 0.54846609 0
0.039999999 0.030257238 0.030228404 0.33897066 0.54846609 0
0.039999999 0.032111891 0.030147271 0.33897066 0.54846609 0
0.039999999 0.033956613 0.030066645 0.33897066 0.54846609 0
0.039999999 0.035791505 0.029986521 0.33897066 0.54846609 0
0.039999999 0.037616644 0.029906895 0.33897066 0.54846609 0
0.039999999 0.039432123 0.029827762 0.33897066 0.54846609 0
0.039999999 0.041238021 0.02974912 0.33897066 0.54846609 0
0.039999999 0.043034427 0.029670961 0.33897066 0.54846609 0
0.039999999 0.044821423 0.029593283 0.33897066 0.54846609 0
0.039999999 0.04659909 0.029516084 0.33897066 0.54846609 0
0.039999999 0.048367515 0.029439356 0.33897066 0.54846609 0
0.039999999 0.050126769 0.029363096 0.33897066 0.54846609 0
0.039999999 0.05187694 0.029287301 0.33897066 0.54846609 0
0.039999999 0.0536181 0.029211966 0.33897066 0.54846609 0
0.039999999 0.05535033 0.029137088 0.33897066 0.54846609 0
0.039999999 0.057073709 0.029062664 0.33897066 0.54846609 0
0.039999999 0.058788307 0.028988687 0.33897066 0.54846609 0
0.039999999 0.060494207 0.028915158 0.33897066 0.54846609 0
0.039999999 0.062191475 0.028842067 0.33897066 0.54846609 0
0.039999999 0.06388019 0.028769417 0.33897066 0.54846609 0
0.039999999 0.065560423 0.0286972 0.33897066 0.54846609 0
0.039999999 0.067232244 0.028625412 0.33897066 0.54846609 0
0.039999999 0.068895727 0.028554052 0.33897066 0.54846609 0
0.039999999 0.070550941 0.028483117 0.33897066 0.54846609 0
0.039999999 0.072197951 0.028412601 0.33897066 0.54846609 0
0.039999999 0.073836841 0.0283425 0.33897066 0.54846609 0
0.039999999 0.075467661 0.028272813 0.33897066 0.54846609 0
0.039999999 0.077090479 0.028203538 0.33897066 0.54846609 0
0.039999999 0.078705378 0.028134666 0.33897066 0.54846609 0
0.039800491 0.079999998 0.028084928 0.33897066 0.54846609 0
0 0.019490207 0.031744067 0.33897066 0.54846609 0
0.037747484 0.079999998 0.028140895 0.33897066 0.54846609 0
0.036717907 0.079999998 0.028169064 0.33897066 0.54846609 0
0.035686262 0.079999998 0.028197357 0.33897066 0.54846609 0
0.034652539 0.079999998 0.028225776 0.33897066 0.54846609 0
0.033616729 0.079999998 0.028254321 0.33897066 0.54846609 0
0.032578822 0.079999998 0.028282991 0.33897066 0.54846609 0
0.031538799 0.079999998 0.028311789 0.33897066 0.54846609 0
0 0.033686049 0.031142561 0.33897066 0.54846609 0
0.02945238 0.079999998 0.028369766 0.33897066 0.54846609 0
0.028405957 0.079999998 0.028398944 0.33897066 0.54846609 0
0.027357377 0.079999998 0.028428255 0.33897066 0.54846609 0
0.026306627 0.079999998 0.028457692 0.33897066 0.54846609 0
0.025253698 0.079999998 0.02848726 0.33897066 0.54846609 0
0.024198575 0.079999998 0.028516959 0.33897066 0.54846609 0
0 0.045674857 0.030638449 0.33897066 0.54846609 0
0.022081701 0.079999998 0.028576748 0.33897066 0.54846609 0
0.021019928 0.079999998 0.028606841 0.33897066 0.54846609 0
0.019955913 0.079999998 0.028637066 0.33897066 0.54846609 0
0 0.052353378 0.03035924 0.33897066 0.54846609 0
0 0.054004055 0.030290414 0.33897066 0.54846609 0
0.016750298 0.079999998 0.028728545 0.33897066 0.54846609 0
0 0.05728307 0.030153908 0.33897066 0.54846609 0
0.01460179 0.079999998 0.028790204 0.33897066 0.54846609 0
0.013524069 0.079999998 0.028821237 0.33897066 0.54846609 0
0 0.06214663 0.02995198 0.33897066 0.54846609 0
0 0.063753389 0.029885415 0.33897066 0.54846609 0
0.010276881 0.079999998 0.028915159 0.33897066 0.54846609 0
0.0091897687 0.079999998 0.028946742 0.33897066 0.54846609 0
0.0081002759 0.079999998 0.028978465 0.33897066 0.54846609 0
0.0070083896 0.079999998 0.029010328 0.33897066 0.54846609 0
0.0059140977 0.079999998 0.029042332 0.33897066 0.54846609 0
0.0048173857 0.079999998 0.029074475 0.33897066 0.54846609 0
0.0037182404 0.079999998 0.029106759 0.33897066 0.54846609 0
0.0026166493 0.079999998 0.029139187 0.33897066 0.54846609 0
0.0015125979 0.079999998 0.029171757 0.33897066 0.54846609 0
0.00040607303 0.079999998 0.029204469 0.33897066 0.54846609 0
0.039999999 0.001183143 0.030538298 0.33897066 0.54846609 0
0.039999999 0.0031980094 0.030451747 0.33897066 0.54846609 0
0.039999999 0.0052014915 0.030365756 0.33897066 0.54846609 0
0.039999999 0.0071936958 0.030280324 0.33897066 0.54846609 0
0.039999999 0.009174726 0.030195443 0.33897066 0.54846609 0
0.039999999 0.011144686 0.030111108 0.33897066 0.54846609 0
0.039999999 0.013103677 0.030027317 0.33897066 0.54846609 0
0.039999999 0.0150518 0.029944062 0.33897066 0.54846609 0
0.039999999 0.016989155 0.02986134 0.33897066 0.54846609 0
0.039999999 0.018915839 0.029779145 0.33897066 0.54846609 0
0.039999999 0.020831952 0.029697472 0.33897066 0.54846609 0
0.039999999 0.022737587 0.029616319 0.33897066 0.54846609 0
0.039999999 0.024632841 0.029535677 0.33897066 0.54846609 0
0.039999999 0.026517805 0.029455546 0.33897066 0.54846609 0
0.039999999 0.028392574 0.029375918 0.33897066 0.54846609 0
0.039999999 0.030257238 0.029296789 0.33897066 0.54846609 0
0.039999999 0.032111891 0.029218158 0.33897066 0.54846609 0
0.039999999 0.033956613 0.029140016 0.33897066 0.54846609 0
0.039999999 0.035791505 0.029062362 0.33897066 0.54846609 0
0.039999999 0.037616644 0.028985189 0.33897066 0.54846609 0
0.039999999 0.039432123 0.028908497 0.33897066 0.54846609 0
0.039999999 0.041238021 0.028832275 0.33897066 0.54846609 0
0.039999999 0.043034427 0.028756527 0.33897066 0.54846609 0
0.039999999 0.044821423 0.028681243 0.33897066 0.54846609 0
0.039999999 0.04659909 0.028606422 0.33897066 0.54846609 0
0.039999999 0.048367515 0.028532058 0.33897066 0.54846609 0
0.039999999 0.050126769 0.02845815 0.33897066 0.54846609 0
0.039999999 0.05187694 0.028384689 0.33897066 0.54846609 0
0.039999999 0.0536181 0.028311677 0.33897066 0.54846609 0
0.039999999 0.05535033 0.028239107 0.33897066 0.54846609 0
0.039999999 0.057073709 0.028166976 0.33897066 0.54846609 0
0.039999999 0.058788307 0.028095281 0.33897066 0.54846609 0
0.039999999 0.060494207 0.028024016 0.33897066 0.54846609 0
0.039999999 0.062191475 0.02795318 0.33897066 0.54846609 0
0.039999999 0.06388019 0.027882766 0.33897066 0.54846609 0
0.039999999 0.065560423 0.027812775 0.33897066 0.54846609 0
0.039999999 0.067232244 0.027743202 0.33897066 0.54846609 0
0.039999999 0.068895727 0.02767404 0.33897066 0.54846609 0
0.039999999 0.070550941 0.02760529 0.33897066 0.54846609 0
0.039999999 0.072197951 0.027536947 0.33897066 0.54846609 0
0.039999999 0.073836841 0.027469007 0.33897066 0.54846609 0
0.039999999 0.075467661 0.02740147 0.33897066 0.54846609 0
0.039999999 0.077090479 0.027334327 0.33897066 0.54846609 0
0.039999999 0.078705378 0.027267579 0.33897066 0.54846609 0
0 0.017677009 0.030840538 0.33897066 0.54846609 0
0.038775008 0.079999998 0.027246434 0.33897066 0.54846609 0
0.037747484 0.079999998 0.027273616 0.33897066 0.54846609 0
0.036717907 0.079999998 0.027300917 0.33897066 0.54846609 0
0.035686262 0.079999998 0.027328338 0.33897066 0.54846609 0
0.034652539 0.079999998 0.027355881 0.33897066 0.54846609 0
0.033616729 0.079999998 0.027383545 0.33897066 0.54846609 0
0.032578822 0.079999998 0.027411332 0.33897066 0.54846609 0
0.031538799 0.079999998 0.027439242 0.33897066 0.54846609 0
0.030496657 0.079999998 0.027467275 0.33897066 0.54846609 0
0.02945238 0.079999998 0.027495433 0.33897066 0.54846609 0
0.028405957 0.079999998 0.027523713 0.33897066 0.54846609 0
0.027357377 0.079999998 0.027552119 0.33897066 0.54846609 0
0.026306627 0.079999998 0.027580649 0.33897066 0.54846609 0
0.025253698 0.079999998 0.027609305 0.33897066 0.54846609 0
0.024198575 0.079999998 0.027638089 0.33897066 0.54846609 0
0.023141246 0.079999998 0.027666999 0.33897066 0.54846609 0
0.022081701 0.079999998 0.027696038 0.33897066 0.54846609 0
0.021019928 0.079999998 0.027725203 0.33897066 0.54846609 0
0 0.050695181 0.029490674 0.33897066 0.54846609 0
0.018889645 0.079999998 0.027783919 0.33897066 0.54846609 0
0.017821111 0.079999998 0.027813472 0.33897066 0.54846609 0
0.016750298 0.079999998 0.027843155 0.33897066 0.54846609 0
0.015677195 0.079999998 0.027872968 0.33897066 0.54846609 0
0 0.058911528 0.029158991 0.33897066 0.54846609 0
0.013524069 0.079999998 0.02793299 0.33897066 0.54846609 0
0 0.06214663 0.029028885 0.33897066 0.54846609 0
0.011361627 0.079999998 0.027993543 0.33897066 0.54846609 0
0.010276881 0.079999998 0.028024018 0.33897066 0.54846609 0
0.0091897687 0.079999998 0.028054629 0.33897066 0.54846609 0
0 0.068531141 0.028772952 0.33897066 0.54846609 0
0.0070083896 0.079999998 0.028116254 0.33897066 0.54846609 0
0.0059140977 0.079999998 0.028147271 0.33897066 0.54846609 0
0.0048173857 0.079999998 0.028178424 0.33897066 0.54846609 0
0.0037182404 0.079999998 0.028209712 0.33897066 0.54846609 0
0.0026166493 0.079999998 0.028241141 0.33897066 0.54846609 0
0.0015125979 0.079999998 0.028272707 0.33897066 0.54846609 0
0.00040607303 0.079999998 0.028304413 0.33897066 0.54846609 0
0.039999999 0.001183143 0.029567353 0.33897066 0.54846609 0
0.039999999 0.0031980094 0.029483553 0.33897066 0.54846609 0
0.039999999 0.0052014915 0.029400297 0.33897066 0.54846609 0
0.039999999 0.0071936958 0.02931758 0.33897066 0.54846609 0
0.039999999 0.009174726 0.029235398 0.33897066 0.54846609 0
0.039999999 0.011144686 0.029153746 0.33897066 0.54846609 0
0.039999999 0.013103677 0.029072618 0.33897066 0.54846609 0
0.039999999 0.0150518 0.02899201 0.33897066 0.54846609 0
0.039999999 0.016989155 0.028911918 0.33897066 0.54846609 0
0.039999999 0.018915839 0.028832335 0.33897066 0.54846609 0
0.039999999 0.020831952 0.02875326 0.33897066 0.54846609 0
0.039999999 0.022737587 0.028674686 0.33897066 0.54846609 0
0.039999999 0.024632841 0.02859661 0.33897066 0.54846609 0
0.039999999 0.026517805 0.028519025 0.33897066 0.54846609 0
0.039999999 0.028392574 0.028441928 0.33897066 0.54846609 0
0.039999999 0.030257238 0.028365318 0.33897066 0.54846609 0
0.039999999 0.032111891 0.028289184 0.33897066 0.54846609 0
0.039999999 0.033956613 0.028213527 0.33897066 0.54846609 0
0.039999999 0.035791505 0.028138341 0.33897066 0.54846609 0
0.039999999 0.037616644 0.028063623 0.33897066 0.54846609 0
0.039999999 0.039432123 0.027989369 0.33897066 0.54846609 0
0.039999999 0.041238021 0.027915573 0.33897066 0.54846609 0
0.039999999 0.043034427 0.027842231 0.33897066 0.54846609 0
0.039999999 0.044821423 0.027769342 0.33897066 0.54846609 0
0.039999999 0.04659909 0.027696898 0.33897066 0.54846609 0
0.039999999 0.048367515 0.0276249 0.33897066 0.54846609 0
0.039999999 0.050126769 0.02755334 0.33897066 0.54846609 0
0.039999999 0.05187694 0.027482217 0.33897066 0.54846609 0
0.039999999 0.0536181 0.027411526 0.33897066 0.54846609 0
0.039999999 0.05535033 0.027341263 0.33897066 0.54846609 0
0.039999999 0.057073709 0.027271425 0.33897066 0.54846609 0
0.039999999 0.058788307 0.027202008 0.33897066 0.54846609 0
0.039999999 0.060494207 0.02713301 0.33897066 0.54846609 0
0.039999999 0.062191475 0.027064426 0.33897066 0.54846609 0
0.039999999 0.06388019 0.026996251 0.33897066 0.54846609 0
0.039999999 0.065560423 0.026928486 0.33897066 0.54846609 0
0.039999999 0.067232244 0.026861124 0.33897066 0.54846609 0
0.039999999 0.068895727 0.026794162 0.33897066 0.54846609 0
0.039999999 0.070550941 0.026727598 0.33897066 0.54846609 0
0.039999999 0.072197951 0.026661428 0.33897066 0.54846609 0
0.039999999 0.073836841 0.026595648 0.33897066 0.54846609 0
0.039999999 0.075467661 0.026530256 0.33897066 0.54846609 0
0.039999999 0.077090479 0.02646525 0.33897066 0.54846609 0
0.039999999 0.078705378 0.026400624 0.33897066 0.54846609 0
0.039800491 0.079999998 0.026353952 0.33897066 0.54846609 0
0.038775008 0.079999998 0.026380152 0.33897066 0.54846609 0
0.037747484 0.079999998 0.026406469 0.33897066 0.54846609 0
0.036717907 0.079999998 0.026432902 0.33897066 0.54846609 0
0.035686262 0.079999998 0.026459452 0.33897066 0.54846609 0
0 0.026656019 0.029502079 0.33897066 0.54846609 0
0.033616729 0.079999998 0.026512904 0.33897066 0.54846609 0
0.032578822 0.079999998 0.026539806 0.33897066 0.54846609 0
0 0.03194103 0.029292265 0.33897066 0.54846609 0
0.030496657 0.079999998 0.02659397 0.33897066 0.54846609 0
0.02945238 0.079999998 0.026621232 0.33897066 0.54846609 0
0.028405957 0.079999998 0.026648615 0.33897066 0.54846609 0
0.027357377 0.079999998 0.026676117 0.33897066 0.54846609 0
0.026306627 0.079999998 0.02670374 0.33897066 0.54846609 0
0.025253698 0.079999998 0.026731486 0.33897066 0.54846609 0
0.024198575 0.079999998 0.026759354 0.33897066 0.54846609 0
0.023141246 0.079999998 0.026787344 0.33897066 0.54846609 0
0.022081701 0.079999998 0.026815459 0.33897066 0.54846609 0
0.021019928 0.079999998 0.026843697 0.33897066 0.54846609 0
0.019955913 0.079999998 0.026872059 0.33897066 0.54846609 0
0.018889645 0.079999998 0.026900547 0.33897066 0.54846609 0
0.017821111 0.079999998 0.026929161 0.33897066 0.54846609 0
0.016750298 0.079999998 0.026957899 0.33897066 0.54846609 0
0 0.05728307 0.028295413 0.33897066 0.54846609 0
0.01460179 0.079999998 0.027015759 0.33897066 0.54846609 0
0.013524069 0.079999998 0.027044879 0.33897066 0.54846609 0
0.012444018 0.079999998 0.027074128 0.33897066 0.54846609 0
0.011361627 0.079999998 0.027103506 0.33897066 0.54846609 0
0.010276881 0.079999998 0.027133012 0.33897066 0.54846609 0
0 0.06694559 0.027919572 0.33897066 0.54846609 0
0 0.068531141 0.027858134 0.33897066 0.54846609 0
0.0070083896 0.079999998 0.027222315 0.33897066 0.54846609 0
0 0.071681432 0.027736267 0.33897066 0.54846609 0
0.0048173857 0.079999998 0.027282508 0.33897066 0.54846609 0
0 0.074804306 0.027615726 0.33897066 0.54846609 0
0.0026166493 0.079999998 0.027343232 0.33897066 0.54846609 0
0.0015125979 0.079999998 0.027373794 0.33897066 0.54846609 0
0.00040607303 0.079999998 0.027404491 0.33897066 0.54846609 0
0.039999999 0.001183143 0.02859655 0.33897066 0.54846609 0
0.039999999 0.0031980094 0.028515501 0.33897066 0.54846609 0
0.039999999 0.0052014915 0.028434979 0.33897066 0.54846609 0
0.039999999 0.0071936958 0.028354978 0.33897066 0.54846609 0
0.039999999 0.009174726 0.028275494 0.33897066 0.54846609 0
0.039999999 0.011144686 0.028196523 0.33897066 0.54846609 0
0.039999999 0.013103677 0.028118059 0.33897066 0.54846609 0
0.039999999 0.0150518 0.028040098 0.33897066 0.54846609 0
0.039999999 0.016989155 0.027962634 0.33897066 0.54846609 0
0.039999999 0.018915839 0.027885666 0.33897066 0.54846609 0
0.039999999 0.020831952 0.027809188 0.33897066 0.54846609 0
0.039999999 0.022737587 0.027733194 0.33897066 0.54846609 0
0.039999999 0.024632841 0.02765768 0.33897066 0.54846609 0
0.039999999 0.026517805 0.027582642 0.33897066 0.54846609 0
0.039999999 0.028392574 0.027508078 0.33897066 0.54846609 0
0.039999999 0.030257238 0.027433982 0.33897066 0.54846609 0
0.039999999 0.032111891 0.027360348 0.33897066 0.54846609 0
0.039999999 0.033956613 0.027287176 0.33897066 0.54846609 0
0.039999999 0.035791505 0.027214458 0.33897066 0.54846609 0
0.039999999 0.037616644 0.027142193 0.33897066 0.54846609 0
0.039999999 0.039432123 0.027070377 0.33897066 0.54846609 0
0.039999999 0.041238021 0.026999004 0.33897066 0.54846609 0
0.039999999 0.043034427 0.026928071 0.33897066 0.54846609 0
0.039999999 0.044821423 0.026857574 0.33897066 0.54846609 0
0.039999999 0.04659909 0.02678751 0.33897066 0.54846609 0
0.039999999 0.048367515 0.026717875 0.33897066 0.54846609 0
0.039999999 0.050126769 0.026648665 0.33897066 0.54846609 0
0.039999999 0.05187694 0.026579877 0.33897066 0.54846609 0
0.039999999 0.0536181 0.026511507 0.33897066 0.54846609 0
0.039999999 0.05535033 0.02644355 0.33897066 0.54846609 0
0.039999999 0.057073709 0.026376005 0.33897066 0.54846609 0
0.039999999 0.058788307 0.026308868 0.33897066 0.54846609 0
0.039999999 0.060494207 0.026242135 0.33897066 0.54846609 0
0.039999999 0.062191475 0.026175803 0.33897066 0.54846609 0
0.039999999 0.06388019 0.026109867 0.33897066 0.54846609 0
0.039999999 0.065560423 0.026044326 0.33897066 0.54846609 0
0.039999999 0.067232244 0.025979176 0.33897066 0.54846609 0
0.039999999 0.068895727 0.025914412 0.33897066 0.54846609 0
0.039999999 0.070550941 0.025850033 0.33897066 0.54846609 0
0.039999999 0.072197951 0.025786037 0.33897066 0.54846609 0
0.039999999 0.073836841 0.025722418 0.33897066 0.54846609 0
0.039999999 0.075467661 0.025659172 0.33897066 0.54846609 0
0.039999999 0.077090479 0.0255963 0.33897066 0.54846609 0
0.039999999 0.078705378 0.025533795 0.33897066 0.54846609 0
0.039800491 0.079999998 0.025488656 0.33897066 0.54846609 0
0.038775008 0.079999998 0.025513995 0.33897066 0.54846609 0
0 0.021294635 0.028739899 0.33897066 0.54846609 0
0.036717907 0.079999998 0.025565013 0.33897066 0.54846609 0
0.035686262 0.079999998 0.025590692 0.33897066 0.54846609 0
0.034652539 0.079999998 0.025616484 0.33897066 0.54846609 0
0.033616729 0.079999998 0.025642389 0.33897066 0.54846609 0
0 0.03018773 0.028397746 0.33897066 0.54846609 0
0.031538799 0.079999998 0.025694543 0.33897066 0.54846609 0
0.030496657 0.079999998 0.025720796 0.33897066 0.54846609 0
0.02945238 0.079999998 0.025747161 0.33897066 0.54846609 0
0.028405957 0.079999998 0.025773644 0.33897066 0.54846609 0
0.027357377 0.079999998 0.025800243 0.33897066 0.54846609 0
0.026306627 0.079999998 0.025826961 0.33897066 0.54846609 0
0.025253698 0.079999998 0.025853794 0.33897066 0.54846609 0
0.024198575 0.079999998 0.025880748 0.33897066 0.54846609 0
0.023141246 0.079999998 0.02590782 0.33897066 0.54846609 0
0.022081701 0.079999998 0.025935011 0.33897066 0.54846609 0
0.021019928 0.079999998 0.025962321 0.33897066 0.54846609 0
0.019955913 0.079999998 0.025989754 0.33897066 0.54846609 0
0.018889645 0.079999998 0.026017306 0.33897066 0.54846609 0
0.017821111 0.079999998 0.02604498 0.33897066 0.54846609 0
0.016750298 0.079999998 0.026072774 0.33897066 0.54846609 0
0.015677195 0.079999998 0.026100693 0.33897066 0.54846609 0
0.01460179 0.079999998 0.026128734 0.33897066 0.54846609 0
0.013524069 0.079999998 0.026156899 0.33897066 0.54846609 0
0 0.06214663 0.027183112 0.33897066 0.54846609 0
0.011361627 0.079999998 0.026213599 0.33897066 0.54846609 0
0.010276881 0.079999998 0.026242137 0.33897066 0.54846609 0
0.0091897687 0.079999998 0.026270801 0.33897066 0.54846609 0
0 0.068531141 0.026943451 0.33897066 0.54846609 0
0 0.07010974 0.026884357 0.33897066 0.54846609 0
0.0059140977 0.079999998 0.026357552 0.33897066 0.54846609 0
0.0048173857 0.079999998 0.026386725 0.33897066 0.54846609 0
0 0.074804306 0.026709002 0.33897066 0.54846609 0
0.0026166493 0.079999998 0.026445454 0.33897066 0.54846609 0
0.0015125979 0.079999998 0.026475014 0.33897066 0.54846609 0
