# .PCD v0.7 - Point Cloud Data file format
VERSION 0.7
FIELDS x y z vp_x vp_y vp_z
SIZE 4 4 4 4 4 4
TYPE F F F F F F
COUNT 1 1 1 1 1 1
WIDTH 851
HEIGHT 1
VIEWPOINT 0 0 0 1 0 0 0
POINTS 851
DATA ascii
0.0041070501 0 0.020469917 0.33897066 -0.54846609 0
0.0052754791 0 0.020450547 0.33897066 -0.54846609 0
0.0064417017 0 0.020431263 0.33897066 -0.54846609 0
0.0076057296 0 0.020412063 0.33897066 -0.54846609 0
0.008767575 0 0.020392951 0.33897066 -0.54846609 0
0.0099272495 0 0.020373922 0.33897066 -0.54846609 0
0.011084764 0 0.020354977 0.33897066 -0.54846609 0
0.012240131 0 0.020336118 0.33897066 -0.54846609 0
0.013393362 0 0.02031734 0.33897066 -0.54846609 0
0.014544467 0 0.020298649 0.33897066 -0.54846609 0
0.01569346 0 0.020280039 0.33897066 -0.54846609 0
0.01684035 0 0.020261513 0.33897066 -0.54846609 0
0.01798515 0 0.020243069 0.33897066 -0.54846609 0
0.01912787 0 0.020224707 0.33897066 -0.54846609 0
0.020268522 0 0.020206427 0.33897066 -0.54846609 0
0.021407116 0 0.020188229 0.33897066 -0.54846609 0
0.022543665 0 0.020170113 0.33897066 -0.54846609 0
0.023678178 0 0.020152077 0.33897066 -0.54846609 0
0.024810666 0 0.020134123 0.33897066 -0.54846609 0
0.025941143 0 0.020116249 0.33897066 -0.54846609 0
0.027069615 0 0.020098455 0.33897066 -0.54846609 0
0.028196095 0 0.020080741 0.33897066 -0.54846609 0
0.029320594 0 0.020063106 0.33897066 -0.54846609 0
0.030443123 0 0.020045551 0.33897066 -0.54846609 0
0.031563692 0 0.020028075 0.33897066 -0.54846609 0
0.032682311 0 0.020010676 0.33897066 -0.54846609 0
0.033798993 0 0.019993357 0.33897066 -0.54846609 0
0.034913745 0 0.019976117 0.33897066 -0.54846609 0
0.036026575 0 0.019958954 0.33897066 -0.54846609 0
0.037137501 0 0.019941868 0.33897066 -0.54846609 0
0.038246531 0 0.019924859 0.33897066 -0.54846609 0
0.039353669 0 0.019907927 0.33897066 -0.54846609 0
0.039999999 0.00084321451 0.019921653 0.33897066 -0.54846609 0
0.039999999 0.0028811716 0.019978696 0.33897066 -0.54846609 0
0.039999999 0.004930838 0.020036116 0.33897066 -0.54846609 0
0.039999999 0.0069923252 0.020093916 0.33897066 -0.54846609 0
0.039999999 0.0090657454 0.020152098 0.33897066 -0.54846609 0
0.039999999 0.011151213 0.020210667 0.33897066 -0.54846609 0
0.039999999 0.013248843 0.020269627 0.33897066 -0.54846609 0
0.039999999 0.015358754 0.020328982 0.33897066 -0.54846609 0
0.039999999 0.017481061 0.020388734 0.33897066 -0.54846609 0
0.039999999 0.019615887 0.020448886 0.33897066 -0.54846609 0
0.039999999 0.021763351 0.020509446 0.33897066 -0.54846609 0
0.039999999 0.02392358 0.020570414 0.33897066 -0.54846609 0
0.039999999 0.026096694 0.020631798 0.33897066 -0.54846609 0
0.039999999 0.028282821 0.020693596 0.33897066 -0.54846609 0
0.039999999 0.030482091 0.020755818 0.33897066 -0.54846609 0
0.039999999 0.03269463 0.020818466 0.33897066 -0.54846609 0
0.039999999 0.034920573 0.020881543 0.33897066 -0.54846609 0
0.039999999 0.03716005 0.020945054 0.33897066 -0.54846609 0
0.039999999 0.039413195 0.021009004 0.33897066 -0.54846609 0
0.039999999 0.04168015 0.021073395 0.33897066 -0.54846609 0
0.039999999 0.043961044 0.021138234 0.33897066 -0.54846609 0
0.039999999 0.046256028 0.021203525 0.33897066 -0.54846609 0
0.039999999 0.048565235 0.021269273 0.33897066 -0.54846609 0
0.039999999 0.050888818 0.021335479 0.33897066 -0.54846609 0
0.039999999 0.053226911 0.021402152 0.33897066 -0.54846609 0
0.039999999 0.055579673 0.021469295 0.33897066 -0.54846609 0
0.039999999 0.057947248 0.021536913 0.33897066 -0.54846609 0
0.039999999 0.060329787 0.021605009 0.33897066 -0.54846609 0
0.039999999 0.062727451 0.021673592 0.33897066 -0.54846609 0
0.039999999 0.065140389 0.021742662 0.33897066 -0.54846609 0
0.039999999 0.067568757 0.021812227 0.33897066 -0.54846609 0
0.039999999 0.070012726 0.021882292 0.33897066 -0.54846609 0
0.039999999 0.072472453 0.021952862 0.33897066 -0.54846609 0
0.039999999 0.074948095 0.02202394 0.33897066 -0.54846609 0
0.039999999 0.077439837 0.022095537 0.33897066 -0.54846609 0
0.039999999 0.079947829 0.022167651 0.33897066 -0.54846609 0
0.00058840477 0 0.019526526 0.33897066 -0.54846609 0
0.0017635248 0 0.019507855 0.33897066 -0.54846609 0
0.0029364026 0 0.019489266 0.33897066 -0.54846609 0
0.0041070501 0 0.019470759 0.33897066 -0.54846609 0
0.0052754791 0 0.019452333 0.33897066 -0.54846609 0
0.0064417017 0 0.01943399 0.33897066 -0.54846609 0
0.0076057296 0 0.019415729 0.33897066 -0.54846609 0
0.008767575 0 0.019397547 0.33897066 -0.54846609 0
0.0099272495 0 0.019379448 0.33897066 -0.54846609 0
0.011084764 0 0.019361429 0.33897066 -0.54846609 0
0.012240131 0 0.019343488 0.33897066 -0.54846609 0
0.013393362 0 0.019325629 0.33897066 -0.54846609 0
0.014544467 0 0.019307848 0.33897066 -0.54846609 0
0.01569346 0 0.019290147 0.33897066 -0.54846609 0
0.01684035 0 0.019272525 0.33897066 -0.54846609 0
0.01798515 0 0.019254982 0.33897066 -0.54846609 0
0.01912787 0 0.019237516 0.33897066 -0.54846609 0
0.020268522 0 0.019220131 0.33897066 -0.54846609 0
0.021407116 0 0.019202821 0.33897066 -0.54846609 0
0.022543665 0 0.019185588 0.33897066 -0.54846609 0
0.023678178 0 0.019168433 0.33897066 -0.54846609 0
0.024810666 0 0.019151354 0.33897066 -0.54846609 0
0.025941143 0 0.019134352 0.33897066 -0.54846609 0
0.027069615 0 0.019117428 0.33897066 -0.54846609 0
0.028196095 0 0.019100579 0.33897066 -0.54846609 0
0.029320594 0 0.019083804 0.33897066 -0.54846609 0
0.030443123 0 0.019067105 0.33897066 -0.54846609 0
0.031563692 0 0.019050483 0.33897066 -0.54846609 0
0.032682311 0 0.019033933 0.33897066 -0.54846609 0
0.033798993 0 0.01901746 0.33897066 -0.54846609 0
0.034913745 0 0.019001061 0.33897066 -0.54846609 0
0.036026575 0 0.018984735 0.33897066 -0.54846609 0
0.037137501 0 0.018968483 0.33897066 -0.54846609 0
0.038246531 0 0.018952304 0.33897066 -0.54846609 0
0.039353669 0 0.0189362 0.33897066 -0.54846609 0
0.039999999 0.00084321451 0.018949255 0.33897066 -0.54846609 0
0.039999999 0.0028811716 0.019003514 0.33897066 -0.54846609 0
0.039999999 0.004930838 0.019058131 0.33897066 -0.54846609 0
0.039999999 0.0069923252 0.01911311 0.33897066 -0.54846609 0
0.039999999 0.0090657454 0.019168451 0.33897066 -0.54846609 0
0.039999999 0.011151213 0.019224163 0.33897066 -0.54846609 0
0.039999999 0.013248843 0.019280244 0.33897066 -0.54846609 0
0.039999999 0.015358754 0.0193367 0.33897066 -0.54846609 0
0.039999999 0.017481061 0.019393537 0.33897066 -0.54846609 0
0.039999999 0.019615887 0.019450754 0.33897066 -0.54846609 0
0.039999999 0.021763351 0.019508358 0.33897066 -0.54846609 0
0.039999999 0.02392358 0.01956635 0.33897066 -0.54846609 0
0.039999999 0.026096694 0.019624736 0.33897066 -0.54846609 0
0.039999999 0.028282821 0.019683519 0.33897066 -0.54846609 0
0.039999999 0.030482091 0.019742705 0.33897066 -0.54846609 0
0.039999999 0.03269463 0.019802293 0.33897066 -0.54846609 0
0.039999999 0.034920573 0.019862292 0.33897066 -0.54846609 0
0.039999999 0.03716005 0.019922704 0.33897066 -0.54846609 0
0.039999999 0.039413195 0.01998353 0.33897066 -0.54846609 0
0.039999999 0.04168015 0.020044779 0.33897066 -0.54846609 0
0.039999999 0.043961044 0.020106453 0.33897066 -0.54846609 0
0.039999999 0.046256028 0.020168558 0.33897066 -0.54846609 0
0.039999999 0.048565235 0.020231096 0.33897066 -0.54846609 0
0.039999999 0.050888818 0.020294072 0.33897066 -0.54846609 0
0.039999999 0.053226911 0.02035749 0.33897066 -0.54846609 0
0.039999999 0.055579673 0.020421356 0.33897066 -0.54846609 0
0.039999999 0.057947248 0.020485673 0.33897066 -0.54846609 0
0.039999999 0.060329787 0.020550445 0.33897066 -0.54846609 0
0.039999999 0.062727451 0.02061568 0.33897066 -0.54846609 0
0.039999999 0.065140389 0.020681379 0.33897066 -0.54846609 0
0.039999999 0.067568757 0.020747548 0.33897066 -0.54846609 0
0.039999999 0.070012726 0.020814193 0.33897066 -0.54846609 0
0.039999999 0.072472453 0.020881318 0.33897066 -0.54846609 0
0.039999999 0.074948095 0.020948928 0.33897066 -0.54846609 0
0.039999999 0.077439837 0.021017028 0.33897066 -0.54846609 0
0.039999999 0.079947829 0.021085624 0.33897066 -0.54846609 0
0.00058840477 0 0.0185246 0.33897066 -0.54846609 0
0.0017635248 0 0.018506886 0.33897066 -0.54846609 0
0.0029364026 0 0.018489251 0.33897066 -0.54846609 0
0.0041070501 0 0.018471694 0.33897066 -0.54846609 0
0.0052754791 0 0.018454215 0.33897066 -0.54846609 0
0.0064417017 0 0.018436812 0.33897066 -0.54846609 0
0.0076057296 0 0.018419487 0.33897066 -0.54846609 0
0.008767575 0 0.018402239 0.33897066 -0.54846609 0
0.0099272495 0 0.018385068 0.33897066 -0.54846609 0
0.011084764 0 0.018367972 0.33897066 -0.54846609 0
0.012240131 0 0.018350953 0.33897066 -0.54846609 0
0.013393362 0 0.018334011 0.33897066 -0.54846609 0
0.014544467 0 0.018317143 0.33897066 -0.54846609 0
0.01569346 0 0.018300351 0.33897066 -0.54846609 0
0.01684035 0 0.018283632 0.33897066 -0.54846609 0
0.01798515 0 0.018266989 0.33897066 -0.54846609 0
0.01912787 0 0.018250419 0.33897066 -0.54846609 0
0.020268522 0 0.018233925 0.33897066 -0.54846609 0
0.021407116 0 0.018217502 0.33897066 -0.54846609 0
0.022543665 0 0.018201156 0.33897066 -0.54846609 0
0.023678178 0 0.01818488 0.33897066 -0.54846609 0
0.024810666 0 0.018168679 0.33897066 -0.54846609 0
0.025941143 0 0.01815255 0.33897066 -0.54846609 0
0.027069615 0 0.018136492 0.33897066 -0.54846609 0
0.028196095 0 0.018120507 0.33897066 -0.54846609 0
0.029320594 0 0.018104594 0.33897066 -0.54846609 0
0.030443123 0 0.018088752 0.33897066 -0.54846609 0
0.031563692 0 0.018072981 0.33897066 -0.54846609 0
0.032682311 0 0.018057283 0.33897066 -0.54846609 0
0.033798993 0 0.018041654 0.33897066 -0.54846609 0
0.034913745 0 0.018026097 0.33897066 -0.54846609 0
0.036026575 0 0.018010609 0.33897066 -0.54846609 0
0.037137501 0 0.01799519 0.33897066 -0.54846609 0
0.038246531 0 0.017979842 0.33897066 -0.54846609 0
0.039353669 0 0.017964562 0.33897066 -0.54846609 0
0.039999999 0.00084321451 0.017976949 0.33897066 -0.54846609 0
0.039999999 0.0028811716 0.018028425 0.33897066 -0.54846609 0
0.039999999 0.004930838 0.018080238 0.33897066 -0.54846609 0
0.039999999 0.0069923252 0.018132396 0.33897066 -0.54846609 0
0.039999999 0.0090657454 0.018184898 0.33897066 -0.54846609 0
0.039999999 0.011151213 0.018237751 0.33897066 -0.54846609 0
0.039999999 0.013248843 0.018290954 0.33897066 -0.54846609 0
0.039999999 0.015358754 0.018344514 0.33897066 -0.54846609 0
0.039999999 0.017481061 0.018398434 0.33897066 -0.54846609 0
0.039999999 0.019615887 0.018452715 0.33897066 -0.54846609 0
0.039999999 0.021763351 0.018507363 0.33897066 -0.54846609 0
0.039999999 0.02392358 0.01856238 0.33897066 -0.54846609 0
0.039999999 0.026096694 0.01861777 0.33897066 -0.54846609 0
0.039999999 0.028282821 0.018673537 0.33897066 -0.54846609 0
0.039999999 0.030482091 0.018729685 0.33897066 -0.54846609 0
0.039999999 0.03269463 0.018786216 0.33897066 -0.54846609 0
0.039999999 0.034920573 0.018843137 0.33897066 -0.54846609 0
0.039999999 0.03716005 0.018900448 0.33897066 -0.54846609 0
0.039999999 0.039413195 0.018958155 0.33897066 -0.54846609 0
0.039999999 0.04168015 0.01901626 0.33897066 -0.54846609 0
0.039999999 0.043961044 0.019074772 0.33897066 -0.54846609 0
0.039999999 0.046256028 0.019133687 0.33897066 -0.54846609 0
0.039999999 0.048565235 0.019193016 0.33897066 -0.54846609 0
0.039999999 0.050888818 0.01925276 0.33897066 -0.54846609 0
0.039999999 0.053226911 0.019312926 0.33897066 -0.54846609 0
0.039999999 0.055579673 0.019373514 0.33897066 -0.54846609 0
0.039999999 0.057947248 0.01943453 0.33897066 -0.54846609 0
0.039999999 0.060329787 0.019495981 0.33897066 -0.54846609 0
0.039999999 0.062727451 0.019557867 0.33897066 -0.54846609 0
0.039999999 0.065140389 0.019620195 0.33897066 -0.54846609 0
0.039999999 0.067568757 0.01968297 0.33897066 -0.54846609 0
0.039999999 0.070012726 0.019746196 0.33897066 -0.54846609 0
0.039999999 0.072472453 0.019809876 0.33897066 -0.54846609 0
0.039999999 0.074948095 0.019874018 0.33897066 -0.54846609 0
0.039999999 0.077439837 0.019938624 0.33897066 -0.54846609 0
0.039999999 0.079947829 0.020003699 0.33897066 -0.54846609 0
0.00058840477 0 0.017522762 0.33897066 -0.54846609 0
0.0017635248 0 0.017506007 0.33897066 -0.54846609 0
0.0029364026 0 0.017489325 0.33897066 -0.54846609 0
0.0041070501 0 0.017472718 0.33897066 -0.54846609 0
0.0052754791 0 0.017456183 0.33897066 -0.54846609 0
0.0064417017 0 0.017439723 0.33897066 -0.54846609 0
0.0076057296 0 0.017423334 0.33897066 -0.54846609 0
0.008767575 0 0.017407019 0.33897066 -0.54846609 0
0.0099272495 0 0.017390776 0.33897066 -0.54846609 0
0.011084764 0 0.017374607 0.33897066 -0.54846609 0
0.012240131 0 0.017358508 0.33897066 -0.54846609 0
0.013393362 0 0.01734248 0.33897066 -0.54846609 0
0.014544467 0 0.017326524 0.33897066 -0.54846609 0
0.01569346 0 0.01731064 0.33897066 -0.54846609 0
0.01684035 0 0.017294826 0.33897066 -0.54846609 0
0.01798515 0 0.017279083 0.33897066 -0.54846609 0
0.01912787 0 0.017263411 0.33897066 -0.54846609 0
0.020268522 0 0.017247807 0.33897066 -0.54846609 0
0.021407116 0 0.017232275 0.33897066 -0.54846609 0
0.022543665 0 0.017216811 0.33897066 -0.54846609 0
0.023678178 0 0.017201416 0.33897066 -0.54846609 0
0.024810666 0 0.01718609 0.33897066 -0.54846609 0
0.025941143 0 0.017170833 0.33897066 -0.54846609 0
0.027069615 0 0.017155644 0.33897066 -0.54846609 0
0.028196095 0 0.017140524 0.33897066 -0.54846609 0
0.029320594 0 0.017125471 0.33897066 -0.54846609 0
0.030443123 0 0.017110486 0.33897066 -0.54846609 0
0.031563692 0 0.01709557 0.33897066 -0.54846609 0
0.032682311 0 0.017080719 0.33897066 -0.54846609 0
0.033798993 0 0.017065935 0.33897066 -0.54846609 0
0.034913745 0 0.017051218 0.33897066 -0.54846609 0
0.036026575 0 0.017036568 0.33897066 -0.54846609 0
0.037137501 0 0.017021984 0.33897066 -0.54846609 0
0.038246531 0 0.017007466 0.33897066 -0.54846609 0
0.039353669 0 0.016993014 0.33897066 -0.54846609 0
0.039999999 0.00084321451 0.01700473 0.33897066 -0.54846609 0
0.039999999 0.0028811716 0.017053422 0.33897066 -0.54846609 0
0.039999999 0.004930838 0.017102433 0.33897066 -0.54846609 0
0.039999999 0.0069923252 0.017151769 0.33897066 -0.54846609 0
0.039999999 0.0090657454 0.017201433 0.33897066 -0.54846609 0
0.039999999 0.011151213 0.017251426 0.33897066 -0.54846609 0
0.039999999 0.013248843 0.017301753 0.33897066 -0.54846609 0
0.039999999 0.015358754 0.017352417 0.33897066 -0.54846609 0
0.039999999 0.017481061 0.01740342 0.33897066 -0.54846609 0
0.039999999 0.019615887 0.017454766 0.33897066 -0.54846609 0
0.039999999 0.021763351 0.017506458 0.33897066 -0.54846609 0
0.039999999 0.02392358 0.0175585 0.33897066 -0.54846609 0
0.039999999 0.026096694 0.017610895 0.33897066 -0.54846609 0
0.039999999 0.028282821 0.017663646 0.33897066 -0.54846609 0
0.039999999 0.030482091 0.017716756 0.33897066 -0.54846609 0
0.039999999 0.03269463 0.017770231 0.33897066 -0.54846609 0
0.039999999 0.034920573 0.017824072 0.33897066 -0.54846609 0
0.039999999 0.03716005 0.017878285 0.33897066 -0.54846609 0
0.039999999 0.039413195 0.017932869 0.33897066 -0.54846609 0
0.039999999 0.04168015 0.017987834 0.33897066 -0.54846609 0
0.039999999 0.043961044 0.018043179 0.33897066 -0.54846609 0
0.039999999 0.046256028 0.018098909 0.33897066 -0.54846609 0
0.039999999 0.048565235 0.018155031 0.33897066 -0.54846609 0
0.039999999 0.050888818 0.018211544 0.33897066 -0.54846609 0
0.039999999 0.053226911 0.018268455 0.33897066 -0.54846609 0
0.039999999 0.055579673 0.018325767 0.33897066 -0.54846609 0
0.039999999 0.057947248 0.018383482 0.33897066 -0.54846609 0
0.039999999 0.060329787 0.01844161 0.33897066 -0.54846609 0
0.039999999 0.062727451 0.018500149 0.33897066 -0.54846609 0
0.039999999 0.065140389 0.018559106 0.33897066 -0.54846609 0
0.039999999 0.067568757 0.018618487 0.33897066 -0.54846609 0
0.039999999 0.070012726 0.018678293 0.33897066 -0.54846609 0
0.039999999 0.072472453 0.018738529 0.33897066 -0.54846609 0
0.039999999 0.074948095 0.018799201 0.33897066 -0.54846609 0
0.039999999 0.077439837 0.018860312 0.33897066 -0.54846609 0
0.039999999 0.079947829 0.018921869 0.33897066 -0.54846609 0
0.00058840477 0 0.016521011 0.33897066 -0.54846609 0
0.0017635248 0 0.016505212 0.33897066 -0.54846609 0
0.0029364026 0 0.016489483 0.33897066 -0.54846609 0
0.0041070501 0 0.016473826 0.33897066 -0.54846609 0
0.0052754791 0 0.016458238 0.33897066 -0.54846609 0
0.0064417017 0 0.016442716 0.33897066 -0.54846609 0
0.0076057296 0 0.016427265 0.33897066 -0.54846609 0
0.008767575 0 0.016411884 0.33897066 -0.54846609 0
0.0099272495 0 0.016396569 0.33897066 -0.54846609 0
0.011084764 0 0.016381323 0.33897066 -0.54846609 0
0.012240131 0 0.016366145 0.33897066 -0.54846609 0
0.013393362 0 0.016351035 0.33897066 -0.54846609 0
0.014544467 0 0.01633599 0.33897066 -0.54846609 0
0.01569346 0 0.016321015 0.33897066 -0.54846609 0
0.01684035 0 0.016306104 0.33897066 -0.54846609 0
0.01798515 0 0.016291261 0.33897066 -0.54846609 0
0.01912787 0 0.016276484 0.33897066 -0.54846609 0
0.020268522 0 0.016261773 0.33897066 -0.54846609 0
0.021407116 0 0.016247129 0.33897066 -0.54846609 0
0.022543665 0 0.016232548 0.33897066 -0.54846609 0
0.023678178 0 0.016218035 0.33897066 -0.54846609 0
0.024810666 0 0.016203584 0.33897066 -0.54846609 0
0.025941143 0 0.016189199 0.33897066 -0.54846609 0
0.027069615 0 0.016174879 0.33897066 -0.54846609 0
0.028196095 0 0.016160622 0.33897066 -0.54846609 0
0.029320594 0 0.016146431 0.33897066 -0.54846609 0
0.030443123 0 0.016132303 0.33897066 -0.54846609 0
0.031563692 0 0.016118238 0.33897066 -0.54846609 0
0.032682311 0 0.016104236 0.33897066 -0.54846609 0
0.033798993 0 0.016090298 0.33897066 -0.54846609 0
0.034913745 0 0.016076423 0.33897066 -0.54846609 0
0.036026575 0 0.01606261 0.33897066 -0.54846609 0
0.037137501 0 0.01604886 0.33897066 -0.54846609 0
0.038246531 0 0.016035171 0.33897066 -0.54846609 0
0.039353669 0 0.016021546 0.33897066 -0.54846609 0
0.039999999 0.00084321451 0.016032591 0.33897066 -0.54846609 0
0.039999999 0.0028811716 0.0160785 0.33897066 -0.54846609 0
0.039999999 0.004930838 0.01612471 0.33897066 -0.54846609 0
0.039999999 0.0069923252 0.016171226 0.33897066 -0.54846609 0
0.039999999 0.0090657454 0.016218049 0.33897066 -0.54846609 0
0.039999999 0.011151213 0.016265186 0.33897066 -0.54846609 0
0.039999999 0.013248843 0.016312635 0.33897066 -0.54846609 0
0.039999999 0.015358754 0.016360402 0.33897066 -0.54846609 0
0.039999999 0.017481061 0.01640849 0.33897066 -0.54846609 0
0.039999999 0.019615887 0.0164569 0.33897066 -0.54846609 0
0.039999999 0.021763351 0.016505638 0.33897066 -0.54846609 0
0.039999999 0.02392358 0.016554704 0.33897066 -0.54846609 0
0.039999999 0.026096694 0.016604103 0.33897066 -0.54846609 0
0.039999999 0.028282821 0.016653839 0.33897066 -0.54846609 0
0.039999999 0.030482091 0.016703913 0.33897066 -0.54846609 0
0.039999999 0.03269463 0.016754331 0.33897066 -0.54846609 0
0.039999999 0.034920573 0.016805094 0.33897066 -0.54846609 0
0.039999999 0.03716005 0.016856207 0.33897066 -0.54846609 0
0.039999999 0.039413195 0.016907671 0.33897066 -0.54846609 0
0.039999999 0.04168015 0.016959494 0.33897066 -0.54846609 0
0.039999999 0.043961044 0.017011676 0.33897066 -0.54846609 0
0.039999999 0.046256028 0.017064219 0.33897066 -0.54846609 0
0.039999999 0.048565235 0.017117132 0.33897066 -0.54846609 0
0.039999999 0.050888818 0.017170414 0.33897066 -0.54846609 0
0.039999999 0.053226911 0.017224072 0.33897066 -0.54846609 0
0.039999999 0.055579673 0.017278107 0.33897066 -0.54846609 0
0.039999999 0.057947248 0.017332524 0.33897066 -0.54846609 0
0.039999999 0.060329787 0.017387327 0.33897066 -0.54846609 0
0.039999999 0.062727451 0.017442521 0.33897066 -0.54846609 0
0.039999999 0.065140389 0.017498108 0.33897066 -0.54846609 0
0.039999999 0.067568757 0.017554093 0.33897066 -0.54846609 0
0.039999999 0.070012726 0.017610479 0.33897066 -0.54846609 0
0.039999999 0.072472453 0.017667273 0.33897066 -0.54846609 0
0.039999999 0.074948095 0.017724477 0.33897066 -0.54846609 0
0.039999999 0.077439837 0.017782094 0.33897066 -0.54846609 0
0.039999999 0.079947829 0.017840132 0.33897066 -0.54846609 0
0.00058840477 0 0.015519337 0.33897066 -0.54846609 0
0.0017635248 0 0.015504497 0.33897066 -0.54846609 0
0.0029364026 0 0.015489723 0.33897066 -0.54846609 0
0.0041070501 0 0.015475013 0.33897066 -0.54846609 0
0.0052754791 0 0.01546037 0.33897066 -0.54846609 0
0.0064417017 0 0.015445791 0.33897066 -0.54846609 0
0.0076057296 0 0.015431277 0.33897066 -0.54846609 0
0.008767575 0 0.015416827 0.33897066 -0.54846609 0
0.0099272495 0 0.015402442 0.33897066 -0.54846609 0
0.011084764 0 0.01538812 0.33897066 -0.54846609 0
0.012240131 0 0.015373861 0.33897066 -0.54846609 0
0.013393362 0 0.015359667 0.33897066 -0.54846609 0
0.014544467 0 0.015345536 0.33897066 -0.54846609 0
0.01569346 0 0.015331468 0.33897066 -0.54846609 0
0.01684035 0 0.015317461 0.33897066 -0.54846609 0
0.01798515 0 0.015303519 0.33897066 -0.54846609 0
0.01912787 0 0.015289637 0.33897066 -0.54846609 0
0.020268522 0 0.015275818 0.33897066 -0.54846609 0
0.021407116 0 0.015262061 0.33897066 -0.54846609 0
0.022543665 0 0.015248365 0.33897066 -0.54846609 0
0.023678178 0 0.01523473 0.33897066 -0.54846609 0
0.024810666 0 0.015221157 0.33897066 -0.54846609 0
0.025941143 0 0.015207645 0.33897066 -0.54846609 0
0.027069615 0 0.015194193 0.33897066 -0.54846609 0
0.028196095 0 0.0151808 0.33897066 -0.54846609 0
0.029320594 0 0.015167469 0.33897066 -0.54846609 0
0.030443123 0 0.015154198 0.33897066 -0.54846609 0
0.031563692 0 0.015140985 0.33897066 -0.54846609 0
0.032682311 0 0.015127833 0.33897066 -0.54846609 0
0.033798993 0 0.01511474 0.33897066 -0.54846609 0
0.034913745 0 0.015101706 0.33897066 -0.54846609 0
0.036026575 0 0.01508873 0.33897066 -0.54846609 0
0.037137501 0 0.015075814 0.33897066 -0.54846609 0
0.038246531 0 0.015062956 0.33897066 -0.54846609 0
0.039353669 0 0.015050156 0.33897066 -0.54846609 0
0.039999999 0.00084321451 0.015060532 0.33897066 -0.54846609 0
0.039999999 0.0028811716 0.015103657 0.33897066 -0.54846609 0
0.039999999 0.004930838 0.015147065 0.33897066 -0.54846609 0
0.039999999 0.0069923252 0.015190761 0.33897066 -0.54846609 0
0.039999999 0.0090657454 0.015234746 0.33897066 -0.54846609 0
0.039999999 0.011151213 0.015279023 0.33897066 -0.54846609 0
0.039999999 0.013248843 0.015323596 0.33897066 -0.54846609 0
0.039999999 0.015358754 0.015368467 0.33897066 -0.54846609 0
0.039999999 0.017481061 0.015413639 0.33897066 -0.54846609 0
0.039999999 0.019615887 0.015459115 0.33897066 -0.54846609 0
0.039999999 0.021763351 0.015504897 0.33897066 -0.54846609 0
0.039999999 0.02392358 0.015550988 0.33897066 -0.54846609 0
0.039999999 0.026096694 0.015597393 0.33897066 -0.54846609 0
0.039999999 0.028282821 0.015644113 0.33897066 -0.54846609 0
0.039999999 0.030482091 0.015691152 0.33897066 -0.54846609 0
0.039999999 0.03269463 0.015738511 0.33897066 -0.54846609 0
0.039999999 0.034920573 0.015786197 0.33897066 -0.54846609 0
0.039999999 0.03716005 0.01583421 0.33897066 -0.54846609 0
0.039999999 0.039413195 0.015882555 0.33897066 -0.54846609 0
0.039999999 0.04168015 0.015931236 0.33897066 -0.54846609 0
0.039999999 0.043961044 0.015980253 0.33897066 -0.54846609 0
0.039999999 0.046256028 0.016029613 0.33897066 -0.54846609 0
0.039999999 0.048565235 0.016079316 0.33897066 -0.54846609 0
0.039999999 0.050888818 0.016129369 0.33897066 -0.54846609 0
0.039999999 0.053226911 0.016179772 0.33897066 -0.54846609 0
0.039999999 0.055579673 0.016230531 0.33897066 -0.54846609 0
0.039999999 0.057947248 0.016281649 0.33897066 -0.54846609 0
0.039999999 0.060329787 0.016333129 0.33897066 -0.54846609 0
0.039999999 0.062727451 0.016384976 0.33897066 -0.54846609 0
0.039999999 0.065140389 0.016437193 0.33897066 -0.54846609 0
0.039999999 0.067568757 0.016489783 0.33897066 -0.54846609 0
0.039999999 0.070012726 0.016542751 0.33897066 -0.54846609 0
0.039999999 0.072472453 0.016596101 0.33897066 -0.54846609 0
0.039999999 0.074948095 0.016649837 0.33897066 -0.54846609 0
0.039999999 0.077439837 0.016703961 0.33897066 -0.54846609 0
0.039999999 0.079947829 0.016758481 0.33897066 -0.54846609 0
0.00058840477 0 0.014517739 0.33897066 -0.54846609 0
0.0017635248 0 0.014503857 0.33897066 -0.54846609 0
0.0029364026 0 0.014490036 0.33897066 -0.54846609 0
0.0041070501 0 0.014476276 0.33897066 -0.54846609 0
0.0052754791 0 0.014462577 0.33897066 -0.54846609 0
0.0064417017 0 0.01444894 0.33897066 -0.54846609 0
0.0076057296 0 0.014435362 0.33897066 -0.54846609 0
0.008767575 0 0.014421845 0.33897066 -0.54846609 0
0.0099272495 0 0.014408388 0.33897066 -0.54846609 0
0.011084764 0 0.01439499 0.33897066 -0.54846609 0
0.012240131 0 0.014381653 0.33897066 -0.54846609 0
0.013393362 0 0.014368374 0.33897066 -0.54846609 0
0.014544467 0 0.014355155 0.33897066 -0.54846609 0
0.01569346 0 0.014341994 0.33897066 -0.54846609 0
0.01684035 0 0.014328892 0.33897066 -0.54846609 0
0.01798515 0 0.014315849 0.33897066 -0.54846609 0
0.01912787 0 0.014302864 0.33897066 -0.54846609 0
0.020268522 0 0.014289937 0.33897066 -0.54846609 0
0.021407116 0 0.014277067 0.33897066 -0.54846609 0
0.022543665 0 0.014264255 0.33897066 -0.54846609 0
0.023678178 0 0.0142515 0.33897066 -0.54846609 0
0.024810666 0 0.014238804 0.33897066 -0.54846609 0
0.025941143 0 0.014226163 0.33897066 -0.54846609 0
0.027069615 0 0.014213579 0.33897066 -0.54846609 0
0.028196095 0 0.014201052 0.33897066 -0.54846609 0
0.029320594 0 0.01418858 0.33897066 -0.54846609 0
0.030443123 0 0.014176165 0.33897066 -0.54846609 0
0.031563692 0 0.014163806 0.33897066 -0.54846609 0
0.032682311 0 0.014151502 0.33897066 -0.54846609 0
0.033798993 0 0.014139255 0.33897066 -0.54846609 0
0.034913745 0 0.014127062 0.33897066 -0.54846609 0
0.036026575 0 0.014114924 0.33897066 -0.54846609 0
0.037137501 0 0.014102841 0.33897066 -0.54846609 0
0.038246531 0 0.014090812 0.33897066 -0.54846609 0
0.039353669 0 0.014078838 0.33897066 -0.54846609 0
0.039999999 0.00084321451 0.014088545 0.33897066 -0.54846609 0
0.039999999 0.0028811716 0.014128886 0.33897066 -0.54846609 0
0.039999999 0.004930838 0.014169493 0.33897066 -0.54846609 0
0.039999999 0.0069923252 0.014210369 0.33897066 -0.54846609 0
0.039999999 0.0090657454 0.014251515 0.33897066 -0.54846609 0
0.039999999 0.011151213 0.014292935 0.33897066 -0.54846609 0
0.039999999 0.013248843 0.014334631 0.33897066 -0.54846609 0
0.039999999 0.015358754 0.014376606 0.33897066 -0.54846609 0
0.039999999 0.017481061 0.014418863 0.33897066 -0.54846609 0
0.039999999 0.019615887 0.014461403 0.33897066 -0.54846609 0
0.039999999 0.021763351 0.014504231 0.33897066 -0.54846609 0
0.039999999 0.02392358 0.014547348 0.33897066 -0.54846609 0
0.039999999 0.026096694 0.014590757 0.33897066 -0.54846609 0
0.039999999 0.028282821 0.014634462 0.33897066 -0.54846609 0
0.039999999 0.030482091 0.014678464 0.33897066 -0.54846609 0
0.039999999 0.03269463 0.014722768 0.33897066 -0.54846609 0
0.039999999 0.034920573 0.014767377 0.33897066 -0.54846609 0
0.039999999 0.03716005 0.014812292 0.33897066 -0.54846609 0
0.039999999 0.039413195 0.014857516 0.33897066 -0.54846609 0
0.039999999 0.04168015 0.014903055 0.33897066 -0.54846609 0
0.039999999 0.043961044 0.014948908 0.33897066 -0.54846609 0
0.039999999 0.046256028 0.014995081 0.33897066 -0.54846609 0
0.039999999 0.048565235 0.015041578 0.33897066 -0.54846609 0
0.039999999 0.050888818 0.0150884 0.33897066 -0.54846609 0
0.039999999 0.053226911 0.01513555 0.33897066 -0.54846609 0
0.039999999 0.055579673 0.015183033 0.33897066 -0.54846609 0
0.039999999 0.057947248 0.015230852 0.33897066 -0.54846609 0
0.039999999 0.060329787 0.015279011 0.33897066 -0.54846609 0
0.039999999 0.062727451 0.015327511 0.33897066 -0.54846609 0
0.039999999 0.065140389 0.015376358 0.33897066 -0.54846609 0
0.039999999 0.067568757 0.015425554 0.33897066 -0.54846609 0
0.039999999 0.070012726 0.015475104 0.33897066 -0.54846609 0
0.039999999 0.072472453 0.01552501 0.33897066 -0.54846609 0
0.039999999 0.074948095 0.015575278 0.33897066 -0.54846609 0
0.039999999 0.077439837 0.015625909 0.33897066 -0.54846609 0
0.039999999 0.079947829 0.01567691 0.33897066 -0.54846609 0
0.00058840477 0 0.013516211 0.33897066 -0.54846609 0
0.0017635248 0 0.013503287 0.33897066 -0.54846609 0
0.0029364026 0 0.013490419 0.33897066 -0.54846609 0
0.0041070501 0 0.013477609 0.33897066 -0.54846609 0
0.0052754791 0 0.013464855 0.33897066 -0.54846609 0
0.0064417017 0 0.013452158 0.33897066 -0.54846609 0
0.0076057296 0 0.013439517 0.33897066 -0.54846609 0
0.008767575 0 0.013426933 0.33897066 -0.54846609 0
0.0099272495 0 0.013414403 0.33897066 -0.54846609 0
0.011084764 0 0.01340193 0.33897066 -0.54846609 0
0.012240131 0 0.013389513 0.33897066 -0.54846609 0
0.013393362 0 0.013377151 0.33897066 -0.54846609 0
0.014544467 0 0.013364843 0.33897066 -0.54846609 0
0.01569346 0 0.013352591 0.33897066 -0.54846609 0
0.01684035 0 0.013340392 0.33897066 -0.54846609 0
0.01798515 0 0.013328249 0.33897066 -0.54846609 0
0.01912787 0 0.013316159 0.33897066 -0.54846609 0
0.020268522 0 0.013304124 0.33897066 -0.54846609 0
0.021407116 0 0.013292142 0.33897066 -0.54846609 0
0.022543665 0 0.013280215 0.33897066 -0.54846609 0
0.023678178 0 0.013268339 0.33897066 -0.54846609 0
0.024810666 0 0.013256518 0.33897066 -0.54846609 0
0.025941143 0 0.01324475 0.33897066 -0.54846609 0
0.027069615 0 0.013233034 0.33897066 -0.54846609 0
0.028196095 0 0.013221371 0.33897066 -0.54846609 0
0.029320594 0 0.01320976 0.33897066 -0.54846609 0
0.030443123 0 0.013198202 0.33897066 -0.54846609 0
0.031563692 0 0.013186695 0.33897066 -0.54846609 0
0.032682311 0 0.01317524 0.33897066 -0.54846609 0
0.033798993 0 0.013163837 0.33897066 -0.54846609 0
0.034913745 0 0.013152485 0.33897066 -0.54846609 0
0.036026575 0 0.013141184 0.33897066 -0.54846609 0
0.037137501 0 0.013129935 0.33897066 -0.54846609 0
0.038246531 0 0.013118736 0.33897066 -0.54846609 0
0.039353669 0 0.013107589 0.33897066 -0.54846609 0
0.039999999 0.00084321451 0.013116626 0.33897066 -0.54846609 0
0.039999999 0.0028811716 0.013154184 0.33897066 -0.54846609 0
0.039999999 0.004930838 0.01319199 0.33897066 -0.54846609 0
0.039999999 0.0069923252 0.013230045 0.33897066 -0.54846609 0
0.039999999 0.0090657454 0.013268353 0.33897066 -0.54846609 0
0.039999999 0.011151213 0.013306916 0.33897066 -0.54846609 0
0.039999999 0.013248843 0.013345735 0.33897066 -0.54846609 0
0.039999999 0.015358754 0.013384814 0.33897066 -0.54846609 0
0.039999999 0.017481061 0.013424156 0.33897066 -0.54846609 0
0.039999999 0.019615887 0.013463762 0.33897066 -0.54846609 0
0.039999999 0.021763351 0.013503634 0.33897066 -0.54846609 0
0.039999999 0.02392358 0.013543777 0.33897066 -0.54846609 0
0.039999999 0.026096694 0.013584192 0.33897066 -0.54846609 0
0.039999999 0.028282821 0.013624881 0.33897066 -0.54846609 0
0.039999999 0.030482091 0.013665848 0.33897066 -0.54846609 0
0.039999999 0.03269463 0.013707097 0.33897066 -0.54846609 0
0.039999999 0.034920573 0.013748627 0.33897066 -0.54846609 0
0.039999999 0.03716005 0.013790444 0.33897066 -0.54846609 0
0.039999999 0.039413195 0.013832549 0.33897066 -0.54846609 0
0.039999999 0.04168015 0.013874944 0.33897066 -0.54846609 0
0.039999999 0.043961044 0.013917635 0.33897066 -0.54846609 0
0.039999999 0.046256028 0.013960624 0.33897066 -0.54846609 0
0.039999999 0.048565235 0.014003912 0.33897066 -0.54846609 0
0.039999999 0.050888818 0.014047503 0.33897066 -0.54846609 0
0.039999999 0.053226911 0.014091402 0.33897066 -0.54846609 0
0.039999999 0.055579673 0.014135609 0.33897066 -0.54846609 0
0.039999999 0.057947248 0.014180129 0.33897066 -0.54846609 0
0.039999999 0.060329787 0.014224965 0.33897066 -0.54846609 0
0.039999999 0.062727451 0.01427012 0.33897066 -0.54846609 0
0.039999999 0.065140389 0.014315597 0.33897066 -0.54846609 0
0.039999999 0.067568757 0.014361399 0.33897066 -0.54846609 0
0.039999999 0.070012726 0.014407531 0.33897066 -0.54846609 0
0.039999999 0.072472453 0.014453995 0.33897066 -0.54846609 0
0.039999999 0.074948095 0.014500794 0.33897066 -0.54846609 0
0.039999999 0.077439837 0.014547933 0.33897066 -0.54846609 0
0.039999999 0.079947829 0.014595415 0.33897066 -0.54846609 0
0.00058840477 0 0.012514749 0.33897066 -0.54846609 0
0.0017635248 0 0.012502782 0.33897066 -0.54846609 0
0.0029364026 0 0.012490868 0.33897066 -0.54846609 0
0.0041070501 0 0.012479006 0.33897066 -0.54846609 0
0.0052754791 0 0.012467198 0.33897066 -0.54846609 0
0.0064417017 0 0.012455441 0.33897066 -0.54846609 0
0.0076057296 0 0.012443737 0.33897066 -0.54846609 0
0.008767575 0 0.012432085 0.33897066 -0.54846609 0
0.0099272495 0 0.012420485 0.33897066 -0.54846609 0
0.011084764 0 0.012408935 0.33897066 -0.54846609 0
0.012240131 0 0.012397438 0.33897066 -0.54846609 0
0.013393362 0 0.012385991 0.33897066 -0.54846609 0
0.014544467 0 0.012374596 0.33897066 -0.54846609 0
0.01569346 0 0.012363251 0.33897066 -0.54846609 0
0.01684035 0 0.012351957 0.33897066 -0.54846609 0
0.01798515 0 0.012340713 0.33897066 -0.54846609 0
0.01912787 0 0.01232952 0.33897066 -0.54846609 0
0.020268522 0 0.012318376 0.33897066 -0.54846609 0
0.021407116 0 0.012307282 0.33897066 -0.54846609 0
0.022543665 0 0.012296238 0.33897066 -0.54846609 0
0.023678178 0 0.012285243 0.33897066 -0.54846609 0
0.024810666 0 0.012274297 0.33897066 -0.54846609 0
0.025941143 0 0.0122634 0.33897066 -0.54846609 0
0.027069615 0 0.012252552 0.33897066 -0.54846609 0
0.028196095 0 0.012241754 0.33897066 -0.54846609 0
0.029320594 0 0.012231003 0.33897066 -0.54846609 0
0.030443123 0 0.012220301 0.33897066 -0.54846609 0
0.031563692 0 0.012209647 0.33897066 -0.54846609 0
0.032682311 0 0.012199041 0.33897066 -0.54846609 0
0.033798993 0 0.012188483 0.33897066 -0.54846609 0
0.034913745 0 0.012177972 0.33897066 -0.54846609 0
0.036026575 0 0.012167509 0.33897066 -0.54846609 0
0.037137501 0 0.012157093 0.33897066 -0.54846609 0
0.038246531 0 0.012146724 0.33897066 -0.54846609 0
0.039353669 0 0.012136403 0.33897066 -0.54846609 0
0.039999999 0.00084321451 0.01214477 0.33897066 -0.54846609 0
0.039999999 0.0028811716 0.012179545 0.33897066 -0.54846609 0
0.039999999 0.004930838 0.01221455 0.33897066 -0.54846609 0
0.039999999 0.0069923252 0.012249785 0.33897066 -0.54846609 0
0.039999999 0.0090657454 0.012285255 0.33897066 -0.54846609 0
0.039999999 0.011151213 0.012320961 0.33897066 -0.54846609 0
0.039999999 0.013248843 0.012356904 0.33897066 -0.54846609 0
0.039999999 0.015358754 0.012393088 0.33897066 -0.54846609 0
0.039999999 0.017481061 0.012429514 0.33897066 -0.54846609 0
0.039999999 0.019615887 0.012466186 0.33897066 -0.54846609 0
0.039999999 0.021763351 0.012503104 0.33897066 -0.54846609 0
0.039999999 0.02392358 0.012540272 0.33897066 -0.54846609 0
0.039999999 0.026096694 0.012577692 0.33897066 -0.54846609 0
0.039999999 0.028282821 0.012615367 0.33897066 -0.54846609 0
0.039999999 0.030482091 0.012653299 0.33897066 -0.54846609 0
0.039999999 0.03269463 0.01269149 0.33897066 -0.54846609 0
0.039999999 0.034920573 0.012729944 0.33897066 -0.54846609 0
0.039999999 0.03716005 0.012768662 0.33897066 -0.54846609 0
0.039999999 0.039413195 0.012807647 0.33897066 -0.54846609 0
0.039999999 0.04168015 0.012846902 0.33897066 -0.54846609 0
0.039999999 0.043961044 0.01288643 0.33897066 -0.54846609 0
0.039999999 0.046256028 0.012926233 0.33897066 -0.54846609 0
0.039999999 0.048565235 0.012966314 0.33897066 -0.54846609 0
0.039999999 0.050888818 0.013006676 0.33897066 -0.54846609 0
0.039999999 0.053226911 0.013047322 0.33897066 -0.54846609 0
0.039999999 0.055579673 0.013088253 0.33897066 -0.54846609 0
0.039999999 0.057947248 0.013129475 0.33897066 -0.54846609 0
0.039999999 0.060329787 0.013170988 0.33897066 -0.54846609 0
0.039999999 0.062727451 0.013212797 0.33897066 -0.54846609 0
0.039999999 0.065140389 0.013254905 0.33897066 -0.54846609 0
0.039999999 0.067568757 0.013297314 0.33897066 -0.54846609 0
0.039999999 0.070012726 0.013340027 0.33897066 -0.54846609 0
0.039999999 0.072472453 0.013383049 0.33897066 -0.54846609 0
0.039999999 0.074948095 0.01342638 0.33897066 -0.54846609 0
0.039999999 0.077439837 0.013470027 0.33897066 -0.54846609 0
0.039999999 0.079947829 0.01351399 0.33897066 -0.54846609 0
0.00058840477 0 0.011513347 0.33897066 -0.54846609 0
0.0017635248 0 0.011502337 0.33897066 -0.54846609 0
0.0029364026 0 0.011491376 0.33897066 -0.54846609 0
0.0041070501 0 0.011480465 0.33897066 -0.54846609 0
0.0052754791 0 0.011469601 0.33897066 -0.54846609 0
0.0064417017 0 0.011458785 0.33897066 -0.54846609 0
0.0076057296 0 0.011448017 0.33897066 -0.54846609 0
0.008767575 0 0.011437298 0.33897066 -0.54846609 0
0.0099272495 0 0.011426625 0.33897066 -0.54846609 0
0.011084764 0 0.011416 0.33897066 -0.54846609 0
0.012240131 0 0.011405422 0.33897066 -0.54846609 0
0.013393362 0 0.011394892 0.33897066 -0.54846609 0
0.014544467 0 0.011384408 0.33897066 -0.54846609 0
0.01569346 0 0.011373972 0.33897066 -0.54846609 0
0.01684035 0 0.011363581 0.33897066 -0.54846609 0
0.01798515 0 0.011353237 0.33897066 -0.54846609 0
0.01912787 0 0.011342939 0.33897066 -0.54846609 0
0.020268522 0 0.011332687 0.33897066 -0.54846609 0
0.021407116 0 0.011322481 0.33897066 -0.54846609 0
0.022543665 0 0.01131232 0.33897066 -0.54846609 0
0.023678178 0 0.011302205 0.33897066 -0.54846609 0
0.024810666 0 0.011292135 0.33897066 -0.54846609 0
0.025941143 0 0.011282111 0.33897066 -0.54846609 0
0.027069615 0 0.011272131 0.33897066 -0.54846609 0
0.028196095 0 0.011262196 0.33897066 -0.54846609 0
0.029320594 0 0.011252305 0.33897066 -0.54846609 0
0.030443123 0 0.01124246 0.33897066 -0.54846609 0
0.031563692 0 0.011232658 0.33897066 -0.54846609 0
0.032682311 0 0.011222901 0.33897066 -0.54846609 0
0.033798993 0 0.011213188 0.33897066 -0.54846609 0
0.034913745 0 0.011203518 0.33897066 -0.54846609 0
0.036026575 0 0.011193892 0.33897066 -0.54846609 0
0.037137501 0 0.01118431 0.33897066 -0.54846609 0
0.038246531 0 0.01117477 0.33897066 -0.54846609 0
0.039353669 0 0.011165274 0.33897066 -0.54846609 0
0.039999999 0.00084321451 0.011172973 0.33897066 -0.54846609 0
0.039999999 0.0028811716 0.011204965 0.33897066 -0.54846609 0
0.039999999 0.004930838 0.011237169 0.33897066 -0.54846609 0
0.039999999 0.0069923252 0.011269585 0.33897066 -0.54846609 0
0.039999999 0.0090657454 0.011302217 0.33897066 -0.54846609 0
0.039999999 0.011151213 0.011335065 0.33897066 -0.54846609 0
0.039999999 0.013248843 0.011368132 0.33897066 -0.54846609 0
0.039999999 0.015358754 0.01140142 0.33897066 -0.54846609 0
0.039999999 0.017481061 0.011434932 0.33897066 -0.54846609 0
0.039999999 0.019615887 0.011468669 0.33897066 -0.54846609 0
0.039999999 0.021763351 0.011502634 0.33897066 -0.54846609 0
0.039999999 0.02392358 0.011536827 0.33897066 -0.54846609 0
0.039999999 0.026096694 0.011571254 0.33897066 -0.54846609 0
0.039999999 0.028282821 0.011605914 0.33897066 -0.54846609 0
0.039999999 0.030482091 0.01164081 0.33897066 -0.54846609 0
0.039999999 0.03269463 0.011675945 0.33897066 -0.54846609 0
0.039999999 0.034920573 0.011711323 0.33897066 -0.54846609 0
0.039999999 0.03716005 0.011746942 0.33897066 -0.54846609 0
0.039999999 0.039413195 0.011782808 0.33897066 -0.54846609 0
0.039999999 0.04168015 0.011818922 0.33897066 -0.54846609 0
0.039999999 0.043961044 0.011855287 0.33897066 -0.54846609 0
0.039999999 0.046256028 0.011891905 0.33897066 -0.54846609 0
0.039999999 0.048565235 0.011928779 0.33897066 -0.54846609 0
0.039999999 0.050888818 0.011965911 0.33897066 -0.54846609 0
0.039999999 0.053226911 0.012003304 0.33897066 -0.54846609 0
0.039999999 0.055579673 0.012040961 0.33897066 -0.54846609 0
0.039999999 0.057947248 0.012078884 0.33897066 -0.54846609 0
0.039999999 0.060329787 0.012117076 0.33897066 -0.54846609 0
0.039999999 0.062727451 0.012155539 0.33897066 -0.54846609 0
0.039999999 0.065140389 0.012194277 0.33897066 -0.54846609 0
0.039999999 0.067568757 0.012233293 0.33897066 -0.54846609 0
0.039999999 0.070012726 0.012272588 0.33897066 -0.54846609 0
0.039999999 0.072472453 0.012312167 0.33897066 -0.54846609 0
0.039999999 0.074948095 0.012352032 0.33897066 -0.54846609 0
0.039999999 0.077439837 0.012392186 0.33897066 -0.54846609 0
0.039999999 0.079947829 0.012432631 0.33897066 -0.54846609 0
0.00058840477 0 0.010512 0.33897066 -0.54846609 0
0.0017635248 0 0.010501948 0.33897066 -0.54846609 0
0.0029364026 0 0.01049194 0.33897066 -0.54846609 0
0.0041070501 0 0.010481978 0.33897066 -0.54846609 0
0.0052754791 0 0.010472058 0.33897066 -0.54846609 0
0.0064417017 0 0.010462184 0.33897066 -0.54846609 0
0.0076057296 0 0.010452352 0.33897066 -0.54846609 0
0.008767575 0 0.010442565 0.33897066 -0.54846609 0
0.0099272495 0 0.010432821 0.33897066 -0.54846609 0
0.011084764 0 0.01042312 0.33897066 -0.54846609 0
0.012240131 0 0.010413462 0.33897066 -0.54846609 0
0.013393362 0 0.010403848 0.33897066 -0.54846609 0
0.014544467 0 0.010394276 0.33897066 -0.54846609 0
0.01569346 0 0.010384747 0.33897066 -0.54846609 0
0.01684035 0 0.01037526 0.33897066 -0.54846609 0
0.01798515 0 0.010365816 0.33897066 -0.54846609 0
0.01912787 0 0.010356413 0.33897066 -0.54846609 0
0.020268522 0 0.010347052 0.33897066 -0.54846609 0
0.021407116 0 0.010337735 0.33897066 -0.54846609 0
0.022543665 0 0.010328458 0.33897066 -0.54846609 0
0.023678178 0 0.010319222 0.33897066 -0.54846609 0
0.024810666 0 0.010310028 0.33897066 -0.54846609 0
0.025941143 0 0.010300876 0.33897066 -0.54846609 0
0.027069615 0 0.010291764 0.33897066 -0.54846609 0
0.028196095 0 0.010282692 0.33897066 -0.54846609 0
0.029320594 0 0.010273662 0.33897066 -0.54846609 0
0.030443123 0 0.010264673 0.33897066 -0.54846609 0
0.031563692 0 0.010255724 0.33897066 -0.54846609 0
0.032682311 0 0.010246815 0.33897066 -0.54846609 0
0.033798993 0 0.010237947 0.33897066 -0.54846609 0
0.034913745 0 0.010229118 0.33897066 -0.54846609 0
0.036026575 0 0.010220329 0.33897066 -0.54846609 0
0.037137501 0 0.01021158 0.33897066 -0.54846609 0
0.038246531 0 0.010202871 0.33897066 -0.54846609 0
0.039353669 0 0.010194201 0.33897066 -0.54846609 0
0.039999999 0.00084321451 0.010201229 0.33897066 -0.54846609 0
0.039999999 0.0028811716 0.01023044 0.33897066 -0.54846609 0
0.039999999 0.004930838 0.010259842 0.33897066 -0.54846609 0
0.039999999 0.0069923252 0.010289439 0.33897066 -0.54846609 0
0.039999999 0.0090657454 0.010319232 0.33897066 -0.54846609 0
0.039999999 0.011151213 0.010349223 0.33897066 -0.54846609 0
0.039999999 0.013248843 0.010379415 0.33897066 -0.54846609 0
0.039999999 0.015358754 0.010409809 0.33897066 -0.54846609 0
0.039999999 0.017481061 0.010440405 0.33897066 -0.54846609 0
0.039999999 0.019615887 0.010471208 0.33897066 -0.54846609 0
0.039999999 0.021763351 0.010502218 0.33897066 -0.54846609 0
0.039999999 0.02392358 0.010533439 0.33897066 -0.54846609 0
0.039999999 0.026096694 0.010564871 0.33897066 -0.54846609 0
0.039999999 0.028282821 0.010596517 0.33897066 -0.54846609 0
0.039999999 0.030482091 0.010628378 0.33897066 -0.54846609 0
0.039999999 0.03269463 0.010660457 0.33897066 -0.54846609 0
0.039999999 0.034920573 0.010692758 0.33897066 -0.54846609 0
0.039999999 0.03716005 0.010725279 0.33897066 -0.54846609 0
0.039999999 0.039413195 0.010758026 0.33897066 -0.54846609 0
0.039999999 0.04168015 0.010790999 0.33897066 -0.54846609 0
0.039999999 0.043961044 0.010824201 0.33897066 -0.54846609 0
0.039999999 0.046256028 0.010857634 0.33897066 -0.54846609 0
0.039999999 0.048565235 0.010891301 0.33897066 -0.54846609 0
0.039999999 0.050888818 0.010925204 0.33897066 -0.54846609 0
0.039999999 0.053226911 0.010959344 0.33897066 -0.54846609 0
0.039999999 0.055579673 0.010993726 0.33897066 -0.54846609 0
0.039999999 0.057947248 0.01102835 0.33897066 -0.54846609 0
0.039999999 0.060329787 0.011063221 0.33897066 -0.54846609 0
0.039999999 0.062727451 0.011098339 0.33897066 -0.54846609 0
0.039999999 0.065140389 0.011133708 0.33897066 -0.54846609 0
0.039999999 0.067568757 0.01116933 0.33897066 -0.54846609 0
0.039999999 0.070012726 0.011205208 0.33897066 -0.54846609 0
0.039999999 0.072472453 0.011241345 0.33897066 -0.54846609 0
0.039999999 0.074948095 0.011277743 0.33897066 -0.54846609 0
0.039999999 0.077439837 0.011314403 0.33897066 -0.54846609 0
0.039999999 0.079947829 0.011351332 0.33897066 -0.54846609 0
0.00058840477 0 0.0095107043 0.33897066 -0.54846609 0
0.0017635248 0 0.00950161 0.33897066 -0.54846609 0
0.0029364026 0 0.0094925556 0.33897066 -0.54846609 0
0.0041070501 0 0.0094835414 0.33897066 -0.54846609 0
0.0052754791 0 0.0094745671 0.33897066 -0.54846609 0
0.0064417017 0 0.009465633 0.33897066 -0.54846609 0
0.0076057296 0 0.0094567379 0.33897066 -0.54846609 0
0.008767575 0 0.0094478829 0.33897066 -0.54846609 0
0.0099272495 0 0.009439067 0.33897066 -0.54846609 0
0.011084764 0 0.0094302902 0.33897066 -0.54846609 0
0.012240131 0 0.0094215525 0.33897066 -0.54846609 0
0.013393362 0 0.009412854 0.33897066 -0.54846609 0
0.014544467 0 0.0094041936 0.33897066 -0.54846609 0
0.01569346 0 0.0093955724 0.33897066 -0.54846609 0
0.01684035 0 0.0093869893 0.33897066 -0.54846609 0
0.01798515 0 0.0093784444 0.33897066 -0.54846609 0
0.01912787 0 0.0093699377 0.33897066 -0.54846609 0
0.020268522 0 0.0093614683 0.33897066 -0.54846609 0
0.021407116 0 0.0093530379 0.33897066 -0.54846609 0
0.022543665 0 0.0093446448 0.33897066 -0.54846609 0
0.023678178 0 0.009336289 0.33897066 -0.54846609 0
0.024810666 0 0.0093279704 0.33897066 -0.54846609 0
0.025941143 0 0.0093196901 0.33897066 -0.54846609 0
0.027069615 0 0.009311446 0.33897066 -0.54846609 0
0.028196095 0 0.0093032392 0.33897066 -0.54846609 0
0.029320594 0 0.0092950687 0.33897066 -0.54846609 0
0.030443123 0 0.0092869354 0.33897066 -0.54846609 0
0.031563692 0 0.0092788395 0.33897066 -0.54846609 0
0.032682311 0 0.0092707789 0.33897066 -0.54846609 0
0.033798993 0 0.0092627555 0.33897066 -0.54846609 0
0.034913745 0 0.0092547676 0.33897066 -0.54846609 0
0.036026575 0 0.0092468159 0.33897066 -0.54846609 0
0.037137501 0 0.0092388997 0.33897066 -0.54846609 0
0.038246531 0 0.0092310198 0.33897066 -0.54846609 0
0.039353669 0 0.0092231762 0.33897066 -0.54846609 0
0.039999999 0.00084321451 0.0092295352 0.33897066 -0.54846609 0
0.039999999 0.0028811716 0.0092559624 0.33897066 -0.54846609 0
0.039999999 0.004930838 0.0092825647 0.33897066 -0.54846609 0
0.039999999 0.0069923252 0.0093093431 0.33897066 -0.54846609 0
0.039999999 0.0090657454 0.0093362983 0.33897066 -0.54846609 0
0.039999999 0.011151213 0.0093634324 0.33897066 -0.54846609 0
0.039999999 0.013248843 0.0093907481 0.33897066 -0.54846609 0
0.039999999 0.015358754 0.0094182463 0.33897066 -0.54846609 0
0.039999999 0.017481061 0.009445929 0.33897066 -0.54846609 0
0.039999999 0.019615887 0.0094737979 0.33897066 -0.54846609 0
0.039999999 0.021763351 0.0095018549 0.33897066 -0.54846609 0
0.039999999 0.02392358 0.009530101 0.33897066 -0.54846609 0
0.039999999 0.026096694 0.0095585389 0.33897066 -0.54846609 0
0.039999999 0.028282821 0.0095871706 0.33897066 -0.54846609 0
0.039999999 0.030482091 0.0096159969 0.33897066 -0.54846609 0
0.039999999 0.03269463 0.0096450206 0.33897066 -0.54846609 0
0.039999999 0.034920573 0.0096742436 0.33897066 -0.54846609 0
0.039999999 0.03716005 0.0097036678 0.33897066 -0.54846609 0
0.039999999 0.039413195 0.0097332951 0.33897066 -0.54846609 0
0.039999999 0.04168015 0.0097631272 0.33897066 -0.54846609 0
0.039999999 0.043961044 0.009793167 0.33897066 -0.54846609 0
0.039999999 0.046256028 0.0098234154 0.33897066 -0.54846609 0
0.039999999 0.048565235 0.0098538753 0.33897066 -0.54846609 0
0.039999999 0.050888818 0.0098845493 0.33897066 -0.54846609 0
0.039999999 0.053226911 0.0099154375 0.33897066 -0.54846609 0
0.039999999 0.055579673 0.0099465447 0.33897066 -0.54846609 0
0.039999999 0.057947248 0.0099778716 0.33897066 -0.54846609 0
0.039999999 0.060329787 0.01000942 0.33897066 -0.54846609 0
0.039999999 0.062727451 0.010041193 0.33897066 -0.54846609 0
0.039999999 0.065140389 0.010073193 0.33897066 -0.54846609 0
0.039999999 0.067568757 0.010105422 0.33897066 -0.54846609 0
0.039999999 0.070012726 0.010137883 0.33897066 -0.54846609 0
0.039999999 0.072472453 0.010170577 0.33897066 -0.54846609 0
0.039999999 0.074948095 0.010203508 0.33897066 -0.54846609 0
0.039999999 0.077439837 0.010236677 0.33897066 -0.54846609 0
0.039999999 0.079947829 0.010270087 0.33897066 -0.54846609 0
0.00058840477 0 0.0085094543 0.33897066 -0.54846609 0
0.0017635248 0 0.0085013174 0.33897066 -0.54846609 0
