# .PCD v0.7 - Point Cloud Data file format
VERSION 0.7
FIELDS x y z vp_x vp_y vp_z
SIZE 4 4 4 4 4 4
TYPE F F F F F F
COUNT 1 1 1 1 1 1
WIDTH 797
HEIGHT 1
VIEWPOINT 0 0 0 1 0 0 0
POINTS 797
DATA ascii
0.037599411 0.020690123 0.039999999 0.54846609 0 0.33897066
0.037597843 0.021610532 0.039999999 0.54846609 0 0.33897066
0.037596207 0.022531053 0.039999999 0.54846609 0 0.33897066
0.037594505 0.02345169 0.039999999 0.54846609 0 0.33897066
0.037592731 0.024372445 0.039999999 0.54846609 0 0.33897066
0.037590891 0.025293326 0.039999999 0.54846609 0 0.33897066
0.037588984 0.026214337 0.039999999 0.54846609 0 0.33897066
0.037587006 0.027135484 0.039999999 0.54846609 0 0.33897066
0.03758496 0.028056769 0.039999999 0.54846609 0 0.33897066
0.037582848 0.028978197 0.039999999 0.54846609 0 0.33897066
0.037580665 0.029899774 0.039999999 0.54846609 0 0.33897066
0.037578415 0.030821504 0.039999999 0.54846609 0 0.33897066
0.037576094 0.031743392 0.039999999 0.54846609 0 0.33897066
0.037573706 0.032665446 0.039999999 0.54846609 0 0.33897066
0.037571248 0.033587664 0.039999999 0.54846609 0 0.33897066
0.037568726 0.034510057 0.039999999 0.54846609 0 0.33897066
0.037566129 0.035432629 0.039999999 0.54846609 0 0.33897066
0.037563469 0.03635538 0.039999999 0.54846609 0 0.33897066
0.037560735 0.037278317 0.039999999 0.54846609 0 0.33897066
0.037557937 0.038201448 0.039999999 0.54846609 0 0.33897066
0.037555069 0.039124776 0.039999999 0.54846609 0 0.33897066
0.037552129 0.040048301 0.039999999 0.54846609 0 0.33897066
0.037549123 0.040972035 0.039999999 0.54846609 0 0.33897066
0.037546046 0.041895982 0.039999999 0.54846609 0 0.33897066
0.037542902 0.042820141 0.039999999 0.54846609 0 0.33897066
0.037539691 0.043744523 0.039999999 0.54846609 0 0.33897066
0.037536409 0.044669129 0.039999999 0.54846609 0 0.33897066
0.037533056 0.045593962 0.039999999 0.54846609 0 0.33897066
0.037529636 0.046519034 0.039999999 0.54846609 0 0.33897066
0.037526146 0.047444344 0.039999999 0.54846609 0 0.33897066
0.037522588 0.048369899 0.039999999 0.54846609 0 0.33897066
0.037518959 0.049295705 0.039999999 0.54846609 0 0.33897066
0.03751526 0.050221764 0.039999999 0.54846609 0 0.33897066
0.037890609 0.05111013 0.040221829 0.54846609 0 0.33897066
0.038307279 0.051993169 0.040467873 0.54846609 0 0.33897066
0.038661215 0.052881449 0.040677246 0.54846609 0 0.33897066
0.038996592 0.053770658 0.040875796 0.54846609 0 0.33897066
0.039245766 0.054668162 0.041023951 0.54846609 0 0.33897066
0.039494764 0.055565037 0.041172039 0.54846609 0 0.33897066
0.039658677 0.056470718 0.041270379 0.54846609 0 0.33897066
0.039807405 0.057377785 0.041359879 0.54846609 0 0.33897066
0.039907329 0.058290184 0.041420862 0.54846609 0 0.33897066
0.039957091 0.059208333 0.041452534 0.54846609 0 0.33897066
0.039993051 0.060128216 0.041476171 0.54846609 0 0.33897066
0.039942622 0.061058629 0.041449305 0.54846609 0 0.33897066
0.039892171 0.06198952 0.041422468 0.54846609 0 0.33897066
0.039756708 0.062931404 0.041345935 0.54846609 0 0.33897066
0.039601736 0.063876532 0.041258033 0.54846609 0 0.33897066
0.03938498 0.0648304 0.041134022 0.54846609 0 0.33897066
0.039118055 0.065791845 0.040980708 0.54846609 0 0.33897066
0.038803771 0.066760778 0.040799726 0.54846609 0 0.33897066
0.03841307 0.067741327 0.040574089 0.54846609 0 0.33897066
0.037975401 0.068729945 0.040321015 0.54846609 0 0.33897066
0.037443407 0.069733359 0.040012807 0.54846609 0 0.33897066
0.037416279 0.070669234 0.039999999 0.54846609 0 0.33897066
0.037410975 0.071602486 0.039999999 0.54846609 0 0.33897066
0.037405595 0.072536111 0.039999999 0.54846609 0 0.33897066
0.037400149 0.073470116 0.039999999 0.54846609 0 0.33897066
0.037394632 0.0744045 0.039999999 0.54846609 0 0.33897066
0.03738904 0.07533928 0.039999999 0.54846609 0 0.33897066
0.037383381 0.07627444 0.039999999 0.54846609 0 0.33897066
0.037377652 0.077210002 0.039999999 0.54846609 0 0.33897066
0.037371848 0.078145973 0.039999999 0.54846609 0 0.33897066
0.037365973 0.07908234 0.039999999 0.54846609 0 0.33897066
0.039432112 0.00045838256 0.039999999 0.54846609 0 0.33897066
0.039432049 0.0013751501 0.039999999 0.54846609 0 0.33897066
0.039431922 0.0022919246 0.039999999 0.54846609 0 0.33897066
0.039431732 0.0032087106 0.039999999 0.54846609 0 0.33897066
0.039431479 0.0041255131 0.039999999 0.54846609 0 0.33897066
0.039431162 0.0050423369 0.039999999 0.54846609 0 0.33897066
0.039430782 0.0059591858 0.039999999 0.54846609 0 0.33897066
0.039430339 0.0068760654 0.039999999 0.54846609 0 0.33897066
0.039429832 0.0077929804 0.039999999 0.54846609 0 0.33897066
0.039429262 0.0087099345 0.039999999 0.54846609 0 0.33897066
0.039428629 0.0096269334 0.039999999 0.54846609 0 0.33897066
0.039427932 0.010543982 0.039999999 0.54846609 0 0.33897066
0.039427172 0.011461084 0.039999999 0.54846609 0 0.33897066
0.039426349 0.012378244 0.039999999 0.54846609 0 0.33897066
0.039425462 0.013295467 0.039999999 0.54846609 0 0.33897066
0.039424513 0.014212758 0.039999999 0.54846609 0 0.33897066
0.039423499 0.015130122 0.039999999 0.54846609 0 0.33897066
0.039422423 0.016047563 0.039999999 0.54846609 0 0.33897066
0.039421279 0.016965086 0.039999999 0.54846609 0 0.33897066
0.039420076 0.017882695 0.039999999 0.54846609 0 0.33897066
0.039418809 0.018800396 0.039999999 0.54846609 0 0.33897066
0.039417479 0.019718193 0.039999999 0.54846609 0 0.33897066
0.039416082 0.020636091 0.039999999 0.54846609 0 0.33897066
0.039414626 0.021554094 0.039999999 0.54846609 0 0.33897066
0.039413102 0.022472207 0.039999999 0.54846609 0 0.33897066
0.039411519 0.023390435 0.039999999 0.54846609 0 0.33897066
0.039409868 0.02430878 0.039999999 0.54846609 0 0.33897066
0.039408155 0.025227252 0.039999999 0.54846609 0 0.33897066
0.039406382 0.026145853 0.039999999 0.54846609 0 0.33897066
0.039404541 0.027064586 0.039999999 0.54846609 0 0.33897066
0.039402638 0.027983459 0.039999999 0.54846609 0 0.33897066
0.039400671 0.028902473 0.039999999 0.54846609 0 0.33897066
0.03939864 0.029821636 0.039999999 0.54846609 0 0.33897066
0.039396543 0.030740952 0.039999999 0.54846609 0 0.33897066
0.039394386 0.031660423 0.039999999 0.54846609 0 0.33897066
0.039392166 0.032580059 0.039999999 0.54846609 0 0.33897066
0.039389879 0.033499859 0.039999999 0.54846609 0 0.33897066
0.039387528 0.034419835 0.039999999 0.54846609 0 0.33897066
0.039385114 0.035339981 0.039999999 0.54846609 0 0.33897066
0.039382637 0.036260311 0.039999999 0.54846609 0 0.33897066
0.039380096 0.037180826 0.039999999 0.54846609 0 0.33897066
0.039377488 0.038101532 0.039999999 0.54846609 0 0.33897066
0.039374821 0.039022435 0.039999999 0.54846609 0 0.33897066
0.039372087 0.039943535 0.039999999 0.54846609 0 0.33897066
0.039369289 0.04086484 0.039999999 0.54846609 0 0.33897066
0.039366428 0.041786354 0.039999999 0.54846609 0 0.33897066
0.0393635 0.042708084 0.039999999 0.54846609 0 0.33897066
0.039360508 0.04363003 0.039999999 0.54846609 0 0.33897066
0.039357454 0.044552203 0.039999999 0.54846609 0 0.33897066
0.039354336 0.045474604 0.039999999 0.54846609 0 0.33897066
0.039351154 0.046397239 0.039999999 0.54846609 0 0.33897066
0.039347906 0.047320109 0.039999999 0.54846609 0 0.33897066
0.039344594 0.048243225 0.039999999 0.54846609 0 0.33897066
0.039341219 0.049166586 0.039999999 0.54846609 0 0.33897066
0.039337777 0.050090201 0.039999999 0.54846609 0 0.33897066
0.039334271 0.051014073 0.039999999 0.54846609 0 0.33897066
0.039330702 0.05193821 0.039999999 0.54846609 0 0.33897066
0.039327066 0.052862611 0.039999999 0.54846609 0 0.33897066
0.039323367 0.053787284 0.039999999 0.54846609 0 0.33897066
0.039319605 0.054712236 0.039999999 0.54846609 0 0.33897066
0.03950901 0.055616349 0.040113464 0.54846609 0 0.33897066
0.039667331 0.056523498 0.040208716 0.54846609 0 0.33897066
0.039816197 0.057431404 0.040298451 0.54846609 0 0.33897066
0.03991032 0.058345325 0.040356077 0.54846609 0 0.33897066
0.039960127 0.059264347 0.04038772 0.54846609 0 0.33897066
0.039989926 0.060185842 0.040407654 0.54846609 0 0.33897066
0.039939452 0.061117161 0.040380489 0.54846609 0 0.33897066
0.039888948 0.062048957 0.040353347 0.54846609 0 0.33897066
0.039746676 0.062992603 0.040272363 0.54846609 0 0.33897066
0.039591547 0.063938677 0.040183868 0.54846609 0 0.33897066
0.039367199 0.064894445 0.040054768 0.54846609 0 0.33897066
0.039269373 0.065834984 0.039999999 0.54846609 0 0.33897066
0.039264765 0.066763975 0.039999999 0.54846609 0 0.33897066
0.039260089 0.067693308 0.039999999 0.54846609 0 0.33897066
0.039255347 0.068622999 0.039999999 0.54846609 0 0.33897066
0.039250541 0.069553033 0.039999999 0.54846609 0 0.33897066
0.039245669 0.070483439 0.039999999 0.54846609 0 0.33897066
0.039240733 0.071414202 0.039999999 0.54846609 0 0.33897066
0.03923573 0.072345331 0.039999999 0.54846609 0 0.33897066
0.03923066 0.07327684 0.039999999 0.54846609 0 0.33897066
0.039225522 0.074208729 0.039999999 0.54846609 0 0.33897066
0.039220322 0.075141005 0.039999999 0.54846609 0 0.33897066
0.039215054 0.076073669 0.039999999 0.54846609 0 0.33897066
0.039209723 0.077006727 0.039999999 0.54846609 0 0.33897066
0.039204322 0.077940181 0.039999999 0.54846609 0 0.33897066
0.039198857 0.078874044 0.039999999 0.54846609 0 0.33897066
0.039193325 0.079808317 0.039999999 0.54846609 0 0.33897066
0.039999999 0.00045830532 0.039270289 0.54846609 0 0.33897066
0.039999999 0.0013749182 0.039270323 0.54846609 0 0.33897066
0.039999999 0.0022915374 0.03927039 0.54846609 0 0.33897066
0.039999999 0.0032081676 0.039270494 0.54846609 0 0.33897066
0.039999999 0.0041248128 0.039270636 0.54846609 0 0.33897066
0.039999999 0.0050414777 0.039270807 0.54846609 0 0.33897066
0.039999999 0.0059581664 0.039271016 0.54846609 0 0.33897066
0.039999999 0.0068748835 0.039271258 0.54846609 0 0.33897066
0.039999999 0.0077916333 0.039271533 0.54846609 0 0.33897066
0.039999999 0.0087084193 0.039271846 0.54846609 0 0.33897066
0.039999999 0.0096252467 0.039272193 0.54846609 0 0.33897066
0.039999999 0.01054212 0.039272577 0.54846609 0 0.33897066
0.039999999 0.011459043 0.03927299 0.54846609 0 0.33897066
0.039999999 0.012376021 0.039273441 0.54846609 0 0.33897066
0.039999999 0.013293057 0.039273929 0.54846609 0 0.33897066
0.039999999 0.014210155 0.039274447 0.54846609 0 0.33897066
0.039999999 0.015127322 0.039275002 0.54846609 0 0.33897066
0.039999999 0.016044559 0.03927559 0.54846609 0 0.33897066
0.039999999 0.016961873 0.039276216 0.54846609 0 0.33897066
0.039999999 0.017879268 0.039276876 0.54846609 0 0.33897066
0.039999999 0.018796746 0.039277568 0.54846609 0 0.33897066
0.039999999 0.019714314 0.039278299 0.54846609 0 0.33897066
0.039999999 0.020631976 0.039279059 0.54846609 0 0.33897066
0.039999999 0.021549735 0.03927986 0.54846609 0 0.33897066
0.039999999 0.022467596 0.03928069 0.54846609 0 0.33897066
0.039999999 0.023385564 0.039281558 0.54846609 0 0.33897066
0.039999999 0.024303643 0.03928246 0.54846609 0 0.33897066
0.039999999 0.025221836 0.039283399 0.54846609 0 0.33897066
0.039999999 0.02614015 0.039284371 0.54846609 0 0.33897066
0.039999999 0.027058586 0.039285377 0.54846609 0 0.33897066
0.039999999 0.027977154 0.039286416 0.54846609 0 0.33897066
0.039999999 0.028895851 0.039287493 0.54846609 0 0.33897066
0.039999999 0.029814687 0.039288606 0.54846609 0 0.33897066
0.039999999 0.030733664 0.03928975 0.54846609 0 0.33897066
0.039999999 0.031652786 0.039290931 0.54846609 0 0.33897066
0.039999999 0.032572061 0.039292149 0.54846609 0 0.33897066
0.039999999 0.033491489 0.039293397 0.54846609 0 0.33897066
0.039999999 0.034411073 0.039294686 0.54846609 0 0.33897066
0.039999999 0.035330825 0.039296005 0.54846609 0 0.33897066
0.039999999 0.036250744 0.039297361 0.54846609 0 0.33897066
0.039999999 0.037170831 0.03929875 0.54846609 0 0.33897066
0.039999999 0.038091101 0.039300177 0.54846609 0 0.33897066
0.039999999 0.039011545 0.039301638 0.54846609 0 0.33897066
0.039999999 0.03993218 0.039303135 0.54846609 0 0.33897066
0.039999999 0.040853005 0.039304662 0.54846609 0 0.33897066
0.039999999 0.04177402 0.039306231 0.54846609 0 0.33897066
0.039999999 0.042695235 0.039307829 0.54846609 0 0.33897066
0.039999999 0.043616656 0.039309468 0.54846609 0 0.33897066
0.039999999 0.044538282 0.039311137 0.54846609 0 0.33897066
0.039999999 0.045460124 0.039312843 0.54846609 0 0.33897066
0.039999999 0.046382178 0.039314587 0.54846609 0 0.33897066
0.039999999 0.047304451 0.039316364 0.54846609 0 0.33897066
0.039999999 0.048226956 0.039318174 0.54846609 0 0.33897066
0.039999999 0.049149685 0.039320022 0.54846609 0 0.33897066
0.039999999 0.050072651 0.039321903 0.54846609 0 0.33897066
0.039999999 0.050995857 0.039323822 0.54846609 0 0.33897066
0.039999999 0.051919304 0.039325774 0.54846609 0 0.33897066
0.039999999 0.052842997 0.039327763 0.54846609 0 0.33897066
0.039999999 0.053766944 0.039329786 0.54846609 0 0.33897066
0.039999999 0.054691147 0.039331842 0.54846609 0 0.33897066
0.039999999 0.055615611 0.03933394 0.54846609 0 0.33897066
0.039999999 0.056540344 0.039336067 0.54846609 0 0.33897066
0.039999999 0.057465341 0.039338231 0.54846609 0 0.33897066
0.039999999 0.058390617 0.039340433 0.54846609 0 0.33897066
0.039999999 0.059316169 0.039342668 0.54846609 0 0.33897066
0.039999999 0.060242008 0.03934494 0.54846609 0 0.33897066
0.039999999 0.061168134 0.039347246 0.54846609 0 0.33897066
0.039999999 0.062094551 0.039349589 0.54846609 0 0.33897066
0.039999999 0.063021265 0.03935197 0.54846609 0 0.33897066
0.039999999 0.063948281 0.039354384 0.54846609 0 0.33897066
0.039999999 0.064875603 0.039356831 0.54846609 0 0.33897066
0.039999999 0.065803237 0.039359316 0.54846609 0 0.33897066
0.039999999 0.066731185 0.039361838 0.54846609 0 0.33897066
0.039999999 0.067659453 0.039364394 0.54846609 0 0.33897066
0.039999999 0.068588048 0.039366987 0.54846609 0 0.33897066
0.039999999 0.069516972 0.039369617 0.54846609 0 0.33897066
0.039999999 0.070446223 0.03937228 0.54846609 0 0.33897066
0.039999999 0.071375817 0.039374981 0.54846609 0 0.33897066
0.039999999 0.072305754 0.039377715 0.54846609 0 0.33897066
0.039999999 0.073236041 0.039380487 0.54846609 0 0.33897066
0.039999999 0.07416667 0.039383296 0.54846609 0 0.33897066
0.039999999 0.075097665 0.039386142 0.54846609 0 0.33897066
0.039999999 0.076029018 0.039389022 0.54846609 0 0.33897066
0.039999999 0.076960735 0.039391935 0.54846609 0 0.33897066
0.039999999 0.077892825 0.039394889 0.54846609 0 0.33897066
0.039999999 0.078825288 0.039397877 0.54846609 0 0.33897066
0.039999999 0.079758137 0.039400902 0.54846609 0 0.33897066
0.039999999 0.00045874025 0.038205091 0.54846609 0 0.33897066
0.039999999 0.0013762229 0.038205124 0.54846609 0 0.33897066
0.039999999 0.0022937122 0.038205188 0.54846609 0 0.33897066
0.039999999 0.0032112123 0.038205285 0.54846609 0 0.33897066
0.039999999 0.0041287276 0.038205411 0.54846609 0 0.33897066
0.039999999 0.0050462624 0.038205575 0.54846609 0 0.33897066
0.039999999 0.0059638214 0.038205765 0.54846609 0 0.33897066
0.039999999 0.0068814084 0.038205992 0.54846609 0 0.33897066
0.039999999 0.007799028 0.038206249 0.54846609 0 0.33897066
0.039999999 0.0087166848 0.03820654 0.54846609 0 0.33897066
0.039999999 0.009634383 0.03820686 0.54846609 0 0.33897066
0.039999999 0.010552127 0.038207214 0.54846609 0 0.33897066
0.039999999 0.01146992 0.038207598 0.54846609 0 0.33897066
0.039999999 0.012387768 0.038208019 0.54846609 0 0.33897066
0.039999999 0.013305675 0.03820847 0.54846609 0 0.33897066
0.039999999 0.014223645 0.03820895 0.54846609 0 0.33897066
0.039999999 0.015141683 0.038209464 0.54846609 0 0.33897066
0.039999999 0.016059792 0.038210012 0.54846609 0 0.33897066
0.039999999 0.016977977 0.038210589 0.54846609 0 0.33897066
0.039999999 0.017896242 0.0382112 0.54846609 0 0.33897066
0.039999999 0.018814594 0.038211845 0.54846609 0 0.33897066
0.039999999 0.019733034 0.038212523 0.54846609 0 0.33897066
0.039999999 0.020651568 0.038213231 0.54846609 0 0.33897066
0.039999999 0.0215702 0.038213968 0.54846609 0 0.33897066
0.039999999 0.022488933 0.038214743 0.54846609 0 0.33897066
0.039999999 0.023407774 0.038215548 0.54846609 0 0.33897066
0.039999999 0.024326727 0.038216382 0.54846609 0 0.33897066
0.039999999 0.025245793 0.038217254 0.54846609 0 0.33897066
0.039999999 0.026164981 0.038218156 0.54846609 0 0.33897066
0.039999999 0.027084293 0.038219087 0.54846609 0 0.33897066
0.039999999 0.028003734 0.038220055 0.54846609 0 0.33897066
0.039999999 0.028923307 0.038221054 0.54846609 0 0.33897066
0.039999999 0.029843017 0.038222086 0.54846609 0 0.33897066
0.039999999 0.03076287 0.038223147 0.54846609 0 0.33897066
0.039999999 0.031682868 0.038224243 0.54846609 0 0.33897066
0.039999999 0.032603018 0.038225371 0.54846609 0 0.33897066
0.039999999 0.033523321 0.03822653 0.54846609 0 0.33897066
0.039999999 0.034443785 0.038227722 0.54846609 0 0.33897066
0.039999999 0.035364412 0.038228948 0.54846609 0 0.33897066
0.039999999 0.03628521 0.038230207 0.54846609 0 0.33897066
0.039999999 0.037206177 0.038231496 0.54846609 0 0.33897066
0.039999999 0.038127322 0.038232818 0.54846609 0 0.33897066
0.039999999 0.039048649 0.038234174 0.54846609 0 0.33897066
0.039999999 0.039970163 0.03823556 0.54846609 0 0.33897066
0.039999999 0.040891867 0.038236983 0.54846609 0 0.33897066
0.039999999 0.041813765 0.038238432 0.54846609 0 0.33897066
0.039999999 0.04273586 0.038239919 0.54846609 0 0.33897066
0.039999999 0.04365816 0.038241435 0.54846609 0 0.33897066
0.039999999 0.044580668 0.038242988 0.54846609 0 0.33897066
0.039999999 0.045503389 0.038244568 0.54846609 0 0.33897066
0.039999999 0.04642633 0.038246185 0.54846609 0 0.33897066
0.039999999 0.04734949 0.038247835 0.54846609 0 0.33897066
0.039999999 0.048272874 0.038249515 0.54846609 0 0.33897066
0.039999999 0.049196489 0.038251229 0.54846609 0 0.33897066
0.039999999 0.050120339 0.038252972 0.54846609 0 0.33897066
0.039999999 0.051044431 0.038254753 0.54846609 0 0.33897066
0.039999999 0.051968765 0.038256563 0.54846609 0 0.33897066
0.039999999 0.052893344 0.038258407 0.54846609 0 0.33897066
0.039999999 0.053818177 0.038260285 0.54846609 0 0.33897066
0.039999999 0.054743271 0.038262196 0.54846609 0 0.33897066
0.039999999 0.055668622 0.038264137 0.54846609 0 0.33897066
0.039999999 0.056594241 0.038266115 0.54846609 0 0.33897066
0.039999999 0.057520133 0.038268123 0.54846609 0 0.33897066
0.039999999 0.058446299 0.038270164 0.54846609 0 0.33897066
0.039999999 0.059372742 0.038272239 0.54846609 0 0.33897066
0.039999999 0.060299471 0.038274344 0.54846609 0 0.33897066
0.039999999 0.061226491 0.038276486 0.54846609 0 0.33897066
0.039999999 0.062153801 0.038278658 0.54846609 0 0.33897066
0.039999999 0.063081414 0.038280863 0.54846609 0 0.33897066
0.039999999 0.064009324 0.038283106 0.54846609 0 0.33897066
0.039999999 0.064937539 0.038285378 0.54846609 0 0.33897066
0.039999999 0.065866068 0.038287681 0.54846609 0 0.33897066
0.039999999 0.066794917 0.03829002 0.54846609 0 0.33897066
0.039999999 0.067724079 0.038292393 0.54846609 0 0.33897066
0.039999999 0.068653576 0.038294796 0.54846609 0 0.33897066
0.039999999 0.069583394 0.038297236 0.54846609 0 0.33897066
0.039999999 0.070513546 0.038299706 0.54846609 0 0.33897066
0.039999999 0.071444042 0.038302213 0.54846609 0 0.33897066
0.039999999 0.07237488 0.03830475 0.54846609 0 0.33897066
0.039999999 0.073306069 0.03830732 0.54846609 0 0.33897066
0.039999999 0.074237607 0.038309928 0.54846609 0 0.33897066
0.039999999 0.075169504 0.038312566 0.54846609 0 0.33897066
0.039999999 0.076101765 0.038315237 0.54846609 0 0.33897066
0.039999999 0.077034384 0.038317941 0.54846609 0 0.33897066
0.039999999 0.077967383 0.038320679 0.54846609 0 0.33897066
0.039999999 0.078900754 0.038323451 0.54846609 0 0.33897066
0.039999999 0.079834506 0.03832626 0.54846609 0 0.33897066
0.039999999 0.00045917599 0.037137937 0.54846609 0 0.33897066
0.039999999 0.0013775302 0.037137967 0.54846609 0 0.33897066
0.039999999 0.0022958908 0.037138026 0.54846609 0 0.33897066
0.039999999 0.0032142627 0.037138116 0.54846609 0 0.33897066
0.039999999 0.0041326494 0.037138231 0.54846609 0 0.33897066
0.039999999 0.0050510559 0.03713838 0.54846609 0 0.33897066
0.039999999 0.0059694867 0.037138559 0.54846609 0 0.33897066
0.039999999 0.0068879453 0.037138768 0.54846609 0 0.33897066
0.039999999 0.0078064366 0.037139002 0.54846609 0 0.33897066
0.039999999 0.0087249652 0.03713927 0.54846609 0 0.33897066
0.039999999 0.0096435351 0.037139565 0.54846609 0 0.33897066
0.039999999 0.010562151 0.037139893 0.54846609 0 0.33897066
0.039999999 0.011480817 0.037140246 0.54846609 0 0.33897066
0.039999999 0.012399537 0.037140634 0.54846609 0 0.33897066
0.039999999 0.013318317 0.037141047 0.54846609 0 0.33897066
0.039999999 0.01423716 0.037141494 0.54846609 0 0.33897066
0.039999999 0.01515607 0.037141968 0.54846609 0 0.33897066
0.039999999 0.016075052 0.03714247 0.54846609 0 0.33897066
0.039999999 0.016994111 0.037143007 0.54846609 0 0.33897066
0.039999999 0.01791325 0.037143569 0.54846609 0 0.33897066
0.039999999 0.018832475 0.037144162 0.54846609 0 0.33897066
0.039999999 0.019751787 0.037144784 0.54846609 0 0.33897066
0.039999999 0.020671196 0.037145436 0.54846609 0 0.33897066
0.039999999 0.021590702 0.037146118 0.54846609 0 0.33897066
0.039999999 0.022510311 0.037146833 0.54846609 0 0.33897066
0.039999999 0.023430025 0.037147574 0.54846609 0 0.33897066
0.039999999 0.024349853 0.037148345 0.54846609 0 0.33897066
0.039999999 0.025269795 0.037149146 0.54846609 0 0.33897066
0.039999999 0.026189858 0.037149977 0.54846609 0 0.33897066
0.039999999 0.027110046 0.037150837 0.54846609 0 0.33897066
0.039999999 0.028030362 0.037151728 0.54846609 0 0.33897066
0.039999999 0.028950812 0.037152648 0.54846609 0 0.33897066
0.039999999 0.0298714 0.037153598 0.54846609 0 0.33897066
0.039999999 0.03079213 0.037154578 0.54846609 0 0.33897066
0.039999999 0.031713005 0.037155587 0.54846609 0 0.33897066
0.039999999 0.032634031 0.037156627 0.54846609 0 0.33897066
0.039999999 0.033555217 0.037157699 0.54846609 0 0.33897066
0.039999999 0.034476556 0.037158798 0.54846609 0 0.33897066
0.039999999 0.035398066 0.037159927 0.54846609 0 0.33897066
0.039999999 0.03631974 0.037161086 0.54846609 0 0.33897066
0.039999999 0.037241589 0.037162274 0.54846609 0 0.33897066
0.039999999 0.038163614 0.037163492 0.54846609 0 0.33897066
0.039999999 0.03908582 0.037164744 0.54846609 0 0.33897066
0.039999999 0.040008213 0.037166022 0.54846609 0 0.33897066
0.039999999 0.0409308 0.037167329 0.54846609 0 0.33897066
0.039999999 0.041853581 0.03716867 0.54846609 0 0.33897066
0.039999999 0.042776559 0.037170038 0.54846609 0 0.33897066
0.039999999 0.043699741 0.037171438 0.54846609 0 0.33897066
0.039999999 0.044623133 0.037172865 0.54846609 0 0.33897066
0.039999999 0.04554674 0.037174325 0.54846609 0 0.33897066
0.039999999 0.046470564 0.037175812 0.54846609 0 0.33897066
0.039999999 0.047394607 0.037177332 0.54846609 0 0.33897066
0.039999999 0.048318878 0.037178881 0.54846609 0 0.33897066
0.039999999 0.049243379 0.037180461 0.54846609 0 0.33897066
0.039999999 0.050168116 0.03718207 0.54846609 0 0.33897066
0.039999999 0.051093094 0.037183709 0.54846609 0 0.33897066
0.039999999 0.052018315 0.037185378 0.54846609 0 0.33897066
0.039999999 0.052943785 0.037187081 0.54846609 0 0.33897066
0.039999999 0.053869508 0.037188809 0.54846609 0 0.33897066
0.039999999 0.054795489 0.037190571 0.54846609 0 0.33897066
0.039999999 0.055721734 0.03719236 0.54846609 0 0.33897066
0.039999999 0.056648243 0.037194181 0.54846609 0 0.33897066
0.039999999 0.057575025 0.037196033 0.54846609 0 0.33897066
0.039999999 0.058502082 0.037197914 0.54846609 0 0.33897066
0.039999999 0.059429422 0.037199829 0.54846609 0 0.33897066
0.039999999 0.060357042 0.03720177 0.54846609 0 0.33897066
0.039999999 0.061284956 0.037203744 0.54846609 0 0.33897066
0.039999999 0.06221316 0.037205745 0.54846609 0 0.33897066
0.039999999 0.063141666 0.037207779 0.54846609 0 0.33897066
0.039999999 0.064070471 0.037209842 0.54846609 0 0.33897066
0.039999999 0.064999588 0.03721194 0.54846609 0 0.33897066
0.039999999 0.065929018 0.037214063 0.54846609 0 0.33897066
0.039999999 0.066858761 0.03721622 0.54846609 0 0.33897066
0.039999999 0.067788824 0.037218403 0.54846609 0 0.33897066
0.039999999 0.068719216 0.037220623 0.54846609 0 0.33897066
0.039999999 0.069649942 0.03722287 0.54846609 0 0.33897066
0.039999999 0.070580997 0.037225146 0.54846609 0 0.33897066
0.039999999 0.071512394 0.037227456 0.54846609 0 0.33897066
0.039999999 0.072444133 0.037229795 0.54846609 0 0.33897066
0.039999999 0.073376231 0.037232164 0.54846609 0 0.33897066
0.039999999 0.074308671 0.037234567 0.54846609 0 0.33897066
0.039999999 0.075241476 0.037237 0.54846609 0 0.33897066
0.039999999 0.076174639 0.037239462 0.54846609 0 0.33897066
0.039999999 0.077108175 0.037241954 0.54846609 0 0.33897066
0.039999999 0.078042075 0.03724448 0.54846609 0 0.33897066
0.039999999 0.078976355 0.037247036 0.54846609 0 0.33897066
0.039999999 0.079911023 0.037249621 0.54846609 0 0.33897066
0.039999999 0.00045961255 0.036068812 0.54846609 0 0.33897066
0.039999999 0.0013788398 0.036068838 0.54846609 0 0.33897066
0.039999999 0.0022980736 0.036068894 0.54846609 0 0.33897066
0.039999999 0.0032173186 0.036068972 0.54846609 0 0.33897066
0.039999999 0.0041365786 0.036069084 0.54846609 0 0.33897066
0.039999999 0.0050558583 0.036069218 0.54846609 0 0.33897066
0.039999999 0.0059751621 0.036069382 0.54846609 0 0.33897066
0.039999999 0.0068944939 0.036069572 0.54846609 0 0.33897066
0.039999999 0.0078138588 0.036069788 0.54846609 0 0.33897066
0.039999999 0.0087332614 0.03607003 0.54846609 0 0.33897066
0.039999999 0.0096527049 0.036070302 0.54846609 0 0.33897066
0.039999999 0.010572194 0.0360706 0.54846609 0 0.33897066
0.039999999 0.011491735 0.036070924 0.54846609 0 0.33897066
0.039999999 0.012411329 0.036071278 0.54846609 0 0.33897066
0.039999999 0.013330982 0.036071658 0.54846609 0 0.33897066
0.039999999 0.014250698 0.036072064 0.54846609 0 0.33897066
0.039999999 0.015170484 0.0360725 0.54846609 0 0.33897066
0.039999999 0.016090341 0.036072958 0.54846609 0 0.33897066
0.039999999 0.017010273 0.036073446 0.54846609 0 0.33897066
0.039999999 0.017930288 0.036073964 0.54846609 0 0.33897066
0.039999999 0.018850388 0.036074504 0.54846609 0 0.33897066
0.039999999 0.019770578 0.036075074 0.54846609 0 0.33897066
0.039999999 0.02069086 0.036075674 0.54846609 0 0.33897066
0.039999999 0.021611242 0.036076296 0.54846609 0 0.33897066
0.039999999 0.022531727 0.036076948 0.54846609 0 0.33897066
0.039999999 0.023452319 0.036077626 0.54846609 0 0.33897066
0.039999999 0.024373023 0.036078334 0.54846609 0 0.33897066
0.039999999 0.025293842 0.036079064 0.54846609 0 0.33897066
0.039999999 0.026214782 0.036079824 0.54846609 0 0.33897066
0.039999999 0.027135847 0.036080614 0.54846609 0 0.33897066
0.039999999 0.028057041 0.036081426 0.54846609 0 0.33897066
0.039999999 0.028978368 0.036082268 0.54846609 0 0.33897066
0.039999999 0.029899836 0.036083139 0.54846609 0 0.33897066
0.039999999 0.030821443 0.036084034 0.54846609 0 0.33897066
0.039999999 0.031743199 0.036084957 0.54846609 0 0.33897066
0.039999999 0.032665104 0.036085911 0.54846609 0 0.33897066
0.039999999 0.033587169 0.036086887 0.54846609 0 0.33897066
0.039999999 0.034509391 0.036087893 0.54846609 0 0.33897066
0.039999999 0.035431776 0.036088929 0.54846609 0 0.33897066
0.039999999 0.036354333 0.036089987 0.54846609 0 0.33897066
0.039999999 0.037277061 0.036091074 0.54846609 0 0.33897066
0.039999999 0.038199972 0.036092188 0.54846609 0 0.33897066
0.039999999 0.039123062 0.036093332 0.54846609 0 0.33897066
0.039999999 0.040046338 0.036094502 0.54846609 0 0.33897066
0.039999999 0.040969804 0.036095701 0.54846609 0 0.33897066
0.039999999 0.041893467 0.036096923 0.54846609 0 0.33897066
0.039999999 0.042817332 0.036098175 0.54846609 0 0.33897066
0.039999999 0.043741401 0.036099456 0.54846609 0 0.33897066
0.039999999 0.044665679 0.036100764 0.54846609 0 0.33897066
0.039999999 0.04559017 0.036102097 0.54846609 0 0.33897066
0.039999999 0.046514876 0.036103461 0.54846609 0 0.33897066
0.039999999 0.04743981 0.03610485 0.54846609 0 0.33897066
0.039999999 0.048364967 0.036106266 0.54846609 0 0.33897066
0.039999999 0.049290355 0.036107711 0.54846609 0 0.33897066
0.039999999 0.050215982 0.036109183 0.54846609 0 0.33897066
0.039999999 0.051141847 0.036110684 0.54846609 0 0.33897066
0.039999999 0.052067958 0.036112212 0.54846609 0 0.33897066
0.039999999 0.052994318 0.036113765 0.54846609 0 0.33897066
0.039999999 0.053920932 0.036115348 0.54846609 0 0.33897066
0.039999999 0.054847807 0.036116958 0.54846609 0 0.33897066
0.039999999 0.055774942 0.036118597 0.54846609 0 0.33897066
0.039999999 0.056702346 0.036120262 0.54846609 0 0.33897066
0.039999999 0.057630017 0.036121957 0.54846609 0 0.33897066
0.039999999 0.058557969 0.036123678 0.54846609 0 0.33897066
0.039999999 0.059486203 0.036125425 0.54846609 0 0.33897066
0.039999999 0.06041472 0.036127202 0.54846609 0 0.33897066
0.039999999 0.061343528 0.036129009 0.54846609 0 0.33897066
0.039999999 0.062272631 0.036130842 0.54846609 0 0.33897066
0.039999999 0.063202031 0.036132701 0.54846609 0 0.33897066
0.039999999 0.064131737 0.036134589 0.54846609 0 0.33897066
0.039999999 0.065061755 0.036136504 0.54846609 0 0.33897066
0.039999999 0.06599208 0.036138449 0.54846609 0 0.33897066
0.039999999 0.066922724 0.036140423 0.54846609 0 0.33897066
0.039999999 0.067853697 0.03614242 0.54846609 0 0.33897066
0.039999999 0.068784989 0.03614445 0.54846609 0 0.33897066
0.039999999 0.06971661 0.036146507 0.54846609 0 0.33897066
0.039999999 0.070648573 0.036148589 0.54846609 0 0.33897066
0.039999999 0.071580872 0.036150701 0.54846609 0 0.33897066
0.039999999 0.072513521 0.03615284 0.54846609 0 0.33897066
0.039999999 0.07344652 0.036155008 0.54846609 0 0.33897066
0.039999999 0.074379869 0.036157206 0.54846609 0 0.33897066
0.039999999 0.075313576 0.03615943 0.54846609 0 0.33897066
0.039999999 0.076247655 0.036161683 0.54846609 0 0.33897066
0.039999999 0.077182092 0.036163963 0.54846609 0 0.33897066
0.039999999 0.078116909 0.036166273 0.54846609 0 0.33897066
0.039999999 0.079052106 0.036168613 0.54846609 0 0.33897066
0.039999999 0.079987675 0.036170978 0.54846609 0 0.33897066
0.039999999 0.00046004989 0.034997705 0.54846609 0 0.33897066
0.039999999 0.001380152 0.034997731 0.54846609 0 0.33897066
0.039999999 0.0023002606 0.03499778 0.54846609 0 0.33897066
0.039999999 0.0032203801 0.034997854 0.54846609 0 0.33897066
0.039999999 0.0041405149 0.034997951 0.54846609 0 0.33897066
0.039999999 0.0050606695 0.034998074 0.54846609 0 0.33897066
0.039999999 0.0059808479 0.034998223 0.54846609 0 0.33897066
0.039999999 0.0069010551 0.034998395 0.54846609 0 0.33897066
0.039999999 0.0078212954 0.034998592 0.54846609 0 0.33897066
0.039999999 0.0087415725 0.034998812 0.54846609 0 0.33897066
0.039999999 0.0096618915 0.034999058 0.54846609 0 0.33897066
0.039999999 0.010582256 0.034999326 0.54846609 0 0.33897066
0.039999999 0.011502671 0.034999624 0.54846609 0 0.33897066
0.039999999 0.012423141 0.034999941 0.54846609 0 0.33897066
0.039999999 0.01334367 0.035000287 0.54846609 0 0.33897066
0.039999999 0.014264263 0.035000656 0.54846609 0 0.33897066
0.039999999 0.015184924 0.035001047 0.54846609 0 0.33897066
0.039999999 0.016105657 0.035001468 0.54846609 0 0.33897066
0.039999999 0.017026467 0.035001907 0.54846609 0 0.33897066
0.039999999 0.017947357 0.035002377 0.54846609 0 0.33897066
0.039999999 0.018868335 0.035002869 0.54846609 0 0.33897066
0.039999999 0.0197894 0.035003383 0.54846609 0 0.33897066
0.039999999 0.020710561 0.035003927 0.54846609 0 0.33897066
0.039999999 0.02163182 0.035004489 0.54846609 0 0.33897066
0.039999999 0.022553183 0.035005081 0.54846609 0 0.33897066
0.039999999 0.023474652 0.035005696 0.54846609 0 0.33897066
0.039999999 0.024396235 0.035006337 0.54846609 0 0.33897066
0.039999999 0.025317932 0.035007 0.54846609 0 0.33897066
0.039999999 0.026239751 0.035007689 0.54846609 0 0.33897066
0.039999999 0.027161695 0.035008404 0.54846609 0 0.33897066
0.039999999 0.02808377 0.035009142 0.54846609 0 0.33897066
0.039999999 0.029005976 0.035009906 0.54846609 0 0.33897066
0.039999999 0.029928323 0.035010692 0.54846609 0 0.33897066
0.039999999 0.030850811 0.035011504 0.54846609 0 0.33897066
0.039999999 0.031773448 0.035012342 0.54846609 0 0.33897066
0.039999999 0.032696236 0.035013206 0.54846609 0 0.33897066
0.039999999 0.03361918 0.035014093 0.54846609 0 0.33897066
0.039999999 0.034542285 0.035015002 0.54846609 0 0.33897066
0.039999999 0.035465553 0.035015941 0.54846609 0 0.33897066
0.039999999 0.036388993 0.035016902 0.54846609 0 0.33897066
0.039999999 0.037312604 0.035017885 0.54846609 0 0.33897066
0.039999999 0.038236395 0.035018899 0.54846609 0 0.33897066
0.039999999 0.039160371 0.035019934 0.54846609 0 0.33897066
0.039999999 0.04008453 0.035020992 0.54846609 0 0.33897066
0.039999999 0.041008882 0.03502208 0.54846609 0 0.33897066
0.039999999 0.041933432 0.03502319 0.54846609 0 0.33897066
0.039999999 0.042858183 0.035024326 0.54846609 0 0.33897066
0.039999999 0.043783136 0.035025485 0.54846609 0 0.33897066
0.039999999 0.0447083 0.03502667 0.54846609 0 0.33897066
0.039999999 0.045633677 0.03502788 0.54846609 0 0.33897066
0.039999999 0.046559274 0.035029113 0.54846609 0 0.33897066
0.039999999 0.047485095 0.035030372 0.54846609 0 0.33897066
0.039999999 0.048411142 0.035031658 0.54846609 0 0.33897066
0.039999999 0.049337421 0.035032969 0.54846609 0 0.33897066
0.039999999 0.050263938 0.035034303 0.54846609 0 0.33897066
0.039999999 0.051190693 0.035035662 0.54846609 0 0.33897066
0.039999999 0.052117694 0.035037048 0.54846609 0 0.33897066
0.039999999 0.053044945 0.035038456 0.54846609 0 0.33897066
0.039999999 0.053972453 0.035039891 0.54846609 0 0.33897066
0.039999999 0.054900218 0.035041351 0.54846609 0 0.33897066
0.039999999 0.055828247 0.035042837 0.54846609 0 0.33897066
0.039999999 0.056756545 0.035044346 0.54846609 0 0.33897066
0.039999999 0.057685114 0.035045881 0.54846609 0 0.33897066
0.039999999 0.058613963 0.035047442 0.54846609 0 0.33897066
0.039999999 0.059543092 0.035049025 0.54846609 0 0.33897066
0.039999999 0.060472507 0.035050638 0.54846609 0 0.33897066
0.039999999 0.061402213 0.035052273 0.54846609 0 0.33897066
0.039999999 0.062332213 0.035053935 0.54846609 0 0.33897066
0.039999999 0.063262515 0.035055619 0.54846609 0 0.33897066
0.039999999 0.064193122 0.035057332 0.54846609 0 0.33897066
0.039999999 0.065124035 0.035059068 0.54846609 0 0.33897066
0.039999999 0.066055261 0.03506083 0.54846609 0 0.33897066
0.039999999 0.066986807 0.035062619 0.54846609 0 0.33897066
0.039999999 0.067918681 0.035064433 0.54846609 0 0.33897066
0.039999999 0.068850875 0.035066269 0.54846609 0 0.33897066
0.039999999 0.069783404 0.035068132 0.54846609 0 0.33897066
0.039999999 0.070716269 0.035070021 0.54846609 0 0.33897066
0.039999999 0.071649477 0.035071936 0.54846609 0 0.33897066
0.039999999 0.072583035 0.035073876 0.54846609 0 0.33897066
0.039999999 0.073516935 0.035075843 0.54846609 0 0.33897066
0.039999999 0.074451201 0.035077833 0.54846609 0 0.33897066
0.039999999 0.075385816 0.035079848 0.54846609 0 0.33897066
0.039999999 0.076320805 0.035081893 0.54846609 0 0.33897066
0.039999999 0.077256158 0.035083961 0.54846609 0 0.33897066
0.039999999 0.078191884 0.035086054 0.54846609 0 0.33897066
0.039999999 0.07912799 0.03508817 0.54846609 0 0.33897066
0.039999999 0.00046048808 0.033924609 0.54846609 0 0.33897066
0.039999999 0.0013814664 0.033924632 0.54846609 0 0.33897066
0.039999999 0.0023024513 0.033924676 0.54846609 0 0.33897066
0.039999999 0.0032234474 0.03392474 0.54846609 0 0.33897066
0.039999999 0.0041444586 0.033924829 0.54846609 0 0.33897066
0.039999999 0.0050654896 0.033924941 0.54846609 0 0.33897066
0.039999999 0.0059865448 0.033925071 0.54846609 0 0.33897066
0.039999999 0.0069076284 0.033925224 0.54846609 0 0.33897066
0.039999999 0.0078287451 0.033925403 0.54846609 0 0.33897066
0.039999999 0.0087498995 0.0339256 0.54846609 0 0.33897066
0.039999999 0.0096710948 0.03392582 0.54846609 0 0.33897066
0.039999999 0.010592337 0.033926062 0.54846609 0 0.33897066
0.039999999 0.011513629 0.033926327 0.54846609 0 0.33897066
0.039999999 0.012434976 0.033926614 0.54846609 0 0.33897066
0.039999999 0.013356383 0.033926923 0.54846609 0 0.33897066
0.039999999 0.014277853 0.033927254 0.54846609 0 0.33897066
0.039999999 0.015199391 0.033927605 0.54846609 0 0.33897066
0.039999999 0.016121002 0.033927981 0.54846609 0 0.33897066
0.039999999 0.017042691 0.033928376 0.54846609 0 0.33897066
0.039999999 0.01796446 0.033928797 0.54846609 0 0.33897066
0.039999999 0.018886315 0.033929236 0.54846609 0 0.33897066
0.039999999 0.019808259 0.033929698 0.54846609 0 0.33897066
0.039999999 0.020730298 0.033930182 0.54846609 0 0.33897066
0.039999999 0.021652436 0.033930693 0.54846609 0 0.33897066
0.039999999 0.022574678 0.033931222 0.54846609 0 0.33897066
0.039999999 0.023497028 0.033931773 0.54846609 0 0.33897066
0.039999999 0.02441949 0.033932347 0.54846609 0 0.33897066
0.039999999 0.025342068 0.033932939 0.54846609 0 0.33897066
0.039999999 0.026264768 0.033933558 0.54846609 0 0.33897066
0.039999999 0.027187591 0.033934198 0.54846609 0 0.33897066
0.039999999 0.028110547 0.033934861 0.54846609 0 0.33897066
0.039999999 0.029033635 0.033935543 0.54846609 0 0.33897066
0.039999999 0.029956864 0.033936251 0.54846609 0 0.33897066
0.039999999 0.030880235 0.033936981 0.54846609 0 0.33897066
0.039999999 0.031803753 0.03393773 0.54846609 0 0.33897066
0.039999999 0.032727424 0.033938501 0.54846609 0 0.33897066
0.039999999 0.033651251 0.033939298 0.54846609 0 0.33897066
0.039999999 0.034575239 0.033940114 0.54846609 0 0.33897066
0.039999999 0.03549939 0.033940956 0.54846609 0 0.33897066
0.039999999 0.036423717 0.033941817 0.54846609 0 0.33897066
0.039999999 0.037348211 0.033942699 0.54846609 0 0.33897066
0.039999999 0.038272887 0.033943605 0.54846609 0 0.33897066
0.039999999 0.039197747 0.033944536 0.54846609 0 0.33897066
0.039999999 0.040122796 0.033945486 0.54846609 0 0.33897066
0.039999999 0.041048035 0.033946458 0.54846609 0 0.33897066
0.039999999 0.041973472 0.033947453 0.54846609 0 0.33897066
0.039999999 0.042899106 0.03394847 0.54846609 0 0.33897066
0.039999999 0.043824948 0.033949509 0.54846609 0 0.33897066
0.039999999 0.044751003 0.033950571 0.54846609 0 0.33897066
0.039999999 0.045677271 0.033951659 0.54846609 0 0.33897066
0.039999999 0.046603754 0.033952765 0.54846609 0 0.33897066
0.039999999 0.047530465 0.033953894 0.54846609 0 0.33897066
0.039999999 0.048457403 0.033955045 0.54846609 0 0.33897066
0.039999999 0.049384572 0.033956219 0.54846609 0 0.33897066
0.039999999 0.050311979 0.033957414 0.54846609 0 0.33897066
0.039999999 0.051239628 0.033958632 0.54846609 0 0.33897066
0.039999999 0.052167524 0.033959877 0.54846609 0 0.33897066
0.039999999 0.053095669 0.03396114 0.54846609 0 0.33897066
0.039999999 0.054024071 0.033962425 0.54846609 0 0.33897066
0.039999999 0.054952729 0.033963732 0.54846609 0 0.33897066
0.039999999 0.055881653 0.033965066 0.54846609 0 0.33897066
0.039999999 0.056810848 0.033966418 0.54846609 0 0.33897066
0.039999999 0.057740316 0.033967793 0.54846609 0 0.33897066
0.039999999 0.058670059 0.033969194 0.54846609 0 0.33897066
0.039999999 0.059600085 0.033970613 0.54846609 0 0.33897066
0.039999999 0.060530398 0.033972058 0.54846609 0 0.33897066
0.039999999 0.061461005 0.033973526 0.54846609 0 0.33897066
0.039999999 0.062391907 0.033975013 0.54846609 0 0.33897066
0.039999999 0.06332311 0.033976525 0.54846609 0 0.33897066
0.039999999 0.064254612 0.03397806 0.54846609 0 0.33897066
0.039999999 0.065186433 0.033979617 0.54846609 0 0.33897066
0.039999999 0.066118561 0.033981197 0.54846609 0 0.33897066
0.039999999 0.067051016 0.033982798 0.54846609 0 0.33897066
0.039999999 0.067983791 0.033984423 0.54846609 0 0.33897066
0.039999999 0.068916894 0.033986073 0.54846609 0 0.33897066
0.039999999 0.069850326 0.033987742 0.54846609 0 0.33897066
0.039999999 0.070784099 0.033989437 0.54846609 0 0.33897066
0.039999999 0.071718216 0.033991151 0.54846609 0 0.33897066
0.039999999 0.072652675 0.03399289 0.54846609 0 0.33897066
0.039999999 0.073587492 0.033994652 0.54846609 0 0.33897066
0.039999999 0.074522659 0.033996437 0.54846609 0 0.33897066
0.039999999 0.075458191 0.033998247 0.54846609 0 0.33897066
0.039999999 0.076394089 0.034000076 0.54846609 0 0.33897066
0.039999999 0.077330358 0.034001932 0.54846609 0 0.33897066
0.039999999 0.078266993 0.034003805 0.54846609 0 0.33897066
0.039999999 0.079204015 0.034005705 0.54846609 0 0.33897066
0.039999999 0.00046092705 0.032849509 0.54846609 0 0.33897066
0.039999999 0.0013827834 0.032849528 0.54846609 0 0.33897066
0.039999999 0.0023046462 0.032849569 0.54846609 0 0.33897066
0.039999999 0.0032265203 0.032849628 0.54846609 0 0.33897066
0.039999999 0.0041484097 0.032849703 0.54846609 0 0.33897066
0.039999999 0.0050703185 0.032849804 0.54846609 0 0.33897066
0.039999999 0.0059922519 0.032849919 0.54846609 0 0.33897066
0.039999999 0.0069142138 0.032850057 0.54846609 0 0.33897066
0.039999999 0.0078362087 0.03285021 0.54846609 0 0.33897066
0.039999999 0.0087582413 0.032850385 0.54846609 0 0.33897066
0.039999999 0.0096803159 0.032850582 0.54846609 0 0.33897066
0.039999999 0.010602436 0.032850794 0.54846609 0 0.33897066
0.039999999 0.011524607 0.032851029 0.54846609 0 0.33897066
0.039999999 0.012446833 0.032851283 0.54846609 0 0.33897066
0.039999999 0.013369119 0.032851554 0.54846609 0 0.33897066
0.039999999 0.014291468 0.032851849 0.54846609 0 0.33897066
0.039999999 0.015213885 0.032852158 0.54846609 0 0.33897066
0.039999999 0.016136376 0.03285249 0.54846609 0 0.33897066
0.039999999 0.017058944 0.03285284 0.54846609 0 0.33897066
0.039999999 0.017981593 0.032853212 0.54846609 0 0.33897066
0.039999999 0.018904326 0.0328536 0.54846609 0 0.33897066
0.039999999 0.019827152 0.032854009 0.54846609 0 0.33897066
0.039999999 0.020750072 0.032854438 0.54846609 0 0.33897066
0.039999999 0.021673091 0.032854889 0.54846609 0 0.33897066
0.039999999 0.022596214 0.032855354 0.54846609 0 0.33897066
0.039999999 0.023519445 0.032855842 0.54846609 0 0.33897066
0.039999999 0.024442788 0.032856349 0.54846609 0 0.33897066
0.039999999 0.025366249 0.032856874 0.54846609 0 0.33897066
0.039999999 0.02628983 0.032857422 0.54846609 0 0.33897066
0.039999999 0.027213536 0.032857988 0.54846609 0 0.33897066
0.039999999 0.028137375 0.032858573 0.54846609 0 0.33897066
0.039999999 0.029061347 0.032859176 0.54846609 0 0.33897066
0.039999999 0.029985458 0.032859802 0.54846609 0 0.33897066
0.039999999 0.030909711 0.032860447 0.54846609 0 0.33897066
0.039999999 0.031834114 0.03286111 0.54846609 0 0.33897066
0.039999999 0.032758668 0.032861792 0.54846609 0 0.33897066
0.039999999 0.033683382 0.032862496 0.54846609 0 0.33897066
0.039999999 0.034608256 0.032863218 0.54846609 0 0.33897066
0.039999999 0.035533294 0.03286396 0.54846609 0 0.33897066
0.039999999 0.036458503 0.032864723 0.54846609 0 0.33897066
0.039999999 0.037383888 0.032865502 0.54846609 0 0.33897066
0.039999999 0.038309451 0.032866303 0.54846609 0 0.33897066
0.039999999 0.039235197 0.032867126 0.54846609 0 0.33897066
0.039999999 0.040161133 0.032867964 0.54846609 0 0.33897066
0.039999999 0.041087259 0.032868825 0.54846609 0 0.33897066
0.039999999 0.042013582 0.032869704 0.54846609 0 0.33897066
0.039999999 0.04294011 0.032870606 0.54846609 0 0.33897066
0.039999999 0.043866843 0.032871526 0.54846609 0 0.33897066
0.039999999 0.044793785 0.032872465 0.54846609 0 0.33897066
0.039999999 0.045720942 0.032873422 0.54846609 0 0.33897066
0.039999999 0.04664832 0.032874402 0.54846609 0 0.33897066
0.039999999 0.047575921 0.0328754 0.54846609 0 0.33897066
0.039999999 0.048503749 0.032876417 0.54846609 0 0.33897066
0.039999999 0.049431812 0.032877453 0.54846609 0 0.33897066
0.039999999 0.050360113 0.032878511 0.54846609 0 0.33897066
0.039999999 0.051288657 0.032879591 0.54846609 0 0.33897066
0.039999999 0.052217446 0.032880686 0.54846609 0 0.33897066
0.039999999 0.053146485 0.032881804 0.54846609 0 0.33897066
0.039999999 0.054075781 0.03288294 0.54846609 0 0.33897066
0.039999999 0.055005338 0.032884099 0.54846609 0 0.33897066
0.039999999 0.055935159 0.032885276 0.54846609 0 0.33897066
0.039999999 0.056865253 0.032886472 0.54846609 0 0.33897066
0.039999999 0.057795618 0.032887686 0.54846609 0 0.33897066
0.039999999 0.058726259 0.032888923 0.54846609 0 0.33897066
0.039999999 0.059657186 0.032890182 0.54846609 0 0.33897066
0.039999999 0.060588401 0.032891456 0.54846609 0 0.33897066
0.039999999 0.061519906 0.032892752 0.54846609 0 0.33897066
0.039999999 0.062451709 0.032894071 0.54846609 0 0.33897066
0.039999999 0.063383818 0.032895405 0.54846609 0 0.33897066
0.039999999 0.064316228 0.032896761 0.54846609 0 0.33897066
0.039999999 0.065248944 0.032898139 0.54846609 0 0.33897066
0.039999999 0.06618198 0.032899536 0.54846609 0 0.33897066
0.039999999 0.067115337 0.032900952 0.54846609 0 0.33897066
0.039999999 0.068049021 0.03290239 0.54846609 0 0.33897066
0.039999999 0.068983026 0.032903846 0.54846609 0 0.33897066
0.039999999 0.069917373 0.032905322 0.54846609 0 0.33897066
0.039999999 0.070852056 0.032906819 0.54846609 0 0.33897066
0.039999999 0.071787082 0.032908335 0.54846609 0 0.33897066
0.039999999 0.07272245 0.032909874 0.54846609 0 0.33897066
0.039999999 0.073658176 0.032911431 0.54846609 0 0.33897066
0.039999999 0.074594259 0.032913011 0.54846609 0 0.33897066
0.039999999 0.0755307 0.032914609 0.54846609 0 0.33897066
0.039999999 0.076467514 0.032916225 0.54846609 0 0.33897066
0.039999999 0.077404693 0.032917865 0.54846609 0 0.33897066
0.039999999 0.078342251 0.032919522 0.54846609 0 0.33897066
0.039999999 0.07928019 0.032921202 0.54846609 0 0.33897066
0.039999999 0.00046136687 0.031772397 0.54846609 0 0.33897066
0.039999999 0.0013841029 0.031772416 0.54846609 0 0.33897066
0.039999999 0.0023068453 0.03177245 0.54846609 0 0.33897066
0.039999999 0.003229599 0.031772502 0.54846609 0 0.33897066
0.039999999 0.0041523678 0.031772569 0.54846609 0 0.33897066
0.039999999 0.0050751567 0.031772651 0.54846609 0 0.33897066
0.039999999 0.0059979698 0.031772755 0.54846609 0 0.33897066
0.039999999 0.0069208117 0.031772871 0.54846609 0 0.33897066
0.039999999 0.0078436863 0.031773008 0.54846609 0 0.33897066
0.039999999 0.008766599 0.031773161 0.54846609 0 0.33897066
0.039999999 0.0096895536 0.031773329 0.54846609 0 0.33897066
0.039999999 0.010612554 0.031773515 0.54846609 0 0.33897066
0.039999999 0.011535605 0.031773716 0.54846609 0 0.33897066
0.039999999 0.012458712 0.031773936 0.54846609 0 0.33897066
0.039999999 0.013381878 0.031774174 0.54846609 0 0.33897066
0.039999999 0.014305108 0.031774428 0.54846609 0 0.33897066
0.039999999 0.015228407 0.0317747 0.54846609 0 0.33897066
0.039999999 0.016151778 0.031774987 0.54846609 0 0.33897066
0.039999999 0.017075228 0.031775292 0.54846609 0 0.33897066
0.039999999 0.017998759 0.031775612 0.54846609 0 0.33897066
0.039999999 0.018922374 0.031775951 0.54846609 0 0.33897066
0.039999999 0.019846082 0.031776305 0.54846609 0 0.33897066
0.039999999 0.020769883 0.031776678 0.54846609 0 0.33897066
0.039999999 0.021693785 0.031777069 0.54846609 0 0.33897066
0.039999999 0.022617791 0.031777475 0.54846609 0 0.33897066
0.039999999 0.023541905 0.031777896 0.54846609 0 0.33897066
0.039999999 0.024466131 0.031778336 0.54846609 0 0.33897066
0.039999999 0.025390474 0.031778794 0.54846609 0 0.33897066
0.039999999 0.02631494 0.031779267 0.54846609 0 0.33897066
0.039999999 0.027239531 0.031779759 0.54846609 0 0.33897066
0.039999999 0.028164253 0.031780269 0.54846609 0 0.33897066
0.039999999 0.02908911 0.031780794 0.54846609 0 0.33897066
0.039999999 0.030014105 0.031781334 0.54846609 0 0.33897066
0.039999999 0.030939246 0.031781893 0.54846609 0 0.33897066
0.039999999 0.031864535 0.031782471 0.54846609 0 0.33897066
0.039999999 0.032789975 0.031783063 0.54846609 0 0.33897066
0.039999999 0.033715572 0.031783674 0.54846609 0 0.33897066
0.039999999 0.034641333 0.0317843 0.54846609 0 0.33897066
0.039999999 0.035567258 0.031784944 0.54846609 0 0.33897066
0.039999999 0.036493357 0.031785607 0.54846609 0 0.33897066
