# .PCD v0.7 - Point Cloud Data file format
VERSION 0.7
FIELDS x y z vp_x vp_y vp_z
SIZE 4 4 4 4 4 4
TYPE F F F F F F
COUNT 1 1 1 1 1 1
WIDTH 888
HEIGHT 1
VIEWPOINT 0 0 0 1 0 0 0
POINTS 888
DATA ascii
0 0.0063248505 0.034915473 -0.54846609 0 0.33897066
0 0.0053517474 0.034914982 -0.54846609 0 0.33897066
0 0.0043786685 0.034914572 -0.54846609 0 0.33897066
0 0.0034056101 0.034914244 -0.54846609 0 0.33897066
0 0.0024325675 0.034913998 -0.54846609 0 0.33897066
0 0.001459536 0.034913834 -0.54846609 0 0.33897066
1.110223e-16 0.00048651124 0.034913752 -0.54846609 0 0.33897066
0 0.079784557 0.034064084 -0.54846609 0 0.33897066
0 0.078795694 0.03405758 -0.54846609 0 0.33897066
0 0.077807195 0.034051154 -0.54846609 0 0.33897066
0 0.07681907 0.034044813 -0.54846609 0 0.33897066
0 0.075831294 0.034038555 -0.54846609 0 0.33897066
0 0.074843884 0.034032375 -0.54846609 0 0.33897066
0 0.073856823 0.03402628 -0.54846609 0 0.33897066
0 0.072870106 0.034020267 -0.54846609 0 0.33897066
0 0.071883731 0.034014337 -0.54846609 0 0.33897066
0 0.070897691 0.034008484 -0.54846609 0 0.33897066
1.110223e-16 0.069911987 0.034002718 -0.54846609 0 0.33897066
0 0.06892661 0.033997033 -0.54846609 0 0.33897066
0 0.067941554 0.033991426 -0.54846609 0 0.33897066
0 0.066956811 0.033985905 -0.54846609 0 0.33897066
0 0.065972388 0.033980463 -0.54846609 0 0.33897066
1.110223e-16 0.06498827 0.033975102 -0.54846609 0 0.33897066
0 0.064004458 0.033969823 -0.54846609 0 0.33897066
0 0.063020945 0.033964626 -0.54846609 0 0.33897066
0 0.062037725 0.033959508 -0.54846609 0 0.33897066
1.110223e-16 0.061054796 0.033954475 -0.54846609 0 0.33897066
0 0.06007215 0.03394952 -0.54846609 0 0.33897066
1.110223e-16 0.059089787 0.033944648 -0.54846609 0 0.33897066
0 0.058107696 0.033939857 -0.54846609 0 0.33897066
0 0.057125881 0.033935145 -0.54846609 0 0.33897066
1.110223e-16 0.056144331 0.033930514 -0.54846609 0 0.33897066
0 0.055163041 0.033925965 -0.54846609 0 0.33897066
1.110223e-16 0.054182008 0.033921499 -0.54846609 0 0.33897066
0 0.053201228 0.03391711 -0.54846609 0 0.33897066
1.110223e-16 0.052220695 0.033912804 -0.54846609 0 0.33897066
1.110223e-16 0.051240407 0.033908576 -0.54846609 0 0.33897066
0 0.050260358 0.033904433 -0.54846609 0 0.33897066
0 0.049280539 0.033900365 -0.54846609 0 0.33897066
0 0.048300955 0.033896383 -0.54846609 0 0.33897066
0 0.047321592 0.033892479 -0.54846609 0 0.33897066
0 0.046342451 0.033888653 -0.54846609 0 0.33897066
0 0.045363523 0.033884913 -0.54846609 0 0.33897066
0 0.044384807 0.033881247 -0.54846609 0 0.33897066
0 0.0434063 0.033877663 -0.54846609 0 0.33897066
1.110223e-16 0.042427991 0.033874162 -0.54846609 0 0.33897066
1.110223e-16 0.041449882 0.033870742 -0.54846609 0 0.33897066
0 0.040471964 0.033867396 -0.54846609 0 0.33897066
0 0.039494235 0.033864137 -0.54846609 0 0.33897066
0 0.038516689 0.033860952 -0.54846609 0 0.33897066
0 0.037539318 0.033857852 -0.54846609 0 0.33897066
0 0.036562126 0.033854831 -0.54846609 0 0.33897066
0 0.035585102 0.033851888 -0.54846609 0 0.33897066
1.110223e-16 0.034608245 0.033849023 -0.54846609 0 0.33897066
1.110223e-16 0.033631548 0.033846244 -0.54846609 0 0.33897066
0 0.032655004 0.03384354 -0.54846609 0 0.33897066
0 0.031678613 0.033840917 -0.54846609 0 0.33897066
0 0.030702371 0.033838376 -0.54846609 0 0.33897066
0 0.029726271 0.03383591 -0.54846609 0 0.33897066
0 0.028750308 0.03383353 -0.54846609 0 0.33897066
0 0.027774477 0.033831224 -0.54846609 0 0.33897066
0 0.026798775 0.033829 -0.54846609 0 0.33897066
1.110223e-16 0.025823198 0.033826858 -0.54846609 0 0.33897066
0 0.024847742 0.03382479 -0.54846609 0 0.33897066
0 0.0238724 0.033822808 -0.54846609 0 0.33897066
0 0.022897167 0.033820901 -0.54846609 0 0.33897066
0 0.021922043 0.033819076 -0.54846609 0 0.33897066
0 0.020947019 0.033817329 -0.54846609 0 0.33897066
0 0.019972092 0.033815663 -0.54846609 0 0.33897066
0 0.018997258 0.033814076 -0.54846609 0 0.33897066
0 0.018022509 0.033812568 -0.54846609 0 0.33897066
0 0.017047847 0.033811137 -0.54846609 0 0.33897066
0 0.016073262 0.033809789 -0.54846609 0 0.33897066
0 0.015098753 0.033808522 -0.54846609 0 0.33897066
0 0.014124313 0.03380733 -0.54846609 0 0.33897066
0 0.013149939 0.03380622 -0.54846609 0 0.33897066
0 0.012175625 0.033805188 -0.54846609 0 0.33897066
0 0.011201368 0.033804238 -0.54846609 0 0.33897066
0 0.010227162 0.033803362 -0.54846609 0 0.33897066
0 0.0092530036 0.033802569 -0.54846609 0 0.33897066
0 0.0082788887 0.033801857 -0.54846609 0 0.33897066
0 0.0073048119 0.03380122 -0.54846609 0 0.33897066
1.110223e-16 0.0063307686 0.033800665 -0.54846609 0 0.33897066
0 0.0053567546 0.033800192 -0.54846609 0 0.33897066
0 0.0043827654 0.033799794 -0.54846609 0 0.33897066
0 0.0034087964 0.033799477 -0.54846609 0 0.33897066
0 0.0024348435 0.033799239 -0.54846609 0 0.33897066
1.110223e-16 0.0014609015 0.033799082 -0.54846609 0 0.33897066
0 0.00048696643 0.033799 -0.54846609 0 0.33897066
0 0.079859845 0.03293889 -0.54846609 0 0.33897066
1.110223e-16 0.078870036 0.032932591 -0.54846609 0 0.33897066
0 0.077880591 0.032926373 -0.54846609 0 0.33897066
1.110223e-16 0.076891519 0.032920234 -0.54846609 0 0.33897066
0 0.075902805 0.032914177 -0.54846609 0 0.33897066
0 0.074914448 0.032908197 -0.54846609 0 0.33897066
0 0.073926441 0.032902297 -0.54846609 0 0.33897066
0 0.072938785 0.032896478 -0.54846609 0 0.33897066
0 0.071951464 0.032890737 -0.54846609 0 0.33897066
0 0.070964485 0.032885075 -0.54846609 0 0.33897066
0 0.069977842 0.03287949 -0.54846609 0 0.33897066
0 0.068991527 0.032873988 -0.54846609 0 0.33897066
0 0.068005532 0.032868564 -0.54846609 0 0.33897066
0 0.06701985 0.032863218 -0.54846609 0 0.33897066
0 0.066034488 0.032857951 -0.54846609 0 0.33897066
0 0.06504944 0.032852765 -0.54846609 0 0.33897066
0 0.064064689 0.032847654 -0.54846609 0 0.33897066
0 0.063080244 0.032842625 -0.54846609 0 0.33897066
1.110223e-16 0.062096089 0.032837674 -0.54846609 0 0.33897066
0 0.061112225 0.032832798 -0.54846609 0 0.33897066
1.110223e-16 0.060128648 0.032828003 -0.54846609 0 0.33897066
1.110223e-16 0.059145354 0.032823287 -0.54846609 0 0.33897066
0 0.058162332 0.032818649 -0.54846609 0 0.33897066
0 0.057179585 0.032814089 -0.54846609 0 0.33897066
0 0.056197103 0.032809608 -0.54846609 0 0.33897066
0 0.055214886 0.032805208 -0.54846609 0 0.33897066
1.110223e-16 0.054232925 0.032800883 -0.54846609 0 0.33897066
0 0.053251214 0.032796636 -0.54846609 0 0.33897066
0 0.052269757 0.032792468 -0.54846609 0 0.33897066
0 0.051288541 0.032788377 -0.54846609 0 0.33897066
0 0.050307564 0.032784365 -0.54846609 0 0.33897066
0 0.049326822 0.032780427 -0.54846609 0 0.33897066
1.110223e-16 0.048346311 0.032776572 -0.54846609 0 0.33897066
1.110223e-16 0.047366023 0.032772794 -0.54846609 0 0.33897066
0 0.046385959 0.032769091 -0.54846609 0 0.33897066
1.110223e-16 0.045406107 0.03276547 -0.54846609 0 0.33897066
1.110223e-16 0.044426467 0.032761924 -0.54846609 0 0.33897066
0 0.043447036 0.032758456 -0.54846609 0 0.33897066
0 0.042467806 0.032755066 -0.54846609 0 0.33897066
0 0.041488774 0.032751754 -0.54846609 0 0.33897066
0 0.040509935 0.03274852 -0.54846609 0 0.33897066
1.110223e-16 0.039531283 0.032745361 -0.54846609 0 0.33897066
0 0.038552817 0.032742281 -0.54846609 0 0.33897066
0 0.03757453 0.032739282 -0.54846609 0 0.33897066
0 0.036596417 0.032736354 -0.54846609 0 0.33897066
1.110223e-16 0.035618477 0.032733507 -0.54846609 0 0.33897066
0 0.034640696 0.032730736 -0.54846609 0 0.33897066
0 0.033663083 0.032728042 -0.54846609 0 0.33897066
1.110223e-16 0.032685623 0.032725427 -0.54846609 0 0.33897066
1.110223e-16 0.031708315 0.03272289 -0.54846609 0 0.33897066
0 0.030731153 0.032720428 -0.54846609 0 0.33897066
0 0.029754134 0.032718044 -0.54846609 0 0.33897066
1.110223e-16 0.028777255 0.032715738 -0.54846609 0 0.33897066
0 0.027800508 0.03271351 -0.54846609 0 0.33897066
0 0.026823891 0.032711357 -0.54846609 0 0.33897066
0 0.025847398 0.032709282 -0.54846609 0 0.33897066
0 0.024871025 0.032707281 -0.54846609 0 0.33897066
0 0.023894768 0.032705363 -0.54846609 0 0.33897066
0 0.022918621 0.032703519 -0.54846609 0 0.33897066
0 0.02194258 0.032701749 -0.54846609 0 0.33897066
1.110223e-16 0.020966642 0.032700058 -0.54846609 0 0.33897066
0 0.019990802 0.032698445 -0.54846609 0 0.33897066
1.110223e-16 0.019015053 0.03269691 -0.54846609 0 0.33897066
1.110223e-16 0.018039392 0.03269545 -0.54846609 0 0.33897066
1.110223e-16 0.017063815 0.032694068 -0.54846609 0 0.33897066
0 0.016088318 0.032692764 -0.54846609 0 0.33897066
0 0.015112895 0.032691535 -0.54846609 0 0.33897066
0 0.014137542 0.032690383 -0.54846609 0 0.33897066
1.110223e-16 0.013162254 0.032689307 -0.54846609 0 0.33897066
0 0.012187027 0.032688309 -0.54846609 0 0.33897066
0 0.011211857 0.032687388 -0.54846609 0 0.33897066
0 0.010236739 0.032686543 -0.54846609 0 0.33897066
0 0.0092616687 0.032685775 -0.54846609 0 0.33897066
1.110223e-16 0.008286641 0.032685086 -0.54846609 0 0.33897066
0 0.0073116519 0.032684471 -0.54846609 0 0.33897066
0 0.0063366964 0.032683931 -0.54846609 0 0.33897066
0 0.0053617703 0.032683473 -0.54846609 0 0.33897066
0 0.0043868693 0.032683089 -0.54846609 0 0.33897066
1.110223e-16 0.0034119883 0.03268278 -0.54846609 0 0.33897066
0 0.0024371231 0.032682553 -0.54846609 0 0.33897066
0 0.0014622695 0.032682396 -0.54846609 0 0.33897066
1.110223e-16 0.00048742237 0.032682322 -0.54846609 0 0.33897066
0 0.079935275 0.031811722 -0.54846609 0 0.33897066
0 0.078944512 0.031805634 -0.54846609 0 0.33897066
0 0.077954121 0.031799622 -0.54846609 0 0.33897066
0 0.076964095 0.031793691 -0.54846609 0 0.33897066
0 0.075974435 0.031787831 -0.54846609 0 0.33897066
0 0.074985132 0.031782053 -0.54846609 0 0.33897066
0 0.073996186 0.03177635 -0.54846609 0 0.33897066
1.110223e-16 0.073007584 0.031770725 -0.54846609 0 0.33897066
0 0.072019324 0.031765174 -0.54846609 0 0.33897066
1.110223e-16 0.071031399 0.031759702 -0.54846609 0 0.33897066
0 0.07004381 0.031754304 -0.54846609 0 0.33897066
0 0.069056556 0.031748984 -0.54846609 0 0.33897066
1.110223e-16 0.068069622 0.031743739 -0.54846609 0 0.33897066
0 0.067083001 0.031738572 -0.54846609 0 0.33897066
0 0.066096701 0.031733479 -0.54846609 0 0.33897066
0 0.065110713 0.031728465 -0.54846609 0 0.33897066
0 0.064125031 0.031723525 -0.54846609 0 0.33897066
0 0.063139647 0.031718664 -0.54846609 0 0.33897066
1.110223e-16 0.062154554 0.031713877 -0.54846609 0 0.33897066
0 0.061169758 0.031709164 -0.54846609 0 0.33897066
1.110223e-16 0.060185246 0.03170453 -0.54846609 0 0.33897066
0 0.059201017 0.03169997 -0.54846609 0 0.33897066
0 0.058217064 0.031695489 -0.54846609 0 0.33897066
1.110223e-16 0.057233382 0.031691082 -0.54846609 0 0.33897066
1.110223e-16 0.056249969 0.031686749 -0.54846609 0 0.33897066
0 0.05526682 0.031682491 -0.54846609 0 0.33897066
0 0.054283928 0.031678312 -0.54846609 0 0.33897066
0 0.053301293 0.031674206 -0.54846609 0 0.33897066
0 0.052318905 0.031670175 -0.54846609 0 0.33897066
1.110223e-16 0.051336758 0.031666223 -0.54846609 0 0.33897066
1.110223e-16 0.050354853 0.031662345 -0.54846609 0 0.33897066
1.110223e-16 0.049373183 0.031658541 -0.54846609 0 0.33897066
0 0.048391744 0.031654812 -0.54846609 0 0.33897066
0 0.047410533 0.031651162 -0.54846609 0 0.33897066
1.110223e-16 0.046429541 0.031647582 -0.54846609 0 0.33897066
0 0.045448765 0.03164408 -0.54846609 0 0.33897066
1.110223e-16 0.044468202 0.031640653 -0.54846609 0 0.33897066
0 0.043487843 0.0316373 -0.54846609 0 0.33897066
1.110223e-16 0.042507689 0.031634022 -0.54846609 0 0.33897066
1.110223e-16 0.041527737 0.031630822 -0.54846609 0 0.33897066
0 0.040547974 0.031627692 -0.54846609 0 0.33897066
0 0.039568402 0.031624641 -0.54846609 0 0.33897066
0 0.038589012 0.031621665 -0.54846609 0 0.33897066
1.110223e-16 0.037609801 0.031618763 -0.54846609 0 0.33897066
0 0.036630768 0.031615935 -0.54846609 0 0.33897066
0 0.035651904 0.031613182 -0.54846609 0 0.33897066
1.110223e-16 0.034673207 0.031610504 -0.54846609 0 0.33897066
0 0.03369467 0.0316079 -0.54846609 0 0.33897066
0 0.032716293 0.031605374 -0.54846609 0 0.33897066
0 0.031738065 0.031602919 -0.54846609 0 0.33897066
1.110223e-16 0.030759985 0.031600539 -0.54846609 0 0.33897066
0 0.029782047 0.031598236 -0.54846609 0 0.33897066
0 0.028804248 0.031596005 -0.54846609 0 0.33897066
1.110223e-16 0.027826585 0.031593852 -0.54846609 0 0.33897066
1.110223e-16 0.02684905 0.031591769 -0.54846609 0 0.33897066
1.110223e-16 0.02587164 0.031589761 -0.54846609 0 0.33897066
0 0.024894349 0.031587832 -0.54846609 0 0.33897066
0 0.023917176 0.031585973 -0.54846609 0 0.33897066
0 0.022940112 0.031584192 -0.54846609 0 0.33897066
0 0.021963155 0.031582482 -0.54846609 0 0.33897066
0 0.0209863 0.03158085 -0.54846609 0 0.33897066
0 0.020009544 0.03157929 -0.54846609 0 0.33897066
1.110223e-16 0.019032879 0.031577803 -0.54846609 0 0.33897066
0 0.018056303 0.031576395 -0.54846609 0 0.33897066
0 0.017079812 0.031575058 -0.54846609 0 0.33897066
0 0.016103398 0.031573795 -0.54846609 0 0.33897066
0 0.015127061 0.031572606 -0.54846609 0 0.33897066
0 0.014150793 0.031571493 -0.54846609 0 0.33897066
0 0.013174591 0.031570453 -0.54846609 0 0.33897066
0 0.01219845 0.031569488 -0.54846609 0 0.33897066
0 0.011222365 0.031568598 -0.54846609 0 0.33897066
0 0.010246334 0.031567782 -0.54846609 0 0.33897066
0 0.0092703486 0.031567041 -0.54846609 0 0.33897066
0 0.0082944073 0.031566374 -0.54846609 0 0.33897066
0 0.0073185042 0.031565778 -0.54846609 0 0.33897066
0 0.0063426346 0.03156526 -0.54846609 0 0.33897066
1.110223e-16 0.0053667948 0.031564813 -0.54846609 0 0.33897066
1.110223e-16 0.0043909801 0.031564444 -0.54846609 0 0.33897066
0 0.0034151857 0.031564146 -0.54846609 0 0.33897066
1.110223e-16 0.0024394069 0.031563923 -0.54846609 0 0.33897066
0 0.0014636397 0.031563774 -0.54846609 0 0.33897066
0 0.00048787912 0.031563703 -0.54846609 0 0.33897066
0 0.079019114 0.030676696 -0.54846609 0 0.33897066
0 0.078027777 0.030670894 -0.54846609 0 0.33897066
0 0.077036805 0.030665165 -0.54846609 0 0.33897066
0 0.076046191 0.030659512 -0.54846609 0 0.33897066
0 0.075055942 0.030653931 -0.54846609 0 0.33897066
1.110223e-16 0.07406605 0.030648425 -0.54846609 0 0.33897066
0 0.073076501 0.030642994 -0.54846609 0 0.33897066
0 0.072087295 0.030637635 -0.54846609 0 0.33897066
0 0.071098432 0.030632351 -0.54846609 0 0.33897066
0 0.070109896 0.030627141 -0.54846609 0 0.33897066
0 0.069121696 0.030622005 -0.54846609 0 0.33897066
0 0.068133824 0.030616943 -0.54846609 0 0.33897066
0 0.067146264 0.030611953 -0.54846609 0 0.33897066
1.110223e-16 0.066159025 0.030607039 -0.54846609 0 0.33897066
0 0.065172099 0.030602196 -0.54846609 0 0.33897066
0 0.06418547 0.030597428 -0.54846609 0 0.33897066
0 0.063199148 0.030592734 -0.54846609 0 0.33897066
0 0.062213123 0.030588113 -0.54846609 0 0.33897066
0 0.061227389 0.030583564 -0.54846609 0 0.33897066
0 0.060241941 0.03057909 -0.54846609 0 0.33897066
1.110223e-16 0.059256777 0.030574689 -0.54846609 0 0.33897066
0 0.058271889 0.03057036 -0.54846609 0 0.33897066
0 0.057287276 0.030566106 -0.54846609 0 0.33897066
0 0.056302931 0.030561924 -0.54846609 0 0.33897066
1.110223e-16 0.055318847 0.030557813 -0.54846609 0 0.33897066
0 0.054335024 0.030553779 -0.54846609 0 0.33897066
0 0.053351454 0.030549815 -0.54846609 0 0.33897066
0 0.052368134 0.030545924 -0.54846609 0 0.33897066
0 0.05138506 0.030542107 -0.54846609 0 0.33897066
0 0.050402228 0.030538363 -0.54846609 0 0.33897066
0 0.049419627 0.03053469 -0.54846609 0 0.33897066
0 0.04843726 0.030531092 -0.54846609 0 0.33897066
1.110223e-16 0.047455121 0.030527566 -0.54846609 0 0.33897066
1.110223e-16 0.046473198 0.030524112 -0.54846609 0 0.33897066
1.110223e-16 0.045491498 0.03052073 -0.54846609 0 0.33897066
1.110223e-16 0.044510007 0.030517422 -0.54846609 0 0.33897066
0 0.043528724 0.030514184 -0.54846609 0 0.33897066
0 0.042547647 0.030511022 -0.54846609 0 0.33897066
0 0.041566763 0.03050793 -0.54846609 0 0.33897066
0 0.040586077 0.03050491 -0.54846609 0 0.33897066
1.110223e-16 0.03960558 0.030501965 -0.54846609 0 0.33897066
0 0.03862527 0.03049909 -0.54846609 0 0.33897066
0 0.037645135 0.030496288 -0.54846609 0 0.33897066
0 0.036665179 0.030493559 -0.54846609 0 0.33897066
0 0.035685394 0.030490901 -0.54846609 0 0.33897066
0 0.034705773 0.030488316 -0.54846609 0 0.33897066
0 0.033726316 0.030485803 -0.54846609 0 0.33897066
0 0.032747015 0.030483361 -0.54846609 0 0.33897066
0 0.031767868 0.030480992 -0.54846609 0 0.33897066
0 0.030788865 0.030478695 -0.54846609 0 0.33897066
1.110223e-16 0.029810008 0.030476471 -0.54846609 0 0.33897066
0 0.02883129 0.030474318 -0.54846609 0 0.33897066
1.110223e-16 0.027852707 0.030472238 -0.54846609 0 0.33897066
0 0.026874252 0.03047023 -0.54846609 0 0.33897066
0 0.025895923 0.030468293 -0.54846609 0 0.33897066
0 0.024917714 0.030466428 -0.54846609 0 0.33897066
0 0.023939621 0.030464634 -0.54846609 0 0.33897066
0 0.022961641 0.030462913 -0.54846609 0 0.33897066
1.110223e-16 0.021983765 0.030461265 -0.54846609 0 0.33897066
0 0.021005994 0.030459687 -0.54846609 0 0.33897066
0 0.020028319 0.03045818 -0.54846609 0 0.33897066
0 0.019050736 0.030456748 -0.54846609 0 0.33897066
0 0.018073244 0.030455386 -0.54846609 0 0.33897066
0 0.017095836 0.030454095 -0.54846609 0 0.33897066
1.110223e-16 0.016118506 0.030452877 -0.54846609 0 0.33897066
0 0.015141251 0.03045173 -0.54846609 0 0.33897066
0 0.014164067 0.030450655 -0.54846609 0 0.33897066
1.110223e-16 0.013186949 0.030449651 -0.54846609 0 0.33897066
0 0.012209892 0.03044872 -0.54846609 0 0.33897066
1.110223e-16 0.011232892 0.030447861 -0.54846609 0 0.33897066
0 0.010255944 0.030447073 -0.54846609 0 0.33897066
1.110223e-16 0.0092790434 0.030446356 -0.54846609 0 0.33897066
1.110223e-16 0.0083021866 0.030445712 -0.54846609 0 0.33897066
1.110223e-16 0.007325368 0.030445138 -0.54846609 0 0.33897066
0 0.0063485834 0.030444637 -0.54846609 0 0.33897066
0 0.0053718286 0.030444207 -0.54846609 0 0.33897066
0 0.0043950984 0.030443849 -0.54846609 0 0.33897066
1.110223e-16 0.0034183885 0.030443562 -0.54846609 0 0.33897066
0 0.0024416947 0.030443348 -0.54846609 0 0.33897066
0 0.0014650123 0.030443205 -0.54846609 0 0.33897066
1.110223e-16 0.00048833666 0.030443132 -0.54846609 0 0.33897066
0 0.079093851 0.029545767 -0.54846609 0 0.33897066
0 0.07810156 0.029540174 -0.54846609 0 0.33897066
0 0.077109635 0.029534651 -0.54846609 0 0.33897066
0 0.076118082 0.029529201 -0.54846609 0 0.33897066
0 0.075126879 0.029523822 -0.54846609 0 0.33897066
1.110223e-16 0.074136034 0.029518513 -0.54846609 0 0.33897066
0 0.073145539 0.029513277 -0.54846609 0 0.33897066
0 0.072155386 0.029508112 -0.54846609 0 0.33897066
0 0.071165577 0.029503018 -0.54846609 0 0.33897066
0 0.070176102 0.029497994 -0.54846609 0 0.33897066
0 0.069186956 0.029493043 -0.54846609 0 0.33897066
0 0.068198137 0.029488163 -0.54846609 0 0.33897066
0 0.067209639 0.029483354 -0.54846609 0 0.33897066
0 0.066221453 0.029478615 -0.54846609 0 0.33897066
0 0.065233588 0.029473947 -0.54846609 0 0.33897066
0 0.064246021 0.02946935 -0.54846609 0 0.33897066
1.110223e-16 0.06325876 0.029464824 -0.54846609 0 0.33897066
0 0.062271796 0.029460369 -0.54846609 0 0.33897066
1.110223e-16 0.061285123 0.029455984 -0.54846609 0 0.33897066
0 0.060298737 0.029451672 -0.54846609 0 0.33897066
0 0.059312634 0.029447429 -0.54846609 0 0.33897066
0 0.058326811 0.029443255 -0.54846609 0 0.33897066
0 0.057341263 0.029439153 -0.54846609 0 0.33897066
0 0.056355983 0.029435122 -0.54846609 0 0.33897066
1.110223e-16 0.055370964 0.029431161 -0.54846609 0 0.33897066
0 0.05438621 0.029427269 -0.54846609 0 0.33897066
0 0.053401705 0.029423449 -0.54846609 0 0.33897066
1.110223e-16 0.052417453 0.029419698 -0.54846609 0 0.33897066
0 0.051433448 0.029416019 -0.54846609 0 0.33897066
0 0.050449681 0.029412409 -0.54846609 0 0.33897066
0 0.049466152 0.029408868 -0.54846609 0 0.33897066
0 0.048482854 0.029405398 -0.54846609 0 0.33897066
1.110223e-16 0.047499783 0.029401999 -0.54846609 0 0.33897066
0 0.046516936 0.02939867 -0.54846609 0 0.33897066
0 0.045534305 0.029395411 -0.54846609 0 0.33897066
1.110223e-16 0.044551887 0.02939222 -0.54846609 0 0.33897066
0 0.043569677 0.0293891 -0.54846609 0 0.33897066
1.110223e-16 0.042587671 0.029386051 -0.54846609 0 0.33897066
1.110223e-16 0.041605864 0.029383071 -0.54846609 0 0.33897066
0 0.04062425 0.029380159 -0.54846609 0 0.33897066
0 0.039642826 0.029377319 -0.54846609 0 0.33897066
1.110223e-16 0.038661588 0.029374549 -0.54846609 0 0.33897066
1.110223e-16 0.037680533 0.029371848 -0.54846609 0 0.33897066
0 0.036699649 0.029369216 -0.54846609 0 0.33897066
0 0.03571894 0.029366653 -0.54846609 0 0.33897066
1.110223e-16 0.034738395 0.029364161 -0.54846609 0 0.33897066
1.110223e-16 0.033758014 0.02936174 -0.54846609 0 0.33897066
0 0.03277779 0.029359385 -0.54846609 0 0.33897066
0 0.031797722 0.029357102 -0.54846609 0 0.33897066
0 0.030817797 0.029354887 -0.54846609 0 0.33897066
1.110223e-16 0.029838018 0.029352743 -0.54846609 0 0.33897066
0 0.028858379 0.029350668 -0.54846609 0 0.33897066
0 0.027878873 0.029348662 -0.54846609 0 0.33897066
1.110223e-16 0.026899498 0.029346725 -0.54846609 0 0.33897066
0 0.02592025 0.029344859 -0.54846609 0 0.33897066
0 0.02494112 0.029343061 -0.54846609 0 0.33897066
0 0.023962107 0.029341333 -0.54846609 0 0.33897066
1.110223e-16 0.022983206 0.029339673 -0.54846609 0 0.33897066
0 0.022004411 0.029338082 -0.54846609 0 0.33897066
0 0.021025719 0.029336562 -0.54846609 0 0.33897066
0 0.020047126 0.029335111 -0.54846609 0 0.33897066
0 0.019068627 0.029333729 -0.54846609 0 0.33897066
1.110223e-16 0.018090215 0.029332416 -0.54846609 0 0.33897066
0 0.017111886 0.029331172 -0.54846609 0 0.33897066
1.110223e-16 0.01613364 0.029329997 -0.54846609 0 0.33897066
0 0.015155467 0.029328892 -0.54846609 0 0.33897066
0 0.014177365 0.029327855 -0.54846609 0 0.33897066
0 0.013199329 0.029326888 -0.54846609 0 0.33897066
1.110223e-16 0.012221354 0.02932599 -0.54846609 0 0.33897066
0 0.011243436 0.029325161 -0.54846609 0 0.33897066
1.110223e-16 0.010265571 0.029324401 -0.54846609 0 0.33897066
1.110223e-16 0.0092877541 0.02932371 -0.54846609 0 0.33897066
0 0.0083099799 0.02932309 -0.54846609 0 0.33897066
0 0.007332244 0.029322537 -0.54846609 0 0.33897066
0 0.0063545424 0.029322054 -0.54846609 0 0.33897066
1.110223e-16 0.0053768707 0.029321639 -0.54846609 0 0.33897066
0 0.0043992237 0.029321294 -0.54846609 0 0.33897066
0 0.0034215972 0.029321017 -0.54846609 0 0.33897066
0 0.0024439865 0.02932081 -0.54846609 0 0.33897066
1.110223e-16 0.0014663874 0.029320672 -0.54846609 0 0.33897066
0 0.00048879505 0.029320603 -0.54846609 0 0.33897066
0 0.079168722 0.028412838 -0.54846609 0 0.33897066
0 0.078175478 0.028407453 -0.54846609 0 0.33897066
0 0.077182598 0.028402137 -0.54846609 0 0.33897066
0 0.076190092 0.02839689 -0.54846609 0 0.33897066
1.110223e-16 0.075197943 0.028391711 -0.54846609 0 0.33897066
1.110223e-16 0.074206144 0.028386602 -0.54846609 0 0.33897066
1.110223e-16 0.073214702 0.028381562 -0.54846609 0 0.33897066
1.110223e-16 0.072223604 0.02837659 -0.54846609 0 0.33897066
0 0.071232848 0.028371688 -0.54846609 0 0.33897066
0 0.07024242 0.028366853 -0.54846609 0 0.33897066
0 0.069252335 0.028362086 -0.54846609 0 0.33897066
1.110223e-16 0.06826257 0.028357388 -0.54846609 0 0.33897066
1.110223e-16 0.067273125 0.02835276 -0.54846609 0 0.33897066
0 0.066284001 0.028348198 -0.54846609 0 0.33897066
0 0.065295182 0.028343705 -0.54846609 0 0.33897066
1.110223e-16 0.064306676 0.028339282 -0.54846609 0 0.33897066
0 0.063318476 0.028334925 -0.54846609 0 0.33897066
0 0.06233057 0.028330637 -0.54846609 0 0.33897066
0 0.061342958 0.028326416 -0.54846609 0 0.33897066
0 0.060355633 0.028322265 -0.54846609 0 0.33897066
1.110223e-16 0.059368592 0.02831818 -0.54846609 0 0.33897066
0 0.058381833 0.028314164 -0.54846609 0 0.33897066
0 0.057395346 0.028310215 -0.54846609 0 0.33897066
0 0.056409128 0.028306333 -0.54846609 0 0.33897066
0 0.055423174 0.028302521 -0.54846609 0 0.33897066
0 0.054437481 0.028298775 -0.54846609 0 0.33897066
0 0.053452045 0.028295098 -0.54846609 0 0.33897066
0 0.052466858 0.028291488 -0.54846609 0 0.33897066
1.110223e-16 0.051481921 0.028287945 -0.54846609 0 0.33897066
0 0.050497223 0.028284471 -0.54846609 0 0.33897066
0 0.049512759 0.028281065 -0.54846609 0 0.33897066
0 0.04852853 0.028277725 -0.54846609 0 0.33897066
0 0.047544528 0.028274452 -0.54846609 0 0.33897066
1.110223e-16 0.046560749 0.028271247 -0.54846609 0 0.33897066
0 0.045577187 0.02826811 -0.54846609 0 0.33897066
0 0.044593837 0.028265039 -0.54846609 0 0.33897066
0 0.043610699 0.028262036 -0.54846609 0 0.33897066
0 0.042627763 0.0282591 -0.54846609 0 0.33897066
1.110223e-16 0.041645028 0.028256232 -0.54846609 0 0.33897066
1.110223e-16 0.04066249 0.028253431 -0.54846609 0 0.33897066
1.110223e-16 0.039680138 0.028250696 -0.54846609 0 0.33897066
1.110223e-16 0.038697973 0.028248029 -0.54846609 0 0.33897066
0 0.03771599 0.028245429 -0.54846609 0 0.33897066
0 0.036734182 0.028242895 -0.54846609 0 0.33897066
0 0.035752546 0.028240429 -0.54846609 0 0.33897066
0 0.034771077 0.02823803 -0.54846609 0 0.33897066
0 0.033789769 0.028235698 -0.54846609 0 0.33897066
0 0.03280862 0.028233433 -0.54846609 0 0.33897066
1.110223e-16 0.031827629 0.028231235 -0.54846609 0 0.33897066
0 0.03084678 0.028229104 -0.54846609 0 0.33897066
0 0.029866079 0.028227041 -0.54846609 0 0.33897066
1.110223e-16 0.028885515 0.028225042 -0.54846609 0 0.33897066
1.110223e-16 0.027905088 0.028223112 -0.54846609 0 0.33897066
0 0.026924789 0.028221248 -0.54846609 0 0.33897066
0 0.025944617 0.02821945 -0.54846609 0 0.33897066
0 0.024964567 0.02821772 -0.54846609 0 0.33897066
0 0.023984632 0.028216057 -0.54846609 0 0.33897066
1.110223e-16 0.023004809 0.028214458 -0.54846609 0 0.33897066
0 0.022025093 0.028212929 -0.54846609 0 0.33897066
1.110223e-16 0.021045482 0.028211465 -0.54846609 0 0.33897066
0 0.020065967 0.028210068 -0.54846609 0 0.33897066
0 0.019086545 0.028208738 -0.54846609 0 0.33897066
0 0.018107215 0.028207473 -0.54846609 0 0.33897066
0 0.017127967 0.028206276 -0.54846609 0 0.33897066
1.110223e-16 0.0161488 0.028205145 -0.54846609 0 0.33897066
1.110223e-16 0.015169707 0.028204082 -0.54846609 0 0.33897066
0 0.014190686 0.028203085 -0.54846609 0 0.33897066
1.110223e-16 0.013211731 0.028202154 -0.54846609 0 0.33897066
0 0.012232837 0.028201289 -0.54846609 0 0.33897066
1.110223e-16 0.011254 0.02820049 -0.54846609 0 0.33897066
0 0.010275216 0.02819976 -0.54846609 0 0.33897066
1.110223e-16 0.0092964796 0.028199095 -0.54846609 0 0.33897066
0 0.0083177863 0.028198497 -0.54846609 0 0.33897066
0 0.007339132 0.028197965 -0.54846609 0 0.33897066
0 0.0063605118 0.028197499 -0.54846609 0 0.33897066
0 0.0053819213 0.0281971 -0.54846609 0 0.33897066
1.110223e-16 0.004403356 0.028196769 -0.54846609 0 0.33897066
0 0.0034248112 0.028196502 -0.54846609 0 0.33897066
0 0.0024462824 0.028196303 -0.54846609 0 0.33897066
0 0.0014677648 0.028196169 -0.54846609 0 0.33897066
0 0.00048925419 0.028196104 -0.54846609 0 0.33897066
0 0.07924372 0.027277894 -0.54846609 0 0.33897066
0 0.078249522 0.02727272 -0.54846609 0 0.33897066
0 0.077255696 0.027267613 -0.54846609 0 0.33897066
1.110223e-16 0.076262228 0.02726257 -0.54846609 0 0.33897066
0 0.075269125 0.027257593 -0.54846609 0 0.33897066
1.110223e-16 0.07427638 0.027252685 -0.54846609 0 0.33897066
1.110223e-16 0.073283985 0.027247841 -0.54846609 0 0.33897066
0 0.07229194 0.027243063 -0.54846609 0 0.33897066
0 0.071300231 0.02723835 -0.54846609 0 0.33897066
1.110223e-16 0.070308857 0.027233705 -0.54846609 0 0.33897066
0 0.069317825 0.027229125 -0.54846609 0 0.33897066
1.110223e-16 0.068327114 0.027224611 -0.54846609 0 0.33897066
0 0.067336723 0.027220162 -0.54846609 0 0.33897066
0 0.066346653 0.027215779 -0.54846609 0 0.33897066
1.110223e-16 0.065356895 0.027211461 -0.54846609 0 0.33897066
1.110223e-16 0.064367443 0.027207211 -0.54846609 0 0.33897066
0 0.063378297 0.027203023 -0.54846609 0 0.33897066
1.110223e-16 0.062389448 0.027198903 -0.54846609 0 0.33897066
1.110223e-16 0.061400894 0.027194846 -0.54846609 0 0.33897066
0 0.06041263 0.027190857 -0.54846609 0 0.33897066
0 0.05942465 0.027186932 -0.54846609 0 0.33897066
0 0.058436949 0.027183073 -0.54846609 0 0.33897066
0 0.057449523 0.027179278 -0.54846609 0 0.33897066
0 0.056462366 0.027175549 -0.54846609 0 0.33897066
0 0.055475477 0.027171886 -0.54846609 0 0.33897066
0 0.054488849 0.027168285 -0.54846609 0 0.33897066
0 0.053502474 0.027164752 -0.54846609 0 0.33897066
1.110223e-16 0.052516352 0.027161283 -0.54846609 0 0.33897066
0 0.051530477 0.027157879 -0.54846609 0 0.33897066
0 0.050544843 0.027154541 -0.54846609 0 0.33897066
0 0.049559448 0.027151266 -0.54846609 0 0.33897066
0 0.048574284 0.027148057 -0.54846609 0 0.33897066
0 0.04758935 0.027144911 -0.54846609 0 0.33897066
0 0.046604637 0.027141832 -0.54846609 0 0.33897066
0 0.045620143 0.027138816 -0.54846609 0 0.33897066
1.110223e-16 0.044635866 0.027135866 -0.54846609 0 0.33897066
0 0.043651797 0.027132981 -0.54846609 0 0.33897066
0 0.042667929 0.027130159 -0.54846609 0 0.33897066
0 0.041684266 0.027127402 -0.54846609 0 0.33897066
0 0.040700793 0.02712471 -0.54846609 0 0.33897066
1.110223e-16 0.039717514 0.027122084 -0.54846609 0 0.33897066
0 0.038734421 0.027119521 -0.54846609 0 0.33897066
0 0.037751511 0.027117021 -0.54846609 0 0.33897066
0 0.036768775 0.027114587 -0.54846609 0 0.33897066
0 0.035786211 0.027112218 -0.54846609 0 0.33897066
0 0.034803815 0.027109914 -0.54846609 0 0.33897066
1.110223e-16 0.033821583 0.027107671 -0.54846609 0 0.33897066
1.110223e-16 0.032839507 0.027105495 -0.54846609 0 0.33897066
1.110223e-16 0.031857587 0.027103383 -0.54846609 0 0.33897066
0 0.030875815 0.027101334 -0.54846609 0 0.33897066
0 0.029894188 0.02709935 -0.54846609 0 0.33897066
0 0.028912699 0.027097432 -0.54846609 0 0.33897066
0 0.027931347 0.027095577 -0.54846609 0 0.33897066
1.110223e-16 0.026950125 0.027093785 -0.54846609 0 0.33897066
1.110223e-16 0.025969028 0.027092058 -0.54846609 0 0.33897066
1.110223e-16 0.024988055 0.027090395 -0.54846609 0 0.33897066
1.110223e-16 0.024007197 0.027088797 -0.54846609 0 0.33897066
0 0.023026451 0.027087262 -0.54846609 0 0.33897066
0 0.022045814 0.02708579 -0.54846609 0 0.33897066
0 0.021065278 0.027084384 -0.54846609 0 0.33897066
0 0.020084841 0.027083041 -0.54846609 0 0.33897066
0 0.019104498 0.027081763 -0.54846609 0 0.33897066
0 0.018124245 0.027080549 -0.54846609 0 0.33897066
0 0.017144075 0.027079398 -0.54846609 0 0.33897066
0 0.016163986 0.027078312 -0.54846609 0 0.33897066
0 0.015183973 0.027077289 -0.54846609 0 0.33897066
0 0.01420403 0.02707633 -0.54846609 0 0.33897066
0 0.013224154 0.027075436 -0.54846609 0 0.33897066
0 0.012244339 0.027074605 -0.54846609 0 0.33897066
0 0.011264582 0.027073838 -0.54846609 0 0.33897066
0 0.010284877 0.027073136 -0.54846609 0 0.33897066
0 0.0093052201 0.027072497 -0.54846609 0 0.33897066
0 0.0083256066 0.027071923 -0.54846609 0 0.33897066
0 0.0073460322 0.027071411 -0.54846609 0 0.33897066
0 0.0063664922 0.027070964 -0.54846609 0 0.33897066
0 0.0053869816 0.02707058 -0.54846609 0 0.33897066
0 0.0044074962 0.027070262 -0.54846609 0 0.33897066
0 0.0034280312 0.027070006 -0.54846609 0 0.33897066
0 0.0024485823 0.027069815 -0.54846609 0 0.33897066
0 0.0014691447 0.027069686 -0.54846609 0 0.33897066
1.110223e-16 0.00048971415 0.027069623 -0.54846609 0 0.33897066
0 0.079318859 0.026140928 -0.54846609 0 0.33897066
1.110223e-16 0.0783237 0.026135964 -0.54846609 0 0.33897066
1.110223e-16 0.07732892 0.026131066 -0.54846609 0 0.33897066
0 0.076334499 0.026126228 -0.54846609 0 0.33897066
0 0.075340442 0.026121456 -0.54846609 0 0.33897066
0 0.074346744 0.026116746 -0.54846609 0 0.33897066
0 0.073353395 0.0261121 -0.54846609 0 0.33897066
1.110223e-16 0.072360396 0.026107518 -0.54846609 0 0.33897066
1.110223e-16 0.071367733 0.026102997 -0.54846609 0 0.33897066
0 0.070375413 0.02609854 -0.54846609 0 0.33897066
0 0.069383428 0.026094148 -0.54846609 0 0.33897066
0 0.06839177 0.026089817 -0.54846609 0 0.33897066
0 0.067400433 0.02608555 -0.54846609 0 0.33897066
0 0.066409416 0.026081346 -0.54846609 0 0.33897066
1.110223e-16 0.065418713 0.026077203 -0.54846609 0 0.33897066
0 0.064428315 0.026073126 -0.54846609 0 0.33897066
0 0.063438222 0.02606911 -0.54846609 0 0.33897066
0 0.062448431 0.026065158 -0.54846609 0 0.33897066
0 0.061458934 0.026061267 -0.54846609 0 0.33897066
1.110223e-16 0.060469728 0.026057439 -0.54846609 0 0.33897066
0 0.059480805 0.026053675 -0.54846609 0 0.33897066
1.110223e-16 0.058492165 0.026049973 -0.54846609 0 0.33897066
1.110223e-16 0.057503797 0.026046334 -0.54846609 0 0.33897066
0 0.056515701 0.026042756 -0.54846609 0 0.33897066
0 0.055527873 0.026039241 -0.54846609 0 0.33897066
0 0.054540303 0.026035789 -0.54846609 0 0.33897066
1.110223e-16 0.053552993 0.026032399 -0.54846609 0 0.33897066
1.110223e-16 0.052565932 0.026029073 -0.54846609 0 0.33897066
0 0.051579122 0.026025807 -0.54846609 0 0.33897066
0 0.050592553 0.026022604 -0.54846609 0 0.33897066
1.110223e-16 0.049606219 0.026019463 -0.54846609 0 0.33897066
0 0.048620123 0.026016384 -0.54846609 0 0.33897066
0 0.047634251 0.026013369 -0.54846609 0 0.33897066
0 0.046648607 0.026010415 -0.54846609 0 0.33897066
0 0.045663178 0.026007522 -0.54846609 0 0.33897066
1.110223e-16 0.044677965 0.026004693 -0.54846609 0 0.33897066
0 0.043692965 0.026001923 -0.54846609 0 0.33897066
0 0.042708166 0.025999218 -0.54846609 0 0.33897066
0 0.041723568 0.025996573 -0.54846609 0 0.33897066
0 0.040739167 0.025993992 -0.54846609 0 0.33897066
0 0.039754957 0.025991471 -0.54846609 0 0.33897066
0 0.038770933 0.025989013 -0.54846609 0 0.33897066
0 0.037787091 0.025986616 -0.54846609 0 0.33897066
0 0.036803428 0.025984282 -0.54846609 0 0.33897066
0 0.035819937 0.025982007 -0.54846609 0 0.33897066
1.110223e-16 0.034836613 0.025979796 -0.54846609 0 0.33897066
0 0.033853449 0.025977647 -0.54846609 0 0.33897066
1.110223e-16 0.032870449 0.025975559 -0.54846609 0 0.33897066
0 0.031887598 0.025973532 -0.54846609 0 0.33897066
0 0.0309049 0.025971569 -0.54846609 0 0.33897066
0 0.029922346 0.025969665 -0.54846609 0 0.33897066
0 0.028939933 0.025967825 -0.54846609 0 0.33897066
0 0.027957654 0.025966045 -0.54846609 0 0.33897066
1.110223e-16 0.026975505 0.025964327 -0.54846609 0 0.33897066
0 0.025993483 0.025962669 -0.54846609 0 0.33897066
0 0.025011584 0.025961075 -0.54846609 0 0.33897066
1.110223e-16 0.024029801 0.02595954 -0.54846609 0 0.33897066
0 0.023048131 0.025958069 -0.54846609 0 0.33897066
0 0.022066569 0.025956659 -0.54846609 0 0.33897066
0 0.02108511 0.025955308 -0.54846609 0 0.33897066
0 0.020103749 0.025954021 -0.54846609 0 0.33897066
1.110223e-16 0.019122481 0.025952796 -0.54846609 0 0.33897066
0 0.018141305 0.02595163 -0.54846609 0 0.33897066
0 0.017160213 0.025950527 -0.54846609 0 0.33897066
0 0.0161792 0.025949484 -0.54846609 0 0.33897066
0 0.015198264 0.025948504 -0.54846609 0 0.33897066
0 0.014217398 0.025947584 -0.54846609 0 0.33897066
0 0.0132366 0.025946725 -0.54846609 0 0.33897066
0 0.012255862 0.02594593 -0.54846609 0 0.33897066
1.110223e-16 0.011275182 0.025945194 -0.54846609 0 0.33897066
0 0.010294556 0.02594452 -0.54846609 0 0.33897066
0 0.0093139764 0.025943907 -0.54846609 0 0.33897066
1.110223e-16 0.0083334409 0.025943356 -0.54846609 0 0.33897066
0 0.0073529449 0.025942866 -0.54846609 0 0.33897066
0 0.0063724825 0.025942435 -0.54846609 0 0.33897066
1.110223e-16 0.0053920504 0.025942069 -0.54846609 0 0.33897066
0 0.0044116434 0.025941763 -0.54846609 0 0.33897066
1.110223e-16 0.0034312566 0.025941517 -0.54846609 0 0.33897066
0 0.0024508862 0.025941333 -0.54846609 0 0.33897066
0 0.0014705271 0.025941212 -0.54846609 0 0.33897066
1.110223e-16 0.00049017492 0.02594115 -0.54846609 0 0.33897066
0 0.079394132 0.025001928 -0.54846609 0 0.33897066
0 0.078398012 0.024997177 -0.54846609 0 0.33897066
1.110223e-16 0.077402271 0.024992486 -0.54846609 0 0.33897066
0 0.076406896 0.024987856 -0.54846609 0 0.33897066
0 0.075411886 0.024983287 -0.54846609 0 0.33897066
0 0.074417226 0.024978777 -0.54846609 0 0.33897066
0 0.073422924 0.024974329 -0.54846609 0 0.33897066
1.110223e-16 0.072428972 0.024969943 -0.54846609 0 0.33897066
0 0.071435362 0.024965616 -0.54846609 0 0.33897066
0 0.070442088 0.024961349 -0.54846609 0 0.33897066
0 0.069449149 0.024957143 -0.54846609 0 0.33897066
0 0.068456545 0.024952998 -0.54846609 0 0.33897066
0 0.067464255 0.024948912 -0.54846609 0 0.33897066
0 0.066472292 0.024944888 -0.54846609 0 0.33897066
0 0.065480642 0.024940923 -0.54846609 0 0.33897066
0 0.064489298 0.024937019 -0.54846609 0 0.33897066
0 0.063498259 0.024933174 -0.54846609 0 0.33897066
0 0.062507518 0.024929389 -0.54846609 0 0.33897066
1.110223e-16 0.061517078 0.024925666 -0.54846609 0 0.33897066
0 0.060526926 0.024922002 -0.54846609 0 0.33897066
0 0.059537061 0.024918398 -0.54846609 0 0.33897066
0 0.058547478 0.024914853 -0.54846609 0 0.33897066
1.110223e-16 0.057558168 0.024911368 -0.54846609 0 0.33897066
0 0.056569129 0.024907945 -0.54846609 0 0.33897066
0 0.055580359 0.024904581 -0.54846609 0 0.33897066
0 0.054591853 0.024901275 -0.54846609 0 0.33897066
0 0.053603601 0.02489803 -0.54846609 0 0.33897066
0 0.052615602 0.024894845 -0.54846609 0 0.33897066
0 0.051627852 0.024891719 -0.54846609 0 0.33897066
0 0.050640345 0.024888651 -0.54846609 0 0.33897066
0 0.049653076 0.024885645 -0.54846609 0 0.33897066
0 0.048666041 0.024882698 -0.54846609 0 0.33897066
0 0.047679234 0.024879811 -0.54846609 0 0.33897066
0 0.046692651 0.024876982 -0.54846609 0 0.33897066
0 0.045706291 0.024874214 -0.54846609 0 0.33897066
1.110223e-16 0.044720143 0.024871504 -0.54846609 0 0.33897066
0 0.043734208 0.024868855 -0.54846609 0 0.33897066
1.110223e-16 0.042748474 0.024866264 -0.54846609 0 0.33897066
0 0.041762944 0.024863733 -0.54846609 0 0.33897066
1.110223e-16 0.040777609 0.024861261 -0.54846609 0 0.33897066
0 0.039792467 0.024858847 -0.54846609 0 0.33897066
0 0.038807511 0.024856495 -0.54846609 0 0.33897066
0 0.037822738 0.0248542 -0.54846609 0 0.33897066
0 0.036838144 0.024851965 -0.54846609 0 0.33897066
0 0.035853721 0.024849789 -0.54846609 0 0.33897066
0 0.034869466 0.024847671 -0.54846609 0 0.33897066
0 0.033885375 0.024845613 -0.54846609 0 0.33897066
0 0.032901444 0.024843615 -0.54846609 0 0.33897066
0 0.031917665 0.024841676 -0.54846609 0 0.33897066
0 0.030934038 0.024839794 -0.54846609 0 0.33897066
0 0.029950555 0.024837973 -0.54846609 0 0.33897066
0 0.028967213 0.024836211 -0.54846609 0 0.33897066
1.110223e-16 0.027984006 0.024834506 -0.54846609 0 0.33897066
1.110223e-16 0.02700093 0.024832861 -0.54846609 0 0.33897066
0 0.026017983 0.024831276 -0.54846609 0 0.33897066
1.110223e-16 0.025035156 0.024829749 -0.54846609 0 0.33897066
1.110223e-16 0.024052447 0.024828281 -0.54846609 0 0.33897066
0 0.023069849 0.024826871 -0.54846609 0 0.33897066
0 0.022087362 0.024825521 -0.54846609 0 0.33897066
0 0.021104977 0.02482423 -0.54846609 0 0.33897066
0 0.02012269 0.024822997 -0.54846609 0 0.33897066
0 0.019140497 0.024821822 -0.54846609 0 0.33897066
0 0.018158395 0.024820708 -0.54846609 0 0.33897066
1.110223e-16 0.017176379 0.024819652 -0.54846609 0 0.33897066
0 0.01619444 0.024818653 -0.54846609 0 0.33897066
0 0.01521258 0.024817714 -0.54846609 0 0.33897066
0 0.014230791 0.024816833 -0.54846609 0 0.33897066
0 0.013249067 0.024816012 -0.54846609 0 0.33897066
1.110223e-16 0.012267406 0.02481525 -0.54846609 0 0.33897066
0 0.011285802 0.024814546 -0.54846609 0 0.33897066
0 0.010304252 0.0248139 -0.54846609 0 0.33897066
1.110223e-16 0.0093227485 0.024813313 -0.54846609 0 0.33897066
1.110223e-16 0.0083412891 0.024812786 -0.54846609 0 0.33897066
0 0.0073598693 0.024812317 -0.54846609 0 0.33897066
0 0.006378484 0.024811907 -0.54846609 0 0.33897066
0 0.0053971279 0.024811555 -0.54846609 0 0.33897066
1.110223e-16 0.0044157975 0.02481126 -0.54846609 0 0.33897066
0 0.0034344879 0.024811026 -0.54846609 0 0.33897066
0 0.0024531942 0.024810851 -0.54846609 0 0.33897066
1.110223e-16 0.0014719119 0.024810733 -0.54846609 0 0.33897066
0 0.00049063651 0.024810674 -0.54846609 0 0.33897066
0 0.079469532 0.023860883 -0.54846609 0 0.33897066
0 0.078472458 0.023856344 -0.54846609 0 0.33897066
0 0.077475756 0.023851862 -0.54846609 0 0.33897066
1.110223e-16 0.07647942 0.02384744 -0.54846609 0 0.33897066
0 0.075483456 0.023843074 -0.54846609 0 0.33897066
0 0.074487843 0.023838768 -0.54846609 0 0.33897066
0 0.073492587 0.023834519 -0.54846609 0 0.33897066
0 0.072497673 0.023830328 -0.54846609 0 0.33897066
0 0.07150311 0.023826195 -0.54846609 0 0.33897066
1.110223e-16 0.070508882 0.023822119 -0.54846609 0 0.33897066
0 0.069514997 0.023818102 -0.54846609 0 0.33897066
0 0.068521433 0.023814142 -0.54846609 0 0.33897066
1.110223e-16 0.067528196 0.02381024 -0.54846609 0 0.33897066
0 0.066535279 0.023806393 -0.54846609 0 0.33897066
1.110223e-16 0.065542676 0.023802606 -0.54846609 0 0.33897066
1.110223e-16 0.064550385 0.023798877 -0.54846609 0 0.33897066
0 0.0635584 0.023795204 -0.54846609 0 0.33897066
1.110223e-16 0.062566712 0.023791589 -0.54846609 0 0.33897066
1.110223e-16 0.061575327 0.023788031 -0.54846609 0 0.33897066
0 0.060584228 0.023784531 -0.54846609 0 0.33897066
0 0.059593417 0.023781089 -0.54846609 0 0.33897066
0 0.058602888 0.023777703 -0.54846609 0 0.33897066
0 0.057612635 0.023774374 -0.54846609 0 0.33897066
0 0.056622654 0.023771103 -0.54846609 0 0.33897066
0 0.055632941 0.023767889 -0.54846609 0 0.33897066
0 0.054643493 0.023764731 -0.54846609 0 0.33897066
1.110223e-16 0.053654298 0.023761632 -0.54846609 0 0.33897066
0 0.05266536 0.023758588 -0.54846609 0 0.33897066
1.110223e-16 0.051676668 0.023755603 -0.54846609 0 0.33897066
0 0.050688222 0.023752674 -0.54846609 0 0.33897066
0 0.049700014 0.023749802 -0.54846609 0 0.33897066
0 0.048712041 0.023746986 -0.54846609 0 0.33897066
0 0.047724295 0.023744227 -0.54846609 0 0.33897066
0 0.046736777 0.023741527 -0.54846609 0 0.33897066
0 0.045749478 0.023738882 -0.54846609 0 0.33897066
1.110223e-16 0.044762395 0.023736294 -0.54846609 0 0.33897066
0 0.043775521 0.023733763 -0.54846609 0 0.33897066
0 0.042788856 0.023731288 -0.54846609 0 0.33897066
0 0.041802391 0.02372887 -0.54846609 0 0.33897066
1.110223e-16 0.040816121 0.023726508 -0.54846609 0 0.33897066
0 0.039830044 0.023724204 -0.54846609 0 0.33897066
0 0.038844157 0.023721956 -0.54846609 0 0.33897066
0 0.037858449 0.023719763 -0.54846609 0 0.33897066
1.110223e-16 0.03687292 0.023717629 -0.54846609 0 0.33897066
0 0.035887565 0.02371555 -0.54846609 0 0.33897066
0 0.034902379 0.023713527 -0.54846609 0 0.33897066
0 0.033917356 0.023711562 -0.54846609 0 0.33897066
0 0.032932494 0.023709653 -0.54846609 0 0.33897066
0 0.031947784 0.0237078 -0.54846609 0 0.33897066
0 0.030963227 0.023706002 -0.54846609 0 0.33897066
0 0.029978814 0.023704262 -0.54846609 0 0.33897066
0 0.028994542 0.023702579 -0.54846609 0 0.33897066
1.110223e-16 0.028010406 0.023700951 -0.54846609 0 0.33897066
0 0.027026402 0.02369938 -0.54846609 0 0.33897066
0 0.026042525 0.023697864 -0.54846609 0 0.33897066
0 0.025058769 0.023696406 -0.54846609 0 0.33897066
0 0.024075132 0.023695003 -0.54846609 0 0.33897066
0 0.023091607 0.023693658 -0.54846609 0 0.33897066
0 0.02210819 0.023692368 -0.54846609 0 0.33897066
0 0.021124877 0.023691135 -0.54846609 0 0.33897066
1.110223e-16 0.020141665 0.023689955 -0.54846609 0 0.33897066
0 0.019158546 0.023688834 -0.54846609 0 0.33897066
0 0.018175516 0.023687769 -0.54846609 0 0.33897066
0 0.017192572 0.023686761 -0.54846609 0 0.33897066
1.110223e-16 0.016209709 0.023685807 -0.54846609 0 0.33897066
0 0.015226922 0.02368491 -0.54846609 0 0.33897066
1.110223e-16 0.014244206 0.02368407 -0.54846609 0 0.33897066
1.110223e-16 0.013261557 0.023683285 -0.54846609 0 0.33897066
0 0.01227897 0.023682555 -0.54846609 0 0.33897066
0 0.011296441 0.023681883 -0.54846609 0 0.33897066
0 0.010313964 0.023681266 -0.54846609 0 0.33897066
0 0.0093315365 0.023680707 -0.54846609 0 0.33897066
0 0.0083491514 0.023680203 -0.54846609 0 0.33897066
0 0.0073668063 0.023679754 -0.54846609 0 0.33897066
0 0.0063844956 0.023679363 -0.54846609 0 0.33897066
0 0.0054022153 0.023679025 -0.54846609 0 0.33897066
0 0.0044199596 0.023678746 -0.54846609 0 0.33897066
0 0.0034377249 0.023678521 -0.54846609 0 0.33897066
0 0.0024555062 0.023678353 -0.54846609 0 0.33897066
0 0.0014732991 0.023678241 -0.54846609 0 0.33897066
0 0.00049109897 0.023678185 -0.54846609 0 0.33897066
0 0.079545073 0.022717781 -0.54846609 0 0.33897066
0 0.078547038 0.022713456 -0.54846609 0 0.33897066
1.110223e-16 0.077549376 0.022709185 -0.54846609 0 0.33897066
0 0.076552078 0.02270497 -0.54846609 0 0.33897066
1.110223e-16 0.075555153 0.022700811 -0.54846609 0 0.33897066
0 0.074558578 0.022696706 -0.54846609 0 0.33897066
1.110223e-16 0.073562369 0.022692656 -0.54846609 0 0.33897066
0 0.072566502 0.022688663 -0.54846609 0 0.33897066
0 0.071570978 0.022684723 -0.54846609 0 0.33897066
0 0.070575796 0.02268084 -0.54846609 0 0.33897066
0 0.069580957 0.02267701 -0.54846609 0 0.33897066
1.110223e-16 0.068586439 0.022673236 -0.54846609 0 0.33897066
1.110223e-16 0.067592248 0.022669517 -0.54846609 0 0.33897066
0 0.066598378 0.022665853 -0.54846609 0 0.33897066
0 0.065604828 0.022662245 -0.54846609 0 0.33897066
0 0.064611584 0.022658689 -0.54846609 0 0.33897066
0 0.063618653 0.022655189 -0.54846609 0 0.33897066
0 0.062626019 0.022651745 -0.54846609 0 0.33897066
1.110223e-16 0.06163368 0.022648355 -0.54846609 0 0.33897066
1.110223e-16 0.060641635 0.022645019 -0.54846609 0 0.33897066
1.110223e-16 0.059649877 0.022641737 -0.54846609 0 0.33897066
0 0.058658399 0.022638511 -0.54846609 0 0.33897066
0 0.057667203 0.022635339 -0.54846609 0 0.33897066
1.110223e-16 0.056676276 0.022632223 -0.54846609 0 0.33897066
1.110223e-16 0.055685621 0.022629159 -0.54846609 0 0.33897066
1.110223e-16 0.054695226 0.02262615 -0.54846609 0 0.33897066
0 0.053705089 0.022623196 -0.54846609 0 0.33897066
0 0.052715208 0.022620296 -0.54846609 0 0.33897066
0 0.051725574 0.02261745 -0.54846609 0 0.33897066
1.110223e-16 0.050736185 0.02261466 -0.54846609 0 0.33897066
0 0.049747039 0.022611922 -0.54846609 0 0.33897066
0 0.048758123 0.022609239 -0.54846609 0 0.33897066
0 0.047769438 0.022606609 -0.54846609 0 0.33897066
0 0.046780981 0.022604035 -0.54846609 0 0.33897066
1.110223e-16 0.045792744 0.022601515 -0.54846609 0 0.33897066
0 0.044804722 0.022599049 -0.54846609 0 0.33897066
0 0.043816913 0.022596637 -0.54846609 0 0.33897066
0 0.042829309 0.022594279 -0.54846609 0 0.33897066
1.110223e-16 0.041841906 0.022591973 -0.54846609 0 0.33897066
0 0.0408547 0.022589723 -0.54846609 0 0.33897066
0 0.039867688 0.022587527 -0.54846609 0 0.33897066
1.110223e-16 0.038880862 0.022585385 -0.54846609 0 0.33897066
1.110223e-16 0.037894223 0.022583295 -0.54846609 0 0.33897066
0 0.036907759 0.022581261 -0.54846609 0 0.33897066
1.110223e-16 0.035921469 0.022579279 -0.54846609 0 0.33897066
0 0.034935351 0.022577353 -0.54846609 0 0.33897066
1.110223e-16 0.033949394 0.022575479 -0.54846609 0 0.33897066
0 0.0329636 0.022573659 -0.54846609 0 0.33897066
0 0.031977959 0.022571893 -0.54846609 0 0.33897066
1.110223e-16 0.030992469 0.022570182 -0.54846609 0 0.33897066
1.110223e-16 0.030007124 0.022568524 -0.54846609 0 0.33897066
0 0.029021921 0.022566918 -0.54846609 0 0.33897066
1.110223e-16 0.028036853 0.022565367 -0.54846609 0 0.33897066
1.110223e-16 0.027051918 0.022563871 -0.54846609 0 0.33897066
0 0.02606711 0.022562426 -0.54846609 0 0.33897066
0 0.025082424 0.022561036 -0.54846609 0 0.33897066
0 0.024097858 0.022559701 -0.54846609 0 0.33897066
1.110223e-16 0.023113403 0.022558417 -0.54846609 0 0.33897066
0 0.022129057 0.022557188 -0.54846609 0 0.33897066
1.110223e-16 0.021144815 0.022556012 -0.54846609 0 0.33897066
0 0.020160673 0.022554889 -0.54846609 0 0.33897066
0 0.019176625 0.02255382 -0.54846609 0 0.33897066
1.110223e-16 0.018192668 0.022552805 -0.54846609 0 0.33897066
0 0.017208796 0.022551844 -0.54846609 0 0.33897066
0 0.016225005 0.022550935 -0.54846609 0 0.33897066
0 0.01524129 0.02255008 -0.54846609 0 0.33897066
0 0.014257645 0.022549279 -0.54846609 0 0.33897066
0 0.013274069 0.022548532 -0.54846609 0 0.33897066
