# .PCD v0.7 - Point Cloud Data file format
VERSION 0.7
FIELDS x y z vp_x vp_y vp_z
SIZE 4 4 4 4 4 4
TYPE F F F F F F
COUNT 1 1 1 1 1 1
WIDTH 708
HEIGHT 1
VIEWPOINT 0 0 0 1 0 0 0
POINTS 708
DATA ascii
0.00010386347 0.061915662 0.047929164 -0.60000002 0.039999999 0.039999999
5.3162559e-05 0.060980532 0.047928054 -0.60000002 0.039999999 0.039999999
2.4757214e-06 0.06004566 0.047926962 -0.60000002 0.039999999 0.039999999
4.8031183e-05 0.05911411 0.047927164 -0.60000002 0.039999999 0.039999999
9.8532641e-05 0.05818266 0.047927447 -0.60000002 0.039999999 0.039999999
0.00021308598 0.057252981 0.047928598 -0.60000002 0.039999999 0.039999999
0.00036537746 0.056324054 0.047930263 -0.60000002 0.039999999 0.039999999
0.00055226719 0.055395622 0.047932409 -0.60000002 0.039999999 0.039999999
0.00080971862 0.054468382 0.047935501 -0.60000002 0.039999999 0.039999999
0.0010761796 0.053540614 0.047938734 -0.60000002 0.039999999 0.039999999
0.0014452708 0.052614234 0.047943339 -0.60000002 0.039999999 0.039999999
0.0018147916 0.051686779 0.047947969 -0.60000002 0.039999999 0.039999999
0.0022948883 0.050760206 0.047954082 -0.60000002 0.039999999 0.039999999
0.0027867893 0.049832385 0.047960367 -0.60000002 0.039999999 0.039999999
0.0033944994 0.048904795 0.047968198 -0.60000002 0.039999999 0.039999999
0.0040244753 0.047975648 0.047976345 -0.60000002 0.039999999 0.039999999
0.0048003192 0.047046285 0.047986437 -0.60000002 0.039999999 0.039999999
0.0056184176 0.046114974 0.047997106 -0.60000002 0.039999999 0.039999999
0.0066027776 0.045182567 0.048009988 -0.60000002 0.039999999 0.039999999
0.0077214665 0.044248071 0.048024662 -0.60000002 0.039999999 0.039999999
0.0090009933 0.043310989 0.048041478 -0.60000002 0.039999999 0.039999999
0.010563242 0.042371046 0.048062049 -0.60000002 0.039999999 0.039999999
0.012582443 0.041427329 0.048088674 -0.60000002 0.039999999 0.039999999
0.015788615 0.040478267 0.048130989 -0.60000002 0.039999999 0.039999999
0.018518664 0.079927348 0.047221113 -0.60000002 0.039999999 0.039999999
0.012634259 0.078591987 0.047151703 -0.60000002 0.039999999 0.039999999
0.010342016 0.077495851 0.047124255 -0.60000002 0.039999999 0.039999999
0.008628821 0.076441713 0.047103591 -0.60000002 0.039999999 0.039999999
0.0072771846 0.075414181 0.047087163 -0.60000002 0.039999999 0.039999999
0.0061670942 0.074404739 0.047073577 -0.60000002 0.039999999 0.039999999
0.005184467 0.073405966 0.047061495 -0.60000002 0.039999999 0.039999999
0.0043453737 0.072418109 0.047051109 -0.60000002 0.039999999 0.039999999
0.0036278407 0.071439363 0.047042158 -0.60000002 0.039999999 0.039999999
0.0029678189 0.0704659 0.047033899 -0.60000002 0.039999999 0.039999999
0.0024332609 0.069500789 0.047027119 -0.60000002 0.039999999 0.039999999
0.0019231635 0.068538643 0.047020644 -0.60000002 0.039999999 0.039999999
0.0015239802 0.067583315 0.047015481 -0.60000002 0.039999999 0.039999999
0.001144244 0.066630222 0.04701056 -0.60000002 0.039999999 0.039999999
0.0008515162 0.065682158 0.047006674 -0.60000002 0.039999999 0.039999999
0.00058891549 0.064736366 0.047003154 -0.60000002 0.039999999 0.039999999
0.00038470462 0.063793831 0.047000334 -0.60000002 0.039999999 0.039999999
0.00023061718 0.062853955 0.046998113 -0.60000002 0.039999999 0.039999999
0.00010386347 0.061915662 0.046996232 -0.60000002 0.039999999 0.039999999
5.3162559e-05 0.060980532 0.046995252 -0.60000002 0.039999999 0.039999999
2.4757214e-06 0.06004566 0.046994288 -0.60000002 0.039999999 0.039999999
4.8031183e-05 0.05911411 0.046994466 -0.60000002 0.039999999 0.039999999
9.8532641e-05 0.05818266 0.046994716 -0.60000002 0.039999999 0.039999999
0.00021308598 0.057252981 0.046995729 -0.60000002 0.039999999 0.039999999
0.00036537746 0.056324054 0.046997201 -0.60000002 0.039999999 0.039999999
0.00055226719 0.055395622 0.046999093 -0.60000002 0.039999999 0.039999999
0.00080971862 0.054468382 0.047001824 -0.60000002 0.039999999 0.039999999
0.0010761796 0.053540614 0.047004674 -0.60000002 0.039999999 0.039999999
0.0014452708 0.052614234 0.047008738 -0.60000002 0.039999999 0.039999999
0.0018147916 0.051686779 0.047012825 -0.60000002 0.039999999 0.039999999
0.0022948883 0.050760206 0.047018215 -0.60000002 0.039999999 0.039999999
0.0027867893 0.049832385 0.047023762 -0.60000002 0.039999999 0.039999999
0.0033944994 0.048904795 0.047030672 -0.60000002 0.039999999 0.039999999
0.0040244753 0.047975648 0.047037862 -0.60000002 0.039999999 0.039999999
0.0048003192 0.047046285 0.047046766 -0.60000002 0.039999999 0.039999999
0.0056184176 0.046114974 0.047056176 -0.60000002 0.039999999 0.039999999
0.0066027776 0.045182567 0.047067545 -0.60000002 0.039999999 0.039999999
0.0077214665 0.044248071 0.047080494 -0.60000002 0.039999999 0.039999999
0.0090009933 0.043310989 0.047095332 -0.60000002 0.039999999 0.039999999
0.010563242 0.042371046 0.047113482 -0.60000002 0.039999999 0.039999999
0.012582443 0.041427329 0.047136974 -0.60000002 0.039999999 0.039999999
0.015788615 0.040478267 0.047174308 -0.60000002 0.039999999 0.039999999
0.018518664 0.079927348 0.046258226 -0.60000002 0.039999999 0.039999999
0.012634259 0.078591987 0.046198074 -0.60000002 0.039999999 0.039999999
0.010342016 0.077495851 0.046174288 -0.60000002 0.039999999 0.039999999
0.008628821 0.076441713 0.046156377 -0.60000002 0.039999999 0.039999999
0.0072771846 0.075414181 0.046142139 -0.60000002 0.039999999 0.039999999
0.0061670942 0.074404739 0.046130363 -0.60000002 0.039999999 0.039999999
0.005184467 0.073405966 0.046119895 -0.60000002 0.039999999 0.039999999
0.0043453737 0.072418109 0.046110891 -0.60000002 0.039999999 0.039999999
0.0036278407 0.071439363 0.046103135 -0.60000002 0.039999999 0.039999999
0.0029678189 0.0704659 0.046095975 -0.60000002 0.039999999 0.039999999
0.0024332609 0.069500789 0.0460901 -0.60000002 0.039999999 0.039999999
0.0019231635 0.068538643 0.04608449 -0.60000002 0.039999999 0.039999999
0.0015239802 0.067583315 0.046080016 -0.60000002 0.039999999 0.039999999
0.001144244 0.066630222 0.04607575 -0.60000002 0.039999999 0.039999999
0.0008515162 0.065682158 0.046072382 -0.60000002 0.039999999 0.039999999
0.00058891549 0.064736366 0.046069331 -0.60000002 0.039999999 0.039999999
0.00038470462 0.063793831 0.046066888 -0.60000002 0.039999999 0.039999999
0.00023061718 0.062853955 0.046064965 -0.60000002 0.039999999 0.039999999
0.00010386347 0.061915662 0.04606333 -0.60000002 0.039999999 0.039999999
5.3162559e-05 0.060980532 0.046062484 -0.60000002 0.039999999 0.039999999
2.4757214e-06 0.06004566 0.04606165 -0.60000002 0.039999999 0.039999999
4.8031183e-05 0.05911411 0.046061803 -0.60000002 0.039999999 0.039999999
9.8532641e-05 0.05818266 0.046062019 -0.60000002 0.039999999 0.039999999
0.00021308598 0.057252981 0.046062898 -0.60000002 0.039999999 0.039999999
0.00036537746 0.056324054 0.046064172 -0.60000002 0.039999999 0.039999999
0.00055226719 0.055395622 0.046065811 -0.60000002 0.039999999 0.039999999
0.00080971862 0.054468382 0.046068177 -0.60000002 0.039999999 0.039999999
0.0010761796 0.053540614 0.04607065 -0.60000002 0.039999999 0.039999999
0.0014452708 0.052614234 0.046074171 -0.60000002 0.039999999 0.039999999
0.0018147916 0.051686779 0.046077713 -0.60000002 0.039999999 0.039999999
0.0022948883 0.050760206 0.046082385 -0.60000002 0.039999999 0.039999999
0.0027867893 0.049832385 0.046087191 -0.60000002 0.039999999 0.039999999
0.0033944994 0.048904795 0.046093181 -0.60000002 0.039999999 0.039999999
0.0040244753 0.047975648 0.046099409 -0.60000002 0.039999999 0.039999999
0.0048003192 0.047046285 0.046107128 -0.60000002 0.039999999 0.039999999
0.0056184176 0.046114974 0.046115287 -0.60000002 0.039999999 0.039999999
0.0066027776 0.045182567 0.046125136 -0.60000002 0.039999999 0.039999999
0.0077214665 0.044248071 0.046136357 -0.60000002 0.039999999 0.039999999
0.0090009933 0.043310989 0.046149217 -0.60000002 0.039999999 0.039999999
0.010563242 0.042371046 0.046164948 -0.60000002 0.039999999 0.039999999
0.012582443 0.041427329 0.046185307 -0.60000002 0.039999999 0.039999999
0.015788615 0.040478267 0.046217665 -0.60000002 0.039999999 0.039999999
0.018518664 0.079927348 0.045295373 -0.60000002 0.039999999 0.039999999
0.012634259 0.078591987 0.045244474 -0.60000002 0.039999999 0.039999999
0.010342016 0.077495851 0.045224346 -0.60000002 0.039999999 0.039999999
0.008628821 0.076441713 0.045209192 -0.60000002 0.039999999 0.039999999
0.0072771846 0.075414181 0.045197144 -0.60000002 0.039999999 0.039999999
0.0061670942 0.074404739 0.045187183 -0.60000002 0.039999999 0.039999999
0.005184467 0.073405966 0.04517832 -0.60000002 0.039999999 0.039999999
0.0043453737 0.072418109 0.045170706 -0.60000002 0.039999999 0.039999999
0.0036278407 0.071439363 0.045164142 -0.60000002 0.039999999 0.039999999
0.0029678189 0.0704659 0.045158084 -0.60000002 0.039999999 0.039999999
0.0024332609 0.069500789 0.045153111 -0.60000002 0.039999999 0.039999999
0.0019231635 0.068538643 0.045148365 -0.60000002 0.039999999 0.039999999
0.0015239802 0.067583315 0.045144577 -0.60000002 0.039999999 0.039999999
0.001144244 0.066630222 0.04514097 -0.60000002 0.039999999 0.039999999
0.0008515162 0.065682158 0.045138121 -0.60000002 0.039999999 0.039999999
0.00058891549 0.064736366 0.045135539 -0.60000002 0.039999999 0.039999999
0.00038470462 0.063793831 0.045133471 -0.60000002 0.039999999 0.039999999
0.00023061718 0.062853955 0.045131844 -0.60000002 0.039999999 0.039999999
0.00010386347 0.061915662 0.045130461 -0.60000002 0.039999999 0.039999999
5.3162559e-05 0.060980532 0.045129742 -0.60000002 0.039999999 0.039999999
2.4757214e-06 0.06004566 0.045129038 -0.60000002 0.039999999 0.039999999
4.8031183e-05 0.05911411 0.045129169 -0.60000002 0.039999999 0.039999999
9.8532641e-05 0.05818266 0.045129351 -0.60000002 0.039999999 0.039999999
0.00021308598 0.057252981 0.045130096 -0.60000002 0.039999999 0.039999999
0.00036537746 0.056324054 0.045131173 -0.60000002 0.039999999 0.039999999
0.00055226719 0.055395622 0.045132563 -0.60000002 0.039999999 0.039999999
0.00080971862 0.054468382 0.045134563 -0.60000002 0.039999999 0.039999999
0.0010761796 0.053540614 0.045136653 -0.60000002 0.039999999 0.039999999
0.0014452708 0.052614234 0.045139633 -0.60000002 0.039999999 0.039999999
0.0018147916 0.051686779 0.045142632 -0.60000002 0.039999999 0.039999999
0.0022948883 0.050760206 0.045146585 -0.60000002 0.039999999 0.039999999
0.0027867893 0.049832385 0.045150653 -0.60000002 0.039999999 0.039999999
0.0033944994 0.048904795 0.045155719 -0.60000002 0.039999999 0.039999999
0.0040244753 0.047975648 0.04516099 -0.60000002 0.039999999 0.039999999
0.0048003192 0.047046285 0.045167521 -0.60000002 0.039999999 0.039999999
0.0056184176 0.046114974 0.045174424 -0.60000002 0.039999999 0.039999999
0.0066027776 0.045182567 0.045182757 -0.60000002 0.039999999 0.039999999
0.0077214665 0.044248071 0.045192253 -0.60000002 0.039999999 0.039999999
0.0090009933 0.043310989 0.045203134 -0.60000002 0.039999999 0.039999999
0.010563242 0.042371046 0.045216445 -0.60000002 0.039999999 0.039999999
0.012582443 0.041427329 0.045233671 -0.60000002 0.039999999 0.039999999
0.015788615 0.040478267 0.045261052 -0.60000002 0.039999999 0.039999999
0.018518664 0.079927348 0.044332542 -0.60000002 0.039999999 0.039999999
0.012634259 0.078591987 0.044290897 -0.60000002 0.039999999 0.039999999
0.010342016 0.077495851 0.044274431 -0.60000002 0.039999999 0.039999999
0.008628821 0.076441713 0.044262029 -0.60000002 0.039999999 0.039999999
0.0072771846 0.075414181 0.044252176 -0.60000002 0.039999999 0.039999999
0.0061670942 0.074404739 0.044244021 -0.60000002 0.039999999 0.039999999
0.005184467 0.073405966 0.044236775 -0.60000002 0.039999999 0.039999999
0.0043453737 0.072418109 0.044230543 -0.60000002 0.039999999 0.039999999
0.0036278407 0.071439363 0.044225171 -0.60000002 0.039999999 0.039999999
0.0029678189 0.0704659 0.044220217 -0.60000002 0.039999999 0.039999999
0.0024332609 0.069500789 0.044216149 -0.60000002 0.039999999 0.039999999
0.0019231635 0.068538643 0.044212263 -0.60000002 0.039999999 0.039999999
0.0015239802 0.067583315 0.044209167 -0.60000002 0.039999999 0.039999999
0.001144244 0.066630222 0.044206213 -0.60000002 0.039999999 0.039999999
0.0008515162 0.065682158 0.044203881 -0.60000002 0.039999999 0.039999999
0.00058891549 0.064736366 0.044201769 -0.60000002 0.039999999 0.039999999
0.00038470462 0.063793831 0.044200078 -0.60000002 0.039999999 0.039999999
0.00023061718 0.062853955 0.044198748 -0.60000002 0.039999999 0.039999999
0.00010386347 0.061915662 0.044197615 -0.60000002 0.039999999 0.039999999
5.3162559e-05 0.060980532 0.04419703 -0.60000002 0.039999999 0.039999999
2.4757214e-06 0.06004566 0.044196453 -0.60000002 0.039999999 0.039999999
4.8031183e-05 0.05911411 0.044196557 -0.60000002 0.039999999 0.039999999
9.8532641e-05 0.05818266 0.04419671 -0.60000002 0.039999999 0.039999999
0.00021308598 0.057252981 0.044197317 -0.60000002 0.039999999 0.039999999
0.00036537746 0.056324054 0.0441982 -0.60000002 0.039999999 0.039999999
0.00055226719 0.055395622 0.044199333 -0.60000002 0.039999999 0.039999999
0.00080971862 0.054468382 0.044200972 -0.60000002 0.039999999 0.039999999
0.0010761796 0.053540614 0.044202682 -0.60000002 0.039999999 0.039999999
0.0014452708 0.052614234 0.044205122 -0.60000002 0.039999999 0.039999999
0.0018147916 0.051686779 0.044207573 -0.60000002 0.039999999 0.039999999
0.0022948883 0.050760206 0.044210806 -0.60000002 0.039999999 0.039999999
0.0027867893 0.049832385 0.044214137 -0.60000002 0.039999999 0.039999999
0.0033944994 0.048904795 0.044218283 -0.60000002 0.039999999 0.039999999
0.0040244753 0.047975648 0.044222593 -0.60000002 0.039999999 0.039999999
0.0048003192 0.047046285 0.044227935 -0.60000002 0.039999999 0.039999999
0.0056184176 0.046114974 0.044233583 -0.60000002 0.039999999 0.039999999
0.0066027776 0.045182567 0.044240404 -0.60000002 0.039999999 0.039999999
0.0077214665 0.044248071 0.044248171 -0.60000002 0.039999999 0.039999999
0.0090009933 0.043310989 0.044257075 -0.60000002 0.039999999 0.039999999
0.010563242 0.042371046 0.044267964 -0.60000002 0.039999999 0.039999999
0.012582443 0.041427329 0.04428206 -0.60000002 0.039999999 0.039999999
0.015788615 0.040478267 0.04430446 -0.60000002 0.039999999 0.039999999
0.018518664 0.079927348 0.043369733 -0.60000002 0.039999999 0.039999999
0.012634259 0.078591987 0.043337345 -0.60000002 0.039999999 0.039999999
0.010342016 0.077495851 0.043324534 -0.60000002 0.039999999 0.039999999
0.008628821 0.076441713 0.043314893 -0.60000002 0.039999999 0.039999999
0.0072771846 0.075414181 0.043307226 -0.60000002 0.039999999 0.039999999
0.0061670942 0.074404739 0.043300886 -0.60000002 0.039999999 0.039999999
0.005184467 0.073405966 0.043295249 -0.60000002 0.039999999 0.039999999
0.0043453737 0.072418109 0.043290403 -0.60000002 0.039999999 0.039999999
0.0036278407 0.071439363 0.043286223 -0.60000002 0.039999999 0.039999999
0.0029678189 0.0704659 0.043282371 -0.60000002 0.039999999 0.039999999
0.0024332609 0.069500789 0.043279205 -0.60000002 0.039999999 0.039999999
0.0019231635 0.068538643 0.043276183 -0.60000002 0.039999999 0.039999999
0.0015239802 0.067583315 0.043273773 -0.60000002 0.039999999 0.039999999
0.001144244 0.066630222 0.043271478 -0.60000002 0.039999999 0.039999999
0.0008515162 0.065682158 0.043269664 -0.60000002 0.039999999 0.039999999
0.00058891549 0.064736366 0.043268021 -0.60000002 0.039999999 0.039999999
0.00038470462 0.063793831 0.043266706 -0.60000002 0.039999999 0.039999999
0.00023061718 0.062853955 0.043265671 -0.60000002 0.039999999 0.039999999
0.00010386347 0.061915662 0.043264791 -0.60000002 0.039999999 0.039999999
5.3162559e-05 0.060980532 0.043264337 -0.60000002 0.039999999 0.039999999
2.4757214e-06 0.06004566 0.043263886 -0.60000002 0.039999999 0.039999999
4.8031183e-05 0.05911411 0.043263968 -0.60000002 0.039999999 0.039999999
9.8532641e-05 0.05818266 0.043264087 -0.60000002 0.039999999 0.039999999
0.00021308598 0.057252981 0.04326456 -0.60000002 0.039999999 0.039999999
0.00036537746 0.056324054 0.043265246 -0.60000002 0.039999999 0.039999999
0.00055226719 0.055395622 0.043266129 -0.60000002 0.039999999 0.039999999
0.00080971862 0.054468382 0.043267403 -0.60000002 0.039999999 0.039999999
0.0010761796 0.053540614 0.043268733 -0.60000002 0.039999999 0.039999999
0.0014452708 0.052614234 0.043270629 -0.60000002 0.039999999 0.039999999
0.0018147916 0.051686779 0.043272536 -0.60000002 0.039999999 0.039999999
0.0022948883 0.050760206 0.043275051 -0.60000002 0.039999999 0.039999999
0.0027867893 0.049832385 0.04327764 -0.60000002 0.039999999 0.039999999
0.0033944994 0.048904795 0.043280866 -0.60000002 0.039999999 0.039999999
0.0040244753 0.047975648 0.043284219 -0.60000002 0.039999999 0.039999999
0.0048003192 0.047046285 0.043288372 -0.60000002 0.039999999 0.039999999
0.0056184176 0.046114974 0.043292765 -0.60000002 0.039999999 0.039999999
0.0066027776 0.045182567 0.043298069 -0.60000002 0.039999999 0.039999999
0.0077214665 0.044248071 0.043304112 -0.60000002 0.039999999 0.039999999
0.0090009933 0.043310989 0.043311037 -0.60000002 0.039999999 0.039999999
0.010563242 0.042371046 0.043319508 -0.60000002 0.039999999 0.039999999
0.012582443 0.041427329 0.043330468 -0.60000002 0.039999999 0.039999999
0.015788615 0.040478267 0.043347891 -0.60000002 0.039999999 0.039999999
0.018518664 0.079927348 0.042406939 -0.60000002 0.039999999 0.039999999
0.012634259 0.078591987 0.042383805 -0.60000002 0.039999999 0.039999999
0.010342016 0.077495851 0.042374656 -0.60000002 0.039999999 0.039999999
0.008628821 0.076441713 0.042367768 -0.60000002 0.039999999 0.039999999
0.0072771846 0.075414181 0.042362291 -0.60000002 0.039999999 0.039999999
0.0061670942 0.074404739 0.042357765 -0.60000002 0.039999999 0.039999999
0.005184467 0.073405966 0.042353738 -0.60000002 0.039999999 0.039999999
0.0043453737 0.072418109 0.042350274 -0.60000002 0.039999999 0.039999999
0.0036278407 0.071439363 0.042347293 -0.60000002 0.039999999 0.039999999
0.0029678189 0.0704659 0.042344537 -0.60000002 0.039999999 0.039999999
0.0024332609 0.069500789 0.042342279 -0.60000002 0.039999999 0.039999999
0.0019231635 0.068538643 0.042340122 -0.60000002 0.039999999 0.039999999
0.0015239802 0.067583315 0.042338397 -0.60000002 0.039999999 0.039999999
0.001144244 0.066630222 0.042336758 -0.60000002 0.039999999 0.039999999
0.0008515162 0.065682158 0.042335462 -0.60000002 0.039999999 0.039999999
0.00058891549 0.064736366 0.042334292 -0.60000002 0.039999999 0.039999999
0.00038470462 0.063793831 0.04233335 -0.60000002 0.039999999 0.039999999
0.00023061718 0.062853955 0.042332612 -0.60000002 0.039999999 0.039999999
0.00010386347 0.061915662 0.042331982 -0.60000002 0.039999999 0.039999999
5.3162559e-05 0.060980532 0.042331658 -0.60000002 0.039999999 0.039999999
2.4757214e-06 0.06004566 0.042331334 -0.60000002 0.039999999 0.039999999
4.8031183e-05 0.05911411 0.042331394 -0.60000002 0.039999999 0.039999999
9.8532641e-05 0.05818266 0.042331479 -0.60000002 0.039999999 0.039999999
0.00021308598 0.057252981 0.042331815 -0.60000002 0.039999999 0.039999999
0.00036537746 0.056324054 0.042332307 -0.60000002 0.039999999 0.039999999
0.00055226719 0.055395622 0.042332936 -0.60000002 0.039999999 0.039999999
0.00080971862 0.054468382 0.042333849 -0.60000002 0.039999999 0.039999999
0.0010761796 0.053540614 0.042334799 -0.60000002 0.039999999 0.039999999
0.0014452708 0.052614234 0.042336151 -0.60000002 0.039999999 0.039999999
0.0018147916 0.051686779 0.042337514 -0.60000002 0.039999999 0.039999999
0.0022948883 0.050760206 0.04233931 -0.60000002 0.039999999 0.039999999
0.0027867893 0.049832385 0.042341162 -0.60000002 0.039999999 0.039999999
0.0033944994 0.048904795 0.042343464 -0.60000002 0.039999999 0.039999999
0.0040244753 0.047975648 0.042345859 -0.60000002 0.039999999 0.039999999
0.0048003192 0.047046285 0.042348828 -0.60000002 0.039999999 0.039999999
0.0056184176 0.046114974 0.042351965 -0.60000002 0.039999999 0.039999999
0.0066027776 0.045182567 0.042355753 -0.60000002 0.039999999 0.039999999
0.0077214665 0.044248071 0.042360071 -0.60000002 0.039999999 0.039999999
0.0090009933 0.043310989 0.042365015 -0.60000002 0.039999999 0.039999999
0.010563242 0.042371046 0.042371064 -0.60000002 0.039999999 0.039999999
0.012582443 0.041427329 0.042378895 -0.60000002 0.039999999 0.039999999
0.015788615 0.040478267 0.042391341 -0.60000002 0.039999999 0.039999999
0.018518664 0.079927348 0.04144416 -0.60000002 0.039999999 0.039999999
0.012634259 0.078591987 0.04143028 -0.60000002 0.039999999 0.039999999
0.010342016 0.077495851 0.041424789 -0.60000002 0.039999999 0.039999999
0.008628821 0.076441713 0.041420657 -0.60000002 0.039999999 0.039999999
0.0072771846 0.075414181 0.041417371 -0.60000002 0.039999999 0.039999999
0.0061670942 0.074404739 0.041414652 -0.60000002 0.039999999 0.039999999
0.005184467 0.073405966 0.041412238 -0.60000002 0.039999999 0.039999999
0.0043453737 0.072418109 0.041410159 -0.60000002 0.039999999 0.039999999
0.0036278407 0.071439363 0.041408371 -0.60000002 0.039999999 0.039999999
0.0029678189 0.0704659 0.041406717 -0.60000002 0.039999999 0.039999999
0.0024332609 0.069500789 0.041405361 -0.60000002 0.039999999 0.039999999
0.0019231635 0.068538643 0.041404068 -0.60000002 0.039999999 0.039999999
0.0015239802 0.067583315 0.041403037 -0.60000002 0.039999999 0.039999999
0.001144244 0.066630222 0.041402049 -0.60000002 0.039999999 0.039999999
0.0008515162 0.065682158 0.041401275 -0.60000002 0.039999999 0.039999999
0.00058891549 0.064736366 0.04140057 -0.60000002 0.039999999 0.039999999
0.00038470462 0.063793831 0.041400004 -0.60000002 0.039999999 0.039999999
0.00023061718 0.062853955 0.041399561 -0.60000002 0.039999999 0.039999999
0.00010386347 0.061915662 0.041399185 -0.60000002 0.039999999 0.039999999
5.3162559e-05 0.060980532 0.041398991 -0.60000002 0.039999999 0.039999999
2.4757214e-06 0.06004566 0.041398797 -0.60000002 0.039999999 0.039999999
4.8031183e-05 0.05911411 0.041398831 -0.60000002 0.039999999 0.039999999
9.8532641e-05 0.05818266 0.041398883 -0.60000002 0.039999999 0.039999999
0.00021308598 0.057252981 0.041399084 -0.60000002 0.039999999 0.039999999
0.00036537746 0.056324054 0.041399378 -0.60000002 0.039999999 0.039999999
0.00055226719 0.055395622 0.041399758 -0.60000002 0.039999999 0.039999999
0.00080971862 0.054468382 0.041400302 -0.60000002 0.039999999 0.039999999
0.0010761796 0.053540614 0.041400876 -0.60000002 0.039999999 0.039999999
0.0014452708 0.052614234 0.041401688 -0.60000002 0.039999999 0.039999999
0.0018147916 0.051686779 0.041402504 -0.60000002 0.039999999 0.039999999
0.0022948883 0.050760206 0.041403584 -0.60000002 0.039999999 0.039999999
0.0027867893 0.049832385 0.041404691 -0.60000002 0.039999999 0.039999999
0.0033944994 0.048904795 0.041406073 -0.60000002 0.039999999 0.039999999
0.0040244753 0.047975648 0.041407511 -0.60000002 0.039999999 0.039999999
0.0048003192 0.047046285 0.041409291 -0.60000002 0.039999999 0.039999999
0.0056184176 0.046114974 0.041411173 -0.60000002 0.039999999 0.039999999
0.0066027776 0.045182567 0.041413449 -0.60000002 0.039999999 0.039999999
0.0077214665 0.044248071 0.041416038 -0.60000002 0.039999999 0.039999999
0.0090009933 0.043310989 0.041419003 -0.60000002 0.039999999 0.039999999
0.010563242 0.042371046 0.041422635 -0.60000002 0.039999999 0.039999999
0.012582443 0.041427329 0.041427333 -0.60000002 0.039999999 0.039999999
0.015788615 0.040478267 0.041434798 -0.60000002 0.039999999 0.039999999
0.018518664 0.079927348 0.040481385 -0.60000002 0.039999999 0.039999999
0.012634259 0.078591987 0.040476758 -0.60000002 0.039999999 0.039999999
0.010342016 0.077495851 0.040474929 -0.60000002 0.039999999 0.039999999
0.008628821 0.076441713 0.040473551 -0.60000002 0.039999999 0.039999999
0.0072771846 0.075414181 0.040472455 -0.60000002 0.039999999 0.039999999
0.0061670942 0.074404739 0.04047155 -0.60000002 0.039999999 0.039999999
0.005184467 0.073405966 0.040470745 -0.60000002 0.039999999 0.039999999
0.0043453737 0.072418109 0.040470053 -0.60000002 0.039999999 0.039999999
0.0036278407 0.071439363 0.040469456 -0.60000002 0.039999999 0.039999999
0.0029678189 0.0704659 0.040468905 -0.60000002 0.039999999 0.039999999
0.0024332609 0.069500789 0.040468454 -0.60000002 0.039999999 0.039999999
0.0019231635 0.068538643 0.040468022 -0.60000002 0.039999999 0.039999999
0.0015239802 0.067583315 0.040467676 -0.60000002 0.039999999 0.039999999
0.001144244 0.066630222 0.040467348 -0.60000002 0.039999999 0.039999999
0.0008515162 0.065682158 0.040467091 -0.60000002 0.039999999 0.039999999
0.00058891549 0.064736366 0.040466856 -0.60000002 0.039999999 0.039999999
0.00038470462 0.063793831 0.040466666 -0.60000002 0.039999999 0.039999999
0.00023061718 0.062853955 0.040466521 -0.60000002 0.039999999 0.039999999
0.00010386347 0.061915662 0.040466394 -0.60000002 0.039999999 0.039999999
5.3162559e-05 0.060980532 0.040466327 -0.60000002 0.039999999 0.039999999
2.4757214e-06 0.06004566 0.040466264 -0.60000002 0.039999999 0.039999999
4.8031183e-05 0.05911411 0.040466275 -0.60000002 0.039999999 0.039999999
9.8532641e-05 0.05818266 0.040466294 -0.60000002 0.039999999 0.039999999
0.00021308598 0.057252981 0.040466361 -0.60000002 0.039999999 0.039999999
0.00036537746 0.056324054 0.040466458 -0.60000002 0.039999999 0.039999999
0.00055226719 0.055395622 0.040466584 -0.60000002 0.039999999 0.039999999
0.00080971862 0.054468382 0.040466767 -0.60000002 0.039999999 0.039999999
0.0010761796 0.053540614 0.040466957 -0.60000002 0.039999999 0.039999999
0.0014452708 0.052614234 0.040467229 -0.60000002 0.039999999 0.039999999
0.0018147916 0.051686779 0.040467501 -0.60000002 0.039999999 0.039999999
0.0022948883 0.050760206 0.040467858 -0.60000002 0.039999999 0.039999999
0.0027867893 0.049832385 0.040468231 -0.60000002 0.039999999 0.039999999
0.0033944994 0.048904795 0.040468689 -0.60000002 0.039999999 0.039999999
0.0040244753 0.047975648 0.04046917 -0.60000002 0.039999999 0.039999999
0.0048003192 0.047046285 0.040469762 -0.60000002 0.039999999 0.039999999
0.0056184176 0.046114974 0.040470392 -0.60000002 0.039999999 0.039999999
0.0066027776 0.045182567 0.040471148 -0.60000002 0.039999999 0.039999999
0.0077214665 0.044248071 0.040472012 -0.60000002 0.039999999 0.039999999
0.0090009933 0.043310989 0.040472999 -0.60000002 0.039999999 0.039999999
0.010563242 0.042371046 0.04047421 -0.60000002 0.039999999 0.039999999
0.012582443 0.041427329 0.040475778 -0.60000002 0.039999999 0.039999999
0.015788615 0.040478267 0.040478267 -0.60000002 0.039999999 0.039999999
0 0.079667889 0.039532978 -0.60000002 0.039999999 0.039999999
0 0.078731909 0.039533027 -0.60000002 0.039999999 0.039999999
0 0.077796109 0.039533075 -0.60000002 0.039999999 0.039999999
0 0.076860495 0.03953312 -0.60000002 0.039999999 0.039999999
0 0.07592506 0.039533161 -0.60000002 0.039999999 0.039999999
0 0.074989803 0.039533205 -0.60000002 0.039999999 0.039999999
0 0.074054711 0.039533246 -0.60000002 0.039999999 0.039999999
0 0.073119782 0.039533287 -0.60000002 0.039999999 0.039999999
0 0.072185017 0.039533328 -0.60000002 0.039999999 0.039999999
0 0.071250409 0.039533366 -0.60000002 0.039999999 0.039999999
0 0.07031595 0.039533403 -0.60000002 0.039999999 0.039999999
0 0.069381632 0.03953344 -0.60000002 0.039999999 0.039999999
0 0.068447463 0.039533474 -0.60000002 0.039999999 0.039999999
0 0.067513429 0.039533507 -0.60000002 0.039999999 0.039999999
0 0.066579536 0.039533541 -0.60000002 0.039999999 0.039999999
0 0.065645762 0.03953357 -0.60000002 0.039999999 0.039999999
0 0.064712115 0.0395336 -0.60000002 0.039999999 0.039999999
0 0.063778587 0.03953363 -0.60000002 0.039999999 0.039999999
0 0.06284517 0.03953366 -0.60000002 0.039999999 0.039999999
0 0.06191187 0.039533686 -0.60000002 0.039999999 0.039999999
0 0.060978673 0.039533712 -0.60000002 0.039999999 0.039999999
0 0.060045578 0.039533738 -0.60000002 0.039999999 0.039999999
0 0.059112579 0.03953376 -0.60000002 0.039999999 0.039999999
0 0.058179673 0.039533783 -0.60000002 0.039999999 0.039999999
0 0.057246856 0.039533805 -0.60000002 0.039999999 0.039999999
0 0.056314122 0.039533824 -0.60000002 0.039999999 0.039999999
0 0.055381466 0.039533842 -0.60000002 0.039999999 0.039999999
0 0.054448884 0.039533861 -0.60000002 0.039999999 0.039999999
0 0.053516369 0.03953388 -0.60000002 0.039999999 0.039999999
0 0.052583922 0.039533895 -0.60000002 0.039999999 0.039999999
0 0.051651537 0.039533909 -0.60000002 0.039999999 0.039999999
0 0.050719205 0.039533924 -0.60000002 0.039999999 0.039999999
0 0.049786929 0.039533935 -0.60000002 0.039999999 0.039999999
0 0.048854697 0.039533947 -0.60000002 0.039999999 0.039999999
0 0.047922511 0.039533958 -0.60000002 0.039999999 0.039999999
0 0.046990361 0.039533965 -0.60000002 0.039999999 0.039999999
0 0.046058245 0.039533973 -0.60000002 0.039999999 0.039999999
0 0.045126155 0.03953398 -0.60000002 0.039999999 0.039999999
0 0.044194095 0.039533984 -0.60000002 0.039999999 0.039999999
0 0.043262053 0.039533991 -0.60000002 0.039999999 0.039999999
0 0.042330027 0.039533995 -0.60000002 0.039999999 0.039999999
0 0.041398011 0.039533995 -0.60000002 0.039999999 0.039999999
0 0.040466003 0.039533995 -0.60000002 0.039999999 0.039999999
0 0.039533999 0.039533995 -0.60000002 0.039999999 0.039999999
0 0.038601987 0.039533995 -0.60000002 0.039999999 0.039999999
0 0.037669975 0.039533995 -0.60000002 0.039999999 0.039999999
0 0.036737949 0.039533991 -0.60000002 0.039999999 0.039999999
0 0.035805907 0.039533984 -0.60000002 0.039999999 0.039999999
0 0.034873843 0.03953398 -0.60000002 0.039999999 0.039999999
0 0.033941757 0.039533973 -0.60000002 0.039999999 0.039999999
0 0.033009641 0.039533965 -0.60000002 0.039999999 0.039999999
0 0.032077491 0.039533958 -0.60000002 0.039999999 0.039999999
0 0.031145303 0.039533947 -0.60000002 0.039999999 0.039999999
0 0.030213071 0.039533935 -0.60000002 0.039999999 0.039999999
0 0.029280793 0.039533924 -0.60000002 0.039999999 0.039999999
0 0.028348463 0.039533909 -0.60000002 0.039999999 0.039999999
0 0.027416077 0.039533895 -0.60000002 0.039999999 0.039999999
0 0.026483631 0.03953388 -0.60000002 0.039999999 0.039999999
0 0.025551118 0.039533861 -0.60000002 0.039999999 0.039999999
0 0.024618536 0.039533842 -0.60000002 0.039999999 0.039999999
0 0.02368588 0.039533824 -0.60000002 0.039999999 0.039999999
0 0.022753144 0.039533805 -0.60000002 0.039999999 0.039999999
0 0.021820325 0.039533783 -0.60000002 0.039999999 0.039999999
0 0.02088742 0.03953376 -0.60000002 0.039999999 0.039999999
0 0.019954422 0.039533738 -0.60000002 0.039999999 0.039999999
0 0.019021327 0.039533712 -0.60000002 0.039999999 0.039999999
0 0.01808813 0.039533686 -0.60000002 0.039999999 0.039999999
0 0.017154828 0.03953366 -0.60000002 0.039999999 0.039999999
0 0.016221413 0.03953363 -0.60000002 0.039999999 0.039999999
0 0.015287886 0.0395336 -0.60000002 0.039999999 0.039999999
0 0.014354239 0.03953357 -0.60000002 0.039999999 0.039999999
0 0.013420468 0.039533541 -0.60000002 0.039999999 0.039999999
0 0.012486568 0.039533507 -0.60000002 0.039999999 0.039999999
0 0.011552535 0.039533474 -0.60000002 0.039999999 0.039999999
0 0.010618364 0.03953344 -0.60000002 0.039999999 0.039999999
0 0.0096840523 0.039533403 -0.60000002 0.039999999 0.039999999
0 0.008749593 0.039533366 -0.60000002 0.039999999 0.039999999
0 0.007814982 0.039533328 -0.60000002 0.039999999 0.039999999
0 0.0068802163 0.039533287 -0.60000002 0.039999999 0.039999999
0 0.0059452895 0.039533246 -0.60000002 0.039999999 0.039999999
0 0.0050101979 0.039533205 -0.60000002 0.039999999 0.039999999
0 0.0040749372 0.039533161 -0.60000002 0.039999999 0.039999999
0 0.0031395024 0.03953312 -0.60000002 0.039999999 0.039999999
0 0.002203889 0.039533075 -0.60000002 0.039999999 0.039999999
0 0.0012680924 0.039533027 -0.60000002 0.039999999 0.039999999
0 0.00033210829 0.039532978 -0.60000002 0.039999999 0.039999999
0 0.079667889 0.038598936 -0.60000002 0.039999999 0.039999999
0 0.078731909 0.038599078 -0.60000002 0.039999999 0.039999999
0 0.077796109 0.038599219 -0.60000002 0.039999999 0.039999999
0 0.076860495 0.038599353 -0.60000002 0.039999999 0.039999999
0 0.07592506 0.038599484 -0.60000002 0.039999999 0.039999999
0 0.074989803 0.038599614 -0.60000002 0.039999999 0.039999999
0 0.074054711 0.038599737 -0.60000002 0.039999999 0.039999999
0 0.073119782 0.03859986 -0.60000002 0.039999999 0.039999999
0 0.072185017 0.038599979 -0.60000002 0.039999999 0.039999999
0 0.071250409 0.038600095 -0.60000002 0.039999999 0.039999999
0 0.07031595 0.038600206 -0.60000002 0.039999999 0.039999999
0 0.069381632 0.038600314 -0.60000002 0.039999999 0.039999999
0 0.068447463 0.038600419 -0.60000002 0.039999999 0.039999999
0 0.067513429 0.038600519 -0.60000002 0.039999999 0.039999999
0 0.066579536 0.038600616 -0.60000002 0.039999999 0.039999999
0 0.065645762 0.038600713 -0.60000002 0.039999999 0.039999999
0 0.064712115 0.038600802 -0.60000002 0.039999999 0.039999999
0 0.063778587 0.038600892 -0.60000002 0.039999999 0.039999999
0 0.06284517 0.038600978 -0.60000002 0.039999999 0.039999999
0 0.06191187 0.038601056 -0.60000002 0.039999999 0.039999999
0 0.060978673 0.038601134 -0.60000002 0.039999999 0.039999999
0 0.060045578 0.038601208 -0.60000002 0.039999999 0.039999999
0 0.059112579 0.038601279 -0.60000002 0.039999999 0.039999999
0 0.058179673 0.038601346 -0.60000002 0.039999999 0.039999999
0 0.057246856 0.03860141 -0.60000002 0.039999999 0.039999999
0 0.056314122 0.038601473 -0.60000002 0.039999999 0.039999999
0 0.055381466 0.038601529 -0.60000002 0.039999999 0.039999999
0 0.054448884 0.038601585 -0.60000002 0.039999999 0.039999999
0 0.053516369 0.038601633 -0.60000002 0.039999999 0.039999999
0 0.052583922 0.038601682 -0.60000002 0.039999999 0.039999999
0 0.051651537 0.038601726 -0.60000002 0.039999999 0.039999999
0 0.050719205 0.038601767 -0.60000002 0.039999999 0.039999999
0 0.049786929 0.038601805 -0.60000002 0.039999999 0.039999999
0 0.048854697 0.038601838 -0.60000002 0.039999999 0.039999999
0 0.047922511 0.038601868 -0.60000002 0.039999999 0.039999999
0 0.046990361 0.038601894 -0.60000002 0.039999999 0.039999999
0 0.046058245 0.038601916 -0.60000002 0.039999999 0.039999999
0 0.045126155 0.038601939 -0.60000002 0.039999999 0.039999999
0 0.044194095 0.038601954 -0.60000002 0.039999999 0.039999999
0 0.043262053 0.038601968 -0.60000002 0.039999999 0.039999999
0 0.042330027 0.03860198 -0.60000002 0.039999999 0.039999999
0 0.041398011 0.038601983 -0.60000002 0.039999999 0.039999999
0 0.040466003 0.038601987 -0.60000002 0.039999999 0.039999999
0 0.039533999 0.038601987 -0.60000002 0.039999999 0.039999999
0 0.038601987 0.038601983 -0.60000002 0.039999999 0.039999999
0 0.037669975 0.03860198 -0.60000002 0.039999999 0.039999999
0 0.036737949 0.038601968 -0.60000002 0.039999999 0.039999999
0 0.035805907 0.038601954 -0.60000002 0.039999999 0.039999999
0 0.034873843 0.038601939 -0.60000002 0.039999999 0.039999999
0 0.033941757 0.038601916 -0.60000002 0.039999999 0.039999999
0 0.033009641 0.038601894 -0.60000002 0.039999999 0.039999999
0 0.032077491 0.038601868 -0.60000002 0.039999999 0.039999999
0 0.031145303 0.038601838 -0.60000002 0.039999999 0.039999999
0 0.030213071 0.038601805 -0.60000002 0.039999999 0.039999999
0 0.029280793 0.038601767 -0.60000002 0.039999999 0.039999999
0 0.028348463 0.038601726 -0.60000002 0.039999999 0.039999999
0 0.027416077 0.038601682 -0.60000002 0.039999999 0.039999999
0 0.026483631 0.038601633 -0.60000002 0.039999999 0.039999999
0 0.025551118 0.038601585 -0.60000002 0.039999999 0.039999999
0 0.024618536 0.038601529 -0.60000002 0.039999999 0.039999999
0 0.02368588 0.038601473 -0.60000002 0.039999999 0.039999999
0 0.022753144 0.03860141 -0.60000002 0.039999999 0.039999999
0 0.021820325 0.038601346 -0.60000002 0.039999999 0.039999999
0 0.02088742 0.038601279 -0.60000002 0.039999999 0.039999999
0 0.019954422 0.038601208 -0.60000002 0.039999999 0.039999999
0 0.019021327 0.038601134 -0.60000002 0.039999999 0.039999999
0 0.01808813 0.038601056 -0.60000002 0.039999999 0.039999999
0 0.017154828 0.038600978 -0.60000002 0.039999999 0.039999999
0 0.016221413 0.038600892 -0.60000002 0.039999999 0.039999999
0 0.015287886 0.038600802 -0.60000002 0.039999999 0.039999999
0 0.014354239 0.038600713 -0.60000002 0.039999999 0.039999999
0 0.013420468 0.038600616 -0.60000002 0.039999999 0.039999999
0 0.012486568 0.038600519 -0.60000002 0.039999999 0.039999999
0 0.011552535 0.038600419 -0.60000002 0.039999999 0.039999999
0 0.010618364 0.038600314 -0.60000002 0.039999999 0.039999999
0 0.0096840523 0.038600206 -0.60000002 0.039999999 0.039999999
0 0.008749593 0.038600095 -0.60000002 0.039999999 0.039999999
0 0.007814982 0.038599979 -0.60000002 0.039999999 0.039999999
0 0.0068802163 0.03859986 -0.60000002 0.039999999 0.039999999
0 0.0059452895 0.038599737 -0.60000002 0.039999999 0.039999999
0 0.0050101979 0.038599614 -0.60000002 0.039999999 0.039999999
0 0.0040749372 0.038599484 -0.60000002 0.039999999 0.039999999
0 0.0031395024 0.038599353 -0.60000002 0.039999999 0.039999999
0 0.002203889 0.038599219 -0.60000002 0.039999999 0.039999999
0 0.0012680924 0.038599078 -0.60000002 0.039999999 0.039999999
0 0.00033210829 0.038598936 -0.60000002 0.039999999 0.039999999
0 0.079667889 0.037664887 -0.60000002 0.039999999 0.039999999
0 0.078731909 0.037665125 -0.60000002 0.039999999 0.039999999
0 0.077796109 0.037665356 -0.60000002 0.039999999 0.039999999
0 0.076860495 0.037665579 -0.60000002 0.039999999 0.039999999
0 0.07592506 0.037665799 -0.60000002 0.039999999 0.039999999
0 0.074989803 0.037666015 -0.60000002 0.039999999 0.039999999
0 0.074054711 0.037666224 -0.60000002 0.039999999 0.039999999
0 0.073119782 0.037666425 -0.60000002 0.039999999 0.039999999
0 0.072185017 0.037666623 -0.60000002 0.039999999 0.039999999
0 0.071250409 0.037666816 -0.60000002 0.039999999 0.039999999
0 0.07031595 0.037667003 -0.60000002 0.039999999 0.039999999
0 0.069381632 0.037667181 -0.60000002 0.039999999 0.039999999
0 0.068447463 0.037667356 -0.60000002 0.039999999 0.039999999
0 0.067513429 0.037667524 -0.60000002 0.039999999 0.039999999
0 0.066579536 0.037667688 -0.60000002 0.039999999 0.039999999
0 0.065645762 0.037667844 -0.60000002 0.039999999 0.039999999
0 0.064712115 0.037667997 -0.60000002 0.039999999 0.039999999
0 0.063778587 0.037668146 -0.60000002 0.039999999 0.039999999
0 0.06284517 0.037668284 -0.60000002 0.039999999 0.039999999
0 0.06191187 0.037668422 -0.60000002 0.039999999 0.039999999
0 0.060978673 0.037668549 -0.60000002 0.039999999 0.039999999
0 0.060045578 0.037668675 -0.60000002 0.039999999 0.039999999
0 0.059112579 0.037668791 -0.60000002 0.039999999 0.039999999
0 0.058179673 0.037668906 -0.60000002 0.039999999 0.039999999
0 0.057246856 0.03766901 -0.60000002 0.039999999 0.039999999
0 0.056314122 0.037669111 -0.60000002 0.039999999 0.039999999
0 0.055381466 0.037669208 -0.60000002 0.039999999 0.039999999
0 0.054448884 0.037669297 -0.60000002 0.039999999 0.039999999
0 0.053516369 0.037669383 -0.60000002 0.039999999 0.039999999
0 0.052583922 0.037669461 -0.60000002 0.039999999 0.039999999
0 0.051651537 0.037669536 -0.60000002 0.039999999 0.039999999
0 0.050719205 0.037669603 -0.60000002 0.039999999 0.039999999
0 0.049786929 0.037669662 -0.60000002 0.039999999 0.039999999
0 0.048854697 0.037669718 -0.60000002 0.039999999 0.039999999
0 0.047922511 0.03766977 -0.60000002 0.039999999 0.039999999
0 0.046990361 0.037669815 -0.60000002 0.039999999 0.039999999
0 0.046058245 0.037669856 -0.60000002 0.039999999 0.039999999
0 0.045126155 0.03766989 -0.60000002 0.039999999 0.039999999
0 0.044194095 0.037669916 -0.60000002 0.039999999 0.039999999
0 0.043262053 0.037669938 -0.60000002 0.039999999 0.039999999
0 0.042330027 0.037669957 -0.60000002 0.039999999 0.039999999
0 0.041398011 0.037669968 -0.60000002 0.039999999 0.039999999
0 0.040466003 0.037669972 -0.60000002 0.039999999 0.039999999
0 0.039533999 0.037669972 -0.60000002 0.039999999 0.039999999
0 0.038601987 0.037669968 -0.60000002 0.039999999 0.039999999
0 0.037669975 0.037669957 -0.60000002 0.039999999 0.039999999
0 0.036737949 0.037669938 -0.60000002 0.039999999 0.039999999
0 0.035805907 0.037669916 -0.60000002 0.039999999 0.039999999
0 0.034873843 0.03766989 -0.60000002 0.039999999 0.039999999
0 0.033941757 0.037669856 -0.60000002 0.039999999 0.039999999
0 0.033009641 0.037669815 -0.60000002 0.039999999 0.039999999
0 0.032077491 0.03766977 -0.60000002 0.039999999 0.039999999
0 0.031145303 0.037669718 -0.60000002 0.039999999 0.039999999
0 0.030213071 0.037669662 -0.60000002 0.039999999 0.039999999
0 0.029280793 0.037669603 -0.60000002 0.039999999 0.039999999
0 0.028348463 0.037669536 -0.60000002 0.039999999 0.039999999
0 0.027416077 0.037669461 -0.60000002 0.039999999 0.039999999
0 0.026483631 0.037669383 -0.60000002 0.039999999 0.039999999
0 0.025551118 0.037669297 -0.60000002 0.039999999 0.039999999
0 0.024618536 0.037669208 -0.60000002 0.039999999 0.039999999
0 0.02368588 0.037669111 -0.60000002 0.039999999 0.039999999
0 0.022753144 0.03766901 -0.60000002 0.039999999 0.039999999
0 0.021820325 0.037668906 -0.60000002 0.039999999 0.039999999
0 0.02088742 0.037668791 -0.60000002 0.039999999 0.039999999
0 0.019954422 0.037668675 -0.60000002 0.039999999 0.039999999
0 0.019021327 0.037668549 -0.60000002 0.039999999 0.039999999
0 0.01808813 0.037668422 -0.60000002 0.039999999 0.039999999
0 0.017154828 0.037668284 -0.60000002 0.039999999 0.039999999
0 0.016221413 0.037668146 -0.60000002 0.039999999 0.039999999
0 0.015287886 0.037667997 -0.60000002 0.039999999 0.039999999
0 0.014354239 0.037667844 -0.60000002 0.039999999 0.039999999
0 0.013420468 0.037667688 -0.60000002 0.039999999 0.039999999
0 0.012486568 0.037667524 -0.60000002 0.039999999 0.039999999
0 0.011552535 0.037667356 -0.60000002 0.039999999 0.039999999
0 0.010618364 0.037667181 -0.60000002 0.039999999 0.039999999
0 0.0096840523 0.037667003 -0.60000002 0.039999999 0.039999999
0 0.008749593 0.037666816 -0.60000002 0.039999999 0.039999999
0 0.007814982 0.037666623 -0.60000002 0.039999999 0.039999999
0 0.0068802163 0.037666425 -0.60000002 0.039999999 0.039999999
0 0.0059452895 0.037666224 -0.60000002 0.039999999 0.039999999
0 0.0050101979 0.037666015 -0.60000002 0.039999999 0.039999999
0 0.0040749372 0.037665799 -0.60000002 0.039999999 0.039999999
0 0.0031395024 0.037665579 -0.60000002 0.039999999 0.039999999
0 0.002203889 0.037665356 -0.60000002 0.039999999 0.039999999
0 0.0012680924 0.037665125 -0.60000002 0.039999999 0.039999999
0 0.00033210829 0.037664887 -0.60000002 0.039999999 0.039999999
0 0.079667889 0.036730826 -0.60000002 0.039999999 0.039999999
0 0.078731909 0.036731157 -0.60000002 0.039999999 0.039999999
0 0.077796109 0.036731482 -0.60000002 0.039999999 0.039999999
0 0.076860495 0.036731798 -0.60000002 0.039999999 0.039999999
0 0.07592506 0.036732104 -0.60000002 0.039999999 0.039999999
0 0.074989803 0.036732405 -0.60000002 0.039999999 0.039999999
0 0.074054711 0.036732696 -0.60000002 0.039999999 0.039999999
0 0.073119782 0.036732983 -0.60000002 0.039999999 0.039999999
0 0.072185017 0.036733259 -0.60000002 0.039999999 0.039999999
0 0.071250409 0.036733527 -0.60000002 0.039999999 0.039999999
0 0.07031595 0.036733788 -0.60000002 0.039999999 0.039999999
0 0.069381632 0.036734037 -0.60000002 0.039999999 0.039999999
0 0.068447463 0.036734283 -0.60000002 0.039999999 0.039999999
0 0.067513429 0.036734521 -0.60000002 0.039999999 0.039999999
0 0.066579536 0.036734749 -0.60000002 0.039999999 0.039999999
0 0.065645762 0.036734968 -0.60000002 0.039999999 0.039999999
0 0.064712115 0.036735181 -0.60000002 0.039999999 0.039999999
0 0.063778587 0.036735386 -0.60000002 0.039999999 0.039999999
0 0.06284517 0.036735583 -0.60000002 0.039999999 0.039999999
0 0.06191187 0.036735773 -0.60000002 0.039999999 0.039999999
0 0.060978673 0.036735956 -0.60000002 0.039999999 0.039999999
0 0.060045578 0.036736127 -0.60000002 0.039999999 0.039999999
0 0.059112579 0.036736295 -0.60000002 0.039999999 0.039999999
0 0.058179673 0.036736451 -0.60000002 0.039999999 0.039999999
0 0.057246856 0.0367366 -0.60000002 0.039999999 0.039999999
0 0.056314122 0.036736742 -0.60000002 0.039999999 0.039999999
0 0.055381466 0.036736876 -0.60000002 0.039999999 0.039999999
0 0.054448884 0.036737002 -0.60000002 0.039999999 0.039999999
0 0.053516369 0.036737122 -0.60000002 0.039999999 0.039999999
0 0.052583922 0.03673723 -0.60000002 0.039999999 0.039999999
0 0.051651537 0.036737334 -0.60000002 0.039999999 0.039999999
0 0.050719205 0.036737427 -0.60000002 0.039999999 0.039999999
0 0.049786929 0.036737513 -0.60000002 0.039999999 0.039999999
0 0.048854697 0.036737591 -0.60000002 0.039999999 0.039999999
0 0.047922511 0.036737662 -0.60000002 0.039999999 0.039999999
0 0.046990361 0.036737725 -0.60000002 0.039999999 0.039999999
0 0.046058245 0.036737781 -0.60000002 0.039999999 0.039999999
0 0.045126155 0.036737829 -0.60000002 0.039999999 0.039999999
0 0.044194095 0.036737867 -0.60000002 0.039999999 0.039999999
0 0.043262053 0.0367379 -0.60000002 0.039999999 0.039999999
0 0.042330027 0.036737923 -0.60000002 0.039999999 0.039999999
0 0.041398011 0.036737937 -0.60000002 0.039999999 0.039999999
0 0.040466003 0.036737945 -0.60000002 0.039999999 0.039999999
0 0.039533999 0.036737945 -0.60000002 0.039999999 0.039999999
0 0.038601987 0.036737937 -0.60000002 0.039999999 0.039999999
0 0.037669975 0.036737923 -0.60000002 0.039999999 0.039999999
0 0.036737949 0.0367379 -0.60000002 0.039999999 0.039999999
0 0.035805907 0.036737867 -0.60000002 0.039999999 0.039999999
0 0.034873843 0.036737829 -0.60000002 0.039999999 0.039999999
0 0.033941757 0.036737781 -0.60000002 0.039999999 0.039999999
0 0.033009641 0.036737725 -0.60000002 0.039999999 0.039999999
0 0.032077491 0.036737662 -0.60000002 0.039999999 0.039999999
0 0.031145303 0.036737591 -0.60000002 0.039999999 0.039999999
0 0.030213071 0.036737513 -0.60000002 0.039999999 0.039999999
0 0.029280793 0.036737427 -0.60000002 0.039999999 0.039999999
0 0.028348463 0.036737334 -0.60000002 0.039999999 0.039999999
0 0.027416077 0.03673723 -0.60000002 0.039999999 0.039999999
0 0.026483631 0.036737122 -0.60000002 0.039999999 0.039999999
0 0.025551118 0.036737002 -0.60000002 0.039999999 0.039999999
0 0.024618536 0.036736876 -0.60000002 0.039999999 0.039999999
0 0.02368588 0.036736742 -0.60000002 0.039999999 0.039999999
0 0.022753144 0.0367366 -0.60000002 0.039999999 0.039999999
0 0.021820325 0.036736451 -0.60000002 0.039999999 0.039999999
0 0.02088742 0.036736295 -0.60000002 0.039999999 0.039999999
0 0.019954422 0.036736127 -0.60000002 0.039999999 0.039999999
0 0.019021327 0.036735956 -0.60000002 0.039999999 0.039999999
0 0.01808813 0.036735773 -0.60000002 0.039999999 0.039999999
0 0.017154828 0.036735583 -0.60000002 0.039999999 0.039999999
0 0.016221413 0.036735386 -0.60000002 0.039999999 0.039999999
0 0.015287886 0.036735181 -0.60000002 0.039999999 0.039999999
0 0.014354239 0.036734968 -0.60000002 0.039999999 0.039999999
0 0.013420468 0.036734749 -0.60000002 0.039999999 0.039999999
0 0.012486568 0.036734521 -0.60000002 0.039999999 0.039999999
0 0.011552535 0.036734283 -0.60000002 0.039999999 0.039999999
0 0.010618364 0.036734037 -0.60000002 0.039999999 0.039999999
0 0.0096840523 0.036733788 -0.60000002 0.039999999 0.039999999
0 0.008749593 0.036733527 -0.60000002 0.039999999 0.039999999
0 0.007814982 0.036733259 -0.60000002 0.039999999 0.039999999
0 0.0068802163 0.036732983 -0.60000002 0.039999999 0.039999999
0 0.0059452895 0.036732696 -0.60000002 0.039999999 0.039999999
0 0.0050101979 0.036732405 -0.60000002 0.039999999 0.039999999
0 0.0040749372 0.036732104 -0.60000002 0.039999999 0.039999999
0 0.0031395024 0.036731798 -0.60000002 0.039999999 0.039999999
0 0.002203889 0.036731482 -0.60000002 0.039999999 0.039999999
0 0.0012680924 0.036731157 -0.60000002 0.039999999 0.039999999
0 0.00033210829 0.036730826 -0.60000002 0.039999999 0.039999999
0 0.079667889 0.03579675 -0.60000002 0.039999999 0.039999999
0 0.078731909 0.035797175 -0.60000002 0.039999999 0.039999999
0 0.077796109 0.035797592 -0.60000002 0.039999999 0.039999999
0 0.076860495 0.035797998 -0.60000002 0.039999999 0.039999999
