# .PCD v0.7 - Point Cloud Data file format
VERSION 0.7
FIELDS x y z vp_x vp_y vp_z
SIZE 4 4 4 4 4 4
TYPE F F F F F F
COUNT 1 1 1 1 1 1
WIDTH 793
HEIGHT 1
VIEWPOINT 0 0 0 1 0 0 0
POINTS 793
DATA ascii
0.03893904 0.079999998 0.029419631 0 0.25019264 -0.4048202
0.038219146 0.079999998 0.029390225 0 0.25019264 -0.4048202
0.037499558 0.079999998 0.029361375 0 0.25019264 -0.4048202
0.036780264 0.079999998 0.029333077 0 0.25019264 -0.4048202
0.036061261 0.079999998 0.029305331 0 0.25019264 -0.4048202
0.036215477 0.075796388 0.039999999 0 0.25019264 -0.4048202
0.034624107 0.079999998 0.029251497 0 0.25019264 -0.4048202
0.033905942 0.079999998 0.029225409 0 0.25019264 -0.4048202
0.033188045 0.079999998 0.02919987 0 0.25019264 -0.4048202
0.032470409 0.079999998 0.029174881 0 0.25019264 -0.4048202
0.031753033 0.079999998 0.029150443 0 0.25019264 -0.4048202
0.031035904 0.079999998 0.029126555 0 0.25019264 -0.4048202
0.03031902 0.079999998 0.029103214 0 0.25019264 -0.4048202
0.029602377 0.079999998 0.029080424 0 0.25019264 -0.4048202
0.028885964 0.079999998 0.029058181 0 0.25019264 -0.4048202
0.028169781 0.079999998 0.029036487 0 0.25019264 -0.4048202
0.027453819 0.079999998 0.029015338 0 0.25019264 -0.4048202
0.026738074 0.079999998 0.028994737 0 0.25019264 -0.4048202
0.02602254 0.079999998 0.028974684 0 0.25019264 -0.4048202
0.02530721 0.079999998 0.028955176 0 0.25019264 -0.4048202
0.024592079 0.079999998 0.028936215 0 0.25019264 -0.4048202
0.023877142 0.079999998 0.028917799 0 0.25019264 -0.4048202
0.023162391 0.079999998 0.028899927 0 0.25019264 -0.4048202
0.022447824 0.079999998 0.0288826 0 0.25019264 -0.4048202
0.021733433 0.079999998 0.02886582 0 0.25019264 -0.4048202
0.021019213 0.079999998 0.028849583 0 0.25019264 -0.4048202
0.020305157 0.079999998 0.02883389 0 0.25019264 -0.4048202
0.019591261 0.079999998 0.028818741 0 0.25019264 -0.4048202
0.018877519 0.079999998 0.028804135 0 0.25019264 -0.4048202
0.018163927 0.079999998 0.028790072 0 0.25019264 -0.4048202
0.017450476 0.079999998 0.028776553 0 0.25019264 -0.4048202
0.016737161 0.079999998 0.028763575 0 0.25019264 -0.4048202
0.016023979 0.079999998 0.028751142 0 0.25019264 -0.4048202
0.015310922 0.079999998 0.028739249 0 0.25019264 -0.4048202
0.015987657 0.063798316 0.07 0 0.25019264 -0.4048202
0.013885163 0.079999998 0.028717091 0 0.25019264 -0.4048202
0.013172449 0.079999998 0.028706824 0 0.25019264 -0.4048202
0.012459839 0.079999998 0.0286971 0 0.25019264 -0.4048202
0.011747327 0.079999998 0.028687915 0 0.25019264 -0.4048202
0.011034906 0.079999998 0.028679272 0 0.25019264 -0.4048202
0.010322573 0.079999998 0.02867117 0 0.25019264 -0.4048202
0.0096103195 0.079999998 0.028663609 0 0.25019264 -0.4048202
0.0088981418 0.079999998 0.028656589 0 0.25019264 -0.4048202
0.0081860339 0.079999998 0.028650109 0 0.25019264 -0.4048202
0.0074739903 0.079999998 0.028644169 0 0.25019264 -0.4048202
0.0067620049 0.079999998 0.028638769 0 0.25019264 -0.4048202
0.0060500731 0.079999998 0.028633909 0 0.25019264 -0.4048202
0.0054782215 0.075535446 0.039999999 0 0.25019264 -0.4048202
0.0046263449 0.079999998 0.028625812 0 0.25019264 -0.4048202
0.0039145383 0.079999998 0.028622573 0 0.25019264 -0.4048202
0.0032027622 0.079999998 0.028619874 0 0.25019264 -0.4048202
0.0024910113 0.079999998 0.028617715 0 0.25019264 -0.4048202
0.0017792799 0.079999998 0.028616095 0 0.25019264 -0.4048202
0.0010675624 0.079999998 0.028615016 0 0.25019264 -0.4048202
0.00035585318 0.079999998 0.028614476 0 0.25019264 -0.4048202
0.039513335 0.079999998 0.027464926 0 0.25019264 -0.4048202
0.03879581 0.079999998 0.02743545 0 0.25019264 -0.4048202
0.038078591 0.079999998 0.027406517 0 0.25019264 -0.4048202
0.03736167 0.079999998 0.027378133 0 0.25019264 -0.4048202
0.036645047 0.079999998 0.02735029 0 0.25019264 -0.4048202
0.035928711 0.079999998 0.027322993 0 0.25019264 -0.4048202
0.035212658 0.079999998 0.027296238 0 0.25019264 -0.4048202
0.034496881 0.079999998 0.027270027 0 0.25019264 -0.4048202
0.034778688 0.074975483 0.039999999 0 0.25019264 -0.4048202
0.034044314 0.074965291 0.039999999 0 0.25019264 -0.4048202
0.032351155 0.079999998 0.027194645 0 0.25019264 -0.4048202
0.031636432 0.079999998 0.0271706 0 0.25019264 -0.4048202
0.030207718 0.079999998 0.027124133 0 0.25019264 -0.4048202
0.029493719 0.079999998 0.027101709 0 0.25019264 -0.4048202
0.028779954 0.079999998 0.027079824 0 0.25019264 -0.4048202
0.030857045 0.063077815 0.07 0 0.25019264 -0.4048202
0.027353091 0.079999998 0.027037671 0 0.25019264 -0.4048202
0.026639985 0.079999998 0.027017402 0 0.25019264 -0.4048202
0.025927087 0.079999998 0.026997671 0 0.25019264 -0.4048202
0.025214393 0.079999998 0.026978478 0 0.25019264 -0.4048202
0.024501896 0.079999998 0.026959822 0 0.25019264 -0.4048202
0.02378959 0.079999998 0.026941702 0 0.25019264 -0.4048202
0.023077471 0.079999998 0.026924118 0 0.25019264 -0.4048202
0.022365531 0.079999998 0.026907071 0 0.25019264 -0.4048202
0.021653768 0.079999998 0.026890559 0 0.25019264 -0.4048202
0.020942174 0.079999998 0.026874585 0 0.25019264 -0.4048202
0.020230742 0.079999998 0.026859144 0 0.25019264 -0.4048202
0.019519471 0.079999998 0.026844239 0 0.25019264 -0.4048202
0.01880835 0.079999998 0.026829869 0 0.25019264 -0.4048202
0.018097376 0.079999998 0.026816031 0 0.25019264 -0.4048202
0.019126609 0.062966943 0.07 0 0.25019264 -0.4048202
0.01667585 0.079999998 0.026789961 0 0.25019264 -0.4048202
0.015965285 0.079999998 0.026777728 0 0.25019264 -0.4048202
0.015254843 0.079999998 0.026766026 0 0.25019264 -0.4048202
0.014544521 0.079999998 0.026754858 0 0.25019264 -0.4048202
0.013834313 0.079999998 0.026744224 0 0.25019264 -0.4048202
0.013124213 0.079999998 0.026734123 0 0.25019264 -0.4048202
0.012878296 0.062929109 0.07 0 0.25019264 -0.4048202
0.010284781 0.079999998 0.026699042 0 0.25019264 -0.4048202
0.0095751369 0.079999998 0.026691603 0 0.25019264 -0.4048202
0.0088655679 0.079999998 0.026684696 0 0.25019264 -0.4048202
0.0081560686 0.079999998 0.02667832 0 0.25019264 -0.4048202
0.0074466323 0.079999998 0.026672475 0 0.25019264 -0.4048202
0.0067372541 0.079999998 0.026667163 0 0.25019264 -0.4048202
0.0062142583 0.074739151 0.039999999 0 0.25019264 -0.4048202
0.0053186496 0.079999998 0.026658133 0 0.25019264 -0.4048202
0.0046094125 0.079999998 0.026654415 0 0.25019264 -0.4048202
0.0039002113 0.079999998 0.026651228 0 0.25019264 -0.4048202
0.0031910406 0.079999998 0.026648572 0 0.25019264 -0.4048202
0.0024818946 0.079999998 0.026646448 0 0.25019264 -0.4048202
0.0017727681 0.079999998 0.026644854 0 0.25019264 -0.4048202
0.0010636554 0.079999998 0.026643792 0 0.25019264 -0.4048202
0.00035455087 0.079999998 0.026643261 0 0.25019264 -0.4048202
0.039368577 0.079999998 0.025495907 0 0.25019264 -0.4048202
0.038653709 0.079999998 0.025466906 0 0.25019264 -0.4048202
0.037939142 0.079999998 0.025438443 0 0.25019264 -0.4048202
0.037224874 0.079999998 0.025410516 0 0.25019264 -0.4048202
0.036510896 0.079999998 0.025383124 0 0.25019264 -0.4048202
0.037015785 0.074206434 0.039999999 0 0.25019264 -0.4048202
0.035083797 0.079999998 0.025329946 0 0.25019264 -0.4048202
0.034370661 0.079999998 0.025304157 0 0.25019264 -0.4048202
0.033657793 0.079999998 0.025278904 0 0.25019264 -0.4048202
0.03294519 0.079999998 0.025254183 0 0.25019264 -0.4048202
0.032232843 0.079999998 0.025229992 0 0.25019264 -0.4048202
0.031520747 0.079999998 0.025206337 0 0.25019264 -0.4048202
0.0308089 0.079999998 0.025183212 0 0.25019264 -0.4048202
0.033235908 0.062251922 0.07 0 0.25019264 -0.4048202
0.029385919 0.079999998 0.025138557 0 0.25019264 -0.4048202
0.028674776 0.079999998 0.025117027 0 0.25019264 -0.4048202
0.027963856 0.079999998 0.025096025 0 0.25019264 -0.4048202
0.027253157 0.079999998 0.025075555 0 0.25019264 -0.4048202
0.026542667 0.079999998 0.025055613 0 0.25019264 -0.4048202
0.025832385 0.079999998 0.025036201 0 0.25019264 -0.4048202
0.025122305 0.079999998 0.025017317 0 0.25019264 -0.4048202
0.02441242 0.079999998 0.024998961 0 0.25019264 -0.4048202
0.023702726 0.079999998 0.024981134 0 0.25019264 -0.4048202
0.022993216 0.079999998 0.024963835 0 0.25019264 -0.4048202
0.022283886 0.079999998 0.024947064 0 0.25019264 -0.4048202
0.021574728 0.079999998 0.024930818 0 0.25019264 -0.4048202
0.02086574 0.079999998 0.024915101 0 0.25019264 -0.4048202
0.020156913 0.079999998 0.024899909 0 0.25019264 -0.4048202
0.019448243 0.079999998 0.024885245 0 0.25019264 -0.4048202
0.018739725 0.079999998 0.024871105 0 0.25019264 -0.4048202
0.018031351 0.079999998 0.024857493 0 0.25019264 -0.4048202
0.017323118 0.079999998 0.024844406 0 0.25019264 -0.4048202
0.01661502 0.079999998 0.024831844 0 0.25019264 -0.4048202
0.015907051 0.079999998 0.024819806 0 0.25019264 -0.4048202
0.015199205 0.079999998 0.024808295 0 0.25019264 -0.4048202
0.014491478 0.079999998 0.024797307 0 0.25019264 -0.4048202
0.015234519 0.062088408 0.07 0 0.25019264 -0.4048202
0.013076356 0.079999998 0.024776906 0 0.25019264 -0.4048202
0.012368949 0.079999998 0.024767492 0 0.25019264 -0.4048202
0.011661639 0.079999998 0.024758602 0 0.25019264 -0.4048202
0.01095442 0.079999998 0.024750235 0 0.25019264 -0.4048202
0.010247285 0.079999998 0.024742391 0 0.25019264 -0.4048202
0.009540231 0.079999998 0.024735073 0 0.25019264 -0.4048202
0.0097642196 0.062062759 0.07 0 0.25019264 -0.4048202
0.008126338 0.079999998 0.024722002 0 0.25019264 -0.4048202
0.0074194889 0.079999998 0.024716252 0 0.25019264 -0.4048202
0.006712697 0.079999998 0.024711026 0 0.25019264 -0.4048202
0.0060059577 0.079999998 0.024706323 0 0.25019264 -0.4048202
0.0052992646 0.079999998 0.024702141 0 0.25019264 -0.4048202
0.0045926129 0.079999998 0.024698483 0 0.25019264 -0.4048202
0.0040244642 0.073935635 0.039999999 0 0.25019264 -0.4048202
0.0031794109 0.079999998 0.024692735 0 0.25019264 -0.4048202
0.0024728496 0.079999998 0.024690645 0 0.25019264 -0.4048202
0.0018292718 0.073933057 0.039999999 0 0.25019264 -0.4048202
0.00109756 0.073932633 0.039999999 0 0.25019264 -0.4048202
0.00035325874 0.079999998 0.02468751 0 0.25019264 -0.4048202
0.039937496 0.079999998 0.023571398 0 0.25019264 -0.4048202
0.039224956 0.079999998 0.023542339 0 0.25019264 -0.4048202
0.038512722 0.079999998 0.023513809 0 0.25019264 -0.4048202
0.037800785 0.079999998 0.023485808 0 0.25019264 -0.4048202
0.037089147 0.079999998 0.023458334 0 0.25019264 -0.4048202
0.037785217 0.073415421 0.039999999 0 0.25019264 -0.4048202
0.03566673 0.079999998 0.023404963 0 0.25019264 -0.4048202
0.036312789 0.073393822 0.039999999 0 0.25019264 -0.4048202
0.035576798 0.073383346 0.039999999 0 0.25019264 -0.4048202
0.033535175 0.079999998 0.023328852 0 0.25019264 -0.4048202
0.036405422 0.061437126 0.07 0 0.25019264 -0.4048202
0.032115452 0.079999998 0.023280734 0 0.25019264 -0.4048202
0.03140597 0.079999998 0.023257462 0 0.25019264 -0.4048202
0.030696731 0.079999998 0.023234712 0 0.25019264 -0.4048202
0.02998773 0.079999998 0.023212485 0 0.25019264 -0.4048202
0.029278962 0.079999998 0.023190781 0 0.25019264 -0.4048202
0.028570423 0.079999998 0.023169598 0 0.25019264 -0.4048202
0.027862104 0.079999998 0.023148937 0 0.25019264 -0.4048202
0.027154002 0.079999998 0.023128798 0 0.25019264 -0.4048202
0.026446112 0.079999998 0.023109179 0 0.25019264 -0.4048202
0.025738424 0.079999998 0.023090081 0 0.25019264 -0.4048202
0.025030939 0.079999998 0.023071503 0 0.25019264 -0.4048202
0.024323646 0.079999998 0.023053445 0 0.25019264 -0.4048202
0.023616543 0.079999998 0.023035906 0 0.25019264 -0.4048202
0.022909621 0.079999998 0.023018887 0 0.25019264 -0.4048202
0.022202879 0.079999998 0.023002386 0 0.25019264 -0.4048202
0.021496307 0.079999998 0.022986405 0 0.25019264 -0.4048202
0.020789903 0.079999998 0.022970941 0 0.25019264 -0.4048202
0.02008366 0.079999998 0.022955995 0 0.25019264 -0.4048202
0.018671634 0.079999998 0.022927659 0 0.25019264 -0.4048202
0.01994355 0.061264906 0.07 0 0.25019264 -0.4048202
0.017260186 0.079999998 0.02290139 0 0.25019264 -0.4048202
0.016554665 0.079999998 0.022889031 0 0.25019264 -0.4048202
0.015849272 0.079999998 0.022877188 0 0.25019264 -0.4048202
0.015144002 0.079999998 0.022865864 0 0.25019264 -0.4048202
0.014438849 0.079999998 0.022855053 0 0.25019264 -0.4048202
0.013733807 0.079999998 0.02284476 0 0.25019264 -0.4048202
0.013028872 0.079999998 0.022834983 0 0.25019264 -0.4048202
0.012324038 0.079999998 0.02282572 0 0.25019264 -0.4048202
0.011619299 0.079999998 0.022816973 0 0.25019264 -0.4048202
0.010914649 0.079999998 0.022808742 0 0.25019264 -0.4048202
0.010210084 0.079999998 0.022801027 0 0.25019264 -0.4048202
0.0095055969 0.079999998 0.022793826 0 0.25019264 -0.4048202
0.0088011846 0.079999998 0.022787139 0 0.25019264 -0.4048202
0.0080968393 0.079999998 0.022780968 0 0.25019264 -0.4048202
0.0073925573 0.079999998 0.022775311 0 0.25019264 -0.4048202
0.0066883322 0.079999998 0.022770168 0 0.25019264 -0.4048202
0.0059841583 0.079999998 0.02276554 0 0.25019264 -0.4048202
0.0052800309 0.079999998 0.022761427 0 0.25019264 -0.4048202
0.0045759445 0.079999998 0.022757828 0 0.25019264 -0.4048202
0.0040280572 0.073135667 0.039999999 0 0.25019264 -0.4048202
0.0031678719 0.079999998 0.022752173 0 0.25019264 -0.4048202
0.0024638751 0.079999998 0.022750117 0 0.25019264 -0.4048202
0.0017598971 0.079999998 0.022748575 0 0.25019264 -0.4048202
0.0010985399 0.073132686 0.039999999 0 0.25019264 -0.4048202
0.00035197672 0.079999998 0.022747032 0 0.25019264 -0.4048202
0.039792381 0.079999998 0.021632619 0 0.25019264 -0.4048202
0.039082456 0.079999998 0.021604033 0 0.25019264 -0.4048202
0.038372837 0.079999998 0.021575967 0 0.25019264 -0.4048202
0.037663512 0.079999998 0.02154842 0 0.25019264 -0.4048202
0.036954481 0.079999998 0.021521393 0 0.25019264 -0.4048202
0.036245737 0.079999998 0.021494882 0 0.25019264 -0.4048202
0.035537273 0.079999998 0.021468891 0 0.25019264 -0.4048202
0.034829088 0.079999998 0.021443415 0 0.25019264 -0.4048202
0.034121171 0.079999998 0.021418458 0 0.25019264 -0.4048202
0.032706123 0.079999998 0.021370091 0 0.25019264 -0.4048202
0.031998981 0.079999998 0.021346681 0 0.25019264 -0.4048202
0.034866422 0.060559776 0.07 0 0.25019264 -0.4048202
0.030585438 0.079999998 0.021301406 0 0.25019264 -0.4048202
0.029879022 0.079999998 0.02127954 0 0.25019264 -0.4048202
0.02917284 0.079999998 0.021258187 0 0.25019264 -0.4048202
0.031724941 0.060521305 0.07 0 0.25019264 -0.4048202
0.027761145 0.079999998 0.021217024 0 0.25019264 -0.4048202
0.027055621 0.079999998 0.021197211 0 0.25019264 -0.4048202
0.026350306 0.079999998 0.02117791 0 0.25019264 -0.4048202
0.025645196 0.079999998 0.021159122 0 0.25019264 -0.4048202
0.024940282 0.079999998 0.021140845 0 0.25019264 -0.4048202
0.024235563 0.079999998 0.021123081 0 0.25019264 -0.4048202
0.023531029 0.079999998 0.021105828 0 0.25019264 -0.4048202
0.022826677 0.079999998 0.021089084 0 0.25019264 -0.4048202
0.022122502 0.079999998 0.021072851 0 0.25019264 -0.4048202
0.021418497 0.079999998 0.021057129 0 0.25019264 -0.4048202
0.020714657 0.079999998 0.021041917 0 0.25019264 -0.4048202
0.020010976 0.079999998 0.021027215 0 0.25019264 -0.4048202
0.019307451 0.079999998 0.02101302 0 0.25019264 -0.4048202
0.018604074 0.079999998 0.020999337 0 0.25019264 -0.4048202
0.017900839 0.079999998 0.02098616 0 0.25019264 -0.4048202
0.017197743 0.079999998 0.020973494 0 0.25019264 -0.4048202
0.016494781 0.079999998 0.020961337 0 0.25019264 -0.4048202
0.017611235 0.060393158 0.07 0 0.25019264 -0.4048202
0.015089228 0.079999998 0.020938544 0 0.25019264 -0.4048202
0.016044844 0.06038345 0.07 0 0.25019264 -0.4048202
0.013684141 0.079999998 0.020917783 0 0.25019264 -0.4048202
0.012981758 0.079999998 0.020908164 0 0.25019264 -0.4048202
0.012279475 0.079999998 0.020899052 0 0.25019264 -0.4048202
0.011577287 0.079999998 0.020890448 0 0.25019264 -0.4048202
0.010875187 0.079999998 0.020882349 0 0.25019264 -0.4048202
0.010173171 0.079999998 0.020874759 0 0.25019264 -0.4048202
0.009471233 0.079999998 0.020867674 0 0.25019264 -0.4048202
0.0087693678 0.079999998 0.020861097 0 0.25019264 -0.4048202
0.0080675706 0.079999998 0.020855024 0 0.25019264 -0.4048202
0.0073658354 0.079999998 0.020849461 0 0.25019264 -0.4048202
0.0066641564 0.079999998 0.020844402 0 0.25019264 -0.4048202
0.0059625288 0.079999998 0.020839849 0 0.25019264 -0.4048202
0.0052609472 0.079999998 0.020835802 0 0.25019264 -0.4048202
0.0050860695 0.060340799 0.07 0 0.25019264 -0.4048202
0.0038578992 0.079999998 0.020829227 0 0.25019264 -0.4048202
0.0031564226 0.079999998 0.020826697 0 0.25019264 -0.4048202
0.0024549703 0.079999998 0.020824675 0 0.25019264 -0.4048202
0.0017535368 0.079999998 0.020823158 0 0.25019264 -0.4048202
0.0010521166 0.079999998 0.020822147 0 0.25019264 -0.4048202
0.00035070465 0.079999998 0.02082164 0 0.25019264 -0.4048202
0.039648395 0.079999998 0.019708922 0 0.25019264 -0.4048202
0.038941067 0.079999998 0.019680802 0 0.25019264 -0.4048202
0.038234036 0.079999998 0.019653194 0 0.25019264 -0.4048202
0.037527304 0.079999998 0.019626096 0 0.25019264 -0.4048202
0.038590722 0.071819387 0.039999999 0 0.25019264 -0.4048202
0.036114704 0.079999998 0.01957343 0 0.25019264 -0.4048202
0.035408825 0.079999998 0.019547861 0 0.25019264 -0.4048202
0.034703217 0.079999998 0.019522803 0 0.25019264 -0.4048202
0.033997878 0.079999998 0.019498251 0 0.25019264 -0.4048202
0.0332928 0.079999998 0.019474208 0 0.25019264 -0.4048202
0.032587983 0.079999998 0.019450672 0 0.25019264 -0.4048202
0.031883415 0.079999998 0.019427642 0 0.25019264 -0.4048202
0.031179091 0.079999998 0.019405121 0 0.25019264 -0.4048202
0.030475007 0.079999998 0.019383105 0 0.25019264 -0.4048202
0.029771158 0.079999998 0.019361595 0 0.25019264 -0.4048202
0.029067541 0.079999998 0.019340592 0 0.25019264 -0.4048202
0.028364144 0.079999998 0.019320091 0 0.25019264 -0.4048202
0.027660968 0.079999998 0.019300098 0 0.25019264 -0.4048202
0.026958004 0.079999998 0.019280607 0 0.25019264 -0.4048202
0.026255246 0.079999998 0.019261623 0 0.25019264 -0.4048202
0.02555269 0.079999998 0.01924314 0 0.25019264 -0.4048202
0.024850331 0.079999998 0.019225162 0 0.25019264 -0.4048202
0.024148162 0.079999998 0.019207686 0 0.25019264 -0.4048202
0.02344618 0.079999998 0.019190712 0 0.25019264 -0.4048202
0.022744376 0.079999998 0.019174242 0 0.25019264 -0.4048202
0.022042749 0.079999998 0.019158274 0 0.25019264 -0.4048202
0.02134129 0.079999998 0.019142807 0 0.25019264 -0.4048202
0.020639995 0.079999998 0.019127842 0 0.25019264 -0.4048202
0.019938858 0.079999998 0.019113379 0 0.25019264 -0.4048202
0.019237874 0.079999998 0.019099416 0 0.25019264 -0.4048202
0.018537037 0.079999998 0.019085955 0 0.25019264 -0.4048202
0.017836343 0.079999998 0.019072995 0 0.25019264 -0.4048202
0.017135786 0.079999998 0.019060533 0 0.25019264 -0.4048202
0.016435359 0.079999998 0.019048573 0 0.25019264 -0.4048202
0.015735058 0.079999998 0.019037113 0 0.25019264 -0.4048202
0.015034879 0.079999998 0.019026153 0 0.25019264 -0.4048202
0.014334814 0.079999998 0.01901569 0 0.25019264 -0.4048202
0.01363486 0.079999998 0.019005729 0 0.25019264 -0.4048202
0.012935009 0.079999998 0.018996267 0 0.25019264 -0.4048202
0.012235258 0.079999998 0.018987304 0 0.25019264 -0.4048202
0.0115356 0.079999998 0.018978838 0 0.25019264 -0.4048202
0.01083603 0.079999998 0.018970871 0 0.25019264 -0.4048202
0.010136544 0.079999998 0.018963404 0 0.25019264 -0.4048202
0.0094371345 0.079999998 0.018956436 0 0.25019264 -0.4048202
0.0087377978 0.079999998 0.018949965 0 0.25019264 -0.4048202
0.0080385283 0.079999998 0.018943992 0 0.25019264 -0.4048202
0.0073393201 0.079999998 0.018938517 0 0.25019264 -0.4048202
0.0066401679 0.079999998 0.018933542 0 0.25019264 -0.4048202
0.0059410664 0.079999998 0.018929062 0 0.25019264 -0.4048202
0.0052420106 0.079999998 0.018925082 0 0.25019264 -0.4048202
0.0045429948 0.079999998 0.018921599 0 0.25019264 -0.4048202
0.0038440137 0.079999998 0.018918613 0 0.25019264 -0.4048202
0.0031450621 0.079999998 0.018916126 0 0.25019264 -0.4048202
0.0024461343 0.079999998 0.018914135 0 0.25019264 -0.4048202
0.0017472255 0.079999998 0.018912643 0 0.25019264 -0.4048202
0.00104833 0.079999998 0.018911649 0 0.25019264 -0.4048202
0.00034944245 0.079999998 0.018911151 0 0.25019264 -0.4048202
0.039505523 0.079999998 0.017800119 0 0.25019264 -0.4048202
0.038800769 0.079999998 0.01777246 0 0.25019264 -0.4048202
0.038096312 0.079999998 0.017745303 0 0.25019264 -0.4048202
0.037392151 0.079999998 0.017718649 0 0.25019264 -0.4048202
0.036688276 0.079999998 0.017692495 0 0.25019264 -0.4048202
0.035984684 0.079999998 0.017666845 0 0.25019264 -0.4048202
0.035281368 0.079999998 0.017641693 0 0.25019264 -0.4048202
0.03457832 0.079999998 0.017617043 0 0.25019264 -0.4048202
0.03387554 0.079999998 0.017592894 0 0.25019264 -0.4048202
0.033173021 0.079999998 0.017569244 0 0.25019264 -0.4048202
0.032470755 0.079999998 0.017546091 0 0.25019264 -0.4048202
0.031768739 0.079999998 0.01752344 0 0.25019264 -0.4048202
0.031066965 0.079999998 0.017501285 0 0.25019264 -0.4048202
0.030365432 0.079999998 0.01747963 0 0.25019264 -0.4048202
0.029664129 0.079999998 0.017458471 0 0.25019264 -0.4048202
0.028963054 0.079999998 0.01743781 0 0.25019264 -0.4048202
0.028262202 0.079999998 0.017417645 0 0.25019264 -0.4048202
0.027561564 0.079999998 0.017397977 0 0.25019264 -0.4048202
0.026861139 0.079999998 0.017378807 0 0.25019264 -0.4048202
0.026160918 0.079999998 0.01736013 0 0.25019264 -0.4048202
0.025460899 0.079999998 0.017341951 0 0.25019264 -0.4048202
0.024761073 0.079999998 0.017324265 0 0.25019264 -0.4048202
0.024061438 0.079999998 0.017307075 0 0.25019264 -0.4048202
0.023361985 0.079999998 0.01729038 0 0.25019264 -0.4048202
0.022662712 0.079999998 0.017274179 0 0.25019264 -0.4048202
0.021963611 0.079999998 0.017258471 0 0.25019264 -0.4048202
0.021264678 0.079999998 0.017243257 0 0.25019264 -0.4048202
0.020565908 0.079999998 0.017228536 0 0.25019264 -0.4048202
0.019867295 0.079999998 0.017214309 0 0.25019264 -0.4048202
0.019168833 0.079999998 0.017200574 0 0.25019264 -0.4048202
0.018470518 0.079999998 0.017187333 0 0.25019264 -0.4048202
0.017772343 0.079999998 0.017174583 0 0.25019264 -0.4048202
0.017074304 0.079999998 0.017162327 0 0.25019264 -0.4048202
0.016376397 0.079999998 0.01715056 0 0.25019264 -0.4048202
0.015678613 0.079999998 0.017139288 0 0.25019264 -0.4048202
0.014980949 0.079999998 0.017128507 0 0.25019264 -0.4048202
0.014283398 0.079999998 0.017118216 0 0.25019264 -0.4048202
0.013585958 0.079999998 0.017108416 0 0.25019264 -0.4048202
0.01288862 0.079999998 0.017099109 0 0.25019264 -0.4048202
0.01219138 0.079999998 0.017090291 0 0.25019264 -0.4048202
0.011494234 0.079999998 0.017081965 0 0.25019264 -0.4048202
0.010797176 0.079999998 0.017074129 0 0.25019264 -0.4048202
0.010100199 0.079999998 0.017066782 0 0.25019264 -0.4048202
0.0094032995 0.079999998 0.017059928 0 0.25019264 -0.4048202
0.0087064719 0.079999998 0.017053561 0 0.25019264 -0.4048202
0.0080097103 0.079999998 0.017047687 0 0.25019264 -0.4048202
0.0073130094 0.079999998 0.017042302 0 0.25019264 -0.4048202
0.0066163642 0.079999998 0.017037407 0 0.25019264 -0.4048202
0.0059197699 0.079999998 0.017033001 0 0.25019264 -0.4048202
0.0052232202 0.079999998 0.017029086 0 0.25019264 -0.4048202
0.0045267106 0.079999998 0.017025659 0 0.25019264 -0.4048202
0.0038302352 0.079999998 0.017022723 0 0.25019264 -0.4048202
0.0031337889 0.079999998 0.017020276 0 0.25019264 -0.4048202
0.0024373666 0.079999998 0.017018318 0 0.25019264 -0.4048202
0.001740963 0.079999998 0.01701685 0 0.25019264 -0.4048202
0.0010445724 0.079999998 0.017015871 0 0.25019264 -0.4048202
0.00034818993 0.079999998 0.017015381 0 0.25019264 -0.4048202
0.039363753 0.079999998 0.015906032 0 0.25019264 -0.4048202
0.038661554 0.079999998 0.015878826 0 0.25019264 -0.4048202
0.03795965 0.079999998 0.015852114 0 0.25019264 -0.4048202
0.03725804 0.079999998 0.015825897 0 0.25019264 -0.4048202
0.036556713 0.079999998 0.015800172 0 0.25019264 -0.4048202
0.035855666 0.079999998 0.015774943 0 0.25019264 -0.4048202
0.03515489 0.079999998 0.015750205 0 0.25019264 -0.4048202
0.034454387 0.079999998 0.015725959 0 0.25019264 -0.4048202
0.033754144 0.079999998 0.015702205 0 0.25019264 -0.4048202
0.033054162 0.079999998 0.015678942 0 0.25019264 -0.4048202
0.032354429 0.079999998 0.015656171 0 0.25019264 -0.4048202
0.031654947 0.079999998 0.01563389 0 0.25019264 -0.4048202
0.030955704 0.079999998 0.015612098 0 0.25019264 -0.4048202
0.030256698 0.079999998 0.015590798 0 0.25019264 -0.4048202
0.029557923 0.079999998 0.015569986 0 0.25019264 -0.4048202
0.028859371 0.079999998 0.015549663 0 0.25019264 -0.4048202
0.028161041 0.079999998 0.01552983 0 0.25019264 -0.4048202
0.027462926 0.079999998 0.015510485 0 0.25019264 -0.4048202
0.026765019 0.079999998 0.015491627 0 0.25019264 -0.4048202
0.026067317 0.079999998 0.015473257 0 0.25019264 -0.4048202
0.025369812 0.079999998 0.015455374 0 0.25019264 -0.4048202
0.024672501 0.079999998 0.015437979 0 0.25019264 -0.4048202
0.023975378 0.079999998 0.015421071 0 0.25019264 -0.4048202
0.023278438 0.079999998 0.015404648 0 0.25019264 -0.4048202
0.022581672 0.079999998 0.015388712 0 0.25019264 -0.4048202
0.02188508 0.079999998 0.015373263 0 0.25019264 -0.4048202
0.021188656 0.079999998 0.015358297 0 0.25019264 -0.4048202
0.02049239 0.079999998 0.015343818 0 0.25019264 -0.4048202
0.019796282 0.079999998 0.015329824 0 0.25019264 -0.4048202
0.019100323 0.079999998 0.015316314 0 0.25019264 -0.4048202
0.01840451 0.079999998 0.01530329 0 0.25019264 -0.4048202
0.017708836 0.079999998 0.015290749 0 0.25019264 -0.4048202
0.017013296 0.079999998 0.015278692 0 0.25019264 -0.4048202
0.016317885 0.079999998 0.015267121 0 0.25019264 -0.4048202
0.0156226 0.079999998 0.015256031 0 0.25019264 -0.4048202
0.014927432 0.079999998 0.015245426 0 0.25019264 -0.4048202
0.014232378 0.079999998 0.015235304 0 0.25019264 -0.4048202
0.013537431 0.079999998 0.015225666 0 0.25019264 -0.4048202
0.012842587 0.079999998 0.01521651 0 0.25019264 -0.4048202
0.012147841 0.079999998 0.015207836 0 0.25019264 -0.4048202
0.011453186 0.079999998 0.015199646 0 0.25019264 -0.4048202
0.010758619 0.079999998 0.015191939 0 0.25019264 -0.4048202
0.010064133 0.079999998 0.015184714 0 0.25019264 -0.4048202
0.0093697235 0.079999998 0.015177971 0 0.25019264 -0.4048202
0.0086753853 0.079999998 0.015171709 0 0.25019264 -0.4048202
0.0079811122 0.079999998 0.015165931 0 0.25019264 -0.4048202
0.0072869002 0.079999998 0.015160633 0 0.25019264 -0.4048202
0.0065927431 0.079999998 0.015155818 0 0.25019264 -0.4048202
0.0058986363 0.079999998 0.015151485 0 0.25019264 -0.4048202
0.0052045737 0.079999998 0.015147633 0 0.25019264 -0.4048202
0.0045105508 0.079999998 0.015144263 0 0.25019264 -0.4048202
0.0038165622 0.079999998 0.015141374 0 0.25019264 -0.4048202
0.0031226024 0.079999998 0.015138968 0 0.25019264 -0.4048202
0.0024286662 0.079999998 0.015137042 0 0.25019264 -0.4048202
0.0017347485 0.079999998 0.015135597 0 0.25019264 -0.4048202
0.0010408438 0.079999998 0.015134635 0 0.25019264 -0.4048202
0.00034694705 0.079999998 0.015134154 0 0.25019264 -0.4048202
0.039923035 0.079999998 0.014053726 0 0.25019264 -0.4048202
0.039223071 0.079999998 0.014026481 0 0.25019264 -0.4048202
0.03852341 0.079999998 0.013999722 0 0.25019264 -0.4048202
0.037824038 0.079999998 0.01397345 0 0.25019264 -0.4048202
0.037124958 0.079999998 0.013947664 0 0.25019264 -0.4048202
0.036426157 0.079999998 0.013922364 0 0.25019264 -0.4048202
0.035727635 0.079999998 0.013897548 0 0.25019264 -0.4048202
0.035029385 0.079999998 0.013873217 0 0.25019264 -0.4048202
0.034331404 0.079999998 0.01384937 0 0.25019264 -0.4048202
0.033633679 0.079999998 0.013826007 0 0.25019264 -0.4048202
0.032936212 0.079999998 0.013803127 0 0.25019264 -0.4048202
0.032238998 0.079999998 0.01378073 0 0.25019264 -0.4048202
0.031542026 0.079999998 0.013758815 0 0.25019264 -0.4048202
0.030845294 0.079999998 0.013737383 0 0.25019264 -0.4048202
0.030148797 0.079999998 0.013716432 0 0.25019264 -0.4048202
0.029452529 0.079999998 0.013695963 0 0.25019264 -0.4048202
0.028756483 0.079999998 0.013675975 0 0.25019264 -0.4048202
0.028060656 0.079999998 0.013656467 0 0.25019264 -0.4048202
0.027365042 0.079999998 0.013637439 0 0.25019264 -0.4048202
0.026669636 0.079999998 0.013618892 0 0.25019264 -0.4048202
0.025974432 0.079999998 0.013600824 0 0.25019264 -0.4048202
0.025279423 0.079999998 0.013583235 0 0.25019264 -0.4048202
0.024584608 0.079999998 0.013566126 0 0.25019264 -0.4048202
0.023889977 0.079999998 0.013549495 0 0.25019264 -0.4048202
0.023195527 0.079999998 0.013533344 0 0.25019264 -0.4048202
0.022501254 0.079999998 0.013517669 0 0.25019264 -0.4048202
0.021807151 0.079999998 0.013502473 0 0.25019264 -0.4048202
0.021113213 0.079999998 0.013487753 0 0.25019264 -0.4048202
0.020419436 0.079999998 0.013473513 0 0.25019264 -0.4048202
0.019725811 0.079999998 0.013459749 0 0.25019264 -0.4048202
0.019032337 0.079999998 0.01344646 0 0.25019264 -0.4048202
0.018339004 0.079999998 0.01343365 0 0.25019264 -0.4048202
0.017645814 0.079999998 0.013421316 0 0.25019264 -0.4048202
0.016952753 0.079999998 0.013409457 0 0.25019264 -0.4048202
0.016259823 0.079999998 0.013398075 0 0.25019264 -0.4048202
0.015567015 0.079999998 0.013387168 0 0.25019264 -0.4048202
0.014874324 0.079999998 0.013376737 0 0.25019264 -0.4048202
0.014181746 0.079999998 0.013366781 0 0.25019264 -0.4048202
0.013489275 0.079999998 0.013357301 0 0.25019264 -0.4048202
0.012796906 0.079999998 0.013348295 0 0.25019264 -0.4048202
0.012104633 0.079999998 0.013339765 0 0.25019264 -0.4048202
0.011412452 0.079999998 0.013331709 0 0.25019264 -0.4048202
0.010720357 0.079999998 0.013324128 0 0.25019264 -0.4048202
0.010028343 0.079999998 0.013317022 0 0.25019264 -0.4048202
0.0093364045 0.079999998 0.01331039 0 0.25019264 -0.4048202
0.0086445361 0.079999998 0.013304231 0 0.25019264 -0.4048202
0.0079527339 0.079999998 0.013298547 0 0.25019264 -0.4048202
0.0072609908 0.079999998 0.013293337 0 0.25019264 -0.4048202
0.0065693026 0.079999998 0.013288601 0 0.25019264 -0.4048202
0.0058776643 0.079999998 0.013284339 0 0.25019264 -0.4048202
0.0051860698 0.079999998 0.01328055 0 0.25019264 -0.4048202
0.0044945148 0.079999998 0.013277235 0 0.25019264 -0.4048202
0.0038029938 0.079999998 0.013274394 0 0.25019264 -0.4048202
0.0031115012 0.079999998 0.013272027 0 0.25019264 -0.4048202
0.0024200322 0.079999998 0.013270133 0 0.25019264 -0.4048202
0.0017285814 0.079999998 0.013268713 0 0.25019264 -0.4048202
0.0010371436 0.079999998 0.013267766 0 0.25019264 -0.4048202
0.00034571366 0.079999998 0.013267292 0 0.25019264 -0.4048202
0.039780911 0.079999998 0.012188084 0 0.25019264 -0.4048202
0.039083466 0.079999998 0.012161289 0 0.25019264 -0.4048202
0.038386315 0.079999998 0.012134973 0 0.25019264 -0.4048202
0.037689459 0.079999998 0.012109134 0 0.25019264 -0.4048202
0.036992889 0.079999998 0.012083774 0 0.25019264 -0.4048202
0.036296599 0.079999998 0.012058891 0 0.25019264 -0.4048202
0.035600584 0.079999998 0.012034485 0 0.25019264 -0.4048202
0.034904838 0.079999998 0.012010556 0 0.25019264 -0.4048202
0.034209356 0.079999998 0.011987103 0 0.25019264 -0.4048202
0.033514135 0.079999998 0.011964126 0 0.25019264 -0.4048202
0.032819167 0.079999998 0.011941623 0 0.25019264 -0.4048202
0.032124445 0.079999998 0.011919595 0 0.25019264 -0.4048202
0.031429969 0.079999998 0.011898043 0 0.25019264 -0.4048202
0.030735727 0.079999998 0.011876964 0 0.25019264 -0.4048202
0.030041719 0.079999998 0.011856358 0 0.25019264 -0.4048202
0.029347938 0.079999998 0.011836227 0 0.25019264 -0.4048202
0.02865438 0.079999998 0.011816569 0 0.25019264 -0.4048202
0.027961036 0.079999998 0.011797382 0 0.25019264 -0.4048202
0.027267905 0.079999998 0.011778669 0 0.25019264 -0.4048202
0.026574979 0.079999998 0.011760428 0 0.25019264 -0.4048202
0.025882253 0.079999998 0.011742658 0 0.25019264 -0.4048202
0.025189724 0.079999998 0.01172536 0 0.25019264 -0.4048202
0.024497382 0.079999998 0.011708532 0 0.25019264 -0.4048202
0.023805227 0.079999998 0.011692176 0 0.25019264 -0.4048202
0.023113251 0.079999998 0.011676289 0 0.25019264 -0.4048202
0.022421449 0.079999998 0.011660874 0 0.25019264 -0.4048202
0.021729816 0.079999998 0.011645928 0 0.25019264 -0.4048202
0.021038346 0.079999998 0.011631452 0 0.25019264 -0.4048202
0.020347035 0.079999998 0.011617445 0 0.25019264 -0.4048202
0.019655878 0.079999998 0.011603908 0 0.25019264 -0.4048202
0.018964866 0.079999998 0.011590839 0 0.25019264 -0.4048202
0.018274 0.079999998 0.01157824 0 0.25019264 -0.4048202
0.01758327 0.079999998 0.011566109 0 0.25019264 -0.4048202
0.016892672 0.079999998 0.011554446 0 0.25019264 -0.4048202
0.016202202 0.079999998 0.011543251 0 0.25019264 -0.4048202
0.015511853 0.079999998 0.011532525 0 0.25019264 -0.4048202
0.014821621 0.079999998 0.011522265 0 0.25019264 -0.4048202
0.0141315 0.079999998 0.011512473 0 0.25019264 -0.4048202
0.013441486 0.079999998 0.01150315 0 0.25019264 -0.4048202
0.012751573 0.079999998 0.011494293 0 0.25019264 -0.4048202
0.012061755 0.079999998 0.011485903 0 0.25019264 -0.4048202
0.011372028 0.079999998 0.01147798 0 0.25019264 -0.4048202
0.010682386 0.079999998 0.011470524 0 0.25019264 -0.4048202
0.0099928249 0.079999998 0.011463534 0 0.25019264 -0.4048202
0.0093033388 0.079999998 0.011457011 0 0.25019264 -0.4048202
0.0086139226 0.079999998 0.011450954 0 0.25019264 -0.4048202
0.0079245707 0.079999998 0.011445364 0 0.25019264 -0.4048202
0.0072352784 0.079999998 0.01144024 0 0.25019264 -0.4048202
0.0065460405 0.079999998 0.011435581 0 0.25019264 -0.4048202
0.0058568516 0.079999998 0.011431389 0 0.25019264 -0.4048202
0.0051677069 0.079999998 0.011427663 0 0.25019264 -0.4048202
0.0044786008 0.079999998 0.011424404 0 0.25019264 -0.4048202
0.0037895283 0.079999998 0.011421609 0 0.25019264 -0.4048202
0.0031004844 0.079999998 0.01141928 0 0.25019264 -0.4048202
0.0024114638 0.079999998 0.011417418 0 0.25019264 -0.4048202
0.0017224612 0.079999998 0.011416021 0 0.25019264 -0.4048202
0.0010334715 0.079999998 0.011415089 0 0.25019264 -0.4048202
0.00034448964 0.079999998 0.011414624 0 0.25019264 -0.4048202
0.039639864 0.079999998 0.010336637 0 0.25019264 -0.4048202
0.038944919 0.079999998 0.010310286 0 0.25019264 -0.4048202
0.038250268 0.079999998 0.010284405 0 0.25019264 -0.4048202
0.037555907 0.079999998 0.010258995 0 0.25019264 -0.4048202
0.036861826 0.079999998 0.010234055 0 0.25019264 -0.4048202
0.036168024 0.079999998 0.010209584 0 0.25019264 -0.4048202
0.035474498 0.079999998 0.010185583 0 0.25019264 -0.4048202
0.034781236 0.079999998 0.010162049 0 0.25019264 -0.4048202
0.034088239 0.079999998 0.010138985 0 0.25019264 -0.4048202
0.033395495 0.079999998 0.010116387 0 0.25019264 -0.4048202
0.032703005 0.079999998 0.010094258 0 0.25019264 -0.4048202
0.03201076 0.079999998 0.010072595 0 0.25019264 -0.4048202
0.031318758 0.079999998 0.010051399 0 0.25019264 -0.4048202
0.030626992 0.079999998 0.010030669 0 0.25019264 -0.4048202
0.029935455 0.079999998 0.010010405 0 0.25019264 -0.4048202
0.029244142 0.079999998 0.0099906065 0 0.25019264 -0.4048202
0.02855305 0.079999998 0.0099712741 0 0.25019264 -0.4048202
0.027862173 0.079999998 0.0099524055 0 0.25019264 -0.4048202
0.027171504 0.079999998 0.0099340016 0 0.25019264 -0.4048202
0.02648104 0.079999998 0.0099160615 0 0.25019264 -0.4048202
0.025790775 0.079999998 0.0098985862 0 0.25019264 -0.4048202
0.025100702 0.079999998 0.0098815737 0 0.25019264 -0.4048202
0.02441082 0.079999998 0.0098650251 0 0.25019264 -0.4048202
0.023721119 0.079999998 0.0098489393 0 0.25019264 -0.4048202
0.023031598 0.079999998 0.0098333163 0 0.25019264 -0.4048202
0.022342248 0.079999998 0.0098181553 0 0.25019264 -0.4048202
0.021653065 0.079999998 0.0098034572 0 0.25019264 -0.4048202
0.020964047 0.079999998 0.009789221 0 0.25019264 -0.4048202
0.020275183 0.079999998 0.0097754458 0 0.25019264 -0.4048202
0.019586474 0.079999998 0.0097621325 0 0.25019264 -0.4048202
0.01889791 0.079999998 0.0097492803 0 0.25019264 -0.4048202
0.018209487 0.079999998 0.009736889 0 0.25019264 -0.4048202
0.017521201 0.079999998 0.0097249579 0 0.25019264 -0.4048202
0.016833046 0.079999998 0.0097134886 0 0.25019264 -0.4048202
0.016145017 0.079999998 0.0097024785 0 0.25019264 -0.4048202
0.015457109 0.079999998 0.0096919294 0 0.25019264 -0.4048202
0.014769317 0.079999998 0.0096818404 0 0.25019264 -0.4048202
0.014081635 0.079999998 0.0096722106 0 0.25019264 -0.4048202
0.013394059 0.079999998 0.0096630407 0 0.25019264 -0.4048202
0.012706582 0.079999998 0.0096543301 0 0.25019264 -0.4048202
0.012019201 0.079999998 0.0096460786 0 0.25019264 -0.4048202
0.011331909 0.079999998 0.0096382871 0 0.25019264 -0.4048202
0.010644703 0.079999998 0.0096309539 0 0.25019264 -0.4048202
0.0099575762 0.079999998 0.0096240798 0 0.25019264 -0.4048202
0.0092705227 0.079999998 0.0096176649 0 0.25019264 -0.4048202
0.0085835401 0.079999998 0.0096117081 0 0.25019264 -0.4048202
0.0078966208 0.079999998 0.0096062105 0 0.25019264 -0.4048202
0.0072097606 0.079999998 0.0096011711 0 0.25019264 -0.4048202
0.006522954 0.079999998 0.00959659 0 0.25019264 -0.4048202
0.0058361967 0.079999998 0.009592467 0 0.25019264 -0.4048202
0.0051494827 0.079999998 0.0095888032 0 0.25019264 -0.4048202
0.004462807 0.079999998 0.0095855966 0 0.25019264 -0.4048202
0.003776165 0.079999998 0.0095828483 0 0.25019264 -0.4048202
0.0030895511 0.079999998 0.0095805582 0 0.25019264 -0.4048202
0.0024029603 0.079999998 0.0095787263 0 0.25019264 -0.4048202
0.0017163873 0.079999998 0.0095773526 0 0.25019264 -0.4048202
0.0010298273 0.079999998 0.0095764361 0 0.25019264 -0.4048202
0.00034327491 0.079999998 0.0095759789 0 0.25019264 -0.4048202
0.03949989 0.079999998 0.0084992116 0 0.25019264 -0.4048202
0.038807422 0.079999998 0.0084732985 0 0.25019264 -0.4048202
0.038115248 0.079999998 0.0084478492 0 0.25019264 -0.4048202
0.037423361 0.079999998 0.0084228609 0 0.25019264 -0.4048202
0.036731757 0.079999998 0.0083983354 0 0.25019264 -0.4048202
0.036040425 0.079999998 0.0083742719 0 0.25019264 -0.4048202
0.035349365 0.079999998 0.0083506694 0 0.25019264 -0.4048202
0.03465857 0.079999998 0.008327527 0 0.25019264 -0.4048202
0.033968035 0.079999998 0.0083048455 0 0.25019264 -0.4048202
0.033277754 0.079999998 0.0082826242 0 0.25019264 -0.4048202
0.032587726 0.079999998 0.008260862 0 0.25019264 -0.4048202
0.03189794 0.079999998 0.0082395598 0 0.25019264 -0.4048202
0.03120839 0.079999998 0.0082187159 0 0.25019264 -0.4048202
0.030519078 0.079999998 0.0081983302 0 0.25019264 -0.4048202
0.029829992 0.079999998 0.0081784027 0 0.25019264 -0.4048202
0.02914113 0.079999998 0.0081589334 0 0.25019264 -0.4048202
0.028452486 0.079999998 0.0081399214 0 0.25019264 -0.4048202
0.027764056 0.079999998 0.0081213666 0 0.25019264 -0.4048202
0.027075833 0.079999998 0.0081032682 0 0.25019264 -0.4048202
0.026387811 0.079999998 0.0080856271 0 0.25019264 -0.4048202
0.025699988 0.079999998 0.0080684414 0 0.25019264 -0.4048202
0.025012355 0.079999998 0.0080517121 0 0.25019264 -0.4048202
0.024324911 0.079999998 0.0080354381 0 0.25019264 -0.4048202
0.023637647 0.079999998 0.0080196196 0 0.25019264 -0.4048202
0.02295056 0.079999998 0.0080042556 0 0.25019264 -0.4048202
0.022263644 0.079999998 0.007989347 0 0.25019264 -0.4048202
0.021576896 0.079999998 0.0079748919 0 0.25019264 -0.4048202
0.020890307 0.079999998 0.0079608923 0 0.25019264 -0.4048202
0.020203875 0.079999998 0.0079473462 0 0.25019264 -0.4048202
0.019517593 0.079999998 0.0079342537 0 0.25019264 -0.4048202
0.018831456 0.079999998 0.0079216147 0 0.25019264 -0.4048202
0.018145461 0.079999998 0.0079094293 0 0.25019264 -0.4048202
0.017459599 0.079999998 0.0078976965 0 0.25019264 -0.4048202
0.01677387 0.079999998 0.0078864172 0 0.25019264 -0.4048202
0.016088264 0.079999998 0.0078755906 0 0.25019264 -0.4048202
0.015402778 0.079999998 0.0078652157 0 0.25019264 -0.4048202
0.014717407 0.079999998 0.0078552943 0 0.25019264 -0.4048202
0.014032146 0.079999998 0.0078458237 0 0.25019264 -0.4048202
0.013346989 0.079999998 0.0078368066 0 0.25019264 -0.4048202
0.012661931 0.079999998 0.0078282403 0 0.25019264 -0.4048202
0.011976968 0.079999998 0.0078201257 0 0.25019264 -0.4048202
0.011292093 0.079999998 0.0078124637 0 0.25019264 -0.4048202
0.010607303 0.079999998 0.0078052524 0 0.25019264 -0.4048202
0.009922592 0.079999998 0.0077984924 0 0.25019264 -0.4048202
0.0092379553 0.079999998 0.0077921837 0 0.25019264 -0.4048202
0.0085533867 0.079999998 0.0077863261 0 0.25019264 -0.4048202
0.0078688813 0.079999998 0.0077809193 0 0.25019264 -0.4048202
0.0071844347 0.079999998 0.0077759633 0 0.25019264 -0.4048202
0.006500042 0.079999998 0.0077714585 0 0.25019264 -0.4048202
0.0058156974 0.079999998 0.007767404 0 0.25019264 -0.4048202
0.0051313955 0.079999998 0.0077638007 0 0.25019264 -0.4048202
0.0044471323 0.079999998 0.0077606477 0 0.25019264 -0.4048202
0.0037629022 0.079999998 0.007757945 0 0.25019264 -0.4048202
0.0030787 0.079999998 0.007755693 0 0.25019264 -0.4048202
0.0023945207 0.079999998 0.0077538914 0 0.25019264 -0.4048202
0.0017103592 0.079999998 0.0077525401 0 0.25019264 -0.4048202
0.0010262105 0.079999998 0.0077516395 0 0.25019264 -0.4048202
0.00034206931 0.079999998 0.0077511892 0 0.25019264 -0.4048202
0.03936097 0.079999998 0.0066756429 0 0.25019264 -0.4048202
0.038670965 0.079999998 0.0066501624 0 0.25019264 -0.4048202
0.037981249 0.079999998 0.0066251368 0 0.25019264 -0.4048202
0.037291817 0.079999998 0.0066005662 0 0.25019264 -0.4048202
0.036602665 0.079999998 0.0065764501 0 0.25019264 -0.4048202
0.035913784 0.079999998 0.006552788 0 0.25019264 -0.4048202
0.035225175 0.079999998 0.0065295789 0 0.25019264 -0.4048202
0.034536827 0.079999998 0.006506823 0 0.25019264 -0.4048202
0.033848736 0.079999998 0.0064845197 0 0.25019264 -0.4048202
0.033160903 0.079999998 0.006462669 0 0.25019264 -0.4048202
0.032473311 0.079999998 0.00644127 0 0.25019264 -0.4048202
0.031785965 0.079999998 0.0064203227 0 0.25019264 -0.4048202
0.031098854 0.079999998 0.0063998261 0 0.25019264 -0.4048202
0.030411975 0.079999998 0.0063797808 0 0.25019264 -0.4048202
0.029725324 0.079999998 0.0063601858 0 0.25019264 -0.4048202
0.029038893 0.079999998 0.0063410411 0 0.25019264 -0.4048202
0.02835268 0.079999998 0.0063223462 0 0.25019264 -0.4048202
0.027666677 0.079999998 0.0063041006 0 0.25019264 -0.4048202
0.026980879 0.079999998 0.006286304 0 0.25019264 -0.4048202
0.026295284 0.079999998 0.0062689567 0 0.25019264 -0.4048202
0.025609883 0.079999998 0.0062520574 0 0.25019264 -0.4048202
0.024924671 0.079999998 0.006235607 0 0.25019264 -0.4048202
0.024239646 0.079999998 0.0062196041 0 0.25019264 -0.4048202
0.023554802 0.079999998 0.0062040491 0 0.25019264 -0.4048202
0.022870133 0.079999998 0.0061889412 0 0.25019264 -0.4048202
0.022185633 0.079999998 0.0061742808 0 0.25019264 -0.4048202
0.021501297 0.079999998 0.0061600674 0 0.25019264 -0.4048202
0.020817121 0.079999998 0.0061463006 0 0.25019264 -0.4048202
0.0201331 0.079999998 0.0061329799 0 0.25019264 -0.4048202
0.01944923 0.079999998 0.0061201057 0 0.25019264 -0.4048202
0.018765504 0.079999998 0.0061076772 0 0.25019264 -0.4048202
0.018081915 0.079999998 0.0060956948 0 0.25019264 -0.4048202
0.017398462 0.079999998 0.0060841581 0 0.25019264 -0.4048202
0.016715137 0.079999998 0.006073066 0 0.25019264 -0.4048202
0.016031936 0.079999998 0.0060624196 0 0.25019264 -0.4048202
0.015348854 0.079999998 0.0060522184 0 0.25019264 -0.4048202
0.014665887 0.079999998 0.0060424618 0 0.25019264 -0.4048202
0.013983028 0.079999998 0.0060331495 0 0.25019264 -0.4048202
0.013300272 0.079999998 0.006024282 0 0.25019264 -0.4048202
0.012617615 0.079999998 0.0060158586 0 0.25019264 -0.4048202
0.011935052 0.079999998 0.0060078795 0 0.25019264 -0.4048202
0.011252576 0.079999998 0.0060003446 0 0.25019264 -0.4048202
0.010570184 0.079999998 0.0059932536 0 0.25019264 -0.4048202
0.0098878713 0.079999998 0.0059866062 0 0.25019264 -0.4048202
0.009205631 0.079999998 0.0059804027 0 0.25019264 -0.4048202
0.0085234595 0.079999998 0.0059746425 0 0.25019264 -0.4048202
0.0078413505 0.079999998 0.005969326 0 0.25019264 -0.4048202
0.0071592992 0.079999998 0.0059644524 0 0.25019264 -0.4048202
0.0064773015 0.079999998 0.0059600226 0 0.25019264 -0.4048202
0.0057953517 0.079999998 0.0059560356 0 0.25019264 -0.4048202
0.0051134448 0.079999998 0.0059524924 0 0.25019264 -0.4048202
0.0044315755 0.079999998 0.0059493915 0 0.25019264 -0.4048202
0.0037497391 0.079999998 0.005946734 0 0.25019264 -0.4048202
0.0030679305 0.079999998 0.0059445198 0 0.25019264 -0.4048202
0.0023861446 0.079999998 0.0059427479 0 0.25019264 -0.4048202
0.0017043764 0.079999998 0.0059414194 0 0.25019264 -0.4048202
0.0010226208 0.079999998 0.0059405337 0 0.25019264 -0.4048202
0.00034087276 0.079999998 0.0059400909 0 0.25019264 -0.4048202
0.039910946 0.079999998 0.0048912666 0 0.25019264 -0.4048202
0.03922309 0.079999998 0.0048657646 0 0.25019264 -0.4048202
0.038535528 0.079999998 0.0048407111 0 0.25019264 -0.4048202
0.037848253 0.079999998 0.0048161047 0 0.25019264 -0.4048202
0.037161261 0.079999998 0.0047919457 0 0.25019264 -0.4048202
0.036474541 0.079999998 0.0047682333 0 0.25019264 -0.4048202
0.035788096 0.079999998 0.0047449674 0 0.25019264 -0.4048202
0.035101917 0.079999998 0.0047221472 0 0.25019264 -0.4048202
0.034415998 0.079999998 0.0046997722 0 0.25019264 -0.4048202
0.033730336 0.079999998 0.0046778424 0 0.25019264 -0.4048202
0.033044923 0.079999998 0.0046563572 0 0.25019264 -0.4048202
0.032359757 0.079999998 0.0046353168 0 0.25019264 -0.4048202
0.031674828 0.079999998 0.0046147201 0 0.25019264 -0.4048202
0.030990139 0.079999998 0.0045945668 0 0.25019264 -0.4048202
0.030305676 0.079999998 0.0045748567 0 0.25019264 -0.4048202
0.029621439 0.079999998 0.00455559 0 0.25019264 -0.4048202
0.028937422 0.079999998 0.0045367656 0 0.25019264 -0.4048202
0.02825362 0.079999998 0.0045183832 0 0.25019264 -0.4048202
0.027570026 0.079999998 0.0045004431 0 0.25019264 -0.4048202
0.026886638 0.079999998 0.0044829445 0 0.25019264 -0.4048202
0.026203448 0.079999998 0.0044658873 0 0.25019264 -0.4048202
0.025520451 0.079999998 0.0044492711 0 0.25019264 -0.4048202
0.024837645 0.079999998 0.0044330955 0 0.25019264 -0.4048202
0.024155021 0.079999998 0.0044173603 0 0.25019264 -0.4048202
0.023472577 0.079999998 0.0044020656 0 0.25019264 -0.4048202
0.022790305 0.079999998 0.0043872106 0 0.25019264 -0.4048202
0.022108205 0.079999998 0.0043727956 0 0.25019264 -0.4048202
0.021426264 0.079999998 0.0043588197 0 0.25019264 -0.4048202
0.020744484 0.079999998 0.0043452829 0 0.25019264 -0.4048202
0.020062858 0.079999998 0.0043321853 0 0.25019264 -0.4048202
0.019381378 0.079999998 0.0043195263 0 0.25019264 -0.4048202
0.018700043 0.079999998 0.0043073059 0 0.25019264 -0.4048202
0.018018845 0.079999998 0.0042955237 0 0.25019264 -0.4048202
0.01733778 0.079999998 0.0042841798 0 0.25019264 -0.4048202
0.016656844 0.079999998 0.0042732735 0 0.25019264 -0.4048202
0.01597603 0.079999998 0.004262805 0 0.25019264 -0.4048202
0.015295335 0.079999998 0.0042527742 0 0.25019264 -0.4048202
0.014614752 0.079999998 0.0042431806 0 0.25019264 -0.4048202
0.013934277 0.079999998 0.0042340243 0 0.25019264 -0.4048202
0.013253905 0.079999998 0.0042253053 0 0.25019264 -0.4048202
0.012573631 0.079999998 0.0042170226 0 0.25019264 -0.4048202
0.011893448 0.079999998 0.0042091771 0 0.25019264 -0.4048202
0.011213355 0.079999998 0.004201768 0 0.25019264 -0.4048202
0.010533343 0.079999998 0.0041947952 0 0.25019264 -0.4048202
0.0098534096 0.079999998 0.0041882591 0 0.25019264 -0.4048202
0.0091735488 0.079999998 0.0041821594 0 0.25019264 -0.4048202
0.0084937559 0.079999998 0.0041764956 0 0.25019264 -0.4048202
0.0078140246 0.079999998 0.0041712676 0 0.25019264 -0.4048202
0.0071343514 0.079999998 0.004166476 0 0.25019264 -0.4048202
0.0064547309 0.079999998 0.0041621202 0 0.25019264 -0.4048202
0.0057751578 0.079999998 0.0041581998 0 0.25019264 -0.4048202
0.0050956276 0.079999998 0.0041547152 0 0.25019264 -0.4048202
0.0044161347 0.079999998 0.0041516665 0 0.25019264 -0.4048202
0.0037366743 0.079999998 0.0041490537 0 0.25019264 -0.4048202
0.0030572414 0.079999998 0.0041468763 0 0.25019264 -0.4048202
0.0023778311 0.079999998 0.0041451342 0 0.25019264 -0.4048202
