# .PCD v0.7 - Point Cloud Data file format
VERSION 0.7
FIELDS x y z vp_x vp_y vp_z
SIZE 4 4 4 4 4 4
TYPE F F F F F F
COUNT 1 1 1 1 1 1
WIDTH 809
HEIGHT 1
VIEWPOINT 0 0 0 1 0 0 0
POINTS 809
DATA ascii
0.01933494 0.079999998 0.030603739 0 0.25019264 0.4048202
0.018699752 0.079999998 0.030612757 0 0.25019264 0.4048202
0.018064691 0.079999998 0.030621475 0 0.25019264 0.4048202
0.01742975 0.079999998 0.030629888 0 0.25019264 0.4048202
0.016794927 0.079999998 0.030638002 0 0.25019264 0.4048202
0.016160216 0.079999998 0.030645814 0 0.25019264 0.4048202
0.015525614 0.079999998 0.030653324 0 0.25019264 0.4048202
0.014891117 0.079999998 0.030660532 0 0.25019264 0.4048202
0.014256719 0.079999998 0.030667441 0 0.25019264 0.4048202
0.013622417 0.079999998 0.030674048 0 0.25019264 0.4048202
0.012988206 0.079999998 0.030680353 0 0.25019264 0.4048202
0.012354082 0.079999998 0.030686358 0 0.25019264 0.4048202
0.011720042 0.079999998 0.030692061 0 0.25019264 0.4048202
0.01108608 0.079999998 0.030697463 0 0.25019264 0.4048202
0.010452193 0.079999998 0.030702567 0 0.25019264 0.4048202
0.0098183751 0.079999998 0.030707369 0 0.25019264 0.4048202
0.0091846241 0.079999998 0.030711869 0 0.25019264 0.4048202
0.0085509336 0.079999998 0.030716071 0 0.25019264 0.4048202
0.0079173017 0.079999998 0.030719971 0 0.25019264 0.4048202
0.0072837221 0.079999998 0.030723572 0 0.25019264 0.4048202
0.0066501913 0.079999998 0.030726872 0 0.25019264 0.4048202
0.0060167052 0.079999998 0.030729871 0 0.25019264 0.4048202
0.0053832596 0.079999998 0.030732572 0 0.25019264 0.4048202
0.0047498499 0.079999998 0.030734971 0 0.25019264 0.4048202
0.0041164723 0.079999998 0.03073707 0 0.25019264 0.4048202
0.0034831222 0.079999998 0.03073887 0 0.25019264 0.4048202
0.0028497954 0.079999998 0.030740371 0 0.25019264 0.4048202
0.0022164877 0.079999998 0.030741571 0 0.25019264 0.4048202
0.0015831949 0.079999998 0.03074247 0 0.25019264 0.4048202
0.0009499127 0.079999998 0.03074307 0 0.25019264 0.4048202
0.00031663687 0.079999998 0.03074337 0 0.25019264 0.4048202
0.039882269 0.079999998 0.028596619 0 0.25019264 0.4048202
0.039238662 0.079999998 0.02861576 0 0.25019264 0.4048202
0.038595319 0.079999998 0.028634587 0 0.25019264 0.4048202
0.037952244 0.079999998 0.028653098 0 0.25019264 0.4048202
0.037309427 0.079999998 0.028671296 0 0.25019264 0.4048202
0.036666859 0.079999998 0.02868918 0 0.25019264 0.4048202
0.036024544 0.079999998 0.02870675 0 0.25019264 0.4048202
0.035382476 0.079999998 0.028724005 0 0.25019264 0.4048202
0.034740645 0.079999998 0.028740948 0 0.25019264 0.4048202
0.034099054 0.079999998 0.02875758 0 0.25019264 0.4048202
0.033457693 0.079999998 0.028773896 0 0.25019264 0.4048202
0.032816555 0.079999998 0.028789902 0 0.25019264 0.4048202
0.032175645 0.079999998 0.028805595 0 0.25019264 0.4048202
0.031534951 0.079999998 0.028820977 0 0.25019264 0.4048202
0.030894473 0.079999998 0.028836047 0 0.25019264 0.4048202
0.030254204 0.079999998 0.028850805 0 0.25019264 0.4048202
0.029614139 0.079999998 0.028865252 0 0.25019264 0.4048202
0.028974274 0.079999998 0.028879389 0 0.25019264 0.4048202
0.028334606 0.079999998 0.028893216 0 0.25019264 0.4048202
0.027695132 0.079999998 0.028906731 0 0.25019264 0.4048202
0.027055845 0.079999998 0.028919935 0 0.25019264 0.4048202
0.026416739 0.079999998 0.02893283 0 0.25019264 0.4048202
0.025777813 0.079999998 0.028945416 0 0.25019264 0.4048202
0.025139062 0.079999998 0.028957691 0 0.25019264 0.4048202
0.024500482 0.079999998 0.028969659 0 0.25019264 0.4048202
0.023862066 0.079999998 0.028981315 0 0.25019264 0.4048202
0.023223812 0.079999998 0.028992664 0 0.25019264 0.4048202
0.022585714 0.079999998 0.029003702 0 0.25019264 0.4048202
0.021947769 0.079999998 0.029014433 0 0.25019264 0.4048202
0.021309974 0.079999998 0.029024856 0 0.25019264 0.4048202
0.020672321 0.079999998 0.029034968 0 0.25019264 0.4048202
0.020034811 0.079999998 0.029044775 0 0.25019264 0.4048202
0.019397432 0.079999998 0.029054273 0 0.25019264 0.4048202
0.018760186 0.079999998 0.029063463 0 0.25019264 0.4048202
0.018123066 0.079999998 0.029072344 0 0.25019264 0.4048202
0.017486069 0.079999998 0.02908092 0 0.25019264 0.4048202
0.01684919 0.079999998 0.029089186 0 0.25019264 0.4048202
0.016212426 0.079999998 0.029097145 0 0.25019264 0.4048202
0.015575769 0.079999998 0.029104799 0 0.25019264 0.4048202
0.014939218 0.079999998 0.029112143 0 0.25019264 0.4048202
0.014302768 0.079999998 0.029119182 0 0.25019264 0.4048202
0.013666414 0.079999998 0.029125914 0 0.25019264 0.4048202
0.013030153 0.079999998 0.02913234 0 0.25019264 0.4048202
0.012393978 0.079999998 0.029138457 0 0.25019264 0.4048202
0.011757888 0.079999998 0.02914427 0 0.25019264 0.4048202
0.011121877 0.079999998 0.029149774 0 0.25019264 0.4048202
0.010485942 0.079999998 0.029154975 0 0.25019264 0.4048202
0.0098500755 0.079999998 0.029159866 0 0.25019264 0.4048202
0.0092142764 0.079999998 0.029164454 0 0.25019264 0.4048202
0.0085785398 0.079999998 0.029168734 0 0.25019264 0.4048202
0.0079428609 0.079999998 0.029172709 0 0.25019264 0.4048202
0.0073072352 0.079999998 0.029176377 0 0.25019264 0.4048202
0.0066716583 0.079999998 0.029179741 0 0.25019264 0.4048202
0.006036127 0.079999998 0.029182797 0 0.25019264 0.4048202
0.0054006362 0.079999998 0.029185548 0 0.25019264 0.4048202
0.0047651813 0.079999998 0.029187992 0 0.25019264 0.4048202
0.004129759 0.079999998 0.029190132 0 0.25019264 0.4048202
0.0034943644 0.079999998 0.029191967 0 0.25019264 0.4048202
0.0028589934 0.079999998 0.029193494 0 0.25019264 0.4048202
0.0022236416 0.079999998 0.029194716 0 0.25019264 0.4048202
0.0015883048 0.079999998 0.029195633 0 0.25019264 0.4048202
0.00095297856 0.079999998 0.029196246 0 0.25019264 0.4048202
0.00031765882 0.079999998 0.029196551 0 0.25019264 0.4048202
0.039366502 0.079999998 0.027047355 0 0.25019264 0.4048202
0.038721044 0.079999998 0.027066536 0 0.25019264 0.4048202
0.038075849 0.079999998 0.027085396 0 0.25019264 0.4048202
0.037430916 0.079999998 0.027103936 0 0.25019264 0.4048202
0.036786236 0.079999998 0.027122159 0 0.25019264 0.4048202
0.036141809 0.079999998 0.027140059 0 0.25019264 0.4048202
0.035497632 0.079999998 0.02715764 0 0.25019264 0.4048202
0.034853693 0.079999998 0.027174903 0 0.25019264 0.4048202
0.034209993 0.079999998 0.027191848 0 0.25019264 0.4048202
0.033566527 0.079999998 0.027208472 0 0.25019264 0.4048202
0.032923289 0.079999998 0.027224779 0 0.25019264 0.4048202
0.032280277 0.079999998 0.027240768 0 0.25019264 0.4048202
0.031637486 0.079999998 0.02725644 0 0.25019264 0.4048202
0.030994909 0.079999998 0.027271794 0 0.25019264 0.4048202
0.030352544 0.079999998 0.027286831 0 0.25019264 0.4048202
0.029710384 0.079999998 0.02730155 0 0.25019264 0.4048202
0.029068427 0.079999998 0.027315954 0 0.25019264 0.4048202
0.02842667 0.079999998 0.027330039 0 0.25019264 0.4048202
0.027785104 0.079999998 0.02734381 0 0.25019264 0.4048202
0.027143728 0.079999998 0.027357263 0 0.25019264 0.4048202
0.026502537 0.079999998 0.027370403 0 0.25019264 0.4048202
0.025861524 0.079999998 0.027383225 0 0.25019264 0.4048202
0.025220688 0.079999998 0.027395731 0 0.25019264 0.4048202
0.024580024 0.079999998 0.027407924 0 0.25019264 0.4048202
0.023939528 0.079999998 0.0274198 0 0.25019264 0.4048202
0.023299193 0.079999998 0.027431361 0 0.25019264 0.4048202
0.022659017 0.079999998 0.02744261 0 0.25019264 0.4048202
0.022018995 0.079999998 0.027453542 0 0.25019264 0.4048202
0.021379121 0.079999998 0.027464161 0 0.25019264 0.4048202
0.020739393 0.079999998 0.027474465 0 0.25019264 0.4048202
0.020099806 0.079999998 0.027484456 0 0.25019264 0.4048202
0.019460356 0.079999998 0.027494133 0 0.25019264 0.4048202
0.018821036 0.079999998 0.027503494 0 0.25019264 0.4048202
0.018181846 0.079999998 0.027512545 0 0.25019264 0.4048202
0.017542778 0.079999998 0.027521281 0 0.25019264 0.4048202
0.016903829 0.079999998 0.027529703 0 0.25019264 0.4048202
0.016264994 0.079999998 0.027537813 0 0.25019264 0.4048202
0.015626268 0.079999998 0.027545609 0 0.25019264 0.4048202
0.014987651 0.079999998 0.027553093 0 0.25019264 0.4048202
0.014349134 0.079999998 0.027560264 0 0.25019264 0.4048202
0.013710714 0.079999998 0.027567122 0 0.25019264 0.4048202
0.013072387 0.079999998 0.027573669 0 0.25019264 0.4048202
0.012434149 0.079999998 0.027579902 0 0.25019264 0.4048202
0.011795995 0.079999998 0.027585823 0 0.25019264 0.4048202
0.011157921 0.079999998 0.027591433 0 0.25019264 0.4048202
0.010519922 0.079999998 0.027596731 0 0.25019264 0.4048202
0.0098819947 0.079999998 0.027601715 0 0.25019264 0.4048202
0.0092441337 0.079999998 0.027606389 0 0.25019264 0.4048202
0.0086063361 0.079999998 0.027610749 0 0.25019264 0.4048202
0.0079685953 0.079999998 0.027614798 0 0.25019264 0.4048202
0.0073309098 0.079999998 0.027618537 0 0.25019264 0.4048202
0.0066932733 0.079999998 0.027621962 0 0.25019264 0.4048202
0.0060556824 0.079999998 0.027625076 0 0.25019264 0.4048202
0.0054181321 0.079999998 0.02762788 0 0.25019264 0.4048202
0.0047806185 0.079999998 0.02763037 0 0.25019264 0.4048202
0.0041431375 0.079999998 0.027632549 0 0.25019264 0.4048202
0.0035056842 0.079999998 0.027634418 0 0.25019264 0.4048202
0.0028682547 0.079999998 0.027635975 0 0.25019264 0.4048202
0.0022308447 0.079999998 0.027637221 0 0.25019264 0.4048202
0.0015934497 0.079999998 0.027638154 0 0.25019264 0.4048202
0.00095606549 0.079999998 0.027638778 0 0.25019264 0.4048202
0.00031868779 0.079999998 0.027639089 0 0.25019264 0.4048202
0.039495233 0.079999998 0.025468051 0 0.25019264 0.4048202
0.03884764 0.079999998 0.025487592 0 0.25019264 0.4048202
0.038200315 0.079999998 0.025506807 0 0.25019264 0.4048202
0.037553247 0.079999998 0.025525697 0 0.25019264 0.4048202
0.036906444 0.079999998 0.025544258 0 0.25019264 0.4048202
0.03625989 0.079999998 0.025562495 0 0.25019264 0.4048202
0.035613585 0.079999998 0.025580406 0 0.25019264 0.4048202
0.034967523 0.079999998 0.025597991 0 0.25019264 0.4048202
0.034321703 0.079999998 0.025615253 0 0.25019264 0.4048202
0.033676118 0.079999998 0.02563219 0 0.25019264 0.4048202
0.033030763 0.079999998 0.025648803 0 0.25019264 0.4048202
0.032385636 0.079999998 0.025665091 0 0.25019264 0.4048202
0.031740729 0.079999998 0.025681056 0 0.25019264 0.4048202
0.031096041 0.079999998 0.025696697 0 0.25019264 0.4048202
0.030451564 0.079999998 0.025712015 0 0.25019264 0.4048202
0.029807298 0.079999998 0.025727011 0 0.25019264 0.4048202
0.029163234 0.079999998 0.025741683 0 0.25019264 0.4048202
0.028519368 0.079999998 0.025756033 0 0.25019264 0.4048202
0.027875699 0.079999998 0.025770063 0 0.25019264 0.4048202
0.02723222 0.079999998 0.025783768 0 0.25019264 0.4048202
0.026588926 0.079999998 0.025797153 0 0.25019264 0.4048202
0.025945814 0.079999998 0.025810216 0 0.25019264 0.4048202
0.025302881 0.079999998 0.025822956 0 0.25019264 0.4048202
0.02466012 0.079999998 0.025835376 0 0.25019264 0.4048202
0.024017526 0.079999998 0.025847476 0 0.25019264 0.4048202
0.023375096 0.079999998 0.025859253 0 0.25019264 0.4048202
0.022732826 0.079999998 0.025870711 0 0.25019264 0.4048202
0.022090711 0.079999998 0.025881849 0 0.25019264 0.4048202
0.021448746 0.079999998 0.025892666 0 0.25019264 0.4048202
0.020806929 0.079999998 0.025903163 0 0.25019264 0.4048202
0.020165252 0.079999998 0.025913341 0 0.25019264 0.4048202
0.019523714 0.079999998 0.025923198 0 0.25019264 0.4048202
0.018882308 0.079999998 0.025932737 0 0.25019264 0.4048202
0.018241029 0.079999998 0.025941955 0 0.25019264 0.4048202
0.017599877 0.079999998 0.025950855 0 0.25019264 0.4048202
0.016958844 0.079999998 0.025959434 0 0.25019264 0.4048202
0.016317926 0.079999998 0.025967697 0 0.25019264 0.4048202
0.015677119 0.079999998 0.025975639 0 0.25019264 0.4048202
0.015036419 0.079999998 0.025983263 0 0.25019264 0.4048202
0.014395821 0.079999998 0.025990568 0 0.25019264 0.4048202
0.013755321 0.079999998 0.025997555 0 0.25019264 0.4048202
0.013114914 0.079999998 0.026004223 0 0.25019264 0.4048202
0.012474597 0.079999998 0.026010573 0 0.25019264 0.4048202
0.011834365 0.079999998 0.026016606 0 0.25019264 0.4048202
0.011194213 0.079999998 0.026022321 0 0.25019264 0.4048202
0.010554138 0.079999998 0.026027717 0 0.25019264 0.4048202
0.0099141337 0.079999998 0.026032794 0 0.25019264 0.4048202
0.0092741968 0.079999998 0.026037555 0 0.25019264 0.4048202
0.0086343233 0.079999998 0.026041998 0 0.25019264 0.4048202
0.0079945084 0.079999998 0.026046123 0 0.25019264 0.4048202
0.007354748 0.079999998 0.026049931 0 0.25019264 0.4048202
0.0067150374 0.079999998 0.026053419 0 0.25019264 0.4048202
0.0060753725 0.079999998 0.026056593 0 0.25019264 0.4048202
0.005435749 0.079999998 0.026059449 0 0.25019264 0.4048202
0.0047961622 0.079999998 0.026061986 0 0.25019264 0.4048202
0.0041566081 0.079999998 0.026064206 0 0.25019264 0.4048202
0.003517082 0.079999998 0.02606611 0 0.25019264 0.4048202
0.00287758 0.079999998 0.026067695 0 0.25019264 0.4048202
0.0022380976 0.079999998 0.026068965 0 0.25019264 0.4048202
0.0015986302 0.079999998 0.026069915 0 0.25019264 0.4048202
0.00095917378 0.079999998 0.02607055 0 0.25019264 0.4048202
0.00031972388 0.079999998 0.026070867 0 0.25019264 0.4048202
0.039624862 0.079999998 0.023877732 0 0.25019264 0.4048202
0.03897512 0.079999998 0.023897639 0 0.25019264 0.4048202
0.038325645 0.079999998 0.023917211 0 0.25019264 0.4048202
0.037676435 0.079999998 0.02393645 0 0.25019264 0.4048202
0.037027486 0.079999998 0.023955358 0 0.25019264 0.4048202
0.03637879 0.079999998 0.023973934 0 0.25019264 0.4048202
0.035730347 0.079999998 0.023992179 0 0.25019264 0.4048202
0.03508215 0.079999998 0.024010092 0 0.25019264 0.4048202
0.034434192 0.079999998 0.024027675 0 0.25019264 0.4048202
0.033786472 0.079999998 0.024044927 0 0.25019264 0.4048202
0.033138987 0.079999998 0.024061849 0 0.25019264 0.4048202
0.032491729 0.079999998 0.024078442 0 0.25019264 0.4048202
0.031844694 0.079999998 0.024094703 0 0.25019264 0.4048202
0.031197878 0.079999998 0.024110636 0 0.25019264 0.4048202
0.030551275 0.079999998 0.024126239 0 0.25019264 0.4048202
0.029904885 0.079999998 0.024141515 0 0.25019264 0.4048202
0.029258698 0.079999998 0.024156461 0 0.25019264 0.4048202
0.028612712 0.079999998 0.024171077 0 0.25019264 0.4048202
0.027966924 0.079999998 0.024185365 0 0.25019264 0.4048202
0.027321327 0.079999998 0.024199327 0 0.25019264 0.4048202
0.026675917 0.079999998 0.02421296 0 0.25019264 0.4048202
0.026030691 0.079999998 0.024226265 0 0.25019264 0.4048202
0.025385644 0.079999998 0.024239244 0 0.25019264 0.4048202
0.02474077 0.079999998 0.024251895 0 0.25019264 0.4048202
0.024096066 0.079999998 0.02426422 0 0.25019264 0.4048202
0.023451528 0.079999998 0.024276217 0 0.25019264 0.4048202
0.022807149 0.079999998 0.024287889 0 0.25019264 0.4048202
0.022162927 0.079999998 0.024299232 0 0.25019264 0.4048202
0.021518856 0.079999998 0.024310252 0 0.25019264 0.4048202
0.020874932 0.079999998 0.024320943 0 0.25019264 0.4048202
0.020231154 0.079999998 0.024331311 0 0.25019264 0.4048202
0.019587511 0.079999998 0.02434135 0 0.25019264 0.4048202
0.018944005 0.079999998 0.024351066 0 0.25019264 0.4048202
0.018300626 0.079999998 0.024360457 0 0.25019264 0.4048202
0.017657373 0.079999998 0.024369521 0 0.25019264 0.4048202
0.017014241 0.079999998 0.024378262 0 0.25019264 0.4048202
0.016371226 0.079999998 0.024386676 0 0.25019264 0.4048202
0.015728321 0.079999998 0.024394767 0 0.25019264 0.4048202
0.015085525 0.079999998 0.024402533 0 0.25019264 0.4048202
0.014442831 0.079999998 0.024409974 0 0.25019264 0.4048202
0.013800237 0.079999998 0.024417091 0 0.25019264 0.4048202
0.013157737 0.079999998 0.024423882 0 0.25019264 0.4048202
0.012515327 0.079999998 0.024430351 0 0.25019264 0.4048202
0.011873001 0.079999998 0.024436496 0 0.25019264 0.4048202
0.011230757 0.079999998 0.024442315 0 0.25019264 0.4048202
0.010588591 0.079999998 0.024447812 0 0.25019264 0.4048202
0.0099464962 0.079999998 0.024452984 0 0.25019264 0.4048202
0.0093044695 0.079999998 0.024457835 0 0.25019264 0.4048202
0.008662506 0.079999998 0.024462359 0 0.25019264 0.4048202
0.0080206012 0.079999998 0.024466561 0 0.25019264 0.4048202
0.0073787519 0.079999998 0.024470439 0 0.25019264 0.4048202
0.0067369528 0.079999998 0.024473995 0 0.25019264 0.4048202
0.0060951994 0.079999998 0.024477227 0 0.25019264 0.4048202
0.0054534879 0.079999998 0.024480134 0 0.25019264 0.4048202
0.0048118136 0.079999998 0.02448272 0 0.25019264 0.4048202
0.0041701719 0.079999998 0.024484981 0 0.25019264 0.4048202
0.0035285589 0.079999998 0.02448692 0 0.25019264 0.4048202
0.0028869701 0.079999998 0.024488535 0 0.25019264 0.4048202
0.0022454006 0.079999998 0.024489827 0 0.25019264 0.4048202
0.0016038467 0.079999998 0.024490796 0 0.25019264 0.4048202
0.00096230366 0.079999998 0.024491442 0 0.25019264 0.4048202
0.00032076714 0.079999998 0.024491766 0 0.25019264 0.4048202
0.0397554 0.079999998 0.022276275 0 0.25019264 0.4048202
0.039103493 0.079999998 0.022296548 0 0.25019264 0.4048202
0.038451854 0.079999998 0.022316482 0 0.25019264 0.4048202
0.037800483 0.079999998 0.022336079 0 0.25019264 0.4048202
0.037149377 0.079999998 0.022355337 0 0.25019264 0.4048202
0.036498524 0.079999998 0.022374256 0 0.25019264 0.4048202
0.035847925 0.079999998 0.022392839 0 0.25019264 0.4048202
0.035197575 0.079999998 0.022411084 0 0.25019264 0.4048202
0.034547467 0.079999998 0.022428991 0 0.25019264 0.4048202
0.033897601 0.079999998 0.022446563 0 0.25019264 0.4048202
0.033247966 0.079999998 0.022463799 0 0.25019264 0.4048202
0.032598563 0.079999998 0.022480696 0 0.25019264 0.4048202
0.031949382 0.079999998 0.022497259 0 0.25019264 0.4048202
0.031300426 0.079999998 0.022513486 0 0.25019264 0.4048202
0.030651685 0.079999998 0.022529379 0 0.25019264 0.4048202
0.030003153 0.079999998 0.022544937 0 0.25019264 0.4048202
0.029354831 0.079999998 0.022560159 0 0.25019264 0.4048202
0.028706709 0.079999998 0.022575047 0 0.25019264 0.4048202
0.028058788 0.079999998 0.0225896 0 0.25019264 0.4048202
0.027411057 0.079999998 0.022603819 0 0.25019264 0.4048202
0.026763517 0.079999998 0.022617703 0 0.25019264 0.4048202
0.026116161 0.079999998 0.022631256 0 0.25019264 0.4048202
0.025468985 0.079999998 0.022644473 0 0.25019264 0.4048202
0.024821984 0.079999998 0.022657359 0 0.25019264 0.4048202
0.024175154 0.079999998 0.022669911 0 0.25019264 0.4048202
0.023528492 0.079999998 0.02268213 0 0.25019264 0.4048202
0.02288199 0.079999998 0.022694018 0 0.25019264 0.4048202
0.022235645 0.079999998 0.022705572 0 0.25019264 0.4048202
0.021589454 0.079999998 0.022716794 0 0.25019264 0.4048202
0.020943413 0.079999998 0.022727683 0 0.25019264 0.4048202
0.020297514 0.079999998 0.022738243 0 0.25019264 0.4048202
0.019651754 0.079999998 0.022748468 0 0.25019264 0.4048202
0.019006131 0.079999998 0.022758365 0 0.25019264 0.4048202
0.018360637 0.079999998 0.022767927 0 0.25019264 0.4048202
0.01771527 0.079999998 0.022777161 0 0.25019264 0.4048202
0.017070025 0.079999998 0.022786062 0 0.25019264 0.4048202
0.016424896 0.079999998 0.022794632 0 0.25019264 0.4048202
0.015779881 0.079999998 0.022802873 0 0.25019264 0.4048202
0.015134973 0.079999998 0.022810781 0 0.25019264 0.4048202
0.01449017 0.079999998 0.02281836 0 0.25019264 0.4048202
0.013845466 0.079999998 0.022825608 0 0.25019264 0.4048202
0.013200858 0.079999998 0.022832526 0 0.25019264 0.4048202
0.01255634 0.079999998 0.022839114 0 0.25019264 0.4048202
0.011911907 0.079999998 0.022845373 0 0.25019264 0.4048202
0.011267557 0.079999998 0.022851299 0 0.25019264 0.4048202
0.010623284 0.079999998 0.022856897 0 0.25019264 0.4048202
0.0099790841 0.079999998 0.022862166 0 0.25019264 0.4048202
0.0093349516 0.079999998 0.022867104 0 0.25019264 0.4048202
0.0086908843 0.079999998 0.022871714 0 0.25019264 0.4048202
0.0080468757 0.079999998 0.022875993 0 0.25019264 0.4048202
0.007402923 0.079999998 0.022879943 0 0.25019264 0.4048202
0.0067590205 0.079999998 0.022883564 0 0.25019264 0.4048202
0.0061151646 0.079999998 0.022886856 0 0.25019264 0.4048202
0.0054713506 0.079999998 0.022889817 0 0.25019264 0.4048202
0.0048275744 0.079999998 0.022892449 0 0.25019264 0.4048202
0.0041838307 0.079999998 0.022894753 0 0.25019264 0.4048202
0.0035401159 0.079999998 0.022896728 0 0.25019264 0.4048202
0.0028964253 0.079999998 0.022898372 0 0.25019264 0.4048202
0.0022527548 0.079999998 0.022899689 0 0.25019264 0.4048202
0.0016090994 0.079999998 0.022900676 0 0.25019264 0.4048202
0.00096545526 0.079999998 0.022901334 0 0.25019264 0.4048202
0.0003218177 0.079999998 0.022901664 0 0.25019264 0.4048202
0.039886855 0.079999998 0.02066355 0 0.25019264 0.4048202
0.039232768 0.079999998 0.020684196 0 0.25019264 0.4048202
0.038578954 0.079999998 0.020704497 0 0.25019264 0.4048202
0.037925407 0.079999998 0.020724455 0 0.25019264 0.4048202
0.037272122 0.079999998 0.020744067 0 0.25019264 0.4048202
0.036619101 0.079999998 0.020763334 0 0.25019264 0.4048202
0.035966333 0.079999998 0.020782258 0 0.25019264 0.4048202
0.035313811 0.079999998 0.02080084 0 0.25019264 0.4048202
0.034661539 0.079999998 0.020819077 0 0.25019264 0.4048202
0.034009509 0.079999998 0.020836972 0 0.25019264 0.4048202
0.03335771 0.079999998 0.020854523 0 0.25019264 0.4048202
0.032706145 0.079999998 0.020871732 0 0.25019264 0.4048202
0.032054808 0.079999998 0.0208886 0 0.25019264 0.4048202
0.031403694 0.079999998 0.020905126 0 0.25019264 0.4048202
0.030752797 0.079999998 0.02092131 0 0.25019264 0.4048202
0.030102113 0.079999998 0.020937154 0 0.25019264 0.4048202
0.029451637 0.079999998 0.020952657 0 0.25019264 0.4048202
0.028801367 0.079999998 0.020967817 0 0.25019264 0.4048202
0.028151294 0.079999998 0.020982638 0 0.25019264 0.4048202
0.027501417 0.079999998 0.020997118 0 0.25019264 0.4048202
0.02685173 0.079999998 0.021011259 0 0.25019264 0.4048202
0.02620223 0.079999998 0.02102506 0 0.25019264 0.4048202
0.02555291 0.079999998 0.021038521 0 0.25019264 0.4048202
0.024903769 0.079999998 0.021051643 0 0.25019264 0.4048202
0.024254797 0.079999998 0.021064427 0 0.25019264 0.4048202
0.023605995 0.079999998 0.021076871 0 0.25019264 0.4048202
0.022957355 0.079999998 0.021088976 0 0.25019264 0.4048202
0.022308875 0.079999998 0.021100743 0 0.25019264 0.4048202
0.021660548 0.079999998 0.02111217 0 0.25019264 0.4048202
0.021012371 0.079999998 0.02112326 0 0.25019264 0.4048202
0.020364339 0.079999998 0.021134013 0 0.25019264 0.4048202
0.019716447 0.079999998 0.021144427 0 0.25019264 0.4048202
0.019068692 0.079999998 0.021154504 0 0.25019264 0.4048202
0.018421069 0.079999998 0.021164244 0 0.25019264 0.4048202
0.017773572 0.079999998 0.021173647 0 0.25019264 0.4048202
0.017126199 0.079999998 0.021182712 0 0.25019264 0.4048202
0.016478943 0.079999998 0.021191439 0 0.25019264 0.4048202
0.015831802 0.079999998 0.02119983 0 0.25019264 0.4048202
0.015184768 0.079999998 0.021207886 0 0.25019264 0.4048202
0.01453784 0.079999998 0.021215603 0 0.25019264 0.4048202
0.013891012 0.079999998 0.021222984 0 0.25019264 0.4048202
0.013244281 0.079999998 0.021230029 0 0.25019264 0.4048202
0.012597639 0.079999998 0.021236738 0 0.25019264 0.4048202
0.011951085 0.079999998 0.02124311 0 0.25019264 0.4048202
0.011304614 0.079999998 0.021249147 0 0.25019264 0.4048202
0.01065822 0.079999998 0.021254849 0 0.25019264 0.4048202
0.010011899 0.079999998 0.021260213 0 0.25019264 0.4048202
0.009365648 0.079999998 0.021265242 0 0.25019264 0.4048202
0.008719461 0.079999998 0.021269936 0 0.25019264 0.4048202
0.0080733346 0.079999998 0.021274295 0 0.25019264 0.4048202
0.0074272631 0.079999998 0.021278318 0 0.25019264 0.4048202
0.0067812428 0.079999998 0.021282004 0 0.25019264 0.4048202
0.0061352695 0.079999998 0.021285355 0 0.25019264 0.4048202
0.0054893382 0.079999998 0.021288373 0 0.25019264 0.4048202
0.004843445 0.079999998 0.021291053 0 0.25019264 0.4048202
0.0041975849 0.079999998 0.0212934 0 0.25019264 0.4048202
0.0035517537 0.079999998 0.02129541 0 0.25019264 0.4048202
0.0029059469 0.079999998 0.021297086 0 0.25019264 0.4048202
0.0022601602 0.079999998 0.021298425 0 0.25019264 0.4048202
0.001614389 0.079999998 0.021299431 0 0.25019264 0.4048202
0.00096862897 0.079999998 0.021300102 0 0.25019264 0.4048202
0.0003228756 0.079999998 0.021300437 0 0.25019264 0.4048202
0.039362956 0.079999998 0.019060455 0 0.25019264 0.4048202
0.038706947 0.079999998 0.019081129 0 0.25019264 0.4048202
0.03805121 0.079999998 0.01910145 0 0.25019264 0.4048202
0.037395738 0.079999998 0.019121422 0 0.25019264 0.4048202
0.036740527 0.079999998 0.019141043 0 0.25019264 0.4048202
0.036085572 0.079999998 0.019160314 0 0.25019264 0.4048202
0.035430871 0.079999998 0.019179234 0 0.25019264 0.4048202
0.034776416 0.079999998 0.019197805 0 0.25019264 0.4048202
0.034122203 0.079999998 0.019216027 0 0.25019264 0.4048202
0.033468232 0.079999998 0.019233899 0 0.25019264 0.4048202
0.032814488 0.079999998 0.019251423 0 0.25019264 0.4048202
0.032160979 0.079999998 0.0192686 0 0.25019264 0.4048202
0.03150769 0.079999998 0.019285427 0 0.25019264 0.4048202
0.030854622 0.079999998 0.019301908 0 0.25019264 0.4048202
0.030201769 0.079999998 0.01931804 0 0.25019264 0.4048202
0.029549126 0.079999998 0.019333826 0 0.25019264 0.4048202
0.028896689 0.079999998 0.019349264 0 0.25019264 0.4048202
0.028244453 0.079999998 0.019364357 0 0.25019264 0.4048202
0.027592413 0.079999998 0.019379102 0 0.25019264 0.4048202
0.026940566 0.079999998 0.019393502 0 0.25019264 0.4048202
0.026288904 0.079999998 0.019407554 0 0.25019264 0.4048202
0.025637427 0.079999998 0.019421261 0 0.25019264 0.4048202
0.024986127 0.079999998 0.019434623 0 0.25019264 0.4048202
0.024335001 0.079999998 0.01944764 0 0.25019264 0.4048202
0.023684043 0.079999998 0.019460311 0 0.25019264 0.4048202
0.023033252 0.079999998 0.019472638 0 0.25019264 0.4048202
0.022382619 0.079999998 0.019484619 0 0.25019264 0.4048202
0.021732142 0.079999998 0.019496256 0 0.25019264 0.4048202
0.021081815 0.079999998 0.01950755 0 0.25019264 0.4048202
0.020431634 0.079999998 0.019518498 0 0.25019264 0.4048202
0.019781597 0.079999998 0.019529102 0 0.25019264 0.4048202
0.019131696 0.079999998 0.019539364 0 0.25019264 0.4048202
0.018481927 0.079999998 0.01954928 0 0.25019264 0.4048202
0.017832285 0.079999998 0.019558854 0 0.25019264 0.4048202
0.017182769 0.079999998 0.019568086 0 0.25019264 0.4048202
0.016533371 0.079999998 0.019576972 0 0.25019264 0.4048202
0.015884086 0.079999998 0.019585518 0 0.25019264 0.4048202
0.015234914 0.079999998 0.019593719 0 0.25019264 0.4048202
0.014585846 0.079999998 0.019601578 0 0.25019264 0.4048202
0.013936879 0.079999998 0.019609094 0 0.25019264 0.4048202
0.013288008 0.079999998 0.019616269 0 0.25019264 0.4048202
0.01263923 0.079999998 0.019623099 0 0.25019264 0.4048202
0.011990539 0.079999998 0.019629588 0 0.25019264 0.4048202
0.011341931 0.079999998 0.019635735 0 0.25019264 0.4048202
0.010693401 0.079999998 0.019641541 0 0.25019264 0.4048202
0.010044946 0.079999998 0.019647004 0 0.25019264 0.4048202
0.0093965605 0.079999998 0.019652124 0 0.25019264 0.4048202
0.0087482389 0.079999998 0.019656904 0 0.25019264 0.4048202
0.0080999788 0.079999998 0.019661341 0 0.25019264 0.4048202
0.0074517746 0.079999998 0.019665437 0 0.25019264 0.4048202
0.0068036215 0.079999998 0.019669192 0 0.25019264 0.4048202
0.0061555156 0.079999998 0.019672604 0 0.25019264 0.4048202
0.0055074524 0.079999998 0.019675676 0 0.25019264 0.4048202
0.004859427 0.079999998 0.019678406 0 0.25019264 0.4048202
0.0042114356 0.079999998 0.019680794 0 0.25019264 0.4048202
0.0035634732 0.079999998 0.019682843 0 0.25019264 0.4048202
0.0029155354 0.079999998 0.019684549 0 0.25019264 0.4048202
0.0022676177 0.079999998 0.019685913 0 0.25019264 0.4048202
0.0016197157 0.079999998 0.019686937 0 0.25019264 0.4048202
0.00097182498 0.079999998 0.019687619 0 0.25019264 0.4048202
0.00032394091 0.079999998 0.01968796 0 0.25019264 0.4048202
0.039494067 0.079999998 0.0174252 0 0.25019264 0.4048202
0.03883585 0.079999998 0.017446248 0 0.25019264 0.4048202
0.038177904 0.079999998 0.01746694 0 0.25019264 0.4048202
0.037520226 0.079999998 0.017487274 0 0.25019264 0.4048202
0.036862813 0.079999998 0.017507251 0 0.25019264 0.4048202
0.036205657 0.079999998 0.017526872 0 0.25019264 0.4048202
0.035548758 0.079999998 0.017546138 0 0.25019264 0.4048202
0.034892105 0.079999998 0.017565046 0 0.25019264 0.4048202
0.034235697 0.079999998 0.017583599 0 0.25019264 0.4048202
0.033579532 0.079999998 0.017601797 0 0.25019264 0.4048202
0.032923598 0.079999998 0.01761964 0 0.25019264 0.4048202
0.032267898 0.079999998 0.017637128 0 0.25019264 0.4048202
0.031612422 0.079999998 0.017654262 0 0.25019264 0.4048202
0.030957168 0.079999998 0.017671043 0 0.25019264 0.4048202
0.030302132 0.079999998 0.017687468 0 0.25019264 0.4048202
0.029647306 0.079999998 0.017703541 0 0.25019264 0.4048202
0.028992686 0.079999998 0.017719259 0 0.25019264 0.4048202
0.02833827 0.079999998 0.017734626 0 0.25019264 0.4048202
0.027684053 0.079999998 0.017749639 0 0.25019264 0.4048202
0.027030028 0.079999998 0.0177643 0 0.25019264 0.4048202
0.026376193 0.079999998 0.017778609 0 0.25019264 0.4048202
0.025722541 0.079999998 0.017792566 0 0.25019264 0.4048202
0.025069069 0.079999998 0.017806169 0 0.25019264 0.4048202
0.024415772 0.079999998 0.017819423 0 0.25019264 0.4048202
0.023762645 0.079999998 0.017832324 0 0.25019264 0.4048202
0.023109684 0.079999998 0.017844874 0 0.25019264 0.4048202
0.022456884 0.079999998 0.017857075 0 0.25019264 0.4048202
0.021804241 0.079999998 0.017868923 0 0.25019264 0.4048202
0.021151749 0.079999998 0.017880421 0 0.25019264 0.4048202
0.020499406 0.079999998 0.017891569 0 0.25019264 0.4048202
0.019847205 0.079999998 0.017902365 0 0.25019264 0.4048202
0.019195141 0.079999998 0.017912813 0 0.25019264 0.4048202
0.018543214 0.079999998 0.01792291 0 0.25019264 0.4048202
0.017891413 0.079999998 0.017932659 0 0.25019264 0.4048202
0.017239738 0.079999998 0.017942056 0 0.25019264 0.4048202
0.016588181 0.079999998 0.017951105 0 0.25019264 0.4048202
0.015936742 0.079999998 0.017959805 0 0.25019264 0.4048202
0.015285413 0.079999998 0.017968155 0 0.25019264 0.4048202
0.01463419 0.079999998 0.017976157 0 0.25019264 0.4048202
0.013983069 0.079999998 0.017983809 0 0.25019264 0.4048202
0.013332045 0.079999998 0.017991114 0 0.25019264 0.4048202
0.012681114 0.079999998 0.01799807 0 0.25019264 0.4048202
0.012030271 0.079999998 0.018004676 0 0.25019264 0.4048202
0.011379512 0.079999998 0.018010935 0 0.25019264 0.4048202
0.010728831 0.079999998 0.018016845 0 0.25019264 0.4048202
0.010078226 0.079999998 0.018022407 0 0.25019264 0.4048202
0.0094276899 0.079999998 0.018027622 0 0.25019264 0.4048202
0.0087772198 0.079999998 0.018032487 0 0.25019264 0.4048202
0.0081268111 0.079999998 0.018037006 0 0.25019264 0.4048202
0.0074764583 0.079999998 0.018041177 0 0.25019264 0.4048202
0.0068261577 0.079999998 0.018044999 0 0.25019264 0.4048202
0.0061759045 0.079999998 0.018048475 0 0.25019264 0.4048202
0.0055256942 0.079999998 0.018051602 0 0.25019264 0.4048202
0.0048755221 0.079999998 0.018054381 0 0.25019264 0.4048202
0.004225384 0.079999998 0.018056814 0 0.25019264 0.4048202
0.0035752754 0.079999998 0.018058898 0 0.25019264 0.4048202
0.0029251915 0.079999998 0.018060634 0 0.25019264 0.4048202
0.0022751279 0.079999998 0.018062023 0 0.25019264 0.4048202
0.00162508 0.079999998 0.018063067 0 0.25019264 0.4048202
0.00097504351 0.079999998 0.018063761 0 0.25019264 0.4048202
0.00032501374 0.079999998 0.01806411 0 0.25019264 0.4048202
0.039626114 0.079999998 0.015778294 0 0.25019264 0.4048202
0.038965669 0.079999998 0.015799724 0 0.25019264 0.4048202
0.038305502 0.079999998 0.01582079 0 0.25019264 0.4048202
0.037645604 0.079999998 0.015841492 0 0.25019264 0.4048202
0.036985971 0.079999998 0.015861832 0 0.25019264 0.4048202
0.036326598 0.079999998 0.015881807 0 0.25019264 0.4048202
0.035667483 0.079999998 0.01590142 0 0.25019264 0.4048202
0.03500862 0.079999998 0.015920671 0 0.25019264 0.4048202
0.03435 0.079999998 0.01593956 0 0.25019264 0.4048202
0.033691626 0.079999998 0.015958086 0 0.25019264 0.4048202
0.033033486 0.079999998 0.015976252 0 0.25019264 0.4048202
0.032375578 0.079999998 0.015994057 0 0.25019264 0.4048202
0.0317179 0.079999998 0.016011501 0 0.25019264 0.4048202
0.031060444 0.079999998 0.016028583 0 0.25019264 0.4048202
0.030403206 0.079999998 0.016045306 0 0.25019264 0.4048202
0.029746182 0.079999998 0.016061669 0 0.25019264 0.4048202
0.029089367 0.079999998 0.016077673 0 0.25019264 0.4048202
0.028432755 0.079999998 0.016093317 0 0.25019264 0.4048202
0.027776344 0.079999998 0.016108602 0 0.25019264 0.4048202
0.027120126 0.079999998 0.016123528 0 0.25019264 0.4048202
0.026464101 0.079999998 0.016138095 0 0.25019264 0.4048202
0.02580826 0.079999998 0.016152304 0 0.25019264 0.4048202
0.025152599 0.079999998 0.016166154 0 0.25019264 0.4048202
0.024497116 0.079999998 0.016179645 0 0.25019264 0.4048202
0.023841804 0.079999998 0.016192781 0 0.25019264 0.4048202
0.023186659 0.079999998 0.016205559 0 0.25019264 0.4048202
0.022531677 0.079999998 0.016217977 0 0.25019264 0.4048202
0.021876853 0.079999998 0.016230041 0 0.25019264 0.4048202
0.021222182 0.079999998 0.016241746 0 0.25019264 0.4048202
0.020567657 0.079999998 0.016253095 0 0.25019264 0.4048202
0.019913279 0.079999998 0.016264088 0 0.25019264 0.4048202
0.019259039 0.079999998 0.016274724 0 0.25019264 0.4048202
0.018604934 0.079999998 0.016285004 0 0.25019264 0.4048202
0.01795096 0.079999998 0.016294928 0 0.25019264 0.4048202
0.01729711 0.079999998 0.016304495 0 0.25019264 0.4048202
0.016643383 0.079999998 0.016313707 0 0.25019264 0.4048202
0.015989769 0.079999998 0.016322564 0 0.25019264 0.4048202
0.01533627 0.079999998 0.016331065 0 0.25019264 0.4048202
0.014682877 0.079999998 0.016339213 0 0.25019264 0.4048202
0.014029586 0.079999998 0.016347004 0 0.25019264 0.4048202
0.013376393 0.079999998 0.01635444 0 0.25019264 0.4048202
0.012723295 0.079999998 0.01636152 0 0.25019264 0.4048202
0.012070284 0.079999998 0.016368248 0 0.25019264 0.4048202
0.011417358 0.079999998 0.016374618 0 0.25019264 0.4048202
0.010764512 0.079999998 0.016380636 0 0.25019264 0.4048202
0.010111742 0.079999998 0.016386298 0 0.25019264 0.4048202
0.0094590411 0.079999998 0.016391607 0 0.25019264 0.4048202
0.0088064065 0.079999998 0.01639656 0 0.25019264 0.4048202
0.0081538334 0.079999998 0.016401161 0 0.25019264 0.4048202
0.0075013177 0.079999998 0.016405405 0 0.25019264 0.4048202
0.006848854 0.079999998 0.016409297 0 0.25019264 0.4048202
0.0061964379 0.079999998 0.016412836 0 0.25019264 0.4048202
0.0055440655 0.079999998 0.016416019 0 0.25019264 0.4048202
0.0048917313 0.079999998 0.016418848 0 0.25019264 0.4048202
0.0042394316 0.079999998 0.016421326 0 0.25019264 0.4048202
0.0035871612 0.079999998 0.016423447 0 0.25019264 0.4048202
0.0029349159 0.079999998 0.016425215 0 0.25019264 0.4048202
0.0022826912 0.079999998 0.01642663 0 0.25019264 0.4048202
0.0016304824 0.079999998 0.01642769 0 0.25019264 0.4048202
0.00097828486 0.079999998 0.016428398 0 0.25019264 0.4048202
0.00032609419 0.079999998 0.016428752 0 0.25019264 0.4048202
0.039759103 0.079999998 0.014119607 0 0.25019264 0.4048202
0.039096419 0.079999998 0.014141424 0 0.25019264 0.4048202
0.03843401 0.079999998 0.014162868 0 0.25019264 0.4048202
0.037771877 0.079999998 0.014183943 0 0.25019264 0.4048202
0.037110008 0.079999998 0.014204647 0 0.25019264 0.4048202
0.036448404 0.079999998 0.014224983 0 0.25019264 0.4048202
0.035787057 0.079999998 0.014244949 0 0.25019264 0.4048202
0.035125963 0.079999998 0.014264546 0 0.25019264 0.4048202
0.034465119 0.079999998 0.014283775 0 0.25019264 0.4048202
0.033804517 0.079999998 0.014302636 0 0.25019264 0.4048202
0.033144157 0.079999998 0.014321128 0 0.25019264 0.4048202
0.032484028 0.079999998 0.014339252 0 0.25019264 0.4048202
0.031824131 0.079999998 0.01435701 0 0.25019264 0.4048202
0.031164456 0.079999998 0.0143744 0 0.25019264 0.4048202
0.030505002 0.079999998 0.014391424 0 0.25019264 0.4048202
0.029845763 0.079999998 0.014408081 0 0.25019264 0.4048202
0.029186735 0.079999998 0.014424372 0 0.25019264 0.4048202
0.028527914 0.079999998 0.014440297 0 0.25019264 0.4048202
0.027869292 0.079999998 0.014455857 0 0.25019264 0.4048202
0.027210867 0.079999998 0.014471051 0 0.25019264 0.4048202
0.026552634 0.079999998 0.01448588 0 0.25019264 0.4048202
0.02589459 0.079999998 0.014500344 0 0.25019264 0.4048202
0.025236726 0.079999998 0.014514443 0 0.25019264 0.4048202
0.024579041 0.079999998 0.014528179 0 0.25019264 0.4048202
0.023921527 0.079999998 0.01454155 0 0.25019264 0.4048202
0.023264183 0.079999998 0.014554556 0 0.25019264 0.4048202
0.022607002 0.079999998 0.014567199 0 0.25019264 0.4048202
0.02194998 0.079999998 0.014579479 0 0.25019264 0.4048202
0.021293113 0.079999998 0.014591395 0 0.25019264 0.4048202
0.020636396 0.079999998 0.014602948 0 0.25019264 0.4048202
0.019979823 0.079999998 0.014614138 0 0.25019264 0.4048202
0.019323392 0.079999998 0.014624964 0 0.25019264 0.4048202
0.018667096 0.079999998 0.01463543 0 0.25019264 0.4048202
0.018010931 0.079999998 0.014645532 0 0.25019264 0.4048202
0.017354893 0.079999998 0.014655272 0 0.25019264 0.4048202
0.016698975 0.079999998 0.01466465 0 0.25019264 0.4048202
0.016043175 0.079999998 0.014673665 0 0.25019264 0.4048202
0.015387489 0.079999998 0.01468232 0 0.25019264 0.4048202
0.01473191 0.079999998 0.014690612 0 0.25019264 0.4048202
0.014076435 0.079999998 0.014698543 0 0.25019264 0.4048202
0.013421059 0.079999998 0.014706112 0 0.25019264 0.4048202
0.012765775 0.079999998 0.014713321 0 0.25019264 0.4048202
0.012110583 0.079999998 0.014720168 0 0.25019264 0.4048202
0.011455475 0.079999998 0.014726654 0 0.25019264 0.4048202
0.010800447 0.079999998 0.014732779 0 0.25019264 0.4048202
0.010145496 0.079999998 0.014738544 0 0.25019264 0.4048202
0.0094906148 0.079999998 0.014743947 0 0.25019264 0.4048202
0.0088358009 0.079999998 0.014748991 0 0.25019264 0.4048202
0.0081810486 0.079999998 0.014753672 0 0.25019264 0.4048202
0.0075263535 0.079999998 0.014757995 0 0.25019264 0.4048202
0.0068717115 0.079999998 0.014761956 0 0.25019264 0.4048202
0.0062171174 0.079999998 0.014765557 0 0.25019264 0.4048202
0.0055625672 0.079999998 0.014768798 0 0.25019264 0.4048202
0.004908056 0.079999998 0.014771678 0 0.25019264 0.4048202
0.0042535788 0.079999998 0.0147742 0 0.25019264 0.4048202
0.0035991317 0.079999998 0.014776359 0 0.25019264 0.4048202
0.0029447097 0.079999998 0.01477816 0 0.25019264 0.4048202
0.0022903082 0.079999998 0.014779599 0 0.25019264 0.4048202
0.0016359231 0.079999998 0.01478068 0 0.25019264 0.4048202
0.00098154927 0.079999998 0.0147814 0 0.25019264 0.4048202
0.00032718232 0.079999998 0.01478176 0 0.25019264 0.4048202
0.03989305 0.079999998 0.012449006 0 0.25019264 0.4048202
0.039228108 0.079999998 0.012471211 0 0.25019264 0.4048202
0.038563445 0.079999998 0.01249304 0 0.25019264 0.4048202
0.037899055 0.079999998 0.012514492 0 0.25019264 0.4048202
0.037234936 0.079999998 0.012535568 0 0.25019264 0.4048202
0.036571085 0.079999998 0.012556267 0 0.25019264 0.4048202
0.035907492 0.079999998 0.01257659 0 0.25019264 0.4048202
0.035244152 0.079999998 0.012596538 0 0.25019264 0.4048202
0.034581065 0.079999998 0.012616111 0 0.25019264 0.4048202
0.033918221 0.079999998 0.012635309 0 0.25019264 0.4048202
0.033255622 0.079999998 0.012654132 0 0.25019264 0.4048202
0.032593254 0.079999998 0.012672582 0 0.25019264 0.4048202
0.031931121 0.079999998 0.012690657 0 0.25019264 0.4048202
0.031269215 0.079999998 0.012708358 0 0.25019264 0.4048202
0.030607529 0.079999998 0.012725687 0 0.25019264 0.4048202
0.029946059 0.079999998 0.012742641 0 0.25019264 0.4048202
0.029284803 0.079999998 0.012759224 0 0.25019264 0.4048202
0.028623754 0.079999998 0.012775434 0 0.25019264 0.4048202
0.027962908 0.079999998 0.012791271 0 0.25019264 0.4048202
0.02730226 0.079999998 0.012806738 0 0.25019264 0.4048202
0.026641805 0.079999998 0.012821832 0 0.25019264 0.4048202
0.025981538 0.079999998 0.012836554 0 0.25019264 0.4048202
0.025321454 0.079999998 0.012850906 0 0.25019264 0.4048202
0.02466155 0.079999998 0.012864886 0 0.25019264 0.4048202
0.024001822 0.079999998 0.012878496 0 0.25019264 0.4048202
0.023342263 0.079999998 0.012891736 0 0.25019264 0.4048202
0.022682868 0.079999998 0.012904605 0 0.25019264 0.4048202
0.022023633 0.079999998 0.012917103 0 0.25019264 0.4048202
0.021364555 0.079999998 0.012929233 0 0.25019264 0.4048202
0.020705627 0.079999998 0.012940993 0 0.25019264 0.4048202
0.020046845 0.079999998 0.012952382 0 0.25019264 0.4048202
0.019388204 0.079999998 0.012963403 0 0.25019264 0.4048202
0.018729702 0.079999998 0.012974055 0 0.25019264 0.4048202
0.018071331 0.079999998 0.012984337 0 0.25019264 0.4048202
0.017413087 0.079999998 0.012994251 0 0.25019264 0.4048202
0.016754966 0.079999998 0.013003797 0 0.25019264 0.4048202
0.016096964 0.079999998 0.013012974 0 0.25019264 0.4048202
0.015439074 0.079999998 0.013021783 0 0.25019264 0.4048202
0.014781294 0.079999998 0.013030224 0 0.25019264 0.4048202
0.014123619 0.079999998 0.013038296 0 0.25019264 0.4048202
0.013466042 0.079999998 0.013046001 0 0.25019264 0.4048202
0.01280856 0.079999998 0.013053338 0 0.25019264 0.4048202
0.01215117 0.079999998 0.013060307 0 0.25019264 0.4048202
0.011493864 0.079999998 0.013066909 0 0.25019264 0.4048202
0.010836639 0.079999998 0.013073144 0 0.25019264 0.4048202
0.010179491 0.079999998 0.013079011 0 0.25019264 0.4048202
0.0095224148 0.079999998 0.013084511 0 0.25019264 0.4048202
0.0088654049 0.079999998 0.013089645 0 0.25019264 0.4048202
0.0082084574 0.079999998 0.01309441 0 0.25019264 0.4048202
0.0075515686 0.079999998 0.01309881 0 0.25019264 0.4048202
0.0068947324 0.079999998 0.013102842 0 0.25019264 0.4048202
0.0062379451 0.079999998 0.013106507 0 0.25019264 0.4048202
0.0055812011 0.079999998 0.013109806 0 0.25019264 0.4048202
0.0049244966 0.079999998 0.013112739 0 0.25019264 0.4048202
0.0042678271 0.079999998 0.013115304 0 0.25019264 0.4048202
0.0036111875 0.079999998 0.013117502 0 0.25019264 0.4048202
0.0029545734 0.079999998 0.013119335 0 0.25019264 0.4048202
0.00229798 0.079999998 0.013120801 0 0.25019264 0.4048202
0.0016414027 0.079999998 0.0131219 0 0.25019264 0.4048202
0.00098483695 0.079999998 0.013122633 0 0.25019264 0.4048202
0.00032827823 0.079999998 0.013123 0 0.25019264 0.4048202
0.039360743 0.079999998 0.010788952 0 0.25019264 0.4048202
0.038693808 0.079999998 0.01081117 0 0.25019264 0.4048202
0.038027152 0.079999998 0.010833004 0 0.25019264 0.4048202
0.037360765 0.079999998 0.010854455 0 0.25019264 0.4048202
0.036694646 0.079999998 0.010875522 0 0.25019264 0.4048202
0.036028791 0.079999998 0.010896208 0 0.25019264 0.4048202
0.03536319 0.079999998 0.010916511 0 0.25019264 0.4048202
0.034697846 0.079999998 0.010936432 0 0.25019264 0.4048202
0.034032743 0.079999998 0.010955972 0 0.25019264 0.4048202
0.033367887 0.079999998 0.01097513 0 0.25019264 0.4048202
0.032703269 0.079999998 0.010993907 0 0.25019264 0.4048202
0.032038882 0.079999998 0.011012304 0 0.25019264 0.4048202
0.031374726 0.079999998 0.011030321 0 0.25019264 0.4048202
0.030710792 0.079999998 0.011047957 0 0.25019264 0.4048202
0.030047078 0.079999998 0.011065214 0 0.25019264 0.4048202
0.029383576 0.079999998 0.011082091 0 0.25019264 0.4048202
0.028720284 0.079999998 0.01109859 0 0.25019264 0.4048202
0.028057195 0.079999998 0.01111471 0 0.25019264 0.4048202
0.027394308 0.079999998 0.01113045 0 0.25019264 0.4048202
0.026731614 0.079999998 0.011145813 0 0.25019264 0.4048202
0.02606911 0.079999998 0.011160797 0 0.25019264 0.4048202
0.025406793 0.079999998 0.011175404 0 0.25019264 0.4048202
0.024744654 0.079999998 0.011189634 0 0.25019264 0.4048202
0.024082692 0.079999998 0.011203486 0 0.25019264 0.4048202
0.023420902 0.079999998 0.011216961 0 0.25019264 0.4048202
0.022759277 0.079999998 0.011230059 0 0.25019264 0.4048202
0.022097815 0.079999998 0.01124278 0 0.25019264 0.4048202
0.021436509 0.079999998 0.011255125 0 0.25019264 0.4048202
0.020775354 0.079999998 0.011267094 0 0.25019264 0.4048202
0.020114347 0.079999998 0.011278686 0 0.25019264 0.4048202
0.019453483 0.079999998 0.011289903 0 0.25019264 0.4048202
0.018792758 0.079999998 0.011300744 0 0.25019264 0.4048202
0.018132165 0.079999998 0.01131121 0 0.25019264 0.4048202
0.017471699 0.079999998 0.0113213 0 0.25019264 0.4048202
0.01681136 0.079999998 0.011331015 0 0.25019264 0.4048202
0.016151138 0.079999998 0.011340356 0 0.25019264 0.4048202
0.01549103 0.079999998 0.01134932 0 0.25019264 0.4048202
0.014831034 0.079999998 0.011357911 0 0.25019264 0.4048202
0.014171141 0.079999998 0.011366127 0 0.25019264 0.4048202
0.013511349 0.079999998 0.011373969 0 0.25019264 0.4048202
0.012851653 0.079999998 0.011381437 0 0.25019264 0.4048202
0.012192047 0.079999998 0.01138853 0 0.25019264 0.4048202
0.011532528 0.079999998 0.01139525 0 0.25019264 0.4048202
0.01087309 0.079999998 0.011401595 0 0.25019264 0.4048202
0.01021373 0.079999998 0.011407566 0 0.25019264 0.4048202
0.009554442 0.079999998 0.011413164 0 0.25019264 0.4048202
0.0088952212 0.079999998 0.011418389 0 0.25019264 0.4048202
0.0082360636 0.079999998 0.011423239 0 0.25019264 0.4048202
0.0075769643 0.079999998 0.011427717 0 0.25019264 0.4048202
0.0069179186 0.079999998 0.011431821 0 0.25019264 0.4048202
0.0062589217 0.079999998 0.011435552 0 0.25019264 0.4048202
0.0055999691 0.079999998 0.011438909 0 0.25019264 0.4048202
0.004941056 0.079999998 0.011441893 0 0.25019264 0.4048202
0.0042821779 0.079999998 0.011444504 0 0.25019264 0.4048202
0.00362333 0.079999998 0.011446742 0 0.25019264 0.4048202
0.0029645078 0.079999998 0.011448607 0 0.25019264 0.4048202
0.0023057065 0.079999998 0.011450099 0 0.25019264 0.4048202
0.0016469216 0.079999998 0.011451218 0 0.25019264 0.4048202
0.00098814827 0.079999998 0.011451964 0 0.25019264 0.4048202
0.00032938199 0.079999998 0.011452337 0 0.25019264 0.4048202
0.039494343 0.079999998 0.0090945046 0 0.25019264 0.4048202
0.038825121 0.079999998 0.0091171162 0 0.25019264 0.4048202
0.038156178 0.079999998 0.0091393376 0 0.25019264 0.4048202
0.037487507 0.079999998 0.0091611687 0 0.25019264 0.4048202
0.036819104 0.079999998 0.0091826096 0 0.25019264 0.4048202
0.03615097 0.079999998 0.0092036612 0 0.25019264 0.4048202
0.035483092 0.079999998 0.0092243236 0 0.25019264 0.4048202
0.034815468 0.079999998 0.0092445984 0 0.25019264 0.4048202
0.034148097 0.079999998 0.009264484 0 0.25019264 0.4048202
0.033480968 0.079999998 0.0092839813 0 0.25019264 0.4048202
0.032814078 0.079999998 0.0093030911 0 0.25019264 0.4048202
0.032147426 0.079999998 0.0093218144 0 0.25019264 0.4048202
0.031481002 0.079999998 0.0093401503 0 0.25019264 0.4048202
0.030814802 0.079999998 0.0093580987 0 0.25019264 0.4048202
0.030148825 0.079999998 0.0093756616 0 0.25019264 0.4048202
0.029483063 0.079999998 0.009392838 0 0.25019264 0.4048202
0.028817512 0.079999998 0.0094096279 0 0.25019264 0.4048202
0.028152166 0.079999998 0.0094260331 0 0.25019264 0.4048202
0.027487021 0.079999998 0.0094420528 0 0.25019264 0.4048202
0.026822073 0.079999998 0.0094576878 0 0.25019264 0.4048202
0.026157316 0.079999998 0.0094729373 0 0.25019264 0.4048202
0.025492746 0.079999998 0.0094878031 0 0.25019264 0.4048202
0.024828359 0.079999998 0.0095022842 0 0.25019264 0.4048202
0.024164148 0.079999998 0.0095163807 0 0.25019264 0.4048202
0.023500111 0.079999998 0.0095300945 0 0.25019264 0.4048202
0.02283624 0.079999998 0.0095434245 0 0.25019264 0.4048202
0.022172531 0.079999998 0.0095563708 0 0.25019264 0.4048202
0.021508982 0.079999998 0.0095689334 0 0.25019264 0.4048202
0.020845585 0.079999998 0.0095811142 0 0.25019264 0.4048202
0.020182338 0.079999998 0.0095929122 0 0.25019264 0.4048202
0.019519232 0.079999998 0.0096043274 0 0.25019264 0.4048202
0.018856268 0.079999998 0.0096153598 0 0.25019264 0.4048202
0.018193437 0.079999998 0.0096260104 0 0.25019264 0.4048202
0.017530736 0.079999998 0.0096362801 0 0.25019264 0.4048202
0.016868159 0.079999998 0.009646167 0 0.25019264 0.4048202
0.016205702 0.079999998 0.0096556721 0 0.25019264 0.4048202
0.015543361 0.079999998 0.0096647963 0 0.25019264 0.4048202
0.01488113 0.079999998 0.0096735386 0 0.25019264 0.4048202
0.014219007 0.079999998 0.0096819 0 0.25019264 0.4048202
0.013556982 0.079999998 0.0096898805 0 0.25019264 0.4048202
