# .PCD v0.7 - Point Cloud Data file format
VERSION 0.7
FIELDS x y z vp_x vp_y vp_z
SIZE 4 4 4 4 4 4
TYPE F F F F F F
COUNT 1 1 1 1 1 1
WIDTH 862
HEIGHT 1
VIEWPOINT 0 0 0 1 0 0 0
POINTS 862
DATA ascii
0.039999999 0.06087457 0.039848495 -0.4048202 0 -0.25019264
0 0.054640137 0.013764374 -0.4048202 0 -0.25019264
0 0.053880058 0.013761937 -0.4048202 0 -0.25019264
0 0.053120252 0.013759534 -0.4048202 0 -0.25019264
0 0.05236071 0.013757165 -0.4048202 0 -0.25019264
0 0.051601429 0.013754831 -0.4048202 0 -0.25019264
0 0.050842404 0.013752531 -0.4048202 0 -0.25019264
5.5511151e-17 0.050083634 0.013750266 -0.4048202 0 -0.25019264
0.039999999 0.054198895 0.039827827 -0.4048202 0 -0.25019264
0 0.048566841 0.01374584 -0.4048202 0 -0.25019264
0 0.047808807 0.013743678 -0.4048202 0 -0.25019264
0 0.047051016 0.01374155 -0.4048202 0 -0.25019264
0 0.046293456 0.013739457 -0.4048202 0 -0.25019264
0 0.045536127 0.013737398 -0.4048202 0 -0.25019264
0 0.044779025 0.013735374 -0.4048202 0 -0.25019264
0 0.044022147 0.013733383 -0.4048202 0 -0.25019264
0.039999999 0.047540519 0.039809577 -0.4048202 0 -0.25019264
5.5511151e-17 0.042509045 0.013729504 -0.4048202 0 -0.25019264
0 0.041752812 0.013727617 -0.4048202 0 -0.25019264
5.5511151e-17 0.040996786 0.013725763 -0.4048202 0 -0.25019264
0 0.040240966 0.013723943 -0.4048202 0 -0.25019264
0 0.039485343 0.013722158 -0.4048202 0 -0.25019264
0 0.038729917 0.013720406 -0.4048202 0 -0.25019264
0 0.037974685 0.013718689 -0.4048202 0 -0.25019264
0 0.03721964 0.013717005 -0.4048202 0 -0.25019264
5.5511151e-17 0.036464781 0.013715356 -0.4048202 0 -0.25019264
5.5511151e-17 0.035710104 0.013713741 -0.4048202 0 -0.25019264
0 0.034955602 0.013712158 -0.4048202 0 -0.25019264
5.5511151e-17 0.034201276 0.013710611 -0.4048202 0 -0.25019264
0 0.033447117 0.013709098 -0.4048202 0 -0.25019264
0 0.032693122 0.013707618 -0.4048202 0 -0.25019264
0 0.031939294 0.013706172 -0.4048202 0 -0.25019264
0 0.031185621 0.01370476 -0.4048202 0 -0.25019264
0 0.030432103 0.013703382 -0.4048202 0 -0.25019264
5.5511151e-17 0.029678738 0.013702038 -0.4048202 0 -0.25019264
0 0.028925518 0.013700727 -0.4048202 0 -0.25019264
5.5511151e-17 0.028172441 0.013699451 -0.4048202 0 -0.25019264
0 0.027419506 0.013698208 -0.4048202 0 -0.25019264
0 0.026666705 0.013696998 -0.4048202 0 -0.25019264
0.039999999 0.027647683 0.039769202 -0.4048202 0 -0.25019264
0.039999999 0.026820922 0.039767984 -0.4048202 0 -0.25019264
5.5511151e-17 0.023656784 0.0136925 -0.4048202 0 -0.25019264
0 0.022904605 0.01369146 -0.4048202 0 -0.25019264
0 0.022152539 0.013690453 -0.4048202 0 -0.25019264
0 0.021400584 0.01368948 -0.4048202 0 -0.25019264
0 0.020648735 0.01368854 -0.4048202 0 -0.25019264
0 0.019896986 0.013687634 -0.4048202 0 -0.25019264
5.5511151e-17 0.019145338 0.013686762 -0.4048202 0 -0.25019264
5.5511151e-17 0.018393783 0.013685924 -0.4048202 0 -0.25019264
0 0.017642319 0.013685119 -0.4048202 0 -0.25019264
0 0.016890943 0.013684347 -0.4048202 0 -0.25019264
5.5511151e-17 0.016139651 0.01368361 -0.4048202 0 -0.25019264
0 0.015388437 0.013682906 -0.4048202 0 -0.25019264
0.039999999 0.0160836 0.039755527 -0.4048202 0 -0.25019264
0 0.013886235 0.013681599 -0.4048202 0 -0.25019264
5.5511151e-17 0.013135238 0.013680995 -0.4048202 0 -0.25019264
5.5511151e-17 0.012384307 0.013680425 -0.4048202 0 -0.25019264
0 0.011633436 0.013679889 -0.4048202 0 -0.25019264
0 0.010882623 0.013679386 -0.4048202 0 -0.25019264
5.5511151e-17 0.010131864 0.013678918 -0.4048202 0 -0.25019264
5.5511151e-17 0.0093811555 0.013678482 -0.4048202 0 -0.25019264
0 0.0086304918 0.013678079 -0.4048202 0 -0.25019264
0.039999999 0.0086584771 0.039750554 -0.4048202 0 -0.25019264
0 0.0071292906 0.013677376 -0.4048202 0 -0.25019264
0 0.0063787447 0.013677075 -0.4048202 0 -0.25019264
0 0.0056282301 0.013676806 -0.4048202 0 -0.25019264
0 0.0048777433 0.013676572 -0.4048202 0 -0.25019264
0 0.0041272803 0.013676371 -0.4048202 0 -0.25019264
0 0.0033768381 0.013676204 -0.4048202 0 -0.25019264
0.039999999 0.0028859263 0.039748751 -0.4048202 0 -0.25019264
5.5511151e-17 0.0018759995 0.013675969 -0.4048202 0 -0.25019264
0 0.001125596 0.013675902 -0.4048202 0 -0.25019264
5.5511151e-17 0.00037519805 0.013675869 -0.4048202 0 -0.25019264
5.5511151e-17 0.079820655 0.012956825 -0.4048202 0 -0.25019264
5.5511151e-17 0.079050258 0.012953467 -0.4048202 0 -0.25019264
5.5511151e-17 0.078280248 0.012950141 -0.4048202 0 -0.25019264
5.5511151e-17 0.07751064 0.012946849 -0.4048202 0 -0.25019264
5.5511151e-17 0.076741427 0.01294359 -0.4048202 0 -0.25019264
0 0.075972602 0.012940364 -0.4048202 0 -0.25019264
5.5511151e-17 0.075204156 0.012937172 -0.4048202 0 -0.25019264
5.5511151e-17 0.074436091 0.012934012 -0.4048202 0 -0.25019264
5.5511151e-17 0.073668405 0.012930887 -0.4048202 0 -0.25019264
0 0.072901085 0.012927794 -0.4048202 0 -0.25019264
0 0.072134137 0.012924735 -0.4048202 0 -0.25019264
5.5511151e-17 0.071367554 0.012921708 -0.4048202 0 -0.25019264
0 0.070601329 0.012918714 -0.4048202 0 -0.25019264
5.5511151e-17 0.069835462 0.012915754 -0.4048202 0 -0.25019264
0 0.069069937 0.012912826 -0.4048202 0 -0.25019264
0 0.06830477 0.012909931 -0.4048202 0 -0.25019264
5.5511151e-17 0.067539938 0.012907069 -0.4048202 0 -0.25019264
0 0.066775449 0.012904241 -0.4048202 0 -0.25019264
5.5511151e-17 0.066011295 0.012901444 -0.4048202 0 -0.25019264
0 0.065247476 0.012898681 -0.4048202 0 -0.25019264
0 0.064483985 0.01289595 -0.4048202 0 -0.25019264
5.5511151e-17 0.063720815 0.012893252 -0.4048202 0 -0.25019264
0 0.062957965 0.012890587 -0.4048202 0 -0.25019264
0 0.062195428 0.012887955 -0.4048202 0 -0.25019264
0 0.061433204 0.012885354 -0.4048202 0 -0.25019264
0 0.060671289 0.012882787 -0.4048202 0 -0.25019264
0 0.059909675 0.012880252 -0.4048202 0 -0.25019264
0 0.059148364 0.012877749 -0.4048202 0 -0.25019264
5.5511151e-17 0.058387347 0.012875279 -0.4048202 0 -0.25019264
0 0.057626624 0.012872842 -0.4048202 0 -0.25019264
0 0.056866188 0.012870437 -0.4048202 0 -0.25019264
5.5511151e-17 0.056106035 0.012868064 -0.4048202 0 -0.25019264
0.039999999 0.06081488 0.038858335 -0.4048202 0 -0.25019264
5.5511151e-17 0.054586567 0.012863415 -0.4048202 0 -0.25019264
0 0.053827245 0.01286114 -0.4048202 0 -0.25019264
0 0.053068191 0.012858897 -0.4048202 0 -0.25019264
5.5511151e-17 0.052309401 0.012856685 -0.4048202 0 -0.25019264
0 0.051550873 0.012854506 -0.4048202 0 -0.25019264
0 0.050792601 0.012852359 -0.4048202 0 -0.25019264
0 0.050034583 0.012850245 -0.4048202 0 -0.25019264
5.5511151e-17 0.049276814 0.012848162 -0.4048202 0 -0.25019264
0 0.048519291 0.012846111 -0.4048202 0 -0.25019264
5.5511151e-17 0.047762007 0.012844093 -0.4048202 0 -0.25019264
0.039999999 0.051649492 0.038832385 -0.4048202 0 -0.25019264
0 0.046248153 0.012840152 -0.4048202 0 -0.25019264
0 0.045491572 0.01283823 -0.4048202 0 -0.25019264
0 0.044735219 0.01283634 -0.4048202 0 -0.25019264
0 0.043979086 0.012834481 -0.4048202 0 -0.25019264
0 0.043223172 0.012832655 -0.4048202 0 -0.25019264
0 0.042467475 0.01283086 -0.4048202 0 -0.25019264
0 0.041711986 0.012829098 -0.4048202 0 -0.25019264
0 0.040956706 0.012827367 -0.4048202 0 -0.25019264
0 0.040201627 0.012825668 -0.4048202 0 -0.25019264
5.5511151e-17 0.039446749 0.012824001 -0.4048202 0 -0.25019264
0 0.038692068 0.012822365 -0.4048202 0 -0.25019264
0 0.037937578 0.012820763 -0.4048202 0 -0.25019264
0 0.037183277 0.012819191 -0.4048202 0 -0.25019264
0 0.036429159 0.01281765 -0.4048202 0 -0.25019264
0 0.03567522 0.012816142 -0.4048202 0 -0.25019264
0.039999999 0.038372025 0.038802233 -0.4048202 0 -0.25019264
0 0.034167875 0.012813221 -0.4048202 0 -0.25019264
0 0.033414457 0.012811808 -0.4048202 0 -0.25019264
0 0.032661203 0.012810426 -0.4048202 0 -0.25019264
0 0.031908114 0.012809076 -0.4048202 0 -0.25019264
0 0.031155178 0.012807758 -0.4048202 0 -0.25019264
5.5511151e-17 0.0304024 0.012806471 -0.4048202 0 -0.25019264
0 0.029649772 0.012805216 -0.4048202 0 -0.25019264
5.5511151e-17 0.028897291 0.012803993 -0.4048202 0 -0.25019264
0 0.028144952 0.012802801 -0.4048202 0 -0.25019264
0 0.027392752 0.012801641 -0.4048202 0 -0.25019264
0 0.026640687 0.012800512 -0.4048202 0 -0.25019264
0 0.025888756 0.012799415 -0.4048202 0 -0.25019264
0.039999999 0.027620716 0.038784303 -0.4048202 0 -0.25019264
5.5511151e-17 0.02438527 0.012797314 -0.4048202 0 -0.25019264
0 0.023633711 0.012796312 -0.4048202 0 -0.25019264
0 0.022882268 0.01279534 -0.4048202 0 -0.25019264
0 0.022130938 0.0127944 -0.4048202 0 -0.25019264
5.5511151e-17 0.021379717 0.012793492 -0.4048202 0 -0.25019264
0 0.020628601 0.012792614 -0.4048202 0 -0.25019264
0 0.019877588 0.012791769 -0.4048202 0 -0.25019264
5.5511151e-17 0.019126672 0.012790955 -0.4048202 0 -0.25019264
0 0.018375853 0.012790171 -0.4048202 0 -0.25019264
0 0.017625121 0.01278942 -0.4048202 0 -0.25019264
0 0.016874479 0.0127887 -0.4048202 0 -0.25019264
0 0.016123919 0.012788012 -0.4048202 0 -0.25019264
0 0.015373439 0.012787354 -0.4048202 0 -0.25019264
0 0.014623035 0.012786728 -0.4048202 0 -0.25019264
5.5511151e-17 0.013872702 0.012786133 -0.4048202 0 -0.25019264
0 0.013122438 0.01278557 -0.4048202 0 -0.25019264
5.5511151e-17 0.012372239 0.012785038 -0.4048202 0 -0.25019264
0 0.011622101 0.012784538 -0.4048202 0 -0.25019264
0 0.010872019 0.012784068 -0.4048202 0 -0.25019264
5.5511151e-17 0.010121993 0.01278363 -0.4048202 0 -0.25019264
0 0.0093720155 0.012783224 -0.4048202 0 -0.25019264
0 0.0086220838 0.012782848 -0.4048202 0 -0.25019264
0 0.007872195 0.012782504 -0.4048202 0 -0.25019264
0 0.0071223453 0.012782191 -0.4048202 0 -0.25019264
0.039999999 0.0070021958 0.038766239 -0.4048202 0 -0.25019264
0 0.0056227474 0.012781659 -0.4048202 0 -0.25019264
5.5511151e-17 0.0048729917 0.01278144 -0.4048202 0 -0.25019264
5.5511151e-17 0.0041232598 0.012781253 -0.4048202 0 -0.25019264
0 0.0033735486 0.012781097 -0.4048202 0 -0.25019264
0 0.002623854 0.012780972 -0.4048202 0 -0.25019264
0 0.0018741721 0.012780878 -0.4048202 0 -0.25019264
0.039999999 0.0012356106 0.038765036 -0.4048202 0 -0.25019264
5.5511151e-17 0.00037483257 0.012780784 -0.4048202 0 -0.25019264
5.5511151e-17 0.079741918 0.012051079 -0.4048202 0 -0.25019264
5.5511151e-17 0.078972295 0.012047959 -0.4048202 0 -0.25019264
0.0093018506 0.079999998 0.018070491 -0.4048202 0 -0.25019264
0 0.077434242 0.012041809 -0.4048202 0 -0.25019264
5.5511151e-17 0.076665804 0.012038781 -0.4048202 0 -0.25019264
0 0.075897753 0.012035784 -0.4048202 0 -0.25019264
0.026240358 0.079999998 0.029030215 -0.4048202 0 -0.25019264
5.5511151e-17 0.074362792 0.012029883 -0.4048202 0 -0.25019264
0 0.073595881 0.012026978 -0.4048202 0 -0.25019264
0 0.072829336 0.012024105 -0.4048202 0 -0.25019264
5.5511151e-17 0.072063155 0.012021261 -0.4048202 0 -0.25019264
0.039999999 0.078342184 0.037927341 -0.4048202 0 -0.25019264
0 0.07053189 0.012015668 -0.4048202 0 -0.25019264
5.5511151e-17 0.069766782 0.012012917 -0.4048202 0 -0.25019264
0 0.069002032 0.012010196 -0.4048202 0 -0.25019264
0.039999999 0.07498014 0.037915319 -0.4048202 0 -0.25019264
0.039999999 0.074140586 0.037912395 -0.4048202 0 -0.25019264
0 0.066709846 0.012002219 -0.4048202 0 -0.25019264
5.5511151e-17 0.06594646 0.011999621 -0.4048202 0 -0.25019264
0 0.065183401 0.011997052 -0.4048202 0 -0.25019264
0 0.06442067 0.011994516 -0.4048202 0 -0.25019264
0 0.06365826 0.011992008 -0.4048202 0 -0.25019264
0.039999999 0.0691109 0.037895568 -0.4048202 0 -0.25019264
5.5511151e-17 0.062134396 0.011987085 -0.4048202 0 -0.25019264
5.5511151e-17 0.061372936 0.01198467 -0.4048202 0 -0.25019264
0.039999999 0.066600785 0.037887603 -0.4048202 0 -0.25019264
5.5511151e-17 0.059850924 0.011979929 -0.4048202 0 -0.25019264
5.5511151e-17 0.059090368 0.011977604 -0.4048202 0 -0.25019264
0 0.058330111 0.011975308 -0.4048202 0 -0.25019264
0 0.057570145 0.011973044 -0.4048202 0 -0.25019264
0 0.056810461 0.011970809 -0.4048202 0 -0.25019264
5.5511151e-17 0.056051064 0.011968604 -0.4048202 0 -0.25019264
0 0.055291947 0.01196643 -0.4048202 0 -0.25019264
0 0.054533105 0.011964285 -0.4048202 0 -0.25019264
5.5511151e-17 0.053774536 0.01196217 -0.4048202 0 -0.25019264
5.5511151e-17 0.053016234 0.011960085 -0.4048202 0 -0.25019264
0.039999999 0.057421792 0.037860952 -0.4048202 0 -0.25019264
0 0.051500421 0.011956006 -0.4048202 0 -0.25019264
0 0.050742898 0.011954011 -0.4048202 0 -0.25019264
0 0.049985629 0.011952046 -0.4048202 0 -0.25019264
0.039999999 0.054092854 0.03785225 -0.4048202 0 -0.25019264
5.5511151e-17 0.048471835 0.011948206 -0.4048202 0 -0.25019264
0 0.047715303 0.01194633 -0.4048202 0 -0.25019264
0 0.046959005 0.011944485 -0.4048202 0 -0.25019264
0 0.046202939 0.011942669 -0.4048202 0 -0.25019264
0 0.045447107 0.011940883 -0.4048202 0 -0.25019264
5.5511151e-17 0.044691499 0.011939126 -0.4048202 0 -0.25019264
0 0.043936111 0.011937399 -0.4048202 0 -0.25019264
0 0.043180943 0.011935702 -0.4048202 0 -0.25019264
0 0.042425986 0.011934035 -0.4048202 0 -0.25019264
0 0.041671243 0.011932396 -0.4048202 0 -0.25019264
0 0.040916707 0.011930789 -0.4048202 0 -0.25019264
0 0.04016237 0.01192921 -0.4048202 0 -0.25019264
0 0.039408237 0.011927661 -0.4048202 0 -0.25019264
5.5511151e-17 0.038654294 0.011926142 -0.4048202 0 -0.25019264
0 0.037900545 0.011924651 -0.4048202 0 -0.25019264
5.5511151e-17 0.037146986 0.011923191 -0.4048202 0 -0.25019264
0 0.036393609 0.01192176 -0.4048202 0 -0.25019264
0 0.035640411 0.011920359 -0.4048202 0 -0.25019264
5.5511151e-17 0.034887388 0.011918986 -0.4048202 0 -0.25019264
0 0.034134541 0.011917644 -0.4048202 0 -0.25019264
0 0.033381861 0.011916331 -0.4048202 0 -0.25019264
0.039999999 0.035853431 0.037813723 -0.4048202 0 -0.25019264
5.5511151e-17 0.031876992 0.011913793 -0.4048202 0 -0.25019264
0 0.031124799 0.011912568 -0.4048202 0 -0.25019264
5.5511151e-17 0.030372757 0.011911373 -0.4048202 0 -0.25019264
5.5511151e-17 0.029620865 0.011910207 -0.4048202 0 -0.25019264
5.5511151e-17 0.02886912 0.011909069 -0.4048202 0 -0.25019264
5.5511151e-17 0.028117517 0.011907962 -0.4048202 0 -0.25019264
0.039999999 0.030070074 0.037804753 -0.4048202 0 -0.25019264
5.5511151e-17 0.026614724 0.011905835 -0.4048202 0 -0.25019264
0 0.025863526 0.011904815 -0.4048202 0 -0.25019264
0 0.025112458 0.011903824 -0.4048202 0 -0.25019264
5.5511151e-17 0.024361512 0.011902864 -0.4048202 0 -0.25019264
5.5511151e-17 0.023610685 0.011901932 -0.4048202 0 -0.25019264
0 0.022859976 0.011901029 -0.4048202 0 -0.25019264
0 0.02210938 0.011900156 -0.4048202 0 -0.25019264
5.5511151e-17 0.021358892 0.011899312 -0.4048202 0 -0.25019264
0 0.020608509 0.011898496 -0.4048202 0 -0.25019264
0 0.01985823 0.011897711 -0.4048202 0 -0.25019264
0 0.019108046 0.011896954 -0.4048202 0 -0.25019264
0 0.018357959 0.011896227 -0.4048202 0 -0.25019264
0 0.017607961 0.011895529 -0.4048202 0 -0.25019264
5.5511151e-17 0.016858049 0.011894859 -0.4048202 0 -0.25019264
0.039999999 0.017699862 0.037790835 -0.4048202 0 -0.25019264
0 0.015358471 0.011893609 -0.4048202 0 -0.25019264
5.5511151e-17 0.014608799 0.011893027 -0.4048202 0 -0.25019264
0 0.013859197 0.011892474 -0.4048202 0 -0.25019264
5.5511151e-17 0.013109664 0.011891951 -0.4048202 0 -0.25019264
0 0.012360196 0.011891456 -0.4048202 0 -0.25019264
5.5511151e-17 0.011610788 0.011890992 -0.4048202 0 -0.25019264
0 0.010861438 0.011890556 -0.4048202 0 -0.25019264
0 0.01011214 0.011890149 -0.4048202 0 -0.25019264
0.039999999 0.010288035 0.037785947 -0.4048202 0 -0.25019264
0.039999999 0.009464805 0.037785564 -0.4048202 0 -0.25019264
0 0.0078645339 0.011889102 -0.4048202 0 -0.25019264
5.5511151e-17 0.0071154139 0.011888811 -0.4048202 0 -0.25019264
0 0.0063663288 0.01188855 -0.4048202 0 -0.25019264
5.5511151e-17 0.0056172754 0.011888317 -0.4048202 0 -0.25019264
0 0.0048682494 0.011888114 -0.4048202 0 -0.25019264
5.5511151e-17 0.0041192477 0.01188794 -0.4048202 0 -0.25019264
0 0.0033702657 0.011887794 -0.4048202 0 -0.25019264
0 0.0026213005 0.011887678 -0.4048202 0 -0.25019264
0 0.0018723484 0.01188759 -0.4048202 0 -0.25019264
5.5511151e-17 0.0011234053 0.011887533 -0.4048202 0 -0.25019264
5.5511151e-17 0.00037446784 0.011887504 -0.4048202 0 -0.25019264
0 0.079663336 0.011147178 -0.4048202 0 -0.25019264
5.5511151e-17 0.078894489 0.011144293 -0.4048202 0 -0.25019264
0 0.078126043 0.011141438 -0.4048202 0 -0.25019264
5.5511151e-17 0.077357993 0.011138611 -0.4048202 0 -0.25019264
0 0.076590329 0.011135814 -0.4048202 0 -0.25019264
0 0.075823054 0.011133044 -0.4048202 0 -0.25019264
0 0.075056158 0.011130303 -0.4048202 0 -0.25019264
0 0.074289642 0.01112759 -0.4048202 0 -0.25019264
0 0.073523499 0.011124906 -0.4048202 0 -0.25019264
5.5511151e-17 0.072757728 0.011122251 -0.4048202 0 -0.25019264
0 0.071227275 0.011117024 -0.4048202 0 -0.25019264
0 0.070462584 0.011114454 -0.4048202 0 -0.25019264
0 0.069698252 0.011111912 -0.4048202 0 -0.25019264
0 0.068934269 0.011109399 -0.4048202 0 -0.25019264
5.5511151e-17 0.068170629 0.011106913 -0.4048202 0 -0.25019264
0 0.067407332 0.011104455 -0.4048202 0 -0.25019264
0 0.066644371 0.011102026 -0.4048202 0 -0.25019264
0 0.065881751 0.011099625 -0.4048202 0 -0.25019264
0 0.065119453 0.011097252 -0.4048202 0 -0.25019264
0 0.064357482 0.011094908 -0.4048202 0 -0.25019264
0 0.062834509 0.011090303 -0.4048202 0 -0.25019264
0 0.062073492 0.011088043 -0.4048202 0 -0.25019264
5.5511151e-17 0.061312787 0.011085809 -0.4048202 0 -0.25019264
0 0.060552388 0.011083605 -0.4048202 0 -0.25019264
5.5511151e-17 0.059792291 0.011081428 -0.4048202 0 -0.25019264
0 0.059032496 0.01107928 -0.4048202 0 -0.25019264
0 0.058272991 0.011077159 -0.4048202 0 -0.25019264
0 0.057513777 0.011075065 -0.4048202 0 -0.25019264
0 0.056754854 0.011073001 -0.4048202 0 -0.25019264
0 0.055996209 0.011070963 -0.4048202 0 -0.25019264
5.5511151e-17 0.055237845 0.011068953 -0.4048202 0 -0.25019264
0 0.054479755 0.011066971 -0.4048202 0 -0.25019264
5.5511151e-17 0.053721935 0.011065017 -0.4048202 0 -0.25019264
0 0.052207097 0.011061192 -0.4048202 0 -0.25019264
0.039999999 0.056533813 0.036873441 -0.4048202 0 -0.25019264
0 0.050693296 0.011057477 -0.4048202 0 -0.25019264
0 0.049936775 0.011055662 -0.4048202 0 -0.25019264
0 0.049180504 0.011053874 -0.4048202 0 -0.25019264
0 0.048424475 0.011052113 -0.4048202 0 -0.25019264
0 0.047668688 0.01105038 -0.4048202 0 -0.25019264
5.5511151e-17 0.04691314 0.011048675 -0.4048202 0 -0.25019264
0 0.046157818 0.011046996 -0.4048202 0 -0.25019264
0 0.045402728 0.011045346 -0.4048202 0 -0.25019264
0 0.044647865 0.011043723 -0.4048202 0 -0.25019264
0 0.043893222 0.011042126 -0.4048202 0 -0.25019264
5.5511151e-17 0.043138798 0.011040558 -0.4048202 0 -0.25019264
0 0.042384584 0.011039018 -0.4048202 0 -0.25019264
0 0.041630585 0.011037504 -0.4048202 0 -0.25019264
0 0.040876787 0.011036018 -0.4048202 0 -0.25019264
0 0.040123194 0.011034559 -0.4048202 0 -0.25019264
5.5511151e-17 0.039369799 0.011033128 -0.4048202 0 -0.25019264
0 0.038616598 0.011031724 -0.4048202 0 -0.25019264
0 0.03786359 0.011030347 -0.4048202 0 -0.25019264
0 0.037110768 0.011028997 -0.4048202 0 -0.25019264
5.5511151e-17 0.036358129 0.011027675 -0.4048202 0 -0.25019264
5.5511151e-17 0.035605669 0.01102638 -0.4048202 0 -0.25019264
0 0.034853388 0.011025112 -0.4048202 0 -0.25019264
0 0.034101274 0.011023872 -0.4048202 0 -0.25019264
0 0.033349331 0.011022658 -0.4048202 0 -0.25019264
5.5511151e-17 0.032597557 0.011021472 -0.4048202 0 -0.25019264
0 0.031845938 0.011020312 -0.4048202 0 -0.25019264
0.039999999 0.033341359 0.036828123 -0.4048202 0 -0.25019264
0 0.029592017 0.011016998 -0.4048202 0 -0.25019264
0 0.028841006 0.011015947 -0.4048202 0 -0.25019264
0 0.027339408 0.011013928 -0.4048202 0 -0.25019264
0 0.026588812 0.011012958 -0.4048202 0 -0.25019264
5.5511151e-17 0.025838349 0.011012016 -0.4048202 0 -0.25019264
5.5511151e-17 0.025088012 0.0110111 -0.4048202 0 -0.25019264
0.039999999 0.0267426 0.03681948 -0.4048202 0 -0.25019264
0 0.023587706 0.011009351 -0.4048202 0 -0.25019264
5.5511151e-17 0.022837728 0.011008517 -0.4048202 0 -0.25019264
5.5511151e-17 0.022087865 0.01100771 -0.4048202 0 -0.25019264
0 0.021338109 0.01100693 -0.4048202 0 -0.25019264
0 0.020588458 0.011006176 -0.4048202 0 -0.25019264
0 0.019838909 0.011005451 -0.4048202 0 -0.25019264
0.039999999 0.020975674 0.036813483 -0.4048202 0 -0.25019264
0 0.0183401 0.011004079 -0.4048202 0 -0.25019264
0 0.017590832 0.011003434 -0.4048202 0 -0.25019264
0 0.016841652 0.011002815 -0.4048202 0 -0.25019264
0 0.016092554 0.011002224 -0.4048202 0 -0.25019264
0 0.015343534 0.01100166 -0.4048202 0 -0.25019264
5.5511151e-17 0.014594591 0.011001122 -0.4048202 0 -0.25019264
0 0.013845719 0.011000612 -0.4048202 0 -0.25019264
5.5511151e-17 0.013096916 0.011000128 -0.4048202 0 -0.25019264
5.5511151e-17 0.012348177 0.010999671 -0.4048202 0 -0.25019264
0 0.011599498 0.010999242 -0.4048202 0 -0.25019264
0 0.010850877 0.010998839 -0.4048202 0 -0.25019264
0 0.010102308 0.010998462 -0.4048202 0 -0.25019264
0 0.0093537904 0.010998113 -0.4048202 0 -0.25019264
0 0.0086053181 0.010997791 -0.4048202 0 -0.25019264
5.5511151e-17 0.0078568878 0.010997496 -0.4048202 0 -0.25019264
5.5511151e-17 0.0071084965 0.010997226 -0.4048202 0 -0.25019264
0 0.0063601397 0.010996985 -0.4048202 0 -0.25019264
5.5511151e-17 0.0056118146 0.01099677 -0.4048202 0 -0.25019264
5.5511151e-17 0.0048635169 0.010996582 -0.4048202 0 -0.25019264
5.5511151e-17 0.004115243 0.010996421 -0.4048202 0 -0.25019264
0 0.0033669895 0.010996287 -0.4048202 0 -0.25019264
0 0.0026187524 0.01099618 -0.4048202 0 -0.25019264
0 0.0018705282 0.010996099 -0.4048202 0 -0.25019264
0 0.0011223133 0.010996045 -0.4048202 0 -0.25019264
0 0.00037410381 0.010996019 -0.4048202 0 -0.25019264
0 0.079584911 0.010245111 -0.4048202 0 -0.25019264
0.0060769208 0.079999998 0.01415196 -0.4048202 0 -0.25019264
0 0.078049175 0.01023984 -0.4048202 0 -0.25019264
0 0.0772819 0.010237245 -0.4048202 0 -0.25019264
5.5511151e-17 0.076515011 0.010234675 -0.4048202 0 -0.25019264
0 0.075748503 0.010232133 -0.4048202 0 -0.25019264
0 0.074982382 0.010229616 -0.4048202 0 -0.25019264
5.5511151e-17 0.074216641 0.010227125 -0.4048202 0 -0.25019264
0 0.073451266 0.010224661 -0.4048202 0 -0.25019264
0 0.072686262 0.010222223 -0.4048202 0 -0.25019264
0 0.071921624 0.010219811 -0.4048202 0 -0.25019264
0 0.071157344 0.010217424 -0.4048202 0 -0.25019264
0 0.070393428 0.010215065 -0.4048202 0 -0.25019264
5.5511151e-17 0.069629855 0.010212731 -0.4048202 0 -0.25019264
0 0.06886664 0.010210422 -0.4048202 0 -0.25019264
5.5511151e-17 0.06810376 0.01020814 -0.4048202 0 -0.25019264
0 0.067341231 0.010205884 -0.4048202 0 -0.25019264
0 0.066579036 0.010203653 -0.4048202 0 -0.25019264
5.5511151e-17 0.06581717 0.010201449 -0.4048202 0 -0.25019264
0 0.065055639 0.01019927 -0.4048202 0 -0.25019264
0 0.064294428 0.010197117 -0.4048202 0 -0.25019264
0 0.063533537 0.01019499 -0.4048202 0 -0.25019264
0 0.062772967 0.010192889 -0.4048202 0 -0.25019264
5.5511151e-17 0.06201271 0.010190813 -0.4048202 0 -0.25019264
0 0.061252762 0.010188763 -0.4048202 0 -0.25019264
5.5511151e-17 0.060493119 0.010186739 -0.4048202 0 -0.25019264
0 0.059733778 0.010184741 -0.4048202 0 -0.25019264
0 0.058974735 0.010182767 -0.4048202 0 -0.25019264
0 0.058215987 0.01018082 -0.4048202 0 -0.25019264
5.5511151e-17 0.057457525 0.010178898 -0.4048202 0 -0.25019264
0 0.056699354 0.010177002 -0.4048202 0 -0.25019264
0.039999999 0.061469 0.035901885 -0.4048202 0 -0.25019264
0 0.055183847 0.010173286 -0.4048202 0 -0.25019264
0 0.05442651 0.010171467 -0.4048202 0 -0.25019264
0.039999999 0.058972482 0.035895888 -0.4048202 0 -0.25019264
0 0.052912638 0.010167903 -0.4048202 0 -0.25019264
0 0.052156102 0.01016616 -0.4048202 0 -0.25019264
0.039999999 0.056478601 0.03589014 -0.4048202 0 -0.25019264
0 0.050643794 0.010162749 -0.4048202 0 -0.25019264
0 0.049888022 0.010161082 -0.4048202 0 -0.25019264
0 0.049132496 0.01015944 -0.4048202 0 -0.25019264
0 0.048377212 0.010157824 -0.4048202 0 -0.25019264
0 0.04762217 0.010156233 -0.4048202 0 -0.25019264
5.5511151e-17 0.046867363 0.010154666 -0.4048202 0 -0.25019264
0 0.046112791 0.010153126 -0.4048202 0 -0.25019264
0 0.045358442 0.01015161 -0.4048202 0 -0.25019264
0.039999999 0.049011644 0.035874404 -0.4048202 0 -0.25019264
0 0.043850422 0.010148655 -0.4048202 0 -0.25019264
5.5511151e-17 0.043096736 0.010147215 -0.4048202 0 -0.25019264
5.5511151e-17 0.042343266 0.010145799 -0.4048202 0 -0.25019264
0 0.041590005 0.01014441 -0.4048202 0 -0.25019264
5.5511151e-17 0.040836949 0.010143045 -0.4048202 0 -0.25019264
0 0.040084094 0.010141706 -0.4048202 0 -0.25019264
0 0.03933144 0.010140392 -0.4048202 0 -0.25019264
0 0.038578976 0.010139102 -0.4048202 0 -0.25019264
0 0.037826706 0.010137838 -0.4048202 0 -0.25019264
0 0.037074622 0.010136599 -0.4048202 0 -0.25019264
0 0.03632272 0.010135385 -0.4048202 0 -0.25019264
0 0.035570998 0.010134196 -0.4048202 0 -0.25019264
5.5511151e-17 0.03481945 0.010133032 -0.4048202 0 -0.25019264
5.5511151e-17 0.034068078 0.010131893 -0.4048202 0 -0.25019264
5.5511151e-17 0.033316869 0.010130778 -0.4048202 0 -0.25019264
0 0.032565828 0.010129689 -0.4048202 0 -0.25019264
0 0.031814944 0.010128625 -0.4048202 0 -0.25019264
0 0.03106422 0.010127585 -0.4048202 0 -0.25019264
0 0.030313648 0.010126571 -0.4048202 0 -0.25019264
0 0.029563226 0.010125581 -0.4048202 0 -0.25019264
0 0.028812949 0.010124616 -0.4048202 0 -0.25019264
0 0.028062813 0.010123677 -0.4048202 0 -0.25019264
0.039999999 0.030011576 0.035844345 -0.4048202 0 -0.25019264
0 0.026562953 0.010121872 -0.4048202 0 -0.25019264
0.039999999 0.028363807 0.035842415 -0.4048202 0 -0.25019264
0 0.025063617 0.010120166 -0.4048202 0 -0.25019264
0 0.024314135 0.010119351 -0.4048202 0 -0.25019264
0 0.022815527 0.010117794 -0.4048202 0 -0.25019264
0 0.022066392 0.010117053 -0.4048202 0 -0.25019264
0 0.021317367 0.010116337 -0.4048202 0 -0.25019264
0 0.020568447 0.010115646 -0.4048202 0 -0.25019264
0 0.019819627 0.010114979 -0.4048202 0 -0.25019264
0 0.019070905 0.010114336 -0.4048202 0 -0.25019264
0.039999999 0.020132689 0.035834406 -0.4048202 0 -0.25019264
0 0.017573738 0.010113128 -0.4048202 0 -0.25019264
0 0.016825287 0.010112559 -0.4048202 0 -0.25019264
5.5511151e-17 0.016076917 0.010112016 -0.4048202 0 -0.25019264
0.039999999 0.016843237 0.035831966 -0.4048202 0 -0.25019264
0.039999999 0.016021091 0.035831425 -0.4048202 0 -0.25019264
0 0.013832268 0.010110536 -0.4048202 0 -0.25019264
0 0.013084193 0.010110091 -0.4048202 0 -0.25019264
0 0.012336181 0.010109672 -0.4048202 0 -0.25019264
0 0.011588231 0.010109277 -0.4048202 0 -0.25019264
0 0.010840337 0.010108908 -0.4048202 0 -0.25019264
0 0.010092497 0.010108562 -0.4048202 0 -0.25019264
0 0.0093447054 0.010108242 -0.4048202 0 -0.25019264
0 0.0085969605 0.010107946 -0.4048202 0 -0.25019264
0 0.0078492574 0.010107674 -0.4048202 0 -0.25019264
0 0.0071015926 0.010107428 -0.4048202 0 -0.25019264
5.5511151e-17 0.0063539632 0.010107205 -0.4048202 0 -0.25019264
0 0.0056063649 0.010107009 -0.4048202 0 -0.25019264
0 0.0048587937 0.010106836 -0.4048202 0 -0.25019264
0.039999999 0.0045174761 0.035826679 -0.4048202 0 -0.25019264
5.5511151e-17 0.0033637199 0.010106564 -0.4048202 0 -0.25019264
5.5511151e-17 0.0026162094 0.010106466 -0.4048202 0 -0.25019264
0.039999999 0.0020533579 0.035826355 -0.4048202 0 -0.25019264
0 0.0011212234 0.010106343 -0.4048202 0 -0.25019264
5.5511151e-17 0.00037374053 0.010106318 -0.4048202 0 -0.25019264
0 0.079506651 0.0093448674 -0.4048202 0 -0.25019264
0 0.07873936 0.0093424544 -0.4048202 0 -0.25019264
0 0.077972464 0.0093400646 -0.4048202 0 -0.25019264
0 0.077205956 0.0093377 -0.4048202 0 -0.25019264
0 0.076439843 0.0093353586 -0.4048202 0 -0.25019264
5.5511151e-17 0.075674109 0.0093330415 -0.4048202 0 -0.25019264
5.5511151e-17 0.074908756 0.0093307476 -0.4048202 0 -0.25019264
0 0.074143782 0.0093284789 -0.4048202 0 -0.25019264
0 0.073379181 0.0093262326 -0.4048202 0 -0.25019264
0 0.072614945 0.0093240114 -0.4048202 0 -0.25019264
5.5511151e-17 0.071851075 0.0093218125 -0.4048202 0 -0.25019264
0 0.071087562 0.0093196388 -0.4048202 0 -0.25019264
0 0.070324406 0.0093174875 -0.4048202 0 -0.25019264
0 0.069561601 0.0093153613 -0.4048202 0 -0.25019264
0 0.068799146 0.0093132574 -0.4048202 0 -0.25019264
0 0.068037033 0.0093111778 -0.4048202 0 -0.25019264
0 0.067275263 0.0093091223 -0.4048202 0 -0.25019264
0 0.066513829 0.0093070902 -0.4048202 0 -0.25019264
0 0.065752722 0.0093050813 -0.4048202 0 -0.25019264
0 0.064991944 0.0093030958 -0.4048202 0 -0.25019264
5.5511151e-17 0.0642315 0.0093011335 -0.4048202 0 -0.25019264
0 0.063471369 0.0092991954 -0.4048202 0 -0.25019264
0 0.062711552 0.0092972806 -0.4048202 0 -0.25019264
5.5511151e-17 0.061952051 0.0092953891 -0.4048202 0 -0.25019264
0 0.061192859 0.0092935218 -0.4048202 0 -0.25019264
0 0.060433969 0.0092916768 -0.4048202 0 -0.25019264
0 0.059675384 0.0092898561 -0.4048202 0 -0.25019264
0 0.058917094 0.0092880577 -0.4048202 0 -0.25019264
0 0.058159098 0.0092862835 -0.4048202 0 -0.25019264
0 0.057401389 0.0092845326 -0.4048202 0 -0.25019264
0 0.056643967 0.0092828041 -0.4048202 0 -0.25019264
0 0.055886824 0.0092810998 -0.4048202 0 -0.25019264
0.039999999 0.060577314 0.034917668 -0.4048202 0 -0.25019264
0.039999999 0.059745967 0.034915846 -0.4048202 0 -0.25019264
0 0.053617053 0.0092761246 -0.4048202 0 -0.25019264
5.5511151e-17 0.052860998 0.0092745135 -0.4048202 0 -0.25019264
0 0.052105207 0.0092729246 -0.4048202 0 -0.25019264
0.039999999 0.056423496 0.034908812 -0.4048202 0 -0.25019264
0 0.050594393 0.0092698168 -0.4048202 0 -0.25019264
0 0.049839366 0.0092682969 -0.4048202 0 -0.25019264
0 0.049084581 0.0092668012 -0.4048202 0 -0.25019264
0 0.048330046 0.0092653278 -0.4048202 0 -0.25019264
0 0.047575746 0.0092638778 -0.4048202 0 -0.25019264
0 0.04682168 0.009262451 -0.4048202 0 -0.25019264
0 0.046067849 0.0092610465 -0.4048202 0 -0.25019264
5.5511151e-17 0.045314245 0.0092596654 -0.4048202 0 -0.25019264
0 0.044560865 0.0092583075 -0.4048202 0 -0.25019264
0 0.043807704 0.009256972 -0.4048202 0 -0.25019264
0 0.04305476 0.0092556607 -0.4048202 0 -0.25019264
5.5511151e-17 0.042302027 0.0092543708 -0.4048202 0 -0.25019264
0 0.041549508 0.0092531042 -0.4048202 0 -0.25019264
5.5511151e-17 0.040797189 0.0092518609 -0.4048202 0 -0.25019264
0 0.040045075 0.0092506409 -0.4048202 0 -0.25019264
0 0.039293155 0.0092494432 -0.4048202 0 -0.25019264
0 0.038541432 0.0092482679 -0.4048202 0 -0.25019264
0 0.037789896 0.0092471158 -0.4048202 0 -0.25019264
0 0.03703855 0.0092459871 -0.4048202 0 -0.25019264
5.5511151e-17 0.036287382 0.0092448806 -0.4048202 0 -0.25019264
0 0.035536397 0.0092437966 -0.4048202 0 -0.25019264
0 0.034785584 0.0092427358 -0.4048202 0 -0.25019264
0 0.034034945 0.0092416983 -0.4048202 0 -0.25019264
5.5511151e-17 0.03328447 0.0092406822 -0.4048202 0 -0.25019264
5.5511151e-17 0.032534163 0.0092396904 -0.4048202 0 -0.25019264
0 0.031784013 0.0092387199 -0.4048202 0 -0.25019264
0 0.031034023 0.0092377728 -0.4048202 0 -0.25019264
0 0.030284183 0.0092368489 -0.4048202 0 -0.25019264
0 0.029534493 0.0092359474 -0.4048202 0 -0.25019264
0 0.028784947 0.0092350682 -0.4048202 0 -0.25019264
5.5511151e-17 0.028035544 0.0092342114 -0.4048202 0 -0.25019264
0.039999999 0.029982416 0.034867078 -0.4048202 0 -0.25019264
5.5511151e-17 0.026537145 0.0092325667 -0.4048202 0 -0.25019264
0 0.025788143 0.0092317788 -0.4048202 0 -0.25019264
5.5511151e-17 0.025039269 0.0092310123 -0.4048202 0 -0.25019264
0 0.024290517 0.0092302701 -0.4048202 0 -0.25019264
0 0.022793369 0.0092288507 -0.4048202 0 -0.25019264
0 0.022044964 0.0092281755 -0.4048202 0 -0.25019264
0 0.021296667 0.0092275236 -0.4048202 0 -0.25019264
5.5511151e-17 0.020548476 0.0092268931 -0.4048202 0 -0.25019264
5.5511151e-17 0.019800384 0.0092262859 -0.4048202 0 -0.25019264
0 0.01905239 0.0092257001 -0.4048202 0 -0.25019264
0 0.01830449 0.0092251375 -0.4048202 0 -0.25019264
5.5511151e-17 0.017556679 0.0092245983 -0.4048202 0 -0.25019264
0 0.016808955 0.0092240805 -0.4048202 0 -0.25019264
0 0.016061313 0.0092235859 -0.4048202 0 -0.25019264
0.039999999 0.01682689 0.034855802 -0.4048202 0 -0.25019264
5.5511151e-17 0.014566261 0.0092226639 -0.4048202 0 -0.25019264
5.5511151e-17 0.013818844 0.0092222365 -0.4048202 0 -0.25019264
0 0.013071495 0.0092218323 -0.4048202 0 -0.25019264
0 0.01232421 0.0092214495 -0.4048202 0 -0.25019264
0 0.011576986 0.00922109 -0.4048202 0 -0.25019264
0 0.010829818 0.0092207529 -0.4048202 0 -0.25019264
5.5511151e-17 0.010082704 0.0092204381 -0.4048202 0 -0.25019264
0 0.009335639 0.0092201456 -0.4048202 0 -0.25019264
0 0.0085886195 0.0092198765 -0.4048202 0 -0.25019264
0 0.007841642 0.0092196288 -0.4048202 0 -0.25019264
0 0.0070947031 0.0092194043 -0.4048202 0 -0.25019264
5.5511151e-17 0.0063477987 0.0092192022 -0.4048202 0 -0.25019264
0.039999999 0.0061543491 0.034851305 -0.4048202 0 -0.25019264
5.5511151e-17 0.0048540803 0.0092188651 -0.4048202 0 -0.25019264
0 0.0041072583 0.00921873 -0.4048202 0 -0.25019264
0 0.0033604566 0.0092186173 -0.4048202 0 -0.25019264
5.5511151e-17 0.0026136714 0.0092185279 -0.4048202 0 -0.25019264
0 0.001866899 0.0092184609 -0.4048202 0 -0.25019264
0 0.0011201358 0.0092184152 -0.4048202 0 -0.25019264
0.039999999 0.0004102712 0.034850612 -0.4048202 0 -0.25019264
5.5511151e-17 0.079428546 0.0084464382 -0.4048202 0 -0.25019264
5.5511151e-17 0.07866203 0.0084442589 -0.4048202 0 -0.25019264
0 0.077895902 0.008442102 -0.4048202 0 -0.25019264
0 0.077130169 0.0084399665 -0.4048202 0 -0.25019264
0 0.076364823 0.0084378524 -0.4048202 0 -0.25019264
5.5511151e-17 0.075599864 0.0084357597 -0.4048202 0 -0.25019264
0 0.074835278 0.0084336884 -0.4048202 0 -0.25019264
0 0.074071072 0.0084316395 -0.4048202 0 -0.25019264
5.5511151e-17 0.073307239 0.008429612 -0.4048202 0 -0.25019264
5.5511151e-17 0.07254377 0.008427606 -0.4048202 0 -0.25019264
0 0.071780659 0.0084256204 -0.4048202 0 -0.25019264
5.5511151e-17 0.071017914 0.0084236572 -0.4048202 0 -0.25019264
0 0.070255518 0.0084217153 -0.4048202 0 -0.25019264
0 0.06949348 0.008419795 -0.4048202 0 -0.25019264
0 0.068731785 0.008417896 -0.4048202 0 -0.25019264
5.5511151e-17 0.067970432 0.0084160175 -0.4048202 0 -0.25019264
5.5511151e-17 0.067209423 0.0084141614 -0.4048202 0 -0.25019264
0 0.066448748 0.0084123258 -0.4048202 0 -0.25019264
5.5511151e-17 0.065688401 0.0084105125 -0.4048202 0 -0.25019264
5.5511151e-17 0.064928383 0.0084087197 -0.4048202 0 -0.25019264
0 0.064168692 0.0084069483 -0.4048202 0 -0.25019264
0 0.063409321 0.0084051974 -0.4048202 0 -0.25019264
0 0.062650263 0.0084034689 -0.4048202 0 -0.25019264
5.5511151e-17 0.061891515 0.0084017608 -0.4048202 0 -0.25019264
0 0.061133076 0.0084000742 -0.4048202 0 -0.25019264
0.039999999 0.066340543 0.033949606 -0.4048202 0 -0.25019264
0 0.059617106 0.0083967643 -0.4048202 0 -0.25019264
0 0.058859568 0.008395141 -0.4048202 0 -0.25019264
0 0.058102321 0.0083935382 -0.4048202 0 -0.25019264
0 0.057345364 0.0083919568 -0.4048202 0 -0.25019264
5.5511151e-17 0.056588691 0.0083903968 -0.4048202 0 -0.25019264
5.5511151e-17 0.055832297 0.0083888574 -0.4048202 0 -0.25019264
5.5511151e-17 0.055076182 0.0083873393 -0.4048202 0 -0.25019264
0 0.054320339 0.0083858417 -0.4048202 0 -0.25019264
0 0.053564768 0.0083843656 -0.4048202 0 -0.25019264
0 0.052809458 0.0083829099 -0.4048202 0 -0.25019264
0 0.052054413 0.0083814757 -0.4048202 0 -0.25019264
0 0.051299624 0.0083800619 -0.4048202 0 -0.25019264
5.5511151e-17 0.050545089 0.0083786687 -0.4048202 0 -0.25019264
5.5511151e-17 0.049790803 0.0083772969 -0.4048202 0 -0.25019264
0 0.049036767 0.0083759464 -0.4048202 0 -0.25019264
0 0.04828297 0.0083746156 -0.4048202 0 -0.25019264
0 0.047529414 0.0083733061 -0.4048202 0 -0.25019264
0 0.04677609 0.0083720181 -0.4048202 0 -0.25019264
0 0.046023 0.0083707497 -0.4048202 0 -0.25019264
0 0.045270134 0.0083695026 -0.4048202 0 -0.25019264
5.5511151e-17 0.044517495 0.008368277 -0.4048202 0 -0.25019264
5.5511151e-17 0.043765072 0.0083670709 -0.4048202 0 -0.25019264
5.5511151e-17 0.043012869 0.0083658863 -0.4048202 0 -0.25019264
0.039999999 0.046436641 0.033912592 -0.4048202 0 -0.25019264
0 0.041509088 0.0083635785 -0.4048202 0 -0.25019264
5.5511151e-17 0.040757511 0.0083624553 -0.4048202 0 -0.25019264
0 0.040006131 0.0083613535 -0.4048202 0 -0.25019264
0 0.039254948 0.0083602723 -0.4048202 0 -0.25019264
0 0.03850396 0.0083592106 -0.4048202 0 -0.25019264
5.5511151e-17 0.037753161 0.0083581703 -0.4048202 0 -0.25019264
0 0.037002549 0.0083571514 -0.4048202 0 -0.25019264
0 0.036252115 0.0083561521 -0.4048202 0 -0.25019264
0 0.035501864 0.0083551733 -0.4048202 0 -0.25019264
0 0.034751784 0.0083542159 -0.4048202 0 -0.25019264
5.5511151e-17 0.034001879 0.008353278 -0.4048202 0 -0.25019264
5.5511151e-17 0.033252139 0.0083523616 -0.4048202 0 -0.25019264
0.039999999 0.035714116 0.033898026 -0.4048202 0 -0.25019264
0 0.031753145 0.0083505893 -0.4048202 0 -0.25019264
0 0.031003885 0.0083497344 -0.4048202 0 -0.25019264
0 0.030254776 0.0083488999 -0.4048202 0 -0.25019264
0 0.029505815 0.008348085 -0.4048202 0 -0.25019264
0 0.028757002 0.0083472915 -0.4048202 0 -0.25019264
5.5511151e-17 0.028008327 0.0083465185 -0.4048202 0 -0.25019264
0 0.027259791 0.0083457651 -0.4048202 0 -0.25019264
0 0.02651139 0.008345033 -0.4048202 0 -0.25019264
0 0.025763117 0.0083443215 -0.4048202 0 -0.25019264
0 0.02501497 0.0083436295 -0.4048202 0 -0.25019264
0 0.024266947 0.008342959 -0.4048202 0 -0.25019264
0 0.023519043 0.008342308 -0.4048202 0 -0.25019264
5.5511151e-17 0.022771254 0.0083416775 -0.4048202 0 -0.25019264
0 0.022023577 0.0083410684 -0.4048202 0 -0.25019264
0.039999999 0.023378275 0.033885952 -0.4048202 0 -0.25019264
0 0.020528544 0.0083399098 -0.4048202 0 -0.25019264
5.5511151e-17 0.01978118 0.0083393613 -0.4048202 0 -0.25019264
0 0.019033913 0.0083388323 -0.4048202 0 -0.25019264
5.5511151e-17 0.018286739 0.0083383247 -0.4048202 0 -0.25019264
0 0.017539654 0.0083378376 -0.4048202 0 -0.25019264
5.5511151e-17 0.016792655 0.0083373701 -0.4048202 0 -0.25019264
5.5511151e-17 0.01604574 0.0083369231 -0.4048202 0 -0.25019264
5.5511151e-17 0.015298901 0.0083364965 -0.4048202 0 -0.25019264
5.5511151e-17 0.014552139 0.0083360905 -0.4048202 0 -0.25019264
0 0.013805447 0.0083357049 -0.4048202 0 -0.25019264
0 0.013058824 0.0083353398 -0.4048202 0 -0.25019264
5.5511151e-17 0.012312263 0.0083349943 -0.4048202 0 -0.25019264
0 0.011565764 0.0083346693 -0.4048202 0 -0.25019264
0.039999999 0.01188837 0.033879235 -0.4048202 0 -0.25019264
0 0.010072931 0.0083340807 -0.4048202 0 -0.25019264
0 0.0093265902 0.0083338171 -0.4048202 0 -0.25019264
0 0.0085802944 0.0083335731 -0.4048202 0 -0.25019264
0 0.0078340415 0.0083333505 -0.4048202 0 -0.25019264
0 0.0070878267 0.0083331475 -0.4048202 0 -0.25019264
0 0.0063416464 0.008332965 -0.4048202 0 -0.25019264
0 0.0055954978 0.008332802 -0.4048202 0 -0.25019264
5.5511151e-17 0.0048493757 0.0083326604 -0.4048202 0 -0.25019264
5.5511151e-17 0.0041032778 0.0083325384 -0.4048202 0 -0.25019264
0 0.0033572 0.0083324369 -0.4048202 0 -0.25019264
0 0.0026111386 0.0083323559 -0.4048202 0 -0.25019264
0 0.0018650898 0.0083322953 -0.4048202 0 -0.25019264
5.5511151e-17 0.0011190502 0.0083322544 -0.4048202 0 -0.25019264
0 0.00037301614 0.0083322339 -0.4048202 0 -0.25019264
5.5511151e-17 0.079350598 0.0075498135 -0.4048202 0 -0.25019264
0 0.07858485 0.0075478675 -0.4048202 0 -0.25019264
0 0.077819496 0.0075459415 -0.4048202 0 -0.25019264
0 0.077054538 0.0075440342 -0.4048202 0 -0.25019264
5.5511151e-17 0.076289959 0.0075421464 -0.4048202 0 -0.25019264
5.5511151e-17 0.075525768 0.0075402781 -0.4048202 0 -0.25019264
5.5511151e-17 0.074761949 0.007538429 -0.4048202 0 -0.25019264
5.5511151e-17 0.073998511 0.0075365989 -0.4048202 0 -0.25019264
5.5511151e-17 0.073235437 0.007534788 -0.4048202 0 -0.25019264
0 0.072472736 0.0075329966 -0.4048202 0 -0.25019264
0.039999999 0.078796044 0.032996736 -0.4048202 0 -0.25019264
0.039999999 0.07795877 0.03299481 -0.4048202 0 -0.25019264
0 0.070186779 0.0075277369 -0.4048202 0 -0.25019264
0.039999999 0.076285385 0.032991022 -0.4048202 0 -0.25019264
5.5511151e-17 0.068664566 0.007524326 -0.4048202 0 -0.25019264
0.039999999 0.074613519 0.032987315 -0.4048202 0 -0.25019264
5.5511151e-17 0.067143716 0.0075209914 -0.4048202 0 -0.25019264
5.5511151e-17 0.066383801 0.0075193522 -0.4048202 0 -0.25019264
0 0.065624215 0.0075177327 -0.4048202 0 -0.25019264
0 0.064864948 0.0075161317 -0.4048202 0 -0.25019264
0 0.06410601 0.0075145499 -0.4048202 0 -0.25019264
0 0.063347392 0.0075129871 -0.4048202 0 -0.25019264
0 0.062589087 0.007511443 -0.4048202 0 -0.25019264
0 0.061831094 0.007509918 -0.4048202 0 -0.25019264
0 0.061073411 0.007508412 -0.4048202 0 -0.25019264
0 0.060316026 0.0075069247 -0.4048202 0 -0.25019264
5.5511151e-17 0.059558943 0.007505456 -0.4048202 0 -0.25019264
5.5511151e-17 0.058802154 0.0075040064 -0.4048202 0 -0.25019264
0 0.058045659 0.0075025754 -0.4048202 0 -0.25019264
0 0.057289448 0.0075011635 -0.4048202 0 -0.25019264
0.039999999 0.062119562 0.032962173 -0.4048202 0 -0.25019264
5.5511151e-17 0.055777878 0.0074983956 -0.4048202 0 -0.25019264
0 0.054267414 0.0074957027 -0.4048202 0 -0.25019264
0 0.053512584 0.0074943844 -0.4048202 0 -0.25019264
0 0.052758023 0.0074930848 -0.4048202 0 -0.25019264
0.039999999 0.057142172 0.032953423 -0.4048202 0 -0.25019264
0 0.051249675 0.0074905413 -0.4048202 0 -0.25019264
0 0.050495885 0.0074892975 -0.4048202 0 -0.25019264
0 0.049742341 0.0074880724 -0.4048202 0 -0.25019264
0.039999999 0.053829618 0.032947995 -0.4048202 0 -0.25019264
0 0.04823599 0.007485678 -0.4048202 0 -0.25019264
0 0.047483172 0.0074845087 -0.4048202 0 -0.25019264
5.5511151e-17 0.046730589 0.007483358 -0.4048202 0 -0.25019264
0 0.045978237 0.007482226 -0.4048202 0 -0.25019264
5.5511151e-17 0.045226112 0.0074811121 -0.4048202 0 -0.25019264
0 0.044474211 0.0074800169 -0.4048202 0 -0.25019264
0 0.043722525 0.0074789408 -0.4048202 0 -0.25019264
5.5511151e-17 0.04297106 0.0074778823 -0.4048202 0 -0.25019264
0 0.042219803 0.007476843 -0.4048202 0 -0.25019264
0 0.041468754 0.0074758218 -0.4048202 0 -0.25019264
0 0.040717911 0.0074748192 -0.4048202 0 -0.25019264
0 0.039967265 0.0074738348 -0.4048202 0 -0.25019264
0 0.039216816 0.007472869 -0.4048202 0 -0.25019264
0 0.038466565 0.0074719219 -0.4048202 0 -0.25019264
0 0.037716497 0.0074709929 -0.4048202 0 -0.25019264
0.039999999 0.039795488 0.032928575 -0.4048202 0 -0.25019264
0 0.035467401 0.0074683162 -0.4048202 0 -0.25019264
0 0.034718055 0.0074674608 -0.4048202 0 -0.25019264
5.5511151e-17 0.033968877 0.007466624 -0.4048202 0 -0.25019264
0 0.03321987 0.0074658049 -0.4048202 0 -0.25019264
5.5511151e-17 0.032471023 0.0074650049 -0.4048202 0 -0.25019264
0.039999999 0.0348568 0.032923114 -0.4048202 0 -0.25019264
0 0.030973807 0.0074634589 -0.4048202 0 -0.25019264
0.039999999 0.03321198 0.032921456 -0.4048202 0 -0.25019264
0 0.029477198 0.0074619865 -0.4048202 0 -0.25019264
0 0.028729111 0.0074612778 -0.4048202 0 -0.25019264
0 0.027981166 0.0074605872 -0.4048202 0 -0.25019264
5.5511151e-17 0.027233358 0.0074599148 -0.4048202 0 -0.25019264
0 0.026485683 0.007459261 -0.4048202 0 -0.25019264
0 0.025738139 0.0074586254 -0.4048202 0 -0.25019264
0 0.024990721 0.0074580079 -0.4048202 0 -0.25019264
0 0.024243424 0.0074574086 -0.4048202 0 -0.25019264
0 0.023496248 0.0074568274 -0.4048202 0 -0.25019264
5.5511151e-17 0.022749186 0.0074562649 -0.4048202 0 -0.25019264
5.5511151e-17 0.022002233 0.0074557201 -0.4048202 0 -0.25019264
0 0.021255391 0.0074551939 -0.4048202 0 -0.25019264
0 0.020508651 0.0074546859 -0.4048202 0 -0.25019264
5.5511151e-17 0.019762013 0.007454196 -0.4048202 0 -0.25019264
0 0.019015471 0.0074537243 -0.4048202 0 -0.25019264
0 0.018269021 0.0074532707 -0.4048202 0 -0.25019264
0 0.017522663 0.0074528353 -0.4048202 0 -0.25019264
0 0.016776389 0.0074524181 -0.4048202 0 -0.25019264
0 0.016030196 0.007452019 -0.4048202 0 -0.25019264
0 0.015284083 0.0074516381 -0.4048202 0 -0.25019264
0 0.014538044 0.0074512754 -0.4048202 0 -0.25019264
5.5511151e-17 0.013792076 0.0074509308 -0.4048202 0 -0.25019264
0 0.013046176 0.0074506048 -0.4048202 0 -0.25019264
0 0.01230034 0.0074502965 -0.4048202 0 -0.25019264
5.5511151e-17 0.011554563 0.0074500064 -0.4048202 0 -0.25019264
0 0.010808844 0.0074497345 -0.4048202 0 -0.25019264
0 0.010063177 0.0074494807 -0.4048202 0 -0.25019264
5.5511151e-17 0.0093175592 0.0074492451 -0.4048202 0 -0.25019264
5.5511151e-17 0.008571987 0.0074490276 -0.4048202 0 -0.25019264
0 0.0078264568 0.0074488283 -0.4048202 0 -0.25019264
0.039999999 0.0077806292 0.032906 -0.4048202 0 -0.25019264
0 0.0063355067 0.0074484842 -0.4048202 0 -0.25019264
0 0.0055900803 0.0074483389 -0.4048202 0 -0.25019264
5.5511151e-17 0.0048446809 0.0074482122 -0.4048202 0 -0.25019264
0 0.0040993053 0.0074481033 -0.4048202 0 -0.25019264
5.5511151e-17 0.0033539499 0.0074480129 -0.4048202 0 -0.25019264
5.5511151e-17 0.0026086105 0.0074479403 -0.4048202 0 -0.25019264
0 0.0018632842 0.0074478858 -0.4048202 0 -0.25019264
5.5511151e-17 0.0011179668 0.00744785 -0.4048202 0 -0.25019264
0 0.00037265502 0.0074478318 -0.4048202 0 -0.25019264
5.5511151e-17 0.079272807 0.0066549839 -0.4048202 0 -0.25019264
5.5511151e-17 0.077743247 0.0066515738 -0.4048202 0 -0.25019264
5.5511151e-17 0.076979056 0.0066498946 -0.4048202 0 -0.25019264
0 0.076215245 0.0066482322 -0.4048202 0 -0.25019264
0 0.075451821 0.0066465866 -0.4048202 0 -0.25019264
5.5511151e-17 0.07468877 0.0066449582 -0.4048202 0 -0.25019264
5.5511151e-17 0.073926091 0.006643347 -0.4048202 0 -0.25019264
0 0.073163785 0.0066417521 -0.4048202 0 -0.25019264
5.5511151e-17 0.072401844 0.0066401744 -0.4048202 0 -0.25019264
0 0.071640261 0.0066386135 -0.4048202 0 -0.25019264
0.039999999 0.077882543 0.032014232 -0.4048202 0 -0.25019264
0 0.070118167 0.0066355425 -0.4048202 0 -0.25019264
5.5511151e-17 0.069357648 0.0066340324 -0.4048202 0 -0.25019264
5.5511151e-17 0.068597473 0.006632539 -0.4048202 0 -0.25019264
0 0.067837641 0.0066310624 -0.4048202 0 -0.25019264
0 0.067078143 0.0066296025 -0.4048202 0 -0.25019264
0.039999999 0.072871916 0.032004442 -0.4048202 0 -0.25019264
0 0.065560147 0.0066267326 -0.4048202 0 -0.25019264
5.5511151e-17 0.064801641 0.0066253231 -0.4048202 0 -0.25019264
0 0.064043462 0.0066239303 -0.4048202 0 -0.25019264
0.039999999 0.069538802 0.03199828 -0.4048202 0 -0.25019264
0 0.062528044 0.0066211941 -0.4048202 0 -0.25019264
5.5511151e-17 0.061770801 0.0066198511 -0.4048202 0 -0.25019264
0 0.061013862 0.0066185249 -0.4048202 0 -0.25019264
0 0.06025723 0.006617215 -0.4048202 0 -0.25019264
0.039999999 0.065380141 0.031990994 -0.4048202 0 -0.25019264
0 0.058744855 0.006614645 -0.4048202 0 -0.25019264
5.5511151e-17 0.057989109 0.0066133849 -0.4048202 0 -0.25019264
0 0.057233647 0.0066121416 -0.4048202 0 -0.25019264
0 0.056478467 0.0066109146 -0.4048202 0 -0.25019264
0.039999999 0.061229575 0.031984162 -0.4048202 0 -0.25019264
5.5511151e-17 0.054968946 0.0066085099 -0.4048202 0 -0.25019264
0.039999999 0.059571497 0.031981558 -0.4048202 0 -0.25019264
0 0.053460509 0.0066061718 -0.4048202 0 -0.25019264
0 0.052706689 0.0066050272 -0.4048202 0 -0.25019264
0 0.051953129 0.0066038989 -0.4048202 0 -0.25019264
5.5511151e-17 0.051199827 0.0066027874 -0.4048202 0 -0.25019264
0 0.050446775 0.0066016922 -0.4048202 0 -0.25019264
0 0.048941419 0.0065995511 -0.4048202 0 -0.25019264
0 0.048189104 0.0065985047 -0.4048202 0 -0.25019264
5.5511151e-17 0.047437023 0.0065974751 -0.4048202 0 -0.25019264
0 0.046685182 0.0065964619 -0.4048202 0 -0.25019264
0 0.045933567 0.0065954649 -0.4048202 0 -0.25019264
0 0.045182176 0.0065944842 -0.4048202 0 -0.25019264
0 0.044431012 0.0065935198 -0.4048202 0 -0.25019264
5.5511151e-17 0.043680064 0.0065925717 -0.4048202 0 -0.25019264
0 0.042929333 0.0065916399 -0.4048202 0 -0.25019264
0 0.04217881 0.0065907245 -0.4048202 0 -0.25019264
0 0.041428499 0.0065898248 -0.4048202 0 -0.25019264
5.5511151e-17 0.040678386 0.0065889419 -0.4048202 0 -0.25019264
5.5511151e-17 0.039928477 0.0065880753 -0.4048202 0 -0.25019264
0 0.039178763 0.006587225 -0.4048202 0 -0.25019264
0 0.038429242 0.0065863905 -0.4048202 0 -0.25019264
0.039999999 0.041403033 0.031957645 -0.4048202 0 -0.25019264
0 0.036930759 0.0065847705 -0.4048202 0 -0.25019264
0 0.036181793 0.0065839849 -0.4048202 0 -0.25019264
