# .PCD v0.7 - Point Cloud Data file format
VERSION 0.7
FIELDS x y z vp_x vp_y vp_z
SIZE 4 4 4 4 4 4
TYPE F F F F F F
COUNT 1 1 1 1 1 1
WIDTH 797
HEIGHT 1
VIEWPOINT 0 0 0 1 0 0 0
POINTS 797
DATA ascii
0.039999999 0.051178321 0.032402989 0.4048202 0 -0.25019264
0.039999999 0.051900782 0.032413654 0.4048202 0 -0.25019264
0.039999999 0.052623522 0.032424469 0.4048202 0 -0.25019264
0.039999999 0.053346548 0.03243544 0.4048202 0 -0.25019264
0.039999999 0.054069862 0.032446556 0.4048202 0 -0.25019264
0.039999999 0.05479347 0.032457829 0.4048202 0 -0.25019264
0.039999999 0.055517372 0.032469254 0.4048202 0 -0.25019264
0.039999999 0.056241576 0.032480828 0.4048202 0 -0.25019264
0.039999999 0.056966085 0.032492556 0.4048202 0 -0.25019264
0.039999999 0.0576909 0.032504439 0.4048202 0 -0.25019264
0.039999999 0.058416031 0.032516472 0.4048202 0 -0.25019264
0.00079990033 0.065496258 0.062907189 0.4048202 0 -0.25019264
0.039999999 0.059867244 0.032540999 0.4048202 0 -0.25019264
0.039999999 0.060593337 0.03255349 0.4048202 0 -0.25019264
0.039999999 0.061319757 0.032566138 0.4048202 0 -0.25019264
0.0019152631 0.068523742 0.062098358 0.4048202 0 -0.25019264
0.039999999 0.062773608 0.032591894 0.4048202 0 -0.25019264
0.039999999 0.063501038 0.032605 0.4048202 0 -0.25019264
0.039999999 0.064228818 0.032618262 0.4048202 0 -0.25019264
0.0036240404 0.071433753 0.060831886 0.4048202 0 -0.25019264
0.039999999 0.065685429 0.032645248 0.4048202 0 -0.25019264
0.039999999 0.066414267 0.032658976 0.4048202 0 -0.25019264
0.039999999 0.06714347 0.032672856 0.4048202 0 -0.25019264
0.039999999 0.067873038 0.032686889 0.4048202 0 -0.25019264
0.039999999 0.068602972 0.032701079 0.4048202 0 -0.25019264
0.039999999 0.069333285 0.032715425 0.4048202 0 -0.25019264
0.039999999 0.070063978 0.032729927 0.4048202 0 -0.25019264
0.039999999 0.070795052 0.032744583 0.4048202 0 -0.25019264
0.010148209 0.077379242 0.055912241 0.4048202 0 -0.25019264
0.039999999 0.072258368 0.032774366 0.4048202 0 -0.25019264
0.039999999 0.072990611 0.032789491 0.4048202 0 -0.25019264
0.039999999 0.073723264 0.032804776 0.4048202 0 -0.25019264
0.039999999 0.074456312 0.032820214 0.4048202 0 -0.25019264
0.039999999 0.075189769 0.032835811 0.4048202 0 -0.25019264
0.039999999 0.075923644 0.032851562 0.4048202 0 -0.25019264
0.039999999 0.076657936 0.032867473 0.4048202 0 -0.25019264
0.039999999 0.077392645 0.032883544 0.4048202 0 -0.25019264
0.039999999 0.078127779 0.032899767 0.4048202 0 -0.25019264
0.039999999 0.078863345 0.032916155 0.4048202 0 -0.25019264
0.038163703 0.079999998 0.034357786 0.4048202 0 -0.25019264
0.039999999 0.00035589453 0.031121833 0.4048202 0 -0.25019264
0.039999999 0.0010676855 0.031121979 0.4048202 0 -0.25019264
0.039999999 0.0017794822 0.031122265 0.4048202 0 -0.25019264
0.039999999 0.0024912884 0.031122698 0.4048202 0 -0.25019264
0.039999999 0.0032031077 0.031123273 0.4048202 0 -0.25019264
0.039999999 0.0039149439 0.031123994 0.4048202 0 -0.25019264
0.039999999 0.0046268012 0.031124858 0.4048202 0 -0.25019264
0.039999999 0.0053386833 0.031125866 0.4048202 0 -0.25019264
0.039999999 0.0060505937 0.031127017 0.4048202 0 -0.25019264
0.039999999 0.0067625362 0.031128313 0.4048202 0 -0.25019264
0.039999999 0.0074745147 0.031129753 0.4048202 0 -0.25019264
0.028499141 0.008444611 0.039999999 0.4048202 0 -0.25019264
0.039999999 0.0088985944 0.031133065 0.4048202 0 -0.25019264
0.039999999 0.0096107041 0.031134937 0.4048202 0 -0.25019264
0.028506655 0.010648077 0.039999999 0.4048202 0 -0.25019264
0.039999999 0.01103508 0.031139115 0.4048202 0 -0.25019264
0.039999999 0.011747354 0.031141419 0.4048202 0 -0.25019264
0.039999999 0.012459691 0.031143868 0.4048202 0 -0.25019264
0.028519372 0.01358661 0.039999999 0.4048202 0 -0.25019264
0.039999999 0.013884567 0.031149199 0.4048202 0 -0.25019264
0.039999999 0.014597114 0.031152081 0.4048202 0 -0.25019264
0.039999999 0.015309739 0.031155108 0.4048202 0 -0.25019264
0.039999999 0.016022446 0.031158278 0.4048202 0 -0.25019264
0.039999999 0.016735237 0.031161593 0.4048202 0 -0.25019264
0.028544236 0.017996009 0.039999999 0.4048202 0 -0.25019264
0.039999999 0.018161092 0.031168656 0.4048202 0 -0.25019264
0.028554069 0.019466324 0.039999999 0.4048202 0 -0.25019264
0.028559275 0.020201592 0.039999999 0.4048202 0 -0.25019264
0.028564675 0.020936934 0.039999999 0.4048202 0 -0.25019264
0.039999999 0.021013994 0.031184519 0.4048202 0 -0.25019264
0.039999999 0.021727491 0.031188846 0.4048202 0 -0.25019264
0.039999999 0.022441102 0.031193318 0.4048202 0 -0.25019264
0.039999999 0.023154834 0.031197935 0.4048202 0 -0.25019264
0.039999999 0.023868689 0.031202698 0.4048202 0 -0.25019264
0.039999999 0.024582673 0.031207604 0.4048202 0 -0.25019264
0.02860789 0.02608672 0.039999999 0.4048202 0 -0.25019264
0.039999999 0.026011035 0.031217854 0.4048202 0 -0.25019264
0.039999999 0.026725424 0.031223198 0.4048202 0 -0.25019264
0.039999999 0.027439954 0.031228686 0.4048202 0 -0.25019264
0.039999999 0.028154632 0.031234318 0.4048202 0 -0.25019264
0.039999999 0.028869459 0.031240098 0.4048202 0 -0.25019264
0.039999999 0.029584441 0.031246021 0.4048202 0 -0.25019264
0.039999999 0.030299582 0.03125209 0.4048202 0 -0.25019264
0.039999999 0.031014884 0.031258307 0.4048202 0 -0.25019264
0.039999999 0.03173035 0.03126467 0.4048202 0 -0.25019264
0.039999999 0.03244599 0.031271175 0.4048202 0 -0.25019264
0.039999999 0.0331618 0.031277828 0.4048202 0 -0.25019264
0.039999999 0.03387779 0.031284627 0.4048202 0 -0.25019264
0.039999999 0.034593958 0.031291574 0.4048202 0 -0.25019264
0.039999999 0.035310313 0.031298663 0.4048202 0 -0.25019264
0.039999999 0.036026858 0.031305902 0.4048202 0 -0.25019264
0.039999999 0.036743596 0.031313285 0.4048202 0 -0.25019264
0.039999999 0.037460532 0.031320818 0.4048202 0 -0.25019264
0.039999999 0.038177665 0.031328492 0.4048202 0 -0.25019264
0.039999999 0.038895007 0.031336319 0.4048202 0 -0.25019264
0.039999999 0.039612554 0.031344287 0.4048202 0 -0.25019264
0.028794628 0.04156905 0.039999999 0.4048202 0 -0.25019264
0.039999999 0.041048292 0.031360671 0.4048202 0 -0.25019264
0.039999999 0.041766491 0.031369083 0.4048202 0 -0.25019264
0.039999999 0.042484913 0.03137764 0.4048202 0 -0.25019264
0.039999999 0.043203562 0.031386346 0.4048202 0 -0.25019264
0.039999999 0.043922443 0.031395201 0.4048202 0 -0.25019264
0.039999999 0.044641562 0.031404201 0.4048202 0 -0.25019264
0.039999999 0.045360919 0.03141335 0.4048202 0 -0.25019264
0.039999999 0.046080522 0.031422645 0.4048202 0 -0.25019264
0.039999999 0.046800371 0.031432088 0.4048202 0 -0.25019264
0.039999999 0.047520474 0.031441681 0.4048202 0 -0.25019264
0.039999999 0.048240833 0.031451423 0.4048202 0 -0.25019264
0.039999999 0.048961449 0.031461313 0.4048202 0 -0.25019264
0.039999999 0.04968233 0.031471349 0.4048202 0 -0.25019264
0.039999999 0.050403479 0.031481534 0.4048202 0 -0.25019264
0.039999999 0.051124901 0.031491872 0.4048202 0 -0.25019264
0.039999999 0.051846597 0.031502355 0.4048202 0 -0.25019264
0.039999999 0.052568574 0.031512987 0.4048202 0 -0.25019264
0.039999999 0.053290833 0.031523768 0.4048202 0 -0.25019264
0.039999999 0.054013383 0.031534698 0.4048202 0 -0.25019264
0.039999999 0.054736219 0.031545781 0.4048202 0 -0.25019264
0.039999999 0.055459354 0.031557009 0.4048202 0 -0.25019264
0.039999999 0.056182791 0.031568389 0.4048202 0 -0.25019264
0.039999999 0.056906529 0.031579919 0.4048202 0 -0.25019264
0.039999999 0.057630576 0.031591598 0.4048202 0 -0.25019264
0.039999999 0.058354937 0.031603426 0.4048202 0 -0.25019264
0.039999999 0.05907961 0.031615406 0.4048202 0 -0.25019264
0.039999999 0.059804603 0.031627536 0.4048202 0 -0.25019264
0.039999999 0.060529925 0.031639818 0.4048202 0 -0.25019264
0.039999999 0.061255571 0.031652249 0.4048202 0 -0.25019264
0.039999999 0.061981548 0.031664833 0.4048202 0 -0.25019264
0.0022701528 0.06919314 0.060828689 0.4048202 0 -0.25019264
0.039999999 0.063434519 0.031690452 0.4048202 0 -0.25019264
0.039999999 0.064161524 0.031703487 0.4048202 0 -0.25019264
0.039999999 0.064888872 0.031716675 0.4048202 0 -0.25019264
0.039999999 0.06561657 0.031730015 0.4048202 0 -0.25019264
0.039999999 0.066344634 0.031743508 0.4048202 0 -0.25019264
0.039999999 0.067073055 0.031757154 0.4048202 0 -0.25019264
0.039999999 0.067801841 0.031770948 0.4048202 0 -0.25019264
0.039999999 0.068530992 0.0317849 0.4048202 0 -0.25019264
0.039999999 0.069260523 0.031799 0.4048202 0 -0.25019264
0.039999999 0.069990426 0.031813256 0.4048202 0 -0.25019264
0.039999999 0.070720717 0.031827666 0.4048202 0 -0.25019264
0.010046301 0.077317931 0.0549988 0.4048202 0 -0.25019264
0.039999999 0.072182454 0.031856939 0.4048202 0 -0.25019264
0.039999999 0.072913915 0.031871811 0.4048202 0 -0.25019264
0.039999999 0.073645771 0.031886831 0.4048202 0 -0.25019264
0.015298976 0.079413973 0.051001899 0.4048202 0 -0.25019264
0.039999999 0.075110696 0.031917341 0.4048202 0 -0.25019264
0.029568229 0.078012474 0.039999999 0.4048202 0 -0.25019264
0.029589031 0.078762576 0.039999999 0.4048202 0 -0.25019264
0.039999999 0.077311181 0.031964261 0.4048202 0 -0.25019264
0.039999999 0.078045517 0.031980213 0.4048202 0 -0.25019264
0.039999999 0.079515487 0.032012578 0.4048202 0 -0.25019264
0.039999999 0.00035552602 0.030219268 0.4048202 0 -0.25019264
0.039999999 0.0010665799 0.03021941 0.4048202 0 -0.25019264
0.039999999 0.0017776395 0.030219693 0.4048202 0 -0.25019264
0.027276261 0.0025755065 0.039999999 0.4048202 0 -0.25019264
0.039999999 0.0031997906 0.030220682 0.4048202 0 -0.25019264
0.039999999 0.0039108898 0.03022139 0.4048202 0 -0.25019264
0.039999999 0.00462201 0.030222239 0.4048202 0 -0.25019264
0.039999999 0.0053331545 0.03022323 0.4048202 0 -0.25019264
0.039999999 0.0060443273 0.030224362 0.4048202 0 -0.25019264
0.039999999 0.0067555327 0.030225636 0.4048202 0 -0.25019264
0.039999999 0.0074667735 0.03022705 0.4048202 0 -0.25019264
0.027287692 0.0084630214 0.039999999 0.4048202 0 -0.25019264
0.039999999 0.008889378 0.030230306 0.4048202 0 -0.25019264
0.039999999 0.0096007492 0.030232146 0.4048202 0 -0.25019264
0.039999999 0.010312172 0.030234128 0.4048202 0 -0.25019264
0.039999999 0.011023649 0.030236252 0.4048202 0 -0.25019264
0.039999999 0.011735185 0.030238517 0.4048202 0 -0.25019264
0.039999999 0.012446783 0.030240923 0.4048202 0 -0.25019264
0.039999999 0.013158447 0.030243471 0.4048202 0 -0.25019264
0.039999999 0.013870182 0.030246163 0.4048202 0 -0.25019264
0.039999999 0.01458199 0.030248994 0.4048202 0 -0.25019264
0.027319141 0.015825478 0.039999999 0.4048202 0 -0.25019264
0.039999999 0.016005842 0.030255085 0.4048202 0 -0.25019264
0.02732772 0.017298603 0.039999999 0.4048202 0 -0.25019264
0.039999999 0.017430035 0.030261744 0.4048202 0 -0.25019264
0.039999999 0.01814227 0.030265285 0.4048202 0 -0.25019264
0.039999999 0.018854601 0.030268969 0.4048202 0 -0.25019264
0.039999999 0.019567031 0.030272797 0.4048202 0 -0.25019264
0.039999999 0.020279566 0.030276764 0.4048202 0 -0.25019264
0.039999999 0.02099221 0.030280875 0.4048202 0 -0.25019264
0.02736377 0.022456756 0.039999999 0.4048202 0 -0.25019264
0.039999999 0.022417834 0.030289523 0.4048202 0 -0.25019264
0.027375793 0.023931241 0.039999999 0.4048202 0 -0.25019264
0.027382091 0.024668619 0.039999999 0.4048202 0 -0.25019264
0.039999999 0.024557177 0.030303566 0.4048202 0 -0.25019264
0.039999999 0.02527055 0.03030853 0.4048202 0 -0.25019264
0.039999999 0.025984054 0.030313639 0.4048202 0 -0.25019264
0.039999999 0.026697699 0.03031889 0.4048202 0 -0.25019264
0.039999999 0.027411485 0.030324284 0.4048202 0 -0.25019264
0.039999999 0.028125418 0.03032982 0.4048202 0 -0.25019264
0.039999999 0.028839501 0.030335499 0.4048202 0 -0.25019264
0.039999999 0.029553737 0.030341322 0.4048202 0 -0.25019264
0.039999999 0.030268133 0.030347288 0.4048202 0 -0.25019264
0.039999999 0.030982688 0.030353395 0.4048202 0 -0.25019264
0.027464028 0.032786597 0.039999999 0.4048202 0 -0.25019264
0.039999999 0.032412302 0.030366043 0.4048202 0 -0.25019264
0.039999999 0.033127364 0.030372582 0.4048202 0 -0.25019264
0.039999999 0.033842605 0.030379264 0.4048202 0 -0.25019264
0.039999999 0.034558028 0.03038609 0.4048202 0 -0.25019264
0.039999999 0.035273634 0.030393058 0.4048202 0 -0.25019264
0.039999999 0.03598943 0.030400172 0.4048202 0 -0.25019264
0.039999999 0.036705416 0.030407429 0.4048202 0 -0.25019264
0.039999999 0.037421603 0.030414831 0.4048202 0 -0.25019264
0.039999999 0.038137987 0.030422376 0.4048202 0 -0.25019264
0.039999999 0.038854573 0.030430065 0.4048202 0 -0.25019264
0.039999999 0.039571371 0.030437898 0.4048202 0 -0.25019264
0.039999999 0.040288381 0.030445876 0.4048202 0 -0.25019264
0.039999999 0.041005604 0.030453999 0.4048202 0 -0.25019264
0.039999999 0.04172305 0.030462265 0.4048202 0 -0.25019264
0.039999999 0.042440716 0.030470677 0.4048202 0 -0.25019264
0.039999999 0.043158613 0.030479234 0.4048202 0 -0.25019264
0.039999999 0.043876737 0.030487934 0.4048202 0 -0.25019264
0.039999999 0.0445951 0.030496782 0.4048202 0 -0.25019264
0.039999999 0.045313705 0.030505773 0.4048202 0 -0.25019264
0.039999999 0.046032548 0.030514909 0.4048202 0 -0.25019264
0.039999999 0.046751641 0.030524191 0.4048202 0 -0.25019264
0.039999999 0.047470983 0.030533619 0.4048202 0 -0.25019264
0.039999999 0.048190583 0.030543191 0.4048202 0 -0.25019264
0.039999999 0.048910443 0.030552911 0.4048202 0 -0.25019264
0.039999999 0.049630564 0.030562775 0.4048202 0 -0.25019264
0.039999999 0.050350949 0.030572787 0.4048202 0 -0.25019264
0.039999999 0.05107161 0.030582944 0.4048202 0 -0.25019264
0.039999999 0.051792543 0.030593246 0.4048202 0 -0.25019264
0.039999999 0.052513756 0.030603696 0.4048202 0 -0.25019264
0.039999999 0.053235251 0.030614292 0.4048202 0 -0.25019264
0.039999999 0.053957038 0.030625036 0.4048202 0 -0.25019264
0.039999999 0.054679111 0.030635925 0.4048202 0 -0.25019264
0.039999999 0.055401478 0.030646961 0.4048202 0 -0.25019264
0.039999999 0.056124147 0.030658146 0.4048202 0 -0.25019264
0.039999999 0.056847118 0.030669477 0.4048202 0 -0.25019264
0.039999999 0.057570398 0.030680954 0.4048202 0 -0.25019264
0.039999999 0.058293987 0.030692581 0.4048202 0 -0.25019264
0.039999999 0.059017893 0.030704355 0.4048202 0 -0.25019264
0.00097655639 0.066132501 0.060764045 0.4048202 0 -0.25019264
0.0012475988 0.066889629 0.060568694 0.4048202 0 -0.25019264
0.039999999 0.061191536 0.030740565 0.4048202 0 -0.25019264
0.039999999 0.061916742 0.030752931 0.4048202 0 -0.25019264
0.039999999 0.062642284 0.030765446 0.4048202 0 -0.25019264
0.0026238549 0.069860287 0.059563804 0.4048202 0 -0.25019264
0.039999999 0.064094387 0.030790921 0.4048202 0 -0.25019264
0.039999999 0.06482096 0.030803883 0.4048202 0 -0.25019264
0.039999999 0.065547884 0.030816995 0.4048202 0 -0.25019264
0.0045913458 0.07270769 0.058105722 0.4048202 0 -0.25019264
0.039999999 0.067002811 0.030843664 0.4048202 0 -0.25019264
0.0058204806 0.074076422 0.05718841 0.4048202 0 -0.25019264
0.039999999 0.068459183 0.030870933 0.4048202 0 -0.25019264
0.0072557218 0.075397864 0.056112774 0.4048202 0 -0.25019264
0.039999999 0.069917053 0.030898802 0.4048202 0 -0.25019264
0.039999999 0.070646554 0.030912962 0.4048202 0 -0.25019264
0.0099445889 0.077256732 0.054087102 0.4048202 0 -0.25019264
0.010997007 0.077839166 0.053291753 0.4048202 0 -0.25019264
0.012187935 0.078390151 0.052389737 0.4048202 0 -0.25019264
0.039999999 0.073568463 0.030971112 0.4048202 0 -0.25019264
0.039999999 0.074299932 0.030986026 0.4048202 0 -0.25019264
0.039999999 0.07503181 0.031001095 0.4048202 0 -0.25019264
0.039999999 0.075764097 0.031016313 0.4048202 0 -0.25019264
0.039999999 0.076496795 0.031031685 0.4048202 0 -0.25019264
0.028386569 0.0796884 0.039999999 0.4048202 0 -0.25019264
0.030470282 0.079999998 0.038409751 0.4048202 0 -0.25019264
0.03396165 0.079999998 0.035734195 0.4048202 0 -0.25019264
0.039999999 0.079431832 0.031094695 0.4048202 0 -0.25019264
0.039999999 0.00035515835 0.029318854 0.4048202 0 -0.25019264
0.039999999 0.0010654769 0.029318994 0.4048202 0 -0.25019264
0.039999999 0.0017758012 0.029319271 0.4048202 0 -0.25019264
0.039999999 0.0024861349 0.029319689 0.4048202 0 -0.25019264
0.039999999 0.0031964816 0.029320244 0.4048202 0 -0.25019264
0.039999999 0.0039068456 0.02932094 0.4048202 0 -0.25019264
0.039999999 0.00461723 0.029321773 0.4048202 0 -0.25019264
0.039999999 0.0053276392 0.029322747 0.4048202 0 -0.25019264
0.039999999 0.0060380762 0.029323859 0.4048202 0 -0.25019264
0.039999999 0.0067485454 0.029325111 0.4048202 0 -0.25019264
0.039999999 0.007459051 0.029326502 0.4048202 0 -0.25019264
0.039999999 0.0081695952 0.029328031 0.4048202 0 -0.25019264
0.039999999 0.008880184 0.0293297 0.4048202 0 -0.25019264
0.026076047 0.0099568684 0.039999999 0.4048202 0 -0.25019264
0.039999999 0.010301505 0.029333455 0.4048202 0 -0.25019264
0.039999999 0.011012246 0.029335542 0.4048202 0 -0.25019264
0.039999999 0.011723045 0.029337768 0.4048202 0 -0.25019264
0.039999999 0.012433907 0.029340133 0.4048202 0 -0.25019264
0.039999999 0.013144834 0.029342636 0.4048202 0 -0.25019264
0.039999999 0.013855832 0.029345281 0.4048202 0 -0.25019264
0.026098477 0.015121976 0.039999999 0.4048202 0 -0.25019264
0.039999999 0.015278051 0.029350987 0.4048202 0 -0.25019264
0.039999999 0.015989279 0.029354047 0.4048202 0 -0.25019264
0.026110921 0.017336404 0.039999999 0.4048202 0 -0.25019264
0.039999999 0.017411998 0.029360591 0.4048202 0 -0.25019264
0.039999999 0.018123493 0.02936407 0.4048202 0 -0.25019264
0.039999999 0.018835085 0.029367691 0.4048202 0 -0.25019264
0.039999999 0.019546777 0.02937145 0.4048202 0 -0.25019264
0.039999999 0.020258574 0.02937535 0.4048202 0 -0.25019264
0.039999999 0.020970477 0.02937939 0.4048202 0 -0.25019264
0.039999999 0.021682492 0.029383568 0.4048202 0 -0.25019264
0.039999999 0.022394622 0.029387888 0.4048202 0 -0.25019264
0.039999999 0.023106871 0.029392347 0.4048202 0 -0.25019264
0.02616469 0.024722558 0.039999999 0.4048202 0 -0.25019264
0.039999999 0.024531744 0.029401684 0.4048202 0 -0.25019264
0.026177716 0.026200831 0.039999999 0.4048202 0 -0.25019264
0.039999999 0.025957137 0.029411582 0.4048202 0 -0.25019264
0.039999999 0.026670041 0.029416742 0.4048202 0 -0.25019264
0.039999999 0.027383083 0.029422041 0.4048202 0 -0.25019264
0.039999999 0.028096275 0.029427482 0.4048202 0 -0.25019264
0.039999999 0.028809614 0.029433062 0.4048202 0 -0.25019264
0.039999999 0.029523108 0.029438782 0.4048202 0 -0.25019264
0.039999999 0.030236758 0.029444644 0.4048202 0 -0.25019264
0.039999999 0.03095057 0.029450648 0.4048202 0 -0.25019264
0.039999999 0.031664547 0.029456791 0.4048202 0 -0.25019264
0.039999999 0.032378692 0.029463073 0.4048202 0 -0.25019264
0.039999999 0.033093013 0.029469499 0.4048202 0 -0.25019264
0.039999999 0.033807505 0.029476065 0.4048202 0 -0.25019264
0.039999999 0.034522183 0.029482773 0.4048202 0 -0.25019264
0.039999999 0.03523704 0.02948962 0.4048202 0 -0.25019264
0.039999999 0.035952091 0.02949661 0.4048202 0 -0.25019264
0.039999999 0.036667328 0.02950374 0.4048202 0 -0.25019264
0.039999999 0.037382767 0.029511012 0.4048202 0 -0.25019264
0.039999999 0.038098402 0.029518425 0.4048202 0 -0.25019264
0.039999999 0.038814239 0.029525982 0.4048202 0 -0.25019264
0.026349781 0.041009363 0.039999999 0.4048202 0 -0.25019264
0.039999999 0.040246546 0.029541517 0.4048202 0 -0.25019264
0.039999999 0.04096302 0.029549498 0.4048202 0 -0.25019264
0.039999999 0.04167971 0.029557621 0.4048202 0 -0.25019264
0.039999999 0.042396627 0.029565886 0.4048202 0 -0.25019264
0.039999999 0.043113768 0.029574294 0.4048202 0 -0.25019264
0.039999999 0.043831144 0.029582843 0.4048202 0 -0.25019264
0.039999999 0.044548754 0.029591536 0.4048202 0 -0.25019264
0.039999999 0.045266598 0.029600371 0.4048202 0 -0.25019264
0.039999999 0.045984689 0.029609349 0.4048202 0 -0.25019264
0.039999999 0.046703026 0.029618468 0.4048202 0 -0.25019264
0.039999999 0.047421612 0.029627731 0.4048202 0 -0.25019264
0.001187159 0.053262066 0.059407935 0.4048202 0 -0.25019264
0.039999999 0.048859555 0.029646687 0.4048202 0 -0.25019264
0.039999999 0.049578916 0.02965638 0.4048202 0 -0.25019264
0.00045947649 0.055750083 0.059998322 0.4048202 0 -0.25019264
0.039999999 0.051018447 0.029676197 0.4048202 0 -0.25019264
0.039999999 0.05173862 0.029686321 0.4048202 0 -0.25019264
0.039999999 0.052459072 0.029696589 0.4048202 0 -0.25019264
0.039999999 0.053179804 0.029707 0.4048202 0 -0.25019264
0.039999999 0.053900827 0.029717555 0.4048202 0 -0.25019264
0.039999999 0.054622136 0.029728256 0.4048202 0 -0.25019264
0.039999999 0.055343743 0.0297391 0.4048202 0 -0.25019264
0.039999999 0.056065645 0.02975009 0.4048202 0 -0.25019264
0.039999999 0.056787852 0.029761223 0.4048202 0 -0.25019264
0.039999999 0.057510361 0.029772501 0.4048202 0 -0.25019264
0.039999999 0.058233187 0.029783925 0.4048202 0 -0.25019264
0.039999999 0.058956321 0.029795494 0.4048202 0 -0.25019264
0.039999999 0.059679776 0.029807208 0.4048202 0 -0.25019264
0.039999999 0.060403552 0.029819068 0.4048202 0 -0.25019264
0.039999999 0.061127659 0.029831072 0.4048202 0 -0.25019264
0.039999999 0.061852094 0.029843222 0.4048202 0 -0.25019264
0.039999999 0.06257686 0.02985552 0.4048202 0 -0.25019264
0.0025884237 0.069793455 0.058587611 0.4048202 0 -0.25019264
0.039999999 0.064027421 0.029880552 0.4048202 0 -0.25019264
0.039999999 0.064753219 0.029893287 0.4048202 0 -0.25019264
0.039999999 0.065479368 0.029906169 0.4048202 0 -0.25019264
0.039999999 0.066205867 0.029919198 0.4048202 0 -0.25019264
0.039999999 0.06693273 0.029932374 0.4048202 0 -0.25019264
0.039999999 0.067659959 0.029945698 0.4048202 0 -0.25019264
0.0064534973 0.074676029 0.055720113 0.4048202 0 -0.25019264
0.039999999 0.06911552 0.029972786 0.4048202 0 -0.25019264
0.039999999 0.069843858 0.029986551 0.4048202 0 -0.25019264
0.039999999 0.070572577 0.030000465 0.4048202 0 -0.25019264
0.039999999 0.071301684 0.030014526 0.4048202 0 -0.25019264
0.039999999 0.072031178 0.030028736 0.4048202 0 -0.25019264
0.039999999 0.072761059 0.030043093 0.4048202 0 -0.25019264
0.039999999 0.073491342 0.0300576 0.4048202 0 -0.25019264
0.039999999 0.074222028 0.030072255 0.4048202 0 -0.25019264
0.039999999 0.074953116 0.030087061 0.4048202 0 -0.25019264
0.039999999 0.075684614 0.030102015 0.4048202 0 -0.25019264
0.039999999 0.076416522 0.030117117 0.4048202 0 -0.25019264
0.039999999 0.077148847 0.03013237 0.4048202 0 -0.25019264
0.039999999 0.077881604 0.030147772 0.4048202 0 -0.25019264
0.039999999 0.078614779 0.030163325 0.4048202 0 -0.25019264
0.039999999 0.079348385 0.030179027 0.4048202 0 -0.25019264
0.039999999 0.00035479155 0.028420581 0.4048202 0 -0.25019264
0.024837926 0.0011086125 0.039999999 0.4048202 0 -0.25019264
0.039999999 0.0017739672 0.02842099 0.4048202 0 -0.25019264
0.039999999 0.0024835672 0.0284214 0.4048202 0 -0.25019264
0.039999999 0.0031931805 0.028421946 0.4048202 0 -0.25019264
0.039999999 0.0039028106 0.028422629 0.4048202 0 -0.25019264
0.039999999 0.0046124612 0.028423449 0.4048202 0 -0.25019264
0.039999999 0.0053221365 0.028424405 0.4048202 0 -0.25019264
0.039999999 0.0060318401 0.028425498 0.4048202 0 -0.25019264
0.039999999 0.0067415754 0.028426727 0.4048202 0 -0.25019264
0.039999999 0.0074513466 0.028428094 0.4048202 0 -0.25019264
0.039999999 0.0081611574 0.028429596 0.4048202 0 -0.25019264
0.039999999 0.0088710105 0.028431235 0.4048202 0 -0.25019264
0.024854694 0.0099786576 0.039999999 0.4048202 0 -0.25019264
0.039999999 0.010290863 0.028434925 0.4048202 0 -0.25019264
0.039999999 0.01100087 0.028436974 0.4048202 0 -0.25019264
0.039999999 0.011710934 0.02843916 0.4048202 0 -0.25019264
0.039999999 0.01242106 0.028441485 0.4048202 0 -0.25019264
0.039999999 0.013131253 0.028443944 0.4048202 0 -0.25019264
0.039999999 0.013841515 0.028446542 0.4048202 0 -0.25019264
0.02487687 0.015155078 0.039999999 0.4048202 0 -0.25019264
0.039999999 0.015262263 0.028452147 0.4048202 0 -0.25019264
0.039999999 0.015972756 0.028455155 0.4048202 0 -0.25019264
0.039999999 0.016683334 0.028458299 0.4048202 0 -0.25019264
0.039999999 0.017394003 0.028461581 0.4048202 0 -0.25019264
0.039999999 0.01810476 0.028465001 0.4048202 0 -0.25019264
0.039999999 0.018815616 0.028468557 0.4048202 0 -0.25019264
0.039999999 0.019526571 0.02847225 0.4048202 0 -0.25019264
0.039999999 0.02023763 0.02847608 0.4048202 0 -0.25019264
0.039999999 0.020948796 0.028480049 0.4048202 0 -0.25019264
0.039999999 0.021660073 0.028484154 0.4048202 0 -0.25019264
0.039999999 0.022371465 0.028488396 0.4048202 0 -0.25019264
0.039999999 0.023082977 0.028492777 0.4048202 0 -0.25019264
0.039999999 0.02379461 0.028497294 0.4048202 0 -0.25019264
0.039999999 0.02450637 0.02850195 0.4048202 0 -0.25019264
0.039999999 0.025218261 0.028506743 0.4048202 0 -0.25019264
0.039999999 0.025930285 0.028511673 0.4048202 0 -0.25019264
0.039999999 0.026642447 0.028516741 0.4048202 0 -0.25019264
0.039999999 0.027354751 0.028521948 0.4048202 0 -0.25019264
0.039999999 0.028067201 0.028527291 0.4048202 0 -0.25019264
0.039999999 0.028779799 0.028532775 0.4048202 0 -0.25019264
0.02499835 0.030705305 0.039999999 0.4048202 0 -0.25019264
0.025006197 0.031446878 0.039999999 0.4048202 0 -0.25019264
0.039999999 0.030918529 0.028550049 0.4048202 0 -0.25019264
0.025022455 0.032930393 0.039999999 0.4048202 0 -0.25019264
0.039999999 0.032345165 0.028562257 0.4048202 0 -0.25019264
0.025039464 0.034414411 0.039999999 0.4048202 0 -0.25019264
0.039999999 0.033772491 0.028575018 0.4048202 0 -0.25019264
0.039999999 0.03448642 0.028581606 0.4048202 0 -0.25019264
0.039999999 0.035200536 0.028588334 0.4048202 0 -0.25019264
0.039999999 0.035914838 0.0285952 0.4048202 0 -0.25019264
0.039999999 0.036629334 0.028602205 0.4048202 0 -0.25019264
0.039999999 0.037344024 0.028609348 0.4048202 0 -0.25019264
0.039999999 0.038058911 0.028616631 0.4048202 0 -0.25019264
0.039999999 0.038774002 0.028624054 0.4048202 0 -0.25019264
0.039999999 0.039489299 0.028631615 0.4048202 0 -0.25019264
0.039999999 0.040204812 0.028639317 0.4048202 0 -0.25019264
0.0072692926 0.044591818 0.053663928 0.4048202 0 -0.25019264
0.039999999 0.041636478 0.028655136 0.4048202 0 -0.25019264
0.0053725494 0.046372607 0.055131275 0.4048202 0 -0.25019264
0.039999999 0.043069035 0.028671514 0.4048202 0 -0.25019264
0.039999999 0.043785658 0.028679913 0.4048202 0 -0.25019264
0.039999999 0.044502512 0.028688451 0.4048202 0 -0.25019264
0.039999999 0.045219608 0.028697131 0.4048202 0 -0.25019264
0.039999999 0.045936946 0.028705949 0.4048202 0 -0.25019264
0.0018875727 0.051528484 0.057852119 0.4048202 0 -0.25019264
0.039999999 0.04737236 0.028724009 0.4048202 0 -0.25019264
0.039999999 0.048090447 0.02873325 0.4048202 0 -0.25019264
0.00092978741 0.054035939 0.058615044 0.4048202 0 -0.25019264
0.039999999 0.049527396 0.028752152 0.4048202 0 -0.25019264
0.039999999 0.050246269 0.028761815 0.4048202 0 -0.25019264
0.039999999 0.05096541 0.028771618 0.4048202 0 -0.25019264
0.039999999 0.051684823 0.028781565 0.4048202 0 -0.25019264
0.039999999 0.052404515 0.028791651 0.4048202 0 -0.25019264
0.039999999 0.053124491 0.028801879 0.4048202 0 -0.25019264
1.3748305e-05 0.059746426 0.059392679 0.4048202 0 -0.25019264
0.039999999 0.054565299 0.028822759 0.4048202 0 -0.25019264
0.039999999 0.055286143 0.028833412 0.4048202 0 -0.25019264
0.039999999 0.056007285 0.028844208 0.4048202 0 -0.25019264
0.039999999 0.056728724 0.028855143 0.4048202 0 -0.25019264
0.039999999 0.057450473 0.028866224 0.4048202 0 -0.25019264
0.039999999 0.058172528 0.028877445 0.4048202 0 -0.25019264
0.039999999 0.058894899 0.028888809 0.4048202 0 -0.25019264
0.039999999 0.059617586 0.028900316 0.4048202 0 -0.25019264
0.039999999 0.060340595 0.028911967 0.4048202 0 -0.25019264
0.039999999 0.06106393 0.028923759 0.4048202 0 -0.25019264
0.0017929933 0.068258509 0.058168337 0.4048202 0 -0.25019264
0.039999999 0.062511593 0.028947776 0.4048202 0 -0.25019264
0.039999999 0.063235931 0.028959999 0.4048202 0 -0.25019264
0.0029600766 0.070454486 0.057315778 0.4048202 0 -0.25019264
0.039999999 0.064685635 0.028984876 0.4048202 0 -0.25019264
0.039999999 0.065411009 0.028997531 0.4048202 0 -0.25019264
0.039999999 0.06613674 0.029010329 0.4048202 0 -0.25019264
0.039999999 0.066862822 0.029023273 0.4048202 0 -0.25019264
0.0056837909 0.073946945 0.055301573 0.4048202 0 -0.25019264
0.006384714 0.074610874 0.054779548 0.4048202 0 -0.25019264
0.039999999 0.069043279 0.02906297 0.4048202 0 -0.25019264
0.039999999 0.069770835 0.029076492 0.4048202 0 -0.25019264
0.039999999 0.070498779 0.029090161 0.4048202 0 -0.25019264
0.039999999 0.071227103 0.029103974 0.4048202 0 -0.25019264
0.039999999 0.071955815 0.029117933 0.4048202 0 -0.25019264
0.039999999 0.072684914 0.029132036 0.4048202 0 -0.25019264
0.039999999 0.073414408 0.029146288 0.4048202 0 -0.25019264
0.039999999 0.074144311 0.029160684 0.4048202 0 -0.25019264
0.016545543 0.079688333 0.047135912 0.4048202 0 -0.25019264
0.039999999 0.075605318 0.029189916 0.4048202 0 -0.25019264
0.039999999 0.076336443 0.029204752 0.4048202 0 -0.25019264
0.039999999 0.077067979 0.029219735 0.4048202 0 -0.25019264
0.029683456 0.079999998 0.03713664 0.4048202 0 -0.25019264
0.039999999 0.078532323 0.029250145 0.4048202 0 -0.25019264
0.036617771 0.079999998 0.03185641 0.4048202 0 -0.25019264
0.039999999 0.079998381 0.029281143 0.4048202 0 -0.25019264
0.039999999 0.00035442566 0.027524436 0.4048202 0 -0.25019264
0.039999999 0.0010632789 0.02752457 0.4048202 0 -0.25019264
0.039999999 0.0017721376 0.027524838 0.4048202 0 -0.25019264
0.039999999 0.0024810059 0.027525241 0.4048202 0 -0.25019264
0.023613444 0.0033331667 0.039999999 0.4048202 0 -0.25019264
0.039999999 0.0038987852 0.027526449 0.4048202 0 -0.25019264
0.039999999 0.004607704 0.027527254 0.4048202 0 -0.25019264
0.039999999 0.0053166472 0.027528193 0.4048202 0 -0.25019264
0.023618232 0.0062961909 0.039999999 0.4048202 0 -0.25019264
0.02361989 0.0070370003 0.039999999 0.4048202 0 -0.25019264
0.039999999 0.0074436604 0.027531816 0.4048202 0 -0.25019264
0.039999999 0.0081527391 0.027533291 0.4048202 0 -0.25019264
0.039999999 0.0088618603 0.0275349 0.4048202 0 -0.25019264
0.039999999 0.0095710279 0.027536646 0.4048202 0 -0.25019264
0.039999999 0.010280247 0.027538525 0.4048202 0 -0.25019264
0.039999999 0.010989521 0.027540537 0.4048202 0 -0.25019264
0.039999999 0.011698851 0.027542684 0.4048202 0 -0.25019264
0.039999999 0.012408245 0.027544966 0.4048202 0 -0.25019264
0.039999999 0.013117705 0.027547382 0.4048202 0 -0.25019264
0.039999999 0.013827233 0.027549934 0.4048202 0 -0.25019264
0.039999999 0.014536834 0.027552618 0.4048202 0 -0.25019264
0.039999999 0.015246513 0.027555438 0.4048202 0 -0.25019264
0.039999999 0.015956273 0.027558392 0.4048202 0 -0.25019264
0.023662444 0.017412467 0.039999999 0.4048202 0 -0.25019264
0.023666868 0.01815398 0.039999999 0.4048202 0 -0.25019264
0.039999999 0.018086072 0.027568061 0.4048202 0 -0.25019264
0.039999999 0.018796192 0.027571553 0.4048202 0 -0.25019264
0.039999999 0.019506413 0.027575182 0.4048202 0 -0.25019264
0.039999999 0.020216735 0.027578944 0.4048202 0 -0.25019264
0.039999999 0.020927167 0.027582841 0.4048202 0 -0.25019264
0.039999999 0.021637708 0.027586874 0.4048202 0 -0.25019264
0.023703003 0.023346694 0.039999999 0.4048202 0 -0.25019264
0.039999999 0.023059137 0.027595341 0.4048202 0 -0.25019264
0.039999999 0.023770034 0.027599778 0.4048202 0 -0.25019264
0.039999999 0.024481056 0.027604351 0.4048202 0 -0.25019264
0.039999999 0.02519221 0.027609058 0.4048202 0 -0.25019264
0.039999999 0.025903497 0.027613901 0.4048202 0 -0.25019264
0.023741195 0.027801057 0.039999999 0.4048202 0 -0.25019264
0.039999999 0.027326485 0.027623991 0.4048202 0 -0.25019264
0.039999999 0.028038194 0.027629239 0.4048202 0 -0.25019264
0.039999999 0.028750055 0.027634624 0.4048202 0 -0.25019264
0.039999999 0.029462066 0.027640143 0.4048202 0 -0.25019264
0.039999999 0.030174235 0.027645798 0.4048202 0 -0.25019264
0.039999999 0.030886564 0.027651589 0.4048202 0 -0.25019264
0.039999999 0.031599056 0.027657516 0.4048202 0 -0.25019264
0.039999999 0.032311719 0.027663579 0.4048202 0 -0.25019264
0.039999999 0.033024549 0.027669778 0.4048202 0 -0.25019264
0.039999999 0.033737559 0.027676113 0.4048202 0 -0.25019264
0.039999999 0.034450747 0.027682584 0.4048202 0 -0.25019264
0.039999999 0.035164118 0.027689191 0.4048202 0 -0.25019264
0.039999999 0.035877675 0.027695933 0.4048202 0 -0.25019264
0.039999999 0.036591426 0.027702814 0.4048202 0 -0.25019264
0.039999999 0.03730537 0.027709829 0.4048202 0 -0.25019264
0.023875719 0.039699897 0.039999999 0.4048202 0 -0.25019264
0.011972253 0.041709635 0.049075566 0.4048202 0 -0.25019264
0.039999999 0.03944841 0.027731698 0.4048202 0 -0.25019264
0.039999999 0.040163174 0.02773926 0.4048202 0 -0.25019264
0.039999999 0.040878151 0.027746961 0.4048202 0 -0.25019264
0.039999999 0.041593347 0.027754797 0.4048202 0 -0.25019264
0.039999999 0.042308763 0.027762771 0.4048202 0 -0.25019264
0.039999999 0.043024406 0.027770882 0.4048202 0 -0.25019264
0.039999999 0.04374028 0.02777913 0.4048202 0 -0.25019264
0.039999999 0.044456385 0.027787518 0.4048202 0 -0.25019264
0.039999999 0.045172729 0.027796041 0.4048202 0 -0.25019264
0.039999999 0.045889314 0.027804703 0.4048202 0 -0.25019264
0.039999999 0.046606142 0.027813502 0.4048202 0 -0.25019264
0.039999999 0.047323223 0.027822439 0.4048202 0 -0.25019264
0.039999999 0.048040558 0.027831513 0.4048202 0 -0.25019264
0.00094595458 0.053977713 0.057604231 0.4048202 0 -0.25019264
0.039999999 0.049475998 0.027850078 0.4048202 0 -0.25019264
0.039999999 0.050194114 0.027859569 0.4048202 0 -0.25019264
0.039999999 0.050912499 0.027869197 0.4048202 0 -0.25019264
0.039999999 0.051631156 0.027878964 0.4048202 0 -0.25019264
0.039999999 0.052350093 0.02788887 0.4048202 0 -0.25019264
0.039999999 0.053069308 0.027898915 0.4048202 0 -0.25019264
0.039999999 0.053788811 0.027909098 0.4048202 0 -0.25019264
0.039999999 0.0545086 0.027919421 0.4048202 0 -0.25019264
6.9055772e-05 0.061273668 0.05837144 0.4048202 0 -0.25019264
0.039999999 0.055949058 0.027940486 0.4048202 0 -0.25019264
0.039999999 0.056669738 0.027951228 0.4048202 0 -0.25019264
0.039999999 0.057390723 0.027962109 0.4048202 0 -0.25019264
0.039999999 0.058112018 0.027973128 0.4048202 0 -0.25019264
0.039999999 0.058833621 0.027984289 0.4048202 0 -0.25019264
0.039999999 0.059555545 0.027995592 0.4048202 0 -0.25019264
0.039999999 0.06027779 0.028007032 0.4048202 0 -0.25019264
0.039999999 0.061000358 0.028018614 0.4048202 0 -0.25019264
0.039999999 0.061723255 0.028030338 0.4048202 0 -0.25019264
0.039999999 0.062446486 0.028042201 0.4048202 0 -0.25019264
0.039999999 0.063170053 0.028054206 0.4048202 0 -0.25019264
0.039999999 0.063893959 0.02806635 0.4048202 0 -0.25019264
0.039999999 0.064618215 0.028078638 0.4048202 0 -0.25019264
0.039999999 0.065342814 0.028091066 0.4048202 0 -0.25019264
0.039999999 0.06606777 0.028103637 0.4048202 0 -0.25019264
0.039999999 0.066793084 0.028116347 0.4048202 0 -0.25019264
0.039999999 0.067518756 0.028129201 0.4048202 0 -0.25019264
0.039999999 0.0682448 0.028142197 0.4048202 0 -0.25019264
0.039999999 0.068971209 0.028155334 0.4048202 0 -0.25019264
0.039999999 0.069697991 0.028168615 0.4048202 0 -0.25019264
0.039999999 0.070425153 0.028182037 0.4048202 0 -0.25019264
0.0096406061 0.077073842 0.051362351 0.4048202 0 -0.25019264
0.039999999 0.071880624 0.028209312 0.4048202 0 -0.25019264
0.039999999 0.072608948 0.028223164 0.4048202 0 -0.25019264
0.013093102 0.078746594 0.048772432 0.4048202 0 -0.25019264
0.039999999 0.074066773 0.028251298 0.4048202 0 -0.25019264
0.039999999 0.074796289 0.028265581 0.4048202 0 -0.25019264
0.039999999 0.075526215 0.028280007 0.4048202 0 -0.25019264
0.024665816 0.079461776 0.039999999 0.4048202 0 -0.25019264
0.025723711 0.079999998 0.039207742 0.4048202 0 -0.25019264
0.029290223 0.079999998 0.036500376 0.4048202 0 -0.25019264
0.039999999 0.078450061 0.028339157 0.4048202 0 -0.25019264
0.039999999 0.079182088 0.028354306 0.4048202 0 -0.25019264
0.022380453 0.00037116051 0.039999999 0.4048202 0 -0.25019264
0.039999999 0.0010621836 0.026630541 0.4048202 0 -0.25019264
0.039999999 0.0017703123 0.026630804 0.4048202 0 -0.25019264
0.039999999 0.0024784503 0.026631199 0.4048202 0 -0.25019264
0.039999999 0.0031866014 0.026631726 0.4048202 0 -0.25019264
0.022383181 0.0040828441 0.039999999 0.4048202 0 -0.25019264
0.022384273 0.0048252167 0.039999999 0.4048202 0 -0.25019264
0.039999999 0.0053111706 0.026634097 0.4048202 0 -0.25019264
0.039999999 0.0060194116 0.026635151 0.4048202 0 -0.25019264
0.039999999 0.0067276843 0.026636336 0.4048202 0 -0.25019264
0.039999999 0.0074359928 0.026637653 0.4048202 0 -0.25019264
0.039999999 0.0081443405 0.026639102 0.4048202 0 -0.25019264
0.039999999 0.0088527305 0.026640683 0.4048202 0 -0.25019264
0.039999999 0.009561168 0.026642397 0.4048202 0 -0.25019264
0.039999999 0.010269656 0.026644241 0.4048202 0 -0.25019264
0.039999999 0.010978198 0.026646217 0.4048202 0 -0.25019264
0.039999999 0.011686798 0.026648326 0.4048202 0 -0.25019264
0.022408299 0.012993172 0.039999999 0.4048202 0 -0.25019264
0.039999999 0.013104187 0.02665294 0.4048202 0 -0.25019264
0.039999999 0.013812984 0.026655443 0.4048202 0 -0.25019264
0.039999999 0.014521854 0.026658081 0.4048202 0 -0.25019264
0.039999999 0.0152308 0.026660848 0.4048202 0 -0.25019264
0.039999999 0.015939828 0.026663749 0.4048202 0 -0.25019264
0.039999999 0.016648939 0.026666781 0.4048202 0 -0.25019264
0.039999999 0.017358137 0.026669946 0.4048202 0 -0.25019264
0.039999999 0.018067429 0.026673242 0.4048202 0 -0.25019264
0.022444356 0.019680381 0.039999999 0.4048202 0 -0.25019264
0.039999999 0.019486303 0.026680235 0.4048202 0 -0.25019264
0.039999999 0.020195892 0.026683928 0.4048202 0 -0.25019264
0.02245966 0.021910716 0.039999999 0.4048202 0 -0.25019264
0.022465128 0.022654325 0.039999999 0.4048202 0 -0.25019264
0.039999999 0.022325315 0.026695805 0.4048202 0 -0.25019264
0.039999999 0.023035355 0.026700029 0.4048202 0 -0.25019264
0.039999999 0.023745516 0.026704386 0.4048202 0 -0.25019264
0.022488823 0.025629669 0.039999999 0.4048202 0 -0.25019264
0.039999999 0.025166221 0.026713496 0.4048202 0 -0.25019264
0.039999999 0.02587677 0.026718251 0.4048202 0 -0.25019264
0.039999999 0.026587458 0.026723139 0.4048202 0 -0.25019264
0.02251545 0.028606597 0.039999999 0.4048202 0 -0.25019264
0.039999999 0.028009258 0.026733313 0.4048202 0 -0.25019264
0.039999999 0.028720381 0.026738599 0.4048202 0 -0.25019264
0.039999999 0.029431654 0.026744019 0.4048202 0 -0.25019264
0.022545008 0.031585295 0.039999999 0.4048202 0 -0.25019264
0.039999999 0.030854674 0.026755257 0.4048202 0 -0.25019264
0.039999999 0.031566426 0.026761077 0.4048202 0 -0.25019264
0.039999999 0.032278348 0.02676703 0.4048202 0 -0.25019264
0.039999999 0.032990441 0.026773116 0.4048202 0 -0.25019264
0.039999999 0.033702709 0.026779335 0.4048202 0 -0.25019264
0.039999999 0.034415156 0.026785688 0.4048202 0 -0.25019264
0.039999999 0.035127785 0.026792176 0.4048202 0 -0.25019264
0.039999999 0.035840601 0.026798798 0.4048202 0 -0.25019264
0.039999999 0.03655361 0.026805552 0.4048202 0 -0.25019264
0.02263177 0.039040994 0.039999999 0.4048202 0 -0.25019264
0.039999999 0.03798021 0.026819464 0.4048202 0 -0.25019264
0.039999999 0.038693812 0.026826622 0.4048202 0 -0.25019264
0.039999999 0.039407618 0.026833912 0.4048202 0 -0.25019264
0.039999999 0.040121637 0.026841339 0.4048202 0 -0.25019264
0.039999999 0.040835869 0.026848899 0.4048202 0 -0.25019264
0.039999999 0.041550316 0.026856594 0.4048202 0 -0.25019264
0.039999999 0.042264987 0.026864422 0.4048202 0 -0.25019264
0.039999999 0.042979881 0.026872387 0.4048202 0 -0.25019264
0.039999999 0.043695007 0.026880486 0.4048202 0 -0.25019264
0.039999999 0.044410367 0.026888721 0.4048202 0 -0.25019264
0.039999999 0.045125961 0.02689709 0.4048202 0 -0.25019264
0.039999999 0.045841794 0.026905594 0.4048202 0 -0.25019264
0.039999999 0.046557873 0.026914233 0.4048202 0 -0.25019264
0.039999999 0.047274206 0.026923008 0.4048202 0 -0.25019264
0.039999999 0.047990784 0.026931919 0.4048202 0 -0.25019264
0.039999999 0.048707623 0.026940964 0.4048202 0 -0.25019264
0.039999999 0.049424723 0.026950147 0.4048202 0 -0.25019264
0.039999999 0.050142083 0.026959464 0.4048202 0 -0.25019264
0.039999999 0.050859716 0.026968919 0.4048202 0 -0.25019264
0.039999999 0.05157762 0.026978508 0.4048202 0 -0.25019264
0.039999999 0.052295797 0.026988234 0.4048202 0 -0.25019264
0.039999999 0.053014256 0.026998097 0.4048202 0 -0.25019264
0.039999999 0.053733002 0.027008096 0.4048202 0 -0.25019264
2.2713553e-05 0.06041893 0.057395216 0.4048202 0 -0.25019264
0.039999999 0.055171356 0.027028505 0.4048202 0 -0.25019264
0.039999999 0.055890974 0.027038913 0.4048202 0 -0.25019264
0.00021912946 0.062783882 0.057280604 0.4048202 0 -0.25019264
0.00034679205 0.063562579 0.057195432 0.4048202 0 -0.25019264
0.039999999 0.058051649 0.027070966 0.4048202 0 -0.25019264
0.0006913002 0.065105118 0.056957744 0.4048202 0 -0.25019264
0.039999999 0.059493653 0.027093019 0.4048202 0 -0.25019264
0.039999999 0.06021513 0.027104255 0.4048202 0 -0.25019264
0.039999999 0.060936935 0.027115626 0.4048202 0 -0.25019264
0.039999999 0.061659068 0.027127136 0.4048202 0 -0.25019264
0.039999999 0.062381528 0.027138785 0.4048202 0 -0.25019264
0.039999999 0.063104331 0.027150571 0.4048202 0 -0.25019264
0.0028711841 0.070323378 0.055389736 0.4048202 0 -0.25019264
0.039999999 0.064550951 0.02717456 0.4048202 0 -0.25019264
0.0038353899 0.07174547 0.054683369 0.4048202 0 -0.25019264
0.039999999 0.065998971 0.027199104 0.4048202 0 -0.25019264
0.0049529583 0.073133409 0.053860869 0.4048202 0 -0.25019264
0.039999999 0.067448415 0.027224205 0.4048202 0 -0.25019264
0.039999999 0.068173677 0.027236965 0.4048202 0 -0.25019264
0.039999999 0.068899311 0.027249865 0.4048202 0 -0.25019264
0.039999999 0.069625318 0.027262904 0.4048202 0 -0.25019264
0.0085864207 0.076409481 0.051168084 0.4048202 0 -0.25019264
0.039999999 0.071078472 0.027289402 0.4048202 0 -0.25019264
0.039999999 0.071805626 0.027302863 0.4048202 0 -0.25019264
0.039999999 0.07253316 0.027316462 0.4048202 0 -0.25019264
0.012940226 0.078695089 0.047914878 0.4048202 0 -0.25019264
0.039999999 0.073989429 0.027344087 0.4048202 0 -0.25019264
0.039999999 0.074718162 0.027358109 0.4048202 0 -0.25019264
0.039999999 0.075447299 0.027372275 0.4048202 0 -0.25019264
0.039999999 0.076176852 0.02738658 0.4048202 0 -0.25019264
0.039999999 0.076906815 0.027401028 0.4048202 0 -0.25019264
0.039999999 0.077637196 0.027415618 0.4048202 0 -0.25019264
0.039999999 0.078368001 0.02743035 0.4048202 0 -0.25019264
0.039999999 0.079099238 0.027445223 0.4048202 0 -0.25019264
0.039999999 0.0798309 0.02746024 0.4048202 0 -0.25019264
0.039999999 0.00035369641 0.025738487 0.4048202 0 -0.25019264
0.039999999 0.0010610911 0.025738616 0.4048202 0 -0.25019264
0.039999999 0.0017684913 0.025738874 0.4048202 0 -0.25019264
0.039999999 0.002475901 0.025739262 0.4048202 0 -0.25019264
0.039999999 0.0031833237 0.02573978 0.4048202 0 -0.25019264
0.039999999 0.003890763 0.025740426 0.4048202 0 -0.25019264
0.039999999 0.0045982231 0.025741201 0.4048202 0 -0.25019264
0.039999999 0.0053057075 0.025742106 0.4048202 0 -0.25019264
0.039999999 0.0060132197 0.025743142 0.4048202 0 -0.25019264
0.039999999 0.0067207636 0.025744304 0.4048202 0 -0.25019264
0.039999999 0.0074283429 0.025745599 0.4048202 0 -0.25019264
0.039999999 0.0081359614 0.02574702 0.4048202 0 -0.25019264
0.039999999 0.0088436231 0.025748573 0.4048202 0 -0.25019264
0.039999999 0.0095513314 0.025750253 0.4048202 0 -0.25019264
0.039999999 0.010259089 0.025752064 0.4048202 0 -0.25019264
0.039999999 0.010966903 0.025754005 0.4048202 0 -0.25019264
0.039999999 0.011674773 0.025756074 0.4048202 0 -0.25019264
0.039999999 0.012382705 0.025758274 0.4048202 0 -0.25019264
0.039999999 0.013090703 0.025760602 0.4048202 0 -0.25019264
0.039999999 0.013798769 0.025763061 0.4048202 0 -0.25019264
0.039999999 0.014506908 0.025765648 0.4048202 0 -0.25019264
0.039999999 0.015215124 0.025768366 0.4048202 0 -0.25019264
0.039999999 0.01592342 0.025771214 0.4048202 0 -0.25019264
0.039999999 0.016631801 0.02577419 0.4048202 0 -0.25019264
0.021198208 0.018233938 0.039999999 0.4048202 0 -0.25019264
0.039999999 0.018048828 0.025780534 0.4048202 0 -0.25019264
0.039999999 0.018757485 0.0257839 0.4048202 0 -0.25019264
0.039999999 0.019466238 0.025787396 0.4048202 0 -0.25019264
0.039999999 0.020175096 0.025791023 0.4048202 0 -0.25019264
0.039999999 0.020884059 0.025794778 0.4048202 0 -0.25019264
0.039999999 0.021593133 0.025798663 0.4048202 0 -0.25019264
0.039999999 0.022302322 0.025802681 0.4048202 0 -0.25019264
0.021239253 0.024194993 0.039999999 0.4048202 0 -0.25019264
0.039999999 0.023721056 0.025811102 0.4048202 0 -0.25019264
0.039999999 0.02443061 0.025815509 0.4048202 0 -0.25019264
0.039999999 0.025140293 0.025820047 0.4048202 0 -0.25019264
0.039999999 0.025850108 0.025824714 0.4048202 0 -0.25019264
0.021270776 0.027923606 0.039999999 0.4048202 0 -0.25019264
0.039999999 0.027270153 0.025834439 0.4048202 0 -0.25019264
0.039999999 0.027980391 0.025839498 0.4048202 0 -0.25019264
0.039999999 0.028690776 0.025844688 0.4048202 0 -0.25019264
0.039999999 0.029401314 0.025850007 0.4048202 0 -0.25019264
0.039999999 0.030112006 0.025855459 0.4048202 0 -0.25019264
0.039999999 0.03082286 0.02586104 0.4048202 0 -0.25019264
0.039999999 0.031533875 0.025866752 0.4048202 0 -0.25019264
0.039999999 0.032245059 0.025872596 0.4048202 0 -0.25019264
0.039999999 0.032956414 0.025878571 0.4048202 0 -0.25019264
0.039999999 0.033667941 0.025884675 0.4048202 0 -0.25019264
0.039999999 0.03437965 0.025890913 0.4048202 0 -0.25019264
0.039999999 0.035091538 0.025897279 0.4048202 0 -0.25019264
0.021373948 0.037631586 0.039999999 0.4048202 0 -0.25019264
0.039999999 0.03651588 0.025910411 0.4048202 0 -0.25019264
0.039999999 0.037228342 0.025917172 0.4048202 0 -0.25019264
0.039999999 0.037941001 0.025924066 0.4048202 0 -0.25019264
0.039999999 0.038653858 0.025931092 0.4048202 0 -0.25019264
0.039999999 0.039366923 0.025938248 0.4048202 0 -0.25019264
0.039999999 0.040080197 0.025945539 0.4048202 0 -0.25019264
0.039999999 0.040793687 0.025952959 0.4048202 0 -0.25019264
0.039999999 0.041507389 0.025960512 0.4048202 0 -0.25019264
0.039999999 0.042221315 0.025968198 0.4048202 0 -0.25019264
0.039999999 0.042935465 0.025976015 0.4048202 0 -0.25019264
0.039999999 0.043649845 0.025983967 0.4048202 0 -0.25019264
0.039999999 0.044364456 0.025992049 0.4048202 0 -0.25019264
0.039999999 0.045079302 0.026000263 0.4048202 0 -0.25019264
0.0024271384 0.050510757 0.054454599 0.4048202 0 -0.25019264
0.001978511 0.051356956 0.054803614 0.4048202 0 -0.25019264
0.039999999 0.0472253 0.026025707 0.4048202 0 -0.25019264
0.039999999 0.047941133 0.026034452 0.4048202 0 -0.25019264
0.039999999 0.04865722 0.026043333 0.4048202 0 -0.25019264
0.039999999 0.049373567 0.026052346 0.4048202 0 -0.25019264
0.039999999 0.050090179 0.026061492 0.4048202 0 -0.25019264
0.00036491494 0.056326877 0.056084797 0.4048202 0 -0.25019264
0.039999999 0.051524207 0.026080186 0.4048202 0 -0.25019264
0.039999999 0.052241631 0.026089733 0.4048202 0 -0.25019264
0.039999999 0.052959338 0.026099414 0.4048202 0 -0.25019264
0.039999999 0.053677324 0.02610923 0.4048202 0 -0.25019264
0.039999999 0.054395601 0.026119178 0.4048202 0 -0.25019264
0.039999999 0.055114165 0.026129263 0.4048202 0 -0.25019264
0.039999999 0.055833027 0.026139481 0.4048202 0 -0.25019264
0.039999999 0.05655219 0.026149834 0.4048202 0 -0.25019264
0.039999999 0.057271656 0.02616032 0.4048202 0 -0.25019264
0.039999999 0.057991426 0.026170941 0.4048202 0 -0.25019264
0.00067334541 0.065040454 0.055974122 0.4048202 0 -0.25019264
0.039999999 0.059431907 0.026192591 0.4048202 0 -0.25019264
0.039999999 0.060152624 0.026203617 0.4048202 0 -0.25019264
0.039999999 0.060873661 0.02621478 0.4048202 0 -0.25019264
0.0017135774 0.068059184 0.055235118 0.4048202 0 -0.25019264
0.0020603398 0.068797387 0.054985005 0.4048202 0 -0.25019264
0.002447482 0.069527611 0.05470442 0.4048202 0 -0.25019264
0.039999999 0.063761137 0.026260788 0.4048202 0 -0.25019264
