# .PCD v0.7 - Point Cloud Data file format
VERSION 0.7
FIELDS x y z vp_x vp_y vp_z
SIZE 4 4 4 4 4 4
TYPE F F F F F F
COUNT 1 1 1 1 1 1
WIDTH 776
HEIGHT 1
VIEWPOINT 0 0 0 1 0 0 0
POINTS 776
DATA ascii
0 0.021376735 0.015756894 -0.14741376 0.38593423 -0.23852047
0 0.019429991 0.016932392 -0.14741376 0.38593423 -0.23852047
0 0.017465249 0.018118829 -0.14741376 0.38593423 -0.23852047
0 0.015482248 0.01931636 -0.14741376 0.38593423 -0.23852047
0 0.01348072 0.020525148 -0.14741376 0.38593423 -0.23852047
0 0.011460396 0.021745356 -0.14741376 0.38593423 -0.23852047
2.7755576e-17 0.0094210003 0.022977155 -0.14741376 0.38593423 -0.23852047
2.7755576e-17 0.0073622484 0.024220712 -0.14741376 0.38593423 -0.23852047
0 0.0052838549 0.025476206 -0.14741376 0.38593423 -0.23852047
2.7755576e-17 0.0031855267 0.026743812 -0.14741376 0.38593423 -0.23852047
0 0.0010669641 0.028023712 -0.14741376 0.38593423 -0.23852047
0.039995026 0.061765734 0 -0.14741376 0.38593423 -0.23852047
0.039349739 0.061510317 0 -0.14741376 0.38593423 -0.23852047
0.038704652 0.061255082 0 -0.14741376 0.38593423 -0.23852047
0.038059767 0.061000034 0 -0.14741376 0.38593423 -0.23852047
0.037415076 0.060745165 0 -0.14741376 0.38593423 -0.23852047
0.036770578 0.060490474 0 -0.14741376 0.38593423 -0.23852047
0.036126271 0.060235966 0 -0.14741376 0.38593423 -0.23852047
0.035482153 0.059981633 0 -0.14741376 0.38593423 -0.23852047
0.034838218 0.059727479 0 -0.14741376 0.38593423 -0.23852047
0.034194466 0.0594735 0 -0.14741376 0.38593423 -0.23852047
0.033550892 0.059219696 0 -0.14741376 0.38593423 -0.23852047
0.032907493 0.058966063 0 -0.14741376 0.38593423 -0.23852047
0.03226427 0.058712602 0 -0.14741376 0.38593423 -0.23852047
0.031621214 0.058459315 0 -0.14741376 0.38593423 -0.23852047
0.030978329 0.058206193 0 -0.14741376 0.38593423 -0.23852047
0.030335609 0.057953242 0 -0.14741376 0.38593423 -0.23852047
0.02969305 0.057700459 0 -0.14741376 0.38593423 -0.23852047
0.02905065 0.057447843 0 -0.14741376 0.38593423 -0.23852047
0.028408406 0.057195392 0 -0.14741376 0.38593423 -0.23852047
0.027766317 0.056943104 0 -0.14741376 0.38593423 -0.23852047
0.027124379 0.056690976 0 -0.14741376 0.38593423 -0.23852047
0.026482588 0.056439012 0 -0.14741376 0.38593423 -0.23852047
0.025840942 0.056187209 0 -0.14741376 0.38593423 -0.23852047
0.025199439 0.055935565 0 -0.14741376 0.38593423 -0.23852047
0.024558077 0.055684078 0 -0.14741376 0.38593423 -0.23852047
0.02391685 0.055432748 0 -0.14741376 0.38593423 -0.23852047
0.023275757 0.055181578 0 -0.14741376 0.38593423 -0.23852047
0.022634797 0.054930557 0 -0.14741376 0.38593423 -0.23852047
0.021993965 0.054679692 0 -0.14741376 0.38593423 -0.23852047
0.021353258 0.05442898 0 -0.14741376 0.38593423 -0.23852047
0.020712676 0.05417842 0 -0.14741376 0.38593423 -0.23852047
0.020072212 0.05392801 0 -0.14741376 0.38593423 -0.23852047
0.019431867 0.053677749 0 -0.14741376 0.38593423 -0.23852047
0.018791635 0.053427637 0 -0.14741376 0.38593423 -0.23852047
0.018151516 0.05317767 0 -0.14741376 0.38593423 -0.23852047
0.017511506 0.052927848 0 -0.14741376 0.38593423 -0.23852047
0.016871601 0.052678172 0 -0.14741376 0.38593423 -0.23852047
0.016231801 0.05242864 0 -0.14741376 0.38593423 -0.23852047
0.015592102 0.052179251 0 -0.14741376 0.38593423 -0.23852047
0.014952501 0.051929999 0 -0.14741376 0.38593423 -0.23852047
0.014312996 0.051680893 0 -0.14741376 0.38593423 -0.23852047
0.013673582 0.051431924 0 -0.14741376 0.38593423 -0.23852047
0.013034259 0.05118309 0 -0.14741376 0.38593423 -0.23852047
0.012395022 0.050934397 0 -0.14741376 0.38593423 -0.23852047
0.011755871 0.050685838 0 -0.14741376 0.38593423 -0.23852047
0.011116801 0.050437413 0 -0.14741376 0.38593423 -0.23852047
0.010477809 0.050189126 0 -0.14741376 0.38593423 -0.23852047
0.009838894 0.049940966 0 -0.14741376 0.38593423 -0.23852047
0.0092000524 0.04969294 0 -0.14741376 0.38593423 -0.23852047
0.0085612815 0.049445044 0 -0.14741376 0.38593423 -0.23852047
0.0079225777 0.049197279 0 -0.14741376 0.38593423 -0.23852047
0.0072839395 0.04894964 0 -0.14741376 0.38593423 -0.23852047
0.0066453638 0.048702128 0 -0.14741376 0.38593423 -0.23852047
0.0060068476 0.048454743 0 -0.14741376 0.38593423 -0.23852047
0.0053683887 0.048207484 0 -0.14741376 0.38593423 -0.23852047
0.0047299839 0.047960348 0 -0.14741376 0.38593423 -0.23852047
0.0040916307 0.047713332 0 -0.14741376 0.38593423 -0.23852047
0.0034533259 0.047466442 0 -0.14741376 0.38593423 -0.23852047
0.0028150675 0.047219671 0 -0.14741376 0.38593423 -0.23852047
0.0021768522 0.046973016 0 -0.14741376 0.38593423 -0.23852047
0.0015386776 0.046726484 0 -0.14741376 0.38593423 -0.23852047
0.00090054091 0.046480067 0 -0.14741376 0.38593423 -0.23852047
0.00026243928 0.04623377 0 -0.14741376 0.38593423 -0.23852047
0 0.045119144 0.00060933456 -0.14741376 0.38593423 -0.23852047
0 0.043386031 0.0016515078 -0.14741376 0.38593423 -0.23852047
0 0.041637927 0.00270276 -0.14741376 0.38593423 -0.23852047
0 0.039874621 0.0037632152 -0.14741376 0.38593423 -0.23852047
0 0.03809591 0.0048329993 -0.14741376 0.38593423 -0.23852047
0 0.036301579 0.0059122401 -0.14741376 0.38593423 -0.23852047
0 0.034491416 0.0070010684 -0.14741376 0.38593423 -0.23852047
0 0.032665197 0.0080996174 -0.14741376 0.38593423 -0.23852047
0 0.0308227 0.0092080235 -0.14741376 0.38593423 -0.23852047
0 0.028963698 0.010326423 -0.14741376 0.38593423 -0.23852047
0.01112771 5.5511151e-17 0.030324662 -0.14741376 0.38593423 -0.23852047
0 0.025195239 0.012593769 -0.14741376 0.38593423 -0.23852047
0 0.023285305 0.013743006 -0.14741376 0.38593423 -0.23852047
0 0.021357911 0.014902815 -0.14741376 0.38593423 -0.23852047
2.7755576e-17 0.019412803 0.01607335 -0.14741376 0.38593423 -0.23852047
0 0.017449727 0.017254762 -0.14741376 0.38593423 -0.23852047
0 0.015468423 0.018447211 -0.14741376 0.38593423 -0.23852047
0 0.013468627 0.019650856 -0.14741376 0.38593423 -0.23852047
0 0.011450067 0.020865863 -0.14741376 0.38593423 -0.23852047
0 0.0094124684 0.022092396 -0.14741376 0.38593423 -0.23852047
0 0.0073555503 0.023330627 -0.14741376 0.38593423 -0.23852047
0 0.0052790246 0.02458073 -0.14741376 0.38593423 -0.23852047
0 0.0031826005 0.025842879 -0.14741376 0.38593423 -0.23852047
0 0.0010659794 0.027117258 -0.14741376 0.38593423 -0.23852047
0.039942443 0.060371976 0 -0.14741376 0.38593423 -0.23852047
0.039295625 0.060116317 0 -0.14741376 0.38593423 -0.23852047
0.038649008 0.05986084 0 -0.14741376 0.38593423 -0.23852047
0.038002588 0.059605543 0 -0.14741376 0.38593423 -0.23852047
0.037356365 0.059350427 0 -0.14741376 0.38593423 -0.23852047
0.036710337 0.059095483 0 -0.14741376 0.38593423 -0.23852047
0.036064494 0.058840718 0 -0.14741376 0.38593423 -0.23852047
0.035418842 0.058586128 0 -0.14741376 0.38593423 -0.23852047
0.034773372 0.058331709 0 -0.14741376 0.38593423 -0.23852047
0.034128085 0.058077466 0 -0.14741376 0.38593423 -0.23852047
0.033482973 0.057823393 0 -0.14741376 0.38593423 -0.23852047
0.032838039 0.057569489 0 -0.14741376 0.38593423 -0.23852047
0.032193281 0.057315752 0 -0.14741376 0.38593423 -0.23852047
0.03154869 0.057062186 0 -0.14741376 0.38593423 -0.23852047
0.030904265 0.056808785 0 -0.14741376 0.38593423 -0.23852047
0.030260004 0.056555551 0 -0.14741376 0.38593423 -0.23852047
0.029615907 0.05630248 0 -0.14741376 0.38593423 -0.23852047
0.028971968 0.05604957 0 -0.14741376 0.38593423 -0.23852047
0.028328184 0.055796824 0 -0.14741376 0.38593423 -0.23852047
0.027684553 0.055544239 0 -0.14741376 0.38593423 -0.23852047
0.027041074 0.055291813 0 -0.14741376 0.38593423 -0.23852047
0.02639774 0.055039547 0 -0.14741376 0.38593423 -0.23852047
0.025754552 0.054787438 0 -0.14741376 0.38593423 -0.23852047
0.025111506 0.054535482 0 -0.14741376 0.38593423 -0.23852047
0.024468597 0.054283686 0 -0.14741376 0.38593423 -0.23852047
0.023825826 0.054032039 0 -0.14741376 0.38593423 -0.23852047
0.023183187 0.053780548 0 -0.14741376 0.38593423 -0.23852047
0.022540679 0.053529207 0 -0.14741376 0.38593423 -0.23852047
0.021898299 0.053278018 0 -0.14741376 0.38593423 -0.23852047
0.021256045 0.053026974 0 -0.14741376 0.38593423 -0.23852047
0.020613912 0.052776083 0 -0.14741376 0.38593423 -0.23852047
0.019971898 0.052525338 0 -0.14741376 0.38593423 -0.23852047
0.019330002 0.052274738 0 -0.14741376 0.38593423 -0.23852047
0.018688219 0.052024283 0 -0.14741376 0.38593423 -0.23852047
0.018046547 0.051773973 0 -0.14741376 0.38593423 -0.23852047
0.017404983 0.051523805 0 -0.14741376 0.38593423 -0.23852047
0.016763525 0.051273774 0 -0.14741376 0.38593423 -0.23852047
0.016122168 0.051023889 0 -0.14741376 0.38593423 -0.23852047
0.015480912 0.050774142 0 -0.14741376 0.38593423 -0.23852047
0.014839754 0.050524533 0 -0.14741376 0.38593423 -0.23852047
0.01419869 0.050275061 0 -0.14741376 0.38593423 -0.23852047
0.013557716 0.050025724 0 -0.14741376 0.38593423 -0.23852047
0.012916832 0.049776521 0 -0.14741376 0.38593423 -0.23852047
0.012276035 0.049527455 0 -0.14741376 0.38593423 -0.23852047
0.01163532 0.04927852 0 -0.14741376 0.38593423 -0.23852047
0.010994686 0.049029715 0 -0.14741376 0.38593423 -0.23852047
0.01035413 0.048781041 0 -0.14741376 0.38593423 -0.23852047
0.0097136479 0.048532497 0 -0.14741376 0.38593423 -0.23852047
0.0090732388 0.04828408 0 -0.14741376 0.38593423 -0.23852047
0.0084328987 0.048035793 0 -0.14741376 0.38593423 -0.23852047
0.007792626 0.047787629 0 -0.14741376 0.38593423 -0.23852047
0.0071524172 0.047539592 0 -0.14741376 0.38593423 -0.23852047
0.0065122694 0.047291677 0 -0.14741376 0.38593423 -0.23852047
0.0058721802 0.047043882 0 -0.14741376 0.38593423 -0.23852047
0.0052321469 0.046796214 0 -0.14741376 0.38593423 -0.23852047
0.0045921663 0.046548665 0 -0.14741376 0.38593423 -0.23852047
0.0039522359 0.046301235 0 -0.14741376 0.38593423 -0.23852047
0.003312353 0.046053924 0 -0.14741376 0.38593423 -0.23852047
0.0026725151 0.045806728 0 -0.14741376 0.38593423 -0.23852047
0.0020327189 0.045559652 0 -0.14741376 0.38593423 -0.23852047
0.0013929621 0.045312688 0 -0.14741376 0.38593423 -0.23852047
0.00075324177 0.045065839 0 -0.14741376 0.38593423 -0.23852047
0.00011355521 0.044819105 0 -0.14741376 0.38593423 -0.23852047
0 0.04334984 0.00085429702 -0.14741376 0.38593423 -0.23852047
0 0.041603044 0.0019012212 -0.14741376 0.38593423 -0.23852047
0 0.039841071 0.002957301 -0.14741376 0.38593423 -0.23852047
0 0.038063716 0.0040226616 -0.14741376 0.38593423 -0.23852047
0 0.036270767 0.0050974297 -0.14741376 0.38593423 -0.23852047
0 0.034462012 0.0061817365 -0.14741376 0.38593423 -0.23852047
0 0.032637227 0.0072757131 -0.14741376 0.38593423 -0.23852047
0 0.030796189 0.0083794948 -0.14741376 0.38593423 -0.23852047
0 0.028938673 0.0094932187 -0.14741376 0.38593423 -0.23852047
0 0.027064448 0.010617024 -0.14741376 0.38593423 -0.23852047
0 0.025173275 0.011751055 -0.14741376 0.38593423 -0.23852047
0 0.023264913 0.012895454 -0.14741376 0.38593423 -0.23852047
0.0086278729 0 0.028832905 -0.14741376 0.38593423 -0.23852047
0 0.019395646 0.015215955 -0.14741376 0.38593423 -0.23852047
0 0.017434234 0.016392361 -0.14741376 0.38593423 -0.23852047
0 0.015454626 0.017579744 -0.14741376 0.38593423 -0.23852047
0 0.013456558 0.018778266 -0.14741376 0.38593423 -0.23852047
0 0.011439758 0.019988086 -0.14741376 0.38593423 -0.23852047
2.7755576e-17 0.0094039543 0.021209374 -0.14741376 0.38593423 -0.23852047
0 0.0073488648 0.022442296 -0.14741376 0.38593423 -0.23852047
0 0.0052742041 0.023687026 -0.14741376 0.38593423 -0.23852047
0 0.0031796803 0.024943737 -0.14741376 0.38593423 -0.23852047
0 0.0010649965 0.026212612 -0.14741376 0.38593423 -0.23852047
0.039889488 0.058971986 0 -0.14741376 0.38593423 -0.23852047
0.039241131 0.058716081 0 -0.14741376 0.38593423 -0.23852047
0.038592972 0.058460355 0 -0.14741376 0.38593423 -0.23852047
0.037945013 0.058204807 0 -0.14741376 0.38593423 -0.23852047
0.037297253 0.057949431 0 -0.14741376 0.38593423 -0.23852047
0.036649682 0.05769423 0 -0.14741376 0.38593423 -0.23852047
0.036002301 0.057439204 0 -0.14741376 0.38593423 -0.23852047
0.035355106 0.057184346 0 -0.14741376 0.38593423 -0.23852047
0.034708094 0.056929659 0 -0.14741376 0.38593423 -0.23852047
0.034061264 0.056675144 0 -0.14741376 0.38593423 -0.23852047
0.03341461 0.056420796 0 -0.14741376 0.38593423 -0.23852047
0.032768134 0.056166612 0 -0.14741376 0.38593423 -0.23852047
0.03212183 0.055912599 0 -0.14741376 0.38593423 -0.23852047
0.031475693 0.055658747 0 -0.14741376 0.38593423 -0.23852047
0.030829726 0.055405058 0 -0.14741376 0.38593423 -0.23852047
0.030183921 0.055151533 0 -0.14741376 0.38593423 -0.23852047
0.029538276 0.054898165 0 -0.14741376 0.38593423 -0.23852047
0.028892789 0.054644961 0 -0.14741376 0.38593423 -0.23852047
0.028247459 0.054391917 0 -0.14741376 0.38593423 -0.23852047
0.02760228 0.054139026 0 -0.14741376 0.38593423 -0.23852047
0.026957251 0.053886294 0 -0.14741376 0.38593423 -0.23852047
0.026312368 0.053633716 0 -0.14741376 0.38593423 -0.23852047
0.025667628 0.053381294 0 -0.14741376 0.38593423 -0.23852047
0.025023032 0.053129025 0 -0.14741376 0.38593423 -0.23852047
0.024378572 0.052876905 0 -0.14741376 0.38593423 -0.23852047
0.023734247 0.052624937 0 -0.14741376 0.38593423 -0.23852047
0.023090055 0.052373119 0 -0.14741376 0.38593423 -0.23852047
0.022445993 0.052121449 0 -0.14741376 0.38593423 -0.23852047
0.021802058 0.051869929 0 -0.14741376 0.38593423 -0.23852047
0.021158248 0.05161855 0 -0.14741376 0.38593423 -0.23852047
0.020514559 0.05136732 0 -0.14741376 0.38593423 -0.23852047
0.019870987 0.051116232 0 -0.14741376 0.38593423 -0.23852047
0.019227533 0.050865289 0 -0.14741376 0.38593423 -0.23852047
0.01858419 0.050614484 0 -0.14741376 0.38593423 -0.23852047
0.017940957 0.05036382 0 -0.14741376 0.38593423 -0.23852047
0.017297832 0.050113298 0 -0.14741376 0.38593423 -0.23852047
0.016654812 0.049862914 0 -0.14741376 0.38593423 -0.23852047
0.016011892 0.049612664 0 -0.14741376 0.38593423 -0.23852047
0.015369073 0.049362551 0 -0.14741376 0.38593423 -0.23852047
0.014726348 0.049112577 0 -0.14741376 0.38593423 -0.23852047
0.014083718 0.048862733 0 -0.14741376 0.38593423 -0.23852047
0.013441178 0.048613019 0 -0.14741376 0.38593423 -0.23852047
0.012798726 0.04836344 0 -0.14741376 0.38593423 -0.23852047
0.012156358 0.048113991 0 -0.14741376 0.38593423 -0.23852047
0.011514072 0.047864672 0 -0.14741376 0.38593423 -0.23852047
0.010871867 0.04761548 0 -0.14741376 0.38593423 -0.23852047
0.010229737 0.047366418 0 -0.14741376 0.38593423 -0.23852047
0.0095876828 0.047117479 0 -0.14741376 0.38593423 -0.23852047
0.0089456988 0.046868663 0 -0.14741376 0.38593423 -0.23852047
0.0083037829 0.046619974 0 -0.14741376 0.38593423 -0.23852047
0.0076619321 0.046371408 0 -0.14741376 0.38593423 -0.23852047
0.0070201447 0.046122961 0 -0.14741376 0.38593423 -0.23852047
0.0063784174 0.045874637 0 -0.14741376 0.38593423 -0.23852047
0.0057367468 0.045626432 0 -0.14741376 0.38593423 -0.23852047
0.0050951312 0.045378342 0 -0.14741376 0.38593423 -0.23852047
0.0044535669 0.045130372 0 -0.14741376 0.38593423 -0.23852047
0.0038120518 0.044882521 0 -0.14741376 0.38593423 -0.23852047
0.0031705829 0.044634782 0 -0.14741376 0.38593423 -0.23852047
0.0025291573 0.044387158 0 -0.14741376 0.38593423 -0.23852047
0.0018877725 0.044139646 0 -0.14741376 0.38593423 -0.23852047
0.0012464253 0.043892246 0 -0.14741376 0.38593423 -0.23852047
0.00060511351 0.043644954 0 -0.14741376 0.38593423 -0.23852047
0 0.043313716 5.8532223e-05 -0.14741376 0.38593423 -0.23852047
0 0.041568227 0.001101142 -0.14741376 0.38593423 -0.23852047
0 0.039807584 0.0021528602 -0.14741376 0.38593423 -0.23852047
0 0.038031582 0.0032138112 -0.14741376 0.38593423 -0.23852047
0 0.036240015 0.0042841216 -0.14741376 0.38593423 -0.23852047
0 0.034432661 0.0053639207 -0.14741376 0.38593423 -0.23852047
0 0.032609306 0.0064533399 -0.14741376 0.38593423 -0.23852047
0 0.030769728 0.0075525125 -0.14741376 0.38593423 -0.23852047
0 0.028913697 0.0086615756 -0.14741376 0.38593423 -0.23852047
0 0.027040984 0.0097806687 -0.14741376 0.38593423 -0.23852047
0 0.025151351 0.010909932 -0.14741376 0.38593423 -0.23852047
0 0.023244562 0.012049509 -0.14741376 0.38593423 -0.23852047
2.7755576e-17 0.021320367 0.013199549 -0.14741376 0.38593423 -0.23852047
0 0.019378522 0.014360201 -0.14741376 0.38593423 -0.23852047
0 0.01741877 0.015531616 -0.14741376 0.38593423 -0.23852047
2.7755576e-17 0.015440855 0.016713951 -0.14741376 0.38593423 -0.23852047
2.7755576e-17 0.013444511 0.017907364 -0.14741376 0.38593423 -0.23852047
0 0.01142947 0.019112019 -0.14741376 0.38593423 -0.23852047
0 0.0093954569 0.020328077 -0.14741376 0.38593423 -0.23852047
0 0.0073421928 0.021555707 -0.14741376 0.38593423 -0.23852047
2.7755576e-17 0.0052693929 0.022795083 -0.14741376 0.38593423 -0.23852047
0 0.003176766 0.024046376 -0.14741376 0.38593423 -0.23852047
0 0.0010640157 0.025309768 -0.14741376 0.38593423 -0.23852047
0.039836153 0.057565708 0 -0.14741376 0.38593423 -0.23852047
0.03918625 0.057309553 0 -0.14741376 0.38593423 -0.23852047
0.038536549 0.05705357 0 -0.14741376 0.38593423 -0.23852047
0.037887044 0.056797761 0 -0.14741376 0.38593423 -0.23852047
0.037237734 0.056542125 0 -0.14741376 0.38593423 -0.23852047
0.036588617 0.056286659 0 -0.14741376 0.38593423 -0.23852047
0.035939686 0.056031361 0 -0.14741376 0.38593423 -0.23852047
0.035290945 0.055776235 0 -0.14741376 0.38593423 -0.23852047
0.034642383 0.055521272 0 -0.14741376 0.38593423 -0.23852047
0.033994004 0.055266477 0 -0.14741376 0.38593423 -0.23852047
0.033345804 0.05501185 0 -0.14741376 0.38593423 -0.23852047
0.032697774 0.054757383 0 -0.14741376 0.38593423 -0.23852047
0.03204992 0.05450308 0 -0.14741376 0.38593423 -0.23852047
0.031402234 0.054248936 0 -0.14741376 0.38593423 -0.23852047
0.030754711 0.053994954 0 -0.14741376 0.38593423 -0.23852047
0.030107355 0.053741131 0 -0.14741376 0.38593423 -0.23852047
0.029460156 0.053487465 0 -0.14741376 0.38593423 -0.23852047
0.028813116 0.053233955 0 -0.14741376 0.38593423 -0.23852047
0.028166231 0.052980602 0 -0.14741376 0.38593423 -0.23852047
0.027519496 0.052727405 0 -0.14741376 0.38593423 -0.23852047
0.026872911 0.052474357 0 -0.14741376 0.38593423 -0.23852047
0.02622647 0.052221466 0 -0.14741376 0.38593423 -0.23852047
0.025580175 0.051968724 0 -0.14741376 0.38593423 -0.23852047
0.024934018 0.05171613 0 -0.14741376 0.38593423 -0.23852047
0.024287999 0.051463686 0 -0.14741376 0.38593423 -0.23852047
0.023642115 0.051211387 0 -0.14741376 0.38593423 -0.23852047
0.022996362 0.050959237 0 -0.14741376 0.38593423 -0.23852047
0.02235074 0.050707232 0 -0.14741376 0.38593423 -0.23852047
0.021705242 0.050455369 0 -0.14741376 0.38593423 -0.23852047
0.021059867 0.050203651 0 -0.14741376 0.38593423 -0.23852047
0.020414613 0.049952075 0 -0.14741376 0.38593423 -0.23852047
0.019769477 0.049700636 0 -0.14741376 0.38593423 -0.23852047
0.019124456 0.04944934 0 -0.14741376 0.38593423 -0.23852047
0.018479547 0.04919818 0 -0.14741376 0.38593423 -0.23852047
0.017834747 0.048947159 0 -0.14741376 0.38593423 -0.23852047
0.017190052 0.048696272 0 -0.14741376 0.38593423 -0.23852047
0.016545461 0.048445523 0 -0.14741376 0.38593423 -0.23852047
0.015900971 0.048194908 0 -0.14741376 0.38593423 -0.23852047
0.01525658 0.047944423 0 -0.14741376 0.38593423 -0.23852047
0.014612284 0.047694068 0 -0.14741376 0.38593423 -0.23852047
0.013968079 0.047443848 0 -0.14741376 0.38593423 -0.23852047
0.013323964 0.047193754 0 -0.14741376 0.38593423 -0.23852047
0.012679935 0.046943791 0 -0.14741376 0.38593423 -0.23852047
0.012035991 0.046693951 0 -0.14741376 0.38593423 -0.23852047
0.011392128 0.046444241 0 -0.14741376 0.38593423 -0.23852047
0.010748343 0.046194654 0 -0.14741376 0.38593423 -0.23852047
0.010104633 0.04594519 0 -0.14741376 0.38593423 -0.23852047
0.0094609968 0.045695849 0 -0.14741376 0.38593423 -0.23852047
0.0088174297 0.045446631 0 -0.14741376 0.38593423 -0.23852047
0.0081739295 0.045197535 0 -0.14741376 0.38593423 -0.23852047
0.0075304941 0.044948556 0 -0.14741376 0.38593423 -0.23852047
0.0068871202 0.044699695 0 -0.14741376 0.38593423 -0.23852047
0.0062438049 0.04445095 0 -0.14741376 0.38593423 -0.23852047
0.0056005456 0.044202324 0 -0.14741376 0.38593423 -0.23852047
0.0049573397 0.04395381 0 -0.14741376 0.38593423 -0.23852047
0.0043141842 0.043705411 0 -0.14741376 0.38593423 -0.23852047
0.0036710759 0.043457128 0 -0.14741376 0.38593423 -0.23852047
0.0030280128 0.043208953 0 -0.14741376 0.38593423 -0.23852047
0.0023849916 0.04296089 0 -0.14741376 0.38593423 -0.23852047
0.0017420099 0.042712934 0 -0.14741376 0.38593423 -0.23852047
0.0010990646 0.042465091 0 -0.14741376 0.38593423 -0.23852047
0.0004561531 0.042217351 0 -0.14741376 0.38593423 -0.23852047
0 0.04153347 0.00030251461 -0.14741376 0.38593423 -0.23852047
0 0.039774157 0.0013498849 -0.14741376 0.38593423 -0.23852047
0 0.037999507 0.0024064404 -0.14741376 0.38593423 -0.23852047
0 0.036209315 0.003472307 -0.14741376 0.38593423 -0.23852047
0 0.034403365 0.0045476127 -0.14741376 0.38593423 -0.23852047
0 0.032581441 0.0056324885 -0.14741376 0.38593423 -0.23852047
0 0.030743316 0.0067270678 -0.14741376 0.38593423 -0.23852047
0 0.028888768 0.007831485 -0.14741376 0.38593423 -0.23852047
0 0.027017564 0.0089458795 -0.14741376 0.38593423 -0.23852047
0 0.025129469 0.010070391 -0.14741376 0.38593423 -0.23852047
2.7755576e-17 0.023224246 0.011205164 -0.14741376 0.38593423 -0.23852047
0 0.02130165 0.012350343 -0.14741376 0.38593423 -0.23852047
0 0.019361431 0.013506077 -0.14741376 0.38593423 -0.23852047
0 0.017403338 0.01467252 -0.14741376 0.38593423 -0.23852047
0 0.015427111 0.015849823 -0.14741376 0.38593423 -0.23852047
0 0.013432488 0.017038146 -0.14741376 0.38593423 -0.23852047
2.7755576e-17 0.011419201 0.01823765 -0.14741376 0.38593423 -0.23852047
0 0.0093869762 0.019448496 -0.14741376 0.38593423 -0.23852047
0 0.0073355339 0.020670854 -0.14741376 0.38593423 -0.23852047
2.7755576e-17 0.005264591 0.021904893 -0.14741376 0.38593423 -0.23852047
0 0.0031738572 0.023150787 -0.14741376 0.38593423 -0.23852047
0 0.0010630367 0.024408711 -0.14741376 0.38593423 -0.23852047
0.03978245 0.056153085 0 -0.14741376 0.38593423 -0.23852047
0.039130993 0.05589667 0 -0.14741376 0.38593423 -0.23852047
0.038479738 0.055640426 0 -0.14741376 0.38593423 -0.23852047
0.03782868 0.055384353 0 -0.14741376 0.38593423 -0.23852047
0.037177816 0.055128448 0 -0.14741376 0.38593423 -0.23852047
0.036527142 0.05487271 0 -0.14741376 0.38593423 -0.23852047
0.035876658 0.054617137 0 -0.14741376 0.38593423 -0.23852047
0.03522636 0.054361731 0 -0.14741376 0.38593423 -0.23852047
0.034576245 0.054106489 0 -0.14741376 0.38593423 -0.23852047
0.033926308 0.053851411 0 -0.14741376 0.38593423 -0.23852047
0.03327655 0.053596493 0 -0.14741376 0.38593423 -0.23852047
0.032626964 0.053341735 0 -0.14741376 0.38593423 -0.23852047
0.031977553 0.053087138 0 -0.14741376 0.38593423 -0.23852047
0.031328306 0.052832697 0 -0.14741376 0.38593423 -0.23852047
0.030679226 0.052578416 0 -0.14741376 0.38593423 -0.23852047
0.030030306 0.052324288 0 -0.14741376 0.38593423 -0.23852047
0.029381549 0.052070316 0 -0.14741376 0.38593423 -0.23852047
0.028732946 0.051816497 0 -0.14741376 0.38593423 -0.23852047
0.0280845 0.051562831 0 -0.14741376 0.38593423 -0.23852047
0.027436202 0.051309314 0 -0.14741376 0.38593423 -0.23852047
0.026788052 0.051055949 0 -0.14741376 0.38593423 -0.23852047
0.026140049 0.05080273 0 -0.14741376 0.38593423 -0.23852047
0.025492188 0.050549664 0 -0.14741376 0.38593423 -0.23852047
0.024844466 0.050296739 0 -0.14741376 0.38593423 -0.23852047
0.02419688 0.050043963 0 -0.14741376 0.38593423 -0.23852047
0.023549428 0.049791329 0 -0.14741376 0.38593423 -0.23852047
0.022902107 0.049538836 0 -0.14741376 0.38593423 -0.23852047
0.022254916 0.049286488 0 -0.14741376 0.38593423 -0.23852047
0.021607848 0.049034279 0 -0.14741376 0.38593423 -0.23852047
0.020960903 0.048782211 0 -0.14741376 0.38593423 -0.23852047
0.020314077 0.048530281 0 -0.14741376 0.38593423 -0.23852047
0.019667368 0.048278488 0 -0.14741376 0.38593423 -0.23852047
0.019020773 0.048026834 0 -0.14741376 0.38593423 -0.23852047
0.018374288 0.04777531 0 -0.14741376 0.38593423 -0.23852047
0.017727913 0.047523923 0 -0.14741376 0.38593423 -0.23852047
0.017081643 0.047272667 0 -0.14741376 0.38593423 -0.23852047
0.016435476 0.047021545 0 -0.14741376 0.38593423 -0.23852047
0.015789406 0.04677055 0 -0.14741376 0.38593423 -0.23852047
0.015143435 0.046519689 0 -0.14741376 0.38593423 -0.23852047
0.014497559 0.046268955 0 -0.14741376 0.38593423 -0.23852047
0.013851772 0.046018343 0 -0.14741376 0.38593423 -0.23852047
0.013206075 0.045767862 0 -0.14741376 0.38593423 -0.23852047
0.012560463 0.045517504 0 -0.14741376 0.38593423 -0.23852047
0.011914933 0.045267273 0 -0.14741376 0.38593423 -0.23852047
0.011269484 0.04501716 0 -0.14741376 0.38593423 -0.23852047
0.010624112 0.044767171 0 -0.14741376 0.38593423 -0.23852047
0.0099788141 0.044517305 0 -0.14741376 0.38593423 -0.23852047
0.0093335873 0.044267554 0 -0.14741376 0.38593423 -0.23852047
0.0086884294 0.044017922 0 -0.14741376 0.38593423 -0.23852047
0.0080433376 0.043768406 0 -0.14741376 0.38593423 -0.23852047
0.0073983092 0.043519009 0 -0.14741376 0.38593423 -0.23852047
0.0067533408 0.043269727 0 -0.14741376 0.38593423 -0.23852047
0.0061084297 0.043020558 0 -0.14741376 0.38593423 -0.23852047
0.0054635736 0.0427715 0 -0.14741376 0.38593423 -0.23852047
0.0048187696 0.042522553 0 -0.14741376 0.38593423 -0.23852047
0.0041740146 0.042273719 0 -0.14741376 0.38593423 -0.23852047
0.0035293053 0.042024992 0 -0.14741376 0.38593423 -0.23852047
0.0028846401 0.041776374 0 -0.14741376 0.38593423 -0.23852047
0.0022400154 0.041527867 0 -0.14741376 0.38593423 -0.23852047
0.0015954286 0.041279461 0 -0.14741376 0.38593423 -0.23852047
0.00095087691 0.041031163 0 -0.14741376 0.38593423 -0.23852047
0.00030635754 0.040782966 0 -0.14741376 0.38593423 -0.23852047
0 0.03974079 0.00054836733 -0.14741376 0.38593423 -0.23852047
0 0.037967492 0.0016005412 -0.14741376 0.38593423 -0.23852047
0 0.036178675 0.0026619779 -0.14741376 0.38593423 -0.23852047
0 0.034374125 0.0037328049 -0.14741376 0.38593423 -0.23852047
0 0.032553624 0.0048131524 -0.14741376 0.38593423 -0.23852047
0 0.030716954 0.0059031518 -0.14741376 0.38593423 -0.23852047
0 0.028863885 0.007002939 -0.14741376 0.38593423 -0.23852047
0 0.026994187 0.0081126504 -0.14741376 0.38593423 -0.23852047
0 0.02510763 0.0092324261 -0.14741376 0.38593423 -0.23852047
0 0.023203971 0.010362409 -0.14741376 0.38593423 -0.23852047
0 0.021282967 0.011502743 -0.14741376 0.38593423 -0.23852047
0 0.019344373 0.012653577 -0.14741376 0.38593423 -0.23852047
0 0.017387934 0.013815062 -0.14741376 0.38593423 -0.23852047
0 0.015413393 0.01498735 -0.14741376 0.38593423 -0.23852047
2.7755576e-17 0.013420489 0.0161706 -0.14741376 0.38593423 -0.23852047
0 0.011408952 0.017364969 -0.14741376 0.38593423 -0.23852047
0 0.0093785115 0.018570622 -0.14741376 0.38593423 -0.23852047
2.7755576e-17 0.0073288879 0.019787725 -0.14741376 0.38593423 -0.23852047
0 0.0052597988 0.021016445 -0.14741376 0.38593423 -0.23852047
0 0.0031709543 0.022256957 -0.14741376 0.38593423 -0.23852047
0 0.0010620598 0.023509435 -0.14741376 0.38593423 -0.23852047
0.039728373 0.054734059 0 -0.14741376 0.38593423 -0.23852047
0.039075356 0.054477379 0 -0.14741376 0.38593423 -0.23852047
0.03842254 0.054220866 0 -0.14741376 0.38593423 -0.23852047
0.037769921 0.053964522 0 -0.14741376 0.38593423 -0.23852047
0.037117496 0.053708341 0 -0.14741376 0.38593423 -0.23852047
0.036465265 0.053452328 0 -0.14741376 0.38593423 -0.23852047
0.035813216 0.053196475 0 -0.14741376 0.38593423 -0.23852047
0.035161357 0.052940782 0 -0.14741376 0.38593423 -0.23852047
0.034509677 0.052685253 0 -0.14741376 0.38593423 -0.23852047
0.033858176 0.052429885 0 -0.14741376 0.38593423 -0.23852047
0.033206854 0.052174672 0 -0.14741376 0.38593423 -0.23852047
0.032555703 0.051919617 0 -0.14741376 0.38593423 -0.23852047
0.031904723 0.051664717 0 -0.14741376 0.38593423 -0.23852047
0.031253912 0.051409975 0 -0.14741376 0.38593423 -0.23852047
0.030603265 0.051155385 0 -0.14741376 0.38593423 -0.23852047
0.029952779 0.050900947 0 -0.14741376 0.38593423 -0.23852047
0.029302454 0.050646659 0 -0.14741376 0.38593423 -0.23852047
0.028652282 0.050392523 0 -0.14741376 0.38593423 -0.23852047
0.028002266 0.050138537 0 -0.14741376 0.38593423 -0.23852047
0.027352398 0.049884696 0 -0.14741376 0.38593423 -0.23852047
0.026702678 0.049631003 0 -0.14741376 0.38593423 -0.23852047
0.026053103 0.049377456 0 -0.14741376 0.38593423 -0.23852047
0.025403669 0.049124055 0 -0.14741376 0.38593423 -0.23852047
0.024754373 0.048870794 0 -0.14741376 0.38593423 -0.23852047
0.024105214 0.048617676 0 -0.14741376 0.38593423 -0.23852047
0.023456188 0.048364699 0 -0.14741376 0.38593423 -0.23852047
0.022807291 0.04811186 0 -0.14741376 0.38593423 -0.23852047
0.022158522 0.047859162 0 -0.14741376 0.38593423 -0.23852047
0.021509876 0.047606602 0 -0.14741376 0.38593423 -0.23852047
0.020861354 0.047354177 0 -0.14741376 0.38593423 -0.23852047
0.020212948 0.047101885 0 -0.14741376 0.38593423 -0.23852047
0.019564658 0.046849731 0 -0.14741376 0.38593423 -0.23852047
0.018916482 0.046597708 0 -0.14741376 0.38593423 -0.23852047
0.018268416 0.046345815 0 -0.14741376 0.38593423 -0.23852047
0.017620457 0.046094052 0 -0.14741376 0.38593423 -0.23852047
0.016972603 0.04584242 0 -0.14741376 0.38593423 -0.23852047
0.01632485 0.045590919 0 -0.14741376 0.38593423 -0.23852047
0.015677195 0.045339543 0 -0.14741376 0.38593423 -0.23852047
0.015029637 0.045088291 0 -0.14741376 0.38593423 -0.23852047
0.014382171 0.044837166 0 -0.14741376 0.38593423 -0.23852047
0.013734796 0.044586167 0 -0.14741376 0.38593423 -0.23852047
0.013087507 0.044335287 0 -0.14741376 0.38593423 -0.23852047
0.012440303 0.044084527 0 -0.14741376 0.38593423 -0.23852047
0.011793181 0.043833893 0 -0.14741376 0.38593423 -0.23852047
0.011146138 0.043583374 0 -0.14741376 0.38593423 -0.23852047
0.010499171 0.043332975 0 -0.14741376 0.38593423 -0.23852047
0.0098522771 0.043082692 0 -0.14741376 0.38593423 -0.23852047
0.0092054531 0.042832524 0 -0.14741376 0.38593423 -0.23852047
0.0085586971 0.042582471 0 -0.14741376 0.38593423 -0.23852047
0.0079120053 0.042332534 0 -0.14741376 0.38593423 -0.23852047
0.0072653755 0.042082708 0 -0.14741376 0.38593423 -0.23852047
0.0066188048 0.041832995 0 -0.14741376 0.38593423 -0.23852047
0.0059722904 0.041583389 0 -0.14741376 0.38593423 -0.23852047
0.0053258291 0.041333895 0 -0.14741376 0.38593423 -0.23852047
0.0046794186 0.041084509 0 -0.14741376 0.38593423 -0.23852047
0.0040330556 0.040835228 0 -0.14741376 0.38593423 -0.23852047
0.0033867378 0.040586054 0 -0.14741376 0.38593423 -0.23852047
0.0027404618 0.040336985 0 -0.14741376 0.38593423 -0.23852047
0.0020942255 0.04008802 0 -0.14741376 0.38593423 -0.23852047
0.0014480255 0.03983916 0 -0.14741376 0.38593423 -0.23852047
0.00080185919 0.0395904 0 -0.14741376 0.38593423 -0.23852047
0.00015572378 0.03934174 0 -0.14741376 0.38593423 -0.23852047
0 0.037935533 0.00079610554 -0.14741376 0.38593423 -0.23852047
0 0.036148086 0.0018531265 -0.14741376 0.38593423 -0.23852047
0 0.034344938 0.0029194888 -0.14741376 0.38593423 -0.23852047
0 0.03252586 0.0039953222 -0.14741376 0.38593423 -0.23852047
0 0.030690638 0.0050807572 -0.14741376 0.38593423 -0.23852047
0 0.028839046 0.0061759283 -0.14741376 0.38593423 -0.23852047
0 0.026970856 0.0072809723 -0.14741376 0.38593423 -0.23852047
0 0.025085829 0.0083960276 -0.14741376 0.38593423 -0.23852047
2.7755576e-17 0.023183731 0.0095212357 -0.14741376 0.38593423 -0.23852047
0 0.02126432 0.010656741 -0.14741376 0.38593423 -0.23852047
0 0.019327346 0.01180269 -0.14741376 0.38593423 -0.23852047
0 0.01737256 0.012959234 -0.14741376 0.38593423 -0.23852047
0 0.015399701 0.014126524 -0.14741376 0.38593423 -0.23852047
0 0.013408512 0.015304717 -0.14741376 0.38593423 -0.23852047
0 0.011398722 0.016493971 -0.14741376 0.38593423 -0.23852047
0 0.0093700625 0.017694447 -0.14741376 0.38593423 -0.23852047
0 0.0073222546 0.018906312 -0.14741376 0.38593423 -0.23852047
0 0.0052550156 0.020129733 -0.14741376 0.38593423 -0.23852047
0 0.003168057 0.021364879 -0.14741376 0.38593423 -0.23852047
2.7755576e-17 0.0010610847 0.022611929 -0.14741376 0.38593423 -0.23852047
0.039673924 0.053308573 0 -0.14741376 0.38593423 -0.23852047
0.039019343 0.053051621 0 -0.14741376 0.38593423 -0.23852047
0.038364962 0.052794833 0 -0.14741376 0.38593423 -0.23852047
0.037710775 0.052538212 0 -0.14741376 0.38593423 -0.23852047
0.037056781 0.052281749 0 -0.14741376 0.38593423 -0.23852047
0.036402978 0.052025449 0 -0.14741376 0.38593423 -0.23852047
0.035749361 0.051769309 0 -0.14741376 0.38593423 -0.23852047
0.03509593 0.051513329 0 -0.14741376 0.38593423 -0.23852047
0.034442682 0.051257502 0 -0.14741376 0.38593423 -0.23852047
0.033789612 0.051001836 0 -0.14741376 0.38593423 -0.23852047
0.033136714 0.050746322 0 -0.14741376 0.38593423 -0.23852047
0.032483995 0.050490964 0 -0.14741376 0.38593423 -0.23852047
0.03183144 0.050235759 0 -0.14741376 0.38593423 -0.23852047
0.031179056 0.049980704 0 -0.14741376 0.38593423 -0.23852047
0.030526834 0.049725797 0 -0.14741376 0.38593423 -0.23852047
0.029874774 0.049471043 0 -0.14741376 0.38593423 -0.23852047
0.029222872 0.049216438 0 -0.14741376 0.38593423 -0.23852047
0.028571125 0.048961975 0 -0.14741376 0.38593423 -0.23852047
0.027919529 0.04870766 0 -0.14741376 0.38593423 -0.23852047
0.027268086 0.048453491 0 -0.14741376 0.38593423 -0.23852047
0.026616786 0.048199464 0 -0.14741376 0.38593423 -0.23852047
0.025965631 0.047945581 0 -0.14741376 0.38593423 -0.23852047
0.025314618 0.047691837 0 -0.14741376 0.38593423 -0.23852047
0.024663741 0.047438234 0 -0.14741376 0.38593423 -0.23852047
0.024013 0.047184769 0 -0.14741376 0.38593423 -0.23852047
0.023362391 0.046931442 0 -0.14741376 0.38593423 -0.23852047
0.02271191 0.046678249 0 -0.14741376 0.38593423 -0.23852047
0.022061557 0.046425194 0 -0.14741376 0.38593423 -0.23852047
0.021411328 0.046172272 0 -0.14741376 0.38593423 -0.23852047
0.020761218 0.045919482 0 -0.14741376 0.38593423 -0.23852047
0.020111226 0.045666825 0 -0.14741376 0.38593423 -0.23852047
0.019461349 0.045414299 0 -0.14741376 0.38593423 -0.23852047
0.018811584 0.045161899 0 -0.14741376 0.38593423 -0.23852047
0.018161926 0.04490963 0 -0.14741376 0.38593423 -0.23852047
0.017512377 0.044657487 0 -0.14741376 0.38593423 -0.23852047
0.016862931 0.044405472 0 -0.14741376 0.38593423 -0.23852047
0.016213585 0.044153582 0 -0.14741376 0.38593423 -0.23852047
0.015564336 0.043901816 0 -0.14741376 0.38593423 -0.23852047
0.014915182 0.043650169 0 -0.14741376 0.38593423 -0.23852047
0.014266121 0.043398649 0 -0.14741376 0.38593423 -0.23852047
0.013617148 0.043147244 0 -0.14741376 0.38593423 -0.23852047
0.012968262 0.042895962 0 -0.14741376 0.38593423 -0.23852047
0.012319459 0.042644795 0 -0.14741376 0.38593423 -0.23852047
0.011670736 0.042393748 0 -0.14741376 0.38593423 -0.23852047
0.01102209 0.042142812 0 -0.14741376 0.38593423 -0.23852047
0.01037352 0.041891996 0 -0.14741376 0.38593423 -0.23852047
0.0097250221 0.041641291 0 -0.14741376 0.38593423 -0.23852047
0.0090765925 0.041390698 0 -0.14741376 0.38593423 -0.23852047
0.008428229 0.041140221 0 -0.14741376 0.38593423 -0.23852047
0.0077799298 0.040889848 0 -0.14741376 0.38593423 -0.23852047
0.0071316911 0.040639587 0 -0.14741376 0.38593423 -0.23852047
0.0064835097 0.040389434 0 -0.14741376 0.38593423 -0.23852047
0.0058353832 0.040139388 0 -0.14741376 0.38593423 -0.23852047
0.0051873089 0.039889447 0 -0.14741376 0.38593423 -0.23852047
0.0045392839 0.039639611 0 -0.14741376 0.38593423 -0.23852047
0.0038913051 0.039389882 0 -0.14741376 0.38593423 -0.23852047
0.00324337 0.039140251 0 -0.14741376 0.38593423 -0.23852047
0.0025954756 0.038890723 0 -0.14741376 0.38593423 -0.23852047
0.0019476191 0.038641293 0 -0.14741376 0.38593423 -0.23852047
0.0012997977 0.038391966 0 -0.14741376 0.38593423 -0.23852047
0.00065200846 0.038142733 0 -0.14741376 0.38593423 -0.23852047
4.2486613e-06 0.037893601 0 -0.14741376 0.38593423 -0.23852047
0 0.036117557 0.0010457446 -0.14741376 0.38593423 -0.23852047
0 0.034315802 0.0021076566 -0.14741376 0.38593423 -0.23852047
0 0.032498147 0.00317899 -0.14741376 0.38593423 -0.23852047
0 0.030664373 0.004259875 -0.14741376 0.38593423 -0.23852047
0 0.028814256 0.0053504454 -0.14741376 0.38593423 -0.23852047
0 0.026947565 0.0064508365 -0.14741376 0.38593423 -0.23852047
0.010238555 0 0.024652675 -0.14741376 0.38593423 -0.23852047
2.7755576e-17 0.023163531 0.0086816354 -0.14741376 0.38593423 -0.23852047
0 0.021245709 0.009812328 -0.14741376 0.38593423 -0.23852047
0 0.019310351 0.010953409 -0.14741376 0.38593423 -0.23852047
2.7755576e-17 0.017357213 0.012105028 -0.14741376 0.38593423 -0.23852047
0 0.015386036 0.013267336 -0.14741376 0.38593423 -0.23852047
0 0.013396557 0.014440489 -0.14741376 0.38593423 -0.23852047
0 0.011388513 0.015624644 -0.14741376 0.38593423 -0.23852047
2.7755576e-17 0.0093616312 0.016819961 -0.14741376 0.38593423 -0.23852047
2.7755576e-17 0.0073156347 0.018026605 -0.14741376 0.38593423 -0.23852047
0 0.0052502421 0.019244744 -0.14741376 0.38593423 -0.23852047
0 0.0031651652 0.020474546 -0.14741376 0.38593423 -0.23852047
0 0.0010601116 0.021716185 -0.14741376 0.38593423 -0.23852047
0.039619111 0.051876567 0 -0.14741376 0.38593423 -0.23852047
0.038962953 0.051619336 0 -0.14741376 0.38593423 -0.23852047
0.038306996 0.051362269 0 -0.14741376 0.38593423 -0.23852047
0.037651233 0.051105361 0 -0.14741376 0.38593423 -0.23852047
0.036995664 0.050848611 0 -0.14741376 0.38593423 -0.23852047
0.036340285 0.05059202 0 -0.14741376 0.38593423 -0.23852047
0.035685092 0.050335586 0 -0.14741376 0.38593423 -0.23852047
0.035030086 0.050079305 0 -0.14741376 0.38593423 -0.23852047
0.034375258 0.04982318 0 -0.14741376 0.38593423 -0.23852047
0.033720609 0.049567208 0 -0.14741376 0.38593423 -0.23852047
0.033066135 0.049311388 0 -0.14741376 0.38593423 -0.23852047
0.032411832 0.049055718 0 -0.14741376 0.38593423 -0.23852047
0.031757701 0.048800196 0 -0.14741376 0.38593423 -0.23852047
0.031103734 0.048544824 0 -0.14741376 0.38593423 -0.23852047
0.030449931 0.048289601 0 -0.14741376 0.38593423 -0.23852047
0.029796287 0.048034523 0 -0.14741376 0.38593423 -0.23852047
0.029142803 0.047779586 0 -0.14741376 0.38593423 -0.23852047
0.028489472 0.047524795 0 -0.14741376 0.38593423 -0.23852047
0.027836293 0.047270145 0 -0.14741376 0.38593423 -0.23852047
0.027183263 0.047015637 0 -0.14741376 0.38593423 -0.23852047
0.026530378 0.046761271 0 -0.14741376 0.38593423 -0.23852047
0.025877636 0.046507042 0 -0.14741376 0.38593423 -0.23852047
0.025225034 0.046252951 0 -0.14741376 0.38593423 -0.23852047
0.02457257 0.045998994 0 -0.14741376 0.38593423 -0.23852047
0.023920238 0.045745175 0 -0.14741376 0.38593423 -0.23852047
0.02326804 0.045491491 0 -0.14741376 0.38593423 -0.23852047
0.022615969 0.045237936 0 -0.14741376 0.38593423 -0.23852047
0.021964023 0.044984516 0 -0.14741376 0.38593423 -0.23852047
0.0213122 0.044731226 0 -0.14741376 0.38593423 -0.23852047
0.020660495 0.044478066 0 -0.14741376 0.38593423 -0.23852047
0.020008909 0.044225033 0 -0.14741376 0.38593423 -0.23852047
0.019357437 0.043972131 0 -0.14741376 0.38593423 -0.23852047
0.018706074 0.043719351 0 -0.14741376 0.38593423 -0.23852047
0.018054821 0.043466698 0 -0.14741376 0.38593423 -0.23852047
0.017403672 0.043214165 0 -0.14741376 0.38593423 -0.23852047
0.016752625 0.042961758 0 -0.14741376 0.38593423 -0.23852047
0.016101679 0.042709474 0 -0.14741376 0.38593423 -0.23852047
0.015450829 0.042457305 0 -0.14741376 0.38593423 -0.23852047
0.014800072 0.042205259 0 -0.14741376 0.38593423 -0.23852047
0.014149406 0.041953333 0 -0.14741376 0.38593423 -0.23852047
0.013498828 0.041701518 0 -0.14741376 0.38593423 -0.23852047
0.012848335 0.041449822 0 -0.14741376 0.38593423 -0.23852047
0.012197924 0.041198242 0 -0.14741376 0.38593423 -0.23852047
0.011547592 0.040946774 0 -0.14741376 0.38593423 -0.23852047
0.010897337 0.040695421 0 -0.14741376 0.38593423 -0.23852047
0.010247156 0.040444177 0 -0.14741376 0.38593423 -0.23852047
0.0095970454 0.04019304 0 -0.14741376 0.38593423 -0.23852047
0.0089470027 0.039942015 0 -0.14741376 0.38593423 -0.23852047
0.0082970252 0.039691098 0 -0.14741376 0.38593423 -0.23852047
0.0076471092 0.039440289 0 -0.14741376 0.38593423 -0.23852047
0.0069972528 0.039189585 0 -0.14741376 0.38593423 -0.23852047
0.0063474532 0.038938984 0 -0.14741376 0.38593423 -0.23852047
0.0056977067 0.038688488 0 -0.14741376 0.38593423 -0.23852047
0.005048011 0.038438093 0 -0.14741376 0.38593423 -0.23852047
0.0043983632 0.038187802 0 -0.14741376 0.38593423 -0.23852047
0.0037487603 0.037937608 0 -0.14741376 0.38593423 -0.23852047
0.0030991996 0.037687514 0 -0.14741376 0.38593423 -0.23852047
0.0024496783 0.037437517 0 -0.14741376 0.38593423 -0.23852047
0.0018001935 0.037187617 0 -0.14741376 0.38593423 -0.23852047
0.0011507422 0.036937814 0 -0.14741376 0.38593423 -0.23852047
0.00050132163 0.036688104 0 -0.14741376 0.38593423 -0.23852047
0 0.036087081 0.00023982477 -0.14741376 0.38593423 -0.23852047
0 0.034286719 0.0012973003 -0.14741376 0.38593423 -0.23852047
0 0.032470483 0.0023641482 -0.14741376 0.38593423 -0.23852047
0 0.030638155 0.0034404979 -0.14741376 0.38593423 -0.23852047
0 0.028789509 0.004526482 -0.14741376 0.38593423 -0.23852047
0.011055448 0 0.023931971 -0.14741376 0.38593423 -0.23852047
0 0.025042351 0.0067278948 -0.14741376 0.38593423 -0.23852047
0 0.02314337 0.0078436006 -0.14741376 0.38593423 -0.23852047
0 0.021227131 0.0089694951 -0.14741376 0.38593423 -0.23852047
0 0.01929339 0.010105724 -0.14741376 0.38593423 -0.23852047
0 0.017341897 0.011252434 -0.14741376 0.38593423 -0.23852047
0 0.015372396 0.012409777 -0.14741376 0.38593423 -0.23852047
0 0.013384626 0.013577907 -0.14741376 0.38593423 -0.23852047
0 0.011378323 0.014756979 -0.14741376 0.38593423 -0.23852047
0 0.0093532149 0.015947156 -0.14741376 0.38593423 -0.23852047
0 0.007309027 0.017148597 -0.14741376 0.38593423 -0.23852047
0 0.0052454774 0.01836147 -0.14741376 0.38593423 -0.23852047
0 0.0031622793 0.019585943 -0.14741376 0.38593423 -0.23852047
0 0.0010591403 0.020822192 -0.14741376 0.38593423 -0.23852047
0.039563928 0.050437979 0 -0.14741376 0.38593423 -0.23852047
0.038906191 0.050180465 0 -0.14741376 0.38593423 -0.23852047
0.038248651 0.049923111 0 -0.14741376 0.38593423 -0.23852047
0.037591305 0.049665909 0 -0.14741376 0.38593423 -0.23852047
0.036934152 0.049408868 0 -0.14741376 0.38593423 -0.23852047
0.03627719 0.049151976 0 -0.14741376 0.38593423 -0.23852047
0.035620414 0.04889524 0 -0.14741376 0.38593423 -0.23852047
0.03496382 0.048638657 0 -0.14741376 0.38593423 -0.23852047
0.034307409 0.048382226 0 -0.14741376 0.38593423 -0.23852047
0.033651173 0.048125941 0 -0.14741376 0.38593423 -0.23852047
0.032995112 0.047869805 0 -0.14741376 0.38593423 -0.23852047
0.032339223 0.047613818 0 -0.14741376 0.38593423 -0.23852047
0.031683505 0.047357976 0 -0.14741376 0.38593423 -0.23852047
0.031027948 0.04710228 0 -0.14741376 0.38593423 -0.23852047
0.030372556 0.046846729 0 -0.14741376 0.38593423 -0.23852047
0.029717322 0.046591315 0 -0.14741376 0.38593423 -0.23852047
0.029062247 0.046336047 0 -0.14741376 0.38593423 -0.23852047
0.028407324 0.046080917 0 -0.14741376 0.38593423 -0.23852047
0.027752554 0.045825928 0 -0.14741376 0.38593423 -0.23852047
0.027097931 0.045571074 0 -0.14741376 0.38593423 -0.23852047
0.026443452 0.045316361 0 -0.14741376 0.38593423 -0.23852047
0.025789116 0.045061778 0 -0.14741376 0.38593423 -0.23852047
0.025134919 0.044807333 0 -0.14741376 0.38593423 -0.23852047
0.024480857 0.044553019 0 -0.14741376 0.38593423 -0.23852047
0.023826931 0.044298839 0 -0.14741376 0.38593423 -0.23852047
0.023173133 0.044044789 0 -0.14741376 0.38593423 -0.23852047
0.022519462 0.043790866 0 -0.14741376 0.38593423 -0.23852047
0.021865917 0.043537073 0 -0.14741376 0.38593423 -0.23852047
0.021212494 0.043283407 0 -0.14741376 0.38593423 -0.23852047
0.020559188 0.043029871 0 -0.14741376 0.38593423 -0.23852047
0.019905999 0.042776454 0 -0.14741376 0.38593423 -0.23852047
0.019252922 0.042523164 0 -0.14741376 0.38593423 -0.23852047
0.018599955 0.042269997 0 -0.14741376 0.38593423 -0.23852047
0.017947096 0.04201695 0 -0.14741376 0.38593423 -0.23852047
0.017294342 0.041764025 0 -0.14741376 0.38593423 -0.23852047
0.016641688 0.041511215 0 -0.14741376 0.38593423 -0.23852047
0.01598913 0.041258529 0 -0.14741376 0.38593423 -0.23852047
0.015336671 0.041005954 0 -0.14741376 0.38593423 -0.23852047
0.014684303 0.040753499 0 -0.14741376 0.38593423 -0.23852047
0.014032025 0.040501155 0 -0.14741376 0.38593423 -0.23852047
0.013379834 0.040248927 0 -0.14741376 0.38593423 -0.23852047
0.012727726 0.039996814 0 -0.14741376 0.38593423 -0.23852047
0.0120757 0.039744806 0 -0.14741376 0.38593423 -0.23852047
0.011423752 0.039492913 0 -0.14741376 0.38593423 -0.23852047
0.010771879 0.039241128 0 -0.14741376 0.38593423 -0.23852047
0.010120078 0.038989447 0 -0.14741376 0.38593423 -0.23852047
0.0094683468 0.038737878 0 -0.14741376 0.38593423 -0.23852047
0.0088166827 0.03848641 0 -0.14741376 0.38593423 -0.23852047
0.008165082 0.03823505 0 -0.14741376 0.38593423 -0.23852047
0.0075135417 0.03798379 0 -0.14741376 0.38593423 -0.23852047
0.0068620597 0.037732635 0 -0.14741376 0.38593423 -0.23852047
0.0062106326 0.03748158 0 -0.14741376 0.38593423 -0.23852047
0.0055592577 0.037230626 0 -0.14741376 0.38593423 -0.23852047
0.0049079326 0.036979768 0 -0.14741376 0.38593423 -0.23852047
0.0042566536 0.036729008 0 -0.14741376 0.38593423 -0.23852047
0.0036054184 0.036478348 0 -0.14741376 0.38593423 -0.23852047
0.0029542237 0.036227778 0 -0.14741376 0.38593423 -0.23852047
0.0023030671 0.035977308 0 -0.14741376 0.38593423 -0.23852047
0.0016519454 0.035726927 0 -0.14741376 0.38593423 -0.23852047
0.0010008558 0.03547664 0 -0.14741376 0.38593423 -0.23852047
0.0003497955 0.035226442 0 -0.14741376 0.38593423 -0.23852047
0 0.034257691 0.00048841198 -0.14741376 0.38593423 -0.23852047
0 0.032442871 0.0015507884 -0.14741376 0.38593423 -0.23852047
0 0.030611984 0.0026226172 -0.14741376 0.38593423 -0.23852047
0 0.028764809 0.0037040296 -0.14741376 0.38593423 -0.23852047
0 0.026901117 0.0047951601 -0.14741376 0.38593423 -0.23852047
0 0.025020674 0.0058961445 -0.14741376 0.38593423 -0.23852047
0 0.023123244 0.007007122 -0.14741376 0.38593423 -0.23852047
0 0.021208588 0.0081282351 -0.14741376 0.38593423 -0.23852047
0 0.019276459 0.0092596263 -0.14741376 0.38593423 -0.23852047
0 0.01732661 0.010401445 -0.14741376 0.38593423 -0.23852047
2.7755576e-17 0.015358781 0.011553839 -0.14741376 0.38593423 -0.23852047
2.7755576e-17 0.013372717 0.012716961 -0.14741376 0.38593423 -0.23852047
0 0.011368153 0.013890969 -0.14741376 0.38593423 -0.23852047
0 0.0093448153 0.01507602 -0.14741376 0.38593423 -0.23852047
0 0.0073024323 0.016272275 -0.14741376 0.38593423 -0.23852047
2.7755576e-17 0.0052407221 0.017479902 -0.14741376 0.38593423 -0.23852047
0 0.0031593989 0.018699067 -0.14741376 0.38593423 -0.23852047
0 0.001058171 0.01992994 -0.14741376 0.38593423 -0.23852047
0.03950838 0.048992749 0 -0.14741376 0.38593423 -0.23852047
0.038849056 0.048734944 0 -0.14741376 0.38593423 -0.23852047
0.038189925 0.048477296 0 -0.14741376 0.38593423 -0.23852047
0.037530992 0.0482198 0 -0.14741376 0.38593423 -0.23852047
0.036872249 0.047962453 0 -0.14741376 0.38593423 -0.23852047
0.036213692 0.047705259 0 -0.14741376 0.38593423 -0.23852047
0.035555325 0.047448218 0 -0.14741376 0.38593423 -0.23852047
0.034897141 0.047191322 0 -0.14741376 0.38593423 -0.23852047
0.034239136 0.046934575 0 -0.14741376 0.38593423 -0.23852047
0.033581305 0.046677973 0 -0.14741376 0.38593423 -0.23852047
0.03292365 0.046421517 0 -0.14741376 0.38593423 -0.23852047
0.032266166 0.046165206 0 -0.14741376 0.38593423 -0.23852047
0.03160885 0.045909036 0 -0.14741376 0.38593423 -0.23852047
0.030951699 0.045653008 0 -0.14741376 0.38593423 -0.23852047
0.030294711 0.045397118 0 -0.14741376 0.38593423 -0.23852047
0.029637881 0.045141369 0 -0.14741376 0.38593423 -0.23852047
0.028981205 0.044885758 0 -0.14741376 0.38593423 -0.23852047
0.028324684 0.044630285 0 -0.14741376 0.38593423 -0.23852047
