# .PCD v0.7 - Point Cloud Data file format
VERSION 0.7
FIELDS x y z vp_x vp_y vp_z
SIZE 4 4 4 4 4 4
TYPE F F F F F F
COUNT 1 1 1 1 1 1
WIDTH 773
HEIGHT 1
VIEWPOINT 0 0 0 1 0 0 0
POINTS 773
DATA ascii
0.0071699386 0.055292364 0 0.14741376 0.38593423 -0.23852047
0.0065461351 0.05553316 0 0.14741376 0.38593423 -0.23852047
0.0059223208 0.055774089 0 0.14741376 0.38593423 -0.23852047
0.0052984934 0.056015149 0 0.14741376 0.38593423 -0.23852047
0.0046746507 0.056256339 0 0.14741376 0.38593423 -0.23852047
0.0040507894 0.056497667 0 0.14741376 0.38593423 -0.23852047
0.0034269074 0.056739125 0 0.14741376 0.38593423 -0.23852047
0.002803002 0.056980722 0 0.14741376 0.38593423 -0.23852047
0.0021790708 0.057222456 0 0.14741376 0.38593423 -0.23852047
0.0015551109 0.057464324 0 0.14741376 0.38593423 -0.23852047
0.00093111995 0.057706334 0 0.14741376 0.38593423 -0.23852047
0.00030709535 0.057948481 0 0.14741376 0.38593423 -0.23852047
0.039999999 0.0021261009 0.024420401 0.14741376 0.38593423 -0.23852047
0.039999999 0.0048520658 0.022729114 0.14741376 0.38593423 -0.23852047
0.039999999 0.0075426097 0.021059887 0.14741376 0.38593423 -0.23852047
0.039999999 0.010198432 0.019412285 0.14741376 0.38593423 -0.23852047
0.039999999 0.012820214 0.017785883 0.14741376 0.38593423 -0.23852047
0.039999999 0.015408618 0.016180268 0.14741376 0.38593423 -0.23852047
0.039999999 0.017964292 0.014595038 0.14741376 0.38593423 -0.23852047
0.039999999 0.020487865 0.0130298 0.14741376 0.38593423 -0.23852047
0.039999999 0.022979952 0.011484172 0.14741376 0.38593423 -0.23852047
0.039999999 0.025441147 0.0099577829 0.14741376 0.38593423 -0.23852047
0.039999999 0.027872037 0.0084502678 0.14741376 0.38593423 -0.23852047
0.039999999 0.03027319 0.006961273 0.14741376 0.38593423 -0.23852047
0.039999999 0.032645158 0.0054904544 0.14741376 0.38593423 -0.23852047
0.039999999 0.034988485 0.0040374743 0.14741376 0.38593423 -0.23852047
0.039999999 0.037303697 0.0026020047 0.14741376 0.38593423 -0.23852047
0.039999999 0.039591305 0.0011837248 0.14741376 0.38593423 -0.23852047
0.039901882 0.041537516 0 0.14741376 0.38593423 -0.23852047
0.039273456 0.041773465 0 0.14741376 0.38593423 -0.23852047
0.038645152 0.042009488 0 0.14741376 0.38593423 -0.23852047
0.038016975 0.042245593 0 0.14741376 0.38593423 -0.23852047
0.037388917 0.042481773 0 0.14741376 0.38593423 -0.23852047
0.036760975 0.042718034 0 0.14741376 0.38593423 -0.23852047
0.036133152 0.042954374 0 0.14741376 0.38593423 -0.23852047
0.035505436 0.043190796 0 0.14741376 0.38593423 -0.23852047
0.034877837 0.0434273 0 0.14741376 0.38593423 -0.23852047
0.034250341 0.043663885 0 0.14741376 0.38593423 -0.23852047
0.03362295 0.043900557 0 0.14741376 0.38593423 -0.23852047
0.03299566 0.04413731 0 0.14741376 0.38593423 -0.23852047
0.032368474 0.044374153 0 0.14741376 0.38593423 -0.23852047
0.031741381 0.044611081 0 0.14741376 0.38593423 -0.23852047
0.031114383 0.044848099 0 0.14741376 0.38593423 -0.23852047
0.030487478 0.045085203 0 0.14741376 0.38593423 -0.23852047
0.02986066 0.0453224 0 0.14741376 0.38593423 -0.23852047
0.029233931 0.045559686 0 0.14741376 0.38593423 -0.23852047
0.028607285 0.045797061 0 0.14741376 0.38593423 -0.23852047
0.027980721 0.046034534 0 0.14741376 0.38593423 -0.23852047
0.027354235 0.046272095 0 0.14741376 0.38593423 -0.23852047
0.026727825 0.046509758 0 0.14741376 0.38593423 -0.23852047
0.026101489 0.046747509 0 0.14741376 0.38593423 -0.23852047
0.025475223 0.046985362 0 0.14741376 0.38593423 -0.23852047
0.024849027 0.047223311 0 0.14741376 0.38593423 -0.23852047
0.024222896 0.047461357 0 0.14741376 0.38593423 -0.23852047
0.023596827 0.047699507 0 0.14741376 0.38593423 -0.23852047
0.02297082 0.047937755 0 0.14741376 0.38593423 -0.23852047
0.02234487 0.048176102 0 0.14741376 0.38593423 -0.23852047
0.021718977 0.048414554 0 0.14741376 0.38593423 -0.23852047
0.021093136 0.048653111 0 0.14741376 0.38593423 -0.23852047
0.020467347 0.048891768 0 0.14741376 0.38593423 -0.23852047
0.019841602 0.049130537 0 0.14741376 0.38593423 -0.23852047
0.019215904 0.049369406 0 0.14741376 0.38593423 -0.23852047
0.018590249 0.049608387 0 0.14741376 0.38593423 -0.23852047
0.017964635 0.049847472 0 0.14741376 0.38593423 -0.23852047
0.017339056 0.05008667 0 0.14741376 0.38593423 -0.23852047
0.016713513 0.050325979 0 0.14741376 0.38593423 -0.23852047
0.016088001 0.050565396 0 0.14741376 0.38593423 -0.23852047
0.015462521 0.050804928 0 0.14741376 0.38593423 -0.23852047
0.014837066 0.051044572 0 0.14741376 0.38593423 -0.23852047
0.014211636 0.051284332 0 0.14741376 0.38593423 -0.23852047
0.013586228 0.051524203 0 0.14741376 0.38593423 -0.23852047
0.012960838 0.051764194 0 0.14741376 0.38593423 -0.23852047
0.012335466 0.052004304 0 0.14741376 0.38593423 -0.23852047
0.011710108 0.052244529 0 0.14741376 0.38593423 -0.23852047
0.011084761 0.052484874 0 0.14741376 0.38593423 -0.23852047
0.010459424 0.052725341 0 0.14741376 0.38593423 -0.23852047
0.009834093 0.052965928 0 0.14741376 0.38593423 -0.23852047
0.0092087649 0.053206638 0 0.14741376 0.38593423 -0.23852047
0.0085834386 0.05344747 0 0.14741376 0.38593423 -0.23852047
0.0079581114 0.053688429 0 0.14741376 0.38593423 -0.23852047
0.0073327795 0.053929511 0 0.14741376 0.38593423 -0.23852047
0.0067074415 0.05417072 0 0.14741376 0.38593423 -0.23852047
0.0060820943 0.054412056 0 0.14741376 0.38593423 -0.23852047
0.0054567354 0.054653522 0 0.14741376 0.38593423 -0.23852047
0.0048313621 0.054895118 0 0.14741376 0.38593423 -0.23852047
0.0042059715 0.055136841 0 0.14741376 0.38593423 -0.23852047
0.0035805621 0.055378698 0 0.14741376 0.38593423 -0.23852047
0.0029551303 0.055620685 0 0.14741376 0.38593423 -0.23852047
0.0023296741 0.05586281 0 0.14741376 0.38593423 -0.23852047
0.0017041904 0.056105066 0 0.14741376 0.38593423 -0.23852047
0.001078677 0.05634746 0 0.14741376 0.38593423 -0.23852047
0.0004531313 0.056589987 0 0.14741376 0.38593423 -0.23852047
0.039999999 0.0022525599 0.023453623 0.14741376 0.38593423 -0.23852047
0.039999999 0.0049743606 0.021770721 0.14741376 0.38593423 -0.23852047
0.037824642 5.5511151e-17 0.025347551 0.14741376 0.38593423 -0.23852047
0.039999999 0.010312689 0.018470252 0.14741376 0.38593423 -0.23852047
0.039999999 0.012930591 0.016851829 0.14741376 0.38593423 -0.23852047
0.039999999 0.015515205 0.015254066 0.14741376 0.38593423 -0.23852047
0.034724552 0 0.026062798 0.14741376 0.38593423 -0.23852047
0.039999999 0.02058713 0.012118927 0.14741376 0.38593423 -0.23852047
0.039999999 0.023075679 0.010580783 0.14741376 0.38593423 -0.23852047
0.039999999 0.025533419 0.0090617584 0.14741376 0.38593423 -0.23852047
0.039999999 0.02796093 0.0075614951 0.14741376 0.38593423 -0.23852047
0.039999999 0.030358778 0.0060796398 0.14741376 0.38593423 -0.23852047
0.039999999 0.032727517 0.0046158507 0.14741376 0.38593423 -0.23852047
0.039999999 0.035067685 0.0031697932 0.14741376 0.38593423 -0.23852047
0.039999999 0.037379809 0.0017411408 0.14741376 0.38593423 -0.23852047
0.039999999 0.039664399 0.00032957594 0.14741376 0.38593423 -0.23852047
0.039518148 0.040378734 0 0.14741376 0.38593423 -0.23852047
0.038888209 0.040615346 0 0.14741376 0.38593423 -0.23852047
0.038258392 0.040852029 0 0.14741376 0.38593423 -0.23852047
0.037628703 0.04108879 0 0.14741376 0.38593423 -0.23852047
0.036999132 0.041325625 0 0.14741376 0.38593423 -0.23852047
0.036369678 0.041562535 0 0.14741376 0.38593423 -0.23852047
0.035740342 0.041799527 0 0.14741376 0.38593423 -0.23852047
0.035111114 0.042036593 0 0.14741376 0.38593423 -0.23852047
0.034481999 0.042273741 0 0.14741376 0.38593423 -0.23852047
0.033852987 0.042510971 0 0.14741376 0.38593423 -0.23852047
0.033224083 0.04274828 0 0.14741376 0.38593423 -0.23852047
0.032595277 0.042985674 0 0.14741376 0.38593423 -0.23852047
0.031966574 0.04322315 0 0.14741376 0.38593423 -0.23852047
0.031337965 0.043460712 0 0.14741376 0.38593423 -0.23852047
0.030709451 0.043698359 0 0.14741376 0.38593423 -0.23852047
0.030081028 0.043936092 0 0.14741376 0.38593423 -0.23852047
0.029452693 0.044173915 0 0.14741376 0.38593423 -0.23852047
0.028824445 0.044411823 0 0.14741376 0.38593423 -0.23852047
0.028196279 0.044649821 0 0.14741376 0.38593423 -0.23852047
0.027568195 0.044887912 0 0.14741376 0.38593423 -0.23852047
0.026940187 0.045126092 0 0.14741376 0.38593423 -0.23852047
0.026312256 0.045364365 0 0.14741376 0.38593423 -0.23852047
0.0256844 0.045602731 0 0.14741376 0.38593423 -0.23852047
0.025056612 0.045841195 0 0.14741376 0.38593423 -0.23852047
0.024428891 0.046079751 0 0.14741376 0.38593423 -0.23852047
0.023801237 0.046318401 0 0.14741376 0.38593423 -0.23852047
0.023173643 0.046557151 0 0.14741376 0.38593423 -0.23852047
0.022546113 0.046796001 0 0.14741376 0.38593423 -0.23852047
0.021918636 0.047034949 0 0.14741376 0.38593423 -0.23852047
0.021291217 0.047273993 0 0.14741376 0.38593423 -0.23852047
0.020663848 0.047513142 0 0.14741376 0.38593423 -0.23852047
0.020036528 0.047752395 0 0.14741376 0.38593423 -0.23852047
0.019409256 0.047991749 0 0.14741376 0.38593423 -0.23852047
0.018782029 0.048231207 0 0.14741376 0.38593423 -0.23852047
0.018154843 0.048470773 0 0.14741376 0.38593423 -0.23852047
0.017527696 0.048710443 0 0.14741376 0.38593423 -0.23852047
0.016900586 0.048950218 0 0.14741376 0.38593423 -0.23852047
0.016273508 0.049190104 0 0.14741376 0.38593423 -0.23852047
0.015646463 0.049430098 0 0.14741376 0.38593423 -0.23852047
0.015019447 0.049670205 0 0.14741376 0.38593423 -0.23852047
0.014392456 0.049910419 0 0.14741376 0.38593423 -0.23852047
0.013765489 0.050150748 0 0.14741376 0.38593423 -0.23852047
0.013138543 0.05039119 0 0.14741376 0.38593423 -0.23852047
0.012511615 0.050631743 0 0.14741376 0.38593423 -0.23852047
0.011884702 0.050872415 0 0.14741376 0.38593423 -0.23852047
0.011257803 0.051113203 0 0.14741376 0.38593423 -0.23852047
0.010630914 0.051354107 0 0.14741376 0.38593423 -0.23852047
0.010004033 0.051595129 0 0.14741376 0.38593423 -0.23852047
0.0093771582 0.051836271 0 0.14741376 0.38593423 -0.23852047
0.008750285 0.052077532 0 0.14741376 0.38593423 -0.23852047
0.0081234127 0.052318916 0 0.14741376 0.38593423 -0.23852047
0.0074965372 0.052560419 0 0.14741376 0.38593423 -0.23852047
0.006869657 0.052802049 0 0.14741376 0.38593423 -0.23852047
0.0062427688 0.053043801 0 0.14741376 0.38593423 -0.23852047
0.0056158705 0.053285681 0 0.14741376 0.38593423 -0.23852047
0.0049889591 0.053527683 0 0.14741376 0.38593423 -0.23852047
0.0043620323 0.053769816 0 0.14741376 0.38593423 -0.23852047
0.0037350876 0.054012075 0 0.14741376 0.38593423 -0.23852047
0.0031081222 0.054254465 0 0.14741376 0.38593423 -0.23852047
0.0024811334 0.054496985 0 0.14741376 0.38593423 -0.23852047
0.0018541187 0.054739635 0 0.14741376 0.38593423 -0.23852047
0.0012270754 0.05498242 0 0.14741376 0.38593423 -0.23852047
0.00060000102 0.055225339 0 0.14741376 0.38593423 -0.23852047
0.039999999 0.0023786842 0.022489406 0.14741376 0.38593423 -0.23852047
0.039999999 0.005096334 0.020814851 0.14741376 0.38593423 -0.23852047
0.03779047 0 0.024462679 0.14741376 0.38593423 -0.23852047
0.039999999 0.010426649 0.017530667 0.14741376 0.38593423 -0.23852047
0.036243569 0 0.024818387 0.14741376 0.38593423 -0.23852047
0.039999999 0.015621518 0.014330244 0.14741376 0.38593423 -0.23852047
0.039999999 0.018169796 0.012760432 0.14741376 0.38593423 -0.23852047
0.039999999 0.020686142 0.011210367 0.14741376 0.38593423 -0.23852047
0.039999999 0.023171164 0.0096796742 0.14741376 0.38593423 -0.23852047
0.039999999 0.025625458 0.008167984 0.14741376 0.38593423 -0.23852047
0.039999999 0.028049599 0.0066749412 0.14741376 0.38593423 -0.23852047
0.039999999 0.030444155 0.0052001951 0.14741376 0.38593423 -0.23852047
0.039999999 0.032809675 0.0037434057 0.14741376 0.38593423 -0.23852047
0.039999999 0.035146691 0.0023042413 0.14741376 0.38593423 -0.23852047
0.039999999 0.037455734 0.0008823782 0.14741376 0.38593423 -0.23852047
0.039764185 0.038977273 0 0.14741376 0.38593423 -0.23852047
0.039132599 0.039214481 0 0.14741376 0.38593423 -0.23852047
0.03850114 0.039451756 0 0.14741376 0.38593423 -0.23852047
0.037869807 0.039689101 0 0.14741376 0.38593423 -0.23852047
0.037238598 0.039926521 0 0.14741376 0.38593423 -0.23852047
0.036607508 0.040164012 0 0.14741376 0.38593423 -0.23852047
0.035976533 0.040401582 0 0.14741376 0.38593423 -0.23852047
0.035345674 0.040639225 0 0.14741376 0.38593423 -0.23852047
0.03471493 0.040876944 0 0.14741376 0.38593423 -0.23852047
0.03408429 0.04111474 0 0.14741376 0.38593423 -0.23852047
0.033453759 0.041352615 0 0.14741376 0.38593423 -0.23852047
0.032823332 0.041590568 0 0.14741376 0.38593423 -0.23852047
0.032193005 0.041828603 0 0.14741376 0.38593423 -0.23852047
0.031562775 0.042066716 0 0.14741376 0.38593423 -0.23852047
0.030932644 0.042304914 0 0.14741376 0.38593423 -0.23852047
0.030302607 0.042543195 0 0.14741376 0.38593423 -0.23852047
0.029672658 0.042781562 0 0.14741376 0.38593423 -0.23852047
0.029042799 0.04302001 0 0.14741376 0.38593423 -0.23852047
0.028413024 0.043258544 0 0.14741376 0.38593423 -0.23852047
0.027783332 0.043497168 0 0.14741376 0.38593423 -0.23852047
0.027153721 0.04373588 0 0.14741376 0.38593423 -0.23852047
0.026524186 0.043974679 0 0.14741376 0.38593423 -0.23852047
0.025894728 0.044213571 0 0.14741376 0.38593423 -0.23852047
0.025265342 0.044452552 0 0.14741376 0.38593423 -0.23852047
0.024636025 0.044691626 0 0.14741376 0.38593423 -0.23852047
0.024006773 0.044930793 0 0.14741376 0.38593423 -0.23852047
0.023377588 0.045170054 0 0.14741376 0.38593423 -0.23852047
0.022748465 0.045409407 0 0.14741376 0.38593423 -0.23852047
0.022119399 0.045648858 0 0.14741376 0.38593423 -0.23852047
0.021490391 0.045888409 0 0.14741376 0.38593423 -0.23852047
0.020861436 0.046128053 0 0.14741376 0.38593423 -0.23852047
0.020232534 0.046367798 0 0.14741376 0.38593423 -0.23852047
0.019603679 0.046607643 0 0.14741376 0.38593423 -0.23852047
0.01897487 0.046847593 0 0.14741376 0.38593423 -0.23852047
0.018346107 0.04708764 0 0.14741376 0.38593423 -0.23852047
0.017717382 0.04732779 0 0.14741376 0.38593423 -0.23852047
0.017088696 0.047568046 0 0.14741376 0.38593423 -0.23852047
0.016460046 0.047808405 0 0.14741376 0.38593423 -0.23852047
0.015831428 0.048048873 0 0.14741376 0.38593423 -0.23852047
0.015202842 0.048289444 0 0.14741376 0.38593423 -0.23852047
0.014574282 0.048530128 0 0.14741376 0.38593423 -0.23852047
0.013945748 0.048770916 0 0.14741376 0.38593423 -0.23852047
0.013317237 0.049011815 0 0.14741376 0.38593423 -0.23852047
0.012688745 0.049252827 0 0.14741376 0.38593423 -0.23852047
0.012060271 0.04949395 0 0.14741376 0.38593423 -0.23852047
0.011431811 0.049735185 0 0.14741376 0.38593423 -0.23852047
0.010803363 0.049976535 0 0.14741376 0.38593423 -0.23852047
0.010174925 0.050218001 0 0.14741376 0.38593423 -0.23852047
0.0095464941 0.050459582 0 0.14741376 0.38593423 -0.23852047
0.0089180665 0.050701279 0 0.14741376 0.38593423 -0.23852047
0.0082896408 0.050943095 0 0.14741376 0.38593423 -0.23852047
0.0076612146 0.05118503 0 0.14741376 0.38593423 -0.23852047
0.0070327846 0.051427089 0 0.14741376 0.38593423 -0.23852047
0.0064043482 0.051669262 0 0.14741376 0.38593423 -0.23852047
0.0057759029 0.051911563 0 0.14741376 0.38593423 -0.23852047
0.0051474459 0.052153986 0 0.14741376 0.38593423 -0.23852047
0.004518975 0.052396532 0 0.14741376 0.38593423 -0.23852047
0.0038904876 0.052639201 0 0.14741376 0.38593423 -0.23852047
0.0032619806 0.052882001 0 0.14741376 0.38593423 -0.23852047
0.0026334517 0.053124923 0 0.14741376 0.38593423 -0.23852047
0.0020048984 0.053367976 0 0.14741376 0.38593423 -0.23852047
0.0013763178 0.053611159 0 0.14741376 0.38593423 -0.23852047
0.00074770732 0.053854473 0 0.14741376 0.38593423 -0.23852047
0.00011906448 0.054097917 0 0.14741376 0.38593423 -0.23852047
0.039999999 0.0025044756 0.021527734 0.14741376 0.38593423 -0.23852047
0.039999999 0.0052179876 0.01986149 0.14741376 0.38593423 -0.23852047
0.039999999 0.0078963693 0.018216891 0.14741376 0.38593423 -0.23852047
0.039999999 0.010540313 0.016593518 0.14741376 0.38593423 -0.23852047
0.039999999 0.013150491 0.014990951 0.14741376 0.38593423 -0.23852047
0.039999999 0.015727559 0.013408788 0.14741376 0.38593423 -0.23852047
0.039999999 0.018272156 0.011846635 0.14741376 0.38593423 -0.23852047
0.039999999 0.020784903 0.010304107 0.14741376 0.38593423 -0.23852047
0.039999999 0.02326641 0.0087808333 0.14741376 0.38593423 -0.23852047
0.039999999 0.025717266 0.0072764466 0.14741376 0.38593423 -0.23852047
0.039999999 0.028138049 0.0057905931 0.14741376 0.38593423 -0.23852047
0.039999999 0.030529318 0.0043229256 0.14741376 0.38593423 -0.23852047
0.039999999 0.032891627 0.0028731069 0.14741376 0.38593423 -0.23852047
0.039999999 0.035225507 0.0014408072 0.14741376 0.38593423 -0.23852047
0.039999999 0.037531476 2.5704894e-05 0.14741376 0.38593423 -0.23852047
0.039378334 0.037806831 0 0.14741376 0.38593423 -0.23852047
0.038745221 0.038044706 0 0.14741376 0.38593423 -0.23852047
0.038112238 0.038282651 0 0.14741376 0.38593423 -0.23852047
0.037479382 0.038520664 0 0.14741376 0.38593423 -0.23852047
0.036846645 0.038758747 0 0.14741376 0.38593423 -0.23852047
0.036214028 0.038996901 0 0.14741376 0.38593423 -0.23852047
0.035581525 0.039235126 0 0.14741376 0.38593423 -0.23852047
0.034949139 0.039473426 0 0.14741376 0.38593423 -0.23852047
0.034316864 0.039711799 0 0.14741376 0.38593423 -0.23852047
0.033684697 0.039950248 0 0.14741376 0.38593423 -0.23852047
0.033052638 0.040188771 0 0.14741376 0.38593423 -0.23852047
0.03242068 0.040427372 0 0.14741376 0.38593423 -0.23852047
0.031788826 0.040666047 0 0.14741376 0.38593423 -0.23852047
0.031157067 0.040904805 0 0.14741376 0.38593423 -0.23852047
0.030525405 0.041143641 0 0.14741376 0.38593423 -0.23852047
0.029893836 0.041382559 0 0.14741376 0.38593423 -0.23852047
0.029262355 0.041621558 0 0.14741376 0.38593423 -0.23852047
0.028630963 0.04186064 0 0.14741376 0.38593423 -0.23852047
0.027999656 0.042099807 0 0.14741376 0.38593423 -0.23852047
0.02736843 0.042339057 0 0.14741376 0.38593423 -0.23852047
0.026737286 0.042578392 0 0.14741376 0.38593423 -0.23852047
0.026106216 0.042817816 0 0.14741376 0.38593423 -0.23852047
0.025475223 0.043057326 0 0.14741376 0.38593423 -0.23852047
0.0248443 0.043296926 0 0.14741376 0.38593423 -0.23852047
0.024213444 0.043536615 0 0.14741376 0.38593423 -0.23852047
0.023582658 0.043776397 0 0.14741376 0.38593423 -0.23852047
0.022951934 0.044016268 0 0.14741376 0.38593423 -0.23852047
0.022321271 0.044256229 0 0.14741376 0.38593423 -0.23852047
0.021690667 0.044496287 0 0.14741376 0.38593423 -0.23852047
0.021060118 0.044736441 0 0.14741376 0.38593423 -0.23852047
0.020429622 0.044976689 0 0.14741376 0.38593423 -0.23852047
0.019799177 0.045217033 0 0.14741376 0.38593423 -0.23852047
0.019168781 0.045457475 0 0.14741376 0.38593423 -0.23852047
0.018538428 0.045698017 0 0.14741376 0.38593423 -0.23852047
0.017908119 0.045938659 0 0.14741376 0.38593423 -0.23852047
0.01727785 0.046179399 0 0.14741376 0.38593423 -0.23852047
0.016647618 0.046420243 0 0.14741376 0.38593423 -0.23852047
0.01601742 0.046661187 0 0.14741376 0.38593423 -0.23852047
0.015387256 0.046902239 0 0.14741376 0.38593423 -0.23852047
0.014757119 0.047143392 0 0.14741376 0.38593423 -0.23852047
0.01412701 0.047384653 0 0.14741376 0.38593423 -0.23852047
0.013496926 0.047626019 0 0.14741376 0.38593423 -0.23852047
0.012866862 0.047867492 0 0.14741376 0.38593423 -0.23852047
0.012236818 0.048109077 0 0.14741376 0.38593423 -0.23852047
0.01160679 0.04835077 0 0.14741376 0.38593423 -0.23852047
0.010976776 0.048592575 0 0.14741376 0.38593423 -0.23852047
0.010346772 0.048834488 0 0.14741376 0.38593423 -0.23852047
0.0097167771 0.049076516 0 0.14741376 0.38593423 -0.23852047
0.0090867877 0.04931866 0 0.14741376 0.38593423 -0.23852047
0.008456802 0.049560916 0 0.14741376 0.38593423 -0.23852047
0.0078268163 0.049803291 0 0.14741376 0.38593423 -0.23852047
0.0071968283 0.050045781 0 0.14741376 0.38593423 -0.23852047
0.0065668356 0.050288387 0 0.14741376 0.38593423 -0.23852047
0.0059368359 0.050531115 0 0.14741376 0.38593423 -0.23852047
0.005306826 0.050773963 0 0.14741376 0.38593423 -0.23852047
0.004676803 0.05101693 0 0.14741376 0.38593423 -0.23852047
0.0040467652 0.051260021 0 0.14741376 0.38593423 -0.23852047
0.0034167091 0.051503234 0 0.14741376 0.38593423 -0.23852047
0.0027866326 0.05174657 0 0.14741376 0.38593423 -0.23852047
0.0021565328 0.051990032 0 0.14741376 0.38593423 -0.23852047
0.0015264073 0.052233621 0 0.14741376 0.38593423 -0.23852047
0.00089625327 0.052477337 0 0.14741376 0.38593423 -0.23852047
0.00026606806 0.05272118 0 0.14741376 0.38593423 -0.23852047
0.03926301 0 0.022346258 0.14741376 0.38593423 -0.23852047
0.038493104 0 0.02252209 0.14741376 0.38593423 -0.23852047
0.039999999 0.0080136759 0.017274158 0.14741376 0.38593423 -0.23852047
0.039999999 0.010653684 0.015658788 0.14741376 0.38593423 -0.23852047
0.039999999 0.013260017 0.014064098 0.14741376 0.38593423 -0.23852047
0.039999999 0.015833328 0.012489684 0.14741376 0.38593423 -0.23852047
0.039999999 0.018374255 0.010935157 0.14741376 0.38593423 -0.23852047
0.039999999 0.020883417 0.009400134 0.14741376 0.38593423 -0.23852047
0.039999999 0.023361417 0.0078842472 0.14741376 0.38593423 -0.23852047
0.039999999 0.025808847 0.0063871327 0.14741376 0.38593423 -0.23852047
0.039999999 0.028226279 0.0049084383 0.14741376 0.38593423 -0.23852047
0.039999999 0.030614274 0.00344782 0.14741376 0.38593423 -0.23852047
0.039999999 0.032973379 0.0020049426 0.14741376 0.38593423 -0.23852047
0.039999999 0.035304125 0.00057947874 0.14741376 0.38593423 -0.23852047
0.039625421 0.036392331 0 0.14741376 0.38593423 -0.23852047
0.038990647 0.036630817 0 0.14741376 0.38593423 -0.23852047
0.038356002 0.036869369 0 0.14741376 0.38593423 -0.23852047
0.037721489 0.037107985 0 0.14741376 0.38593423 -0.23852047
0.037087098 0.037346669 0 0.14741376 0.38593423 -0.23852047
0.036452826 0.037585419 0 0.14741376 0.38593423 -0.23852047
0.035818677 0.037824236 0 0.14741376 0.38593423 -0.23852047
0.03518464 0.038063128 0 0.14741376 0.38593423 -0.23852047
0.034550719 0.038302086 0 0.14741376 0.38593423 -0.23852047
0.033916909 0.038541116 0 0.14741376 0.38593423 -0.23852047
0.033283208 0.038780216 0 0.14741376 0.38593423 -0.23852047
0.03264961 0.039019395 0 0.14741376 0.38593423 -0.23852047
0.032016117 0.039258644 0 0.14741376 0.38593423 -0.23852047
0.031382725 0.039497968 0 0.14741376 0.38593423 -0.23852047
0.030749431 0.03973737 0 0.14741376 0.38593423 -0.23852047
0.03011623 0.03997685 0 0.14741376 0.38593423 -0.23852047
0.029483121 0.040216409 0 0.14741376 0.38593423 -0.23852047
0.028850103 0.040456045 0 0.14741376 0.38593423 -0.23852047
0.02821717 0.040695764 0 0.14741376 0.38593423 -0.23852047
0.027584324 0.040935561 0 0.14741376 0.38593423 -0.23852047
0.026951557 0.041175444 0 0.14741376 0.38593423 -0.23852047
0.02631887 0.041415408 0 0.14741376 0.38593423 -0.23852047
0.02568626 0.041655455 0 0.14741376 0.38593423 -0.23852047
0.025053723 0.041895591 0 0.14741376 0.38593423 -0.23852047
0.024421256 0.042135809 0 0.14741376 0.38593423 -0.23852047
0.023788858 0.04237612 0 0.14741376 0.38593423 -0.23852047
0.023156527 0.042616513 0 0.14741376 0.38593423 -0.23852047
0.022524258 0.042856999 0 0.14741376 0.38593423 -0.23852047
0.021892048 0.043097574 0 0.14741376 0.38593423 -0.23852047
0.021259896 0.043338243 0 0.14741376 0.38593423 -0.23852047
0.0206278 0.043579001 0 0.14741376 0.38593423 -0.23852047
0.019995756 0.043819856 0 0.14741376 0.38593423 -0.23852047
0.019363763 0.0440608 0 0.14741376 0.38593423 -0.23852047
0.018731816 0.044301845 0 0.14741376 0.38593423 -0.23852047
0.018099913 0.044542983 0 0.14741376 0.38593423 -0.23852047
0.017468052 0.044784218 0 0.14741376 0.38593423 -0.23852047
0.01683623 0.045025554 0 0.14741376 0.38593423 -0.23852047
0.016204445 0.045266986 0 0.14741376 0.38593423 -0.23852047
0.015572693 0.045508523 0 0.14741376 0.38593423 -0.23852047
0.014940972 0.045750156 0 0.14741376 0.38593423 -0.23852047
0.014309281 0.045991894 0 0.14741376 0.38593423 -0.23852047
0.013677614 0.046233736 0 0.14741376 0.38593423 -0.23852047
0.013045971 0.046475682 0 0.14741376 0.38593423 -0.23852047
0.012414349 0.046717733 0 0.14741376 0.38593423 -0.23852047
0.011782744 0.046959892 0 0.14741376 0.38593423 -0.23852047
0.011151155 0.047202159 0 0.14741376 0.38593423 -0.23852047
0.010519578 0.047444534 0 0.14741376 0.38593423 -0.23852047
0.009888012 0.047687016 0 0.14741376 0.38593423 -0.23852047
0.0092564523 0.047929611 0 0.14741376 0.38593423 -0.23852047
0.0086248983 0.048172317 0 0.14741376 0.38593423 -0.23852047
0.0079933451 0.048415136 0 0.14741376 0.38593423 -0.23852047
0.007361792 0.048658069 0 0.14741376 0.38593423 -0.23852047
0.0067302356 0.048901115 0 0.14741376 0.38593423 -0.23852047
0.0060986727 0.049144279 0 0.14741376 0.38593423 -0.23852047
0.0054671019 0.049387559 0 0.14741376 0.38593423 -0.23852047
0.0048355195 0.049630955 0 0.14741376 0.38593423 -0.23852047
0.0042039235 0.049874473 0 0.14741376 0.38593423 -0.23852047
0.0035723108 0.050118107 0 0.14741376 0.38593423 -0.23852047
0.002940679 0.050361864 0 0.14741376 0.38593423 -0.23852047
0.0023090253 0.050605744 0 0.14741376 0.38593423 -0.23852047
0.001677347 0.050849747 0 0.14741376 0.38593423 -0.23852047
0.0010456417 0.051093873 0 0.14741376 0.38593423 -0.23852047
0.00041390659 0.051338125 0 0.14741376 0.38593423 -0.23852047
0.039999999 1.4151538e-05 0.021283509 0.14741376 0.38593423 -0.23852047
0.039227691 0 0.021467943 0.14741376 0.38593423 -0.23852047
0.039999999 0.0054603419 0.017962227 0.14741376 0.38593423 -0.23852047
0.037688356 0 0.021818567 0.14741376 0.38593423 -0.23852047
0.036917381 0 0.021994289 0.14741376 0.38593423 -0.23852047
0.039999999 0.013369262 0.013139618 0.14741376 0.38593423 -0.23852047
0.039999999 0.01593883 0.011572919 0.14741376 0.38593423 -0.23852047
0.039999999 0.018476095 0.010025985 0.14741376 0.38593423 -0.23852047
0.039999999 0.020981681 0.0084984349 0.14741376 0.38593423 -0.23852047
0.039999999 0.023456186 0.0069899033 0.14741376 0.38593423 -0.23852047
0.039999999 0.025900198 0.0055000298 0.14741376 0.38593423 -0.23852047
0.039999999 0.028314291 0.0040284647 0.14741376 0.38593423 -0.23852047
0.039999999 0.03069902 0.0025748657 0.14741376 0.38593423 -0.23852047
0.039999999 0.033054933 0.0011389005 0.14741376 0.38593423 -0.23852047
0.039873868 0.034970917 0 0.14741376 0.38593423 -0.23852047
0.039237425 0.035210025 0 0.14741376 0.38593423 -0.23852047
0.038601112 0.035449192 0 0.14741376 0.38593423 -0.23852047
0.037964929 0.035688423 0 0.14741376 0.38593423 -0.23852047
0.037328873 0.035927717 0 0.14741376 0.38593423 -0.23852047
0.03669294 0.03616707 0 0.14741376 0.38593423 -0.23852047
0.03605713 0.036406491 0 0.14741376 0.38593423 -0.23852047
0.035421439 0.036645979 0 0.14741376 0.38593423 -0.23852047
0.034785863 0.036885533 0 0.14741376 0.38593423 -0.23852047
0.034150399 0.037125155 0 0.14741376 0.38593423 -0.23852047
0.033515047 0.037364848 0 0.14741376 0.38593423 -0.23852047
0.032879803 0.037604608 0 0.14741376 0.38593423 -0.23852047
0.032244664 0.037844438 0 0.14741376 0.38593423 -0.23852047
0.031609625 0.038084343 0 0.14741376 0.38593423 -0.23852047
0.03097469 0.038324319 0 0.14741376 0.38593423 -0.23852047
0.030339848 0.038564369 0 0.14741376 0.38593423 -0.23852047
0.029705103 0.038804498 0 0.14741376 0.38593423 -0.23852047
0.02907045 0.039044697 0 0.14741376 0.38593423 -0.23852047
0.028435884 0.039284974 0 0.14741376 0.38593423 -0.23852047
0.027801406 0.03952533 0 0.14741376 0.38593423 -0.23852047
0.027167011 0.039765768 0 0.14741376 0.38593423 -0.23852047
0.026532697 0.04000628 0 0.14741376 0.38593423 -0.23852047
0.025898462 0.040246878 0 0.14741376 0.38593423 -0.23852047
0.025264302 0.040487554 0 0.14741376 0.38593423 -0.23852047
0.024630215 0.040728316 0 0.14741376 0.38593423 -0.23852047
0.023996199 0.040969159 0 0.14741376 0.38593423 -0.23852047
0.023362249 0.041210089 0 0.14741376 0.38593423 -0.23852047
0.022728365 0.041451104 0 0.14741376 0.38593423 -0.23852047
0.022094542 0.041692205 0 0.14741376 0.38593423 -0.23852047
0.021460781 0.041933399 0 0.14741376 0.38593423 -0.23852047
0.020827075 0.042174675 0 0.14741376 0.38593423 -0.23852047
0.020193424 0.042416044 0 0.14741376 0.38593423 -0.23852047
0.019559823 0.042657506 0 0.14741376 0.38593423 -0.23852047
0.018926272 0.042899057 0 0.14741376 0.38593423 -0.23852047
0.018292768 0.043140702 0 0.14741376 0.38593423 -0.23852047
0.017659308 0.043382443 0 0.14741376 0.38593423 -0.23852047
0.017025888 0.043624278 0 0.14741376 0.38593423 -0.23852047
0.016392505 0.043866206 0 0.14741376 0.38593423 -0.23852047
0.015759159 0.044108234 0 0.14741376 0.38593423 -0.23852047
0.015125846 0.04435036 0 0.14741376 0.38593423 -0.23852047
0.014492562 0.044592585 0 0.14741376 0.38593423 -0.23852047
0.013859306 0.044834908 0 0.14741376 0.38593423 -0.23852047
0.013226076 0.045077335 0 0.14741376 0.38593423 -0.23852047
0.012592867 0.045319863 0 0.14741376 0.38593423 -0.23852047
0.011959678 0.045562495 0 0.14741376 0.38593423 -0.23852047
0.011326507 0.045805231 0 0.14741376 0.38593423 -0.23852047
0.010693348 0.046048071 0 0.14741376 0.38593423 -0.23852047
0.010060202 0.04629102 0 0.14741376 0.38593423 -0.23852047
0.009427065 0.046534073 0 0.14741376 0.38593423 -0.23852047
0.0087939333 0.046777237 0 0.14741376 0.38593423 -0.23852047
0.0081608063 0.04702051 0 0.14741376 0.38593423 -0.23852047
0.0075276792 0.047263891 0 0.14741376 0.38593423 -0.23852047
0.0068945508 0.047507387 0 0.14741376 0.38593423 -0.23852047
0.0062614181 0.047750995 0 0.14741376 0.38593423 -0.23852047
0.005628278 0.047994714 0 0.14741376 0.38593423 -0.23852047
0.0049951281 0.048238549 0 0.14741376 0.38593423 -0.23852047
0.0043619662 0.0484825 0 0.14741376 0.38593423 -0.23852047
0.003728789 0.048726566 0 0.14741376 0.38593423 -0.23852047
0.003095594 0.048970751 0 0.14741376 0.38593423 -0.23852047
0.0024623785 0.049215056 0 0.14741376 0.38593423 -0.23852047
0.00182914 0.049459476 0 0.14741376 0.38593423 -0.23852047
0.0011958757 0.049704023 0 0.14741376 0.38593423 -0.23852047
0.00056258298 0.049948689 0 0.14741376 0.38593423 -0.23852047
0.039999999 0.00014315383 0.020321047 0.14741376 0.38593423 -0.23852047
0.039999999 0.002879872 0.018657837 0.14741376 0.38593423 -0.23852047
0.039999999 0.0055810465 0.017016301 0.14741376 0.38593423 -0.23852047
0.037654452 5.5511151e-17 0.020940667 0.14741376 0.38593423 -0.23852047
0.039999999 0.010879551 0.013796541 0.14741376 0.38593423 -0.23852047
0.039999999 0.013478229 0.012217497 0.14741376 0.38593423 -0.23852047
0.039999999 0.016044062 0.01065848 0.14741376 0.38593423 -0.23852047
0.039999999 0.01857768 0.0091191055 0.14741376 0.38593423 -0.23852047
0.039999999 0.021079699 0.0075989971 0.14741376 0.38593423 -0.23852047
0.039999999 0.023550717 0.0060977894 0.14741376 0.38593423 -0.23852047
0.039999999 0.025991324 0.0046151262 0.14741376 0.38593423 -0.23852047
0.039999999 0.028402084 0.0031506596 0.14741376 0.38593423 -0.23852047
0.039999999 0.030783558 0.0017040507 0.14741376 0.38593423 -0.23852047
0.039999999 0.033136286 0.00027496889 0.14741376 0.38593423 -0.23852047
0.039485559 0.033782262 0 0.14741376 0.38593423 -0.23852047
0.038847569 0.034022056 0 0.14741376 0.38593423 -0.23852047
0.03820971 0.034261908 0 0.14741376 0.38593423 -0.23852047
0.037571982 0.034501821 0 0.14741376 0.38593423 -0.23852047
0.036934376 0.034741793 0 0.14741376 0.38593423 -0.23852047
0.036296897 0.034981828 0 0.14741376 0.38593423 -0.23852047
0.03565954 0.035221923 0 0.14741376 0.38593423 -0.23852047
0.0350223 0.035462081 0 0.14741376 0.38593423 -0.23852047
0.034385175 0.035702307 0 0.14741376 0.38593423 -0.23852047
0.033748161 0.035942595 0 0.14741376 0.38593423 -0.23852047
0.033111259 0.036182951 0 0.14741376 0.38593423 -0.23852047
0.032474466 0.036423374 0 0.14741376 0.38593423 -0.23852047
0.031837776 0.036663864 0 0.14741376 0.38593423 -0.23852047
0.031201188 0.036904424 0 0.14741376 0.38593423 -0.23852047
0.030564699 0.037145056 0 0.14741376 0.38593423 -0.23852047
0.029928308 0.037385758 0 0.14741376 0.38593423 -0.23852047
0.02929201 0.037626531 0 0.14741376 0.38593423 -0.23852047
0.028655803 0.037867378 0 0.14741376 0.38593423 -0.23852047
0.028019685 0.0381083 0 0.14741376 0.38593423 -0.23852047
0.027383652 0.038349301 0 0.14741376 0.38593423 -0.23852047
0.026747702 0.038590375 0 0.14741376 0.38593423 -0.23852047
0.026111834 0.038831525 0 0.14741376 0.38593423 -0.23852047
0.025476042 0.039072756 0 0.14741376 0.38593423 -0.23852047
0.024840325 0.039314065 0 0.14741376 0.38593423 -0.23852047
0.024204681 0.039555456 0 0.14741376 0.38593423 -0.23852047
0.023569107 0.03979693 0 0.14741376 0.38593423 -0.23852047
0.022933599 0.040038481 0 0.14741376 0.38593423 -0.23852047
0.022298155 0.040280122 0 0.14741376 0.38593423 -0.23852047
0.021662774 0.040521841 0 0.14741376 0.38593423 -0.23852047
0.02102745 0.04076365 0 0.14741376 0.38593423 -0.23852047
0.020392183 0.041005544 0 0.14741376 0.38593423 -0.23852047
0.019756969 0.041247528 0 0.14741376 0.38593423 -0.23852047
0.019121805 0.041489597 0 0.14741376 0.38593423 -0.23852047
0.018486692 0.04173176 0 0.14741376 0.38593423 -0.23852047
0.017851621 0.041974008 0 0.14741376 0.38593423 -0.23852047
0.017216595 0.042216353 0 0.14741376 0.38593423 -0.23852047
0.016581608 0.042458788 0 0.14741376 0.38593423 -0.23852047
0.015946658 0.042701315 0 0.14741376 0.38593423 -0.23852047
0.015311744 0.04294394 0 0.14741376 0.38593423 -0.23852047
0.014676861 0.043186661 0 0.14741376 0.38593423 -0.23852047
0.014042008 0.043429475 0 0.14741376 0.38593423 -0.23852047
0.013407181 0.04367239 0 0.14741376 0.38593423 -0.23852047
0.012772379 0.043915402 0 0.14741376 0.38593423 -0.23852047
0.012137596 0.044158518 0 0.14741376 0.38593423 -0.23852047
0.011502833 0.044401731 0 0.14741376 0.38593423 -0.23852047
0.010868086 0.044645045 0 0.14741376 0.38593423 -0.23852047
0.010233352 0.044888467 0 0.14741376 0.38593423 -0.23852047
0.0095986286 0.045131989 0 0.14741376 0.38593423 -0.23852047
0.0089639127 0.045375615 0 0.14741376 0.38593423 -0.23852047
0.0083292024 0.04561935 0 0.14741376 0.38593423 -0.23852047
0.007694494 0.045863193 0 0.14741376 0.38593423 -0.23852047
0.007059786 0.046107139 0 0.14741376 0.38593423 -0.23852047
0.0064250748 0.046351198 0 0.14741376 0.38593423 -0.23852047
0.0057903579 0.046595369 0 0.14741376 0.38593423 -0.23852047
0.0051556327 0.046839647 0 0.14741376 0.38593423 -0.23852047
0.0045208968 0.047084041 0 0.14741376 0.38593423 -0.23852047
0.0038861469 0.047328547 0 0.14741376 0.38593423 -0.23852047
0.003251381 0.047573168 0 0.14741376 0.38593423 -0.23852047
0.0026165959 0.047817905 0 0.14741376 0.38593423 -0.23852047
0.0019817895 0.048062757 0 0.14741376 0.38593423 -0.23852047
0.0013469583 0.048307724 0 0.14741376 0.38593423 -0.23852047
0.00071210018 0.048552815 0 0.14741376 0.38593423 -0.23852047
7.7212331e-05 0.048798021 0 0.14741376 0.38593423 -0.23852047
0.039999999 0.00027181784 0.019361109 0.14741376 0.38593423 -0.23852047
0.039999999 0.0030043512 0.017706199 0.14741376 0.38593423 -0.23852047
0.038389374 5.5511151e-17 0.019890347 0.14741376 0.38593423 -0.23852047
0.039999999 0.0083637778 0.01446056 0.14741376 0.38593423 -0.23852047
0.039999999 0.010992051 0.012868994 0.14741376 0.38593423 -0.23852047
0.03608048 0 0.020413565 0.14741376 0.38593423 -0.23852047
0.039999999 0.016149029 0.0097463541 0.14741376 0.38593423 -0.23852047
0.039999999 0.018679008 0.0082145063 0.14741376 0.38593423 -0.23852047
0.039999999 0.021177471 0.006701807 0.14741376 0.38593423 -0.23852047
0.039999999 0.023645015 0.0052078925 0.14741376 0.38593423 -0.23852047
0.039999999 0.026082223 0.0037324086 0.14741376 0.38593423 -0.23852047
0.039999999 0.028489664 0.002275011 0.14741376 0.38593423 -0.23852047
0.039999999 0.03086789 0.00083536282 0.14741376 0.38593423 -0.23852047
0.039735064 0.032347463 0 0.14741376 0.38593423 -0.23852047
0.039095383 0.032587893 0 0.14741376 0.38593423 -0.23852047
0.03845584 0.032828379 0 0.14741376 0.38593423 -0.23852047
0.037816428 0.033068921 0 0.14741376 0.38593423 -0.23852047
0.037177145 0.033309519 0 0.14741376 0.38593423 -0.23852047
0.036537986 0.033550173 0 0.14741376 0.38593423 -0.23852047
0.03589895 0.033790886 0 0.14741376 0.38593423 -0.23852047
0.035260037 0.034031663 0 0.14741376 0.38593423 -0.23852047
0.034621242 0.034272496 0 0.14741376 0.38593423 -0.23852047
0.03398256 0.034513392 0 0.14741376 0.38593423 -0.23852047
0.033343993 0.034754351 0 0.14741376 0.38593423 -0.23852047
0.032705534 0.034995377 0 0.14741376 0.38593423 -0.23852047
0.032067183 0.035236463 0 0.14741376 0.38593423 -0.23852047
0.031428937 0.035477616 0 0.14741376 0.38593423 -0.23852047
0.030790789 0.03571884 0 0.14741376 0.38593423 -0.23852047
0.030152742 0.035960127 0 0.14741376 0.38593423 -0.23852047
0.029514791 0.036201485 0 0.14741376 0.38593423 -0.23852047
0.028876932 0.036442913 0 0.14741376 0.38593423 -0.23852047
0.028239166 0.036684409 0 0.14741376 0.38593423 -0.23852047
0.027601486 0.036925979 0 0.14741376 0.38593423 -0.23852047
0.026963893 0.037167624 0 0.14741376 0.38593423 -0.23852047
0.026326381 0.037409339 0 0.14741376 0.38593423 -0.23852047
0.025688948 0.037651133 0 0.14741376 0.38593423 -0.23852047
0.025051594 0.037893001 0 0.14741376 0.38593423 -0.23852047
0.024414314 0.038134947 0 0.14741376 0.38593423 -0.23852047
0.023777105 0.038376968 0 0.14741376 0.38593423 -0.23852047
0.023139965 0.038619071 0 0.14741376 0.38593423 -0.23852047
0.02250289 0.038861252 0 0.14741376 0.38593423 -0.23852047
0.02186588 0.039103515 0 0.14741376 0.38593423 -0.23852047
0.02122893 0.03934586 0 0.14741376 0.38593423 -0.23852047
0.020592039 0.039588291 0 0.14741376 0.38593423 -0.23852047
0.019955203 0.039830804 0 0.14741376 0.38593423 -0.23852047
0.019318419 0.040073402 0 0.14741376 0.38593423 -0.23852047
0.018681686 0.040316086 0 0.14741376 0.38593423 -0.23852047
0.018044999 0.040558856 0 0.14741376 0.38593423 -0.23852047
0.017408358 0.040801715 0 0.14741376 0.38593423 -0.23852047
0.016771758 0.041044667 0 0.14741376 0.38593423 -0.23852047
0.016135197 0.041287705 0 0.14741376 0.38593423 -0.23852047
0.015498673 0.041530836 0 0.14741376 0.38593423 -0.23852047
0.014862182 0.041774061 0 0.14741376 0.38593423 -0.23852047
0.014225722 0.042017374 0 0.14741376 0.38593423 -0.23852047
0.013589291 0.042260785 0 0.14741376 0.38593423 -0.23852047
0.012952886 0.042504292 0 0.14741376 0.38593423 -0.23852047
0.012316503 0.042747896 0 0.14741376 0.38593423 -0.23852047
0.011680141 0.042991597 0 0.14741376 0.38593423 -0.23852047
0.011043796 0.043235395 0 0.14741376 0.38593423 -0.23852047
0.010407466 0.043479294 0 0.14741376 0.38593423 -0.23852047
0.0097711477 0.043723293 0 0.14741376 0.38593423 -0.23852047
0.0091348393 0.043967396 0 0.14741376 0.38593423 -0.23852047
0.0084985383 0.0442116 0 0.14741376 0.38593423 -0.23852047
0.0078622401 0.044455908 0 0.14741376 0.38593423 -0.23852047
0.0072259442 0.044700321 0 0.14741376 0.38593423 -0.23852047
0.0065896465 0.044944838 0 0.14741376 0.38593423 -0.23852047
0.005953345 0.045189463 0 0.14741376 0.38593423 -0.23852047
0.0053170365 0.045434196 0 0.14741376 0.38593423 -0.23852047
0.0046807183 0.04567904 0 0.14741376 0.38593423 -0.23852047
0.0040443884 0.045923993 0 0.14741376 0.38593423 -0.23852047
0.0034080436 0.046169054 0 0.14741376 0.38593423 -0.23852047
0.0027716812 0.04641423 0 0.14741376 0.38593423 -0.23852047
0.0021352984 0.046659522 0 0.14741376 0.38593423 -0.23852047
0.0014988927 0.046904925 0 0.14741376 0.38593423 -0.23852047
0.00086246134 0.047150444 0 0.14741376 0.38593423 -0.23852047
0.00022600159 0.047396079 0 0.14741376 0.38593423 -0.23852047
0.039999999 0.00040014554 0.018403679 0.14741376 0.38593423 -0.23852047
0.039999999 0.0031285069 0.01675703 0.14741376 0.38593423 -0.23852047
0.039999999 0.0058215195 0.015131783 0.14741376 0.38593423 -0.23852047
0.039999999 0.0084798792 0.013527513 0.14741376 0.38593423 -0.23852047
0.036817886 0 0.019363768 0.14741376 0.38593423 -0.23852047
0.039999999 0.013695333 0.01038028 0.14741376 0.38593423 -0.23852047
0.039999999 0.01625373 0.0088365274 0.14741376 0.38593423 -0.23852047
0.039999999 0.018780082 0.0073121749 0.14741376 0.38593423 -0.23852047
0.039999999 0.021275001 0.0058068521 0.14741376 0.38593423 -0.23852047
0.039999999 0.023739079 0.0043201996 0.14741376 0.38593423 -0.23852047
0.039999999 0.026172901 0.0028518655 0.14741376 0.38593423 -0.23852047
0.039999999 0.028577028 0.0014015069 0.14741376 0.38593423 -0.23852047
0.039985944 0.030905562 0 0.14741376 0.38593423 -0.23852047
0.039344568 0.031146638 0 0.14741376 0.38593423 -0.23852047
0.038703326 0.031387765 0 0.14741376 0.38593423 -0.23852047
0.038062222 0.031628948 0 0.14741376 0.38593423 -0.23852047
0.037421249 0.031870179 0 0.14741376 0.38593423 -0.23852047
0.036780402 0.032111466 0 0.14741376 0.38593423 -0.23852047
0.036139686 0.032352809 0 0.14741376 0.38593423 -0.23852047
0.035499088 0.032594208 0 0.14741376 0.38593423 -0.23852047
0.03485861 0.032835662 0 0.14741376 0.38593423 -0.23852047
0.034218252 0.033077177 0 0.14741376 0.38593423 -0.23852047
0.033578008 0.033318751 0 0.14741376 0.38593423 -0.23852047
0.032937877 0.033560384 0 0.14741376 0.38593423 -0.23852047
0.032297853 0.033802077 0 0.14741376 0.38593423 -0.23852047
0.031657938 0.034043837 0 0.14741376 0.38593423 -0.23852047
0.031018125 0.034285657 0 0.14741376 0.38593423 -0.23852047
0.030378412 0.03452754 0 0.14741376 0.38593423 -0.23852047
0.029738801 0.03476949 0 0.14741376 0.38593423 -0.23852047
0.029099282 0.035011508 0 0.14741376 0.38593423 -0.23852047
0.028459856 0.035253592 0 0.14741376 0.38593423 -0.23852047
0.027820522 0.035495743 0 0.14741376 0.38593423 -0.23852047
0.027181275 0.035737962 0 0.14741376 0.38593423 -0.23852047
0.02654211 0.035980254 0 0.14741376 0.38593423 -0.23852047
0.025903029 0.036222618 0 0.14741376 0.38593423 -0.23852047
0.025264028 0.036465053 0 0.14741376 0.38593423 -0.23852047
0.024625102 0.036707561 0 0.14741376 0.38593423 -0.23852047
0.02398625 0.036950145 0 0.14741376 0.38593423 -0.23852047
0.023347469 0.037192807 0 0.14741376 0.38593423 -0.23852047
0.022708757 0.037435543 0 0.14741376 0.38593423 -0.23852047
0.022070108 0.037678353 0 0.14741376 0.38593423 -0.23852047
0.021431524 0.037921246 0 0.14741376 0.38593423 -0.23852047
0.020792998 0.038164217 0 0.14741376 0.38593423 -0.23852047
0.020154532 0.03840727 0 0.14741376 0.38593423 -0.23852047
0.01951612 0.038650405 0 0.14741376 0.38593423 -0.23852047
0.018877758 0.038893621 0 0.14741376 0.38593423 -0.23852047
0.018239446 0.039136924 0 0.14741376 0.38593423 -0.23852047
0.017601181 0.039380308 0 0.14741376 0.38593423 -0.23852047
0.016962958 0.039623778 0 0.14741376 0.38593423 -0.23852047
0.016324779 0.039867338 0 0.14741376 0.38593423 -0.23852047
0.015686637 0.040110983 0 0.14741376 0.38593423 -0.23852047
0.015048529 0.040354718 0 0.14741376 0.38593423 -0.23852047
0.014410456 0.040598545 0 0.14741376 0.38593423 -0.23852047
0.013772411 0.040842462 0 0.14741376 0.38593423 -0.23852047
0.013134395 0.041086469 0 0.14741376 0.38593423 -0.23852047
0.012496402 0.041330572 0 0.14741376 0.38593423 -0.23852047
0.011858433 0.041574765 0 0.14741376 0.38593423 -0.23852047
0.011220482 0.041819058 0 0.14741376 0.38593423 -0.23852047
0.010582548 0.042063445 0 0.14741376 0.38593423 -0.23852047
0.0099446271 0.042307928 0 0.14741376 0.38593423 -0.23852047
0.0093067186 0.042552512 0 0.14741376 0.38593423 -0.23852047
0.0086688176 0.042797193 0 0.14741376 0.38593423 -0.23852047
0.0080309222 0.043041974 0 0.14741376 0.38593423 -0.23852047
0.0073930295 0.04328686 0 0.14741376 0.38593423 -0.23852047
0.0067551374 0.043531846 0 0.14741376 0.38593423 -0.23852047
0.0061172429 0.043776937 0 0.14741376 0.38593423 -0.23852047
0.0054793428 0.044022132 0 0.14741376 0.38593423 -0.23852047
0.0048414352 0.044267431 0 0.14741376 0.38593423 -0.23852047
0.0042035165 0.044512838 0 0.14741376 0.38593423 -0.23852047
0.0035655848 0.044758353 0 0.14741376 0.38593423 -0.23852047
0.002927637 0.045003977 0 0.14741376 0.38593423 -0.23852047
0.0022896701 0.045249712 0 0.14741376 0.38593423 -0.23852047
0.0016516818 0.045495559 0 0.14741376 0.38593423 -0.23852047
0.0010136694 0.045741513 0 0.14741376 0.38593423 -0.23852047
0.0003756299 0.045987584 0 0.14741376 0.38593423 -0.23852047
0.039999999 0.00052813883 0.017448744 0.14741376 0.38593423 -0.23852047
0.039999999 0.0032523409 0.015810322 0.14741376 0.38593423 -0.23852047
0.038320556 0 0.01814441 0.14741376 0.38593423 -0.23852047
0.039999999 0.0085956827 0.012596855 0.14741376 0.38593423 -0.23852047
0.036784854 5.5511151e-17 0.018490346 0.14741376 0.38593423 -0.23852047
0.039999999 0.013803473 0.009465158 0.14741376 0.38593423 -0.23852047
0.039999999 0.016358169 0.007928987 0.14741376 0.38593423 -0.23852047
0.039999999 0.018880906 0.0064120973 0.14741376 0.38593423 -0.23852047
0.039999999 0.021372288 0.0049141203 0.14741376 0.38593423 -0.23852047
0.039999999 0.023832912 0.003434699 0.14741376 0.38593423 -0.23852047
0.039999999 0.026263354 0.0019734839 0.14741376 0.38593423 -0.23852047
0.039999999 0.028664179 0.00053013506 0.14741376 0.38593423 -0.23852047
0.039595123 0.029698221 0 0.14741376 0.38593423 -0.23852047
0.038952179 0.029940002 0 0.14741376 0.38593423 -0.23852047
0.038309373 0.030181831 0 0.14741376 0.38593423 -0.23852047
0.037666701 0.03042371 0 0.14741376 0.38593423 -0.23852047
0.037024159 0.030665638 0 0.14741376 0.38593423 -0.23852047
0.036381744 0.03090762 0 0.14741376 0.38593423 -0.23852047
0.035739455 0.031149652 0 0.14741376 0.38593423 -0.23852047
0.03509729 0.03139174 0 0.14741376 0.38593423 -0.23852047
0.034455243 0.03163388 0 0.14741376 0.38593423 -0.23852047
0.033813313 0.031876076 0 0.14741376 0.38593423 -0.23852047
0.033171497 0.032118332 0 0.14741376 0.38593423 -0.23852047
0.032529797 0.032360643 0 0.14741376 0.38593423 -0.23852047
0.031888202 0.032603011 0 0.14741376 0.38593423 -0.23852047
0.031246712 0.032845441 0 0.14741376 0.38593423 -0.23852047
0.030605327 0.033087932 0 0.14741376 0.38593423 -0.23852047
0.029964043 0.033330481 0 0.14741376 0.38593423 -0.23852047
0.029322855 0.033573098 0 0.14741376 0.38593423 -0.23852047
0.028681764 0.033815775 0 0.14741376 0.38593423 -0.23852047
0.028040765 0.034058519 0 0.14741376 0.38593423 -0.23852047
0.027399855 0.034301329 0 0.14741376 0.38593423 -0.23852047
0.02675903 0.034544203 0 0.14741376 0.38593423 -0.23852047
0.026118292 0.034787148 0 0.14741376 0.38593423 -0.23852047
0.025477633 0.03503016 0 0.14741376 0.38593423 -0.23852047
0.024837052 0.035273243 0 0.14741376 0.38593423 -0.23852047
0.024196548 0.035516396 0 0.14741376 0.38593423 -0.23852047
0.023556119 0.03575962 0 0.14741376 0.38593423 -0.23852047
0.022915756 0.036002919 0 0.14741376 0.38593423 -0.23852047
0.022275465 0.036246292 0 0.14741376 0.38593423 -0.23852047
0.021635236 0.03648974 0 0.14741376 0.38593423 -0.23852047
0.020995069 0.036733266 0 0.14741376 0.38593423 -0.23852047
0.020354962 0.036976866 0 0.14741376 0.38593423 -0.23852047
0.019714911 0.037220545 0 0.14741376 0.38593423 -0.23852047
0.019074913 0.037464302 0 0.14741376 0.38593423 -0.23852047
0.018434968 0.037708141 0 0.14741376 0.38593423 -0.23852047
0.017795071 0.037952062 0 0.14741376 0.38593423 -0.23852047
0.017155219 0.038196065 0 0.14741376 0.38593423 -0.23852047
0.01651541 0.038440153 0 0.14741376 0.38593423 -0.23852047
0.015875639 0.038684323 0 0.14741376 0.38593423 -0.23852047
0.015235908 0.03892858 0 0.14741376 0.38593423 -0.23852047
0.014596211 0.039172921 0 0.14741376 0.38593423 -0.23852047
0.013956546 0.039417349 0 0.14741376 0.38593423 -0.23852047
0.01331691 0.039661869 0 0.14741376 0.38593423 -0.23852047
0.0126773 0.039906479 0 0.14741376 0.38593423 -0.23852047
0.012037714 0.040151175 0 0.14741376 0.38593423 -0.23852047
0.01139815 0.040395968 0 0.14741376 0.38593423 -0.23852047
0.010758602 0.040640853 0 0.14741376 0.38593423 -0.23852047
0.010119071 0.040885828 0 0.14741376 0.38593423 -0.23852047
0.0094795525 0.0411309 0 0.14741376 0.38593423 -0.23852047
0.008840044 0.041376069 0 0.14741376 0.38593423 -0.23852047
0.008200543 0.041621335 0 0.14741376 0.38593423 -0.23852047
0.0075610462 0.041866701 0 0.14741376 0.38593423 -0.23852047
