# .PCD v0.7 - Point Cloud Data file format
VERSION 0.7
FIELDS x y z vp_x vp_y vp_z
SIZE 4 4 4 4 4 4
TYPE F F F F F F
COUNT 1 1 1 1 1 1
WIDTH 937
HEIGHT 1
VIEWPOINT 0 0 0 1 0 0 0
POINTS 937
DATA ascii
0.025052799 0.079336546 0.044441082 0 0.47704095 0
0.024424136 0.079474911 0.04442133 0 0.47704095 0
0.023796029 0.079613157 0.044401698 0 0.47704095 0
0.023168916 0.079743758 0.044383034 0 0.47704095 0
0.022545887 0.079811536 0.044371497 0 0.47704095 0
0.021923181 0.079879276 0.044360071 0 0.47704095 0
0.021300793 0.079946987 0.044348758 0 0.47704095 0
0.020680444 0.079981588 0.044341255 0 0.47704095 0
0.020061335 0.079995766 0.044336136 0 0.47704095 0
0.01944359 0.079984941 0.04433392 0 0.47704095 0
0.018826537 0.079960838 0.04433329 0 0.47704095 0
0.018211462 0.079893924 0.044337552 0 0.47704095 0
0.017596267 0.079826996 0.044341918 0 0.47704095 0
0.01698095 0.07976006 0.044346392 0 0.47704095 0
0.01636732 0.079649106 0.044355884 0 0.47704095 0
0.015754372 0.079514198 0.044368159 0 0.47704095 0
0.015141084 0.079379223 0.044380546 0 0.47704095 0
0.014527966 0.079230085 0.044394616 0 0.47704095 0
0.013916445 0.079024032 0.044415146 0 0.47704095 0
0.013304356 0.078817785 0.044435803 0 0.47704095 0
0.012691696 0.078611344 0.044456586 0 0.47704095 0
0.01208041 0.078340404 0.044484667 0 0.47704095 0
0.011468686 0.078057386 0.044514205 0 0.47704095 0
0.010856148 0.077773996 0.044543885 0 0.47704095 0
0.010244157 0.077436976 0.044579659 0 0.47704095 0
0.0096319215 0.077068619 0.044619028 0 0.47704095 0
0.0090186028 0.076699607 0.044658575 0 0.47704095 0
0.0084054116 0.076271877 0.04470478 0 0.47704095 0
0.0077916863 0.075805314 0.044755422 0 0.47704095 0
0.0071765673 0.075337693 0.044806283 0 0.47704095 0
0.0065615256 0.074778356 0.044867482 0 0.47704095 0
0.0059451391 0.074194498 0.044931516 0 0.47704095 0
0.0053274473 0.07357429 0.044999715 0 0.47704095 0
0.0047091097 0.072846331 0.045080036 0 0.47704095 0
0.0040885587 0.072115764 0.045160756 0 0.47704095 0
0.0034673181 0.071202606 0.045261942 0 0.47704095 0
0.0028433627 0.070274323 0.045364924 0 0.47704095 0
0.002217904 0.069094583 0.045496058 0 0.47704095 0
0.0015894403 0.067747615 0.045645945 0 0.47704095 0
0.00095758354 0.066064171 0.045833468 0 0.47704095 0
0.00032125789 0.063406833 0.046129711 0 0.47704095 0
0.03957434 0.064043626 0.045617282 0 0.47704095 0
0.038629748 0.067197524 0.04526224 0 0.47704095 0
0.037818003 0.069026813 0.045053676 0 0.47704095 0
0.037050154 0.070439339 0.04489129 0 0.47704095 0
0.036316495 0.071521476 0.044765536 0 0.47704095 0
0.035596725 0.072486311 0.044652868 0 0.47704095 0
0.034891814 0.073316164 0.044555239 0 0.47704095 0
0.03419698 0.074059866 0.044467244 0 0.47704095 0
0.033512589 0.074708126 0.044389915 0 0.47704095 0
0.032832485 0.075330786 0.044315536 0 0.47704095 0
0.032163639 0.075839251 0.044253878 0 0.47704095 0
0.031496651 0.076346301 0.0441925 0 0.47704095 0
0.03083653 0.076786749 0.044138588 0 0.47704095 0
0.030181432 0.0771809 0.044089898 0 0.47704095 0
0.029527776 0.077574186 0.044041421 0 0.47704095 0
0.02888068 0.077895753 0.044000972 0 0.47704095 0
0.028236391 0.078193836 0.043963224 0 0.47704095 0
0.027593205 0.078491412 0.043925643 0 0.47704095 0
0.026955049 0.078730375 0.043894641 0 0.47704095 0
0.026319407 0.078944556 0.043866478 0 0.47704095 0
0.025684578 0.07915847 0.043838456 0 0.47704095 0
0.025052799 0.079336546 0.043814495 0 0.47704095 0
0.024424136 0.079474911 0.043795019 0 0.47704095 0
0.023796029 0.079613157 0.043775667 0 0.47704095 0
0.023168916 0.079743758 0.043757264 0 0.47704095 0
0.022545887 0.079811536 0.04374589 0 0.47704095 0
0.021923181 0.079879276 0.043734629 0 0.47704095 0
0.021300793 0.079946987 0.043723475 0 0.47704095 0
0.020680444 0.079981588 0.043716077 0 0.47704095 0
0.020061303 0.079996377 0.043710962 0 0.47704095 0
0.01944359 0.079984941 0.043708842 0 0.47704095 0
0.018826537 0.079960838 0.043708224 0 0.47704095 0
0.018211462 0.079893924 0.043712426 0 0.47704095 0
0.017596267 0.079826996 0.043716729 0 0.47704095 0
0.01698095 0.07976006 0.043721139 0 0.47704095 0
0.01636732 0.079649106 0.043730501 0 0.47704095 0
0.015754372 0.079514198 0.043742601 0 0.47704095 0
0.015141084 0.079379223 0.043754812 0 0.47704095 0
0.014527966 0.079230085 0.043768685 0 0.47704095 0
0.013916445 0.079024032 0.043788925 0 0.47704095 0
0.013304356 0.078817785 0.043809291 0 0.47704095 0
0.012691696 0.078611344 0.04382978 0 0.47704095 0
0.01208041 0.078340404 0.043857466 0 0.47704095 0
0.011468686 0.078057386 0.043886587 0 0.47704095 0
0.010856148 0.077773996 0.043915849 0 0.47704095 0
0.010244157 0.077436976 0.043951117 0 0.47704095 0
0.0096319215 0.077068619 0.043989934 0 0.47704095 0
0.0090186028 0.076699607 0.044028923 0 0.47704095 0
0.0084054116 0.076271877 0.044074476 0 0.47704095 0
0.0077916863 0.075805314 0.044124402 0 0.47704095 0
0.0071765673 0.075337693 0.044174548 0 0.47704095 0
0.0065615256 0.074778356 0.044234883 0 0.47704095 0
0.0059451391 0.074194498 0.044298016 0 0.47704095 0
0.0053274473 0.07357429 0.044365253 0 0.47704095 0
0.0047091097 0.072846331 0.044444442 0 0.47704095 0
0.0040885587 0.072115764 0.044524021 0 0.47704095 0
0.0034673181 0.071202606 0.044623781 0 0.47704095 0
0.0028433627 0.070274323 0.044725314 0 0.47704095 0
0.002217904 0.069094583 0.044854596 0 0.47704095 0
0.0015894403 0.067747615 0.045002371 0 0.47704095 0
0.00095758354 0.066064171 0.04518725 0 0.47704095 0
0.00032125789 0.063406833 0.045479316 0 0.47704095 0
0.03957434 0.064043626 0.044965137 0 0.47704095 0
0.038629748 0.067197524 0.044615172 0 0.47704095 0
0.037818003 0.069026813 0.044409588 0 0.47704095 0
0.037050154 0.070439339 0.044249527 0 0.47704095 0
0.036316495 0.071521476 0.044125568 0 0.47704095 0
0.035596725 0.072486311 0.04401451 0 0.47704095 0
0.034891814 0.073316164 0.043918274 0 0.47704095 0
0.03419698 0.074059866 0.043831542 0 0.47704095 0
0.033512589 0.074708126 0.043755315 0 0.47704095 0
0.032832485 0.075330786 0.043682002 0 0.47704095 0
0.032163639 0.075839251 0.043621227 0 0.47704095 0
0.031496651 0.076346301 0.043560725 0 0.47704095 0
0.03083653 0.076786749 0.04350758 0 0.47704095 0
0.030181432 0.0771809 0.043459587 0 0.47704095 0
0.029527776 0.077574186 0.043411806 0 0.47704095 0
0.02888068 0.077895753 0.043371931 0 0.47704095 0
0.028236391 0.078193836 0.043334723 0 0.47704095 0
0.027593205 0.078491412 0.043297682 0 0.47704095 0
0.026955049 0.078730375 0.043267123 0 0.47704095 0
0.026319407 0.078944556 0.043239363 0 0.47704095 0
0.025684578 0.07915847 0.043211743 0 0.47704095 0
0.025052799 0.079336546 0.043188125 0 0.47704095 0
0.024424136 0.079474911 0.043168928 0 0.47704095 0
0.023796029 0.079613157 0.043149851 0 0.47704095 0
0.023168916 0.079743758 0.043131713 0 0.47704095 0
0.022545887 0.079811536 0.0431205 0 0.47704095 0
0.021923181 0.079879276 0.043109395 0 0.47704095 0
0.021300793 0.079946987 0.043098405 0 0.47704095 0
0.020680444 0.079981588 0.043091111 0 0.47704095 0
0.020061273 0.079996988 0.043086004 0 0.47704095 0
0.01944359 0.079984941 0.043083981 0 0.47704095 0
0.018826537 0.079960838 0.043083373 0 0.47704095 0
0.018211462 0.079893924 0.043087512 0 0.47704095 0
0.017596267 0.079826996 0.043091755 0 0.47704095 0
0.01698095 0.07976006 0.043096103 0 0.47704095 0
0.01636732 0.079649106 0.04310533 0 0.47704095 0
0.015754372 0.079514198 0.043117255 0 0.47704095 0
0.015141084 0.079379223 0.043129295 0 0.47704095 0
0.014527966 0.079230085 0.043142967 0 0.47704095 0
0.013916445 0.079024032 0.04316292 0 0.47704095 0
0.013304356 0.078817785 0.043182991 0 0.47704095 0
0.012691696 0.078611344 0.04320319 0 0.47704095 0
0.01208041 0.078340404 0.043230481 0 0.47704095 0
0.011468686 0.078057386 0.043259185 0 0.47704095 0
0.010856148 0.077773996 0.04328803 0 0.47704095 0
0.010244157 0.077436976 0.04332279 0 0.47704095 0
0.0096319215 0.077068619 0.043361053 0 0.47704095 0
0.0090186028 0.076699607 0.043399487 0 0.47704095 0
0.0084054116 0.076271877 0.043444388 0 0.47704095 0
0.0077916863 0.075805314 0.043493599 0 0.47704095 0
0.0071765673 0.075337693 0.043543026 0 0.47704095 0
0.0065615256 0.074778356 0.0436025 0 0.47704095 0
0.0059451391 0.074194498 0.043664731 0 0.47704095 0
0.0053274473 0.07357429 0.043731008 0 0.47704095 0
0.0047091097 0.072846331 0.043809064 0 0.47704095 0
0.0040885587 0.072115764 0.043887503 0 0.47704095 0
0.0034673181 0.071202606 0.04398584 0 0.47704095 0
0.0028433627 0.070274323 0.04408592 0 0.47704095 0
0.002217904 0.069094583 0.044213355 0 0.47704095 0
0.0015894403 0.067747615 0.044359017 0 0.47704095 0
0.00095758354 0.066064171 0.044541255 0 0.47704095 0
0.00032125789 0.063406833 0.044829145 0 0.47704095 0
0.03957434 0.064043626 0.044313211 0 0.47704095 0
0.038629748 0.067197524 0.04396832 0 0.47704095 0
0.037818003 0.069026813 0.043765716 0 0.47704095 0
0.037050154 0.070439339 0.043607976 0 0.47704095 0
0.036316495 0.071521476 0.043485813 0 0.47704095 0
0.035596725 0.072486311 0.043376368 0 0.47704095 0
0.034891814 0.073316164 0.043281529 0 0.47704095 0
0.03419698 0.074059866 0.043196052 0 0.47704095 0
0.033512589 0.074708126 0.043120932 0 0.47704095 0
0.032832485 0.075330786 0.04304868 0 0.47704095 0
0.032163639 0.075839251 0.042988785 0 0.47704095 0
0.031496651 0.076346301 0.042929161 0 0.47704095 0
0.03083653 0.076786749 0.042876787 0 0.47704095 0
0.030181432 0.0771809 0.042829491 0 0.47704095 0
0.029527776 0.077574186 0.0427824 0 0.47704095 0
0.02888068 0.077895753 0.042743105 0 0.47704095 0
0.028236391 0.078193836 0.042706437 0 0.47704095 0
0.027593205 0.078491412 0.042669933 0 0.47704095 0
0.026955049 0.078730375 0.042639814 0 0.47704095 0
0.026319407 0.078944556 0.04261246 0 0.47704095 0
0.025684578 0.07915847 0.042585239 0 0.47704095 0
0.025052799 0.079336546 0.042561963 0 0.47704095 0
0.024424136 0.079474911 0.042543042 0 0.47704095 0
0.023796029 0.079613157 0.042524245 0 0.47704095 0
0.023168916 0.079743758 0.042506367 0 0.47704095 0
0.022545887 0.079811536 0.042495318 0 0.47704095 0
0.021923181 0.079879276 0.042484377 0 0.47704095 0
0.021300793 0.079946987 0.042473543 0 0.47704095 0
0.020680444 0.079981588 0.042466354 0 0.47704095 0
0.020061241 0.079997592 0.042461257 0 0.47704095 0
0.01944359 0.079984941 0.042459331 0 0.47704095 0
0.018826537 0.079960838 0.042458728 0 0.47704095 0
0.018211462 0.079893924 0.042462807 0 0.47704095 0
0.017596267 0.079826996 0.042466991 0 0.47704095 0
0.01698095 0.07976006 0.042471275 0 0.47704095 0
0.01636732 0.079649106 0.042480368 0 0.47704095 0
0.015754372 0.079514198 0.042492121 0 0.47704095 0
0.015141084 0.079379223 0.042503987 0 0.47704095 0
0.014527966 0.079230085 0.042517461 0 0.47704095 0
0.013916445 0.079024032 0.042537123 0 0.47704095 0
0.013304356 0.078817785 0.042556904 0 0.47704095 0
0.012691696 0.078611344 0.042576808 0 0.47704095 0
0.01208041 0.078340404 0.042603705 0 0.47704095 0
0.011468686 0.078057386 0.042631991 0 0.47704095 0
0.010856148 0.077773996 0.042660419 0 0.47704095 0
0.010244157 0.077436976 0.042694677 0 0.47704095 0
0.0096319215 0.077068619 0.042732384 0 0.47704095 0
0.0090186028 0.076699607 0.042770259 0 0.47704095 0
0.0084054116 0.076271877 0.042814508 0 0.47704095 0
0.0077916863 0.075805314 0.042863008 0 0.47704095 0
0.0071765673 0.075337693 0.04291172 0 0.47704095 0
0.0065615256 0.074778356 0.04297033 0 0.47704095 0
0.0059451391 0.074194498 0.043031659 0 0.47704095 0
0.0053274473 0.07357429 0.043096974 0 0.47704095 0
0.0047091097 0.072846331 0.043173898 0 0.47704095 0
0.0040885587 0.072115764 0.043251205 0 0.47704095 0
0.0034673181 0.071202606 0.043348115 0 0.47704095 0
0.0028433627 0.070274323 0.043446742 0 0.47704095 0
0.002217904 0.069094583 0.043572329 0 0.47704095 0
0.0015894403 0.067747615 0.043715879 0 0.47704095 0
0.00095758354 0.066064171 0.043895472 0 0.47704095 0
0.00032125789 0.063406833 0.04417919 0 0.47704095 0
0.03957434 0.064043626 0.043661505 0 0.47704095 0
0.038629748 0.067197524 0.04332168 0 0.47704095 0
0.037818003 0.069026813 0.043122061 0 0.47704095 0
0.037050154 0.070439339 0.042966638 0 0.47704095 0
0.036316495 0.071521476 0.042846274 0 0.47704095 0
0.035596725 0.072486311 0.042738438 0 0.47704095 0
0.034891814 0.073316164 0.042644992 0 0.47704095 0
0.03419698 0.074059866 0.042560771 0 0.47704095 0
0.033512589 0.074708126 0.042486757 0 0.47704095 0
0.032832485 0.075330786 0.042415567 0 0.47704095 0
0.032163639 0.075839251 0.042356554 0 0.47704095 0
0.031496651 0.076346301 0.042297807 0 0.47704095 0
0.03083653 0.076786749 0.042246204 0 0.47704095 0
0.030181432 0.0771809 0.042199604 0 0.47704095 0
0.029527776 0.077574186 0.042153206 0 0.47704095 0
0.02888068 0.077895753 0.042114489 0 0.47704095 0
0.028236391 0.078193836 0.042078357 0 0.47704095 0
0.027593205 0.078491412 0.042042393 0 0.47704095 0
0.026955049 0.078730375 0.042012718 0 0.47704095 0
0.026319407 0.078944556 0.041985761 0 0.47704095 0
0.025684578 0.07915847 0.041958943 0 0.47704095 0
0.025052799 0.079336546 0.04193601 0 0.47704095 0
0.024424136 0.079474911 0.041917369 0 0.47704095 0
0.023796029 0.079613157 0.041898843 0 0.47704095 0
0.023168916 0.079743758 0.04188123 0 0.47704095 0
0.022545887 0.079811536 0.041870344 0 0.47704095 0
0.021923181 0.079879276 0.041859563 0 0.47704095 0
0.021300793 0.079946987 0.04184889 0 0.47704095 0
0.020680444 0.079981588 0.041841805 0 0.47704095 0
0.020061212 0.079998203 0.04183672 0 0.47704095 0
0.01944359 0.079984941 0.041834887 0 0.47704095 0
0.018826537 0.079960838 0.041834295 0 0.47704095 0
0.018211462 0.079893924 0.041838311 0 0.47704095 0
0.017596267 0.079826996 0.041842435 0 0.47704095 0
0.01698095 0.07976006 0.041846655 0 0.47704095 0
0.01636732 0.079649106 0.041855615 0 0.47704095 0
0.015754372 0.079514198 0.041867197 0 0.47704095 0
0.015141084 0.079379223 0.041878883 0 0.47704095 0
0.014527966 0.079230085 0.041892163 0 0.47704095 0
0.013916445 0.079024032 0.041911535 0 0.47704095 0
0.013304356 0.078817785 0.041931026 0 0.47704095 0
0.012691696 0.078611344 0.041950636 0 0.47704095 0
0.01208041 0.078340404 0.041977137 0 0.47704095 0
0.011468686 0.078057386 0.042005006 0 0.47704095 0
0.010856148 0.077773996 0.042033017 0 0.47704095 0
0.010244157 0.077436976 0.042066772 0 0.47704095 0
0.0096319215 0.077068619 0.042103924 0 0.47704095 0
0.0090186028 0.076699607 0.042141244 0 0.47704095 0
0.0084054116 0.076271877 0.042184841 0 0.47704095 0
0.0077916863 0.075805314 0.042232625 0 0.47704095 0
0.0071765673 0.075337693 0.042280622 0 0.47704095 0
0.0065615256 0.074778356 0.042338371 0 0.47704095 0
0.0059451391 0.074194498 0.042398799 0 0.47704095 0
0.0053274473 0.07357429 0.042463154 0 0.47704095 0
0.0047091097 0.072846331 0.042538945 0 0.47704095 0
0.0040885587 0.072115764 0.042615112 0 0.47704095 0
0.0034673181 0.071202606 0.042710599 0 0.47704095 0
0.0028433627 0.070274323 0.042807773 0 0.47704095 0
0.002217904 0.069094583 0.042931516 0 0.47704095 0
0.0015894403 0.067747615 0.043072954 0 0.47704095 0
0.00095758354 0.066064171 0.043249909 0 0.47704095 0
0.00032125789 0.063406833 0.043529455 0 0.47704095 0
0.03957434 0.064043626 0.043010008 0 0.47704095 0
0.038629748 0.067197524 0.042675257 0 0.47704095 0
0.037818003 0.069026813 0.042478614 0 0.47704095 0
0.037050154 0.070439339 0.042325512 0 0.47704095 0
0.036316495 0.071521476 0.042206939 0 0.47704095 0
0.035596725 0.072486311 0.042100713 0 0.47704095 0
0.034891814 0.073316164 0.042008664 0 0.47704095 0
0.03419698 0.074059866 0.041925702 0 0.47704095 0
0.033512589 0.074708126 0.041852791 0 0.47704095 0
0.032832485 0.075330786 0.041782662 0 0.47704095 0
0.032163639 0.075839251 0.041724529 0 0.47704095 0
0.031496651 0.076346301 0.041666657 0 0.47704095 0
0.03083653 0.076786749 0.041615825 0 0.47704095 0
0.030181432 0.0771809 0.041569918 0 0.47704095 0
0.029527776 0.077574186 0.041524217 0 0.47704095 0
0.02888068 0.077895753 0.041486077 0 0.47704095 0
0.028236391 0.078193836 0.041450486 0 0.47704095 0
0.027593205 0.078491412 0.041415054 0 0.47704095 0
0.026955049 0.078730375 0.041385822 0 0.47704095 0
0.026319407 0.078944556 0.041359268 0 0.47704095 0
0.025684578 0.07915847 0.041332852 0 0.47704095 0
0.025052799 0.079336546 0.041310258 0 0.47704095 0
0.024424136 0.079474911 0.041291896 0 0.47704095 0
0.023796029 0.079613157 0.04127365 0 0.47704095 0
0.023168916 0.079743758 0.041256297 0 0.47704095 0
0.022545887 0.079811536 0.041245576 0 0.47704095 0
0.021923181 0.079879276 0.041234955 0 0.47704095 0
0.021300793 0.079946987 0.041224439 0 0.47704095 0
0.020680444 0.079981588 0.041217461 0 0.47704095 0
0.020061204 0.079998344 0.04121244 0 0.47704095 0
0.01944359 0.079984941 0.041210644 0 0.47704095 0
0.018826537 0.079960838 0.041210063 0 0.47704095 0
0.018211462 0.079893924 0.041214023 0 0.47704095 0
0.017596267 0.079826996 0.04121808 0 0.47704095 0
0.01698095 0.07976006 0.041222241 0 0.47704095 0
0.01636732 0.079649106 0.041231066 0 0.47704095 0
0.015754372 0.079514198 0.041242473 0 0.47704095 0
0.015141084 0.079379223 0.041253988 0 0.47704095 0
0.014527966 0.079230085 0.041267067 0 0.47704095 0
0.013916445 0.079024032 0.041286152 0 0.47704095 0
0.013304356 0.078817785 0.041305352 0 0.47704095 0
0.012691696 0.078611344 0.041324668 0 0.47704095 0
0.01208041 0.078340404 0.041350774 0 0.47704095 0
0.011468686 0.078057386 0.04137823 0 0.47704095 0
0.010856148 0.077773996 0.041405819 0 0.47704095 0
0.010244157 0.077436976 0.041439071 0 0.47704095 0
0.0096319215 0.077068619 0.041475669 0 0.47704095 0
0.0090186028 0.076699607 0.04151243 0 0.47704095 0
0.0084054116 0.076271877 0.041555379 0 0.47704095 0
0.0077916863 0.075805314 0.041602451 0 0.47704095 0
0.0071765673 0.075337693 0.041649733 0 0.47704095 0
0.0065615256 0.074778356 0.041706618 0 0.47704095 0
0.0059451391 0.074194498 0.041766144 0 0.47704095 0
0.0053274473 0.07357429 0.041829538 0 0.47704095 0
0.0047091097 0.072846331 0.0419042 0 0.47704095 0
0.0040885587 0.072115764 0.041979231 0 0.47704095 0
0.0034673181 0.071202606 0.042073291 0 0.47704095 0
0.0028433627 0.070274323 0.042169016 0 0.47704095 0
0.002217904 0.069094583 0.042290911 0 0.47704095 0
0.0015894403 0.067747615 0.042430241 0 0.47704095 0
0.00095758354 0.066064171 0.042604554 0 0.47704095 0
0.00032125789 0.063406833 0.042879928 0 0.47704095 0
0.03957434 0.064043626 0.042358719 0 0.47704095 0
0.038629748 0.067197524 0.042029038 0 0.47704095 0
0.037818003 0.069026813 0.041835371 0 0.47704095 0
0.037050154 0.070439339 0.04168459 0 0.47704095 0
0.036316495 0.071521476 0.041567814 0 0.47704095 0
0.035596725 0.072486311 0.041463196 0 0.47704095 0
0.034891814 0.073316164 0.041372541 0 0.47704095 0
0.03419698 0.074059866 0.041290835 0 0.47704095 0
0.033512589 0.074708126 0.041219026 0 0.47704095 0
0.032832485 0.075330786 0.041149963 0 0.47704095 0
0.032163639 0.075839251 0.041092709 0 0.47704095 0
0.031496651 0.076346301 0.041035712 0 0.47704095 0
0.03083653 0.076786749 0.040985651 0 0.47704095 0
0.030181432 0.0771809 0.040940441 0 0.47704095 0
0.029527776 0.077574186 0.040895429 0 0.47704095 0
0.02888068 0.077895753 0.040857866 0 0.47704095 0
0.028236391 0.078193836 0.040822815 0 0.47704095 0
0.027593205 0.078491412 0.04078792 0 0.47704095 0
0.026955049 0.078730375 0.040759131 0 0.47704095 0
0.026319407 0.078944556 0.04073298 0 0.47704095 0
0.025684578 0.07915847 0.040706962 0 0.47704095 0
0.025052799 0.079336546 0.040684711 0 0.47704095 0
0.024424136 0.079474911 0.040666629 0 0.47704095 0
0.023796029 0.079613157 0.040648658 0 0.47704095 0
0.023168916 0.079743758 0.04063157 0 0.47704095 0
0.022545887 0.079811536 0.040621005 0 0.47704095 0
0.021923181 0.079879276 0.040610548 0 0.47704095 0
0.021300793 0.079946987 0.040600192 0 0.47704095 0
0.020680444 0.079981588 0.040593319 0 0.47704095 0
0.020061204 0.079998344 0.040588371 0 0.47704095 0
0.01944359 0.079984941 0.040586606 0 0.47704095 0
0.018826537 0.079960838 0.040586032 0 0.47704095 0
0.018211462 0.079893924 0.040589932 0 0.47704095 0
0.017596267 0.079826996 0.04059393 0 0.47704095 0
0.01698095 0.07976006 0.040598024 0 0.47704095 0
0.01636732 0.079649106 0.040606715 0 0.47704095 0
0.015754372 0.079514198 0.04061795 0 0.47704095 0
0.015141084 0.079379223 0.04062929 0 0.47704095 0
0.014527966 0.079230085 0.040642172 0 0.47704095 0
0.013916445 0.079024032 0.040660966 0 0.47704095 0
0.013304356 0.078817785 0.040679876 0 0.47704095 0
0.012691696 0.078611344 0.040698905 0 0.47704095 0
0.01208041 0.078340404 0.040724613 0 0.47704095 0
0.011468686 0.078057386 0.040751651 0 0.47704095 0
0.010856148 0.077773996 0.040778827 0 0.47704095 0
0.010244157 0.077436976 0.040811572 0 0.47704095 0
0.0096319215 0.077068619 0.040847614 0 0.47704095 0
0.0090186028 0.076699607 0.040883821 0 0.47704095 0
0.0084054116 0.076271877 0.040926121 0 0.47704095 0
0.0077916863 0.075805314 0.040972479 0 0.47704095 0
0.0071765673 0.075337693 0.041019041 0 0.47704095 0
0.0065615256 0.074778356 0.041075069 0 0.47704095 0
0.0059451391 0.074194498 0.041133694 0 0.47704095 0
0.0053274473 0.07357429 0.041196126 0 0.47704095 0
0.0047091097 0.072846331 0.041269656 0 0.47704095 0
0.0040885587 0.072115764 0.041343551 0 0.47704095 0
0.0034673181 0.071202606 0.041436188 0 0.47704095 0
0.0028433627 0.070274323 0.041530464 0 0.47704095 0
0.002217904 0.069094583 0.041650511 0 0.47704095 0
0.0015894403 0.067747615 0.041787732 0 0.47704095 0
0.00095758354 0.066064171 0.041959405 0 0.47704095 0
0.00032125789 0.063406833 0.04223061 0 0.47704095 0
0.03957434 0.064043626 0.041707642 0 0.47704095 0
0.038629748 0.067197524 0.041383028 0 0.47704095 0
0.037818003 0.069026813 0.041192338 0 0.47704095 0
0.037050154 0.070439339 0.04104387 0 0.47704095 0
0.036316495 0.071521476 0.040928893 0 0.47704095 0
0.035596725 0.072486311 0.040825881 0 0.47704095 0
0.034891814 0.073316164 0.040736619 0 0.47704095 0
0.03419698 0.074059866 0.040656168 0 0.47704095 0
0.033512589 0.074708126 0.040585466 0 0.47704095 0
0.032832485 0.075330786 0.040517461 0 0.47704095 0
0.032163639 0.075839251 0.040461089 0 0.47704095 0
0.031496651 0.076346301 0.040404968 0 0.47704095 0
0.03083653 0.076786749 0.040355675 0 0.47704095 0
0.030181432 0.0771809 0.040311161 0 0.47704095 0
0.029527776 0.077574186 0.040266838 0 0.47704095 0
0.02888068 0.077895753 0.040229853 0 0.47704095 0
0.028236391 0.078193836 0.040195342 0 0.47704095 0
0.027593205 0.078491412 0.040160984 0 0.47704095 0
0.026955049 0.078730375 0.040132638 0 0.47704095 0
0.026319407 0.078944556 0.040106889 0 0.47704095 0
0.025630254 0.079999998 0.039996497 0 0.47704095 0
0.025011005 0.079999998 0.039992534 0 0.47704095 0
0.024391878 0.079999998 0.03998867 0 0.47704095 0
0.023772867 0.079999998 0.039984904 0 0.47704095 0
0.023153974 0.079999998 0.039981231 0 0.47704095 0
0.02253519 0.079999998 0.039977659 0 0.47704095 0
0.021916516 0.079999998 0.039974183 0 0.47704095 0
0.021297948 0.079999998 0.039970804 0 0.47704095 0
0.020679485 0.079999998 0.039967522 0 0.47704095 0
0.02006112 0.079999998 0.039964337 0 0.47704095 0
0.019442853 0.079999998 0.039961249 0 0.47704095 0
0.01882468 0.079999998 0.039958257 0 0.47704095 0
0.018206598 0.079999998 0.039955363 0 0.47704095 0
0.017588604 0.079999998 0.039952565 0 0.47704095 0
0.016970694 0.079999998 0.039949864 0 0.47704095 0
0.016352868 0.079999998 0.03994726 0 0.47704095 0
0.01573512 0.079999998 0.039944753 0 0.47704095 0
0.015117448 0.079999998 0.039942343 0 0.47704095 0
0.014499849 0.079999998 0.039940029 0 0.47704095 0
0.01388232 0.079999998 0.039937813 0 0.47704095 0
0.013264859 0.079999998 0.039935689 0 0.47704095 0
0.012647461 0.079999998 0.039933667 0 0.47704095 0
0.012030125 0.079999998 0.039931741 0 0.47704095 0
0.011412846 0.079999998 0.039929908 0 0.47704095 0
0.010795623 0.079999998 0.039928172 0 0.47704095 0
0.010178451 0.079999998 0.039926536 0 0.47704095 0
0.0095613291 0.079999998 0.039924994 0 0.47704095 0
0.0089442534 0.079999998 0.039923549 0 0.47704095 0
0.0083272215 0.079999998 0.0399222 0 0.47704095 0
0.0077102287 0.079999998 0.039920948 0 0.47704095 0
0.0070932736 0.079999998 0.03991979 0 0.47704095 0
0.0064763525 0.079999998 0.039918732 0 0.47704095 0
0.0058594625 0.079999998 0.039917767 0 0.47704095 0
0.005242601 0.079999998 0.039916903 0 0.47704095 0
0.0046257651 0.079999998 0.039916132 0 0.47704095 0
0.0040089511 0.079999998 0.039915457 0 0.47704095 0
0.0033921567 0.079999998 0.03991488 0 0.47704095 0
0.0027753788 0.079999998 0.039914396 0 0.47704095 0
0.0021586139 0.079999998 0.039914012 0 0.47704095 0
0.0015418597 0.079999998 0.039913721 0 0.47704095 0
0.00092511281 0.079999998 0.039913531 0 0.47704095 0
0.00030837045 0.079999998 0.039913435 0 0.47704095 0
0.039913423 0.079999998 0.039488576 0 0.47704095 0
0.039290544 0.079999998 0.039482459 0 0.47704095 0
0.038667861 0.079999998 0.039476439 0 0.47704095 0
0.038045362 0.079999998 0.039470512 0 0.47704095 0
0.037423052 0.079999998 0.039464686 0 0.47704095 0
0.036800921 0.079999998 0.039458957 0 0.47704095 0
0.036178973 0.079999998 0.039453324 0 0.47704095 0
0.035557199 0.079999998 0.039447788 0 0.47704095 0
0.034935597 0.079999998 0.039442349 0 0.47704095 0
0.034314167 0.079999998 0.039437007 0 0.47704095 0
0.0336929 0.079999998 0.039431762 0 0.47704095 0
0.033071801 0.079999998 0.039426614 0 0.47704095 0
0.032450862 0.079999998 0.039421558 0 0.47704095 0
0.03183008 0.079999998 0.039416604 0 0.47704095 0
0.03120945 0.079999998 0.039411742 0 0.47704095 0
0.030588973 0.079999998 0.039406978 0 0.47704095 0
0.029968647 0.079999998 0.03940231 0 0.47704095 0
0.029348465 0.079999998 0.039397739 0 0.47704095 0
0.028728424 0.079999998 0.039393261 0 0.47704095 0
0.028108524 0.079999998 0.039388884 0 0.47704095 0
0.027488759 0.079999998 0.0393846 0 0.47704095 0
0.026869129 0.079999998 0.039380413 0 0.47704095 0
0.026249629 0.079999998 0.039376318 0 0.47704095 0
0.025630254 0.079999998 0.039372325 0 0.47704095 0
0.025011005 0.079999998 0.039368425 0 0.47704095 0
0.024391878 0.079999998 0.039364621 0 0.47704095 0
0.023772867 0.079999998 0.039360911 0 0.47704095 0
0.023153974 0.079999998 0.039357297 0 0.47704095 0
0.02253519 0.079999998 0.03935378 0 0.47704095 0
0.021916516 0.079999998 0.039350357 0 0.47704095 0
0.021297948 0.079999998 0.039347034 0 0.47704095 0
0.020679485 0.079999998 0.0393438 0 0.47704095 0
0.02006112 0.079999998 0.039340667 0 0.47704095 0
0.019442853 0.079999998 0.039337628 0 0.47704095 0
0.01882468 0.079999998 0.039334681 0 0.47704095 0
0.018206598 0.079999998 0.039331831 0 0.47704095 0
0.017588604 0.079999998 0.039329078 0 0.47704095 0
0.016970694 0.079999998 0.039326418 0 0.47704095 0
0.016352868 0.079999998 0.039323855 0 0.47704095 0
0.01573512 0.079999998 0.039321389 0 0.47704095 0
0.015117448 0.079999998 0.039319016 0 0.47704095 0
0.014499849 0.079999998 0.039316736 0 0.47704095 0
0.01388232 0.079999998 0.039314553 0 0.47704095 0
0.013264859 0.079999998 0.039312467 0 0.47704095 0
0.012647461 0.079999998 0.039310474 0 0.47704095 0
0.012030125 0.079999998 0.039308578 0 0.47704095 0
0.011412846 0.079999998 0.039306775 0 0.47704095 0
0.010795623 0.079999998 0.039305065 0 0.47704095 0
0.010178451 0.079999998 0.039303456 0 0.47704095 0
0.0095613291 0.079999998 0.039301936 0 0.47704095 0
0.0089442534 0.079999998 0.039300513 0 0.47704095 0
0.0083272215 0.079999998 0.039299186 0 0.47704095 0
0.0077102287 0.079999998 0.039297953 0 0.47704095 0
0.0070932736 0.079999998 0.039296813 0 0.47704095 0
0.0064763525 0.079999998 0.03929577 0 0.47704095 0
0.0058594625 0.079999998 0.039294824 0 0.47704095 0
0.005242601 0.079999998 0.039293971 0 0.47704095 0
0.0046257651 0.079999998 0.039293211 0 0.47704095 0
0.0040089511 0.079999998 0.039292548 0 0.47704095 0
0.0033921567 0.079999998 0.039291978 0 0.47704095 0
0.0027753788 0.079999998 0.039291505 0 0.47704095 0
0.0021586139 0.079999998 0.039291125 0 0.47704095 0
0.0015418597 0.079999998 0.039290842 0 0.47704095 0
0.00092511281 0.079999998 0.039290652 0 0.47704095 0
0.00030837045 0.079999998 0.039290559 0 0.47704095 0
0.039913423 0.079999998 0.038862754 0 0.47704095 0
0.039290544 0.079999998 0.03885673 0 0.47704095 0
0.038667861 0.079999998 0.038850807 0 0.47704095 0
0.038045362 0.079999998 0.038844977 0 0.47704095 0
0.037423052 0.079999998 0.038839243 0 0.47704095 0
0.036800921 0.079999998 0.038833603 0 0.47704095 0
0.036178973 0.079999998 0.03882806 0 0.47704095 0
0.035557199 0.079999998 0.038822614 0 0.47704095 0
0.034935597 0.079999998 0.03881726 0 0.47704095 0
0.034314167 0.079999998 0.038812 0 0.47704095 0
0.0336929 0.079999998 0.038806837 0 0.47704095 0
0.033071801 0.079999998 0.038801771 0 0.47704095 0
0.032450862 0.079999998 0.038796797 0 0.47704095 0
0.03183008 0.079999998 0.038791921 0 0.47704095 0
0.03120945 0.079999998 0.038787134 0 0.47704095 0
0.030588973 0.079999998 0.038782448 0 0.47704095 0
0.029968647 0.079999998 0.038777854 0 0.47704095 0
0.029348465 0.079999998 0.038773354 0 0.47704095 0
0.028728424 0.079999998 0.038768951 0 0.47704095 0
0.028108524 0.079999998 0.038764641 0 0.47704095 0
0.027488759 0.079999998 0.038760424 0 0.47704095 0
0.026869129 0.079999998 0.038756303 0 0.47704095 0
0.026249629 0.079999998 0.038752276 0 0.47704095 0
0.025630254 0.079999998 0.038748343 0 0.47704095 0
0.025011005 0.079999998 0.038744505 0 0.47704095 0
0.024391878 0.079999998 0.038740762 0 0.47704095 0
0.023772867 0.079999998 0.038737111 0 0.47704095 0
0.023153974 0.079999998 0.038733553 0 0.47704095 0
0.02253519 0.079999998 0.038730092 0 0.47704095 0
0.021916516 0.079999998 0.038726725 0 0.47704095 0
0.021297948 0.079999998 0.038723454 0 0.47704095 0
0.020679485 0.079999998 0.038720272 0 0.47704095 0
0.02006112 0.079999998 0.038717188 0 0.47704095 0
0.019442853 0.079999998 0.038714197 0 0.47704095 0
0.01882468 0.079999998 0.038711298 0 0.47704095 0
0.018206598 0.079999998 0.038708493 0 0.47704095 0
0.017588604 0.079999998 0.038705781 0 0.47704095 0
0.016970694 0.079999998 0.038703166 0 0.47704095 0
0.016352868 0.079999998 0.038700644 0 0.47704095 0
0.01573512 0.079999998 0.038698215 0 0.47704095 0
0.015117448 0.079999998 0.038695879 0 0.47704095 0
0.014499849 0.079999998 0.038693637 0 0.47704095 0
0.01388232 0.079999998 0.038691487 0 0.47704095 0
0.013264859 0.079999998 0.038689435 0 0.47704095 0
0.012647461 0.079999998 0.038687471 0 0.47704095 0
0.012030125 0.079999998 0.038685605 0 0.47704095 0
0.011412846 0.079999998 0.038683832 0 0.47704095 0
0.010795623 0.079999998 0.038682152 0 0.47704095 0
0.010178451 0.079999998 0.038680565 0 0.47704095 0
0.0095613291 0.079999998 0.038679071 0 0.47704095 0
0.0089442534 0.079999998 0.03867767 0 0.47704095 0
0.0083272215 0.079999998 0.038676362 0 0.47704095 0
0.0077102287 0.079999998 0.038675152 0 0.47704095 0
0.0070932736 0.079999998 0.03867403 0 0.47704095 0
0.0064763525 0.079999998 0.038673002 0 0.47704095 0
0.0058594625 0.079999998 0.038672071 0 0.47704095 0
0.005242601 0.079999998 0.038671229 0 0.47704095 0
0.0046257651 0.079999998 0.038670484 0 0.47704095 0
0.0040089511 0.079999998 0.038669832 0 0.47704095 0
0.0033921567 0.079999998 0.03866927 0 0.47704095 0
0.0027753788 0.079999998 0.038668804 0 0.47704095 0
0.0021586139 0.079999998 0.038668431 0 0.47704095 0
0.0015418597 0.079999998 0.038668152 0 0.47704095 0
0.00092511281 0.079999998 0.038667966 0 0.47704095 0
0.00030837045 0.079999998 0.038667873 0 0.47704095 0
0.039913423 0.079999998 0.038237117 0 0.47704095 0
0.039290544 0.079999998 0.038231194 0 0.47704095 0
0.038667861 0.079999998 0.038225364 0 0.47704095 0
0.038045362 0.079999998 0.038219627 0 0.47704095 0
0.037423052 0.079999998 0.038213987 0 0.47704095 0
0.036800921 0.079999998 0.03820844 0 0.47704095 0
0.036178973 0.079999998 0.038202986 0 0.47704095 0
0.035557199 0.079999998 0.038197625 0 0.47704095 0
0.034935597 0.079999998 0.038192358 0 0.47704095 0
0.034314167 0.079999998 0.038187183 0 0.47704095 0
0.0336929 0.079999998 0.038182106 0 0.47704095 0
0.033071801 0.079999998 0.038177118 0 0.47704095 0
0.032450862 0.079999998 0.038172226 0 0.47704095 0
0.03183008 0.079999998 0.038167424 0 0.47704095 0
0.03120945 0.079999998 0.038162719 0 0.47704095 0
0.030588973 0.079999998 0.038158108 0 0.47704095 0
0.029968647 0.079999998 0.038153585 0 0.47704095 0
0.029348465 0.079999998 0.038149159 0 0.47704095 0
0.028728424 0.079999998 0.038144827 0 0.47704095 0
0.028108524 0.079999998 0.038140584 0 0.47704095 0
0.027488759 0.079999998 0.038136438 0 0.47704095 0
0.026869129 0.079999998 0.038132381 0 0.47704095 0
0.026249629 0.079999998 0.038128421 0 0.47704095 0
0.025630254 0.079999998 0.03812455 0 0.47704095 0
0.025011005 0.079999998 0.038120773 0 0.47704095 0
0.024391878 0.079999998 0.038117088 0 0.47704095 0
0.023772867 0.079999998 0.038113497 0 0.47704095 0
0.023153974 0.079999998 0.038109999 0 0.47704095 0
0.02253519 0.079999998 0.038106594 0 0.47704095 0
0.021916516 0.079999998 0.038103282 0 0.47704095 0
0.021297948 0.079999998 0.03810006 0 0.47704095 0
0.020679485 0.079999998 0.038096931 0 0.47704095 0
0.02006112 0.079999998 0.038093895 0 0.47704095 0
0.019442853 0.079999998 0.038090952 0 0.47704095 0
0.01882468 0.079999998 0.038088102 0 0.47704095 0
0.018206598 0.079999998 0.038085341 0 0.47704095 0
0.017588604 0.079999998 0.038082674 0 0.47704095 0
0.016970694 0.079999998 0.0380801 0 0.47704095 0
0.016352868 0.079999998 0.038077619 0 0.47704095 0
0.01573512 0.079999998 0.038075227 0 0.47704095 0
0.015117448 0.079999998 0.038072933 0 0.47704095 0
0.014499849 0.079999998 0.038070723 0 0.47704095 0
0.01388232 0.079999998 0.038068611 0 0.47704095 0
0.013264859 0.079999998 0.038066588 0 0.47704095 0
0.012647461 0.079999998 0.038064662 0 0.47704095 0
0.012030125 0.079999998 0.038062822 0 0.47704095 0
0.011412846 0.079999998 0.038061079 0 0.47704095 0
0.010795623 0.079999998 0.038059425 0 0.47704095 0
0.010178451 0.079999998 0.038057864 0 0.47704095 0
0.0095613291 0.079999998 0.038056392 0 0.47704095 0
0.0089442534 0.079999998 0.038055014 0 0.47704095 0
0.0083272215 0.079999998 0.038053729 0 0.47704095 0
0.0077102287 0.079999998 0.038052537 0 0.47704095 0
0.0070932736 0.079999998 0.038051434 0 0.47704095 0
0.0064763525 0.079999998 0.038050424 0 0.47704095 0
0.0058594625 0.079999998 0.038049504 0 0.47704095 0
0.005242601 0.079999998 0.038048681 0 0.47704095 0
0.0046257651 0.079999998 0.038047947 0 0.47704095 0
0.0040089511 0.079999998 0.038047303 0 0.47704095 0
0.0033921567 0.079999998 0.038046751 0 0.47704095 0
0.0027753788 0.079999998 0.038046293 0 0.47704095 0
0.0021586139 0.079999998 0.038045924 0 0.47704095 0
0.0015418597 0.079999998 0.038045648 0 0.47704095 0
0.00092511281 0.079999998 0.038045466 0 0.47704095 0
0.00030837045 0.079999998 0.038045373 0 0.47704095 0
0.039913423 0.079999998 0.037611671 0 0.47704095 0
0.039290544 0.079999998 0.037605844 0 0.47704095 0
0.038667861 0.079999998 0.037600107 0 0.47704095 0
0.038045362 0.079999998 0.037594467 0 0.47704095 0
0.037423052 0.079999998 0.037588917 0 0.47704095 0
0.036800921 0.079999998 0.037583459 0 0.47704095 0
0.036178973 0.079999998 0.037578095 0 0.47704095 0
0.035557199 0.079999998 0.037572823 0 0.47704095 0
0.034935597 0.079999998 0.037567642 0 0.47704095 0
0.034314167 0.079999998 0.037562553 0 0.47704095 0
0.0336929 0.079999998 0.037557557 0 0.47704095 0
0.033071801 0.079999998 0.037552651 0 0.47704095 0
0.032450862 0.079999998 0.037547838 0 0.47704095 0
0.03183008 0.079999998 0.037543118 0 0.47704095 0
0.03120945 0.079999998 0.037538487 0 0.47704095 0
0.030588973 0.079999998 0.03753395 0 0.47704095 0
0.029968647 0.079999998 0.037529506 0 0.47704095 0
0.029348465 0.079999998 0.037525151 0 0.47704095 0
0.028728424 0.079999998 0.037520885 0 0.47704095 0
0.028108524 0.079999998 0.037516717 0 0.47704095 0
0.027488759 0.079999998 0.037512634 0 0.47704095 0
0.026869129 0.079999998 0.037508648 0 0.47704095 0
0.026249629 0.079999998 0.037504751 0 0.47704095 0
0.025630254 0.079999998 0.037500944 0 0.47704095 0
0.025011005 0.079999998 0.03749723 0 0.47704095 0
0.024391878 0.079999998 0.037493605 0 0.47704095 0
0.023772867 0.079999998 0.037490074 0 0.47704095 0
0.023153974 0.079999998 0.037486631 0 0.47704095 0
0.02253519 0.079999998 0.037483282 0 0.47704095 0
0.021916516 0.079999998 0.037480023 0 0.47704095 0
0.021297948 0.079999998 0.037476853 0 0.47704095 0
0.020679485 0.079999998 0.037473775 0 0.47704095 0
0.02006112 0.079999998 0.037470791 0 0.47704095 0
0.019442853 0.079999998 0.037467897 0 0.47704095 0
0.01882468 0.079999998 0.037465092 0 0.47704095 0
0.018206598 0.079999998 0.037462376 0 0.47704095 0
0.017588604 0.079999998 0.037459753 0 0.47704095 0
0.016970694 0.079999998 0.03745722 0 0.47704095 0
0.016352868 0.079999998 0.03745478 0 0.47704095 0
0.01573512 0.079999998 0.03745243 0 0.47704095 0
0.015117448 0.079999998 0.037450168 0 0.47704095 0
0.014499849 0.079999998 0.037448 0 0.47704095 0
0.01388232 0.079999998 0.037445921 0 0.47704095 0
0.013264859 0.079999998 0.037443932 0 0.47704095 0
0.012647461 0.079999998 0.037442032 0 0.47704095 0
0.012030125 0.079999998 0.037440225 0 0.47704095 0
0.011412846 0.079999998 0.037438508 0 0.47704095 0
0.010795623 0.079999998 0.037436884 0 0.47704095 0
0.010178451 0.079999998 0.037435345 0 0.47704095 0
0.0095613291 0.079999998 0.0374339 0 0.47704095 0
0.0089442534 0.079999998 0.037432548 0 0.47704095 0
0.0083272215 0.079999998 0.037431281 0 0.47704095 0
0.0077102287 0.079999998 0.037430108 0 0.47704095 0
0.0070932736 0.079999998 0.037429024 0 0.47704095 0
0.0064763525 0.079999998 0.037428029 0 0.47704095 0
0.0058594625 0.079999998 0.037427127 0 0.47704095 0
0.005242601 0.079999998 0.037426315 0 0.47704095 0
0.0046257651 0.079999998 0.037425593 0 0.47704095 0
0.0040089511 0.079999998 0.037424959 0 0.47704095 0
0.0033921567 0.079999998 0.037424419 0 0.47704095 0
0.0027753788 0.079999998 0.037423965 0 0.47704095 0
0.0021586139 0.079999998 0.037423603 0 0.47704095 0
0.0015418597 0.079999998 0.037423335 0 0.47704095 0
0.00092511281 0.079999998 0.037423152 0 0.47704095 0
0.00030837045 0.079999998 0.037423063 0 0.47704095 0
0.039913423 0.079999998 0.036986403 0 0.47704095 0
0.039290544 0.079999998 0.036980674 0 0.47704095 0
0.038667861 0.079999998 0.036975037 0 0.47704095 0
0.038045362 0.079999998 0.036969487 0 0.47704095 0
0.037423052 0.079999998 0.036964029 0 0.47704095 0
0.036800921 0.079999998 0.036958665 0 0.47704095 0
0.036178973 0.079999998 0.03695339 0 0.47704095 0
0.035557199 0.079999998 0.036948204 0 0.47704095 0
0.034935597 0.079999998 0.036943108 0 0.47704095 0
0.034314167 0.079999998 0.036938105 0 0.47704095 0
0.0336929 0.079999998 0.036933191 0 0.47704095 0
0.033071801 0.079999998 0.036928367 0 0.47704095 0
0.032450862 0.079999998 0.036923636 0 0.47704095 0
0.03183008 0.079999998 0.03691899 0 0.47704095 0
0.03120945 0.079999998 0.036914438 0 0.47704095 0
0.030588973 0.079999998 0.036909979 0 0.47704095 0
0.029968647 0.079999998 0.036905605 0 0.47704095 0
0.029348465 0.079999998 0.036901325 0 0.47704095 0
0.028728424 0.079999998 0.03689713 0 0.47704095 0
0.028108524 0.079999998 0.036893029 0 0.47704095 0
0.027488759 0.079999998 0.036889017 0 0.47704095 0
0.026869129 0.079999998 0.036885094 0 0.47704095 0
0.026249629 0.079999998 0.036881261 0 0.47704095 0
0.025630254 0.079999998 0.03687752 0 0.47704095 0
0.025011005 0.079999998 0.036873866 0 0.47704095 0
0.024391878 0.079999998 0.036870304 0 0.47704095 0
0.023772867 0.079999998 0.036866829 0 0.47704095 0
0.023153974 0.079999998 0.036863446 0 0.47704095 0
0.02253519 0.079999998 0.036860149 0 0.47704095 0
0.021916516 0.079999998 0.036856946 0 0.47704095 0
0.021297948 0.079999998 0.036853831 0 0.47704095 0
0.020679485 0.079999998 0.036850803 0 0.47704095 0
0.02006112 0.079999998 0.036847867 0 0.47704095 0
0.019442853 0.079999998 0.036845021 0 0.47704095 0
0.01882468 0.079999998 0.036842261 0 0.47704095 0
0.018206598 0.079999998 0.036839593 0 0.47704095 0
0.017588604 0.079999998 0.036837015 0 0.47704095 0
0.016970694 0.079999998 0.036834523 0 0.47704095 0
0.016352868 0.079999998 0.036832124 0 0.47704095 0
0.01573512 0.079999998 0.036829811 0 0.47704095 0
0.015117448 0.079999998 0.036827587 0 0.47704095 0
0.014499849 0.079999998 0.036825456 0 0.47704095 0
0.01388232 0.079999998 0.036823411 0 0.47704095 0
0.013264859 0.079999998 0.036821455 0 0.47704095 0
0.012647461 0.079999998 0.036819588 0 0.47704095 0
0.012030125 0.079999998 0.036817811 0 0.47704095 0
0.011412846 0.079999998 0.036816124 0 0.47704095 0
0.010795623 0.079999998 0.036814522 0 0.47704095 0
0.010178451 0.079999998 0.036813013 0 0.47704095 0
0.0095613291 0.079999998 0.03681159 0 0.47704095 0
0.0089442534 0.079999998 0.03681026 0 0.47704095 0
0.0083272215 0.079999998 0.036809016 0 0.47704095 0
0.0077102287 0.079999998 0.036807861 0 0.47704095 0
0.0070932736 0.079999998 0.036806796 0 0.47704095 0
0.0064763525 0.079999998 0.036805816 0 0.47704095 0
0.0058594625 0.079999998 0.036804929 0 0.47704095 0
0.005242601 0.079999998 0.036804132 0 0.47704095 0
0.0046257651 0.079999998 0.036803421 0 0.47704095 0
0.0040089511 0.079999998 0.036802799 0 0.47704095 0
0.0033921567 0.079999998 0.036802266 0 0.47704095 0
0.0027753788 0.079999998 0.036801822 0 0.47704095 0
0.0021586139 0.079999998 0.036801465 0 0.47704095 0
0.0015418597 0.079999998 0.0368012 0 0.47704095 0
0.00092511281 0.079999998 0.036801022 0 0.47704095 0
0.00030837045 0.079999998 0.036800932 0 0.47704095 0
0.039913423 0.079999998 0.036361322 0 0.47704095 0
0.039290544 0.079999998 0.036355685 0 0.47704095 0
0.038667861 0.079999998 0.036350142 0 0.47704095 0
0.038045362 0.079999998 0.036344688 0 0.47704095 0
0.037423052 0.079999998 0.036339324 0 0.47704095 0
0.036800921 0.079999998 0.036334049 0 0.47704095 0
0.036178973 0.079999998 0.03632886 0 0.47704095 0
0.035557199 0.079999998 0.036323763 0 0.47704095 0
0.034935597 0.079999998 0.036318757 0 0.47704095 0
0.034314167 0.079999998 0.036313836 0 0.47704095 0
0.0336929 0.079999998 0.036309004 0 0.47704095 0
0.033071801 0.079999998 0.036304262 0 0.47704095 0
0.032450862 0.079999998 0.036299609 0 0.47704095 0
0.03183008 0.079999998 0.036295045 0 0.47704095 0
0.03120945 0.079999998 0.036290571 0 0.47704095 0
0.030588973 0.079999998 0.036286183 0 0.47704095 0
0.029968647 0.079999998 0.036281887 0 0.47704095 0
0.029348465 0.079999998 0.036277678 0 0.47704095 0
0.028728424 0.079999998 0.036273554 0 0.47704095 0
0.028108524 0.079999998 0.036269523 0 0.47704095 0
0.027488759 0.079999998 0.036265578 0 0.47704095 0
0.026869129 0.079999998 0.036261722 0 0.47704095 0
0.026249629 0.079999998 0.036257952 0 0.47704095 0
0.025630254 0.079999998 0.036254276 0 0.47704095 0
0.025011005 0.079999998 0.036250684 0 0.47704095 0
0.024391878 0.079999998 0.036247179 0 0.47704095 0
0.023772867 0.079999998 0.036243767 0 0.47704095 0
0.023153974 0.079999998 0.03624044 0 0.47704095 0
0.02253519 0.079999998 0.036237199 0 0.47704095 0
0.021916516 0.079999998 0.036234047 0 0.47704095 0
0.021297948 0.079999998 0.036230985 0 0.47704095 0
0.020679485 0.079999998 0.036228012 0 0.47704095 0
0.02006112 0.079999998 0.036225125 0 0.47704095 0
0.019442853 0.079999998 0.036222324 0 0.47704095 0
0.01882468 0.079999998 0.036219612 0 0.47704095 0
0.018206598 0.079999998 0.036216989 0 0.47704095 0
0.017588604 0.079999998 0.036214452 0 0.47704095 0
0.016970694 0.079999998 0.036212005 0 0.47704095 0
0.016352868 0.079999998 0.036209647 0 0.47704095 0
0.01573512 0.079999998 0.036207374 0 0.47704095 0
0.015117448 0.079999998 0.036205187 0 0.47704095 0
0.014499849 0.079999998 0.03620309 0 0.47704095 0
0.01388232 0.079999998 0.036201078 0 0.47704095 0
0.013264859 0.079999998 0.036199156 0 0.47704095 0
0.012647461 0.079999998 0.036197323 0 0.47704095 0
0.012030125 0.079999998 0.036195576 0 0.47704095 0
0.011412846 0.079999998 0.036193915 0 0.47704095 0
0.010795623 0.079999998 0.036192343 0 0.47704095 0
0.010178451 0.079999998 0.03619086 0 0.47704095 0
0.0095613291 0.079999998 0.036189459 0 0.47704095 0
0.0089442534 0.079999998 0.036188152 0 0.47704095 0
0.0083272215 0.079999998 0.03618693 0 0.47704095 0
0.0077102287 0.079999998 0.036185794 0 0.47704095 0
0.0070932736 0.079999998 0.036184747 0 0.47704095 0
0.0064763525 0.079999998 0.036183786 0 0.47704095 0
0.0058594625 0.079999998 0.03618291 0 0.47704095 0
0.005242601 0.079999998 0.036182124 0 0.47704095 0
0.0046257651 0.079999998 0.036181428 0 0.47704095 0
0.0040089511 0.079999998 0.036180817 0 0.47704095 0
0.0033921567 0.079999998 0.036180291 0 0.47704095 0
0.0027753788 0.079999998 0.036179855 0 0.47704095 0
0.0021586139 0.079999998 0.036179505 0 0.47704095 0
0.0015418597 0.079999998 0.036179245 0 0.47704095 0
0.00092511281 0.079999998 0.036179069 0 0.47704095 0
0.00030837045 0.079999998 0.036178984 0 0.47704095 0
0.039913423 0.079999998 0.035736412 0 0.47704095 0
0.039290544 0.079999998 0.035730876 0 0.47704095 0
0.038667861 0.079999998 0.035725426 0 0.47704095 0
0.038045362 0.079999998 0.035720065 0 0.47704095 0
0.037423052 0.079999998 0.035714794 0 0.47704095 0
0.036800921 0.079999998 0.035709608 0 0.47704095 0
0.036178973 0.079999998 0.035704512 0 0.47704095 0
0.035557199 0.079999998 0.035699502 0 0.47704095 0
0.034935597 0.079999998 0.035694577 0 0.47704095 0
0.034314167 0.079999998 0.035689745 0 0.47704095 0
0.0336929 0.079999998 0.035684995 0 0.47704095 0
0.033071801 0.079999998 0.035680335 0 0.47704095 0
0.032450862 0.079999998 0.035675764 0 0.47704095 0
0.03183008 0.079999998 0.035671279 0 0.47704095 0
0.03120945 0.079999998 0.035666879 0 0.47704095 0
0.030588973 0.079999998 0.035662569 0 0.47704095 0
0.029968647 0.079999998 0.035658345 0 0.47704095 0
0.029348465 0.079999998 0.035654206 0 0.47704095 0
0.028728424 0.079999998 0.035650156 0 0.47704095 0
0.028108524 0.079999998 0.035646193 0 0.47704095 0
0.027488759 0.079999998 0.035642315 0 0.47704095 0
0.026869129 0.079999998 0.035638526 0 0.47704095 0
0.026249629 0.079999998 0.035634823 0 0.47704095 0
0.025630254 0.079999998 0.035631206 0 0.47704095 0
0.025011005 0.079999998 0.035627678 0 0.47704095 0
0.024391878 0.079999998 0.035624236 0 0.47704095 0
0.023772867 0.079999998 0.035620879 0 0.47704095 0
0.023153974 0.079999998 0.035617609 0 0.47704095 0
0.02253519 0.079999998 0.035614423 0 0.47704095 0
0.021916516 0.079999998 0.035611328 0 0.47704095 0
0.021297948 0.079999998 0.035608318 0 0.47704095 0
0.020679485 0.079999998 0.035605393 0 0.47704095 0
0.02006112 0.079999998 0.035602558 0 0.47704095 0
0.019442853 0.079999998 0.035599805 0 0.47704095 0
0.01882468 0.079999998 0.035597142 0 0.47704095 0
0.018206598 0.079999998 0.035594564 0 0.47704095 0
0.017588604 0.079999998 0.035592072 0 0.47704095 0
0.016970694 0.079999998 0.035589665 0 0.47704095 0
0.016352868 0.079999998 0.035587344 0 0.47704095 0
0.01573512 0.079999998 0.035585109 0 0.47704095 0
0.015117448 0.079999998 0.035582963 0 0.47704095 0
0.014499849 0.079999998 0.0355809 0 0.47704095 0
0.01388232 0.079999998 0.035578925 0 0.47704095 0
0.013264859 0.079999998 0.035577036 0 0.47704095 0
0.012647461 0.079999998 0.035575233 0 0.47704095 0
0.012030125 0.079999998 0.035573516 0 0.47704095 0
0.011412846 0.079999998 0.035571884 0 0.47704095 0
0.010795623 0.079999998 0.035570338 0 0.47704095 0
0.010178451 0.079999998 0.035568882 0 0.47704095 0
0.0095613291 0.079999998 0.035567507 0 0.47704095 0
0.0089442534 0.079999998 0.035566218 0 0.47704095 0
0.0083272215 0.079999998 0.035565019 0 0.47704095 0
0.0077102287 0.079999998 0.035563901 0 0.47704095 0
0.0070932736 0.079999998 0.035562873 0 0.47704095 0
0.0064763525 0.079999998 0.035561927 0 0.47704095 0
0.0058594625 0.079999998 0.03556107 0 0.47704095 0
0.005242601 0.079999998 0.035560299 0 0.47704095 0
0.0046257651 0.079999998 0.03555961 0 0.47704095 0
0.0040089511 0.079999998 0.03555901 0 0.47704095 0
0.0033921567 0.079999998 0.035558496 0 0.47704095 0
0.0027753788 0.079999998 0.035558067 0 0.47704095 0
0.0021586139 0.079999998 0.035557725 0 0.47704095 0
0.0015418597 0.079999998 0.035557467 0 0.47704095 0
0.00092511281 0.079999998 0.035557296 0 0.47704095 0
0.00030837045 0.079999998 0.03555721 0 0.47704095 0
0.039913423 0.079999998 0.035111677 0 0.47704095 0
0.039290544 0.079999998 0.035106238 0 0.47704095 0
0.038667861 0.079999998 0.035100885 0 0.47704095 0
0.038045362 0.079999998 0.035095617 0 0.47704095 0
0.037423052 0.079999998 0.035090439 0 0.47704095 0
0.036800921 0.079999998 0.035085343 0 0.47704095 0
0.036178973 0.079999998 0.035080336 0 0.47704095 0
