# .PCD v0.7 - Point Cloud Data file format
VERSION 0.7
FIELDS x y z vp_x vp_y vp_z
SIZE 4 4 4 4 4 4
TYPE F F F F F F
COUNT 1 1 1 1 1 1
WIDTH 694
HEIGHT 1
VIEWPOINT 0 0 0 1 0 0 0
POINTS 694
DATA ascii
0.038348522 0.067903325 0.055169296 0.14741376 0.38593423 0.23852047
0.037993122 0.068696521 0.05550395 0.14741376 0.38593423 0.23852047
0.037613381 0.06941276 0.05579466 0.14741376 0.38593423 0.23852047
0.03723488 0.070126675 0.05608445 0.14741376 0.38593423 0.23852047
0.036831036 0.070762537 0.056329548 0.14741376 0.38593423 0.23852047
0.036419004 0.071370281 0.056558743 0.14741376 0.38593423 0.23852047
0.036008038 0.071976446 0.056787372 0.14741376 0.38593423 0.23852047
0.035573907 0.072513171 0.056976113 0.14741376 0.38593423 0.23852047
0.035134252 0.073030755 0.057154048 0.14741376 0.38593423 0.23852047
0.03469548 0.073547296 0.057331651 0.14741376 0.38593423 0.23852047
0.034241293 0.074017897 0.057482857 0.14741376 0.38593423 0.23852047
0.033776958 0.07445772 0.057616424 0.14741376 0.38593423 0.23852047
0.033313323 0.074896879 0.057749812 0.14741376 0.38593423 0.23852047
0.032845151 0.07532116 0.057874762 0.14741376 0.38593423 0.23852047
0.032357886 0.075691581 0.057968564 0.14741376 0.38593423 0.23852047
0.03187114 0.076061606 0.058062289 0.14741376 0.38593423 0.23852047
0.031384911 0.076431245 0.058155943 0.14741376 0.38593423 0.23852047
0.03088339 0.076758556 0.058225065 0.14741376 0.38593423 0.23852047
0.030374378 0.077064812 0.058282021 0.14741376 0.38593423 0.23852047
0.029865693 0.077370875 0.05833897 0.14741376 0.38593423 0.23852047
0.029356837 0.077675462 0.058395155 0.14741376 0.38593423 0.23852047
0.028825711 0.077921189 0.058417026 0.14741376 0.38593423 0.23852047
0.028294709 0.078166857 0.058438916 0.14741376 0.38593423 0.23852047
0.02776383 0.078412466 0.058460824 0.14741376 0.38593423 0.23852047
0.027225699 0.078639179 0.058471709 0.14741376 0.38593423 0.23852047
0.026671868 0.078825794 0.058459129 0.14741376 0.38593423 0.23852047
0.026117943 0.079012439 0.058446568 0.14741376 0.38593423 0.23852047
0.025563924 0.07919912 0.058434032 0.14741376 0.38593423 0.23852047
0.024995189 0.079349227 0.058400009 0.14741376 0.38593423 0.23852047
0.024417017 0.079476476 0.058352526 0.14741376 0.38593423 0.23852047
0.023838513 0.079603806 0.058305036 0.14741376 0.38593423 0.23852047
0.023259673 0.079731204 0.05825755 0.14741376 0.38593423 0.23852047
0.022656387 0.079799511 0.058175202 0.14741376 0.38593423 0.23852047
0.022051457 0.079865322 0.05809129 0.14741376 0.38593423 0.23852047
0.021445924 0.0799312 0.058007315 0.14741376 0.38593423 0.23852047
0.020831658 0.079977497 0.057911687 0.14741376 0.38593423 0.23852047
0.02019955 0.079982623 0.057791624 0.14741376 0.38593423 0.23852047
0.019564455 0.079982743 0.057668455 0.14741376 0.38593423 0.23852047
0.018923402 0.079970874 0.057538033 0.14741376 0.38593423 0.23852047
0.018255951 0.079898767 0.057371795 0.14741376 0.38593423 0.23852047
0.017586982 0.07982599 0.057204947 0.14741376 0.38593423 0.23852047
0.016916709 0.079753071 0.057037797 0.14741376 0.38593423 0.23852047
0.016217798 0.079616196 0.0568325 0.14741376 0.38593423 0.23852047
0.015509146 0.079460226 0.056615595 0.14741376 0.38593423 0.23852047
0.014798717 0.079303868 0.056398172 0.14741376 0.38593423 0.23852047
0.014053006 0.079070047 0.056134421 0.14741376 0.38593423 0.23852047
0.013296074 0.078814991 0.055857692 0.14741376 0.38593423 0.23852047
0.012532557 0.078549594 0.055574432 0.14741376 0.38593423 0.23852047
0.011717748 0.078172617 0.055224344 0.14741376 0.38593423 0.23852047
0.010899696 0.077794142 0.054872885 0.14741376 0.38593423 0.23852047
0.010031611 0.077309094 0.054457385 0.14741376 0.38593423 0.23852047
0.0091365604 0.076770574 0.054009415 0.14741376 0.38593423 0.23852047
0.0081786383 0.076099478 0.053481653 0.14741376 0.38593423 0.23852047
0.0071755568 0.075336918 0.052898511 0.14741376 0.38593423 0.23852047
0.0060341242 0.074278787 0.052137803 0.14741376 0.38593423 0.23852047
0.0047251522 0.072865218 0.051163334 0.14741376 0.38593423 0.23852047
0.0029367171 0.070420027 0.049569726 0.14741376 0.38593423 0.23852047
0.039999999 0.00077611441 0.0205028 0.14741376 0.38593423 0.23852047
0.039999999 0.0033896519 0.021838306 0.14741376 0.38593423 0.23852047
0.039999999 0.0059707039 0.023157239 0.14741376 0.38593423 0.23852047
0.039999999 0.0085198833 0.024459915 0.14741376 0.38593423 0.23852047
0.039999999 0.01103779 0.025746636 0.14741376 0.38593423 0.23852047
0.039999999 0.013525008 0.027017701 0.14741376 0.38593423 0.23852047
0.039999999 0.015982104 0.028273402 0.14741376 0.38593423 0.23852047
0.039999999 0.018409636 0.029514018 0.14741376 0.38593423 0.23852047
0.039999999 0.020808145 0.030739831 0.14741376 0.38593423 0.23852047
0.039999999 0.02317816 0.031951107 0.14741376 0.38593423 0.23852047
0.039999999 0.025520194 0.03314811 0.14741376 0.38593423 0.23852047
0.039999999 0.027834754 0.034331094 0.14741376 0.38593423 0.23852047
0.039999999 0.030122329 0.035500318 0.14741376 0.38593423 0.23852047
0.039999999 0.032383401 0.036656018 0.14741376 0.38593423 0.23852047
0.039999999 0.034618437 0.037798434 0.14741376 0.38593423 0.23852047
0.039999999 0.036827892 0.038927805 0.14741376 0.38593423 0.23852047
0.039975993 0.038934685 0.039999999 0.14741376 0.38593423 0.23852047
0.039375067 0.039166026 0.039999999 0.14741376 0.38593423 0.23852047
0.038774233 0.039397281 0.039999999 0.14741376 0.38593423 0.23852047
0.038173489 0.03962845 0.039999999 0.14741376 0.38593423 0.23852047
0.037572831 0.039859533 0.039999999 0.14741376 0.38593423 0.23852047
0.036972255 0.040090539 0.039999999 0.14741376 0.38593423 0.23852047
0.03637176 0.040321462 0.039999999 0.14741376 0.38593423 0.23852047
0.035771344 0.040552303 0.039999999 0.14741376 0.38593423 0.23852047
0.035171002 0.040783066 0.039999999 0.14741376 0.38593423 0.23852047
0.039689921 0.056661282 0.049006004 0.14741376 0.38593423 0.23852047
0.039971747 0.059478682 0.050501861 0.14741376 0.38593423 0.23852047
0.03993018 0.061288256 0.05141893 0.14741376 0.38593423 0.23852047
0.039784029 0.062764786 0.052145194 0.14741376 0.38593423 0.23852047
0.039575107 0.064038932 0.052755676 0.14741376 0.38593423 0.23852047
0.039304934 0.065118715 0.053254772 0.14741376 0.38593423 0.23852047
0.039020054 0.066144831 0.05372357 0.14741376 0.38593423 0.23852047
0.038693205 0.06703826 0.054116301 0.14741376 0.38593423 0.23852047
0.038354356 0.067888677 0.054484706 0.14741376 0.38593423 0.23852047
0.037999354 0.068684764 0.054822184 0.14741376 0.38593423 0.23852047
0.037619259 0.069401681 0.055114273 0.14741376 0.38593423 0.23852047
0.037240401 0.070116259 0.055405438 0.14741376 0.38593423 0.23852047
0.036836702 0.070754185 0.055652551 0.14741376 0.38593423 0.23852047
0.03642429 0.071362481 0.05588283 0.14741376 0.38593423 0.23852047
0.036012948 0.071969211 0.056112539 0.14741376 0.38593423 0.23852047
0.03557878 0.072507434 0.05630276 0.14741376 0.38593423 0.23852047
0.035138726 0.073025487 0.056481536 0.14741376 0.38593423 0.23852047
0.034699555 0.073542498 0.056659978 0.14741376 0.38593423 0.23852047
0.034245204 0.074014194 0.056812286 0.14741376 0.38593423 0.23852047
0.033780448 0.074454412 0.056946483 0.14741376 0.38593423 0.23852047
0.0333164 0.074893959 0.0570805 0.14741376 0.38593423 0.23852047
0.032847956 0.075319022 0.057206269 0.14741376 0.38593423 0.23852047
0.032360256 0.075689778 0.057300512 0.14741376 0.38593423 0.23852047
0.031873081 0.076060131 0.057394676 0.14741376 0.38593423 0.23852047
0.03138642 0.076430097 0.057488762 0.14741376 0.38593423 0.23852047
0.030884517 0.076757878 0.057558313 0.14741376 0.38593423 0.23852047
0.030375054 0.077064402 0.057615533 0.14741376 0.38593423 0.23852047
0.029865917 0.07737074 0.057672743 0.14741376 0.38593423 0.23852047
0.029356603 0.077675566 0.057729173 0.14741376 0.38593423 0.23852047
0.028825006 0.07792151 0.057751141 0.14741376 0.38593423 0.23852047
0.028293533 0.078167401 0.057773128 0.14741376 0.38593423 0.23852047
0.027762184 0.078413233 0.057795133 0.14741376 0.38593423 0.23852047
0.027223492 0.078639917 0.057805937 0.14741376 0.38593423 0.23852047
0.026669169 0.078826703 0.057793286 0.14741376 0.38593423 0.23852047
0.026114753 0.079013519 0.057780661 0.14741376 0.38593423 0.23852047
0.025560243 0.079200365 0.057768054 0.14741376 0.38593423 0.23852047
0.024990836 0.079350188 0.057733614 0.14741376 0.38593423 0.23852047
0.02441215 0.079477549 0.057685897 0.14741376 0.38593423 0.23852047
0.023833131 0.079604991 0.057638176 0.14741376 0.38593423 0.23852047
0.023253776 0.0797325 0.057590451 0.14741376 0.38593423 0.23852047
0.022649692 0.079800241 0.057507332 0.14741376 0.38593423 0.23852047
0.022044221 0.079866111 0.05742301 0.14741376 0.38593423 0.23852047
0.021438144 0.079932041 0.057338629 0.14741376 0.38593423 0.23852047
0.020823054 0.079977728 0.057242148 0.14741376 0.38593423 0.23852047
0.020190548 0.079983279 0.05712175 0.14741376 0.38593423 0.23852047
0.019554878 0.079983398 0.056997985 0.14741376 0.38593423 0.23852047
0.018912695 0.079970211 0.056866158 0.14741376 0.38593423 0.23852047
0.018244408 0.079897508 0.056698807 0.14741376 0.38593423 0.23852047
0.017574823 0.079824664 0.056531154 0.14741376 0.38593423 0.23852047
0.016903935 0.079751678 0.056363195 0.14741376 0.38593423 0.23852047
0.016203694 0.079613097 0.056155961 0.14741376 0.38593423 0.23852047
0.015494379 0.079456978 0.055938013 0.14741376 0.38593423 0.23852047
0.014783283 0.079300471 0.05571954 0.14741376 0.38593423 0.23852047
0.014035939 0.079064295 0.055453248 0.14741376 0.38593423 0.23852047
0.013278282 0.078808993 0.055175185 0.14741376 0.38593423 0.23852047
0.012512754 0.078540429 0.054888818 0.14741376 0.38593423 0.23852047
0.011697142 0.078163087 0.054537039 0.14741376 0.38593423 0.23852047
0.010878284 0.07778424 0.054183882 0.14741376 0.38593423 0.23852047
0.010007498 0.077294588 0.053763911 0.14741376 0.38593423 0.23852047
0.0091115311 0.076755516 0.053313769 0.14741376 0.38593423 0.23852047
0.0081498632 0.076077603 0.052779783 0.14741376 0.38593423 0.23852047
0.0071457052 0.075314231 0.052193794 0.14741376 0.38593423 0.23852047
0.0059985453 0.074245088 0.05142346 0.14741376 0.38593423 0.23852047
0.0046798224 0.072811849 0.05043336 0.14741376 0.38593423 0.23852047
0.0028695527 0.070320971 0.048806142 0.14741376 0.38593423 0.23852047
0.039999999 0.00065380463 0.019632749 0.14741376 0.38593423 0.23852047
0.039999999 0.0032711641 0.020975266 0.14741376 0.38593423 0.23852047
0.039999999 0.0058559524 0.022301102 0.14741376 0.38593423 0.23852047
0.039999999 0.0084087858 0.023610573 0.14741376 0.38593423 0.23852047
0.039999999 0.010930264 0.024903987 0.14741376 0.38593423 0.23852047
0.039999999 0.013420975 0.026181642 0.14741376 0.38593423 0.23852047
0.039999999 0.015881488 0.027443834 0.14741376 0.38593423 0.23852047
0.039999999 0.018312363 0.028690847 0.14741376 0.38593423 0.23852047
0.039999999 0.02071414 0.029922957 0.14741376 0.38593423 0.23852047
0.039999999 0.023087353 0.031140439 0.14741376 0.38593423 0.23852047
0.039999999 0.025432516 0.032343555 0.14741376 0.38593423 0.23852047
0.039999999 0.027750138 0.033532571 0.14741376 0.38593423 0.23852047
0.039999999 0.030040709 0.034707729 0.14741376 0.38593423 0.23852047
0.039999999 0.032304715 0.035869282 0.14741376 0.38593423 0.23852047
0.039999999 0.03454262 0.037017472 0.14741376 0.38593423 0.23852047
0.039999999 0.036754888 0.038152527 0.14741376 0.38593423 0.23852047
0.039999999 0.038941965 0.039274685 0.14741376 0.38593423 0.23852047
0.039791733 0.040435694 0.039999999 0.14741376 0.38593423 0.23852047
0.039192546 0.040666193 0.039999999 0.14741376 0.38593423 0.23852047
0.038593445 0.040896606 0.039999999 0.14741376 0.38593423 0.23852047
0.037994433 0.04112694 0.039999999 0.14741376 0.38593423 0.23852047
0.037395503 0.041357197 0.039999999 0.14741376 0.38593423 0.23852047
0.036796656 0.041587375 0.039999999 0.14741376 0.38593423 0.23852047
0.036197886 0.041817479 0.039999999 0.14741376 0.38593423 0.23852047
0.035599191 0.042047504 0.039999999 0.14741376 0.38593423 0.23852047
0.039674122 0.05656492 0.048253447 0.14741376 0.38593423 0.23852047
0.039968781 0.059423972 0.049778786 0.14741376 0.38593423 0.23852047
0.039932206 0.061250854 0.050709151 0.14741376 0.38593423 0.23852047
0.039788581 0.062737025 0.051443588 0.14741376 0.38593423 0.23852047
0.039579447 0.064012483 0.052056998 0.14741376 0.38593423 0.23852047
0.03931063 0.065098196 0.052561291 0.14741376 0.38593423 0.23852047
0.039025471 0.066125326 0.05303232 0.14741376 0.38593423 0.23852047
0.038699374 0.067022778 0.053428747 0.14741376 0.38593423 0.23852047
0.038360201 0.067874007 0.053798903 0.14741376 0.38593423 0.23852047
0.038005598 0.068672985 0.054139219 0.14741376 0.38593423 0.23852047
0.037625145 0.06939058 0.054432694 0.14741376 0.38593423 0.23852047
0.037245933 0.070105821 0.054725233 0.14741376 0.38593423 0.23852047
0.036842376 0.070745811 0.054974377 0.14741376 0.38593423 0.23852047
0.036429584 0.071354672 0.055205744 0.14741376 0.38593423 0.23852047
0.036017865 0.071961954 0.055436537 0.14741376 0.38593423 0.23852047
0.035583664 0.072501689 0.055628248 0.14741376 0.38593423 0.23852047
0.035143208 0.073020212 0.055807866 0.14741376 0.38593423 0.23852047
0.034703638 0.073537692 0.055987146 0.14741376 0.38593423 0.23852047
0.034249119 0.074010484 0.056140564 0.14741376 0.38593423 0.23852047
0.03378395 0.074451096 0.056275394 0.14741376 0.38593423 0.23852047
0.033319484 0.074891038 0.056410037 0.14741376 0.38593423 0.23852047
0.032850768 0.075316884 0.056536634 0.14741376 0.38593423 0.23852047
0.032362632 0.075687967 0.056631315 0.14741376 0.38593423 0.23852047
0.031875022 0.076058656 0.056725923 0.14741376 0.38593423 0.23852047
0.031387929 0.07642895 0.056820448 0.14741376 0.38593423 0.23852047
0.030885648 0.076757193 0.056890424 0.14741376 0.38593423 0.23852047
0.030375732 0.077064 0.056947913 0.14741376 0.38593423 0.23852047
0.029866144 0.077370606 0.057005387 0.14741376 0.38593423 0.23852047
0.029356366 0.077675678 0.057062056 0.14741376 0.38593423 0.23852047
0.028824298 0.077921838 0.057084125 0.14741376 0.38593423 0.23852047
0.028292356 0.078167945 0.057106208 0.14741376 0.38593423 0.23852047
0.027760535 0.078413993 0.05712831 0.14741376 0.38593423 0.23852047
0.027221279 0.078640662 0.057139024 0.14741376 0.38593423 0.23852047
0.026666466 0.078827612 0.05712631 0.14741376 0.38593423 0.23852047
0.026111558 0.079014592 0.057113614 0.14741376 0.38593423 0.23852047
0.025556555 0.079201609 0.05710094 0.14741376 0.38593423 0.23852047
0.024986478 0.079351142 0.057066083 0.14741376 0.38593423 0.23852047
0.024407275 0.079478621 0.057018135 0.14741376 0.38593423 0.23852047
0.023827741 0.079606175 0.056970175 0.14741376 0.38593423 0.23852047
0.023247868 0.079733804 0.056922212 0.14741376 0.38593423 0.23852047
0.022642987 0.079800971 0.056838319 0.14741376 0.38593423 0.23852047
0.022036972 0.079866901 0.056753587 0.14741376 0.38593423 0.23852047
0.021430351 0.079932891 0.056668796 0.14741376 0.38593423 0.23852047
0.020814434 0.079977967 0.056571454 0.14741376 0.38593423 0.23852047
0.020181529 0.079983935 0.056450725 0.14741376 0.38593423 0.23852047
0.019545283 0.079984054 0.05632636 0.14741376 0.38593423 0.23852047
0.018901747 0.079969019 0.056192804 0.14741376 0.38593423 0.23852047
0.018232845 0.079896249 0.056024648 0.14741376 0.38593423 0.23852047
0.017562645 0.079823345 0.055856187 0.14741376 0.38593423 0.23852047
0.016891137 0.079750292 0.055687416 0.14741376 0.38593423 0.23852047
0.016189566 0.079609983 0.055478241 0.14741376 0.38593423 0.23852047
0.015479586 0.079453722 0.055259243 0.14741376 0.38593423 0.23852047
0.014767822 0.079297066 0.055039715 0.14741376 0.38593423 0.23852047
0.014018842 0.079058535 0.054770868 0.14741376 0.38593423 0.23852047
0.01326046 0.078802988 0.054491464 0.14741376 0.38593423 0.23852047
0.012492914 0.07853125 0.054201972 0.14741376 0.38593423 0.23852047
0.011676501 0.078153536 0.053848498 0.14741376 0.38593423 0.23852047
0.010856832 0.077774316 0.053493634 0.14741376 0.38593423 0.23852047
0.0099833393 0.077280052 0.053069167 0.14741376 0.38593423 0.23852047
0.0090864561 0.076740429 0.052616846 0.14741376 0.38593423 0.23852047
0.0081210341 0.076055691 0.052076586 0.14741376 0.38593423 0.23852047
0.0071157971 0.075291492 0.051487744 0.14741376 0.38593423 0.23852047
0.0059628966 0.074211322 0.050707713 0.14741376 0.38593423 0.23852047
0.0046343976 0.072758377 0.049701855 0.14741376 0.38593423 0.23852047
0.0027182552 0.070038348 0.047930129 0.14741376 0.38593423 0.23852047
0.039999999 0.0005312147 0.018760704 0.14741376 0.38593423 0.23852047
0.039999999 0.0031524068 0.020110261 0.14741376 0.38593423 0.23852047
0.039999999 0.0057409415 0.021443028 0.14741376 0.38593423 0.23852047
0.039999999 0.0082974378 0.022759322 0.14741376 0.38593423 0.23852047
0.039999999 0.010822498 0.024059456 0.14741376 0.38593423 0.23852047
0.039999999 0.013316711 0.025343729 0.14741376 0.38593423 0.23852047
0.039999999 0.01578065 0.026612436 0.14741376 0.38593423 0.23852047
0.039999999 0.018214876 0.02786587 0.14741376 0.38593423 0.23852047
0.039999999 0.020619931 0.029104304 0.14741376 0.38593423 0.23852047
0.039999999 0.022996349 0.030328017 0.14741376 0.38593423 0.23852047
0.039999999 0.025344651 0.031537272 0.14741376 0.38593423 0.23852047
0.039999999 0.027665341 0.032732334 0.14741376 0.38593423 0.23852047
0.039999999 0.029958917 0.033913456 0.14741376 0.38593423 0.23852047
0.039999999 0.032225862 0.035080887 0.14741376 0.38593423 0.23852047
0.039999999 0.034466647 0.036234867 0.14741376 0.38593423 0.23852047
0.039999999 0.03668173 0.037375633 0.14741376 0.38593423 0.23852047
0.039999999 0.038871564 0.03850342 0.14741376 0.38593423 0.23852047
0.039999999 0.041036587 0.039618447 0.14741376 0.38593423 0.23852047
0.039608493 0.041927941 0.039999999 0.14741376 0.38593423 0.23852047
0.039011031 0.042157609 0.039999999 0.14741376 0.38593423 0.23852047
0.038413655 0.042387195 0.039999999 0.14741376 0.38593423 0.23852047
0.037816361 0.04261671 0.039999999 0.14741376 0.38593423 0.23852047
0.037219152 0.042846147 0.039999999 0.14741376 0.38593423 0.23852047
0.036622018 0.043075513 0.039999999 0.14741376 0.38593423 0.23852047
0.036024962 0.043304808 0.039999999 0.14741376 0.38593423 0.23852047
0.039658286 0.056468338 0.047499191 0.14741376 0.38593423 0.23852047
0.039965808 0.059369154 0.049054254 0.14741376 0.38593423 0.23852047
0.039934237 0.061213385 0.049998019 0.14741376 0.38593423 0.23852047
0.039793141 0.062709212 0.050740682 0.14741376 0.38593423 0.23852047
0.039583791 0.063985981 0.051357023 0.14741376 0.38593423 0.23852047
0.039316338 0.06507764 0.051866546 0.14741376 0.38593423 0.23852047
0.039030895 0.06610579 0.052339818 0.14741376 0.38593423 0.23852047
0.038705558 0.067007266 0.052739967 0.14741376 0.38593423 0.23852047
0.038366057 0.067859314 0.053111877 0.14741376 0.38593423 0.23852047
0.038011853 0.068661191 0.053455055 0.14741376 0.38593423 0.23852047
0.037631042 0.069379456 0.053749919 0.14741376 0.38593423 0.23852047
0.037251476 0.070095368 0.054043837 0.14741376 0.38593423 0.23852047
0.036848057 0.070737429 0.054295018 0.14741376 0.38593423 0.23852047
0.036434889 0.071346849 0.05452748 0.14741376 0.38593423 0.23852047
0.03602279 0.071954697 0.054759357 0.14741376 0.38593423 0.23852047
0.035588551 0.07249593 0.054952569 0.14741376 0.38593423 0.23852047
0.035147697 0.07301493 0.055133034 0.14741376 0.38593423 0.23852047
0.034707729 0.073532879 0.055313151 0.14741376 0.38593423 0.23852047
0.034253046 0.074006766 0.055467688 0.14741376 0.38593423 0.23852047
0.033787455 0.074447773 0.05560315 0.14741376 0.38593423 0.23852047
0.033322573 0.074888118 0.055738427 0.14741376 0.38593423 0.23852047
0.032853585 0.075314745 0.055865847 0.14741376 0.38593423 0.23852047
0.032365017 0.075686157 0.055960976 0.14741376 0.38593423 0.23852047
0.031876966 0.076057181 0.056056023 0.14741376 0.38593423 0.23852047
0.031389438 0.076427802 0.056150988 0.14741376 0.38593423 0.23852047
0.030886779 0.076756515 0.056221392 0.14741376 0.38593423 0.23852047
0.03037641 0.07706359 0.056279149 0.14741376 0.38593423 0.23852047
0.029866369 0.077370465 0.056336883 0.14741376 0.38593423 0.23852047
0.029356131 0.077675782 0.056393802 0.14741376 0.38593423 0.23852047
0.02882359 0.077922165 0.056415968 0.14741376 0.38593423 0.23852047
0.028291175 0.078168489 0.056438152 0.14741376 0.38593423 0.23852047
0.027758885 0.078414753 0.056460347 0.14741376 0.38593423 0.23852047
0.027219065 0.078641415 0.056470975 0.14741376 0.38593423 0.23852047
0.026663758 0.078828529 0.056458194 0.14741376 0.38593423 0.23852047
0.026108358 0.079015672 0.056445431 0.14741376 0.38593423 0.23852047
0.025552861 0.079202853 0.056432683 0.14741376 0.38593423 0.23852047
0.024982112 0.079352103 0.056397408 0.14741376 0.38593423 0.23852047
0.024402393 0.079479694 0.056349225 0.14741376 0.38593423 0.23852047
0.023822339 0.07960736 0.056301031 0.14741376 0.38593423 0.23852047
0.02324195 0.0797351 0.05625283 0.14741376 0.38593423 0.23852047
0.022636268 0.079801701 0.056168154 0.14741376 0.38593423 0.23852047
0.022029709 0.079867691 0.056083012 0.14741376 0.38593423 0.23852047
0.021422543 0.07993374 0.055997808 0.14741376 0.38593423 0.23852047
0.0208058 0.079978198 0.055899605 0.14741376 0.38593423 0.23852047
0.020172494 0.07998459 0.055778541 0.14741376 0.38593423 0.23852047
0.019535672 0.07998471 0.055653576 0.14741376 0.38593423 0.23852047
0.018890779 0.079967827 0.055518281 0.14741376 0.38593423 0.23852047
0.018221263 0.07989499 0.055349316 0.14741376 0.38593423 0.23852047
0.017550444 0.079822011 0.055180043 0.14741376 0.38593423 0.23852047
0.016878316 0.079748891 0.05501046 0.14741376 0.38593423 0.23852047
0.016175414 0.079606868 0.054799329 0.14741376 0.38593423 0.23852047
0.015464767 0.079450458 0.054579277 0.14741376 0.38593423 0.23852047
0.014752333 0.079293661 0.054358695 0.14741376 0.38593423 0.23852047
0.014001715 0.079052761 0.054087274 0.14741376 0.38593423 0.23852047
0.013242604 0.078796975 0.053806525 0.14741376 0.38593423 0.23852047
0.012473038 0.078522056 0.053513885 0.14741376 0.38593423 0.23852047
0.011655821 0.078143969 0.053158708 0.14741376 0.38593423 0.23852047
0.010835342 0.07776437 0.052802138 0.14741376 0.38593423 0.23852047
0.0099591371 0.077265486 0.052373137 0.14741376 0.38593423 0.23852047
0.0090613347 0.076725319 0.05191863 0.14741376 0.38593423 0.23852047
0.008092151 0.076033726 0.051372055 0.14741376 0.38593423 0.23852047
0.0070858323 0.075268708 0.050780348 0.14741376 0.38593423 0.23852047
0.0059271776 0.074177489 0.049990557 0.14741376 0.38593423 0.23852047
0.0045888778 0.072704785 0.048968814 0.14741376 0.38593423 0.23852047
0.002557107 0.069734387 0.047038697 0.14741376 0.38593423 0.23852047
0.039999999 0.00040834301 0.017886655 0.14741376 0.38593423 0.23852047
0.039999999 0.0030333782 0.019243281 0.14741376 0.38593423 0.23852047
0.039999999 0.0056256698 0.020583006 0.14741376 0.38593423 0.23852047
0.039999999 0.0081858393 0.021906152 0.14741376 0.38593423 0.23852047
0.039999999 0.010714491 0.023213033 0.14741376 0.38593423 0.23852047
0.039999999 0.013212216 0.02450395 0.14741376 0.38593423 0.23852047
0.039999999 0.01567959 0.025779201 0.14741376 0.38593423 0.23852047
0.039999999 0.018117173 0.027039079 0.14741376 0.38593423 0.23852047
0.039999999 0.020525515 0.028283862 0.14741376 0.38593423 0.23852047
0.039999999 0.022905149 0.02951383 0.14741376 0.38593423 0.23852047
0.039999999 0.025256595 0.030729249 0.14741376 0.38593423 0.23852047
0.039999999 0.027580364 0.031930383 0.14741376 0.38593423 0.23852047
0.039999999 0.029876951 0.033117492 0.14741376 0.38593423 0.23852047
0.039999999 0.032146841 0.034290817 0.14741376 0.38593423 0.23852047
0.039999999 0.034390509 0.035450611 0.14741376 0.38593423 0.23852047
0.039999999 0.036608417 0.03659711 0.14741376 0.38593423 0.23852047
0.039999999 0.038801018 0.037730545 0.14741376 0.38593423 0.23852047
0.039999999 0.040968746 0.038851146 0.14741376 0.38593423 0.23852047
0.039999999 0.04311204 0.039959133 0.14741376 0.38593423 0.23852047
0.039426271 0.043411519 0.039999999 0.14741376 0.38593423 0.23852047
0.038830519 0.043640364 0.039999999 0.14741376 0.38593423 0.23852047
0.038234856 0.043869141 0.039999999 0.14741376 0.38593423 0.23852047
0.037639271 0.044097845 0.039999999 0.14741376 0.38593423 0.23852047
0.037043769 0.04432648 0.039999999 0.14741376 0.38593423 0.23852047
0.036448341 0.044555046 0.039999999 0.14741376 0.38593423 0.23852047
0.039642412 0.056371536 0.046743218 0.14741376 0.38593423 0.23852047
0.039962832 0.059314225 0.048328258 0.14741376 0.38593423 0.23852047
0.039936271 0.061175842 0.049285524 0.14741376 0.38593423 0.23852047
0.039797708 0.062681347 0.050036468 0.14741376 0.38593423 0.23852047
0.039588146 0.063959427 0.050655756 0.14741376 0.38593423 0.23852047
0.039322056 0.065057047 0.051170543 0.14741376 0.38593423 0.23852047
0.03903633 0.06608621 0.051646061 0.14741376 0.38593423 0.23852047
0.038711749 0.066991724 0.052049957 0.14741376 0.38593423 0.23852047
0.038371924 0.067844592 0.052423626 0.14741376 0.38593423 0.23852047
0.038018119 0.068649374 0.052769676 0.14741376 0.38593423 0.23852047
0.037636947 0.06936831 0.053065933 0.14741376 0.38593423 0.23852047
0.037257027 0.0700849 0.053361241 0.14741376 0.38593423 0.23852047
0.036853753 0.070729032 0.053614475 0.14741376 0.38593423 0.23852047
0.036440201 0.071339019 0.053848028 0.14741376 0.38593423 0.23852047
0.036027722 0.071947418 0.054080997 0.14741376 0.38593423 0.23852047
0.03559345 0.072490171 0.054275714 0.14741376 0.38593423 0.23852047
0.035152193 0.073009633 0.054457027 0.14741376 0.38593423 0.23852047
0.034711827 0.073528051 0.054637991 0.14741376 0.38593423 0.23852047
0.034256976 0.074003041 0.054793648 0.14741376 0.38593423 0.23852047
0.033790965 0.07444445 0.054929744 0.14741376 0.38593423 0.23852047
0.033325665 0.074885182 0.055065654 0.14741376 0.38593423 0.23852047
0.032856405 0.0753126 0.055193909 0.14741376 0.38593423 0.23852047
0.032367401 0.075684346 0.055289481 0.14741376 0.38593423 0.23852047
0.031878918 0.076055698 0.055384971 0.14741376 0.38593423 0.23852047
0.031390954 0.076426648 0.055480376 0.14741376 0.38593423 0.23852047
0.030887911 0.076755837 0.055551212 0.14741376 0.38593423 0.23852047
0.03037709 0.077063181 0.055609234 0.14741376 0.38593423 0.23852047
0.029866595 0.077370331 0.055667236 0.14741376 0.38593423 0.23852047
0.029355895 0.077675894 0.055724397 0.14741376 0.38593423 0.23852047
0.02882288 0.077922493 0.055746667 0.14741376 0.38593423 0.23852047
0.028289994 0.07816904 0.055768944 0.14741376 0.38593423 0.23852047
0.027757231 0.07841552 0.05579124 0.14741376 0.38593423 0.23852047
0.027216846 0.07864216 0.055801779 0.14741376 0.38593423 0.23852047
0.026661046 0.078829437 0.055788931 0.14741376 0.38593423 0.23852047
0.026105152 0.079016753 0.055776097 0.14741376 0.38593423 0.23852047
0.025549162 0.079204097 0.055763282 0.14741376 0.38593423 0.23852047
0.024977736 0.079353072 0.055727586 0.14741376 0.38593423 0.23852047
0.0243975 0.079480775 0.055679165 0.14741376 0.38593423 0.23852047
0.02381693 0.079608552 0.055630732 0.14741376 0.38593423 0.23852047
0.023236021 0.079736412 0.055582292 0.14741376 0.38593423 0.23852047
0.02262954 0.079802431 0.055496834 0.14741376 0.38593423 0.23852047
0.022022435 0.079868481 0.055411279 0.14741376 0.38593423 0.23852047
0.021414721 0.07993459 0.055325661 0.14741376 0.38593423 0.23852047
0.02079715 0.079978429 0.055226587 0.14741376 0.38593423 0.23852047
0.020163445 0.079985246 0.055105194 0.14741376 0.38593423 0.23852047
0.019526044 0.079985373 0.05497963 0.14741376 0.38593423 0.23852047
0.018879792 0.079966635 0.054842576 0.14741376 0.38593423 0.23852047
0.01820966 0.079893731 0.054672804 0.14741376 0.38593423 0.23852047
0.017538223 0.079820685 0.054502718 0.14741376 0.38593423 0.23852047
0.016865475 0.079747498 0.05433232 0.14741376 0.38593423 0.23852047
0.016161235 0.079603747 0.054119218 0.14741376 0.38593423 0.23852047
0.015449923 0.079447195 0.053898111 0.14741376 0.38593423 0.23852047
0.014736818 0.079290241 0.053676467 0.14741376 0.38593423 0.23852047
0.013984557 0.07904698 0.053402457 0.14741376 0.38593423 0.23852047
0.013224717 0.078790948 0.053120364 0.14741376 0.38593423 0.23852047
0.012453127 0.078512847 0.052824549 0.14741376 0.38593423 0.23852047
0.011635103 0.07813438 0.05246767 0.14741376 0.38593423 0.23852047
0.010813813 0.077754408 0.052109383 0.14741376 0.38593423 0.23852047
0.0099348901 0.077250898 0.051675823 0.14741376 0.38593423 0.23852047
0.0090361666 0.076710172 0.051219121 0.14741376 0.38593423 0.23852047
0.008063212 0.076011732 0.050666191 0.14741376 0.38593423 0.23852047
0.0070558102 0.075245887 0.050071608 0.14741376 0.38593423 0.23852047
0.0058913878 0.074143589 0.049271982 0.14741376 0.38593423 0.23852047
0.0045432616 0.072651081 0.048234232 0.14741376 0.38593423 0.23852047
0.0023953638 0.069429308 0.046143968 0.14741376 0.38593423 0.23852047
0.039999999 0.000285188 0.017010592 0.14741376 0.38593423 0.23852047
0.039999999 0.0029140769 0.018374315 0.14741376 0.38593423 0.23852047
0.039999999 0.005510136 0.019721027 0.14741376 0.38593423 0.23852047
0.039999999 0.0080739884 0.021051053 0.14741376 0.38593423 0.23852047
0.039999999 0.010606241 0.022364706 0.14741376 0.38593423 0.23852047
0.039999999 0.013107487 0.023662295 0.14741376 0.38593423 0.23852047
0.039999999 0.015578304 0.024944115 0.14741376 0.38593423 0.23852047
0.039999999 0.018019255 0.026210465 0.14741376 0.38593423 0.23852047
0.039999999 0.020430893 0.027461622 0.14741376 0.38593423 0.23852047
0.039999999 0.022813749 0.028697871 0.14741376 0.38593423 0.23852047
0.039999999 0.025168348 0.029919477 0.14741376 0.38593423 0.23852047
0.039999999 0.027495202 0.031126708 0.14741376 0.38593423 0.23852047
0.039999999 0.029794808 0.032319821 0.14741376 0.38593423 0.23852047
0.039999999 0.032067653 0.03349907 0.14741376 0.38593423 0.23852047
0.039999999 0.034314215 0.034664698 0.14741376 0.38593423 0.23852047
0.039999999 0.036534954 0.035816949 0.14741376 0.38593423 0.23852047
0.039999999 0.038730323 0.036956057 0.14741376 0.38593423 0.23852047
0.039999999 0.040900767 0.038082246 0.14741376 0.38593423 0.23852047
0.039999999 0.043046717 0.039195746 0.14741376 0.38593423 0.23852047
0.039839182 0.044658404 0.039999999 0.14741376 0.38593423 0.23852047
0.03924505 0.044886515 0.039999999 0.14741376 0.38593423 0.23852047
0.038651004 0.045114554 0.039999999 0.14741376 0.38593423 0.23852047
0.03805704 0.045342531 0.039999999 0.14741376 0.38593423 0.23852047
0.037463158 0.045570441 0.039999999 0.14741376 0.38593423 0.23852047
0.036869351 0.045798283 0.039999999 0.14741376 0.38593423 0.23852047
0.039626505 0.056274515 0.04598552 0.14741376 0.38593423 0.23852047
0.039959848 0.059259184 0.047600787 0.14741376 0.38593423 0.23852047
0.039938308 0.061138224 0.048571654 0.14741376 0.38593423 0.23852047
0.039802287 0.06265343 0.049330939 0.14741376 0.38593423 0.23852047
0.039592505 0.063932829 0.049953181 0.14741376 0.38593423 0.23852047
0.039327782 0.065036416 0.050473269 0.14741376 0.38593423 0.23852047
0.039041772 0.0660666 0.050951041 0.14741376 0.38593423 0.23852047
0.038717952 0.06697616 0.051358704 0.14741376 0.38593423 0.23852047
0.038377799 0.06782984 0.051734138 0.14741376 0.38593423 0.23852047
0.038024392 0.068637535 0.052083082 0.14741376 0.38593423 0.23852047
0.037642866 0.069357149 0.052380737 0.14741376 0.38593423 0.23852047
0.037262589 0.070074409 0.052677434 0.14741376 0.38593423 0.23852047
0.036859456 0.07072062 0.052932732 0.14741376 0.38593423 0.23852047
0.036445521 0.071331166 0.053167384 0.14741376 0.38593423 0.23852047
0.036032666 0.071940124 0.053401444 0.14741376 0.38593423 0.23852047
0.035598356 0.072484389 0.053597677 0.14741376 0.38593423 0.23852047
0.035156697 0.073004335 0.05377984 0.14741376 0.38593423 0.23852047
0.034715932 0.073523216 0.053961653 0.14741376 0.38593423 0.23852047
0.034260914 0.073999316 0.054118436 0.14741376 0.38593423 0.23852047
0.033794485 0.07444112 0.054255173 0.14741376 0.38593423 0.23852047
0.033328764 0.074882247 0.054391716 0.14741376 0.38593423 0.23852047
0.032859232 0.075310454 0.054520808 0.14741376 0.38593423 0.23852047
0.032369789 0.075682528 0.054616828 0.14741376 0.38593423 0.23852047
0.03188087 0.076054215 0.054712761 0.14741376 0.38593423 0.23852047
0.03139247 0.0764255 0.054808609 0.14741376 0.38593423 0.23852047
0.030889047 0.076755151 0.054879878 0.14741376 0.38593423 0.23852047
0.03037777 0.077062771 0.054938167 0.14741376 0.38593423 0.23852047
0.029866822 0.077370197 0.054996438 0.14741376 0.38593423 0.23852047
0.029355656 0.077676006 0.055053845 0.14741376 0.38593423 0.23852047
0.028822171 0.077922821 0.055076212 0.14741376 0.38593423 0.23852047
0.02828881 0.078169584 0.05509859 0.14741376 0.38593423 0.23852047
0.027755573 0.078416288 0.055120979 0.14741376 0.38593423 0.23852047
0.027214624 0.078642905 0.055131428 0.14741376 0.38593423 0.23852047
0.026658328 0.078830354 0.055118512 0.14741376 0.38593423 0.23852047
0.026101941 0.079017833 0.055105612 0.14741376 0.38593423 0.23852047
0.025545456 0.079205349 0.05509273 0.14741376 0.38593423 0.23852047
0.024973355 0.079354033 0.055056605 0.14741376 0.38593423 0.23852047
0.024392601 0.079481855 0.055007946 0.14741376 0.38593423 0.23852047
0.023811512 0.079609744 0.054959279 0.14741376 0.38593423 0.23852047
0.023229845 0.079737127 0.054910246 0.14741376 0.38593423 0.23852047
0.0226228 0.079803169 0.054824349 0.14741376 0.38593423 0.23852047
0.022015149 0.07986927 0.054738384 0.14741376 0.38593423 0.23852047
0.021406887 0.079935446 0.054652348 0.14741376 0.38593423 0.23852047
0.020788485 0.079978667 0.054552402 0.14741376 0.38593423 0.23852047
0.020154377 0.079985909 0.054430675 0.14741376 0.38593423 0.23852047
0.019516399 0.079986028 0.054304507 0.14741376 0.38593423 0.23852047
0.018868787 0.079965435 0.054165687 0.14741376 0.38593423 0.23852047
0.018198038 0.079892464 0.053995103 0.14741376 0.38593423 0.23852047
0.01752598 0.079819351 0.053824201 0.14741376 0.38593423 0.23852047
0.01685261 0.079746097 0.053652983 0.14741376 0.38593423 0.23852047
0.016147032 0.079600625 0.0534379 0.14741376 0.38593423 0.23852047
0.01543505 0.079443917 0.053215738 0.14741376 0.38593423 0.23852047
0.014721274 0.079286821 0.052993029 0.14741376 0.38593423 0.23852047
0.013967369 0.07904119 0.052716412 0.14741376 0.38593423 0.23852047
0.013206798 0.078784905 0.052432965 0.14741376 0.38593423 0.23852047
0.01243318 0.078503616 0.052133966 0.14741376 0.38593423 0.23852047
0.011614349 0.078124784 0.051775374 0.14741376 0.38593423 0.23852047
0.010792244 0.077744432 0.051415361 0.14741376 0.38593423 0.23852047
0.0099105975 0.077236287 0.050977211 0.14741376 0.38593423 0.23852047
0.009010952 0.076695003 0.050518312 0.14741376 0.38593423 0.23852047
0.008034219 0.075989686 0.049958978 0.14741376 0.38593423 0.23852047
0.0070218104 0.075214349 0.04935623 0.14741376 0.38593423 0.23852047
0.0058555268 0.074109621 0.048551977 0.14741376 0.38593423 0.23852047
0.0044975495 0.072597265 0.0474981 0.14741376 0.38593423 0.23852047
0.0022330207 0.069123097 0.045245919 0.14741376 0.38593423 0.23852047
0.039999999 0.00016174813 0.016132502 0.14741376 0.38593423 0.23852047
0.039999999 0.0027945016 0.017503351 0.14741376 0.38593423 0.23852047
0.039999999 0.0053943382 0.01885708 0.14741376 0.38593423 0.23852047
0.039999999 0.0079618832 0.020194015 0.14741376 0.38593423 0.23852047
0.039999999 0.010497747 0.021514468 0.14741376 0.38593423 0.23852047
0.039999999 0.013002523 0.022818753 0.14741376 0.38593423 0.23852047
0.039999999 0.015476794 0.024107171 0.14741376 0.38593423 0.23852047
0.039999999 0.017921122 0.025380015 0.14741376 0.38593423 0.23852047
0.039999999 0.020336062 0.026637575 0.14741376 0.38593423 0.23852047
0.039999999 0.022722149 0.027880127 0.14741376 0.38593423 0.23852047
0.039999999 0.02507991 0.029107943 0.14741376 0.38593423 0.23852047
0.039999999 0.027409857 0.030321296 0.14741376 0.38593423 0.23852047
0.039999999 0.029712489 0.031520441 0.14741376 0.38593423 0.23852047
0.039999999 0.031988297 0.032705631 0.14741376 0.38593423 0.23852047
0.039999999 0.034237757 0.033877119 0.14741376 0.38593423 0.23852047
0.039999999 0.036461331 0.035035145 0.14741376 0.38593423 0.23852047
0.039999999 0.038659479 0.036179945 0.14741376 0.38593423 0.23852047
0.039999999 0.040832642 0.037311748 0.14741376 0.38593423 0.23852047
0.039999999 0.042981256 0.03843078 0.14741376 0.38593423 0.23852047
0.039999999 0.045105737 0.039537266 0.14741376 0.38593423 0.23852047
0.039657269 0.04612571 0.039999999 0.14741376 0.38593423 0.23852047
0.039064832 0.046353023 0.039999999 0.14741376 0.38593423 0.23852047
0.038472477 0.04658027 0.039999999 0.14741376 0.38593423 0.23852047
0.037880205 0.046807457 0.039999999 0.14741376 0.38593423 0.23852047
0.03728801 0.04703458 0.039999999 0.14741376 0.38593423 0.23852047
0.039610561 0.056177273 0.045226093 0.14741376 0.38593423 0.23852047
0.03995686 0.059204031 0.046871834 0.14741376 0.38593423 0.23852047
0.039940353 0.061100535 0.047856409 0.14741376 0.38593423 0.23852047
0.039806873 0.06262546 0.048624087 0.14741376 0.38593423 0.23852047
0.039596874 0.063906178 0.049249299 0.14741376 0.38593423 0.23852047
0.039333519 0.065015748 0.049774718 0.14741376 0.38593423 0.23852047
0.039047226 0.066046953 0.050254755 0.14741376 0.38593423 0.23852047
0.038724165 0.066960558 0.050666206 0.14741376 0.38593423 0.23852047
0.038383689 0.067815065 0.051043414 0.14741376 0.38593423 0.23852047
0.03803068 0.068625674 0.051395267 0.14741376 0.38593423 0.23852047
0.037648793 0.069345966 0.051694322 0.14741376 0.38593423 0.23852047
0.037268162 0.070063896 0.051992416 0.14741376 0.38593423 0.23852047
0.036865171 0.070712194 0.052249786 0.14741376 0.38593423 0.23852047
0.036450852 0.071323305 0.052485541 0.14741376 0.38593423 0.23852047
0.036037613 0.071932822 0.052720699 0.14741376 0.38593423 0.23852047
0.035603274 0.072478607 0.052918456 0.14741376 0.38593423 0.23852047
0.035161212 0.072999015 0.053101473 0.14741376 0.38593423 0.23852047
0.034720045 0.073518381 0.053284135 0.14741376 0.38593423 0.23852047
0.034264855 0.073995575 0.053442053 0.14741376 0.38593423 0.23852047
0.033798005 0.074437782 0.053579427 0.14741376 0.38593423 0.23852047
0.033331871 0.074879311 0.053716607 0.14741376 0.38593423 0.23852047
0.032862063 0.075308301 0.053846538 0.14741376 0.38593423 0.23852047
0.03237218 0.07568071 0.053943004 0.14741376 0.38593423 0.23852047
0.031882826 0.076052725 0.054039385 0.14741376 0.38593423 0.23852047
0.03139399 0.076424345 0.054135676 0.14741376 0.38593423 0.23852047
0.030890184 0.076754466 0.054207381 0.14741376 0.38593423 0.23852047
0.030378453 0.077062361 0.054265942 0.14741376 0.38593423 0.23852047
0.029867049 0.077370055 0.054324478 0.14741376 0.38593423 0.23852047
0.02935542 0.077676117 0.054382131 0.14741376 0.38593423 0.23852047
0.028821459 0.077923156 0.054404598 0.14741376 0.38593423 0.23852047
0.028287625 0.078170136 0.054427072 0.14741376 0.38593423 0.23852047
0.027753914 0.078417055 0.054449562 0.14741376 0.38593423 0.23852047
0.027212398 0.078643657 0.054459922 0.14741376 0.38593423 0.23852047
0.026655607 0.07883127 0.054446939 0.14741376 0.38593423 0.23852047
0.026098724 0.079018921 0.054433968 0.14741376 0.38593423 0.23852047
0.025541743 0.079206593 0.054421011 0.14741376 0.38593423 0.23852047
0.024968965 0.079355001 0.054384459 0.14741376 0.38593423 0.23852047
0.024387693 0.079482935 0.054335564 0.14741376 0.38593423 0.23852047
0.023806082 0.079610944 0.054286659 0.14741376 0.38593423 0.23852047
0.023223639 0.079737805 0.054237004 0.14741376 0.38593423 0.23852047
0.022616047 0.079803899 0.054150693 0.14741376 0.38593423 0.23852047
0.022007849 0.079870068 0.054064315 0.14741376 0.38593423 0.23852047
0.02139904 0.079936296 0.053977862 0.14741376 0.38593423 0.23852047
0.020779807 0.079978898 0.053877037 0.14741376 0.38593423 0.23852047
0.020145297 0.079986565 0.053754982 0.14741376 0.38593423 0.23852047
0.019506723 0.079986654 0.053628184 0.14741376 0.38593423 0.23852047
0.018857762 0.079964235 0.053487606 0.14741376 0.38593423 0.23852047
0.018186394 0.079891197 0.053316209 0.14741376 0.38593423 0.23852047
0.017513717 0.079818018 0.053144488 0.14741376 0.38593423 0.23852047
0.016839722 0.079744697 0.052972451 0.14741376 0.38593423 0.23852047
0.016132804 0.079597488 0.052755374 0.14741376 0.38593423 0.23852047
0.015420153 0.079440638 0.052532148 0.14741376 0.38593423 0.23852047
0.014705704 0.079283394 0.052308373 0.14741376 0.38593423 0.23852047
0.013950149 0.079035386 0.052029137 0.14741376 0.38593423 0.23852047
0.013188846 0.078778863 0.051744334 0.14741376 0.38593423 0.23852047
0.012413195 0.07849437 0.05144212 0.14741376 0.38593423 0.23852047
0.011593555 0.078115158 0.05108181 0.14741376 0.38593423 0.23852047
0.010770636 0.077734433 0.050720073 0.14741376 0.38593423 0.23852047
0.0098862601 0.077221639 0.050277304 0.14741376 0.38593423 0.23852047
0.0089856898 0.076679803 0.049816191 0.14741376 0.38593423 0.23852047
0.0080051692 0.075967602 0.049250413 0.14741376 0.38593423 0.23852047
0.0069872197 0.075181581 0.048638731 0.14741376 0.38593423 0.23852047
0.0058195945 0.07407558 0.047830541 0.14741376 0.38593423 0.23852047
0.0044517405 0.072543338 0.046760406 0.14741376 0.38593423 0.23852047
0.002070074 0.068815745 0.044344537 0.14741376 0.38593423 0.23852047
0.039989416 0 0.015230375 0.14741376 0.38593423 0.23852047
0.039999999 0.0026746504 0.016630379 0.14741376 0.38593423 0.23852047
0.039999999 0.0052782749 0.017991154 0.14741376 0.38593423 0.23852047
0.039999999 0.0078495229 0.019335022 0.14741376 0.38593423 0.23852047
0.039999999 0.010389007 0.020662306 0.14741376 0.38593423 0.23852047
0.039999999 0.012897324 0.021973317 0.14741376 0.38593423 0.23852047
0.039999999 0.015375056 0.023268357 0.14741376 0.38593423 0.23852047
0.039999999 0.01782277 0.024547724 0.14741376 0.38593423 0.23852047
0.039999999 0.02024102 0.025811708 0.14741376 0.38593423 0.23852047
0.039999999 0.022630349 0.027060589 0.14741376 0.38593423 0.23852047
0.039999999 0.024991278 0.028294642 0.14741376 0.38593423 0.23852047
0.039999999 0.027324326 0.029514138 0.14741376 0.38593423 0.23852047
0.039999999 0.029629994 0.030719338 0.14741376 0.38593423 0.23852047
0.039999999 0.031908773 0.031910498 0.14741376 0.38593423 0.23852047
0.039999999 0.034161136 0.033087865 0.14741376 0.38593423 0.23852047
0.039999999 0.036387555 0.034251686 0.14741376 0.38593423 0.23852047
0.039999999 0.038588487 0.035402197 0.14741376 0.38593423 0.23852047
0.039999999 0.040764377 0.036539637 0.14741376 0.38593423 0.23852047
0.039999999 0.042915657 0.037664223 0.14741376 0.38593423 0.23852047
0.039999999 0.045042753 0.038776185 0.14741376 0.38593423 0.23852047
0.039999999 0.047146086 0.039875738 0.14741376 0.38593423 0.23852047
0.039476357 0.047584601 0.039999999 0.14741376 0.38593423 0.23852047
0.038885605 0.047811128 0.039999999 0.14741376 0.38593423 0.23852047
0.038294934 0.0480376 0.039999999 0.14741376 0.38593423 0.23852047
0.037704341 0.048264008 0.039999999 0.14741376 0.38593423 0.23852047
0.039594579 0.056079805 0.04446492 0.14741376 0.38593423 0.23852047
0.039953865 0.059148762 0.046141393 0.14741376 0.38593423 0.23852047
0.039942399 0.061062776 0.047139775 0.14741376 0.38593423 0.23852047
0.03981147 0.062597439 0.047915906 0.14741376 0.38593423 0.23852047
0.039601255 0.063879482 0.048544094 0.14741376 0.38593423 0.23852047
0.03933927 0.064995043 0.049074881 0.14741376 0.38593423 0.23852047
0.039052691 0.066027276 0.04955719 0.14741376 0.38593423 0.23852047
0.03873039 0.066944934 0.049972456 0.14741376 0.38593423 0.23852047
0.038389586 0.067800269 0.050351441 0.14741376 0.38593423 0.23852047
0.03803698 0.068613797 0.050706219 0.14741376 0.38593423 0.23852047
0.037654735 0.069334768 0.051006682 0.14741376 0.38593423 0.23852047
0.037273742 0.070053369 0.051306177 0.14741376 0.38593423 0.23852047
0.036870893 0.070703752 0.051565632 0.14741376 0.38593423 0.23852047
0.036456194 0.071315423 0.051802494 0.14741376 0.38593423 0.23852047
0.036042575 0.071925513 0.052038752 0.14741376 0.38593423 0.23852047
0.035608195 0.072472811 0.05223804 0.14741376 0.38593423 0.23852047
0.035165731 0.072993696 0.052421916 0.14741376 0.38593423 0.23852047
0.034724165 0.07351353 0.052605432 0.14741376 0.38593423 0.23852047
0.034268808 0.073991835 0.052764487 0.14741376 0.38593423 0.23852047
0.033801537 0.074434437 0.052902501 0.14741376 0.38593423 0.23852047
0.033334978 0.074876361 0.053040322 0.14741376 0.38593423 0.23852047
0.032864898 0.075306147 0.053171098 0.14741376 0.38593423 0.23852047
0.032374579 0.075678892 0.053268012 0.14741376 0.38593423 0.23852047
0.031884786 0.076051235 0.053364839 0.14741376 0.38593423 0.23852047
0.031395514 0.076423183 0.053461578 0.14741376 0.38593423 0.23852047
0.030891323 0.07675378 0.053533718 0.14741376 0.38593423 0.23852047
0.030379135 0.077061951 0.053592548 0.14741376 0.38593423 0.23852047
0.029867277 0.077369921 0.053651351 0.14741376 0.38593423 0.23852047
0.029355181 0.077676222 0.05370925 0.14741376 0.38593423 0.23852047
0.028820746 0.077923484 0.053731818 0.14741376 0.38593423 0.23852047
0.028286437 0.07817068 0.053754393 0.14741376 0.38593423 0.23852047
0.02775225 0.078417823 0.053776979 0.14741376 0.38593423 0.23852047
0.027210167 0.07864441 0.053787246 0.14741376 0.38593423 0.23852047
0.026652882 0.078832194 0.053774197 0.14741376 0.38593423 0.23852047
0.026095502 0.079020001 0.053761158 0.14741376 0.38593423 0.23852047
0.025538025 0.079207852 0.053748131 0.14741376 0.38593423 0.23852047
0.024964569 0.07935597 0.05371115 0.14741376 0.38593423 0.23852047
0.024382776 0.079484016 0.053662017 0.14741376 0.38593423 0.23852047
0.023800645 0.079612136 0.053612869 0.14741376 0.38593423 0.23852047
0.023217423 0.079738475 0.053562585 0.14741376 0.38593423 0.23852047
0.022609282 0.079804637 0.053475864 0.14741376 0.38593423 0.23852047
0.022000536 0.079870865 0.053389069 0.14741376 0.38593423 0.23852047
0.021391178 0.079937153 0.053302199 0.14741376 0.38593423 0.23852047
0.020771112 0.079979137 0.053200491 0.14741376 0.38593423 0.23852047
0.0201362 0.079987228 0.053078104 0.14741376 0.38593423 0.23852047
0.019496653 0.079986379 0.052950133 0.14741376 0.38593423 0.23852047
0.018846717 0.079963036 0.052808329 0.14741376 0.38593423 0.23852047
0.01817473 0.079889931 0.052636113 0.14741376 0.38593423 0.23852047
0.017501431 0.079816684 0.052463576 0.14741376 0.38593423 0.23852047
0.016826812 0.079743288 0.052290712 0.14741376 0.38593423 0.23852047
0.016118551 0.079594351 0.052071631 0.14741376 0.38593423 0.23852047
0.015405228 0.079437353 0.051847339 0.14741376 0.38593423 0.23852047
0.014690105 0.079279959 0.051622491 0.14741376 0.38593423 0.23852047
0.013932899 0.079029575 0.051340617 0.14741376 0.38593423 0.23852047
0.013170863 0.078772798 0.051054455 0.14741376 0.38593423 0.23852047
0.012393175 0.078485109 0.050749008 0.14741376 0.38593423 0.23852047
0.011572724 0.078105524 0.050386973 0.14741376 0.38593423 0.23852047
0.010748988 0.07772442 0.050023504 0.14741376 0.38593423 0.23852047
0.0098618772 0.077206969 0.049576081 0.14741376 0.38593423 0.23852047
0.0089603812 0.076664574 0.049112756 0.14741376 0.38593423 0.23852047
0.0079760645 0.075945482 0.048540484 0.14741376 0.38593423 0.23852047
0.00695256 0.075148746 0.047919802 0.14741376 0.38593423 0.23852047
0.0057835905 0.074041478 0.047107663 0.14741376 0.38593423 0.23852047
0.0044058338 0.072489291 0.046021141 0.14741376 0.38593423 0.23852047
0.0019065196 0.068507254 0.043439791 0.14741376 0.38593423 0.23852047
0.039999999 0.0025545221 0.015755389 0.14741376 0.38593423 0.23852047
0.039999999 0.0051619448 0.017123237 0.14741376 0.38593423 0.23852047
0.039999999 0.0077369059 0.01847407 0.14741376 0.38593423 0.23852047
0.039999999 0.010280021 0.01980821 0.14741376 0.38593423 0.23852047
0.039999999 0.012791887 0.021125972 0.14741376 0.38593423 0.23852047
0.039999999 0.01527309 0.022427663 0.14741376 0.38593423 0.23852047
0.039999999 0.017724199 0.023713579 0.14741376 0.38593423 0.23852047
