# .PCD v0.7 - Point Cloud Data file format
VERSION 0.7
FIELDS x y z vp_x vp_y vp_z
SIZE 4 4 4 4 4 4
TYPE F F F F F F
COUNT 1 1 1 1 1 1
WIDTH 722
HEIGHT 1
VIEWPOINT 0 0 0 1 0 0 0
POINTS 722
DATA ascii
0 0.031821061 0.016765172 -0.14741376 0.38593423 0.23852047
0 0.030022718 0.015793521 -0.14741376 0.38593423 0.23852047
0 0.028208682 0.014813389 -0.14741376 0.38593423 0.23852047
0 0.02637874 0.013824661 -0.14741376 0.38593423 0.23852047
0 0.02453267 0.012827219 -0.14741376 0.38593423 0.23852047
0 0.022670252 0.011820942 -0.14741376 0.38593423 0.23852047
0 0.020791255 0.010805706 -0.14741376 0.38593423 0.23852047
0 0.018895449 0.0097813895 -0.14741376 0.38593423 0.23852047
0 0.016982598 0.0087478608 -0.14741376 0.38593423 0.23852047
0 0.015052463 0.0077049923 -0.14741376 0.38593423 0.23852047
0 0.013104798 0.0066526518 -0.14741376 0.38593423 0.23852047
0 0.011139354 0.0055907033 -0.14741376 0.38593423 0.23852047
0 0.009155876 0.0045190109 -0.14741376 0.38593423 0.23852047
0 0.0071541062 0.0034374334 -0.14741376 0.38593423 0.23852047
0 0.0051337797 0.0023458288 -0.14741376 0.38593423 0.23852047
0 0.0030946275 0.0012440515 -0.14741376 0.38593423 0.23852047
0 0.0010363756 0.00013195327 -0.14741376 0.38593423 0.23852047
0.03950195 0.079999998 0.033899099 -0.14741376 0.38593423 0.23852047
0.038754418 0.079999998 0.034054216 -0.14741376 0.38593423 0.23852047
0.038008381 0.079999998 0.03420902 -0.14741376 0.38593423 0.23852047
0.03726384 0.079999998 0.034363508 -0.14741376 0.38593423 0.23852047
0.036520779 0.079999998 0.034517691 -0.14741376 0.38593423 0.23852047
0.035779197 0.079999998 0.03467156 -0.14741376 0.38593423 0.23852047
0.035039078 0.079999998 0.034825128 -0.14741376 0.38593423 0.23852047
0.03430042 0.079999998 0.034978386 -0.14741376 0.38593423 0.23852047
0.033563215 0.079999998 0.035131339 -0.14741376 0.38593423 0.23852047
0.032827452 0.079999998 0.035283994 -0.14741376 0.38593423 0.23852047
0.032093126 0.079999998 0.035436343 -0.14741376 0.38593423 0.23852047
0.031360228 0.079999998 0.035588399 -0.14741376 0.38593423 0.23852047
0.03062875 0.079999998 0.035740152 -0.14741376 0.38593423 0.23852047
0.029898686 0.079999998 0.035891615 -0.14741376 0.38593423 0.23852047
0.029170027 0.079999998 0.03604278 -0.14741376 0.38593423 0.23852047
0.028442765 0.079999998 0.036193654 -0.14741376 0.38593423 0.23852047
0.027716894 0.079999998 0.036344234 -0.14741376 0.38593423 0.23852047
0.026992405 0.079999998 0.036494527 -0.14741376 0.38593423 0.23852047
0.026269292 0.079999998 0.036644533 -0.14741376 0.38593423 0.23852047
0.025547547 0.079999998 0.036794253 -0.14741376 0.38593423 0.23852047
0.024827162 0.079999998 0.036943685 -0.14741376 0.38593423 0.23852047
0.02410813 0.079999998 0.037092835 -0.14741376 0.38593423 0.23852047
0.023390444 0.079999998 0.037241705 -0.14741376 0.38593423 0.23852047
0.022674097 0.079999998 0.037390292 -0.14741376 0.38593423 0.23852047
0.021959081 0.079999998 0.037538599 -0.14741376 0.38593423 0.23852047
0.02124539 0.079999998 0.037686631 -0.14741376 0.38593423 0.23852047
0.020533016 0.079999998 0.037834387 -0.14741376 0.38593423 0.23852047
0.019821951 0.079999998 0.037981872 -0.14741376 0.38593423 0.23852047
0.01911219 0.079999998 0.03812908 -0.14741376 0.38593423 0.23852047
0.018403726 0.079999998 0.038276017 -0.14741376 0.38593423 0.23852047
0.01769655 0.079999998 0.038422685 -0.14741376 0.38593423 0.23852047
0.016990658 0.079999998 0.038569085 -0.14741376 0.38593423 0.23852047
0.01628604 0.079999998 0.038715217 -0.14741376 0.38593423 0.23852047
0.015582689 0.079999998 0.038861081 -0.14741376 0.38593423 0.23852047
0.014880601 0.079999998 0.039006684 -0.14741376 0.38593423 0.23852047
0.014179768 0.079999998 0.039152022 -0.14741376 0.38593423 0.23852047
0.013480184 0.079999998 0.0392971 -0.14741376 0.38593423 0.23852047
0.01278184 0.079999998 0.039441917 -0.14741376 0.38593423 0.23852047
0.012084731 0.079999998 0.039586477 -0.14741376 0.38593423 0.23852047
0.01138885 0.079999998 0.03973078 -0.14741376 0.38593423 0.23852047
0.010694191 0.079999998 0.039874826 -0.14741376 0.38593423 0.23852047
0.010015511 0.079971306 0.039999999 -0.14741376 0.38593423 0.23852047
0.0094366297 0.079749897 0.039999999 -0.14741376 0.38593423 0.23852047
0.0088579152 0.079528563 0.039999999 -0.14741376 0.38593423 0.23852047
0.0082793655 0.079307295 0.039999999 -0.14741376 0.38593423 0.23852047
0.0077009764 0.079086095 0.039999999 -0.14741376 0.38593423 0.23852047
0.0071227462 0.078864962 0.039999999 -0.14741376 0.38593423 0.23852047
0.006544671 0.078643888 0.039999999 -0.14741376 0.38593423 0.23852047
0.0059667486 0.078422874 0.039999999 -0.14741376 0.38593423 0.23852047
0.0053889761 0.078201927 0.039999999 -0.14741376 0.38593423 0.23852047
0.0048113507 0.077981047 0.039999999 -0.14741376 0.38593423 0.23852047
0.0042338693 0.07776022 0.039999999 -0.14741376 0.38593423 0.23852047
0.0036565294 0.077539451 0.039999999 -0.14741376 0.38593423 0.23852047
0.0030793278 0.077318743 0.039999999 -0.14741376 0.38593423 0.23852047
0.0025022621 0.077098086 0.039999999 -0.14741376 0.38593423 0.23852047
0.0019253292 0.07687749 0.039999999 -0.14741376 0.38593423 0.23852047
0.0013485266 0.076656945 0.039999999 -0.14741376 0.38593423 0.23852047
0.00077185105 0.07643646 0.039999999 -0.14741376 0.38593423 0.23852047
0.00019530003 0.07621602 0.039999999 -0.14741376 0.38593423 0.23852047
0 0.075192235 0.039485406 -0.14741376 0.38593423 0.23852047
2.7755576e-17 0.073747672 0.038702197 -0.14741376 0.38593423 0.23852047
0 0.072292008 0.037912957 -0.14741376 0.38593423 0.23852047
0 0.070825085 0.037117619 -0.14741376 0.38593423 0.23852047
0 0.069346778 0.036316101 -0.14741376 0.38593423 0.23852047
0 0.067856938 0.035508327 -0.14741376 0.38593423 0.23852047
0 0.06635543 0.034694228 -0.14741376 0.38593423 0.23852047
0 0.064842097 0.033873715 -0.14741376 0.38593423 0.23852047
0 0.063316807 0.033046715 -0.14741376 0.38593423 0.23852047
0 0.061779406 0.032213144 -0.14741376 0.38593423 0.23852047
0 0.060229734 0.031372916 -0.14741376 0.38593423 0.23852047
2.7755576e-17 0.058667641 0.030525954 -0.14741376 0.38593423 0.23852047
2.7755576e-17 0.057092972 0.029672168 -0.14741376 0.38593423 0.23852047
0 0.055505563 0.028811473 -0.14741376 0.38593423 0.23852047
0 0.053905249 0.027943779 -0.14741376 0.38593423 0.23852047
0 0.05229187 0.027068997 -0.14741376 0.38593423 0.23852047
0 0.050665252 0.026187036 -0.14741376 0.38593423 0.23852047
0 0.049025226 0.0252978 -0.14741376 0.38593423 0.23852047
0 0.047371618 0.024401199 -0.14741376 0.38593423 0.23852047
0 0.045704253 0.023497134 -0.14741376 0.38593423 0.23852047
0 0.044022944 0.022585507 -0.14741376 0.38593423 0.23852047
0 0.042327512 0.021666218 -0.14741376 0.38593423 0.23852047
0 0.040617768 0.020739168 -0.14741376 0.38593423 0.23852047
0 0.038893521 0.01980425 -0.14741376 0.38593423 0.23852047
0 0.037154578 0.018861361 -0.14741376 0.38593423 0.23852047
0 0.035400741 0.017910395 -0.14741376 0.38593423 0.23852047
0 0.033631813 0.016951242 -0.14741376 0.38593423 0.23852047
0 0.031847589 0.01598379 -0.14741376 0.38593423 0.23852047
0 0.030047854 0.015007929 -0.14741376 0.38593423 0.23852047
0 0.028232405 0.014023541 -0.14741376 0.38593423 0.23852047
0 0.026401021 0.013030512 -0.14741376 0.38593423 0.23852047
0 0.024553483 0.01202872 -0.14741376 0.38593423 0.23852047
0 0.022689568 0.011018046 -0.14741376 0.38593423 0.23852047
0 0.020809051 0.0099983644 -0.14741376 0.38593423 0.23852047
0 0.018911693 0.008969551 -0.14741376 0.38593423 0.23852047
0 0.016997265 0.0079314765 -0.14741376 0.38593423 0.23852047
0 0.015065521 0.006884011 -0.14741376 0.38593423 0.23852047
0 0.013116218 0.0058270204 -0.14741376 0.38593423 0.23852047
0 0.011149106 0.0047603701 -0.14741376 0.38593423 0.23852047
0 0.0091639282 0.0036839212 -0.14741376 0.38593423 0.23852047
0 0.007160427 0.0025975332 -0.14741376 0.38593423 0.23852047
0 0.0051383367 0.0015010622 -0.14741376 0.38593423 0.23852047
0 0.0030973873 0.000394362 -0.14741376 0.38593423 0.23852047
0.039570607 0.079999998 0.033142719 -0.14741376 0.38593423 0.23852047
0.038822271 0.079999998 0.033298749 -0.14741376 0.38593423 0.23852047
0.03807544 0.079999998 0.033454463 -0.14741376 0.38593423 0.23852047
0.037330102 0.079999998 0.03360986 -0.14741376 0.38593423 0.23852047
0.036586251 0.079999998 0.03376494 -0.14741376 0.38593423 0.23852047
0.035843879 0.079999998 0.033919707 -0.14741376 0.38593423 0.23852047
0.035102975 0.079999998 0.034074165 -0.14741376 0.38593423 0.23852047
0.034363534 0.079999998 0.034228314 -0.14741376 0.38593423 0.23852047
0.033625551 0.079999998 0.034382153 -0.14741376 0.38593423 0.23852047
0.032889012 0.079999998 0.034535687 -0.14741376 0.38593423 0.23852047
0.032153916 0.079999998 0.034688916 -0.14741376 0.38593423 0.23852047
0.031420246 0.079999998 0.034841847 -0.14741376 0.38593423 0.23852047
0.030688003 0.079999998 0.034994472 -0.14741376 0.38593423 0.23852047
0.029957175 0.079999998 0.035146799 -0.14741376 0.38593423 0.23852047
0.029227756 0.079999998 0.035298824 -0.14741376 0.38593423 0.23852047
0.028499737 0.079999998 0.035450559 -0.14741376 0.38593423 0.23852047
0.02777311 0.079999998 0.035601996 -0.14741376 0.38593423 0.23852047
0.027047871 0.079999998 0.035753138 -0.14741376 0.38593423 0.23852047
0.026324008 0.079999998 0.035903994 -0.14741376 0.38593423 0.23852047
0.025601516 0.079999998 0.036054555 -0.14741376 0.38593423 0.23852047
0.024880389 0.079999998 0.03620483 -0.14741376 0.38593423 0.23852047
0.024160616 0.079999998 0.036354817 -0.14741376 0.38593423 0.23852047
0.023442192 0.079999998 0.036504518 -0.14741376 0.38593423 0.23852047
0.022725111 0.079999998 0.036653936 -0.14741376 0.38593423 0.23852047
0.022009363 0.079999998 0.03680307 -0.14741376 0.38593423 0.23852047
0.021294942 0.079999998 0.036951926 -0.14741376 0.38593423 0.23852047
0.020581841 0.079999998 0.037100501 -0.14741376 0.38593423 0.23852047
0.019870054 0.079999998 0.037248798 -0.14741376 0.38593423 0.23852047
0.019159572 0.079999998 0.037396818 -0.14741376 0.38593423 0.23852047
0.018450389 0.079999998 0.037544563 -0.14741376 0.38593423 0.23852047
0.017742498 0.079999998 0.037692036 -0.14741376 0.38593423 0.23852047
0.01703589 0.079999998 0.037839238 -0.14741376 0.38593423 0.23852047
0.016330563 0.079999998 0.037986167 -0.14741376 0.38593423 0.23852047
0.015626505 0.079999998 0.038132828 -0.14741376 0.38593423 0.23852047
0.014923711 0.079999998 0.03827922 -0.14741376 0.38593423 0.23852047
0.014222176 0.079999998 0.038425345 -0.14741376 0.38593423 0.23852047
0.01352189 0.079999998 0.038571209 -0.14741376 0.38593423 0.23852047
0.012822849 0.079999998 0.038716808 -0.14741376 0.38593423 0.23852047
0.012125045 0.079999998 0.038862143 -0.14741376 0.38593423 0.23852047
0.011428472 0.079999998 0.03900722 -0.14741376 0.38593423 0.23852047
0.010733122 0.079999998 0.039152034 -0.14741376 0.38593423 0.23852047
0.01003899 0.079999998 0.039296594 -0.14741376 0.38593423 0.23852047
0.0093460688 0.079999998 0.039440896 -0.14741376 0.38593423 0.23852047
0.0086543513 0.079999998 0.039584942 -0.14741376 0.38593423 0.23852047
0.0079638325 0.079999998 0.039728738 -0.14741376 0.38593423 0.23852047
0.0072745052 0.079999998 0.039872278 -0.14741376 0.38593423 0.23852047
0.0065984405 0.079976007 0.039999999 -0.14741376 0.38593423 0.23852047
0.0060219867 0.079755373 0.039999999 -0.14741376 0.38593423 0.23852047
0.0054456834 0.079534814 0.039999999 -0.14741376 0.38593423 0.23852047
0.0048695276 0.079314314 0.039999999 -0.14741376 0.38593423 0.23852047
0.0042935172 0.079093881 0.039999999 -0.14741376 0.38593423 0.23852047
0.0037176488 0.078873508 0.039999999 -0.14741376 0.38593423 0.23852047
0.0031419198 0.078653194 0.039999999 -0.14741376 0.38593423 0.23852047
0.0025663273 0.07843294 0.039999999 -0.14741376 0.38593423 0.23852047
0.0019908685 0.078212753 0.039999999 -0.14741376 0.38593423 0.23852047
0.0014155406 0.077992618 0.039999999 -0.14741376 0.38593423 0.23852047
0.00084034086 0.077772535 0.039999999 -0.14741376 0.38593423 0.23852047
0.00026526651 0.077552512 0.039999999 -0.14741376 0.38593423 0.23852047
0 0.076682873 0.03958207 -0.14741376 0.38593423 0.23852047
2.7755576e-17 0.07524845 0.03880164 -0.14741376 0.38593423 0.23852047
2.7755576e-17 0.073803023 0.03801522 -0.14741376 0.38593423 0.23852047
0 0.072346471 0.037222743 -0.14741376 0.38593423 0.23852047
0 0.070878647 0.03642413 -0.14741376 0.38593423 0.23852047
0 0.069399424 0.035619307 -0.14741376 0.38593423 0.23852047
0 0.06790866 0.0348082 -0.14741376 0.38593423 0.23852047
0 0.066406198 0.03399073 -0.14741376 0.38593423 0.23852047
2.7755576e-17 0.064891912 0.033166818 -0.14741376 0.38593423 0.23852047
0 0.063365638 0.03233638 -0.14741376 0.38593423 0.23852047
0 0.061827242 0.031499341 -0.14741376 0.38593423 0.23852047
0 0.060276557 0.030655611 -0.14741376 0.38593423 0.23852047
0 0.058713432 0.029805109 -0.14741376 0.38593423 0.23852047
0 0.057137713 0.02894775 -0.14741376 0.38593423 0.23852047
0 0.055549234 0.028083444 -0.14741376 0.38593423 0.23852047
0 0.053947836 0.027212102 -0.14741376 0.38593423 0.23852047
0 0.052333351 0.026333636 -0.14741376 0.38593423 0.23852047
0 0.050705608 0.025447952 -0.14741376 0.38593423 0.23852047
0 0.049064439 0.024554957 -0.14741376 0.38593423 0.23852047
0 0.047409665 0.023654554 -0.14741376 0.38593423 0.23852047
0 0.045741111 0.022746651 -0.14741376 0.38593423 0.23852047
0 0.044058595 0.021831144 -0.14741376 0.38593423 0.23852047
0 0.042361934 0.020907937 -0.14741376 0.38593423 0.23852047
0 0.040650938 0.019976923 -0.14741376 0.38593423 0.23852047
0 0.038925417 0.019038003 -0.14741376 0.38593423 0.23852047
0 0.037185181 0.01809107 -0.14741376 0.38593423 0.23852047
0 0.035430025 0.017136015 -0.14741376 0.38593423 0.23852047
0 0.033659752 0.016172728 -0.14741376 0.38593423 0.23852047
0 0.031874157 0.0152011 -0.14741376 0.38593423 0.23852047
0 0.030073034 0.014221015 -0.14741376 0.38593423 0.23852047
0 0.028256165 0.01323236 -0.14741376 0.38593423 0.23852047
0 0.026423337 0.012235015 -0.14741376 0.38593423 0.23852047
0 0.02457433 0.01122886 -0.14741376 0.38593423 0.23852047
0 0.022708919 0.010213775 -0.14741376 0.38593423 0.23852047
0 0.020826876 0.0091896337 -0.14741376 0.38593423 0.23852047
0 0.018927967 0.0081563098 -0.14741376 0.38593423 0.23852047
0 0.017011955 0.0071136751 -0.14741376 0.38593423 0.23852047
0 0.015078602 0.0060615977 -0.14741376 0.38593423 0.23852047
0 0.013127659 0.0049999431 -0.14741376 0.38593423 0.23852047
0 0.0091719944 0.0028473556 -0.14741376 0.38593423 0.23852047
0 0.0071667586 0.0017561412 -0.14741376 0.38593423 0.23852047
0.00040579549 0.0040946724 0 -0.14741376 0.38593423 0.23852047
0.039639395 0.079999998 0.03238485 -0.14741376 0.38593423 0.23852047
0.038890257 0.079999998 0.032541797 -0.14741376 0.38593423 0.23852047
0.038142625 0.079999998 0.032698419 -0.14741376 0.38593423 0.23852047
0.037396494 0.079999998 0.032854721 -0.14741376 0.38593423 0.23852047
0.03665185 0.079999998 0.033010706 -0.14741376 0.38593423 0.23852047
0.035908688 0.079999998 0.033166375 -0.14741376 0.38593423 0.23852047
0.035166997 0.079999998 0.033321731 -0.14741376 0.38593423 0.23852047
0.034426775 0.079999998 0.03347677 -0.14741376 0.38593423 0.23852047
0.033688009 0.079999998 0.0336315 -0.14741376 0.38593423 0.23852047
0.032950696 0.079999998 0.033785921 -0.14741376 0.38593423 0.23852047
0.032214824 0.079999998 0.033940028 -0.14741376 0.38593423 0.23852047
0.031480383 0.079999998 0.034093834 -0.14741376 0.38593423 0.23852047
0.030747371 0.079999998 0.034247335 -0.14741376 0.38593423 0.23852047
0.030015778 0.079999998 0.03440053 -0.14741376 0.38593423 0.23852047
0.029285597 0.079999998 0.034553424 -0.14741376 0.38593423 0.23852047
0.028556818 0.079999998 0.034706019 -0.14741376 0.38593423 0.23852047
0.027829437 0.079999998 0.034858312 -0.14741376 0.38593423 0.23852047
0.027103443 0.079999998 0.035010312 -0.14741376 0.38593423 0.23852047
0.026378829 0.079999998 0.035162017 -0.14741376 0.38593423 0.23852047
0.02565559 0.079999998 0.035313424 -0.14741376 0.38593423 0.23852047
0.024933718 0.079999998 0.035464544 -0.14741376 0.38593423 0.23852047
0.024213204 0.079999998 0.03561537 -0.14741376 0.38593423 0.23852047
0.023494042 0.079999998 0.035765909 -0.14741376 0.38593423 0.23852047
0.022776224 0.079999998 0.035916157 -0.14741376 0.38593423 0.23852047
0.022059742 0.079999998 0.036066122 -0.14741376 0.38593423 0.23852047
0.021344591 0.079999998 0.036215801 -0.14741376 0.38593423 0.23852047
0.020630762 0.079999998 0.0363652 -0.14741376 0.38593423 0.23852047
0.01991825 0.079999998 0.036514312 -0.14741376 0.38593423 0.23852047
0.019207045 0.079999998 0.036663149 -0.14741376 0.38593423 0.23852047
0.018497141 0.079999998 0.036811706 -0.14741376 0.38593423 0.23852047
0.017788533 0.079999998 0.036959987 -0.14741376 0.38593423 0.23852047
0.017081212 0.079999998 0.037107989 -0.14741376 0.38593423 0.23852047
0.016375171 0.079999998 0.037255719 -0.14741376 0.38593423 0.23852047
0.015670404 0.079999998 0.037403177 -0.14741376 0.38593423 0.23852047
0.014966903 0.079999998 0.037550364 -0.14741376 0.38593423 0.23852047
0.014264664 0.079999998 0.037697282 -0.14741376 0.38593423 0.23852047
0.013563677 0.079999998 0.037843931 -0.14741376 0.38593423 0.23852047
0.012863936 0.079999998 0.037990313 -0.14741376 0.38593423 0.23852047
0.012165436 0.079999998 0.03813643 -0.14741376 0.38593423 0.23852047
0.011468167 0.079999998 0.038282283 -0.14741376 0.38593423 0.23852047
0.010772127 0.079999998 0.038427871 -0.14741376 0.38593423 0.23852047
0.010077305 0.079999998 0.038573202 -0.14741376 0.38593423 0.23852047
0.0093836971 0.079999998 0.038718268 -0.14741376 0.38593423 0.23852047
0.008691296 0.079999998 0.038863078 -0.14741376 0.38593423 0.23852047
0.0080000944 0.079999998 0.039007634 -0.14741376 0.38593423 0.23852047
0.0073100878 0.079999998 0.039151929 -0.14741376 0.38593423 0.23852047
0.0066212681 0.079999998 0.039295975 -0.14741376 0.38593423 0.23852047
0.0059336293 0.079999998 0.039439764 -0.14741376 0.38593423 0.23852047
0.005247165 0.079999998 0.039583303 -0.14741376 0.38593423 0.23852047
0.0045618694 0.079999998 0.039726593 -0.14741376 0.38593423 0.23852047
0.0038777355 0.079999998 0.039869629 -0.14741376 0.38593423 0.23852047
0.003204183 0.07998085 0.039999999 -0.14741376 0.38593423 0.23852047
0.0026300556 0.079760991 0.039999999 -0.14741376 0.38593423 0.23852047
0.0020560632 0.079541199 0.039999999 -0.14741376 0.38593423 0.23852047
0.0014822024 0.079321466 0.039999999 -0.14741376 0.38593423 0.23852047
0.00090847065 0.079101793 0.039999999 -0.14741376 0.38593423 0.23852047
0.00033486515 0.078882173 0.039999999 -0.14741376 0.38593423 0.23852047
0 0.078164436 0.039678134 -0.14741376 0.38593423 0.23852047
0 0.076740034 0.038900461 -0.14741376 0.38593423 0.23852047
0 0.075304747 0.038116843 -0.14741376 0.38593423 0.23852047
0 0.073858455 0.037327204 -0.14741376 0.38593423 0.23852047
2.7755576e-17 0.072401017 0.036531474 -0.14741376 0.38593423 0.23852047
2.7755576e-17 0.070932291 0.035729583 -0.14741376 0.38593423 0.23852047
0 0.069452152 0.034921449 -0.14741376 0.38593423 0.23852047
0 0.067960456 0.034106996 -0.14741376 0.38593423 0.23852047
2.7755576e-17 0.066457056 0.033286151 -0.14741376 0.38593423 0.23852047
0 0.064941801 0.032458827 -0.14741376 0.38593423 0.23852047
2.7755576e-17 0.063414551 0.031624943 -0.14741376 0.38593423 0.23852047
0 0.06187515 0.030784424 -0.14741376 0.38593423 0.23852047
0 0.060323451 0.029937182 -0.14741376 0.38593423 0.23852047
0 0.058759294 0.029083131 -0.14741376 0.38593423 0.23852047
0 0.057182524 0.028222185 -0.14741376 0.38593423 0.23852047
0 0.055592977 0.027354259 -0.14741376 0.38593423 0.23852047
0 0.053990491 0.026479259 -0.14741376 0.38593423 0.23852047
0 0.052374896 0.025597097 -0.14741376 0.38593423 0.23852047
0 0.050746027 0.024707681 -0.14741376 0.38593423 0.23852047
0 0.049103711 0.023810914 -0.14741376 0.38593423 0.23852047
0 0.047447771 0.0229067 -0.14741376 0.38593423 0.23852047
0 0.045778029 0.021994947 -0.14741376 0.38593423 0.23852047
0 0.044094305 0.021075549 -0.14741376 0.38593423 0.23852047
0 0.042396411 0.02014841 -0.14741376 0.38593423 0.23852047
0 0.040684164 0.019213425 -0.14741376 0.38593423 0.23852047
0 0.038957369 0.018270489 -0.14741376 0.38593423 0.23852047
0 0.037215833 0.017319499 -0.14741376 0.38593423 0.23852047
0 0.035459358 0.016360343 -0.14741376 0.38593423 0.23852047
0 0.033687741 0.015392911 -0.14741376 0.38593423 0.23852047
0 0.031900775 0.014417092 -0.14741376 0.38593423 0.23852047
0 0.030098256 0.013432772 -0.14741376 0.38593423 0.23852047
0 0.028279968 0.012439835 -0.14741376 0.38593423 0.23852047
0 0.026445692 0.011438161 -0.14741376 0.38593423 0.23852047
0 0.024595214 0.010427631 -0.14741376 0.38593423 0.23852047
0 0.022728303 0.0094081201 -0.14741376 0.38593423 0.23852047
0 0.020844731 0.0083795059 -0.14741376 0.38593423 0.23852047
0 0.018944267 0.0073416582 -0.14741376 0.38593423 0.23852047
0 0.017026674 0.0062944489 -0.14741376 0.38593423 0.23852047
0 0.015091706 0.0052377451 -0.14741376 0.38593423 0.23852047
0.0026239641 0.0065033678 0 -0.14741376 0.38593423 0.23852047
0 0.011168661 0.003095312 -0.14741376 0.38593423 0.23852047
0 0.0091800755 0.0020093056 -0.14741376 0.38593423 0.23852047
0 0.0071731019 0.00091324985 -0.14741376 0.38593423 0.23852047
0.03970832 0.079999998 0.031625476 -0.14741376 0.38593423 0.23852047
0.038958378 0.079999998 0.031783342 -0.14741376 0.38593423 0.23852047
0.038209949 0.079999998 0.031940881 -0.14741376 0.38593423 0.23852047
0.037463017 0.079999998 0.032098096 -0.14741376 0.38593423 0.23852047
0.036717579 0.079999998 0.03225499 -0.14741376 0.38593423 0.23852047
0.035973623 0.079999998 0.03241156 -0.14741376 0.38593423 0.23852047
0.035231147 0.079999998 0.032567814 -0.14741376 0.38593423 0.23852047
0.034490138 0.079999998 0.032723751 -0.14741376 0.38593423 0.23852047
0.033750594 0.079999998 0.032879371 -0.14741376 0.38593423 0.23852047
0.033012498 0.079999998 0.033034679 -0.14741376 0.38593423 0.23852047
0.032275848 0.079999998 0.033189673 -0.14741376 0.38593423 0.23852047
0.03154064 0.079999998 0.033344358 -0.14741376 0.38593423 0.23852047
0.030806856 0.079999998 0.033498734 -0.14741376 0.38593423 0.23852047
0.030074496 0.079999998 0.033652801 -0.14741376 0.38593423 0.23852047
0.029343551 0.079999998 0.033806566 -0.14741376 0.38593423 0.23852047
0.028614011 0.079999998 0.033960026 -0.14741376 0.38593423 0.23852047
0.027885871 0.079999998 0.03411318 -0.14741376 0.38593423 0.23852047
0.027159123 0.079999998 0.034266036 -0.14741376 0.38593423 0.23852047
0.026433758 0.079999998 0.034418594 -0.14741376 0.38593423 0.23852047
0.025709771 0.079999998 0.034570854 -0.14741376 0.38593423 0.23852047
0.024987152 0.079999998 0.03472282 -0.14741376 0.38593423 0.23852047
0.024265895 0.079999998 0.034874488 -0.14741376 0.38593423 0.23852047
0.023545992 0.079999998 0.035025865 -0.14741376 0.38593423 0.23852047
0.022827435 0.079999998 0.035176951 -0.14741376 0.38593423 0.23852047
0.022110218 0.079999998 0.035327747 -0.14741376 0.38593423 0.23852047
0.021394335 0.079999998 0.035478253 -0.14741376 0.38593423 0.23852047
0.020679777 0.079999998 0.035628475 -0.14741376 0.38593423 0.23852047
0.019966537 0.079999998 0.035778411 -0.14741376 0.38593423 0.23852047
0.019254608 0.079999998 0.035928067 -0.14741376 0.38593423 0.23852047
0.018543985 0.079999998 0.036077436 -0.14741376 0.38593423 0.23852047
0.017834656 0.079999998 0.036226526 -0.14741376 0.38593423 0.23852047
0.01712662 0.079999998 0.036375336 -0.14741376 0.38593423 0.23852047
0.016419865 0.079999998 0.036523871 -0.14741376 0.38593423 0.23852047
0.015714386 0.079999998 0.03667213 -0.14741376 0.38593423 0.23852047
0.015010179 0.079999998 0.036820114 -0.14741376 0.38593423 0.23852047
0.014307233 0.079999998 0.036967821 -0.14741376 0.38593423 0.23852047
0.013605542 0.079999998 0.037115261 -0.14741376 0.38593423 0.23852047
0.012905102 0.079999998 0.037262429 -0.14741376 0.38593423 0.23852047
0.012205902 0.079999998 0.037409328 -0.14741376 0.38593423 0.23852047
0.01150794 0.079999998 0.037555959 -0.14741376 0.38593423 0.23852047
0.010811205 0.079999998 0.037702326 -0.14741376 0.38593423 0.23852047
0.010115693 0.079999998 0.037848428 -0.14741376 0.38593423 0.23852047
0.009421397 0.079999998 0.037994266 -0.14741376 0.38593423 0.23852047
0.0087283105 0.079999998 0.038139842 -0.14741376 0.38593423 0.23852047
0.0080364263 0.079999998 0.038285159 -0.14741376 0.38593423 0.23852047
0.0073457379 0.079999998 0.038430214 -0.14741376 0.38593423 0.23852047
0.0066562397 0.079999998 0.038575012 -0.14741376 0.38593423 0.23852047
0.0059679244 0.079999998 0.038719557 -0.14741376 0.38593423 0.23852047
0.0052807867 0.079999998 0.038863845 -0.14741376 0.38593423 0.23852047
0.0045948192 0.079999998 0.03900788 -0.14741376 0.38593423 0.23852047
0.0039100163 0.079999998 0.039151661 -0.14741376 0.38593423 0.23852047
0.0032263712 0.079999998 0.039295193 -0.14741376 0.38593423 0.23852047
0.002543878 0.079999998 0.039438475 -0.14741376 0.38593423 0.23852047
0.0018625304 0.079999998 0.039581511 -0.14741376 0.38593423 0.23852047
0.0011823222 0.079999998 0.039724298 -0.14741376 0.38593423 0.23852047
0.00050324725 0.079999998 0.039866839 -0.14741376 0.38593423 0.23852047
0 0.079637006 0.039773598 -0.14741376 0.38593423 0.23852047
0 0.078222521 0.038998663 -0.14741376 0.38593423 0.23852047
2.7755576e-17 0.076797269 0.03821782 -0.14741376 0.38593423 0.23852047
0 0.075361133 0.037431005 -0.14741376 0.38593423 0.23852047
2.7755576e-17 0.073913969 0.036638141 -0.14741376 0.38593423 0.23852047
2.7755576e-17 0.072455645 0.035839155 -0.14741376 0.38593423 0.23852047
2.7755576e-17 0.070986025 0.035033975 -0.14741376 0.38593423 0.23852047
0 0.069504969 0.034222517 -0.14741376 0.38593423 0.23852047
2.7755576e-17 0.068012334 0.033404712 -0.14741376 0.38593423 0.23852047
0 0.06650798 0.032580476 -0.14741376 0.38593423 0.23852047
2.7755576e-17 0.064991765 0.031749733 -0.14741376 0.38593423 0.23852047
0 0.063463531 0.030912396 -0.14741376 0.38593423 0.23852047
0 0.061923139 0.030068386 -0.14741376 0.38593423 0.23852047
0 0.060370423 0.029217619 -0.14741376 0.38593423 0.23852047
0 0.058805231 0.028360011 -0.14741376 0.38593423 0.23852047
0 0.057227407 0.02749547 -0.14741376 0.38593423 0.23852047
0 0.05563679 0.026623912 -0.14741376 0.38593423 0.23852047
0 0.054033212 0.025745243 -0.14741376 0.38593423 0.23852047
0 0.052416511 0.024859376 -0.14741376 0.38593423 0.23852047
0 0.050786514 0.023966216 -0.14741376 0.38593423 0.23852047
0 0.04914305 0.023065666 -0.14741376 0.38593423 0.23852047
0 0.04748594 0.022157632 -0.14741376 0.38593423 0.23852047
0 0.04581501 0.021242015 -0.14741376 0.38593423 0.23852047
0 0.044130072 0.020318717 -0.14741376 0.38593423 0.23852047
0 0.042430948 0.019387634 -0.14741376 0.38593423 0.23852047
0 0.040717445 0.018448664 -0.14741376 0.38593423 0.23852047
0 0.038989373 0.017501703 -0.14741376 0.38593423 0.23852047
0 0.037246536 0.016546641 -0.14741376 0.38593423 0.23852047
0 0.035488736 0.015583371 -0.14741376 0.38593423 0.23852047
0 0.033715773 0.014611782 -0.14741376 0.38593423 0.23852047
0 0.031927437 0.013631761 -0.14741376 0.38593423 0.23852047
0 0.030123521 0.012643193 -0.14741376 0.38593423 0.23852047
0 0.028303809 0.011645961 -0.14741376 0.38593423 0.23852047
0 0.026468087 0.010639945 -0.14741376 0.38593423 0.23852047
0 0.024616132 0.0096250251 -0.14741376 0.38593423 0.23852047
0 0.02274772 0.008601076 -0.14741376 0.38593423 0.23852047
0 0.020862618 0.0075679738 -0.14741376 0.38593423 0.23852047
0 0.018960597 0.0065255882 -0.14741376 0.38593423 0.23852047
0.003462448 0.0083768787 0 -0.14741376 0.38593423 0.23852047
0.0027784402 0.008115476 0 -0.14741376 0.38593423 0.23852047
0 0.013150599 0.0033414185 -0.14741376 0.38593423 0.23852047
0 0.011178464 0.0022605716 -0.14741376 0.38593423 0.23852047
4.2564425e-05 0.0070700943 0 -0.14741376 0.38593423 0.23852047
0.039777387 0.079999998 0.030864595 -0.14741376 0.38593423 0.23852047
0.039026637 0.079999998 0.031023383 -0.14741376 0.38593423 0.23852047
0.038277403 0.079999998 0.03118184 -0.14741376 0.38593423 0.23852047
0.03752967 0.079999998 0.031339969 -0.14741376 0.38593423 0.23852047
0.036783434 0.079999998 0.031497773 -0.14741376 0.38593423 0.23852047
0.036038689 0.079999998 0.031655252 -0.14741376 0.38593423 0.23852047
0.035295423 0.079999998 0.031812411 -0.14741376 0.38593423 0.23852047
0.034553628 0.079999998 0.031969246 -0.14741376 0.38593423 0.23852047
0.033813298 0.079999998 0.03212576 -0.14741376 0.38593423 0.23852047
0.033074424 0.079999998 0.032281958 -0.14741376 0.38593423 0.23852047
0.032336995 0.079999998 0.032437839 -0.14741376 0.38593423 0.23852047
0.031601012 0.079999998 0.032593407 -0.14741376 0.38593423 0.23852047
0.030866457 0.079999998 0.032748662 -0.14741376 0.38593423 0.23852047
0.030133329 0.079999998 0.032903608 -0.14741376 0.38593423 0.23852047
0.029401619 0.079999998 0.033058241 -0.14741376 0.38593423 0.23852047
0.028671317 0.079999998 0.033212569 -0.14741376 0.38593423 0.23852047
0.027942417 0.079999998 0.033366591 -0.14741376 0.38593423 0.23852047
0.027214913 0.079999998 0.033520307 -0.14741376 0.38593423 0.23852047
0.026488794 0.079999998 0.033673722 -0.14741376 0.38593423 0.23852047
0.025764056 0.079999998 0.033826835 -0.14741376 0.38593423 0.23852047
0.025040688 0.079999998 0.033979647 -0.14741376 0.38593423 0.23852047
0.024318686 0.079999998 0.034132164 -0.14741376 0.38593423 0.23852047
0.023598041 0.079999998 0.034284383 -0.14741376 0.38593423 0.23852047
0.022878746 0.079999998 0.034436308 -0.14741376 0.38593423 0.23852047
0.022160793 0.079999998 0.034587938 -0.14741376 0.38593423 0.23852047
0.021444175 0.079999998 0.034739278 -0.14741376 0.38593423 0.23852047
0.020728886 0.079999998 0.034890324 -0.14741376 0.38593423 0.23852047
0.020014919 0.079999998 0.035041086 -0.14741376 0.38593423 0.23852047
0.019302264 0.079999998 0.035191558 -0.14741376 0.38593423 0.23852047
0.018590918 0.079999998 0.035341747 -0.14741376 0.38593423 0.23852047
0.01788087 0.079999998 0.035491649 -0.14741376 0.38593423 0.23852047
0.017172115 0.079999998 0.035641272 -0.14741376 0.38593423 0.23852047
0.016464645 0.079999998 0.035790611 -0.14741376 0.38593423 0.23852047
0.015758455 0.079999998 0.035939671 -0.14741376 0.38593423 0.23852047
0.015053538 0.079999998 0.036088455 -0.14741376 0.38593423 0.23852047
0.014349884 0.079999998 0.03623696 -0.14741376 0.38593423 0.23852047
0.01364749 0.079999998 0.03638519 -0.14741376 0.38593423 0.23852047
0.012946347 0.079999998 0.036533147 -0.14741376 0.38593423 0.23852047
0.012246449 0.079999998 0.036680833 -0.14741376 0.38593423 0.23852047
0.011547788 0.079999998 0.036828246 -0.14741376 0.38593423 0.23852047
0.01085036 0.079999998 0.036975391 -0.14741376 0.38593423 0.23852047
0.010154155 0.079999998 0.037122268 -0.14741376 0.38593423 0.23852047
0.0094591696 0.079999998 0.037268877 -0.14741376 0.38593423 0.23852047
0.0087653957 0.079999998 0.037415221 -0.14741376 0.38593423 0.23852047
0.0080728261 0.079999998 0.037561305 -0.14741376 0.38593423 0.23852047
0.007381456 0.079999998 0.037707124 -0.14741376 0.38593423 0.23852047
0.0066912775 0.079999998 0.037852682 -0.14741376 0.38593423 0.23852047
0.0060022851 0.079999998 0.03799798 -0.14741376 0.38593423 0.23852047
0.0053144721 0.079999998 0.03814302 -0.14741376 0.38593423 0.23852047
0.0046278317 0.079999998 0.038287804 -0.14741376 0.38593423 0.23852047
0.0039423583 0.079999998 0.03843233 -0.14741376 0.38593423 0.23852047
0.0032580448 0.079999998 0.038576603 -0.14741376 0.38593423 0.23852047
0.0025748857 0.079999998 0.038720626 -0.14741376 0.38593423 0.23852047
0.0018928744 0.079999998 0.038864397 -0.14741376 0.38593423 0.23852047
0.0012120047 0.079999998 0.039007913 -0.14741376 0.38593423 0.23852047
0.00053227047 0.079999998 0.039151184 -0.14741376 0.38593423 0.23852047
2.7755576e-17 0.079696 0.039096244 -0.14741376 0.38593423 0.23852047
0 0.078280687 0.038318165 -0.14741376 0.38593423 0.23852047
2.7755576e-17 0.076854602 0.037534148 -0.14741376 0.38593423 0.23852047
0 0.075417601 0.036744129 -0.14741376 0.38593423 0.23852047
2.7755576e-17 0.073969565 0.035948027 -0.14741376 0.38593423 0.23852047
0 0.072510354 0.035145774 -0.14741376 0.38593423 0.23852047
0 0.071039833 0.034337293 -0.14741376 0.38593423 0.23852047
2.7755576e-17 0.06955786 0.033522505 -0.14741376 0.38593423 0.23852047
2.7755576e-17 0.068064295 0.032701336 -0.14741376 0.38593423 0.23852047
2.7755576e-17 0.066558994 0.031873703 -0.14741376 0.38593423 0.23852047
0 0.06504181 0.03103953 -0.14741376 0.38593423 0.23852047
0 0.063512594 0.030198731 -0.14741376 0.38593423 0.23852047
0 0.061971199 0.029351221 -0.14741376 0.38593423 0.23852047
0 0.060417466 0.028496921 -0.14741376 0.38593423 0.23852047
0 0.058851238 0.027635742 -0.14741376 0.38593423 0.23852047
0 0.057272363 0.026767597 -0.14741376 0.38593423 0.23852047
0 0.055680674 0.025892397 -0.14741376 0.38593423 0.23852047
0 0.054076005 0.025010049 -0.14741376 0.38593423 0.23852047
0 0.052458193 0.024120465 -0.14741376 0.38593423 0.23852047
0 0.050827064 0.023223549 -0.14741376 0.38593423 0.23852047
0 0.049182449 0.022319207 -0.14741376 0.38593423 0.23852047
0 0.047524169 0.02140734 -0.14741376 0.38593423 0.23852047
0 0.04585205 0.020487851 -0.14741376 0.38593423 0.23852047
0 0.044165902 0.019560637 -0.14741376 0.38593423 0.23852047
0 0.042465542 0.0186256 -0.14741376 0.38593423 0.23852047
0 0.040750783 0.017682634 -0.14741376 0.38593423 0.23852047
0 0.039021432 0.016731633 -0.14741376 0.38593423 0.23852047
0 0.037277292 0.01577249 -0.14741376 0.38593423 0.23852047
0 0.035518169 0.014805094 -0.14741376 0.38593423 0.23852047
0 0.033743855 0.013829335 -0.14741376 0.38593423 0.23852047
0 0.031954143 0.012845098 -0.14741376 0.38593423 0.23852047
0 0.030148827 0.011852269 -0.14741376 0.38593423 0.23852047
0 0.028327692 0.010850729 -0.14741376 0.38593423 0.23852047
0 0.026490519 0.009840358 -0.14741376 0.38593423 0.23852047
0 0.024637088 0.0088210348 -0.14741376 0.38593423 0.23852047
0 0.022767169 0.0077926344 -0.14741376 0.38593423 0.23852047
0 0.020880537 0.0067550302 -0.14741376 0.38593423 0.23852047
0 0.018976955 0.0057080928 -0.14741376 0.38593423 0.23852047
2.7755576e-17 0.017056186 0.0046516908 -0.14741376 0.38593423 0.23852047
0 0.015117982 0.0035856906 -0.14741376 0.38593423 0.23852047
0 0.0131621 0.0025099555 -0.14741376 0.38593423 0.23852047
0 0.011188284 0.0014243464 -0.14741376 0.38593423 0.23852047
0 0.0091962796 0.00032872127 -0.14741376 0.38593423 0.23852047
0.039846588 0.079999998 0.030102195 -0.14741376 0.38593423 0.23852047
0.039095029 0.079999998 0.03026191 -0.14741376 0.38593423 0.23852047
0.03834499 0.079999998 0.030421291 -0.14741376 0.38593423 0.23852047
0.037596457 0.079999998 0.030580338 -0.14741376 0.38593423 0.23852047
0.036849424 0.079999998 0.030739056 -0.14741376 0.38593423 0.23852047
0.036103882 0.079999998 0.030897444 -0.14741376 0.38593423 0.23852047
0.035359826 0.079999998 0.031055506 -0.14741376 0.38593423 0.23852047
0.034617241 0.079999998 0.031213244 -0.14741376 0.38593423 0.23852047
0.033876125 0.079999998 0.031370658 -0.14741376 0.38593423 0.23852047
0.033136468 0.079999998 0.03152775 -0.14741376 0.38593423 0.23852047
0.032398265 0.079999998 0.031684522 -0.14741376 0.38593423 0.23852047
0.031661503 0.079999998 0.031840976 -0.14741376 0.38593423 0.23852047
0.030926175 0.079999998 0.031997114 -0.14741376 0.38593423 0.23852047
0.030192278 0.079999998 0.032152936 -0.14741376 0.38593423 0.23852047
0.029459801 0.079999998 0.032308448 -0.14741376 0.38593423 0.23852047
0.028728735 0.079999998 0.032463647 -0.14741376 0.38593423 0.23852047
0.027999075 0.079999998 0.032618534 -0.14741376 0.38593423 0.23852047
0.027270811 0.079999998 0.032773115 -0.14741376 0.38593423 0.23852047
0.026543938 0.079999998 0.03292739 -0.14741376 0.38593423 0.23852047
0.025818447 0.079999998 0.033081356 -0.14741376 0.38593423 0.23852047
0.02509433 0.079999998 0.033235025 -0.14741376 0.38593423 0.23852047
0.024371581 0.079999998 0.033388387 -0.14741376 0.38593423 0.23852047
0.023650194 0.079999998 0.033541452 -0.14741376 0.38593423 0.23852047
0.022930156 0.079999998 0.033694219 -0.14741376 0.38593423 0.23852047
0.022211466 0.079999998 0.033846688 -0.14741376 0.38593423 0.23852047
0.021494113 0.079999998 0.033998858 -0.14741376 0.38593423 0.23852047
0.020778092 0.079999998 0.034150738 -0.14741376 0.38593423 0.23852047
0.020063395 0.079999998 0.034302328 -0.14741376 0.38593423 0.23852047
0.019350013 0.079999998 0.034453623 -0.14741376 0.38593423 0.23852047
0.018637942 0.079999998 0.034604631 -0.14741376 0.38593423 0.23852047
0.017927172 0.079999998 0.034755349 -0.14741376 0.38593423 0.23852047
0.017217698 0.079999998 0.034905784 -0.14741376 0.38593423 0.23852047
0.016509512 0.079999998 0.035055932 -0.14741376 0.38593423 0.23852047
0.015802609 0.079999998 0.0352058 -0.14741376 0.38593423 0.23852047
0.015096979 0.079999998 0.035355382 -0.14741376 0.38593423 0.23852047
0.014392618 0.079999998 0.035504688 -0.14741376 0.38593423 0.23852047
0.013689517 0.079999998 0.035653714 -0.14741376 0.38593423 0.23852047
0.01298767 0.079999998 0.035802461 -0.14741376 0.38593423 0.23852047
0.012287072 0.079999998 0.035950936 -0.14741376 0.38593423 0.23852047
0.011587713 0.079999998 0.036099132 -0.14741376 0.38593423 0.23852047
0.010889589 0.079999998 0.03624706 -0.14741376 0.38593423 0.23852047
0.010192691 0.079999998 0.036394715 -0.14741376 0.38593423 0.23852047
0.0094970139 0.079999998 0.036542099 -0.14741376 0.38593423 0.23852047
0.0088025518 0.079999998 0.036689214 -0.14741376 0.38593423 0.23852047
0.0081092967 0.079999998 0.036836065 -0.14741376 0.38593423 0.23852047
0.0074172425 0.079999998 0.036982648 -0.14741376 0.38593423 0.23852047
0.0067263828 0.079999998 0.037128966 -0.14741376 0.38593423 0.23852047
0.0060367114 0.079999998 0.037275024 -0.14741376 0.38593423 0.23852047
0.0053482219 0.079999998 0.037420817 -0.14741376 0.38593423 0.23852047
0.0046609072 0.079999998 0.037566353 -0.14741376 0.38593423 0.23852047
0.0039747618 0.079999998 0.037711628 -0.14741376 0.38593423 0.23852047
0.0032897787 0.079999998 0.03785665 -0.14741376 0.38593423 0.23852047
0.0026059523 0.079999998 0.038001411 -0.14741376 0.38593423 0.23852047
0.001923276 0.079999998 0.038145918 -0.14741376 0.38593423 0.23852047
0.0012417436 0.079999998 0.038290173 -0.14741376 0.38593423 0.23852047
0.0005613488 0.079999998 0.038434178 -0.14741376 0.38593423 0.23852047
0 0.07975509 0.038417868 -0.14741376 0.38593423 0.23852047
0 0.078338943 0.037636634 -0.14741376 0.38593423 0.23852047
0 0.076912016 0.036849435 -0.14741376 0.38593423 0.23852047
0 0.075474158 0.036056202 -0.14741376 0.38593423 0.23852047
0 0.074025251 0.035256855 -0.14741376 0.38593423 0.23852047
0 0.072565153 0.034451328 -0.14741376 0.38593423 0.23852047
0 0.071093723 0.033639539 -0.14741376 0.38593423 0.23852047
0 0.069610834 0.032821409 -0.14741376 0.38593423 0.23852047
0 0.068116337 0.031996869 -0.14741376 0.38593423 0.23852047
2.7755576e-17 0.066610083 0.031165829 -0.14741376 0.38593423 0.23852047
0 0.06509193 0.030328214 -0.14741376 0.38593423 0.23852047
2.7755576e-17 0.06356173 0.02948394 -0.14741376 0.38593423 0.23852047
0 0.062019333 0.028632924 -0.14741376 0.38593423 0.23852047
0 0.060464583 0.027775081 -0.14741376 0.38593423 0.23852047
0 0.05889732 0.026910322 -0.14741376 0.38593423 0.23852047
0 0.057317387 0.026038561 -0.14741376 0.38593423 0.23852047
0 0.055724625 0.025159707 -0.14741376 0.38593423 0.23852047
0 0.054118864 0.024273671 -0.14741376 0.38593423 0.23852047
0 0.052499942 0.02338036 -0.14741376 0.38593423 0.23852047
0 0.050867684 0.022479678 -0.14741376 0.38593423 0.23852047
0 0.049221914 0.02157153 -0.14741376 0.38593423 0.23852047
0 0.047562465 0.020655818 -0.14741376 0.38593423 0.23852047
0 0.04588915 0.019732445 -0.14741376 0.38593423 0.23852047
0 0.044201788 0.018801307 -0.14741376 0.38593423 0.23852047
0 0.04250019 0.017862303 -0.14741376 0.38593423 0.23852047
0 0.040784173 0.016915329 -0.14741376 0.38593423 0.23852047
0 0.039053541 0.015960276 -0.14741376 0.38593423 0.23852047
0 0.037308101 0.014997039 -0.14741376 0.38593423 0.23852047
0 0.035547648 0.014025505 -0.14741376 0.38593423 0.23852047
0 0.033771981 0.013045562 -0.14741376 0.38593423 0.23852047
0 0.031980895 0.012057099 -0.14741376 0.38593423 0.23852047
0 0.030174177 0.011059995 -0.14741376 0.38593423 0.23852047
0 0.028351616 0.010054134 -0.14741376 0.38593423 0.23852047
0 0.02651299 0.0090393946 -0.14741376 0.38593423 0.23852047
0 0.024658078 0.008015654 -0.14741376 0.38593423 0.23852047
0 0.022786655 0.0069827875 -0.14741376 0.38593423 0.23852047
0 0.020898487 0.0059406674 -0.14741376 0.38593423 0.23852047
0 0.018993342 0.0048891637 -0.14741376 0.38593423 0.23852047
0 0.017070979 0.0038281437 -0.14741376 0.38593423 0.23852047
0 0.015131155 0.0027574734 -0.14741376 0.38593423 0.23852047
0.001043791 0.010534219 0 -0.14741376 0.38593423 0.23852047
0 0.011198123 0.00058662816 -0.14741376 0.38593423 0.23852047
0.039915927 0.079999998 0.02933827 -0.14741376 0.38593423 0.23852047
0.03916356 0.079999998 0.029498914 -0.14741376 0.38593423 0.23852047
0.038412713 0.079999998 0.029659219 -0.14741376 0.38593423 0.23852047
0.037663378 0.079999998 0.029819189 -0.14741376 0.38593423 0.23852047
0.036915544 0.079999998 0.029978823 -0.14741376 0.38593423 0.23852047
0.036169209 0.079999998 0.030138126 -0.14741376 0.38593423 0.23852047
0.035424355 0.079999998 0.030297097 -0.14741376 0.38593423 0.23852047
0.034680985 0.079999998 0.03045574 -0.14741376 0.38593423 0.23852047
0.033939078 0.079999998 0.030614056 -0.14741376 0.38593423 0.23852047
0.03319864 0.079999998 0.030772045 -0.14741376 0.38593423 0.23852047
0.032459654 0.079999998 0.030929711 -0.14741376 0.38593423 0.23852047
0.031722113 0.079999998 0.031087056 -0.14741376 0.38593423 0.23852047
0.030986013 0.079999998 0.031244079 -0.14741376 0.38593423 0.23852047
0.030251343 0.079999998 0.031400785 -0.14741376 0.38593423 0.23852047
0.029518098 0.079999998 0.031557173 -0.14741376 0.38593423 0.23852047
0.028786266 0.079999998 0.031713244 -0.14741376 0.38593423 0.23852047
0.028055843 0.079999998 0.031869005 -0.14741376 0.38593423 0.23852047
0.02732682 0.079999998 0.032024451 -0.14741376 0.38593423 0.23852047
0.026599189 0.079999998 0.03217959 -0.14741376 0.38593423 0.23852047
0.025872946 0.079999998 0.032334417 -0.14741376 0.38593423 0.23852047
0.025148079 0.079999998 0.032488938 -0.14741376 0.38593423 0.23852047
0.024424581 0.079999998 0.032643154 -0.14741376 0.38593423 0.23852047
0.023702446 0.079999998 0.032797065 -0.14741376 0.38593423 0.23852047
0.022981668 0.079999998 0.032950677 -0.14741376 0.38593423 0.23852047
0.022262238 0.079999998 0.033103984 -0.14741376 0.38593423 0.23852047
0.021544149 0.079999998 0.033256996 -0.14741376 0.38593423 0.23852047
0.020827394 0.079999998 0.033409707 -0.14741376 0.38593423 0.23852047
0.020111965 0.079999998 0.033562124 -0.14741376 0.38593423 0.23852047
0.019397855 0.079999998 0.03371425 -0.14741376 0.38593423 0.23852047
0.018685058 0.079999998 0.033866078 -0.14741376 0.38593423 0.23852047
0.017973565 0.079999998 0.034017619 -0.14741376 0.38593423 0.23852047
0.01726337 0.079999998 0.034168866 -0.14741376 0.38593423 0.23852047
0.016554467 0.079999998 0.034319825 -0.14741376 0.38593423 0.23852047
0.015846848 0.079999998 0.034470502 -0.14741376 0.38593423 0.23852047
0.015140506 0.079999998 0.034620892 -0.14741376 0.38593423 0.23852047
0.014435435 0.079999998 0.034770995 -0.14741376 0.38593423 0.23852047
0.013731627 0.079999998 0.034920819 -0.14741376 0.38593423 0.23852047
0.013029075 0.079999998 0.035070363 -0.14741376 0.38593423 0.23852047
0.012327773 0.079999998 0.035219628 -0.14741376 0.38593423 0.23852047
0.011627715 0.079999998 0.035368614 -0.14741376 0.38593423 0.23852047
0.010928893 0.079999998 0.035517324 -0.14741376 0.38593423 0.23852047
0.010231301 0.079999998 0.035665758 -0.14741376 0.38593423 0.23852047
0.0095349317 0.079999998 0.03581392 -0.14741376 0.38593423 0.23852047
0.0088397795 0.079999998 0.03596181 -0.14741376 0.38593423 0.23852047
0.0081458371 0.079999998 0.036109433 -0.14741376 0.38593423 0.23852047
0.0074530975 0.079999998 0.036256783 -0.14741376 0.38593423 0.23852047
0.0067615556 0.079999998 0.036403865 -0.14741376 0.38593423 0.23852047
0.0060712039 0.079999998 0.036550682 -0.14741376 0.38593423 0.23852047
0.0053820359 0.079999998 0.036697235 -0.14741376 0.38593423 0.23852047
0.004694046 0.079999998 0.036843523 -0.14741376 0.38593423 0.23852047
0.0040072273 0.079999998 0.036989551 -0.14741376 0.38593423 0.23852047
0.0033215734 0.079999998 0.037135314 -0.14741376 0.38593423 0.23852047
0.0026370783 0.079999998 0.037280824 -0.14741376 0.38593423 0.23852047
0.0019537355 0.079999998 0.037426073 -0.14741376 0.38593423 0.23852047
0.001271539 0.079999998 0.037571065 -0.14741376 0.38593423 0.23852047
0.00059048249 0.079999998 0.0377158 -0.14741376 0.38593423 0.23852047
2.7755576e-17 0.079814263 0.037738465 -0.14741376 0.38593423 0.23852047
0 0.078397296 0.036954068 -0.14741376 0.38593423 0.23852047
2.7755576e-17 0.076969519 0.036163677 -0.14741376 0.38593423 0.23852047
0 0.075530805 0.035367221 -0.14741376 0.38593423 0.23852047
0 0.074081019 0.034564622 -0.14741376 0.38593423 0.23852047
2.7755576e-17 0.072620034 0.033755805 -0.14741376 0.38593423 0.23852047
0 0.071147703 0.032940701 -0.14741376 0.38593423 0.23852047
0 0.06966389 0.032119226 -0.14741376 0.38593423 0.23852047
0 0.068168454 0.031291299 -0.14741376 0.38593423 0.23852047
0 0.066661254 0.030456845 -0.14741376 0.38593423 0.23852047
0 0.065142132 0.02961578 -0.14741376 0.38593423 0.23852047
2.7755576e-17 0.063610949 0.028768023 -0.14741376 0.38593423 0.23852047
0 0.06206755 0.027913488 -0.14741376 0.38593423 0.23852047
0 0.060511775 0.02705209 -0.14741376 0.38593423 0.23852047
0 0.058943477 0.026183741 -0.14741376 0.38593423 0.23852047
0 0.057362486 0.025308354 -0.14741376 0.38593423 0.23852047
0 0.05576865 0.024425838 -0.14741376 0.38593423 0.23852047
0 0.054161794 0.023536101 -0.14741376 0.38593423 0.23852047
0 0.052541759 0.022639051 -0.14741376 0.38593423 0.23852047
0 0.050908364 0.021734592 -0.14741376 0.38593423 0.23852047
0 0.049261447 0.020822629 -0.14741376 0.38593423 0.23852047
0 0.047600821 0.019903062 -0.14741376 0.38593423 0.23852047
0 0.04592631 0.018975792 -0.14741376 0.38593423 0.23852047
0 0.044237733 0.018040719 -0.14741376 0.38593423 0.23852047
0 0.042534899 0.017097736 -0.14741376 0.38593423 0.23852047
0 0.040817622 0.01614674 -0.14741376 0.38593423 0.23852047
0 0.039085709 0.015187626 -0.14741376 0.38593423 0.23852047
0 0.037338961 0.014220281 -0.14741376 0.38593423 0.23852047
0 0.035577178 0.013244596 -0.14741376 0.38593423 0.23852047
0 0.033800159 0.012260458 -0.14741376 0.38593423 0.23852047
0 0.032007694 0.011267752 -0.14741376 0.38593423 0.23852047
0 0.030199572 0.010266362 -0.14741376 0.38593423 0.23852047
0 0.028375581 0.0092561664 -0.14741376 0.38593423 0.23852047
0 0.0265355 0.0082370443 -0.14741376 0.38593423 0.23852047
0 0.024679106 0.007208874 -0.14741376 0.38593423 0.23852047
0 0.022806173 0.0061715273 -0.14741376 0.38593423 0.23852047
0 0.020916469 0.0051248777 -0.14741376 0.38593423 0.23852047
0 0.019009758 0.0040687928 -0.14741376 0.38593423 0.23852047
0 0.0170858 0.0030031407 -0.14741376 0.38593423 0.23852047
0 0.015144352 0.0019277853 -0.14741376 0.38593423 0.23852047
0 0.013185163 0.00084258843 -0.14741376 0.38593423 0.23852047
0.039985403 0.079999998 0.028572813 -0.14741376 0.38593423 0.23852047
0.039232228 0.079999998 0.028734388 -0.14741376 0.38593423 0.23852047
0.038480572 0.079999998 0.028895622 -0.14741376 0.38593423 0.23852047
0.037730433 0.079999998 0.029056516 -0.14741376 0.38593423 0.23852047
0.036981799 0.079999998 0.029217072 -0.14741376 0.38593423 0.23852047
0.036234662 0.079999998 0.029377291 -0.14741376 0.38593423 0.23852047
0.035489015 0.079999998 0.029537175 -0.14741376 0.38593423 0.23852047
0.034744851 0.079999998 0.029696727 -0.14741376 0.38593423 0.23852047
0.034002159 0.079999998 0.029855946 -0.14741376 0.38593423 0.23852047
0.033260934 0.079999998 0.030014837 -0.14741376 0.38593423 0.23852047
