# .PCD v0.7 - Point Cloud Data file format
VERSION 0.7
FIELDS x y z vp_x vp_y vp_z
SIZE 4 4 4 4 4 4
TYPE F F F F F F
COUNT 1 1 1 1 1 1
WIDTH 710
HEIGHT 1
VIEWPOINT 0 0 0 1 0 0 0
POINTS 710
DATA ascii
2.7755576e-17 0.012200694 0.01552672 -0.23852047 0.14741376 0.38593423
0 0.01137697 0.014941031 -0.23852047 0.14741376 0.38593423
0 0.01055069 0.014353541 -0.23852047 0.14741376 0.38593423
2.7755576e-17 0.0097218389 0.013764239 -0.23852047 0.14741376 0.38593423
0 0.0088904016 0.013173114 -0.23852047 0.14741376 0.38593423
0 0.0080563612 0.012580154 -0.23852047 0.14741376 0.38593423
2.7755576e-17 0.0072197015 0.011985348 -0.23852047 0.14741376 0.38593423
0 0.0063804062 0.011388685 -0.23852047 0.14741376 0.38593423
0 0.0055384589 0.010790152 -0.23852047 0.14741376 0.38593423
0 0.0046938434 0.010189738 -0.23852047 0.14741376 0.38593423
0.0060763075 0.0001891679 0 -0.23852047 0.14741376 0.38593423
2.7755576e-17 0.0029965385 0.0089832218 -0.23852047 0.14741376 0.38593423
0.0035199572 0 0.0028053084 -0.23852047 0.14741376 0.38593423
0.0021029848 0 0.0044348352 -0.23852047 0.14741376 0.38593423
0 0.00043014434 0.0071590408 -0.23852047 0.14741376 0.38593423
0.037219115 0.079999998 0.019820847 -0.23852047 0.14741376 0.38593423
0.034312826 0.079999998 0.023171537 -0.23852047 0.14741376 0.38593423
0.031460926 0.079999998 0.026459532 -0.23852047 0.14741376 0.38593423
0.028661892 0.079999998 0.029686587 -0.23852047 0.14741376 0.38593423
0.025914257 0.079999998 0.032854397 -0.23852047 0.14741376 0.38593423
0.023216605 0.079999998 0.035964597 -0.23852047 0.14741376 0.38593423
0.02056757 0.079999998 0.039018754 -0.23852047 0.14741376 0.38593423
0.01832317 0.079906076 0.041539248 -0.23852047 0.14741376 0.38593423
0.016566629 0.079692975 0.043412063 -0.23852047 0.14741376 0.38593423
0.015181377 0.079388089 0.044791192 -0.23852047 0.14741376 0.38593423
0.013969787 0.079042003 0.045940652 -0.23852047 0.14741376 0.38593423
0.012868102 0.078670785 0.046945438 -0.23852047 0.14741376 0.38593423
0.011913647 0.078263253 0.047754526 -0.23852047 0.14741376 0.38593423
0.01100993 0.077845141 0.048497565 -0.23852047 0.14741376 0.38593423
0.010192683 0.077406004 0.04912588 -0.23852047 0.14741376 0.38593423
0.0094379885 0.076951936 0.049671415 -0.23852047 0.14741376 0.38593423
0.0086997766 0.076495655 0.050196379 -0.23852047 0.14741376 0.38593423
0.0080638295 0.076012202 0.050584018 -0.23852047 0.14741376 0.38593423
0.0074296752 0.075530104 0.050970573 -0.23852047 0.14741376 0.38593423
0.0068356865 0.075038046 0.051303707 -0.23852047 0.14741376 0.38593423
0.0062997271 0.074530371 0.051558785 -0.23852047 0.14741376 0.38593423
0.0057648509 0.074023731 0.05181336 -0.23852047 0.14741376 0.38593423
0.0052697533 0.07350637 0.052014425 -0.23852047 0.14741376 0.38593423
0.0048195901 0.072976403 0.052154675 -0.23852047 0.14741376 0.38593423
0.0043700221 0.072447129 0.052294753 -0.23852047 0.14741376 0.38593423
0.0039472189 0.071910404 0.052398656 -0.23852047 0.14741376 0.38593423
0.0035733797 0.071359038 0.052435644 -0.23852047 0.14741376 0.38593423
0.0031997988 0.070808046 0.052472621 -0.23852047 0.14741376 0.38593423
0.0028332584 0.070255265 0.052500211 -0.23852047 0.14741376 0.38593423
0.0025296547 0.069682606 0.052441038 -0.23852047 0.14741376 0.38593423
0.002226081 0.069110006 0.052381881 -0.23852047 0.14741376 0.38593423
0.0019225364 0.068537466 0.052322745 -0.23852047 0.14741376 0.38593423
0.0016693999 0.067948304 0.052193623 -0.23852047 0.14741376 0.38593423
0.0014324252 0.067353524 0.052041858 -0.23852047 0.14741376 0.38593423
0.0011953382 0.066758461 0.051890038 -0.23852047 0.14741376 0.38593423
0.0009827381 0.066154771 0.051703826 -0.23852047 0.14741376 0.38593423
0.00081110059 0.065536596 0.051460043 -0.23852047 0.14741376 0.38593423
0.00063928479 0.06491778 0.051216021 -0.23852047 0.14741376 0.38593423
0.00046740557 0.06429828 0.050971594 -0.23852047 0.14741376 0.38593423
0.00036190898 0.063654788 0.050633494 -0.23852047 0.14741376 0.38593423
0.00025624211 0.063010253 0.050294857 -0.23852047 0.14741376 0.38593423
0.00015040401 0.062364683 0.049955685 -0.23852047 0.14741376 0.38593423
9.2218252e-05 0.061700877 0.049548551 -0.23852047 0.14741376 0.38593423
5.5726716e-05 0.061027825 0.049109805 -0.23852047 0.14741376 0.38593423
1.9153993e-05 0.060353275 0.048670098 -0.23852047 0.14741376 0.38593423
1.8212681e-05 0.059664082 0.048178852 -0.23852047 0.14741376 0.38593423
5.6462151e-05 0.058958609 0.047630794 -0.23852047 0.14741376 0.38593423
9.4821691e-05 0.058251105 0.047081172 -0.23852047 0.14741376 0.38593423
0.00016791308 0.057528518 0.046480738 -0.23852047 0.14741376 0.38593423
0.0002897736 0.056785211 0.045809276 -0.23852047 0.14741376 0.38593423
0.00041207348 0.056039225 0.045135405 -0.23852047 0.14741376 0.38593423
0.00058703026 0.055270419 0.044384521 -0.23852047 0.14741376 0.38593423
0.00080603221 0.054481659 0.043568607 -0.23852047 0.14741376 0.38593423
0.0010260077 0.05368939 0.042749077 -0.23852047 0.14741376 0.38593423
0.00135018 0.052852903 0.041777816 -0.23852047 0.14741376 0.38593423
0.0016869584 0.052007627 0.040785756 -0.23852047 0.14741376 0.38593423
0.0018784548 0.051216614 0.039999999 -0.23852047 0.14741376 0.38593423
0.0015232244 0.050642978 0.039999999 -0.23852047 0.14741376 0.38593423
0.0011681153 0.050069522 0.039999999 -0.23852047 0.14741376 0.38593423
0.00081312557 0.049496241 0.039999999 -0.23852047 0.14741376 0.38593423
0.00045825349 0.048923135 0.039999999 -0.23852047 0.14741376 0.38593423
0.00010349732 0.048350196 0.039999999 -0.23852047 0.14741376 0.38593423
5.5511151e-17 0.047672406 0.039635371 -0.23852047 0.14741376 0.38593423
2.7755576e-17 0.046949714 0.039119333 -0.23852047 0.14741376 0.38593423
2.7755576e-17 0.046225071 0.038601916 -0.23852047 0.14741376 0.38593423
2.7755576e-17 0.045498472 0.03808311 -0.23852047 0.14741376 0.38593423
2.7755576e-17 0.044769898 0.037562914 -0.23852047 0.14741376 0.38593423
2.7755576e-17 0.044039346 0.03704131 -0.23852047 0.14741376 0.38593423
2.7755576e-17 0.043306798 0.036518298 -0.23852047 0.14741376 0.38593423
2.7755576e-17 0.042572245 0.035993867 -0.23852047 0.14741376 0.38593423
0 0.041835673 0.035468005 -0.23852047 0.14741376 0.38593423
0 0.041097075 0.034940708 -0.23852047 0.14741376 0.38593423
2.7755576e-17 0.040356435 0.034411967 -0.23852047 0.14741376 0.38593423
0 0.039613742 0.033881772 -0.23852047 0.14741376 0.38593423
2.7755576e-17 0.038868982 0.033350118 -0.23852047 0.14741376 0.38593423
0 0.038122147 0.032816991 -0.23852047 0.14741376 0.38593423
0 0.037373222 0.032282386 -0.23852047 0.14741376 0.38593423
0 0.036622193 0.031746291 -0.23852047 0.14741376 0.38593423
0 0.035869051 0.031208701 -0.23852047 0.14741376 0.38593423
0 0.035113782 0.030669605 -0.23852047 0.14741376 0.38593423
0 0.034356374 0.030128995 -0.23852047 0.14741376 0.38593423
0 0.033596814 0.029586863 -0.23852047 0.14741376 0.38593423
0 0.032835089 0.029043196 -0.23852047 0.14741376 0.38593423
0 0.032071184 0.028497986 -0.23852047 0.14741376 0.38593423
0 0.03130509 0.027951228 -0.23852047 0.14741376 0.38593423
0 0.030536789 0.027402908 -0.23852047 0.14741376 0.38593423
0 0.029766275 0.026853018 -0.23852047 0.14741376 0.38593423
2.7755576e-17 0.028993526 0.026301548 -0.23852047 0.14741376 0.38593423
0 0.028218536 0.025748491 -0.23852047 0.14741376 0.38593423
0 0.027441287 0.025193835 -0.23852047 0.14741376 0.38593423
2.7755576e-17 0.026661769 0.024637571 -0.23852047 0.14741376 0.38593423
0 0.025879964 0.02407969 -0.23852047 0.14741376 0.38593423
0 0.025095861 0.023520181 -0.23852047 0.14741376 0.38593423
0 0.024309447 0.022959035 -0.23852047 0.14741376 0.38593423
0 0.023520706 0.022396242 -0.23852047 0.14741376 0.38593423
0 0.022729622 0.021831792 -0.23852047 0.14741376 0.38593423
0 0.021936186 0.021265673 -0.23852047 0.14741376 0.38593423
0 0.02114038 0.020697879 -0.23852047 0.14741376 0.38593423
0 0.02034219 0.020128395 -0.23852047 0.14741376 0.38593423
0 0.019541603 0.019557213 -0.23852047 0.14741376 0.38593423
0 0.018738603 0.018984325 -0.23852047 0.14741376 0.38593423
0 0.017933175 0.018409716 -0.23852047 0.14741376 0.38593423
0 0.017125305 0.017833378 -0.23852047 0.14741376 0.38593423
0 0.016314976 0.017255301 -0.23852047 0.14741376 0.38593423
0 0.015502176 0.016675472 -0.23852047 0.14741376 0.38593423
0 0.014686889 0.016093884 -0.23852047 0.14741376 0.38593423
2.7755576e-17 0.013869098 0.015510521 -0.23852047 0.14741376 0.38593423
0 0.013048789 0.014925375 -0.23852047 0.14741376 0.38593423
0 0.012225945 0.014338435 -0.23852047 0.14741376 0.38593423
2.7755576e-17 0.011400552 0.013749689 -0.23852047 0.14741376 0.38593423
2.7755576e-17 0.010572595 0.013159126 -0.23852047 0.14741376 0.38593423
2.7755576e-17 0.0097420542 0.012566735 -0.23852047 0.14741376 0.38593423
0.0076363096 0.0044746399 0 -0.23852047 0.14741376 0.38593423
0.0072445692 0.0038409817 0 -0.23852047 0.14741376 0.38593423
0.0068528554 0.0032073474 5.5511151e-17 -0.23852047 0.14741376 0.38593423
2.7755576e-17 0.0063937572 0.010178662 -0.23852047 0.14741376 0.38593423
2.7755576e-17 0.0047036964 0.0089733554 -0.23852047 0.14741376 0.38593423
2.7755576e-17 0.0038546294 0.0083678439 -0.23852047 0.14741376 0.38593423
0.0048946193 3.9428385e-05 0 -0.23852047 0.14741376 0.38593423
0 0.0021483377 0.0071510435 -0.23852047 0.14741376 0.38593423
0.0021074668 0 0.0031875593 -0.23852047 0.14741376 0.38593423
0 0.00043105453 0.0059264577 -0.23852047 0.14741376 0.38593423
0.037979249 0.079999998 0.017726116 -0.23852047 0.14741376 0.38593423
0.035052612 0.079999998 0.021111825 -0.23852047 0.14741376 0.38593423
0.032180998 0.079999998 0.024433894 -0.23852047 0.14741376 0.38593423
0.029362852 0.079999998 0.027694117 -0.23852047 0.14741376 0.38593423
0.026596682 0.079999998 0.030894216 -0.23852047 0.14741376 0.38593423
0.023881054 0.079999998 0.034035858 -0.23852047 0.14741376 0.38593423
0.02121458 0.079999998 0.037120644 -0.23852047 0.14741376 0.38593423
0.018707551 0.079970732 0.039999999 -0.23852047 0.14741376 0.38593423
0.016944679 0.079756111 0.041885581 -0.23852047 0.14741376 0.38593423
0.015512266 0.079460911 0.043331094 -0.23852047 0.14741376 0.38593423
0.014232554 0.079130545 0.044574749 -0.23852047 0.14741376 0.38593423
0.013126875 0.078757979 0.045586824 -0.23852047 0.14741376 0.38593423
0.012125199 0.078361124 0.04646118 -0.23852047 0.14741376 0.38593423
0.011218552 0.077941664 0.047209397 -0.23852047 0.14741376 0.38593423
0.010366055 0.077510312 0.04788645 -0.23852047 0.14741376 0.38593423
0.0096091302 0.077054903 0.048435703 -0.23852047 0.14741376 0.38593423
0.008855056 0.076601207 0.048982896 -0.23852047 0.14741376 0.38593423
0.0082054352 0.076119848 0.049389426 -0.23852047 0.14741376 0.38593423
0.0075695547 0.075636446 0.049778599 -0.23852047 0.14741376 0.38593423
0.0069530583 0.075149223 0.050142623 -0.23852047 0.14741376 0.38593423
0.0064157383 0.074640259 0.050399471 -0.23852047 0.14741376 0.38593423
0.0058795074 0.074132331 0.050655808 -0.23852047 0.14741376 0.38593423
0.0053654606 0.073619045 0.050882649 -0.23852047 0.14741376 0.38593423
0.0049142265 0.073087811 0.051023968 -0.23852047 0.14741376 0.38593423
0.0044635911 0.072557285 0.051165108 -0.23852047 0.14741376 0.38593423
0.0040243152 0.072024114 0.05129122 -0.23852047 0.14741376 0.38593423
0.0036496378 0.071471505 0.051328674 -0.23852047 0.14741376 0.38593423
0.0032752203 0.070919283 0.051366113 -0.23852047 0.14741376 0.38593423
0.0029010603 0.070367441 0.051403537 -0.23852047 0.14741376 0.38593423
0.0025896879 0.069795839 0.051354166 -0.23852047 0.14741376 0.38593423
0.002285471 0.069222033 0.051294941 -0.23852047 0.14741376 0.38593423
0.0019812828 0.068648271 0.051235732 -0.23852047 0.14741376 0.38593423
0.0017147538 0.068062134 0.051124092 -0.23852047 0.14741376 0.38593423
0.0014773024 0.067466162 0.050971765 -0.23852047 0.14741376 0.38593423
0.0012397382 0.0668699 0.050819378 -0.23852047 0.14741376 0.38593423
0.0010144946 0.066269144 0.05064952 -0.23852047 0.14741376 0.38593423
0.00084252877 0.065649785 0.050404701 -0.23852047 0.14741376 0.38593423
0.00067038409 0.065029785 0.050159641 -0.23852047 0.14741376 0.38593423
0.00049805938 0.064409137 0.04991433 -0.23852047 0.14741376 0.38593423
0.00038056448 0.063768581 0.049591325 -0.23852047 0.14741376 0.38593423
0.00027470523 0.063122876 0.049251184 -0.23852047 0.14741376 0.38593423
0.00016867415 0.062476125 0.048910495 -0.23852047 0.14741376 0.38593423
9.8428412e-05 0.061815418 0.048518416 -0.23852047 0.14741376 0.38593423
6.1873747e-05 0.0611412 0.048077688 -0.23852047 0.14741376 0.38593423
2.5237621e-05 0.060465485 0.04763598 -0.23852047 0.14741376 0.38593423
1.1947096e-05 0.059779648 0.047160026 -0.23852047 0.14741376 0.38593423
5.0259252e-05 0.059073016 0.046609476 -0.23852047 0.14741376 0.38593423
8.8681853e-05 0.058364347 0.046057351 -0.23852047 0.14741376 0.38593423
0.00014872845 0.057645541 0.04547295 -0.23852047 0.14741376 0.38593423
0.00027077718 0.056901082 0.044798445 -0.23852047 0.14741376 0.38593423
0.00039326673 0.056153942 0.044121511 -0.23852047 0.14741376 0.38593423
0.00055395073 0.055389557 0.043388046 -0.23852047 0.14741376 0.38593423
0.00077326864 0.054599661 0.042568471 -0.23852047 0.14741376 0.38593423
0.0009935631 0.053806245 0.041745257 -0.23852047 0.14741376 0.38593423
0.0013014642 0.052975174 0.040793709 -0.23852047 0.14741376 0.38593423
0.0014980236 0.052184585 0.039999999 -0.23852047 0.14741376 0.38593423
0.001143195 0.05161136 0.039999999 -0.23852047 0.14741376 0.38593423
0.00078848714 0.051038314 0.039999999 -0.23852047 0.14741376 0.38593423
0.0004338985 0.05046545 0.039999999 -0.23852047 0.14741376 0.38593423
7.9427198e-05 0.049892761 0.039999999 -0.23852047 0.14741376 0.38593423
2.7755576e-17 0.04920705 0.039600801 -0.23852047 0.14741376 0.38593423
2.7755576e-17 0.048486952 0.039085079 -0.23852047 0.14741376 0.38593423
2.7755576e-17 0.047764923 0.038567983 -0.23852047 0.14741376 0.38593423
2.7755576e-17 0.047040951 0.038049504 -0.23852047 0.14741376 0.38593423
2.7755576e-17 0.046315022 0.037529632 -0.23852047 0.14741376 0.38593423
2.7755576e-17 0.045587126 0.037008367 -0.23852047 0.14741376 0.38593423
5.5511151e-17 0.044857252 0.036485691 -0.23852047 0.14741376 0.38593423
2.7755576e-17 0.044125389 0.035961602 -0.23852047 0.14741376 0.38593423
2.7755576e-17 0.043391529 0.03543609 -0.23852047 0.14741376 0.38593423
0 0.042655651 0.034909144 -0.23852047 0.14741376 0.38593423
0 0.041917752 0.03438076 -0.23852047 0.14741376 0.38593423
0 0.041177813 0.033850927 -0.23852047 0.14741376 0.38593423
0 0.040435828 0.033319633 -0.23852047 0.14741376 0.38593423
0 0.039691783 0.03278688 -0.23852047 0.14741376 0.38593423
0 0.038945664 0.032252647 -0.23852047 0.14741376 0.38593423
0 0.038197458 0.031716935 -0.23852047 0.14741376 0.38593423
2.7755576e-17 0.037447158 0.031179728 -0.23852047 0.14741376 0.38593423
0 0.036694746 0.030641021 -0.23852047 0.14741376 0.38593423
0 0.035940211 0.030100806 -0.23852047 0.14741376 0.38593423
0 0.035183541 0.02955907 -0.23852047 0.14741376 0.38593423
0 0.034424726 0.029015807 -0.23852047 0.14741376 0.38593423
0 0.03366375 0.028471008 -0.23852047 0.14741376 0.38593423
0 0.032900602 0.027924662 -0.23852047 0.14741376 0.38593423
2.7755576e-17 0.032135263 0.02737676 -0.23852047 0.14741376 0.38593423
0 0.03136773 0.026827294 -0.23852047 0.14741376 0.38593423
0 0.030597981 0.026276255 -0.23852047 0.14741376 0.38593423
0 0.029826006 0.025723632 -0.23852047 0.14741376 0.38593423
0 0.029051794 0.025169415 -0.23852047 0.14741376 0.38593423
0 0.028275328 0.024613596 -0.23852047 0.14741376 0.38593423
0 0.027496597 0.024056166 -0.23852047 0.14741376 0.38593423
0 0.026715584 0.023497114 -0.23852047 0.14741376 0.38593423
0 0.025932278 0.022936428 -0.23852047 0.14741376 0.38593423
0 0.025146665 0.022374103 -0.23852047 0.14741376 0.38593423
0 0.024358731 0.021810124 -0.23852047 0.14741376 0.38593423
0 0.023568461 0.021244485 -0.23852047 0.14741376 0.38593423
0 0.022775842 0.020677174 -0.23852047 0.14741376 0.38593423
0 0.021980857 0.020108178 -0.23852047 0.14741376 0.38593423
0 0.021183496 0.019537494 -0.23852047 0.14741376 0.38593423
0 0.02038374 0.018965105 -0.23852047 0.14741376 0.38593423
0 0.019581577 0.018391004 -0.23852047 0.14741376 0.38593423
0 0.018776992 0.017815178 -0.23852047 0.14741376 0.38593423
0 0.01796997 0.017237619 -0.23852047 0.14741376 0.38593423
2.7755576e-17 0.017160496 0.016658315 -0.23852047 0.14741376 0.38593423
0.010368209 0.010651301 0 -0.23852047 0.14741376 0.38593423
0 0.01553413 0.01549443 -0.23852047 0.14741376 0.38593423
0.0095850816 0.0093847215 0 -0.23852047 0.14741376 0.38593423
0 0.013897774 0.014323437 -0.23852047 0.14741376 0.38593423
0 0.01307581 0.013735246 -0.23852047 0.14741376 0.38593423
2.7755576e-17 0.012251302 0.013145246 -0.23852047 0.14741376 0.38593423
0 0.011424234 0.012553423 -0.23852047 0.14741376 0.38593423
0.0076279254 0.0062190895 0 -0.23852047 0.14741376 0.38593423
2.7755576e-17 0.0097623542 0.011364267 -0.23852047 0.14741376 0.38593423
0 0.0089275092 0.010766911 -0.23852047 0.14741376 0.38593423
0 0.0080900406 0.010167687 -0.23852047 0.14741376 0.38593423
2.7755576e-17 0.0072499313 0.0095665846 -0.23852047 0.14741376 0.38593423
0.0056715291 0.0030543155 0 -0.23852047 0.14741376 0.38593423
0 0.0055617229 0.0083586937 -0.23852047 0.14741376 0.38593423
0 0.0047135907 0.0077518825 -0.23852047 0.14741376 0.38593423
0 0.0038627505 0.0071431436 -0.23852047 0.14741376 0.38593423
2.7755576e-17 0.0030091857 0.006532466 -0.23852047 0.14741376 0.38593423
0.0035350577 0 0.00028772975 -0.23852047 0.14741376 0.38593423
0 0.0012938121 0.0053052437 -0.23852047 0.14741376 0.38593423
0 0.0004319686 0.0046886746 -0.23852047 0.14741376 0.38593423
0.038746335 0.079999998 0.015612224 -0.23852047 0.14741376 0.38593423
0.035799105 0.079999998 0.019033454 -0.23852047 0.14741376 0.38593423
0.032907531 0.079999998 0.022390082 -0.23852047 0.14741376 0.38593423
0.03007004 0.079999998 0.025683934 -0.23852047 0.14741376 0.38593423
0.027285118 0.079999998 0.028916772 -0.23852047 0.14741376 0.38593423
0.024551302 0.079999998 0.032090291 -0.23852047 0.14741376 0.38593423
0.021867186 0.079999998 0.035206124 -0.23852047 0.14741376 0.38593423
0.019231413 0.079999998 0.038265843 -0.23852047 0.14741376 0.38593423
0.017384632 0.079803973 0.040268771 -0.23852047 0.14741376 0.38593423
0.015845224 0.079534195 0.041861869 -0.23852047 0.14741376 0.38593423
0.014496826 0.079219595 0.043201026 -0.23852047 0.14741376 0.38593423
0.013387124 0.078845672 0.044220459 -0.23852047 0.14741376 0.38593423
0.012337879 0.078459524 0.045160931 -0.23852047 0.14741376 0.38593423
0.011428284 0.0780387 0.045914367 -0.23852047 0.14741376 0.38593423
0.010540303 0.077615149 0.046640765 -0.23852047 0.14741376 0.38593423
0.0097811352 0.077158391 0.047193762 -0.23852047 0.14741376 0.38593423
0.0090248333 0.076703355 0.04774468 -0.23852047 0.14741376 0.38593423
0.0083477218 0.076228015 0.048189081 -0.23852047 0.14741376 0.38593423
0.0077101062 0.075743295 0.048580896 -0.23852047 0.14741376 0.38593423
0.0070742918 0.075259939 0.048971608 -0.23852047 0.14741376 0.38593423
0.0065322863 0.074750662 0.049234796 -0.23852047 0.14741376 0.38593423
0.0059946938 0.074241437 0.049492911 -0.23852047 0.14741376 0.38593423
0.005461596 0.073732227 0.049745817 -0.23852047 0.14741376 0.38593423
0.0050092861 0.073199727 0.049888209 -0.23852047 0.14741376 0.38593423
0.0045575779 0.072667934 0.050030421 -0.23852047 0.14741376 0.38593423
0.0041064676 0.072136849 0.050172452 -0.23852047 0.14741376 0.38593423
0.0037262263 0.071584471 0.050216909 -0.23852047 0.14741376 0.38593423
0.0033509685 0.071031004 0.050254818 -0.23852047 0.14741376 0.38593423
0.0029759693 0.070477925 0.050292704 -0.23852047 0.14741376 0.38593423
0.0026499743 0.069909558 0.050262719 -0.23852047 0.14741376 0.38593423
0.0023451108 0.069334522 0.050203424 -0.23852047 0.14741376 0.38593423
0.002040277 0.068759546 0.05014414 -0.23852047 0.14741376 0.38593423
0.0017602938 0.068176433 0.050050169 -0.23852047 0.14741376 0.38593423
0.0015223637 0.067579255 0.049897276 -0.23852047 0.14741376 0.38593423
0.0012843205 0.0669818 0.049744319 -0.23852047 0.14741376 0.38593423
0.0010463782 0.066383973 0.04959099 -0.23852047 0.14741376 0.38593423
0.00087408291 0.065763436 0.049345132 -0.23852047 0.14741376 0.38593423
0.00070160814 0.065142244 0.049099024 -0.23852047 0.14741376 0.38593423
0.00052895263 0.064520404 0.048852663 -0.23852047 0.14741376 0.38593423
0.000399293 0.063882813 0.048545081 -0.23852047 0.14741376 0.38593423
0.00029324068 0.063235931 0.04820342 -0.23852047 0.14741376 0.38593423
0.00018701592 0.062587999 0.047861207 -0.23852047 0.14741376 0.38593423
0.00010466232 0.061930396 0.047484346 -0.23852047 0.14741376 0.38593423
6.8044319e-05 0.061255012 0.047041614 -0.23852047 0.14741376 0.38593423
3.1344567e-05 0.060578119 0.046597902 -0.23852047 0.14741376 0.38593423
5.6581212e-06 0.059895638 0.0461374 -0.23852047 0.14741376 0.38593423
4.4033164e-05 0.059187848 0.045584343 -0.23852047 0.14741376 0.38593423
8.2519022e-05 0.058478016 0.045029696 -0.23852047 0.14741376 0.38593423
0.00012947399 0.057762984 0.044461492 -0.23852047 0.14741376 0.38593423
0.00025171149 0.057017379 0.043783929 -0.23852047 0.14741376 0.38593423
0.00037439127 0.056269076 0.043103918 -0.23852047 0.14741376 0.38593423
0.00052075414 0.05550912 0.042388048 -0.23852047 0.14741376 0.38593423
0.00074038887 0.054718081 0.041564789 -0.23852047 0.14741376 0.38593423
0.00096100324 0.053923514 0.040737864 -0.23852047 0.14741376 0.38593423
0.0011183524 0.053150665 0.039999999 -0.23852047 0.14741376 0.38593423
0.00076392631 0.052577838 0.039999999 -0.23852047 0.14741376 0.38593423
0.00040962078 0.052005202 0.039999999 -0.23852047 0.14741376 0.38593423
5.5434102e-05 0.051432747 0.039999999 -0.23852047 0.14741376 0.38593423
5.5511151e-17 0.050739434 0.039566334 -0.23852047 0.14741376 0.38593423
2.7755576e-17 0.050021909 0.039050929 -0.23852047 0.14741376 0.38593423
2.7755576e-17 0.04930247 0.038534153 -0.23852047 0.14741376 0.38593423
2.7755576e-17 0.048581101 0.038015999 -0.23852047 0.14741376 0.38593423
2.7755576e-17 0.047857795 0.037496459 -0.23852047 0.14741376 0.38593423
2.7755576e-17 0.047132537 0.036975525 -0.23852047 0.14741376 0.38593423
5.5511151e-17 0.046405319 0.036453191 -0.23852047 0.14741376 0.38593423
2.7755576e-17 0.045676123 0.035929441 -0.23852047 0.14741376 0.38593423
5.5511151e-17 0.044944946 0.035404276 -0.23852047 0.14741376 0.38593423
2.7755576e-17 0.044211771 0.034877684 -0.23852047 0.14741376 0.38593423
0 0.043476589 0.034349654 -0.23852047 0.14741376 0.38593423
2.7755576e-17 0.042739384 0.033820182 -0.23852047 0.14741376 0.38593423
0 0.042000148 0.033289257 -0.23852047 0.14741376 0.38593423
0 0.041258868 0.032756869 -0.23852047 0.14741376 0.38593423
0 0.040515535 0.032223012 -0.23852047 0.14741376 0.38593423
0 0.03977013 0.031687681 -0.23852047 0.14741376 0.38593423
0 0.039022643 0.031150857 -0.23852047 0.14741376 0.38593423
2.7755576e-17 0.038273066 0.030612539 -0.23852047 0.14741376 0.38593423
2.7755576e-17 0.037521385 0.030072717 -0.23852047 0.14741376 0.38593423
0 0.036767583 0.02953138 -0.23852047 0.14741376 0.38593423
0 0.036011655 0.028988522 -0.23852047 0.14741376 0.38593423
0 0.035253581 0.02844413 -0.23852047 0.14741376 0.38593423
0 0.034493349 0.027898198 -0.23852047 0.14741376 0.38593423
0 0.033730954 0.027350716 -0.23852047 0.14741376 0.38593423
0 0.032966375 0.026801676 -0.23852047 0.14741376 0.38593423
0 0.032199599 0.026251065 -0.23852047 0.14741376 0.38593423
0 0.031430617 0.025698874 -0.23852047 0.14741376 0.38593423
2.7755576e-17 0.030659415 0.025145099 -0.23852047 0.14741376 0.38593423
2.7755576e-17 0.029885978 0.024589725 -0.23852047 0.14741376 0.38593423
0 0.029110294 0.024032744 -0.23852047 0.14741376 0.38593423
0 0.028332347 0.023474146 -0.23852047 0.14741376 0.38593423
2.7755576e-17 0.027552126 0.022913922 -0.23852047 0.14741376 0.38593423
0 0.026769616 0.022352062 -0.23852047 0.14741376 0.38593423
0 0.025984803 0.021788556 -0.23852047 0.14741376 0.38593423
0 0.025197675 0.021223394 -0.23852047 0.14741376 0.38593423
0 0.024408216 0.020656565 -0.23852047 0.14741376 0.38593423
0 0.023616411 0.02008806 -0.23852047 0.14741376 0.38593423
0 0.022822248 0.019517869 -0.23852047 0.14741376 0.38593423
0 0.022025712 0.018945981 -0.23852047 0.14741376 0.38593423
0 0.021226786 0.018372385 -0.23852047 0.14741376 0.38593423
0 0.020425459 0.017797071 -0.23852047 0.14741376 0.38593423
0 0.019621715 0.017220031 -0.23852047 0.14741376 0.38593423
0.01074832 0.013020587 0 -0.23852047 0.14741376 0.38593423
2.7755576e-17 0.018006917 0.016060721 -0.23852047 0.14741376 0.38593423
0 0.017195832 0.015478432 -0.23852047 0.14741376 0.38593423
2.7755576e-17 0.01638227 0.014894372 -0.23852047 0.14741376 0.38593423
0 0.015566215 0.014308529 -0.23852047 0.14741376 0.38593423
0 0.013926568 0.013131454 -0.23852047 0.14741376 0.38593423
0.0080105569 0.0085921995 0 -0.23852047 0.14741376 0.38593423
0 0.012276763 0.011947117 -0.23852047 0.14741376 0.38593423
2.7755576e-17 0.011448014 0.011352197 -0.23852047 0.14741376 0.38593423
0.0068377792 0.0066950498 5.5511151e-17 -0.23852047 0.14741376 0.38593423
0 0.0097827381 0.010156798 -0.23852047 0.14741376 0.38593423
0.0060560727 0.0054304656 5.5511151e-17 -0.23852047 0.14741376 0.38593423
0 0.0081069861 0.0089539085 -0.23852047 0.14741376 0.38593423
0 0.0072651408 0.0083496254 -0.23852047 0.14741376 0.38593423
0 0.0064206268 0.0077434345 -0.23852047 0.14741376 0.38593423
2.7755576e-17 0.0055734278 0.0071353232 -0.23852047 0.14741376 0.38593423
0.004102204 0.0022694627 0 -0.23852047 0.14741376 0.38593423
0 0.0038709058 0.0059132925 -0.23852047 0.14741376 0.38593423
0 0.0021574385 0.004683435 -0.23852047 0.14741376 0.38593423
0 0.0012965569 0.0040655406 -0.23852047 0.14741376 0.38593423
2.7755576e-17 0.0004328865 0.0034456516 -0.23852047 0.14741376 0.38593423
0.039520472 0.079999998 0.0134789 -0.23852047 0.14741376 0.38593423
0.036552392 0.079999998 0.016936159 -0.23852047 0.14741376 0.38593423
0.033640616 0.079999998 0.020327836 -0.23852047 0.14741376 0.38593423
0.030783549 0.079999998 0.023655793 -0.23852047 0.14741376 0.38593423
0.027979646 0.079999998 0.026921825 -0.23852047 0.14741376 0.38593423
0.025227427 0.079999998 0.030127663 -0.23852047 0.14741376 0.38593423
0.022525461 0.079999998 0.033274967 -0.23852047 0.14741376 0.38593423
0.019872373 0.079999998 0.036365345 -0.23852047 0.14741376 0.38593423
0.017266834 0.079999998 0.039400335 -0.23852047 0.14741376 0.38593423
0.016180271 0.079607941 0.040383425 -0.23852047 0.14741376 0.38593423
0.014789673 0.079301879 0.041782651 -0.23852047 0.14741376 0.38593423
0.013648864 0.078933865 0.042846266 -0.23852047 0.14741376 0.38593423
0.012551699 0.078558445 0.043853715 -0.23852047 0.14741376 0.38593423
0.011639136 0.07813625 0.044612419 -0.23852047 0.14741376 0.38593423
0.010731095 0.077716142 0.045367368 -0.23852047 0.14741376 0.38593423
0.0099540092 0.077262402 0.045945544 -0.23852047 0.14741376 0.38593423
0.0091954675 0.076806016 0.046500213 -0.23852047 0.14741376 0.38593423
0.0084906956 0.076336712 0.04698294 -0.23852047 0.14741376 0.38593423
0.0078513362 0.075850658 0.047377415 -0.23852047 0.14741376 0.38593423
0.0072137867 0.075365983 0.047770772 -0.23852047 0.14741376 0.38593423
0.0066493754 0.074861564 0.048064716 -0.23852047 0.14741376 0.38593423
0.0061104144 0.07435105 0.048324622 -0.23852047 0.14741376 0.38593423
0.0055725477 0.073841572 0.048584003 -0.23852047 0.14741376 0.38593423
0.0051047713 0.073312141 0.048747361 -0.23852047 0.14741376 0.38593423
0.0046519851 0.072779082 0.04889065 -0.23852047 0.14741376 0.38593423
0.0041998005 0.07224673 0.049033757 -0.23852047 0.14741376 0.38593423
0.0038031477 0.071697921 0.049100317 -0.23852047 0.14741376 0.38593423
0.0034270457 0.07114321 0.049138691 -0.23852047 0.14741376 0.38593423
0.0030512039 0.070588887 0.049177047 -0.23852047 0.14741376 0.38593423
0.0027105152 0.070023745 0.049166661 -0.23852047 0.14741376 0.38593423
0.0024050029 0.069447488 0.049107295 -0.23852047 0.14741376 0.38593423
0.0020995201 0.068871289 0.049047939 -0.23852047 0.14741376 0.38593423
0.0018060214 0.06829121 0.048971828 -0.23852047 0.14741376 0.38593423
0.0015676107 0.067692824 0.048818365 -0.23852047 0.14741376 0.38593423
0.0013290864 0.067094155 0.048664831 -0.23852047 0.14741376 0.38593423
0.0010904474 0.066495195 0.048511229 -0.23852047 0.14741376 0.38593423
0.00090576388 0.065877534 0.048281301 -0.23852047 0.14741376 0.38593423
0.00073295773 0.065255158 0.048034143 -0.23852047 0.14741376 0.38593423
0.00055997027 0.064632118 0.047786724 -0.23852047 0.14741376 0.38593423
0.00041809509 0.0639975 0.047494724 -0.23852047 0.14741376 0.38593423
0.00031184897 0.063349441 0.047151539 -0.23852047 0.14741376 0.38593423
0.00020542982 0.062700316 0.046807796 -0.23852047 0.14741376 0.38593423
0.00011092014 0.062045816 0.046446305 -0.23852047 0.14741376 0.38593423
7.4238582e-05 0.061369259 0.046001565 -0.23852047 0.14741376 0.38593423
3.7474991e-05 0.060691189 0.045555834 -0.23852047 0.14741376 0.38593423
6.2891019e-07 0.060011599 0.045109104 -0.23852047 0.14741376 0.38593423
3.7783724e-05 0.059303116 0.044555362 -0.23852047 0.14741376 0.38593423
7.6333046e-05 0.058592111 0.043998182 -0.23852047 0.14741376 0.38593423
0.00011499423 0.057879042 0.043439388 -0.23852047 0.14741376 0.38593423
0.0002325761 0.057134099 0.042765699 -0.23852047 0.14741376 0.38593423
0.00035544665 0.056384631 0.042082597 -0.23852047 0.14741376 0.38593423
0.0004874398 0.055629104 0.041384503 -0.23852047 0.14741376 0.38593423
0.00070739223 0.054836921 0.040557537 -0.23852047 0.14741376 0.38593423
0.00073943177 0.05411486 0.039999999 -0.23852047 0.14741376 0.38593423
0.00038540913 0.053542431 0.039999999 -0.23852047 0.14741376 0.38593423
3.1506785e-05 0.052970197 0.039999999 -0.23852047 0.14741376 0.38593423
5.5511151e-17 0.052269593 0.039531957 -0.23852047 0.14741376 0.38593423
5.5511151e-17 0.05155462 0.039016869 -0.23852047 0.14741376 0.38593423
5.5511151e-17 0.050837751 0.038500413 -0.23852047 0.14741376 0.38593423
2.7755576e-17 0.050118968 0.037982587 -0.23852047 0.14741376 0.38593423
5.5511151e-17 0.049398262 0.037463374 -0.23852047 0.14741376 0.38593423
2.7755576e-17 0.048675619 0.036942776 -0.23852047 0.14741376 0.38593423
5.5511151e-17 0.047951028 0.036420777 -0.23852047 0.14741376 0.38593423
2.7755576e-17 0.047224484 0.03589737 -0.23852047 0.14741376 0.38593423
2.7755576e-17 0.046495967 0.035372552 -0.23852047 0.14741376 0.38593423
2.7755576e-17 0.045765471 0.03484631 -0.23852047 0.14741376 0.38593423
2.7755576e-17 0.045032982 0.034318637 -0.23852047 0.14741376 0.38593423
2.7755576e-17 0.044298489 0.033789527 -0.23852047 0.14741376 0.38593423
0 0.04356198 0.033258967 -0.23852047 0.14741376 0.38593423
0 0.042823445 0.032726951 -0.23852047 0.14741376 0.38593423
0 0.042082869 0.032193467 -0.23852047 0.14741376 0.38593423
0 0.041340243 0.031658512 -0.23852047 0.14741376 0.38593423
0 0.040595554 0.031122075 -0.23852047 0.14741376 0.38593423
0 0.039848786 0.030584145 -0.23852047 0.14741376 0.38593423
2.7755576e-17 0.039099932 0.030044716 -0.23852047 0.14741376 0.38593423
0 0.038348977 0.029503779 -0.23852047 0.14741376 0.38593423
0 0.037595905 0.028961323 -0.23852047 0.14741376 0.38593423
2.7755576e-17 0.036840711 0.02841734 -0.23852047 0.14741376 0.38593423
0 0.036083378 0.027871821 -0.23852047 0.14741376 0.38593423
0 0.035323896 0.027324758 -0.23852047 0.14741376 0.38593423
0 0.034562249 0.026776139 -0.23852047 0.14741376 0.38593423
0 0.033798423 0.026225958 -0.23852047 0.14741376 0.38593423
0 0.03303241 0.025674202 -0.23852047 0.14741376 0.38593423
0 0.032264192 0.025120866 -0.23852047 0.14741376 0.38593423
0 0.031493761 0.024565935 -0.23852047 0.14741376 0.38593423
0 0.030721096 0.024009405 -0.23852047 0.14741376 0.38593423
0 0.029946191 0.023451261 -0.23852047 0.14741376 0.38593423
0 0.029169029 0.022891497 -0.23852047 0.14741376 0.38593423
0 0.028389597 0.022330103 -0.23852047 0.14741376 0.38593423
0 0.027607881 0.021767069 -0.23852047 0.14741376 0.38593423
0 0.026823867 0.021202384 -0.23852047 0.14741376 0.38593423
0 0.026037542 0.020636037 -0.23852047 0.14741376 0.38593423
0 0.025248891 0.020068021 -0.23852047 0.14741376 0.38593423
0 0.0244579 0.019498324 -0.23852047 0.14741376 0.38593423
0 0.023664556 0.018926935 -0.23852047 0.14741376 0.38593423
0 0.022868844 0.018353844 -0.23852047 0.14741376 0.38593423
0 0.022070747 0.017779043 -0.23852047 0.14741376 0.38593423
0 0.021270255 0.017202519 -0.23852047 0.14741376 0.38593423
0 0.02046735 0.016624263 -0.23852047 0.14741376 0.38593423
2.7755576e-17 0.019662019 0.016044263 -0.23852047 0.14741376 0.38593423
0 0.018854246 0.015462508 -0.23852047 0.14741376 0.38593423
0 0.018044015 0.014878989 -0.23852047 0.14741376 0.38593423
0 0.017231314 0.014293694 -0.23852047 0.14741376 0.38593423
0.0087830871 0.011592371 0 -0.23852047 0.14741376 0.38593423
0 0.015598432 0.013117732 -0.23852047 0.14741376 0.38593423
0 0.014778223 0.012527044 -0.23852047 0.14741376 0.38593423
0 0.013955479 0.011934536 -0.23852047 0.14741376 0.38593423
0 0.013130188 0.011340195 -0.23852047 0.14741376 0.38593423
0 0.01230233 0.010744012 -0.23852047 0.14741376 0.38593423
0.0064398572 0.0078015723 0 -0.23852047 0.14741376 0.38593423
0 0.010638855 0.0095460713 -0.23852047 0.14741376 0.38593423
0 0.0089649279 0.0083406204 -0.23852047 0.14741376 0.38593423
0 0.0081240023 0.0077350484 -0.23852047 0.14741376 0.38593423
2.7755576e-17 0.007280414 0.0071275639 -0.23852047 0.14741376 0.38593423
0 0.0064341463 0.0065181544 -0.23852047 0.14741376 0.38593423
0.0037073493 0.0033807249 5.5511151e-17 -0.23852047 0.14741376 0.38593423
0.0033170667 0.0027492722 0 -0.23852047 0.14741376 0.38593423
0.0029267971 0.0021178345 0 -0.23852047 0.14741376 0.38593423
0 0.0030219394 0.0040610195 -0.23852047 0.14741376 0.38593423
2.7755576e-17 0.0021620179 0.0034417999 -0.23852047 0.14741376 0.38593423
0.0017560489 0.00022358126 5.5511151e-17 -0.23852047 0.14741376 0.38593423
0 0.00043380831 0.0021973501 -0.23852047 0.14741376 0.38593423
0.037312575 0.079999998 0.01481967 -0.23852047 0.14741376 0.38593423
0.034380347 0.079999998 0.018246897 -0.23852047 0.14741376 0.38593423
0.031503465 0.079999998 0.02160944 -0.23852047 0.14741376 0.38593423
0.028680352 0.079999998 0.024909135 -0.23852047 0.14741376 0.38593423
0.025909511 0.079999998 0.028147738 -0.23852047 0.14741376 0.38593423
0.023189485 0.079999998 0.03132695 -0.23852047 0.14741376 0.38593423
0.020518877 0.079999998 0.0344484 -0.23852047 0.14741376 0.38593423
0.017896341 0.079999998 0.037513666 -0.23852047 0.14741376 0.38593423
0.015705857 0.079897679 0.039999999 -0.23852047 0.14741376 0.38593423
0.015121002 0.079374798 0.040305737 -0.23852047 0.14741376 0.38593423
0.013912108 0.079022571 0.04146418 -0.23852047 0.14741376 0.38593423
0.012801555 0.078648359 0.042491797 -0.23852047 0.14741376 0.38593423
0.011851119 0.078234322 0.04330349 -0.23852047 0.14741376 0.38593423
0.010940121 0.07781285 0.04406371 -0.23852047 0.14741376 0.38593423
0.010127761 0.077366941 0.044690989 -0.23852047 0.14741376 0.38593423
0.0093669659 0.076909199 0.045249447 -0.23852047 0.14741376 0.38593423
0.0086343633 0.07644593 0.045770954 -0.23852047 0.14741376 0.38593423
0.0079932492 0.075958543 0.046168108 -0.23852047 0.14741376 0.38593423
0.0073539554 0.075472541 0.046564136 -0.23852047 0.14741376 0.38593423
0.0067670094 0.074972995 0.046889186 -0.23852047 0.14741376 0.38593423
0.0062266728 0.074461177 0.047150895 -0.23852047 0.14741376 0.38593423
0.0056874366 0.073950402 0.047412075 -0.23852047 0.14741376 0.38593423
0.0052006864 0.073425062 0.047601383 -0.23852047 0.14741376 0.38593423
0.0047468171 0.072890729 0.047745761 -0.23852047 0.14741376 0.38593423
0.0042935521 0.072357103 0.047889948 -0.23852047 0.14741376 0.38593423
0.0038804044 0.071811862 0.047978852 -0.23852047 0.14741376 0.38593423
0.0035034544 0.071255907 0.048017703 -0.23852047 0.14741376 0.38593423
0.0031267661 0.070700333 0.048056528 -0.23852047 0.14741376 0.38593423
0.0027713128 0.070138425 0.048065957 -0.23852047 0.14741376 0.38593423
0.0024651487 0.069560938 0.04800652 -0.23852047 0.14741376 0.38593423
0.0021590146 0.06898351 0.047947086 -0.23852047 0.14741376 0.38593423
0.0018529089 0.068406135 0.047887664 -0.23852047 0.14741376 0.38593423
0.0016130445 0.067806855 0.047734991 -0.23852047 0.14741376 0.38593423
0.0013740374 0.067206979 0.047580883 -0.23852047 0.14741376 0.38593423
0.0011349152 0.066606805 0.047426701 -0.23852047 0.14741376 0.38593423
0.00093757268 0.065992102 0.047213182 -0.23852047 0.14741376 0.38593423
0.00076443388 0.065368518 0.046964962 -0.23852047 0.14741376 0.38593423
0.00059111312 0.064744286 0.046716481 -0.23852047 0.14741376 0.38593423
0.00043697123 0.064112641 0.046440233 -0.23852047 0.14741376 0.38593423
0.00033053066 0.06346339 0.046095509 -0.23852047 0.14741376 0.38593423
0.0002239164 0.062813081 0.045750227 -0.23852047 0.14741376 0.38593423
0.00011720205 0.06216168 0.04540427 -0.23852047 0.14741376 0.38593423
8.0456717e-05 0.061483949 0.044957507 -0.23852047 0.14741376 0.38593423
4.3629061e-05 0.060804695 0.044509742 -0.23852047 0.14741376 0.38593423
6.7186306e-06 0.060123917 0.044060975 -0.23852047 0.14741376 0.38593423
3.1510768e-05 0.059418812 0.043522511 -0.23852047 0.14741376 0.38593423
7.0123759e-05 0.058706634 0.042962782 -0.23852047 0.14741376 0.38593423
0.000108849 0.057992384 0.042401426 -0.23852047 0.14741376 0.38593423
0.0002133705 0.057251245 0.041743737 -0.23852047 0.14741376 0.38593423
0.00033643242 0.05650061 0.04105752 -0.23852047 0.14741376 0.38593423
0.00045994253 0.055747241 0.040368799 -0.23852047 0.14741376 0.38593423
0.00036125226 0.055077184 0.039999999 -0.23852047 0.14741376 0.38593423
7.6340384e-06 0.054505151 0.039999999 -0.23852047 0.14741376 0.38593423
2.7755576e-17 0.053797562 0.039497651 -0.23852047 0.14741376 0.38593423
2.7755576e-17 0.053085126 0.038982879 -0.23852047 0.14741376 0.38593423
2.7755576e-17 0.052370802 0.038466748 -0.23852047 0.14741376 0.38593423
2.7755576e-17 0.051654581 0.037949242 -0.23852047 0.14741376 0.38593423
2.7755576e-17 0.050936453 0.037430361 -0.23852047 0.14741376 0.38593423
2.7755576e-17 0.050216403 0.036910094 -0.23852047 0.14741376 0.38593423
2.7755576e-17 0.049494423 0.036388434 -0.23852047 0.14741376 0.38593423
5.5511151e-17 0.048770502 0.035865374 -0.23852047 0.14741376 0.38593423
5.5511151e-17 0.048044626 0.035340901 -0.23852047 0.14741376 0.38593423
5.5511151e-17 0.047316786 0.03481501 -0.23852047 0.14741376 0.38593423
2.7755576e-17 0.046586972 0.034287695 -0.23852047 0.14741376 0.38593423
0 0.045855168 0.033758942 -0.23852047 0.14741376 0.38593423
0 0.045121364 0.033228748 -0.23852047 0.14741376 0.38593423
0 0.044385549 0.0326971 -0.23852047 0.14741376 0.38593423
0 0.04364771 0.032163993 -0.23852047 0.14741376 0.38593423
2.7755576e-17 0.042907838 0.031629417 -0.23852047 0.14741376 0.38593423
0 0.042165916 0.031093363 -0.23852047 0.14741376 0.38593423
0 0.041421939 0.030555822 -0.23852047 0.14741376 0.38593423
0 0.040675886 0.030016785 -0.23852047 0.14741376 0.38593423
0 0.039927755 0.029476246 -0.23852047 0.14741376 0.38593423
0 0.039177522 0.028934194 -0.23852047 0.14741376 0.38593423
2.7755576e-17 0.038425185 0.02839062 -0.23852047 0.14741376 0.38593423
0 0.037670724 0.027845513 -0.23852047 0.14741376 0.38593423
0 0.036914133 0.027298868 -0.23852047 0.14741376 0.38593423
0 0.036155391 0.026750673 -0.23852047 0.14741376 0.38593423
0 0.035394493 0.026200918 -0.23852047 0.14741376 0.38593423
2.7755576e-17 0.03463142 0.025649596 -0.23852047 0.14741376 0.38593423
0 0.033866163 0.025096698 -0.23852047 0.14741376 0.38593423
0 0.033098713 0.024542212 -0.23852047 0.14741376 0.38593423
2.7755576e-17 0.032329045 0.023986131 -0.23852047 0.14741376 0.38593423
0 0.031557154 0.023428442 -0.23852047 0.14741376 0.38593423
0 0.030783026 0.022869138 -0.23852047 0.14741376 0.38593423
0 0.030006647 0.02230821 -0.23852047 0.14741376 0.38593423
2.7755576e-17 0.029228002 0.021745646 -0.23852047 0.14741376 0.38593423
0 0.028447077 0.021181436 -0.23852047 0.14741376 0.38593423
0 0.02766386 0.020615572 -0.23852047 0.14741376 0.38593423
0 0.026878336 0.020048045 -0.23852047 0.14741376 0.38593423
0 0.026090493 0.019478839 -0.23852047 0.14741376 0.38593423
0 0.025300315 0.018907949 -0.23852047 0.14741376 0.38593423
0 0.024507787 0.018335365 -0.23852047 0.14741376 0.38593423
0 0.023712898 0.017761074 -0.23852047 0.14741376 0.38593423
0 0.022915628 0.017185068 -0.23852047 0.14741376 0.38593423
0 0.022115968 0.016607333 -0.23852047 0.14741376 0.38593423
2.7755576e-17 0.0213139 0.01602786 -0.23852047 0.14741376 0.38593423
0 0.020509413 0.015446641 -0.23852047 0.14741376 0.38593423
0.0095542148 0.014586863 0 -0.23852047 0.14741376 0.38593423
2.7755576e-17 0.01889311 0.014278915 -0.23852047 0.14741376 0.38593423
2.7755576e-17 0.018081266 0.013692386 -0.23852047 0.14741376 0.38593423
0 0.01726694 0.013104065 -0.23852047 0.14741376 0.38593423
0.0079932231 0.012061306 0 -0.23852047 0.14741376 0.38593423
0 0.015630784 0.011922006 -0.23852047 0.14741376 0.38593423
0 0.01480892 0.011328245 -0.23852047 0.14741376 0.38593423
0.0068228813 0.010167767 0 -0.23852047 0.14741376 0.38593423
0 0.013157547 0.010135201 -0.23852047 0.14741376 0.38593423
0 0.012328004 0.0095358947 -0.23852047 0.14741376 0.38593423
0 0.01149587 0.0089347195 -0.23852047 0.14741376 0.38593423
0 0.010661127 0.0083316602 -0.23852047 0.14741376 0.38593423
0 0.0098237609 0.0077267075 -0.23852047 0.14741376 0.38593423
0 0.0089837536 0.0071198479 -0.23852047 0.14741376 0.38593423
0.0040931175 0.0057511088 0 -0.23852047 0.14741376 0.38593423
2.7755576e-17 0.0072957515 0.0059003625 -0.23852047 0.14741376 0.38593423
0 0.0064477227 0.005287712 -0.23852047 0.14741376 0.38593423
0.0029235389 0.0038587414 0 -0.23852047 0.14741376 0.38593423
0.0025337082 0.0032279948 0 -0.23852047 0.14741376 0.38593423
0 0.0038873202 0.0034379836 -0.23852047 0.14741376 0.38593423
0 0.0021666165 0.0021948917 -0.23852047 0.14741376 0.38593423
0 0.0013020815 0.0015703258 -0.23852047 0.14741376 0.38593423
0 0.00043473404 0.00094372971 -0.23852047 0.14741376 0.38593423
0.038079746 0.079999998 0.012683712 -0.23852047 0.14741376 0.38593423
0.03512682 0.079999998 0.016146999 -0.23852047 0.14741376 0.38593423
0.032229874 0.079999998 0.019544622 -0.23852047 0.14741376 0.38593423
0.029387323 0.079999998 0.022878451 -0.23852047 0.14741376 0.38593423
0.026597636 0.079999998 0.026150281 -0.23852047 0.14741376 0.38593423
0.023859335 0.079999998 0.029361837 -0.23852047 0.14741376 0.38593423
0.021171004 0.079999998 0.032514788 -0.23852047 0.14741376 0.38593423
0.018531272 0.079999998 0.035610739 -0.23852047 0.14741376 0.38593423
0.015938822 0.079999998 0.038651235 -0.23852047 0.14741376 0.38593423
0.014590695 0.079679318 0.039999999 -0.23852047 0.14741376 0.38593423
0.014176871 0.079111785 0.040074117 -0.23852047 0.14741376 0.38593423
0.013062259 0.078736208 0.041109227 -0.23852047 0.14741376 0.38593423
0.012064243 0.078332923 0.041987516 -0.23852047 0.14741376 0.38593423
0.011150268 0.077910073 0.042753056 -0.23852047 0.14741376 0.38593423
0.010302397 0.077472016 0.043430049 -0.23852047 0.14741376 0.38593423
0.009539336 0.077012911 0.043992326 -0.23852047 0.14741376 0.38593423
0.00877917 0.07655555 0.044552464 -0.23852047 0.14741376 0.38593423
0.0081358515 0.076066948 0.044952929 -0.23852047 0.14741376 0.38593423
0.007494804 0.075579621 0.045351643 -0.23852047 0.14741376 0.38593423
0.0068851928 0.07508494 0.045708168 -0.23852047 0.14741376 0.38593423
0.0063434741 0.074571811 0.045971695 -0.23852047 0.14741376 0.38593423
0.0058028609 0.074059732 0.046234686 -0.23852047 0.14741376 0.38593423
0.0052970336 0.07353849 0.046450235 -0.23852047 0.14741376 0.38593423
0.0048420765 0.073002875 0.046595708 -0.23852047 0.14741376 0.38593423
0.0043877265 0.072467975 0.046740986 -0.23852047 0.14741376 0.38593423
0.0039579989 0.071926303 0.046852481 -0.23852047 0.14741376 0.38593423
0.0035801975 0.071369089 0.046891812 -0.23852047 0.14741376 0.38593423
0.0032026586 0.070812263 0.04693111 -0.23852047 0.14741376 0.38593423
0.0028323692 0.070253588 0.046960566 -0.23852047 0.14741376 0.38593423
0.0025255505 0.069674864 0.046901058 -0.23852047 0.14741376 0.38593423
0.0022187619 0.0690962 0.046841554 -0.23852047 0.14741376 0.38593423
0.0019120023 0.068517596 0.046782054 -0.23852047 0.14741376 0.38593423
0.0016586669 0.067921363 0.046647128 -0.23852047 0.14741376 0.38593423
0.0014191748 0.067320265 0.046492439 -0.23852047 0.14741376 0.38593423
0.0011795673 0.066718876 0.046337672 -0.23852047 0.14741376 0.38593423
0.00096951012 0.066107124 0.046140738 -0.23852047 0.14741376 0.38593423
0.00079603744 0.065482341 0.045891453 -0.23852047 0.14741376 0.38593423
0.0006223821 0.064856902 0.045641903 -0.23852047 0.14741376 0.38593423
0.00045592198 0.064228229 0.045381572 -0.23852047 0.14741376 0.38593423
0.00034928622 0.063577794 0.045035303 -0.23852047 0.14741376 0.38593423
0.00024247616 0.062926292 0.044688467 -0.23852047 0.14741376 0.38593423
0.00013549092 0.062273718 0.044341061 -0.23852047 0.14741376 0.38593423
8.6698878e-05 0.06159908 0.043909416 -0.23852047 0.14741376 0.38593423
4.9806942e-05 0.06091864 0.043459605 -0.23852047 0.14741376 0.38593423
1.2831941e-05 0.06023667 0.043008786 -0.23852047 0.14741376 0.38593423
2.5214138e-05 0.059534948 0.042485762 -0.23852047 0.14741376 0.38593423
6.3891006e-05 0.058821592 0.041923467 -0.23852047 0.14741376 0.38593423
0.0001026805 0.058106154 0.041359533 -0.23852047 0.14741376 0.38593423
0.0001940942 0.057368822 0.040718015 -0.23852047 0.14741376 0.38593423
0.00031734805 0.056617018 0.040028661 -0.23852047 0.14741376 0.38593423
2.7755576e-17 0.056031447 0.039976507 -0.23852047 0.14741376 0.38593423
2.7755576e-17 0.055323381 0.039463405 -0.23852047 0.14741376 0.38593423
5.5511151e-17 0.054613452 0.038948946 -0.23852047 0.14741376 0.38593423
5.5511151e-17 0.053901657 0.038433135 -0.23852047 0.14741376 0.38593423
5.5511151e-17 0.053187978 0.037915956 -0.23852047 0.14741376 0.38593423
5.5511151e-17 0.052472405 0.037397403 -0.23852047 0.14741376 0.38593423
5.5511151e-17 0.051754929 0.036877472 -0.23852047 0.14741376 0.38593423
2.7755576e-17 0.051035535 0.036356147 -0.23852047 0.14741376 0.38593423
2.7755576e-17 0.050314218 0.03583343 -0.23852047 0.14741376 0.38593423
2.7755576e-17 0.04959096 0.035309304 -0.23852047 0.14741376 0.38593423
2.7755576e-17 0.048865754 0.034783766 -0.23852047 0.14741376 0.38593423
2.7755576e-17 0.048138589 0.034256805 -0.23852047 0.14741376 0.38593423
2.7755576e-17 0.047409452 0.033728413 -0.23852047 0.14741376 0.38593423
2.7755576e-17 0.046678331 0.033198584 -0.23852047 0.14741376 0.38593423
0 0.045945216 0.032667305 -0.23852047 0.14741376 0.38593423
0 0.04521009 0.03213457 -0.23852047 0.14741376 0.38593423
0 0.044472948 0.031600375 -0.23852047 0.14741376 0.38593423
2.7755576e-17 0.043733776 0.031064704 -0.23852047 0.14741376 0.38593423
2.7755576e-17 0.042992562 0.030527551 -0.23852047 0.14741376 0.38593423
0 0.042249292 0.029988909 -0.23852047 0.14741376 0.38593423
0 0.041503955 0.029448766 -0.23852047 0.14741376 0.38593423
0 0.040756542 0.028907117 -0.23852047 0.14741376 0.38593423
2.7755576e-17 0.040007032 0.028363951 -0.23852047 0.14741376 0.38593423
0 0.039255422 0.027819257 -0.23852047 0.14741376 0.38593423
0 0.038501695 0.027273029 -0.23852047 0.14741376 0.38593423
0 0.037745841 0.026725257 -0.23852047 0.14741376 0.38593423
0 0.036987841 0.026175931 -0.23852047 0.14741376 0.38593423
0 0.036227692 0.025625043 -0.23852047 0.14741376 0.38593423
0 0.035465371 0.02507258 -0.23852047 0.14741376 0.38593423
0 0.034700871 0.024518538 -0.23852047 0.14741376 0.38593423
0 0.03393418 0.023962906 -0.23852047 0.14741376 0.38593423
0 0.03316528 0.023405671 -0.23852047 0.14741376 0.38593423
0 0.03239416 0.022846827 -0.23852047 0.14741376 0.38593423
0 0.031620804 0.022286363 -0.23852047 0.14741376 0.38593423
0 0.030845206 0.021724269 -0.23852047 0.14741376 0.38593423
0 0.030067347 0.021160537 -0.23852047 0.14741376 0.38593423
