# .PCD v0.7 - Point Cloud Data file format
VERSION 0.7
FIELDS x y z vp_x vp_y vp_z
SIZE 4 4 4 4 4 4
TYPE F F F F F F
COUNT 1 1 1 1 1 1
WIDTH 954
HEIGHT 1
VIEWPOINT 0 0 0 1 0 0 0
POINTS 954
DATA ascii
0.0064497776 0.00033943731 0.039999999 0 0 0.47704095
0.0058665662 0.079963677 0.039999999 0 0 0.47704095
0.0058649066 0.079262272 0.039999999 0 0 0.47704095
0.0054607871 0.073168553 0.07 0 0 0.47704095
0.0054592695 0.072516032 0.07 0 0 0.47704095
0.0054577654 0.071863867 0.07 0 0 0.47704095
0.0054562758 0.071212061 0.07 0 0 0.47704095
0.0054548001 0.070560612 0.07 0 0 0.47704095
0.0054533384 0.069909513 0.07 0 0 0.47704095
0.0054518902 0.069258757 0.07 0 0 0.47704095
0.0054504564 0.068608351 0.07 0 0 0.47704095
0.0054490361 0.06795828 0.07 0 0 0.47704095
0.0054476298 0.067308553 0.07 0 0 0.47704095
0.0054462375 0.06665916 0.07 0 0 0.47704095
0.0054448592 0.066010088 0.07 0 0 0.47704095
0.0054434943 0.065361351 0.07 0 0 0.47704095
0.0054421434 0.064712934 0.07 0 0 0.47704095
0.0054408065 0.064064838 0.07 0 0 0.47704095
0.0054394831 0.063417062 0.07 0 0 0.47704095
0.0054381737 0.062769592 0.07 0 0 0.47704095
0.0054368777 0.062122438 0.07 0 0 0.47704095
0.0054355958 0.06147559 0.07 0 0 0.47704095
0.0054343273 0.060829043 0.07 0 0 0.47704095
0.0054330728 0.060182799 0.07 0 0 0.47704095
0.0054318318 0.059536848 0.07 0 0 0.47704095
0.0054306043 0.058891196 0.07 0 0 0.47704095
0.0054293908 0.05824583 0.07 0 0 0.47704095
0.0054281908 0.057600752 0.07 0 0 0.47704095
0.0054270043 0.056955956 0.07 0 0 0.47704095
0.0054258318 0.056311443 0.07 0 0 0.47704095
0.0054246723 0.055667207 0.07 0 0 0.47704095
0.0054235267 0.055023242 0.07 0 0 0.47704095
0.0054223947 0.054379549 0.07 0 0 0.47704095
0.0054212762 0.053736124 0.07 0 0 0.47704095
0.0054201712 0.05309296 0.07 0 0 0.47704095
0.0054190801 0.052450057 0.07 0 0 0.47704095
0.0054180021 0.051807415 0.07 0 0 0.47704095
0.0054169376 0.051165026 0.07 0 0 0.47704095
0.0054158866 0.050522886 0.07 0 0 0.47704095
0.0054148491 0.049880993 0.07 0 0 0.47704095
0.0054138252 0.049239345 0.07 0 0 0.47704095
0.0054128147 0.048597939 0.07 0 0 0.47704095
0.0054118172 0.047956768 0.07 0 0 0.47704095
0.0054108337 0.047315836 0.07 0 0 0.47704095
0.0054098633 0.046675134 0.07 0 0 0.47704095
0.0054393709 0.046293937 0.067707434 0 0 0.47704095
0.0055064419 0.04622104 0.062587805 0 0 0.47704095
0.0055762404 0.046154924 0.057262067 0 0 0.47704095
0.0056478437 0.046087101 0.051799674 0 0 0.47704095
0.0057213223 0.046017502 0.046195269 0 0 0.47704095
0.005796751 0.045946054 0.040443212 0 0 0.47704095
0.005801694 0.045306414 0.039999999 0 0 0.47704095
0.0058007669 0.044620354 0.039999999 0 0 0.47704095
0.0057998542 0.043934509 0.039999999 0 0 0.47704095
0.0057989554 0.043248881 0.039999999 0 0 0.47704095
0.0057980712 0.042563464 0.039999999 0 0 0.47704095
0.0057972013 0.041878253 0.039999999 0 0 0.47704095
0.0057963454 0.041193247 0.039999999 0 0 0.47704095
0.005795504 0.040508442 0.039999999 0 0 0.47704095
0.005794677 0.039823834 0.039999999 0 0 0.47704095
0.0057938634 0.039139416 0.039999999 0 0 0.47704095
0.0057930648 0.038455192 0.039999999 0 0 0.47704095
0.0057922802 0.037771154 0.039999999 0 0 0.47704095
0.0057915095 0.037087303 0.039999999 0 0 0.47704095
0.0057907533 0.03640363 0.039999999 0 0 0.47704095
0.005790011 0.035720132 0.039999999 0 0 0.47704095
0.0057892832 0.03503681 0.039999999 0 0 0.47704095
0.0057885693 0.034353655 0.039999999 0 0 0.47704095
0.0057878694 0.033670668 0.039999999 0 0 0.47704095
0.005787184 0.032987844 0.039999999 0 0 0.47704095
0.0057865125 0.032305185 0.039999999 0 0 0.47704095
0.005785855 0.031622678 0.039999999 0 0 0.47704095
0.0057852119 0.030940324 0.039999999 0 0 0.47704095
0.0057845828 0.030258123 0.039999999 0 0 0.47704095
0.0057839677 0.029576067 0.039999999 0 0 0.47704095
0.0057833665 0.028894154 0.039999999 0 0 0.47704095
0.0057827798 0.028212382 0.039999999 0 0 0.47704095
0.005782207 0.027530747 0.039999999 0 0 0.47704095
0.0057816482 0.026849244 0.039999999 0 0 0.47704095
0.0057811034 0.026167871 0.039999999 0 0 0.47704095
0.005780573 0.025486626 0.039999999 0 0 0.47704095
0.0057800561 0.024805505 0.039999999 0 0 0.47704095
0.0057795537 0.024124503 0.039999999 0 0 0.47704095
0.0057790652 0.023443617 0.039999999 0 0 0.47704095
0.0057785907 0.022762846 0.039999999 0 0 0.47704095
0.0057781301 0.022082184 0.039999999 0 0 0.47704095
0.0057776836 0.021401629 0.039999999 0 0 0.47704095
0.005777251 0.020721179 0.039999999 0 0 0.47704095
0.0057768328 0.020040827 0.039999999 0 0 0.47704095
0.0057764282 0.019360572 0.039999999 0 0 0.47704095
0.0057760375 0.018680412 0.039999999 0 0 0.47704095
0.0057756612 0.018000342 0.039999999 0 0 0.47704095
0.0057752985 0.017320359 0.039999999 0 0 0.47704095
0.0057749501 0.01664046 0.039999999 0 0 0.47704095
0.0057746153 0.015960641 0.039999999 0 0 0.47704095
0.005774295 0.015280899 0.039999999 0 0 0.47704095
0.0057739881 0.014601231 0.039999999 0 0 0.47704095
0.0057736957 0.013921633 0.039999999 0 0 0.47704095
0.0057734167 0.013242103 0.039999999 0 0 0.47704095
0.0057731522 0.012562636 0.039999999 0 0 0.47704095
0.0057729012 0.011883231 0.039999999 0 0 0.47704095
0.0057726647 0.011203882 0.039999999 0 0 0.47704095
0.0057724416 0.010524589 0.039999999 0 0 0.47704095
0.0057722325 0.0098453453 0.039999999 0 0 0.47704095
0.0057720374 0.0091661494 0.039999999 0 0 0.47704095
0.0057718568 0.0084869973 0.039999999 0 0 0.47704095
0.0057716896 0.0078078872 0.039999999 0 0 0.47704095
0.0057715364 0.0071288142 0.039999999 0 0 0.47704095
0.0057713971 0.0064497758 0.039999999 0 0 0.47704095
0.0057712714 0.0057707685 0.039999999 0 0 0.47704095
0.0057711601 0.0050917892 0.039999999 0 0 0.47704095
0.0057710628 0.0044128341 0.039999999 0 0 0.47704095
0.005770979 0.0037339006 0.039999999 0 0 0.47704095
0.0057709096 0.0030549851 0.039999999 0 0 0.47704095
0.0057708537 0.0023760842 0.039999999 0 0 0.47704095
0.0057708123 0.0016971948 0.039999999 0 0 0.47704095
0.0057707843 0.0010183136 0.039999999 0 0 0.47704095
0.0057707704 0.00033943731 0.039999999 0 0 0.47704095
0.0051763155 0.079963677 0.039999999 0 0 0.47704095
0.005174851 0.079262272 0.039999999 0 0 0.47704095
0.0051733996 0.078561269 0.039999999 0 0 0.47704095
0.0048169405 0.072516032 0.07 0 0 0.47704095
0.0048156134 0.071863867 0.07 0 0 0.47704095
0.0048142993 0.071212061 0.07 0 0 0.47704095
0.0048129968 0.070560612 0.07 0 0 0.47704095
0.004811707 0.069909513 0.07 0 0 0.47704095
0.0048104296 0.069258757 0.07 0 0 0.47704095
0.0048091644 0.068608351 0.07 0 0 0.47704095
0.0048079113 0.06795828 0.07 0 0 0.47704095
0.0048066704 0.067308553 0.07 0 0 0.47704095
0.0048054419 0.06665916 0.07 0 0 0.47704095
0.0048042256 0.066010088 0.07 0 0 0.47704095
0.0048030214 0.065361351 0.07 0 0 0.47704095
0.0048018293 0.064712934 0.07 0 0 0.47704095
0.0048006498 0.064064838 0.07 0 0 0.47704095
0.0047994824 0.063417062 0.07 0 0 0.47704095
0.0047983266 0.062769592 0.07 0 0 0.47704095
0.0047971834 0.062122438 0.07 0 0 0.47704095
0.0047960524 0.06147559 0.07 0 0 0.47704095
0.0047949329 0.060829043 0.07 0 0 0.47704095
0.004793826 0.060182799 0.07 0 0 0.47704095
0.0047927313 0.059536848 0.07 0 0 0.47704095
0.0047916481 0.058891196 0.07 0 0 0.47704095
0.0047905771 0.05824583 0.07 0 0 0.47704095
0.0047895187 0.057600752 0.07 0 0 0.47704095
0.0047884719 0.056955956 0.07 0 0 0.47704095
0.0047874367 0.056311443 0.07 0 0 0.47704095
0.0047864141 0.055667207 0.07 0 0 0.47704095
0.0047854031 0.055023242 0.07 0 0 0.47704095
0.0047844043 0.054379549 0.07 0 0 0.47704095
0.0047834176 0.053736124 0.07 0 0 0.47704095
0.0047824425 0.05309296 0.07 0 0 0.47704095
0.0047814795 0.052450057 0.07 0 0 0.47704095
0.0047805286 0.051807415 0.07 0 0 0.47704095
0.0047795894 0.051165026 0.07 0 0 0.47704095
0.0047786618 0.050522886 0.07 0 0 0.47704095
0.0047777467 0.049880993 0.07 0 0 0.47704095
0.0047768429 0.049239345 0.07 0 0 0.47704095
0.0047759516 0.048597939 0.07 0 0 0.47704095
0.0047750715 0.047956768 0.07 0 0 0.47704095
0.0047742035 0.047315836 0.07 0 0 0.47704095
0.0048101242 0.047034744 0.066863932 0 0 0.47704095
0.0048689982 0.046965431 0.061770052 0 0 0.47704095
0.0049293423 0.04689439 0.05655003 0 0 0.47704095
0.0049912119 0.04682155 0.051199097 0 0 0.47704095
0.0050546648 0.04674685 0.04571224 0 0 0.47704095
0.0051197633 0.04667021 0.040084187 0 0 0.47704095
0.0051199067 0.045992695 0.039999999 0 0 0.47704095
0.005119076 0.045306414 0.039999999 0 0 0.47704095
0.0051182578 0.044620354 0.039999999 0 0 0.47704095
0.0051174527 0.043934509 0.039999999 0 0 0.47704095
0.0051166597 0.043248881 0.039999999 0 0 0.47704095
0.0051158792 0.042563464 0.039999999 0 0 0.47704095
0.0051151118 0.041878253 0.039999999 0 0 0.47704095
0.0051143565 0.041193247 0.039999999 0 0 0.47704095
0.0051136143 0.040508442 0.039999999 0 0 0.47704095
0.0051128841 0.039823834 0.039999999 0 0 0.47704095
0.005112167 0.039139416 0.039999999 0 0 0.47704095
0.005111462 0.038455192 0.039999999 0 0 0.47704095
0.0051107695 0.037771154 0.039999999 0 0 0.47704095
0.0051100897 0.037087303 0.039999999 0 0 0.47704095
0.0051094224 0.03640363 0.039999999 0 0 0.47704095
0.0051087677 0.035720132 0.039999999 0 0 0.47704095
0.005108125 0.03503681 0.039999999 0 0 0.47704095
0.0051074955 0.034353655 0.039999999 0 0 0.47704095
0.005106878 0.033670668 0.039999999 0 0 0.47704095
0.0051062731 0.032987844 0.039999999 0 0 0.47704095
0.0051056803 0.032305185 0.039999999 0 0 0.47704095
0.0051051006 0.031622678 0.039999999 0 0 0.47704095
0.0051045329 0.030940324 0.039999999 0 0 0.47704095
0.0051039779 0.030258123 0.039999999 0 0 0.47704095
0.0051034354 0.029576067 0.039999999 0 0 0.47704095
0.005102905 0.028894154 0.039999999 0 0 0.47704095
0.0051023872 0.028212382 0.039999999 0 0 0.47704095
0.0051018815 0.027530747 0.039999999 0 0 0.47704095
0.0051013888 0.026849244 0.039999999 0 0 0.47704095
0.0051009082 0.026167871 0.039999999 0 0 0.47704095
0.0051004398 0.025486626 0.039999999 0 0 0.47704095
0.0050999839 0.024805505 0.039999999 0 0 0.47704095
0.0050995406 0.024124503 0.039999999 0 0 0.47704095
0.0050991094 0.023443617 0.039999999 0 0 0.47704095
0.0050986907 0.022762846 0.039999999 0 0 0.47704095
0.0050982842 0.022082184 0.039999999 0 0 0.47704095
0.0050978903 0.021401629 0.039999999 0 0 0.47704095
0.0050975089 0.020721179 0.039999999 0 0 0.47704095
0.0050971396 0.020040827 0.039999999 0 0 0.47704095
0.0050967829 0.019360572 0.039999999 0 0 0.47704095
0.0050964383 0.018680412 0.039999999 0 0 0.47704095
0.0050961059 0.018000342 0.039999999 0 0 0.47704095
0.0050957859 0.017320359 0.039999999 0 0 0.47704095
0.0050954786 0.01664046 0.039999999 0 0 0.47704095
0.0050951834 0.015960641 0.039999999 0 0 0.47704095
0.0050949007 0.015280899 0.039999999 0 0 0.47704095
0.0050946297 0.014601231 0.039999999 0 0 0.47704095
0.0050943717 0.013921633 0.039999999 0 0 0.47704095
0.0050941259 0.013242103 0.039999999 0 0 0.47704095
0.0050938921 0.012562636 0.039999999 0 0 0.47704095
0.0050936709 0.011883231 0.039999999 0 0 0.47704095
0.0050934618 0.011203882 0.039999999 0 0 0.47704095
0.0050932653 0.010524589 0.039999999 0 0 0.47704095
0.0050930809 0.0098453453 0.039999999 0 0 0.47704095
0.0050929086 0.0091661494 0.039999999 0 0 0.47704095
0.0050927489 0.0084869973 0.039999999 0 0 0.47704095
0.0050926018 0.0078078872 0.039999999 0 0 0.47704095
0.0050924663 0.0071288142 0.039999999 0 0 0.47704095
0.0050923433 0.0064497758 0.039999999 0 0 0.47704095
0.005092233 0.0057707685 0.039999999 0 0 0.47704095
0.0050921347 0.0050917892 0.039999999 0 0 0.47704095
0.0050920486 0.0044128341 0.039999999 0 0 0.47704095
0.005091975 0.0037339006 0.039999999 0 0 0.47704095
0.0050919135 0.0030549851 0.039999999 0 0 0.47704095
0.0050918642 0.0023760842 0.039999999 0 0 0.47704095
0.0050918274 0.0016971948 0.039999999 0 0 0.47704095
0.0050918027 0.0010183136 0.039999999 0 0 0.47704095
0.0050917906 0.00033943731 0.039999999 0 0 0.47704095
0.0044860896 0.079963677 0.039999999 0 0 0.47704095
0.0044848202 0.079262272 0.039999999 0 0 0.47704095
0.0044835624 0.078561269 0.039999999 0 0 0.47704095
0.0044823163 0.077860653 0.039999999 0 0 0.47704095
0.0041734846 0.071863867 0.07 0 0 0.47704095
0.0041723456 0.071212061 0.07 0 0 0.47704095
0.0041712169 0.070560612 0.07 0 0 0.47704095
0.0041700993 0.069909513 0.07 0 0 0.47704095
0.0041689919 0.069258757 0.07 0 0 0.47704095
0.0041678953 0.068608351 0.07 0 0 0.47704095
0.0041668094 0.06795828 0.07 0 0 0.47704095
0.0041657342 0.067308553 0.07 0 0 0.47704095
0.0041646697 0.06665916 0.07 0 0 0.47704095
0.0041636154 0.066010088 0.07 0 0 0.47704095
0.0041625719 0.065361351 0.07 0 0 0.47704095
0.0041615386 0.064712934 0.07 0 0 0.47704095
0.0041605164 0.064064838 0.07 0 0 0.47704095
0.0041595045 0.063417062 0.07 0 0 0.47704095
0.0041585029 0.062769592 0.07 0 0 0.47704095
0.004157512 0.062122438 0.07 0 0 0.47704095
0.0041565318 0.06147559 0.07 0 0 0.47704095
0.0041555618 0.060829043 0.07 0 0 0.47704095
0.0041546025 0.060182799 0.07 0 0 0.47704095
0.0041536535 0.059536848 0.07 0 0 0.47704095
0.0041527152 0.058891196 0.07 0 0 0.47704095
0.0041517871 0.05824583 0.07 0 0 0.47704095
0.0041508693 0.057600752 0.07 0 0 0.47704095
0.0041499622 0.056955956 0.07 0 0 0.47704095
0.0041490654 0.056311443 0.07 0 0 0.47704095
0.0041481787 0.055667207 0.07 0 0 0.47704095
0.0041473028 0.055023242 0.07 0 0 0.47704095
0.0041464372 0.054379549 0.07 0 0 0.47704095
0.0041455817 0.053736124 0.07 0 0 0.47704095
0.004144737 0.05309296 0.07 0 0 0.47704095
0.0041439021 0.052450057 0.07 0 0 0.47704095
0.0041430779 0.051807415 0.07 0 0 0.47704095
0.0041422639 0.051165026 0.07 0 0 0.47704095
0.0041414606 0.050522886 0.07 0 0 0.47704095
0.0041406672 0.049880993 0.07 0 0 0.47704095
0.0041398839 0.049239345 0.07 0 0 0.47704095
0.0041391114 0.048597939 0.07 0 0 0.47704095
0.0041383486 0.047956768 0.07 0 0 0.47704095
0.0041780844 0.047778837 0.066016965 0 0 0.47704095
0.0042293295 0.047718506 0.060901023 0 0 0.47704095
0.0042818571 0.047656666 0.055658113 0 0 0.47704095
0.0043357154 0.047593258 0.050283421 0 0 0.47704095
0.0043909554 0.047528226 0.044771887 0 0 0.47704095
0.004438675 0.047365934 0.039999999 0 0 0.47704095
0.0044379332 0.046679199 0.039999999 0 0 0.47704095
0.0044372026 0.045992695 0.039999999 0 0 0.47704095
0.0044364827 0.045306414 0.039999999 0 0 0.47704095
0.0044357735 0.044620354 0.039999999 0 0 0.47704095
0.0044350754 0.043934509 0.039999999 0 0 0.47704095
0.0044343886 0.043248881 0.039999999 0 0 0.47704095
0.0044337125 0.042563464 0.039999999 0 0 0.47704095
0.004433047 0.041878253 0.039999999 0 0 0.47704095
0.0044323928 0.041193247 0.039999999 0 0 0.47704095
0.0044317492 0.040508442 0.039999999 0 0 0.47704095
0.0044311164 0.039823834 0.039999999 0 0 0.47704095
0.0044304947 0.039139416 0.039999999 0 0 0.47704095
0.0044298838 0.038455192 0.039999999 0 0 0.47704095
0.0044292836 0.037771154 0.039999999 0 0 0.47704095
0.0044286945 0.037087303 0.039999999 0 0 0.47704095
0.0044281161 0.03640363 0.039999999 0 0 0.47704095
0.0044275485 0.035720132 0.039999999 0 0 0.47704095
0.004426992 0.03503681 0.039999999 0 0 0.47704095
0.0044264463 0.034353655 0.039999999 0 0 0.47704095
0.0044259112 0.033670668 0.039999999 0 0 0.47704095
0.0044253869 0.032987844 0.039999999 0 0 0.47704095
0.0044248733 0.032305185 0.039999999 0 0 0.47704095
0.0044243708 0.031622678 0.039999999 0 0 0.47704095
0.0044238786 0.030940324 0.039999999 0 0 0.47704095
0.0044233976 0.030258123 0.039999999 0 0 0.47704095
0.0044229273 0.029576067 0.039999999 0 0 0.47704095
0.0044224677 0.028894154 0.039999999 0 0 0.47704095
0.0044220188 0.028212382 0.039999999 0 0 0.47704095
0.004421581 0.027530747 0.039999999 0 0 0.47704095
0.0044211536 0.026849244 0.039999999 0 0 0.47704095
0.0044207373 0.026167871 0.039999999 0 0 0.47704095
0.0044203312 0.025486626 0.039999999 0 0 0.47704095
0.0044199363 0.024805505 0.039999999 0 0 0.47704095
0.0044195522 0.024124503 0.039999999 0 0 0.47704095
0.0044191782 0.023443617 0.039999999 0 0 0.47704095
0.0044188155 0.022762846 0.039999999 0 0 0.47704095
0.0044184634 0.022082184 0.039999999 0 0 0.47704095
0.0044181221 0.021401629 0.039999999 0 0 0.47704095
0.0044177915 0.020721179 0.039999999 0 0 0.47704095
0.0044174711 0.020040827 0.039999999 0 0 0.47704095
0.0044171619 0.019360572 0.039999999 0 0 0.47704095
0.0044168634 0.018680412 0.039999999 0 0 0.47704095
0.0044165757 0.018000342 0.039999999 0 0 0.47704095
0.0044162981 0.017320359 0.039999999 0 0 0.47704095
0.0044160318 0.01664046 0.039999999 0 0 0.47704095
0.0044157756 0.015960641 0.039999999 0 0 0.47704095
0.0044155307 0.015280899 0.039999999 0 0 0.47704095
0.004415296 0.014601231 0.039999999 0 0 0.47704095
0.0044150725 0.013921633 0.039999999 0 0 0.47704095
0.0044148592 0.013242103 0.039999999 0 0 0.47704095
0.0044146567 0.012562636 0.039999999 0 0 0.47704095
0.0044144653 0.011883231 0.039999999 0 0 0.47704095
0.0044142841 0.011203882 0.039999999 0 0 0.47704095
0.0044141137 0.010524589 0.039999999 0 0 0.47704095
0.0044139535 0.0098453453 0.039999999 0 0 0.47704095
0.0044138045 0.0091661494 0.039999999 0 0 0.47704095
0.0044136662 0.0084869973 0.039999999 0 0 0.47704095
0.0044135381 0.0078078872 0.039999999 0 0 0.47704095
0.0044134213 0.0071288142 0.039999999 0 0 0.47704095
0.0044133146 0.0064497758 0.039999999 0 0 0.47704095
0.0044132187 0.0057707685 0.039999999 0 0 0.47704095
0.0044131335 0.0050917892 0.039999999 0 0 0.47704095
0.004413059 0.0044128341 0.039999999 0 0 0.47704095
0.0044129952 0.0037339006 0.039999999 0 0 0.47704095
0.0044129421 0.0030549851 0.039999999 0 0 0.47704095
0.0044128993 0.0023760842 0.039999999 0 0 0.47704095
0.0044128676 0.0016971948 0.039999999 0 0 0.47704095
0.0044128462 0.0010183136 0.039999999 0 0 0.47704095
0.0044128355 0.00033943731 0.039999999 0 0 0.47704095
0.0037958852 0.079963677 0.039999999 0 0 0.47704095
0.0037948112 0.079262272 0.039999999 0 0 0.47704095
0.0037937472 0.078561269 0.039999999 0 0 0.47704095
0.0037926927 0.077860653 0.039999999 0 0 0.47704095
0.003791648 0.077160425 0.039999999 0 0 0.47704095
0.0035304122 0.071212061 0.07 0 0 0.47704095
0.0035294574 0.070560612 0.07 0 0 0.47704095
0.0035285114 0.069909513 0.07 0 0 0.47704095
0.0035275745 0.069258757 0.07 0 0 0.47704095
0.0035266466 0.068608351 0.07 0 0 0.47704095
0.0035257279 0.06795828 0.07 0 0 0.47704095
0.003524818 0.067308553 0.07 0 0 0.47704095
0.0035239169 0.06665916 0.07 0 0 0.47704095
0.0035230252 0.066010088 0.07 0 0 0.47704095
0.0035221421 0.065361351 0.07 0 0 0.47704095
0.003521268 0.064712934 0.07 0 0 0.47704095
0.0035204028 0.064064838 0.07 0 0 0.47704095
0.0035195467 0.063417062 0.07 0 0 0.47704095
0.0035186994 0.062769592 0.07 0 0 0.47704095
0.003517861 0.062122438 0.07 0 0 0.47704095
0.0035170314 0.06147559 0.07 0 0 0.47704095
0.0035162107 0.060829043 0.07 0 0 0.47704095
0.0035153988 0.060182799 0.07 0 0 0.47704095
0.003514596 0.059536848 0.07 0 0 0.47704095
0.0035138018 0.058891196 0.07 0 0 0.47704095
0.0035130165 0.05824583 0.07 0 0 0.47704095
0.00351224 0.057600752 0.07 0 0 0.47704095
0.0035114724 0.056955956 0.07 0 0 0.47704095
0.0035107136 0.056311443 0.07 0 0 0.47704095
0.0035099636 0.055667207 0.07 0 0 0.47704095
0.0035092223 0.055023242 0.07 0 0 0.47704095
0.0035084898 0.054379549 0.07 0 0 0.47704095
0.0035077662 0.053736124 0.07 0 0 0.47704095
0.0035070512 0.05309296 0.07 0 0 0.47704095
0.003506345 0.052450057 0.07 0 0 0.47704095
0.0035056476 0.051807415 0.07 0 0 0.47704095
0.0035049589 0.051165026 0.07 0 0 0.47704095
0.0035042788 0.050522886 0.07 0 0 0.47704095
0.0035036076 0.049880993 0.07 0 0 0.47704095
0.003502945 0.049239345 0.07 0 0 0.47704095
0.0035119241 0.048731606 0.068880446 0 0 0.47704095
0.0035537207 0.04866996 0.063946679 0 0 0.47704095
0.0035965322 0.048606817 0.058894146 0 0 0.47704095
0.0036403958 0.048542123 0.053718485 0 0 0.47704095
0.0036853505 0.048475821 0.04841511 0 0 0.47704095
0.0037314377 0.048407849 0.042979211 0 0 0.47704095
0.0037564025 0.0480529 0.039999999 0 0 0.47704095
0.0037557657 0.047365934 0.039999999 0 0 0.47704095
0.003755138 0.046679199 0.039999999 0 0 0.47704095
0.0037545196 0.045992695 0.039999999 0 0 0.47704095
0.0037539105 0.045306414 0.039999999 0 0 0.47704095
0.0037533105 0.044620354 0.039999999 0 0 0.47704095
0.0037527201 0.043934509 0.039999999 0 0 0.47704095
0.0037521387 0.043248881 0.039999999 0 0 0.47704095
0.0037515664 0.042563464 0.039999999 0 0 0.47704095
0.0037510036 0.041878253 0.039999999 0 0 0.47704095
0.0037504497 0.041193247 0.039999999 0 0 0.47704095
0.0037499054 0.040508442 0.039999999 0 0 0.47704095
0.0037493701 0.039823834 0.039999999 0 0 0.47704095
0.0037488439 0.039139416 0.039999999 0 0 0.47704095
0.003748327 0.038455192 0.039999999 0 0 0.47704095
0.0037478192 0.037771154 0.039999999 0 0 0.47704095
0.0037473207 0.037087303 0.039999999 0 0 0.47704095
0.0037468313 0.03640363 0.039999999 0 0 0.47704095
0.0037463512 0.035720132 0.039999999 0 0 0.47704095
0.0037458802 0.03503681 0.039999999 0 0 0.47704095
0.0037454183 0.034353655 0.039999999 0 0 0.47704095
0.0037449654 0.033670668 0.039999999 0 0 0.47704095
0.0037445219 0.032987844 0.039999999 0 0 0.47704095
0.0037440874 0.032305185 0.039999999 0 0 0.47704095
0.003743662 0.031622678 0.039999999 0 0 0.47704095
0.003743246 0.030940324 0.039999999 0 0 0.47704095
0.0037428387 0.030258123 0.039999999 0 0 0.47704095
0.0037424408 0.029576067 0.039999999 0 0 0.47704095
0.003742052 0.028894154 0.039999999 0 0 0.47704095
0.0037416723 0.028212382 0.039999999 0 0 0.47704095
0.0037413016 0.027530747 0.039999999 0 0 0.47704095
0.00374094 0.026849244 0.039999999 0 0 0.47704095
0.0037405877 0.026167871 0.039999999 0 0 0.47704095
0.0037402443 0.025486626 0.039999999 0 0 0.47704095
0.00373991 0.024805505 0.039999999 0 0 0.47704095
0.0037395849 0.024124503 0.039999999 0 0 0.47704095
0.0037392688 0.023443617 0.039999999 0 0 0.47704095
0.0037389616 0.022762846 0.039999999 0 0 0.47704095
0.0037386636 0.022082184 0.039999999 0 0 0.47704095
0.0037383749 0.021401629 0.039999999 0 0 0.47704095
0.0037380951 0.020721179 0.039999999 0 0 0.47704095
0.0037378243 0.020040827 0.039999999 0 0 0.47704095
0.0037375626 0.019360572 0.039999999 0 0 0.47704095
0.0037373099 0.018680412 0.039999999 0 0 0.47704095
0.0037370662 0.018000342 0.039999999 0 0 0.47704095
0.0037368317 0.017320359 0.039999999 0 0 0.47704095
0.0037366061 0.01664046 0.039999999 0 0 0.47704095
0.0037363896 0.015960641 0.039999999 0 0 0.47704095
0.0037361821 0.015280899 0.039999999 0 0 0.47704095
0.0037359837 0.014601231 0.039999999 0 0 0.47704095
0.0037357945 0.013921633 0.039999999 0 0 0.47704095
0.0037356142 0.013242103 0.039999999 0 0 0.47704095
0.0037354429 0.012562636 0.039999999 0 0 0.47704095
0.0037352806 0.011883231 0.039999999 0 0 0.47704095
0.0037351274 0.011203882 0.039999999 0 0 0.47704095
0.003734983 0.010524589 0.039999999 0 0 0.47704095
0.0037348478 0.0098453453 0.039999999 0 0 0.47704095
0.0037347218 0.0091661494 0.039999999 0 0 0.47704095
0.0037346045 0.0084869973 0.039999999 0 0 0.47704095
0.0037344964 0.0078078872 0.039999999 0 0 0.47704095
0.0037343972 0.0071288142 0.039999999 0 0 0.47704095
0.0037343071 0.0064497758 0.039999999 0 0 0.47704095
0.0037342261 0.0057707685 0.039999999 0 0 0.47704095
0.0037341539 0.0050917892 0.039999999 0 0 0.47704095
0.0037340908 0.0044128341 0.039999999 0 0 0.47704095
0.0037340368 0.0037339006 0.039999999 0 0 0.47704095
0.0037339919 0.0030549851 0.039999999 0 0 0.47704095
0.0037339558 0.0023760842 0.039999999 0 0 0.47704095
0.0037339288 0.0016971948 0.039999999 0 0 0.47704095
0.0037339106 0.0010183136 0.039999999 0 0 0.47704095
0.0037339018 0.00033943731 0.039999999 0 0 0.47704095
0.0031056993 0.079963677 0.039999999 0 0 0.47704095
0.0031048206 0.079262272 0.039999999 0 0 0.47704095
0.0031039498 0.078561269 0.039999999 0 0 0.47704095
0.0031030872 0.077860653 0.039999999 0 0 0.47704095
0.0031022325 0.077160425 0.039999999 0 0 0.47704095
0.0031013857 0.076460578 0.039999999 0 0 0.47704095
0.0031005468 0.075761117 0.039999999 0 0 0.47704095
0.0028869407 0.069909513 0.07 0 0 0.47704095
0.0028861742 0.069258757 0.07 0 0 0.47704095
0.002885415 0.068608351 0.07 0 0 0.47704095
0.0028846632 0.06795828 0.07 0 0 0.47704095
0.0028839188 0.067308553 0.07 0 0 0.47704095
0.0028831817 0.06665916 0.07 0 0 0.47704095
0.002882452 0.066010088 0.07 0 0 0.47704095
0.0028817295 0.065361351 0.07 0 0 0.47704095
0.0028810143 0.064712934 0.07 0 0 0.47704095
0.0028803064 0.064064838 0.07 0 0 0.47704095
0.0028796059 0.063417062 0.07 0 0 0.47704095
0.0028789127 0.062769592 0.07 0 0 0.47704095
0.0028782268 0.062122438 0.07 0 0 0.47704095
0.0028775479 0.06147559 0.07 0 0 0.47704095
0.0028768766 0.060829043 0.07 0 0 0.47704095
0.0028762124 0.060182799 0.07 0 0 0.47704095
0.0028755553 0.059536848 0.07 0 0 0.47704095
0.0028749057 0.058891196 0.07 0 0 0.47704095
0.0028742631 0.05824583 0.07 0 0 0.47704095
0.0028736279 0.057600752 0.07 0 0 0.47704095
0.0028729998 0.056955956 0.07 0 0 0.47704095
0.002872379 0.056311443 0.07 0 0 0.47704095
0.0028717653 0.055667207 0.07 0 0 0.47704095
0.0028711588 0.055023242 0.07 0 0 0.47704095
0.0028705595 0.054379549 0.07 0 0 0.47704095
0.0028699674 0.053736124 0.07 0 0 0.47704095
0.0028693825 0.05309296 0.07 0 0 0.47704095
0.0028688046 0.052450057 0.07 0 0 0.47704095
0.0028682339 0.051807415 0.07 0 0 0.47704095
0.0028676705 0.051165026 0.07 0 0 0.47704095
0.0028671143 0.050522886 0.07 0 0 0.47704095
0.002866565 0.049880993 0.07 0 0 0.47704095
0.0028898709 0.049649063 0.066613026 0 0 0.47704095
0.0029244577 0.049598053 0.061623365 0 0 0.47704095
0.0029598891 0.049545795 0.056512889 0 0 0.47704095
0.0029961963 0.049492247 0.051277135 0 0 0.47704095
0.0030334119 0.049437355 0.045911409 0 0 0.47704095
0.0030715708 0.049381077 0.040410787 0 0 0.47704095
0.0030739242 0.048740096 0.039999999 0 0 0.47704095
0.0030733955 0.0480529 0.039999999 0 0 0.47704095
0.0030728744 0.047365934 0.039999999 0 0 0.47704095
0.003072361 0.046679199 0.039999999 0 0 0.47704095
0.0030718551 0.045992695 0.039999999 0 0 0.47704095
0.0030713566 0.045306414 0.039999999 0 0 0.47704095
0.0030708658 0.044620354 0.039999999 0 0 0.47704095
0.0030703826 0.043934509 0.039999999 0 0 0.47704095
0.003069907 0.043248881 0.039999999 0 0 0.47704095
0.0030694387 0.042563464 0.039999999 0 0 0.47704095
0.0030689782 0.041878253 0.039999999 0 0 0.47704095
0.0030685251 0.041193247 0.039999999 0 0 0.47704095
0.0030680797 0.040508442 0.039999999 0 0 0.47704095
0.0030676418 0.039823834 0.039999999 0 0 0.47704095
0.0030672112 0.039139416 0.039999999 0 0 0.47704095
0.0030667884 0.038455192 0.039999999 0 0 0.47704095
0.0030663731 0.037771154 0.039999999 0 0 0.47704095
0.0030659651 0.037087303 0.039999999 0 0 0.47704095
0.0030655647 0.03640363 0.039999999 0 0 0.47704095
0.0030651717 0.035720132 0.039999999 0 0 0.47704095
0.0030647863 0.03503681 0.039999999 0 0 0.47704095
0.0030644084 0.034353655 0.039999999 0 0 0.47704095
0.003064038 0.033670668 0.039999999 0 0 0.47704095
0.003063675 0.032987844 0.039999999 0 0 0.47704095
0.0030633197 0.032305185 0.039999999 0 0 0.47704095
0.0030629716 0.031622678 0.039999999 0 0 0.47704095
0.003062631 0.030940324 0.039999999 0 0 0.47704095
0.0030622981 0.030258123 0.039999999 0 0 0.47704095
0.0030619723 0.029576067 0.039999999 0 0 0.47704095
0.0030616543 0.028894154 0.039999999 0 0 0.47704095
0.0030613437 0.028212382 0.039999999 0 0 0.47704095
0.0030610403 0.027530747 0.039999999 0 0 0.47704095
0.0030607446 0.026849244 0.039999999 0 0 0.47704095
0.0030604561 0.026167871 0.039999999 0 0 0.47704095
0.0030601753 0.025486626 0.039999999 0 0 0.47704095
0.0030599018 0.024805505 0.039999999 0 0 0.47704095
0.0030596356 0.024124503 0.039999999 0 0 0.47704095
0.003059377 0.023443617 0.039999999 0 0 0.47704095
0.003059126 0.022762846 0.039999999 0 0 0.47704095
0.003058882 0.022082184 0.039999999 0 0 0.47704095
0.0030586456 0.021401629 0.039999999 0 0 0.47704095
0.0030584168 0.020721179 0.039999999 0 0 0.47704095
0.0030581951 0.020040827 0.039999999 0 0 0.47704095
0.0030579811 0.019360572 0.039999999 0 0 0.47704095
0.0030577744 0.018680412 0.039999999 0 0 0.47704095
0.0030575751 0.018000342 0.039999999 0 0 0.47704095
0.0030573832 0.017320359 0.039999999 0 0 0.47704095
0.0030571986 0.01664046 0.039999999 0 0 0.47704095
0.0030570214 0.015960641 0.039999999 0 0 0.47704095
0.0030568517 0.015280899 0.039999999 0 0 0.47704095
0.0030566894 0.014601231 0.039999999 0 0 0.47704095
0.0030565346 0.013921633 0.039999999 0 0 0.47704095
0.003056387 0.013242103 0.039999999 0 0 0.47704095
0.0030562468 0.012562636 0.039999999 0 0 0.47704095
0.0030561141 0.011883231 0.039999999 0 0 0.47704095
0.0030559886 0.011203882 0.039999999 0 0 0.47704095
0.0030558708 0.010524589 0.039999999 0 0 0.47704095
0.0030557599 0.0098453453 0.039999999 0 0 0.47704095
0.0030556568 0.0091661494 0.039999999 0 0 0.47704095
0.0030555609 0.0084869973 0.039999999 0 0 0.47704095
0.0030554724 0.0078078872 0.039999999 0 0 0.47704095
0.0030553914 0.0071288142 0.039999999 0 0 0.47704095
0.0030553176 0.0064497758 0.039999999 0 0 0.47704095
0.0030552512 0.0057707685 0.039999999 0 0 0.47704095
0.0030551923 0.0050917892 0.039999999 0 0 0.47704095
0.0030551406 0.0044128341 0.039999999 0 0 0.47704095
0.0030550964 0.0037339006 0.039999999 0 0 0.47704095
0.0030550596 0.0030549851 0.039999999 0 0 0.47704095
0.00305503 0.0023760842 0.039999999 0 0 0.47704095
0.0030550079 0.0016971948 0.039999999 0 0 0.47704095
0.0030549932 0.0010183136 0.039999999 0 0 0.47704095
0.003054986 0.00033943731 0.039999999 0 0 0.47704095
0.0024155283 0.079963677 0.039999999 0 0 0.47704095
0.0024148449 0.079262272 0.039999999 0 0 0.47704095
0.0024141676 0.078561269 0.039999999 0 0 0.47704095
0.0024134968 0.077860653 0.039999999 0 0 0.47704095
0.0024128319 0.077160425 0.039999999 0 0 0.47704095
0.0024121734 0.076460578 0.039999999 0 0 0.47704095
0.0024115208 0.075761117 0.039999999 0 0 0.47704095
0.0024108747 0.075062029 0.039999999 0 0 0.47704095
0.0024102344 0.074363314 0.039999999 0 0 0.47704095
0.0022441973 0.068608351 0.07 0 0 0.47704095
0.0022436124 0.06795828 0.07 0 0 0.47704095
0.0022430336 0.067308553 0.07 0 0 0.47704095
0.0022424601 0.06665916 0.07 0 0 0.47704095
0.0022418925 0.066010088 0.07 0 0 0.47704095
0.0022413307 0.065361351 0.07 0 0 0.47704095
0.0022407745 0.064712934 0.07 0 0 0.47704095
0.002240224 0.064064838 0.07 0 0 0.47704095
0.002239679 0.063417062 0.07 0 0 0.47704095
0.00223914 0.062769592 0.07 0 0 0.47704095
0.0022386063 0.062122438 0.07 0 0 0.47704095
0.0022380785 0.06147559 0.07 0 0 0.47704095
0.0022375563 0.060829043 0.07 0 0 0.47704095
0.0022370396 0.060182799 0.07 0 0 0.47704095
0.0022365288 0.059536848 0.07 0 0 0.47704095
0.0022360233 0.058891196 0.07 0 0 0.47704095
0.0022355237 0.05824583 0.07 0 0 0.47704095
0.0022350296 0.057600752 0.07 0 0 0.47704095
0.0022345411 0.056955956 0.07 0 0 0.47704095
0.0022340582 0.056311443 0.07 0 0 0.47704095
0.0022335809 0.055667207 0.07 0 0 0.47704095
0.0022331092 0.055023242 0.07 0 0 0.47704095
0.0022326431 0.054379549 0.07 0 0 0.47704095
0.0022321825 0.053736124 0.07 0 0 0.47704095
0.0022317276 0.05309296 0.07 0 0 0.47704095
0.0022312782 0.052450057 0.07 0 0 0.47704095
0.0022308344 0.051807415 0.07 0 0 0.47704095
0.002230396 0.051165026 0.07 0 0 0.47704095
0.0022446229 0.050855018 0.067324162 0 0 0.47704095
0.0022708601 0.050805528 0.062455568 0 0 0.47704095
0.0022977234 0.05075486 0.057471886 0 0 0.47704095
0.0023252349 0.050702967 0.05236895 0 0 0.47704095
0.0023534186 0.050649807 0.047142405 0 0 0.47704095
0.0023822992 0.050595332 0.04178768 0 0 0.47704095
0.0023916548 0.050115213 0.039999999 0 0 0.47704095
0.0023912317 0.049427535 0.039999999 0 0 0.47704095
0.0023908145 0.048740096 0.039999999 0 0 0.47704095
0.0023904033 0.0480529 0.039999999 0 0 0.47704095
0.0023899982 0.047365934 0.039999999 0 0 0.47704095
0.0023895986 0.046679199 0.039999999 0 0 0.47704095
0.0023892052 0.045992695 0.039999999 0 0 0.47704095
0.0023888175 0.045306414 0.039999999 0 0 0.47704095
0.0023884359 0.044620354 0.039999999 0 0 0.47704095
0.0023880601 0.043934509 0.039999999 0 0 0.47704095
0.0023876901 0.043248881 0.039999999 0 0 0.47704095
0.002387326 0.042563464 0.039999999 0 0 0.47704095
0.0023869677 0.041878253 0.039999999 0 0 0.47704095
0.0023866154 0.041193247 0.039999999 0 0 0.47704095
0.0023862689 0.040508442 0.039999999 0 0 0.47704095
0.0023859283 0.039823834 0.039999999 0 0 0.47704095
0.0023855935 0.039139416 0.039999999 0 0 0.47704095
0.0023852645 0.038455192 0.039999999 0 0 0.47704095
0.0023849413 0.037771154 0.039999999 0 0 0.47704095
0.0023846242 0.037087303 0.039999999 0 0 0.47704095
0.0023843127 0.03640363 0.039999999 0 0 0.47704095
0.0023840072 0.035720132 0.039999999 0 0 0.47704095
0.0023837073 0.03503681 0.039999999 0 0 0.47704095
0.0023834135 0.034353655 0.039999999 0 0 0.47704095
0.0023831252 0.033670668 0.039999999 0 0 0.47704095
0.0023828431 0.032987844 0.039999999 0 0 0.47704095
0.0023825667 0.032305185 0.039999999 0 0 0.47704095
0.0023822959 0.031622678 0.039999999 0 0 0.47704095
0.0023820312 0.030940324 0.039999999 0 0 0.47704095
0.002381772 0.030258123 0.039999999 0 0 0.47704095
0.0023815187 0.029576067 0.039999999 0 0 0.47704095
0.0023812714 0.028894154 0.039999999 0 0 0.47704095
0.0023810298 0.028212382 0.039999999 0 0 0.47704095
0.0023807939 0.027530747 0.039999999 0 0 0.47704095
0.0023805639 0.026849244 0.039999999 0 0 0.47704095
0.0023803394 0.026167871 0.039999999 0 0 0.47704095
0.002380121 0.025486626 0.039999999 0 0 0.47704095
0.0023799082 0.024805505 0.039999999 0 0 0.47704095
0.0023797012 0.024124503 0.039999999 0 0 0.47704095
0.0023795001 0.023443617 0.039999999 0 0 0.47704095
0.0023793047 0.022762846 0.039999999 0 0 0.47704095
0.0023791152 0.022082184 0.039999999 0 0 0.47704095
0.0023789313 0.021401629 0.039999999 0 0 0.47704095
0.0023787534 0.020721179 0.039999999 0 0 0.47704095
0.0023785811 0.020040827 0.039999999 0 0 0.47704095
0.0023784144 0.019360572 0.039999999 0 0 0.47704095
0.0023782537 0.018680412 0.039999999 0 0 0.47704095
0.0023780987 0.018000342 0.039999999 0 0 0.47704095
0.0023779494 0.017320359 0.039999999 0 0 0.47704095
0.0023778058 0.01664046 0.039999999 0 0 0.47704095
0.0023776682 0.015960641 0.039999999 0 0 0.47704095
0.0023775361 0.015280899 0.039999999 0 0 0.47704095
0.0023774097 0.014601231 0.039999999 0 0 0.47704095
0.0023772893 0.013921633 0.039999999 0 0 0.47704095
0.0023771746 0.013242103 0.039999999 0 0 0.47704095
0.0023770656 0.012562636 0.039999999 0 0 0.47704095
0.0023769622 0.011883231 0.039999999 0 0 0.47704095
0.0023768647 0.011203882 0.039999999 0 0 0.47704095
0.0023767729 0.010524589 0.039999999 0 0 0.47704095
0.002376687 0.0098453453 0.039999999 0 0 0.47704095
0.0023766067 0.0091661494 0.039999999 0 0 0.47704095
0.0023765322 0.0084869973 0.039999999 0 0 0.47704095
0.0023764633 0.0078078872 0.039999999 0 0 0.47704095
0.0023764002 0.0071288142 0.039999999 0 0 0.47704095
0.0023763429 0.0064497758 0.039999999 0 0 0.47704095
0.0023762912 0.0057707685 0.039999999 0 0 0.47704095
0.0023762453 0.0050917892 0.039999999 0 0 0.47704095
0.0023762053 0.0044128341 0.039999999 0 0 0.47704095
0.0023761708 0.0037339006 0.039999999 0 0 0.47704095
0.0023761422 0.0030549851 0.039999999 0 0 0.47704095
0.0023761191 0.0023760842 0.039999999 0 0 0.47704095
0.0023761021 0.0016971948 0.039999999 0 0 0.47704095
0.0023760905 0.0010183136 0.039999999 0 0 0.47704095
0.0023760849 0.00033943731 0.039999999 0 0 0.47704095
0.001725369 0.079963677 0.039999999 0 0 0.47704095
0.0017248809 0.079262272 0.039999999 0 0 0.47704095
0.0017243972 0.078561269 0.039999999 0 0 0.47704095
0.0017239179 0.077860653 0.039999999 0 0 0.47704095
0.001723443 0.077160425 0.039999999 0 0 0.47704095
0.0017229726 0.076460578 0.039999999 0 0 0.47704095
0.0017225066 0.075761117 0.039999999 0 0 0.47704095
0.001722045 0.075062029 0.039999999 0 0 0.47704095
0.0017215877 0.074363314 0.039999999 0 0 0.47704095
0.0017211349 0.073664971 0.039999999 0 0 0.47704095
0.0017206864 0.072966993 0.039999999 0 0 0.47704095
0.001602159 0.067308553 0.07 0 0 0.47704095
0.0016017496 0.06665916 0.07 0 0 0.47704095
0.0016013441 0.066010088 0.07 0 0 0.47704095
0.0016009428 0.065361351 0.07 0 0 0.47704095
0.0016005455 0.064712934 0.07 0 0 0.47704095
0.0016001522 0.064064838 0.07 0 0 0.47704095
0.0015997631 0.063417062 0.07 0 0 0.47704095
0.001599378 0.062769592 0.07 0 0 0.47704095
0.0015989968 0.062122438 0.07 0 0 0.47704095
0.0015986197 0.06147559 0.07 0 0 0.47704095
0.0015982467 0.060829043 0.07 0 0 0.47704095
0.0015978777 0.060182799 0.07 0 0 0.47704095
0.0015975127 0.059536848 0.07 0 0 0.47704095
0.0015971519 0.058891196 0.07 0 0 0.47704095
0.0015967949 0.05824583 0.07 0 0 0.47704095
0.001596442 0.057600752 0.07 0 0 0.47704095
0.0015960931 0.056955956 0.07 0 0 0.47704095
0.0015957481 0.056311443 0.07 0 0 0.47704095
0.0015954073 0.055667207 0.07 0 0 0.47704095
0.0015950702 0.055023242 0.07 0 0 0.47704095
0.0015947373 0.054379549 0.07 0 0 0.47704095
0.0015944084 0.053736124 0.07 0 0 0.47704095
0.0015940834 0.05309296 0.07 0 0 0.47704095
0.0015937624 0.052450057 0.07 0 0 0.47704095
0.0016058636 0.052211165 0.066827811 0 0 0.47704095
0.0016242679 0.052164972 0.06204496 0 0 0.47704095
0.0016431026 0.052117698 0.057151269 0 0 0.47704095
0.0016623831 0.052069306 0.052142821 0 0 0.47704095
0.0016821251 0.052019756 0.047015503 0 0 0.47704095
0.0017023457 0.051969007 0.041765008 0 0 0.47704095
0.0017089336 0.051491313 0.039999999 0 0 0.47704095
0.001708623 0.05080314 0.039999999 0 0 0.47704095
0.0017083166 0.050115213 0.039999999 0 0 0.47704095
0.0017080144 0.049427535 0.039999999 0 0 0.47704095
0.0017077165 0.048740096 0.039999999 0 0 0.47704095
0.0017074228 0.0480529 0.039999999 0 0 0.47704095
0.0017071333 0.047365934 0.039999999 0 0 0.47704095
0.0017068479 0.046679199 0.039999999 0 0 0.47704095
0.0017065669 0.045992695 0.039999999 0 0 0.47704095
0.0017062901 0.045306414 0.039999999 0 0 0.47704095
0.0017060173 0.044620354 0.039999999 0 0 0.47704095
0.0017057488 0.043934509 0.039999999 0 0 0.47704095
0.0017054846 0.043248881 0.039999999 0 0 0.47704095
0.0017052246 0.042563464 0.039999999 0 0 0.47704095
0.0017049687 0.041878253 0.039999999 0 0 0.47704095
0.0017047171 0.041193247 0.039999999 0 0 0.47704095
0.0017044696 0.040508442 0.039999999 0 0 0.47704095
0.0017042262 0.039823834 0.039999999 0 0 0.47704095
0.0017039871 0.039139416 0.039999999 0 0 0.47704095
0.0017037521 0.038455192 0.039999999 0 0 0.47704095
0.0017035214 0.037771154 0.039999999 0 0 0.47704095
0.0017032947 0.037087303 0.039999999 0 0 0.47704095
0.0017030723 0.03640363 0.039999999 0 0 0.47704095
0.0017028541 0.035720132 0.039999999 0 0 0.47704095
0.00170264 0.03503681 0.039999999 0 0 0.47704095
0.00170243 0.034353655 0.039999999 0 0 0.47704095
0.0017022241 0.033670668 0.039999999 0 0 0.47704095
0.0017020225 0.032987844 0.039999999 0 0 0.47704095
0.0017018251 0.032305185 0.039999999 0 0 0.47704095
0.0017016317 0.031622678 0.039999999 0 0 0.47704095
0.0017014425 0.030940324 0.039999999 0 0 0.47704095
0.0017012575 0.030258123 0.039999999 0 0 0.47704095
0.0017010766 0.029576067 0.039999999 0 0 0.47704095
0.0017008999 0.028894154 0.039999999 0 0 0.47704095
0.0017007273 0.028212382 0.039999999 0 0 0.47704095
0.0017005588 0.027530747 0.039999999 0 0 0.47704095
0.0017003944 0.026849244 0.039999999 0 0 0.47704095
0.0017002343 0.026167871 0.039999999 0 0 0.47704095
0.0017000783 0.025486626 0.039999999 0 0 0.47704095
0.0016999263 0.024805505 0.039999999 0 0 0.47704095
0.0016997785 0.024124503 0.039999999 0 0 0.47704095
0.0016996348 0.023443617 0.039999999 0 0 0.47704095
0.0016994952 0.022762846 0.039999999 0 0 0.47704095
0.0016993599 0.022082184 0.039999999 0 0 0.47704095
0.0016992285 0.021401629 0.039999999 0 0 0.47704095
0.0016991013 0.020721179 0.039999999 0 0 0.47704095
0.0016989782 0.020040827 0.039999999 0 0 0.47704095
0.0016988593 0.019360572 0.039999999 0 0 0.47704095
0.0016987444 0.018680412 0.039999999 0 0 0.47704095
0.0016986337 0.018000342 0.039999999 0 0 0.47704095
0.001698527 0.017320359 0.039999999 0 0 0.47704095
0.0016984246 0.01664046 0.039999999 0 0 0.47704095
0.0016983262 0.015960641 0.039999999 0 0 0.47704095
0.0016982319 0.015280899 0.039999999 0 0 0.47704095
0.0016981417 0.014601231 0.039999999 0 0 0.47704095
0.0016980557 0.013921633 0.039999999 0 0 0.47704095
0.0016979737 0.013242103 0.039999999 0 0 0.47704095
0.0016978958 0.012562636 0.039999999 0 0 0.47704095
0.001697822 0.011883231 0.039999999 0 0 0.47704095
0.0016977524 0.011203882 0.039999999 0 0 0.47704095
0.0016976869 0.010524589 0.039999999 0 0 0.47704095
0.0016976254 0.0098453453 0.039999999 0 0 0.47704095
0.001697568 0.0091661494 0.039999999 0 0 0.47704095
0.0016975148 0.0084869973 0.039999999 0 0 0.47704095
0.0016974655 0.0078078872 0.039999999 0 0 0.47704095
0.0016974205 0.0071288142 0.039999999 0 0 0.47704095
0.0016973796 0.0064497758 0.039999999 0 0 0.47704095
0.0016973427 0.0057707685 0.039999999 0 0 0.47704095
0.0016973099 0.0050917892 0.039999999 0 0 0.47704095
0.0016972813 0.0044128341 0.039999999 0 0 0.47704095
0.0016972567 0.0037339006 0.039999999 0 0 0.47704095
0.0016972362 0.0030549851 0.039999999 0 0 0.47704095
0.0016972198 0.0023760842 0.039999999 0 0 0.47704095
0.0016972076 0.0016971948 0.039999999 0 0 0.47704095
0.0016971994 0.0010183136 0.039999999 0 0 0.47704095
0.0016971952 0.00033943731 0.039999999 0 0 0.47704095
0.0010352181 0.079963677 0.039999999 0 0 0.47704095
0.0010349252 0.079262272 0.039999999 0 0 0.47704095
0.001034635 0.078561269 0.039999999 0 0 0.47704095
0.0010343475 0.077860653 0.039999999 0 0 0.47704095
0.0010340625 0.077160425 0.039999999 0 0 0.47704095
0.0010337803 0.076460578 0.039999999 0 0 0.47704095
0.0010335007 0.075761117 0.039999999 0 0 0.47704095
0.0010332237 0.075062029 0.039999999 0 0 0.47704095
0.0010329493 0.074363314 0.039999999 0 0 0.47704095
0.0010326776 0.073664971 0.039999999 0 0 0.47704095
0.0010324086 0.072966993 0.039999999 0 0 0.47704095
0.0010321422 0.072269373 0.039999999 0 0 0.47704095
0.0010318783 0.071572118 0.039999999 0 0 0.47704095
0.00096080342 0.066010088 0.07 0 0 0.47704095
0.00096056255 0.065361351 0.07 0 0 0.47704095
0.00096032419 0.064712934 0.07 0 0 0.47704095
0.00096008828 0.064064838 0.07 0 0 0.47704095
0.00095985475 0.063417062 0.07 0 0 0.47704095
0.00095962366 0.062769592 0.07 0 0 0.47704095
0.00095939502 0.062122438 0.07 0 0 0.47704095
0.00095916877 0.06147559 0.07 0 0 0.47704095
0.00095894496 0.060829043 0.07 0 0 0.47704095
0.00095872354 0.060182799 0.07 0 0 0.47704095
0.00095850456 0.059536848 0.07 0 0 0.47704095
0.00095828803 0.058891196 0.07 0 0 0.47704095
0.00095807383 0.05824583 0.07 0 0 0.47704095
0.00095786212 0.057600752 0.07 0 0 0.47704095
0.00095765275 0.056955956 0.07 0 0 0.47704095
0.00095744582 0.056311443 0.07 0 0 0.47704095
0.00095724122 0.055667207 0.07 0 0 0.47704095
0.00095703907 0.055023242 0.07 0 0 0.47704095
0.0009568393 0.054379549 0.07 0 0 0.47704095
0.00096003973 0.053926982 0.068554275 0 0 0.47704095
0.00097077503 0.053888317 0.063902333 0 0 0.47704095
0.00098175532 0.053848773 0.059145231 0 0 0.47704095
0.00099298917 0.053808313 0.054279331 0 0 0.47704095
0.0010044853 0.053766906 0.049300842 0 0 0.47704095
0.0010162531 0.053724524 0.044205781 0 0 0.47704095
0.0010259313 0.053557355 0.039999999 0 0 0.47704095
0.0010257373 0.052868415 0.039999999 0 0 0.47704095
0.0010255458 0.052179735 0.039999999 0 0 0.47704095
0.0010253569 0.051491313 0.039999999 0 0 0.47704095
0.0010251706 0.05080314 0.039999999 0 0 0.47704095
0.0010249866 0.050115213 0.039999999 0 0 0.47704095
0.0010248054 0.049427535 0.039999999 0 0 0.47704095
0.0010246265 0.048740096 0.039999999 0 0 0.47704095
0.0010244504 0.0480529 0.039999999 0 0 0.47704095
0.0010242766 0.047365934 0.039999999 0 0 0.47704095
0.0010241055 0.046679199 0.039999999 0 0 0.47704095
0.0010239368 0.045992695 0.039999999 0 0 0.47704095
0.0010237707 0.045306414 0.039999999 0 0 0.47704095
0.0010236071 0.044620354 0.039999999 0 0 0.47704095
0.0010234461 0.043934509 0.039999999 0 0 0.47704095
0.0010232875 0.043248881 0.039999999 0 0 0.47704095
0.0010231314 0.042563464 0.039999999 0 0 0.47704095
0.001022978 0.041878253 0.039999999 0 0 0.47704095
0.0010228269 0.041193247 0.039999999 0 0 0.47704095
0.0010226785 0.040508442 0.039999999 0 0 0.47704095
0.0010225325 0.039823834 0.039999999 0 0 0.47704095
0.0010223889 0.039139416 0.039999999 0 0 0.47704095
0.0010222479 0.038455192 0.039999999 0 0 0.47704095
0.0010221095 0.037771154 0.039999999 0 0 0.47704095
0.0010219736 0.037087303 0.039999999 0 0 0.47704095
0.0010218401 0.03640363 0.039999999 0 0 0.47704095
0.0010217092 0.035720132 0.039999999 0 0 0.47704095
0.0010215807 0.03503681 0.039999999 0 0 0.47704095
0.0010214547 0.034353655 0.039999999 0 0 0.47704095
0.0010213312 0.033670668 0.039999999 0 0 0.47704095
0.0010212102 0.032987844 0.039999999 0 0 0.47704095
0.0010210917 0.032305185 0.039999999 0 0 0.47704095
0.0010209758 0.031622678 0.039999999 0 0 0.47704095
0.0010208623 0.030940324 0.039999999 0 0 0.47704095
0.0010207512 0.030258123 0.039999999 0 0 0.47704095
0.0010206427 0.029576067 0.039999999 0 0 0.47704095
0.0010205366 0.028894154 0.039999999 0 0 0.47704095
0.001020433 0.028212382 0.039999999 0 0 0.47704095
0.001020332 0.027530747 0.039999999 0 0 0.47704095
0.0010202334 0.026849244 0.039999999 0 0 0.47704095
0.0010201373 0.026167871 0.039999999 0 0 0.47704095
0.0010200436 0.025486626 0.039999999 0 0 0.47704095
0.0010199525 0.024805505 0.039999999 0 0 0.47704095
0.0010198638 0.024124503 0.039999999 0 0 0.47704095
0.0010197776 0.023443617 0.039999999 0 0 0.47704095
0.0010196939 0.022762846 0.039999999 0 0 0.47704095
0.0010196127 0.022082184 0.039999999 0 0 0.47704095
0.0010195338 0.021401629 0.039999999 0 0 0.47704095
0.0010194575 0.020721179 0.039999999 0 0 0.47704095
0.0010193837 0.020040827 0.039999999 0 0 0.47704095
0.0010193123 0.019360572 0.039999999 0 0 0.47704095
0.0010192434 0.018680412 0.039999999 0 0 0.47704095
0.0010191769 0.018000342 0.039999999 0 0 0.47704095
0.001019113 0.017320359 0.039999999 0 0 0.47704095
0.0010190514 0.01664046 0.039999999 0 0 0.47704095
0.0010189924 0.015960641 0.039999999 0 0 0.47704095
0.0010189358 0.015280899 0.039999999 0 0 0.47704095
0.0010188817 0.014601231 0.039999999 0 0 0.47704095
0.0010188301 0.013921633 0.039999999 0 0 0.47704095
0.0010187809 0.013242103 0.039999999 0 0 0.47704095
0.0010187342 0.012562636 0.039999999 0 0 0.47704095
0.0010186899 0.011883231 0.039999999 0 0 0.47704095
0.0010186482 0.011203882 0.039999999 0 0 0.47704095
0.0010186088 0.010524589 0.039999999 0 0 0.47704095
0.0010185719 0.0098453453 0.039999999 0 0 0.47704095
0.0010185376 0.0091661494 0.039999999 0 0 0.47704095
0.0010185055 0.0084869973 0.039999999 0 0 0.47704095
0.0010184761 0.0078078872 0.039999999 0 0 0.47704095
0.0010184491 0.0071288142 0.039999999 0 0 0.47704095
0.0010184245 0.0064497758 0.039999999 0 0 0.47704095
0.0010184024 0.0057707685 0.039999999 0 0 0.47704095
0.0010183827 0.0050917892 0.039999999 0 0 0.47704095
0.0010183655 0.0044128341 0.039999999 0 0 0.47704095
0.0010183507 0.0037339006 0.039999999 0 0 0.47704095
0.0010183385 0.0030549851 0.039999999 0 0 0.47704095
0.0010183286 0.0023760842 0.039999999 0 0 0.47704095
0.0010183213 0.0016971948 0.039999999 0 0 0.47704095
0.0010183164 0.0010183136 0.039999999 0 0 0.47704095
0.0010183139 0.00033943731 0.039999999 0 0 0.47704095
0.00034507216 0.079963677 0.039999999 0 0 0.47704095
0.00034497451 0.079262272 0.039999999 0 0 0.47704095
0.00034487777 0.078561269 0.039999999 0 0 0.47704095
0.00034478193 0.077860653 0.039999999 0 0 0.47704095
0.00034468694 0.077160425 0.039999999 0 0 0.47704095
0.00034459287 0.076460578 0.039999999 0 0 0.47704095
0.00034449965 0.075761117 0.039999999 0 0 0.47704095
0.00034440734 0.075062029 0.039999999 0 0 0.47704095
0.00034431589 0.074363314 0.039999999 0 0 0.47704095
0.00034422532 0.073664971 0.039999999 0 0 0.47704095
0.00034413562 0.072966993 0.039999999 0 0 0.47704095
0.00034404683 0.072269373 0.039999999 0 0 0.47704095
0.00034395891 0.071572118 0.039999999 0 0 0.47704095
0.00034387183 0.070875213 0.039999999 0 0 0.47704095
0.00034378565 0.070178658 0.039999999 0 0 0.47704095
0.00034370032 0.069482453 0.039999999 0 0 0.47704095
0.00034361589 0.068786584 0.039999999 0 0 0.47704095
