# .PCD v0.7 - Point Cloud Data file format
VERSION 0.7
FIELDS x y z vp_x vp_y vp_z
SIZE 4 4 4 4 4 4
TYPE F F F F F F
COUNT 1 1 1 1 1 1
WIDTH 728
HEIGHT 1
VIEWPOINT 0 0 0 1 0 0 0
POINTS 728
DATA ascii
0.0020048439 0 0.031745546 -0.23852047 -0.14741376 0.38593423
0.0033550202 0 0.030303691 -0.23852047 -0.14741376 0.38593423
0.0047162506 0 0.028850108 -0.23852047 -0.14741376 0.38593423
0.0060886773 0 0.027384648 -0.23852047 -0.14741376 0.38593423
0.0074724453 0 0.025907157 -0.23852047 -0.14741376 0.38593423
0.0088677015 0 0.02441748 -0.23852047 -0.14741376 0.38593423
0.010274597 2.7755576e-17 0.022915455 -0.23852047 -0.14741376 0.38593423
0.026382763 0.0086543271 0 -0.23852047 -0.14741376 0.38593423
0.013123915 0 0.019873716 -0.23852047 -0.14741376 0.38593423
0.014566651 2.7755576e-17 0.018333668 -0.23852047 -0.14741376 0.38593423
0.016021652 0 0.016780609 -0.23852047 -0.14741376 0.38593423
0.017489081 0 0.015214367 -0.23852047 -0.14741376 0.38593423
0.018969104 2.7755576e-17 0.013634763 -0.23852047 -0.14741376 0.38593423
0.020461893 0 0.012041617 -0.23852047 -0.14741376 0.38593423
0.021967618 0 0.010434747 -0.23852047 -0.14741376 0.38593423
0.023486454 2.7755576e-17 0.008813967 -0.23852047 -0.14741376 0.38593423
0.025018584 0 0.0071790856 -0.23852047 -0.14741376 0.38593423
0.026564185 0 0.0055299113 -0.23852047 -0.14741376 0.38593423
0.028123446 0 0.0038662467 -0.23852047 -0.14741376 0.38593423
0.029696554 0 0.0021878912 -0.23852047 -0.14741376 0.38593423
0.031283703 0 0.00049464102 -0.23852047 -0.14741376 0.38593423
0 0.049070287 0.00039043129 -0.23852047 -0.14741376 0.38593423
0 0.048084546 0.0010385432 -0.23852047 -0.14741376 0.38593423
0 0.047102369 0.0016843935 -0.23852047 -0.14741376 0.38593423
2.7755576e-17 0.046123732 0.0023279972 -0.23852047 -0.14741376 0.38593423
0 0.045148611 0.0029693698 -0.23852047 -0.14741376 0.38593423
2.7755576e-17 0.044176985 0.0036085253 -0.23852047 -0.14741376 0.38593423
2.7755576e-17 0.04320883 0.0042454791 -0.23852047 -0.14741376 0.38593423
0 0.042244121 0.0048802453 -0.23852047 -0.14741376 0.38593423
2.7755576e-17 0.04128284 0.0055128387 -0.23852047 -0.14741376 0.38593423
0 0.040324956 0.0061432733 -0.23852047 -0.14741376 0.38593423
0 0.039370459 0.0067715636 -0.23852047 -0.14741376 0.38593423
2.7755576e-17 0.038419314 0.0073977238 -0.23852047 -0.14741376 0.38593423
2.7755576e-17 0.03747151 0.0080217673 -0.23852047 -0.14741376 0.38593423
0 0.036527019 0.0086437091 -0.23852047 -0.14741376 0.38593423
0 0.035585821 0.0092635611 -0.23852047 -0.14741376 0.38593423
2.7755576e-17 0.034647893 0.009881339 -0.23852047 -0.14741376 0.38593423
0 0.033713218 0.010497055 -0.23852047 -0.14741376 0.38593423
0 0.032781772 0.011110723 -0.23852047 -0.14741376 0.38593423
2.7755576e-17 0.031853534 0.011722355 -0.23852047 -0.14741376 0.38593423
2.7755576e-17 0.030928485 0.012331967 -0.23852047 -0.14741376 0.38593423
0 0.030006604 0.01293957 -0.23852047 -0.14741376 0.38593423
2.7755576e-17 0.029087869 0.013545177 -0.23852047 -0.14741376 0.38593423
0 0.028172264 0.014148801 -0.23852047 -0.14741376 0.38593423
2.7755576e-17 0.027259763 0.014750456 -0.23852047 -0.14741376 0.38593423
2.7755576e-17 0.026350353 0.015350153 -0.23852047 -0.14741376 0.38593423
2.7755576e-17 0.025444008 0.015947904 -0.23852047 -0.14741376 0.38593423
2.7755576e-17 0.024540713 0.016543726 -0.23852047 -0.14741376 0.38593423
2.7755576e-17 0.023640446 0.017137624 -0.23852047 -0.14741376 0.38593423
0 0.02274319 0.017729618 -0.23852047 -0.14741376 0.38593423
5.5511151e-17 0.021848924 0.018319715 -0.23852047 -0.14741376 0.38593423
2.7755576e-17 0.02095763 0.018907927 -0.23852047 -0.14741376 0.38593423
5.5511151e-17 0.02006929 0.019494269 -0.23852047 -0.14741376 0.38593423
2.7755576e-17 0.019183885 0.020078752 -0.23852047 -0.14741376 0.38593423
5.5511151e-17 0.018301396 0.020661386 -0.23852047 -0.14741376 0.38593423
2.7755576e-17 0.017421804 0.021242185 -0.23852047 -0.14741376 0.38593423
5.5511151e-17 0.016545093 0.021821158 -0.23852047 -0.14741376 0.38593423
5.5511151e-17 0.015671244 0.022398317 -0.23852047 -0.14741376 0.38593423
2.7755576e-17 0.014800238 0.022973677 -0.23852047 -0.14741376 0.38593423
0 0.01393206 0.023547245 -0.23852047 -0.14741376 0.38593423
0 0.013066689 0.024119034 -0.23852047 -0.14741376 0.38593423
2.7755576e-17 0.012204111 0.024689054 -0.23852047 -0.14741376 0.38593423
5.5511151e-17 0.011344306 0.025257319 -0.23852047 -0.14741376 0.38593423
5.5511151e-17 0.010487258 0.025823837 -0.23852047 -0.14741376 0.38593423
2.7755576e-17 0.0096329506 0.026388621 -0.23852047 -0.14741376 0.38593423
2.7755576e-17 0.0087813661 0.026951678 -0.23852047 -0.14741376 0.38593423
2.7755576e-17 0.0079324879 0.027513023 -0.23852047 -0.14741376 0.38593423
2.7755576e-17 0.0070862998 0.028072666 -0.23852047 -0.14741376 0.38593423
2.7755576e-17 0.0062427847 0.028630614 -0.23852047 -0.14741376 0.38593423
2.7755576e-17 0.0054019266 0.029186882 -0.23852047 -0.14741376 0.38593423
2.7755576e-17 0.0045637088 0.029741479 -0.23852047 -0.14741376 0.38593423
2.7755576e-17 0.0037281157 0.030294413 -0.23852047 -0.14741376 0.38593423
2.7755576e-17 0.0028951312 0.030845696 -0.23852047 -0.14741376 0.38593423
2.7755576e-17 0.0020647396 0.031395338 -0.23852047 -0.14741376 0.38593423
2.7755576e-17 0.0012369247 0.031943351 -0.23852047 -0.14741376 0.38593423
2.7755576e-17 0.00041167112 0.032489743 -0.23852047 -0.14741376 0.38593423
0.00066693075 0 0.032047775 -0.23852047 -0.14741376 0.38593423
0.0020089245 0 0.030609999 -0.23852047 -0.14741376 0.38593423
0.0033618768 0 0.029160557 -0.23852047 -0.14741376 0.38593423
0.0047259284 0 0.027699303 -0.23852047 -0.14741376 0.38593423
0.0061012232 0 0.026226079 -0.23852047 -0.14741376 0.38593423
0.0074879061 0 0.024740733 -0.23852047 -0.14741376 0.38593423
0.0088861259 0 0.023243105 -0.23852047 -0.14741376 0.38593423
0.010296033 0 0.021733036 -0.23852047 -0.14741376 0.38593423
0.011717781 0 0.020210363 -0.23852047 -0.14741376 0.38593423
0.013151526 0 0.018674919 -0.23852047 -0.14741376 0.38593423
0.014597428 2.7755576e-17 0.017126534 -0.23852047 -0.14741376 0.38593423
0.016055647 0 0.015565036 -0.23852047 -0.14741376 0.38593423
0.017526349 2.7755576e-17 0.01399025 -0.23852047 -0.14741376 0.38593423
0.0190097 0 0.012401998 -0.23852047 -0.14741376 0.38593423
0.020505873 0 0.010800098 -0.23852047 -0.14741376 0.38593423
0.022015039 0 0.0091843661 -0.23852047 -0.14741376 0.38593423
0.023537377 0 0.0075546126 -0.23852047 -0.14741376 0.38593423
0.025073066 0 0.0059106462 -0.23852047 -0.14741376 0.38593423
0.026622288 0 0.0042522722 -0.23852047 -0.14741376 0.38593423
0.028185232 0 0.0025792916 -0.23852047 -0.14741376 0.38593423
0.029762087 0 0.00089150202 -0.23852047 -0.14741376 0.38593423
2.7755576e-17 0.047206618 0.00038308714 -0.23852047 -0.14741376 0.38593423
0 0.04622563 0.0010304663 -0.23852047 -0.14741376 0.38593423
0 0.045248177 0.0016755924 -0.23852047 -0.14741376 0.38593423
0 0.044274233 0.0023184805 -0.23852047 -0.14741376 0.38593423
2.7755576e-17 0.043303773 0.0029591455 -0.23852047 -0.14741376 0.38593423
2.7755576e-17 0.042336781 0.0035976022 -0.23852047 -0.14741376 0.38593423
2.7755576e-17 0.041373227 0.0042338651 -0.23852047 -0.14741376 0.38593423
2.7755576e-17 0.040413093 0.0048679486 -0.23852047 -0.14741376 0.38593423
2.7755576e-17 0.039456353 0.0054998673 -0.23852047 -0.14741376 0.38593423
0 0.038502987 0.0061296355 -0.23852047 -0.14741376 0.38593423
2.7755576e-17 0.037552975 0.0067572673 -0.23852047 -0.14741376 0.38593423
2.7755576e-17 0.036606289 0.0073827761 -0.23852047 -0.14741376 0.38593423
2.7755576e-17 0.035662916 0.0080061769 -0.23852047 -0.14741376 0.38593423
0 0.034722824 0.0086274827 -0.23852047 -0.14741376 0.38593423
2.7755576e-17 0.033786003 0.009246707 -0.23852047 -0.14741376 0.38593423
2.7755576e-17 0.032852422 0.0098638637 -0.23852047 -0.14741376 0.38593423
2.7755576e-17 0.031922065 0.010478967 -0.23852047 -0.14741376 0.38593423
2.7755576e-17 0.030994911 0.011092029 -0.23852047 -0.14741376 0.38593423
2.7755576e-17 0.03007094 0.011703064 -0.23852047 -0.14741376 0.38593423
2.7755576e-17 0.029150128 0.012312084 -0.23852047 -0.14741376 0.38593423
2.7755576e-17 0.028232459 0.012919103 -0.23852047 -0.14741376 0.38593423
2.7755576e-17 0.027317911 0.013524133 -0.23852047 -0.14741376 0.38593423
0 0.026406465 0.014127186 -0.23852047 -0.14741376 0.38593423
2.7755576e-17 0.0254981 0.014728278 -0.23852047 -0.14741376 0.38593423
2.7755576e-17 0.024592794 0.015327419 -0.23852047 -0.14741376 0.38593423
0 0.023690535 0.015924621 -0.23852047 -0.14741376 0.38593423
0 0.022791296 0.0165199 -0.23852047 -0.14741376 0.38593423
5.5511151e-17 0.021895062 0.017113263 -0.23852047 -0.14741376 0.38593423
0 0.021001812 0.017704727 -0.23852047 -0.14741376 0.38593423
0 0.020111529 0.018294301 -0.23852047 -0.14741376 0.38593423
2.7755576e-17 0.019224193 0.018881997 -0.23852047 -0.14741376 0.38593423
0 0.018339785 0.019467831 -0.23852047 -0.14741376 0.38593423
0 0.01745829 0.020051809 -0.23852047 -0.14741376 0.38593423
0 0.016579686 0.020633945 -0.23852047 -0.14741376 0.38593423
2.7755576e-17 0.015703956 0.021214252 -0.23852047 -0.14741376 0.38593423
5.5511151e-17 0.014831081 0.021792741 -0.23852047 -0.14741376 0.38593423
2.7755576e-17 0.013961046 0.022369424 -0.23852047 -0.14741376 0.38593423
2.7755576e-17 0.013093831 0.022944309 -0.23852047 -0.14741376 0.38593423
0 0.012229419 0.023517411 -0.23852047 -0.14741376 0.38593423
2.7755576e-17 0.011367794 0.024088738 -0.23852047 -0.14741376 0.38593423
2.7755576e-17 0.010508937 0.024658306 -0.23852047 -0.14741376 0.38593423
2.7755576e-17 0.0096528316 0.025226122 -0.23852047 -0.14741376 0.38593423
2.7755576e-17 0.0087994607 0.025792196 -0.23852047 -0.14741376 0.38593423
5.5511151e-17 0.0079488074 0.026356541 -0.23852047 -0.14741376 0.38593423
2.7755576e-17 0.007100855 0.026919167 -0.23852047 -0.14741376 0.38593423
2.7755576e-17 0.0062555871 0.027480086 -0.23852047 -0.14741376 0.38593423
2.7755576e-17 0.005412987 0.028039308 -0.23852047 -0.14741376 0.38593423
2.7755576e-17 0.0045730383 0.028596843 -0.23852047 -0.14741376 0.38593423
2.7755576e-17 0.0037357253 0.029152701 -0.23852047 -0.14741376 0.38593423
2.7755576e-17 0.0029010314 0.029706893 -0.23852047 -0.14741376 0.38593423
2.7755576e-17 0.0020689408 0.030259429 -0.23852047 -0.14741376 0.38593423
2.7755576e-17 0.0012394375 0.030810319 -0.23852047 -0.14741376 0.38593423
2.7755576e-17 0.00041250617 0.031359572 -0.23852047 -0.14741376 0.38593423
0.00066828524 0 0.03091529 -0.23852047 -0.14741376 0.38593423
0.0020130211 0 0.029469971 -0.23852047 -0.14741376 0.38593423
0.0033687605 0 0.028012896 -0.23852047 -0.14741376 0.38593423
0.0047356454 0 0.026543917 -0.23852047 -0.14741376 0.38593423
0.0061138193 0 0.02506288 -0.23852047 -0.14741376 0.38593423
0.007503429 0 0.023569627 -0.23852047 -0.14741376 0.38593423
0.0089046238 0 0.022063999 -0.23852047 -0.14741376 0.38593423
0.010317557 0 0.020545833 -0.23852047 -0.14741376 0.38593423
0.01174238 0 0.019014966 -0.23852047 -0.14741376 0.38593423
0.013179252 0 0.017471228 -0.23852047 -0.14741376 0.38593423
0.014628332 0 0.015914448 -0.23852047 -0.14741376 0.38593423
0.016089784 0 0.014344455 -0.23852047 -0.14741376 0.38593423
0.017563771 0 0.012761069 -0.23852047 -0.14741376 0.38593423
0.019050466 0 0.011164111 -0.23852047 -0.14741376 0.38593423
0.020550037 2.7755576e-17 0.009553398 -0.23852047 -0.14741376 0.38593423
0.022062661 0 0.0079287421 -0.23852047 -0.14741376 0.38593423
0.023588514 0 0.0062899538 -0.23852047 -0.14741376 0.38593423
0.025127778 0 0.0046368395 -0.23852047 -0.14741376 0.38593423
0.026680639 0 0.0029692026 -0.23852047 -0.14741376 0.38593423
0.028247282 0 0.0012868413 -0.23852047 -0.14741376 0.38593423
2.7755576e-17 0.045348167 0.00037626305 -0.23852047 -0.14741376 0.38593423
0 0.044371895 0.00102291 -0.23852047 -0.14741376 0.38593423
0 0.043399125 0.0016673123 -0.23852047 -0.14741376 0.38593423
2.7755576e-17 0.042429835 0.0023094853 -0.23852047 -0.14741376 0.38593423
0 0.041464001 0.0029494434 -0.23852047 -0.14741376 0.38593423
2.7755576e-17 0.040501602 0.0035872012 -0.23852047 -0.14741376 0.38593423
0 0.039542615 0.0042227739 -0.23852047 -0.14741376 0.38593423
0 0.038587015 0.0048561748 -0.23852047 -0.14741376 0.38593423
0 0.037634782 0.0054874192 -0.23852047 -0.14741376 0.38593423
5.5511151e-17 0.036685895 0.0061165211 -0.23852047 -0.14741376 0.38593423
2.7755576e-17 0.035740335 0.006743494 -0.23852047 -0.14741376 0.38593423
0 0.034798071 0.0073683523 -0.23852047 -0.14741376 0.38593423
2.7755576e-17 0.033859089 0.00799111 -0.23852047 -0.14741376 0.38593423
0 0.032923367 0.0086117797 -0.23852047 -0.14741376 0.38593423
2.7755576e-17 0.031990882 0.0092303762 -0.23852047 -0.14741376 0.38593423
0 0.031061614 0.0098469136 -0.23852047 -0.14741376 0.38593423
5.5511151e-17 0.030135542 0.010461403 -0.23852047 -0.14741376 0.38593423
2.7755576e-17 0.029212646 0.011073859 -0.23852047 -0.14741376 0.38593423
2.7755576e-17 0.028292906 0.011684296 -0.23852047 -0.14741376 0.38593423
2.7755576e-17 0.0273763 0.012292725 -0.23852047 -0.14741376 0.38593423
2.7755576e-17 0.026462808 0.012899159 -0.23852047 -0.14741376 0.38593423
2.7755576e-17 0.025552412 0.013503612 -0.23852047 -0.14741376 0.38593423
0 0.024645092 0.014106097 -0.23852047 -0.14741376 0.38593423
2.7755576e-17 0.023740828 0.014706625 -0.23852047 -0.14741376 0.38593423
2.7755576e-17 0.022839598 0.015305209 -0.23852047 -0.14741376 0.38593423
2.7755576e-17 0.021941388 0.015901864 -0.23852047 -0.14741376 0.38593423
2.7755576e-17 0.021046175 0.016496597 -0.23852047 -0.14741376 0.38593423
2.7755576e-17 0.02015394 0.017089425 -0.23852047 -0.14741376 0.38593423
0 0.019264665 0.017680358 -0.23852047 -0.14741376 0.38593423
2.7755576e-17 0.018378332 0.01826941 -0.23852047 -0.14741376 0.38593423
0 0.017494923 0.018856591 -0.23852047 -0.14741376 0.38593423
2.7755576e-17 0.016614417 0.019441912 -0.23852047 -0.14741376 0.38593423
2.7755576e-17 0.0157368 0.020025387 -0.23852047 -0.14741376 0.38593423
5.5511151e-17 0.014862048 0.020607026 -0.23852047 -0.14741376 0.38593423
5.5511151e-17 0.013990149 0.021186842 -0.23852047 -0.14741376 0.38593423
5.5511151e-17 0.013121082 0.021764845 -0.23852047 -0.14741376 0.38593423
2.7755576e-17 0.01225483 0.022341048 -0.23852047 -0.14741376 0.38593423
0 0.011391377 0.02291546 -0.23852047 -0.14741376 0.38593423
2.7755576e-17 0.010530703 0.023488095 -0.23852047 -0.14741376 0.38593423
2.7755576e-17 0.0096727926 0.024058962 -0.23852047 -0.14741376 0.38593423
2.7755576e-17 0.008817628 0.024628073 -0.23852047 -0.14741376 0.38593423
2.7755576e-17 0.0079651922 0.02519544 -0.23852047 -0.14741376 0.38593423
2.7755576e-17 0.0071154684 0.025761072 -0.23852047 -0.14741376 0.38593423
0 0.0062684407 0.026324978 -0.23852047 -0.14741376 0.38593423
2.7755576e-17 0.0054240916 0.026887173 -0.23852047 -0.14741376 0.38593423
2.7755576e-17 0.0045824051 0.027447665 -0.23852047 -0.14741376 0.38593423
2.7755576e-17 0.0037433649 0.028006466 -0.23852047 -0.14741376 0.38593423
2.7755576e-17 0.0029069546 0.028563583 -0.23852047 -0.14741376 0.38593423
2.7755576e-17 0.0020731585 0.029119032 -0.23852047 -0.14741376 0.38593423
2.7755576e-17 0.0012419603 0.029672818 -0.23852047 -0.14741376 0.38593423
2.7755576e-17 0.0004133445 0.030224955 -0.23852047 -0.14741376 0.38593423
0.00066964515 0 0.029778345 -0.23852047 -0.14741376 0.38593423
0.0020171341 0 0.028325431 -0.23852047 -0.14741376 0.38593423
0.0033756716 0 0.026860673 -0.23852047 -0.14741376 0.38593423
0.0047454005 0 0.025383921 -0.23852047 -0.14741376 0.38593423
0.0061264657 2.7755576e-17 0.023895018 -0.23852047 -0.14741376 0.38593423
0.0075190146 0 0.022393806 -0.23852047 -0.14741376 0.38593423
0.0089231972 0 0.020880124 -0.23852047 -0.14741376 0.38593423
0.010339167 0 0.019353809 -0.23852047 -0.14741376 0.38593423
0.011767078 0 0.017814692 -0.23852047 -0.14741376 0.38593423
0.01320709 0 0.016262606 -0.23852047 -0.14741376 0.38593423
0.014659363 0 0.014697377 -0.23852047 -0.14741376 0.38593423
0.01612406 0 0.01311883 -0.23852047 -0.14741376 0.38593423
0.01760135 0 0.011526786 -0.23852047 -0.14741376 0.38593423
0.019091401 0 0.0099210627 -0.23852047 -0.14741376 0.38593423
0.020594386 0 0.0083014751 -0.23852047 -0.14741376 0.38593423
0.022110483 0 0.0066678356 -0.23852047 -0.14741376 0.38593423
0.023639867 0 0.0050199507 -0.23852047 -0.14741376 0.38593423
0.025182724 0 0.0033576258 -0.23852047 -0.14741376 0.38593423
0.026739238 0 0.0016806612 -0.23852047 -0.14741376 0.38593423
2.7755576e-17 0.043494884 0.00036993783 -0.23852047 -0.14741376 0.38593423
2.7755576e-17 0.042523287 0.001015853 -0.23852047 -0.14741376 0.38593423
0 0.041555163 0.0016595323 -0.23852047 -0.14741376 0.38593423
2.7755576e-17 0.040590487 0.0023009905 -0.23852047 -0.14741376 0.38593423
2.7755576e-17 0.03962924 0.0029402419 -0.23852047 -0.14741376 0.38593423
0 0.0386714 0.0035773017 -0.23852047 -0.14741376 0.38593423
2.7755576e-17 0.03771694 0.0042121839 -0.23852047 -0.14741376 0.38593423
2.7755576e-17 0.03676584 0.0048449035 -0.23852047 -0.14741376 0.38593423
2.7755576e-17 0.035818081 0.0054754736 -0.23852047 -0.14741376 0.38593423
2.7755576e-17 0.034873635 0.0061039091 -0.23852047 -0.14741376 0.38593423
2.7755576e-17 0.033932488 0.006730224 -0.23852047 -0.14741376 0.38593423
2.7755576e-17 0.032994613 0.0073544313 -0.23852047 -0.14741376 0.38593423
2.7755576e-17 0.03205999 0.007976546 -0.23852047 -0.14741376 0.38593423
2.7755576e-17 0.031128598 0.0085965814 -0.23852047 -0.14741376 0.38593423
2.7755576e-17 0.030200416 0.0092145503 -0.23852047 -0.14741376 0.38593423
2.7755576e-17 0.029275427 0.0098304665 -0.23852047 -0.14741376 0.38593423
5.5511151e-17 0.028353604 0.010444343 -0.23852047 -0.14741376 0.38593423
0 0.027434932 0.011056194 -0.23852047 -0.14741376 0.38593423
0 0.026519388 0.011666032 -0.23852047 -0.14741376 0.38593423
2.7755576e-17 0.025606953 0.012273869 -0.23852047 -0.14741376 0.38593423
2.7755576e-17 0.024697606 0.01287972 -0.23852047 -0.14741376 0.38593423
2.7755576e-17 0.02379133 0.013483596 -0.23852047 -0.14741376 0.38593423
2.7755576e-17 0.022888102 0.01408551 -0.23852047 -0.14741376 0.38593423
2.7755576e-17 0.021987904 0.014685474 -0.23852047 -0.14741376 0.38593423
0 0.021090718 0.015283503 -0.23852047 -0.14741376 0.38593423
0 0.020196524 0.015879607 -0.23852047 -0.14741376 0.38593423
5.5511151e-17 0.019305304 0.016473798 -0.23852047 -0.14741376 0.38593423
2.7755576e-17 0.018417036 0.017066089 -0.23852047 -0.14741376 0.38593423
2.7755576e-17 0.017531706 0.017656494 -0.23852047 -0.14741376 0.38593423
0 0.016649291 0.018245021 -0.23852047 -0.14741376 0.38593423
0 0.015769776 0.018831685 -0.23852047 -0.14741376 0.38593423
2.7755576e-17 0.014893143 0.019416496 -0.23852047 -0.14741376 0.38593423
2.7755576e-17 0.014019371 0.019999467 -0.23852047 -0.14741376 0.38593423
5.5511151e-17 0.013148444 0.020580608 -0.23852047 -0.14741376 0.38593423
0 0.012280345 0.021159932 -0.23852047 -0.14741376 0.38593423
0 0.011415055 0.021737451 -0.23852047 -0.14741376 0.38593423
2.7755576e-17 0.010552556 0.022313174 -0.23852047 -0.14741376 0.38593423
2.7755576e-17 0.0096928328 0.022887113 -0.23852047 -0.14741376 0.38593423
5.5511151e-17 0.008835867 0.02345928 -0.23852047 -0.14741376 0.38593423
0 0.0079816421 0.024029685 -0.23852047 -0.14741376 0.38593423
2.7755576e-17 0.0071301404 0.02459834 -0.23852047 -0.14741376 0.38593423
2.7755576e-17 0.0062813452 0.025165256 -0.23852047 -0.14741376 0.38593423
5.5511151e-17 0.0054352405 0.025730444 -0.23852047 -0.14741376 0.38593423
2.7755576e-17 0.0045918091 0.026293913 -0.23852047 -0.14741376 0.38593423
2.7755576e-17 0.0037510348 0.026855674 -0.23852047 -0.14741376 0.38593423
2.7755576e-17 0.0029129016 0.027415739 -0.23852047 -0.14741376 0.38593423
2.7755576e-17 0.002077393 0.027974118 -0.23852047 -0.14741376 0.38593423
2.7755576e-17 0.0012444932 0.028530819 -0.23852047 -0.14741376 0.38593423
2.7755576e-17 0.00041418613 0.029085856 -0.23852047 -0.14741376 0.38593423
0.00067101035 0 0.028636903 -0.23852047 -0.14741376 0.38593423
0.0020212634 0 0.027176345 -0.23852047 -0.14741376 0.38593423
0.0033826104 0 0.025703855 -0.23852047 -0.14741376 0.38593423
0.0047551948 0 0.02421928 -0.23852047 -0.14741376 0.38593423
0.0061391629 0 0.02272246 -0.23852047 -0.14741376 0.38593423
0.021845946 0.0085740145 5.5511151e-17 -0.23852047 -0.14741376 0.38593423
0.008941846 0 0.019691447 -0.23852047 -0.14741376 0.38593423
0.010360865 0 0.018156927 -0.23852047 -0.14741376 0.38593423
0.011791878 0 0.016609507 -0.23852047 -0.14741376 0.38593423
0.013235043 0 0.015049016 -0.23852047 -0.14741376 0.38593423
0.014690522 0 0.013475281 -0.23852047 -0.14741376 0.38593423
0.01615848 0 0.011888123 -0.23852047 -0.14741376 0.38593423
0.017639086 0 0.010287362 -0.23852047 -0.14741376 0.38593423
0.019132508 0 0.0086728148 -0.23852047 -0.14741376 0.38593423
0.020638922 0 0.007044293 -0.23852047 -0.14741376 0.38593423
0.022158505 0 0.0054016076 -0.23852047 -0.14741376 0.38593423
0.023691438 0 0.0037445636 -0.23852047 -0.14741376 0.38593423
0.025237903 0 0.0020729639 -0.23852047 -0.14741376 0.38593423
0.026798086 0 0.00038660722 -0.23852047 -0.14741376 0.38593423
5.5511151e-17 0.041646715 0.00036409049 -0.23852047 -0.14741376 0.38593423
2.7755576e-17 0.040679757 0.0010092746 -0.23852047 -0.14741376 0.38593423
0 0.03971624 0.0016522313 -0.23852047 -0.14741376 0.38593423
2.7755576e-17 0.038756143 0.0022929751 -0.23852047 -0.14741376 0.38593423
0 0.037799448 0.0029315208 -0.23852047 -0.14741376 0.38593423
2.7755576e-17 0.036846124 0.0035678828 -0.23852047 -0.14741376 0.38593423
0 0.035896156 0.0042020753 -0.23852047 -0.14741376 0.38593423
2.7755576e-17 0.034949522 0.0048341132 -0.23852047 -0.14741376 0.38593423
0 0.034006193 0.0054640095 -0.23852047 -0.14741376 0.38593423
2.7755576e-17 0.033066157 0.0060917791 -0.23852047 -0.14741376 0.38593423
2.7755576e-17 0.032129388 0.006717436 -0.23852047 -0.14741376 0.38593423
0 0.031195862 0.0073409933 -0.23852047 -0.14741376 0.38593423
2.7755576e-17 0.030265564 0.0079624653 -0.23852047 -0.14741376 0.38593423
2.7755576e-17 0.029338468 0.0085818656 -0.23852047 -0.14741376 0.38593423
2.7755576e-17 0.028414557 0.0091992067 -0.23852047 -0.14741376 0.38593423
2.7755576e-17 0.027493808 0.0098145027 -0.23852047 -0.14741376 0.38593423
2.7755576e-17 0.026576202 0.010427766 -0.23852047 -0.14741376 0.38593423
2.7755576e-17 0.025661718 0.011039012 -0.23852047 -0.14741376 0.38593423
5.5511151e-17 0.024750337 0.011648252 -0.23852047 -0.14741376 0.38593423
0 0.02384204 0.012255498 -0.23852047 -0.14741376 0.38593423
2.7755576e-17 0.022936804 0.012860764 -0.23852047 -0.14741376 0.38593423
2.7755576e-17 0.022034613 0.013464062 -0.23852047 -0.14741376 0.38593423
0.0090216957 0.02751058 0 -0.23852047 -0.14741376 0.38593423
0 0.020239284 0.014664808 -0.23852047 -0.14741376 0.38593423
0 0.019346109 0.01526228 -0.23852047 -0.14741376 0.38593423
0 0.018455898 0.015857834 -0.23852047 -0.14741376 0.38593423
0 0.017568639 0.016451482 -0.23852047 -0.14741376 0.38593423
0.011019952 0.02426585 0 -0.23852047 -0.14741376 0.38593423
2.7755576e-17 0.014924362 0.018221116 -0.23852047 -0.14741376 0.38593423
0 0.014048711 0.018807262 -0.23852047 -0.14741376 0.38593423
0.01261868 0.02167175 5.5511151e-17 -0.23852047 -0.14741376 0.38593423
0.013018396 0.02102343 0 -0.23852047 -0.14741376 0.38593423
0 0.011438828 0.020554671 -0.23852047 -0.14741376 0.38593423
0 0.010574498 0.021133503 -0.23852047 -0.14741376 0.38593423
2.7755576e-17 0.009712955 0.021710536 -0.23852047 -0.14741376 0.38593423
0.014617454 0.018430883 0 -0.23852047 -0.14741376 0.38593423
0 0.0079981582 0.022859244 -0.23852047 -0.14741376 0.38593423
0 0.0071448712 0.023430943 -0.23852047 -0.14741376 0.38593423
0.015817009 0.016487146 0 -0.23852047 -0.14741376 0.38593423
0 0.005446434 0.024569087 -0.23852047 -0.14741376 0.38593423
0 0.0046012504 0.025135553 -0.23852047 -0.14741376 0.38593423
0 0.0037587355 0.025700293 -0.23852047 -0.14741376 0.38593423
0 0.0029188721 0.026263325 -0.23852047 -0.14741376 0.38593423
0 0.0020816443 0.026824653 -0.23852047 -0.14741376 0.38593423
0 0.001247036 0.027384289 -0.23852047 -0.14741376 0.38593423
0 0.0004150311 0.027942246 -0.23852047 -0.14741376 0.38593423
0.00067238102 0 0.027490932 -0.23852047 -0.14741376 0.38593423
0.0020254089 0 0.026022682 -0.23852047 -0.14741376 0.38593423
0.0033895767 2.7755576e-17 0.02454241 -0.23852047 -0.14741376 0.38593423
0.0047650286 0 0.023049958 -0.23852047 -0.14741376 0.38593423
0.020618614 0.0087161083 0 -0.23852047 -0.14741376 0.38593423
0.0075503746 0 0.020027883 -0.23852047 -0.14741376 0.38593423
0.0089605702 0 0.018497933 -0.23852047 -0.14741376 0.38593423
0.010382652 0 0.016955154 -0.23852047 -0.14741376 0.38593423
0.011816779 0 0.015399375 -0.23852047 -0.14741376 0.38593423
0.013263111 0 0.013830423 -0.23852047 -0.14741376 0.38593423
0.01472181 0 0.012248124 -0.23852047 -0.14741376 0.38593423
0.016193043 0 0.010652297 -0.23852047 -0.14741376 0.38593423
0.017676977 0 0.0090427604 -0.23852047 -0.14741376 0.38593423
0.019173786 0 0.0074193282 -0.23852047 -0.14741376 0.38593423
0.020683646 0 0.0057818112 -0.23852047 -0.14741376 0.38593423
0.022206731 0 0.0041300179 -0.23852047 -0.14741376 0.38593423
0.023743227 0 0.0024637515 -0.23852047 -0.14741376 0.38593423
0.025293317 0 0.00078281283 -0.23852047 -0.14741376 0.38593423
2.7755576e-17 0.039803609 0.00035870014 -0.23852047 -0.14741376 0.38593423
2.7755576e-17 0.038841251 0.001003154 -0.23852047 -0.14741376 0.38593423
2.7755576e-17 0.037882306 0.0016453885 -0.23852047 -0.14741376 0.38593423
0 0.03692675 0.0022854188 -0.23852047 -0.14741376 0.38593423
2.7755576e-17 0.035974566 0.002923259 -0.23852047 -0.14741376 0.38593423
0.0022200078 0.036723766 5.5511151e-17 -0.23852047 -0.14741376 0.38593423
0 0.034080215 0.0041924273 -0.23852047 -0.14741376 0.38593423
0 0.033138003 0.0048237834 -0.23852047 -0.14741376 0.38593423
0.003418444 0.034773264 0 -0.23852047 -0.14741376 0.38593423
0.0038178631 0.034123395 0 -0.23852047 -0.14741376 0.38593423
0 0.030330984 0.00670511 -0.23852047 -0.14741376 0.38593423
0.0046166233 0.032824084 5.5511151e-17 -0.23852047 -0.14741376 0.38593423
0 0.028475763 0.0079488475 -0.23852047 -0.14741376 0.38593423
2.7755576e-17 0.027552931 0.0085676126 -0.23852047 -0.14741376 0.38593423
0 0.026633253 0.009184326 -0.23852047 -0.14741376 0.38593423
0 0.025716713 0.0097990027 -0.23852047 -0.14741376 0.38593423
0.0070124273 0.028929325 0 -0.23852047 -0.14741376 0.38593423
0 0.02298571 0.011630935 -0.23852047 -0.14741376 0.38593423
0.0082101608 0.026983572 0 -0.23852047 -0.14741376 0.38593423
0 0.02028222 0.013444995 -0.23852047 -0.14741376 0.38593423
0 0.019387081 0.014045767 -0.23852047 -0.14741376 0.38593423
0 0.018494923 0.014644606 -0.23852047 -0.14741376 0.38593423
2.7755576e-17 0.017605724 0.015241521 -0.23852047 -0.14741376 0.38593423
0 0.016719468 0.015836526 -0.23852047 -0.14741376 0.38593423
0 0.015836136 0.016429631 -0.23852047 -0.14741376 0.38593423
0 0.014955711 0.01702085 -0.23852047 -0.14741376 0.38593423
2.7755576e-17 0.014078172 0.017610192 -0.23852047 -0.14741376 0.38593423
2.7755576e-17 0.013203502 0.018197672 -0.23852047 -0.14741376 0.38593423
2.7755576e-17 0.012331683 0.018783301 -0.23852047 -0.14741376 0.38593423
0 0.011462699 0.019367091 -0.23852047 -0.14741376 0.38593423
0 0.01059653 0.019949052 -0.23852047 -0.14741376 0.38593423
0.013400565 0.018561993 0 -0.23852047 -0.14741376 0.38593423
2.7755576e-17 0.0088725677 0.021107538 -0.23852047 -0.14741376 0.38593423
0 0.0080147414 0.021684084 -0.23852047 -0.14741376 0.38593423
0 0.007159661 0.022258846 -0.23852047 -0.14741376 0.38593423
0 0.0063073104 0.022831839 -0.23852047 -0.14741376 0.38593423
0 0.0054576723 0.023403069 -0.23852047 -0.14741376 0.38593423
0 0.0046107299 0.02397255 -0.23852047 -0.14741376 0.38593423
0 0.0037664669 0.024540292 -0.23852047 -0.14741376 0.38593423
0.016596189 0.013385387 5.5511151e-17 -0.23852047 -0.14741376 0.38593423
0 0.0020859125 0.025670605 -0.23852047 -0.14741376 0.38593423
0 0.0012495889 0.026233194 -0.23852047 -0.14741376 0.38593423
0 0.00041587945 0.026794089 -0.23852047 -0.14741376 0.38593423
0.00067375711 0 0.026340403 -0.23852047 -0.14741376 0.38593423
0.0020295712 0 0.024864409 -0.23852047 -0.14741376 0.38593423
0.0033965711 0 0.023376303 -0.23852047 -0.14741376 0.38593423
0.019394295 0.0088579562 0 -0.23852047 -0.14741376 0.38593423
0.0061647114 0 0.020363115 -0.23852047 -0.14741376 0.38593423
0.0075661503 0 0.018837711 -0.23852047 -0.14741376 0.38593423
0.0089793708 0 0.017299546 -0.23852047 -0.14741376 0.38593423
0.010404529 0 0.015748452 -0.23852047 -0.14741376 0.38593423
0.011841783 0 0.014184259 -0.23852047 -0.14741376 0.38593423
0.013291296 0 0.01260679 -0.23852047 -0.14741376 0.38593423
0.014753228 0 0.01101587 -0.23852047 -0.14741376 0.38593423
0.01622775 0 0.0094113145 -0.23852047 -0.14741376 0.38593423
0.017715029 2.7755576e-17 0.0077929422 -0.23852047 -0.14741376 0.38593423
0.019215239 0 0.0061605643 -0.23852047 -0.14741376 0.38593423
0.020728558 0 0.0045139906 -0.23852047 -0.14741376 0.38593423
0.022255164 0 0.0028530261 -0.23852047 -0.14741376 0.38593423
0.023795238 0 0.0011774736 -0.23852047 -0.14741376 0.38593423
0 0.037965517 0.00035374603 -0.23852047 -0.14741376 0.38593423
0.00061806786 0.037485603 0 -0.23852047 -0.14741376 0.38593423
0 0.036053307 0.0016389835 -0.23852047 -0.14741376 0.38593423
0 0.035102259 0.0022783007 -0.23852047 -0.14741376 0.38593423
0.0018155536 0.035536598 0 -0.23852047 -0.14741376 0.38593423
0.0026137019 0.034238026 0 -0.23852047 -0.14741376 0.38593423
0 0.031331245 0.0048138946 -0.23852047 -0.14741376 0.38593423
0 0.030396679 0.0054424452 -0.23852047 -0.14741376 0.38593423
0 0.028537229 0.0066932263 -0.23852047 -0.14741376 0.38593423
0.0046085743 0.030994069 0 -0.23852047 -0.14741376 0.38593423
0 0.026690545 0.0079356711 -0.23852047 -0.14741376 0.38593423
0 0.025771938 0.008553802 -0.23852047 -0.14741376 0.38593423
0 0.024856461 0.0091698887 -0.23852047 -0.14741376 0.38593423
0 0.023944095 0.009783945 -0.23852047 -0.14741376 0.38593423
0.0066029364 0.027753329 0 -0.23852047 -0.14741376 0.38593423
0 0.022128614 0.011006019 -0.23852047 -0.14741376 0.38593423
0 0.021225458 0.011614062 -0.23852047 -0.14741376 0.38593423
0 0.020325335 0.012220127 -0.23852047 -0.14741376 0.38593423
0.0081982259 0.025162777 0 -0.23852047 -0.14741376 0.38593423
0.0085970378 0.024515396 0 -0.23852047 -0.14741376 0.38593423
0 0.017642962 0.014026573 -0.23852047 -0.14741376 0.38593423
0.0093946606 0.023220917 0 -0.23852047 -0.14741376 0.38593423
0.0097934771 0.022573814 5.5511151e-17 -0.23852047 -0.14741376 0.38593423
0.010192298 0.021926796 5.5511151e-17 -0.23852047 -0.14741376 0.38593423
0 0.014107753 0.016408222 -0.23852047 -0.14741376 0.38593423
0.010989966 0.020633006 0 -0.23852047 -0.14741376 0.38593423
0 0.01235751 0.017587718 -0.23852047 -0.14741376 0.38593423
2.7755576e-17 0.011486666 0.018174674 -0.23852047 -0.14741376 0.38593423
0.012186559 0.018692888 0 -0.23852047 -0.14741376 0.38593423
2.7755576e-17 0.0080313915 0.020504167 -0.23852047 -0.14741376 0.38593423
2.7755576e-17 0.007174511 0.021082014 -0.23852047 -0.14741376 0.38593423
2.7755576e-17 0.0063203713 0.021658074 -0.23852047 -0.14741376 0.38593423
2.7755576e-17 0.0054689557 0.022232356 -0.23852047 -0.14741376 0.38593423
0 0.0046202471 0.022804873 -0.23852047 -0.14741376 0.38593423
2.7755576e-17 0.0037742292 0.023375636 -0.23852047 -0.14741376 0.38593423
0 0.0029308849 0.023944655 -0.23852047 -0.14741376 0.38593423
2.7755576e-17 0.002090198 0.024511941 -0.23852047 -0.14741376 0.38593423
0 0.0012521521 0.025077503 -0.23852047 -0.14741376 0.38593423
0 0.00041673117 0.025641356 -0.23852047 -0.14741376 0.38593423
0.00067513867 0 0.02518528 -0.23852047 -0.14741376 0.38593423
0.0020337501 0 0.023701493 -0.23852047 -0.14741376 0.38593423
0.0034035936 0 0.022205502 -0.23852047 -0.14741376 0.38593423
0.0047848155 0 0.020697145 -0.23852047 -0.14741376 0.38593423
0.0061775637 0 0.01917626 -0.23852047 -0.14741376 0.38593423
0.0075819902 0 0.017642684 -0.23852047 -0.14741376 0.38593423
0.0089982487 0 0.016096251 -0.23852047 -0.14741376 0.38593423
0.010426496 0 0.014536788 -0.23852047 -0.14741376 0.38593423
0.011866891 0 0.012964123 -0.23852047 -0.14741376 0.38593423
0.013319597 0 0.01137808 -0.23852047 -0.14741376 0.38593423
0.014784778 0 0.0097784782 -0.23852047 -0.14741376 0.38593423
0.016262602 0 0.0081651369 -0.23852047 -0.14741376 0.38593423
0.01775324 0 0.0065378682 -0.23852047 -0.14741376 0.38593423
0.019256867 0 0.0048964834 -0.23852047 -0.14741376 0.38593423
0.02077366 0 0.0032407905 -0.23852047 -0.14741376 0.38593423
0.022303801 0 0.0015705921 -0.23852047 -0.14741376 0.38593423
0.00021601762 0.036298618 0 -0.23852047 -0.14741376 0.38593423
0 0.035179116 0.00099220278 -0.23852047 -0.14741376 0.38593423
0.0014122386 0.034352489 0 -0.23852047 -0.14741376 0.38593423
2.7755576e-17 0.032339346 0.0029080315 -0.23852047 -0.14741376 0.38593423
0.0022095442 0.033055808 0 -0.23852047 -0.14741376 0.38593423
0.0026081505 0.032407682 0 -0.23852047 -0.14741376 0.38593423
0.0030067286 0.03175969 5.5511151e-17 -0.23852047 -0.14741376 0.38593423
0 0.028598955 0.005432304 -0.23852047 -0.14741376 0.38593423
0.0038038075 0.030464103 0 -0.23852047 -0.14741376 0.38593423
0 0.026748076 0.0066817636 -0.23852047 -0.14741376 0.38593423
0 0.025827395 0.0073033725 -0.23852047 -0.14741376 0.38593423
0.0049992637 0.02852167 0 -0.23852047 -0.14741376 0.38593423
2.7755576e-17 0.023995444 0.0085404143 -0.23852047 -0.14741376 0.38593423
0.0057961494 0.027227305 0 -0.23852047 -0.14741376 0.38593423
0 0.022175908 0.0097693121 -0.23852047 -0.14741376 0.38593423
0 0.021270746 0.010380738 -0.23852047 -0.14741376 0.38593423
0.0069913901 0.025286581 0 -0.23852047 -0.14741376 0.38593423
0 0.019469537 0.011597614 -0.23852047 -0.14741376 0.38593423
0 0.018573452 0.012203087 -0.23852047 -0.14741376 0.38593423
2.7755576e-17 0.017680354 0.012806602 -0.23852047 -0.14741376 0.38593423
0.0085849641 0.022700347 0 -0.23852047 -0.14741376 0.38593423
2.7755576e-17 0.015903043 0.014007803 -0.23852047 -0.14741376 0.38593423
0 0.015018793 0.014605515 -0.23852047 -0.14741376 0.38593423
0 0.014137454 0.015201317 -0.23852047 -0.14741376 0.38593423
0 0.01325901 0.015795222 -0.23852047 -0.14741376 0.38593423
0.010576983 0.019469511 0 -0.23852047 -0.14741376 0.38593423
2.7755576e-17 0.011510731 0.016977385 -0.23852047 -0.14741376 0.38593423
0 0.010640861 0.017565668 -0.23852047 -0.14741376 0.38593423
0.011772317 0.017531896 0 -0.23852047 -0.14741376 0.38593423
0 0.0089095663 0.018736694 -0.23852047 -0.14741376 0.38593423
2.7755576e-17 0.0080481088 0.019319462 -0.23852047 -0.14741376 0.38593423
0 0.007189421 0.019900413 -0.23852047 -0.14741376 0.38593423
0 0.0063334852 0.020479562 -0.23852047 -0.14741376 0.38593423
0.013764916 0.014303736 0 -0.23852047 -0.14741376 0.38593423
2.7755576e-17 0.0046298029 0.021632489 -0.23852047 -0.14741376 0.38593423
0 0.0037820227 0.02220629 -0.23852047 -0.14741376 0.38593423
0.014960789 0.012367418 0 -0.23852047 -0.14741376 0.38593423
0 0.0020945005 0.023348626 -0.23852047 -0.14741376 0.38593423
2.7755576e-17 0.0012547255 0.023917181 -0.23852047 -0.14741376 0.38593423
0 0.0004175863 0.02448401 -0.23852047 -0.14741376 0.38593423
0.00067652581 0 0.024025528 -0.23852047 -0.14741376 0.38593423
0.016954606 0.0091409022 5.5511151e-17 -0.23852047 -0.14741376 0.38593423
0.0034106446 2.7755576e-17 0.02102997 -0.23852047 -0.14741376 0.38593423
0.017752422 0.0078504598 0 -0.23852047 -0.14741376 0.38593423
0.0061904681 0 0.017984571 -0.23852047 -0.14741376 0.38593423
0.0075978953 0 0.01644277 -0.23852047 -0.14741376 0.38593423
0.0090172039 0 0.014888011 -0.23852047 -0.14741376 0.38593423
0.010448554 0 0.013320123 -0.23852047 -0.14741376 0.38593423
0.011892103 0 0.011738929 -0.23852047 -0.14741376 0.38593423
0.013348015 0 0.010144253 -0.23852047 -0.14741376 0.38593423
0.014816458 0 0.0085359132 -0.23852047 -0.14741376 0.38593423
0.016297599 0 0.0069137244 -0.23852047 -0.14741376 0.38593423
0.017791612 0 0.0052774991 -0.23852047 -0.14741376 0.38593423
0.021744668 0.0013985521 0 -0.23852047 -0.14741376 0.38593423
0.020818956 0 0.0019621705 -0.23852047 -0.14741376 0.38593423
0.022352647 0 0.00028267404 -0.23852047 -0.14741376 0.38593423
0 0.034304172 0.0003450643 -0.23852047 -0.14741376 0.38593423
0 0.033355389 0.00098733138 -0.23852047 -0.14741376 0.38593423
0.0010100503 0.033171419 0 -0.23852047 -0.14741376 0.38593423
0 0.03146778 0.0022652973 -0.23852047 -0.14741376 0.38593423
0 0.03052891 0.0029010251 -0.23852047 -0.14741376 0.38593423
0.0022046957 0.03122942 0 -0.23852047 -0.14741376 0.38593423
0 0.02866094 0.004166041 -0.23852047 -0.14741376 0.38593423
0 0.027731797 0.0047953567 -0.23852047 -0.14741376 0.38593423
0.0033990873 0.029288605 0 -0.23852047 -0.14741376 0.38593423
0 0.025883086 0.006047674 -0.23852047 -0.14741376 0.38593423
0 0.024047008 0.007291663 -0.23852047 -0.14741376 0.38593423
0 0.0222234 0.0085274298 -0.23852047 -0.14741376 0.38593423
0 0.021316223 0.0091422638 -0.23852047 -0.14741376 0.38593423
0 0.020412104 0.0097550815 -0.23852047 -0.14741376 0.38593423
0.006583299 0.024118241 0 -0.23852047 -0.14741376 0.38593423
0.006981276 0.023472413 0 -0.23852047 -0.14741376 0.38593423
0 0.017717902 0.01158157 -0.23852047 -0.14741376 0.38593423
0 0.016825821 0.012186453 -0.23852047 -0.14741376 0.38593423
0 0.015936702 0.012789384 -0.23852047 -0.14741376 0.38593423
0 0.015050529 0.013390374 -0.23852047 -0.14741376 0.38593423
0 0.014167279 0.013989438 -0.23852047 -0.14741376 0.38593423
2.7755576e-17 0.013286936 0.014586587 -0.23852047 -0.14741376 0.38593423
0 0.01240948 0.015181833 -0.23852047 -0.14741376 0.38593423
0 0.011534895 0.015775187 -0.23852047 -0.14741376 0.38593423
0.010563113 0.017663755 5.5511151e-17 -0.23852047 -0.14741376 0.38593423
2.7755576e-17 0.0097942622 0.016956272 -0.23852047 -0.14741376 0.38593423
0.011359175 0.016373727 5.5511151e-17 -0.23852047 -0.14741376 0.38593423
0.011757231 0.015728801 5.5511151e-17 -0.23852047 -0.14741376 0.38593423
0.012155307 0.01508393 5.5511151e-17 -0.23852047 -0.14741376 0.38593423
2.7755576e-17 0.0063466523 0.019296266 -0.23852047 -0.14741376 0.38593423
2.7755576e-17 0.00549166 0.019876711 -0.23852047 -0.14741376 0.38593423
0 0.0046393974 0.02045536 -0.23852047 -0.14741376 0.38593423
0 0.0037898479 0.021032222 -0.23852047 -0.14741376 0.38593423
0 0.0029429945 0.021607308 -0.23852047 -0.14741376 0.38593423
0 0.0020988204 0.02218063 -0.23852047 -0.14741376 0.38593423
0.014942547 0.010571078 5.5511151e-17 -0.23852047 -0.14741376 0.38593423
0.01534085 0.0099265249 0 -0.23852047 -0.14741376 0.38593423
0.015739189 0.0092819976 0 -0.23852047 -0.14741376 0.38593423
0.0020421585 0 0.021361593 -0.23852047 -0.14741376 0.38593423
0.003417724 0 0.019849677 -0.23852047 -0.14741376 0.38593423
0.004804763 0 0.018325202 -0.23852047 -0.14741376 0.38593423
0.017332964 0.0067040743 0 -0.23852047 -0.14741376 0.38593423
0.0076138652 0 0.015237929 -0.23852047 -0.14741376 0.38593423
0.0090362374 0 0.01367479 -0.23852047 -0.14741376 0.38593423
0.010470702 0 0.012098419 -0.23852047 -0.14741376 0.38593423
0.011917419 0 0.010508641 -0.23852047 -0.14741376 0.38593423
0.013376554 0 0.0089052739 -0.23852047 -0.14741376 0.38593423
0.014848272 0 0.0072881351 -0.23852047 -0.14741376 0.38593423
0.016332746 0 0.0056570391 -0.23852047 -0.14741376 0.38593423
0.017830146 0 0.0040117954 -0.23852047 -0.14741376 0.38593423
0.019340653 0 0.0023522114 -0.23852047 -0.14741376 0.38593423
0.020864444 0 0.00067808991 -0.23852047 -0.14741376 0.38593423
0.00021111916 0.032640044 0 -0.23852047 -0.14741376 0.38593423
0 0.031536482 0.00098283554 -0.23852047 -0.14741376 0.38593423
0.0010068001 0.031346828 5.5511151e-17 -0.23852047 -0.14741376 0.38593423
0.0014045915 0.030700425 0 -0.23852047 -0.14741376 0.38593423
0 0.02872319 0.0028943967 -0.23852047 -0.14741376 0.38593423
2.7755576e-17 0.027791923 0.0035272785 -0.23852047 -0.14741376 0.38593423
0.0033931367 0.027470289 0 -0.23852047 -0.14741376 0.38593423
0 0.024098787 0.0060376506 -0.23852047 -0.14741376 0.38593423
0 0.023183383 0.0066600237 -0.23852047 -0.14741376 0.38593423
0 0.022271091 0.0072803353 -0.23852047 -0.14741376 0.38593423
0.0049835984 0.024888253 5.5511151e-17 -0.23852047 -0.14741376 0.38593423
0 0.020455759 0.008514829 -0.23852047 -0.14741376 0.38593423
0 0.019552682 0.0091290362 -0.23852047 -0.14741376 0.38593423
0 0.017755605 0.01035144 -0.23852047 -0.14741376 0.38593423
0 0.016861567 0.010959661 -0.23852047 -0.14741376 0.38593423
2.7755576e-17 0.015082397 0.012170203 -0.23852047 -0.14741376 0.38593423
2.7755576e-17 0.014197228 0.012772551 -0.23852047 -0.14741376 0.38593423
0 0.013314976 0.013372965 -0.23852047 -0.14741376 0.38593423
0.0089591742 0.018439801 0 -0.23852047 -0.14741376 0.38593423
2.7755576e-17 0.011559159 0.014568045 -0.23852047 -0.14741376 0.38593423
2.7755576e-17 0.010685555 0.015162734 -0.23852047 -0.14741376 0.38593423
0 0.009814797 0.01575554 -0.23852047 -0.14741376 0.38593423
2.7755576e-17 0.0080817491 0.016935544 -0.23852047 -0.14741376 0.38593423
0 0.0072194231 0.017522765 -0.23852047 -0.14741376 0.38593423
0 0.0063598729 0.018108152 -0.23852047 -0.14741376 0.38593423
0.012140086 0.01328616 5.5511151e-17 -0.23852047 -0.14741376 0.38593423
0 0.004649031 0.019273454 -0.23852047 -0.14741376 0.38593423
0 0.0037977048 0.019853396 -0.23852047 -0.14741376 0.38593423
0 0.0029490858 0.020431546 -0.23852047 -0.14741376 0.38593423
0 0.0021031576 0.021007914 -0.23852047 -0.14741376 0.38593423
2.7755576e-17 0.0012599035 0.021582514 -0.23852047 -0.14741376 0.38593423
2.7755576e-17 0.00041930686 0.022155354 -0.23852047 -0.14741376 0.38593423
0.00067931681 0 0.021692015 -0.23852047 -0.14741376 0.38593423
0.0020463883 0 0.020184543 -0.23852047 -0.14741376 0.38593423
0.0034248324 0 0.018664584 -0.23852047 -0.14741376 0.38593423
0.016118452 0.0068478119 0 -0.23852047 -0.14741376 0.38593423
0.0062164357 0 0.015586543 -0.23852047 -0.14741376 0.38593423
0.0076299012 2.7755576e-17 0.014028127 -0.23852047 -0.14741376 0.38593423
0.00905535 0 0.012456552 -0.23852047 -0.14741376 0.38593423
0.010492942 0 0.010871642 -0.23852047 -0.14741376 0.38593423
0.011942841 0 0.0092732189 -0.23852047 -0.14741376 0.38593423
0.01340521 0 0.0076611019 -0.23852047 -0.14741376 0.38593423
0.014880219 0 0.0060351053 -0.23852047 -0.14741376 0.38593423
0.016368041 0 0.0043950407 -0.23852047 -0.14741376 0.38593423
0.017868847 0 0.002740717 -0.23852047 -0.14741376 0.38593423
0.019382814 0 0.0010719388 -0.23852047 -0.14741376 0.38593423
0.00020900559 0.030818311 5.5511151e-17 -0.23852047 -0.14741376 0.38593423
0 0.029722353 0.00097869535 -0.23852047 -0.14741376 0.38593423
0.001003772 0.02952721 5.5511151e-17 -0.23852047 -0.14741376 0.38593423
0.0014011094 0.02888185 0 -0.23852047 -0.14741376 0.38593423
0 0.026922137 0.0028881263 -0.23852047 -0.14741376 0.38593423
0.0021957019 0.027591491 0 -0.23852047 -0.14741376 0.38593423
0.0025929613 0.026946487 0 -0.23852047 -0.14741376 0.38593423
0 0.024150787 0.0047783395 -0.23852047 -0.14741376 0.38593423
0.0033874155 0.025656816 0 -0.23852047 -0.14741376 0.38593423
0.0037846146 0.025012139 5.5511151e-17 -0.23852047 -0.14741376 0.38593423
0.0041817976 0.024367567 0 -0.23852047 -0.14741376 0.38593423
0 0.020499598 0.0072693708 -0.23852047 -0.14741376 0.38593423
0 0.019594515 0.0078869946 -0.23852047 -0.14741376 0.38593423
0.0053732698 0.022434436 0 -0.23852047 -0.14741376 0.38593423
0 0.01689746 0.0097277546 -0.23852047 -0.14741376 0.38593423
0 0.015114397 0.010944963 -0.23852047 -0.14741376 0.38593423
0 0.014227299 0.011550617 -0.23852047 -0.14741376 0.38593423
0 0.013343133 0.01215432 -0.23852047 -0.14741376 0.38593423
2.7755576e-17 0.01246188 0.012756084 -0.23852047 -0.14741376 0.38593423
2.7755576e-17 0.011583522 0.013355923 -0.23852047 -0.14741376 0.38593423
0.0089474563 0.016639557 0 -0.23852047 -0.14741376 0.38593423
0 0.0098354165 0.01454987 -0.23852047 -0.14741376 0.38593423
0.0097417748 0.01535256 0 -0.23852047 -0.14741376 0.38593423
2.7755576e-17 0.0080986721 0.01573626 -0.23852047 -0.14741376 0.38593423
2.7755576e-17 0.0072345161 0.016326649 -0.23852047 -0.14741376 0.38593423
0 0.0063731479 0.016915184 -0.23852047 -0.14741376 0.38593423
0 0.0055145491 0.017501876 -0.23852047 -0.14741376 0.38593423
0.011727842 0.012135973 5.5511151e-17 -0.23852047 -0.14741376 0.38593423
0 0.0038055936 0.018669778 -0.23852047 -0.14741376 0.38593423
0.012522418 0.010849632 5.5511151e-17 -0.23852047 -0.14741376 0.38593423
0 0.0021075127 0.019830449 -0.23852047 -0.14741376 0.38593423
2.7755576e-17 0.0012625082 0.0204081 -0.23852047 -0.14741376 0.38593423
0 0.00042017235 0.020983975 -0.23852047 -0.14741376 0.38593423
0.00068072078 0 0.020518184 -0.23852047 -0.14741376 0.38593423
0.0020506352 0 0.019002711 -0.23852047 -0.14741376 0.38593423
0.0034319696 0 0.017474657 -0.23852047 -0.14741376 0.38593423
0.0048248735 0 0.015933855 -0.23852047 -0.14741376 0.38593423
0.0062294998 0 0.014380134 -0.23852047 -0.14741376 0.38593423
0.0076460033 0 0.012813327 -0.23852047 -0.14741376 0.38593423
0.0090745417 0 0.011233259 -0.23852047 -0.14741376 0.38593423
0.010515275 0 0.0096397521 -0.23852047 -0.14741376 0.38593423
0.01196837 0 0.0080326274 -0.23852047 -0.14741376 0.38593423
0.013433988 0 0.0064117 -0.23852047 -0.14741376 0.38593423
0.014912303 0 0.0047767842 -0.23852047 -0.14741376 0.38593423
0.016403485 0 0.0031276899 -0.23852047 -0.14741376 0.38593423
0.017907709 0 0.0014642234 -0.23852047 -0.14741376 0.38593423
0 0.028848488 0.00033480281 -0.23852047 -0.14741376 0.38593423
0.00060404139 0.028356954 0 -0.23852047 -0.14741376 0.38593423
0.0010009537 0.0277125 0 -0.23852047 -0.14741376 0.38593423
0.0013978382 0.027068162 0 -0.23852047 -0.14741376 0.38593423
0 0.025125701 0.002882194 -0.23852047 -0.14741376 0.38593423
0.0021915315 0.025779827 0 -0.23852047 -0.14741376 0.38593423
0 0.023283472 0.0041430695 -0.23852047 -0.14741376 0.38593423
2.7755576e-17 0.022367077 0.0047703511 -0.23852047 -0.14741376 0.38593423
0 0.0214538 0.0053955461 -0.23852047 -0.14741376 0.38593423
0 0.019636525 0.0066397316 -0.23852047 -0.14741376 0.38593423
0 0.018732484 0.0072587486 -0.23852047 -0.14741376 0.38593423
0.00496887 0.021273881 0 -0.23852047 -0.14741376 0.38593423
0.0053655845 0.020630542 0 -0.23852047 -0.14741376 0.38593423
0 0.016038526 0.0091036549 -0.23852047 -0.14741376 0.38593423
2.7755576e-17 0.01514653 0.0097146174 -0.23852047 -0.14741376 0.38593423
2.7755576e-17 0.014257496 0.0103236 -0.23852047 -0.14741376 0.38593423
0 0.013371407 0.010930613 -0.23852047 -0.14741376 0.38593423
2.7755576e-17 0.012488243 0.01153567 -0.23852047 -0.14741376 0.38593423
0 0.011607986 0.012138783 -0.23852047 -0.14741376 0.38593423
0 0.010730619 0.012739965 -0.23852047 -0.14741376 0.38593423
0 0.0098561207 0.013339227 -0.23852047 -0.14741376 0.38593423
0 0.0089844754 0.013936583 -0.23852047 -0.14741376 0.38593423
0 0.0081156651 0.014532044 -0.23852047 -0.14741376 0.38593423
0.0097294673 0.013558534 0 -0.23852047 -0.14741376 0.38593423
0 0.006386477 0.015717326 -0.23852047 -0.14741376 0.38593423
0.010523025 0.012273449 0 -0.23852047 -0.14741376 0.38593423
0 0.0046684155 0.016895171 -0.23852047 -0.14741376 0.38593423
0.01131666 0.010988529 0 -0.23852047 -0.14741376 0.38593423
0.011713512 0.010346121 0 -0.23852047 -0.14741376 0.38593423
0 0.0021118852 0.018648196 -0.23852047 -0.14741376 0.38593423
0 0.0012651235 0.019228918 -0.23852047 -0.14741376 0.38593423
2.7755576e-17 0.00042104136 0.019807851 -0.23852047 -0.14741376 0.38593423
0.00068213046 0 0.019339589 -0.23852047 -0.14741376 0.38593423
0.0020548995 0 0.017816065 -0.23852047 -0.14741376 0.38593423
0.0034391358 0 0.016279861 -0.23852047 -0.14741376 0.38593423
0.0048349909 0 0.014730812 -0.23852047 -0.14741376 0.38593423
0.0062426175 0 0.013168747 -0.23852047 -0.14741376 0.38593423
0.007662172 0 0.011593492 -0.23852047 -0.14741376 0.38593423
0.0090938136 0 0.010004873 -0.23852047 -0.14741376 0.38593423
0.010537703 0 0.0084027117 -0.23852047 -0.14741376 0.38593423
0.011994005 0 0.0067868251 -0.23852047 -0.14741376 0.38593423
