# .PCD v0.7 - Point Cloud Data file format
VERSION 0.7
FIELDS x y z vp_x vp_y vp_z
SIZE 4 4 4 4 4 4
TYPE F F F F F F
COUNT 1 1 1 1 1 1
WIDTH 797
HEIGHT 1
VIEWPOINT 0 0 0 1 0 0 0
POINTS 797
DATA ascii
0.0059857764 0.045767002 0.054818682 0 -0.25019264 0.4048202
0.0066752904 0.045113884 0.055593312 0 -0.25019264 0.4048202
0.0073632095 0.044520419 0.05629763 0 -0.25019264 0.4048202
0.008050276 0.043998104 0.056918051 0 -0.25019264 0.4048202
0.0087349378 0.043477613 0.057536546 0 -0.25019264 0.4048202
0.0094204135 0.043058641 0.058035236 0 -0.25019264 0.4048202
0.010104188 0.042647243 0.058525208 0 -0.25019264 0.4048202
0.010786858 0.042258061 0.058989141 0 -0.25019264 0.4048202
0.011470574 0.04194174 0.059367158 0 -0.25019264 0.4048202
0.012152851 0.041626081 0.059744626 0 -0.25019264 0.4048202
0.012834984 0.041340377 0.060086913 0 -0.25019264 0.4048202
0.013518373 0.041110106 0.060363889 0 -0.25019264 0.4048202
0.01420073 0.040880185 0.060640696 0 -0.25019264 0.4048202
0.014883433 0.040677492 0.060885537 0 -0.25019264 0.4048202
0.015568008 0.040526818 0.061069112 0 -0.25019264 0.4048202
0.016251925 0.040376294 0.061252758 0 -0.25019264 0.4048202
0.016936293 0.040244799 0.061414137 0 -0.25019264 0.4048202
0.017623534 0.040170036 0.061508682 0 -0.25019264 0.4048202
0.018310482 0.040095303 0.061603434 0 -0.25019264 0.4048202
0.018997708 0.040029299 0.06168811 0 -0.25019264 0.4048202
0.019689161 0.040029299 0.061694995 0 -0.25019264 0.4048202
0.020380683 0.040029299 0.061702125 0 -0.25019264 0.4048202
0.021072274 0.040029299 0.061709501 0 -0.25019264 0.4048202
0.02176954 0.040104009 0.0616288 0 -0.25019264 0.4048202
0.022467328 0.040179919 0.061546929 0 -0.25019264 0.4048202
0.023165561 0.040255882 0.061465252 0 -0.25019264 0.4048202
0.023870092 0.04040315 0.061299533 0 -0.25019264 0.4048202
0.024576092 0.040558536 0.061124474 0 -0.25019264 0.4048202
0.025282934 0.040714107 0.060949448 0 -0.25019264 0.4048202
0.025997508 0.040946979 0.06068331 0 -0.25019264 0.4048202
0.026714068 0.04118843 0.0604073 0 -0.25019264 0.4048202
0.027432272 0.041434135 0.060126517 0 -0.25019264 0.4048202
0.02816054 0.041771073 0.059738174 0 -0.25019264 0.4048202
0.028890597 0.042108834 0.059349127 0 -0.25019264 0.4048202
0.029626256 0.042485066 0.058914889 0 -0.25019264 0.4048202
0.030371277 0.042933322 0.058395803 0 -0.25019264 0.4048202
0.031118693 0.043383021 0.057875294 0 -0.25019264 0.4048202
0.031880599 0.043945581 0.057221703 0 -0.25019264 0.4048202
0.032647569 0.044528637 0.056544181 0 -0.25019264 0.4048202
0.033428848 0.045212545 0.055747785 0 -0.25019264 0.4048202
0.034221206 0.045963075 0.054872971 0 -0.25019264 0.4048202
0.03503342 0.046850536 0.053836677 0 -0.25019264 0.4048202
0.035860345 0.047824033 0.052699059 0 -0.25019264 0.4048202
0.03672725 0.049084377 0.051222865 0 -0.25019264 0.4048202
0.037635975 0.050629854 0.049410168 0 -0.25019264 0.4048202
0.038633332 0.052811466 0.046846319 0 -0.25019264 0.4048202
0.00036540502 0.056323886 0.041180648 0 -0.25019264 0.4048202
0.0010861726 0.053515531 0.044512626 0 -0.25019264 0.4048202
0.0017996184 0.051724862 0.046637516 0 -0.25019264 0.4048202
0.0025080689 0.050358105 0.048259739 0 -0.25019264 0.4048202
0.0032119702 0.049174003 0.049665514 0 -0.25019264 0.4048202
0.0039122202 0.048141215 0.050892022 0 -0.25019264 0.4048202
0.0046100668 0.047270268 0.051926766 0 -0.25019264 0.4048202
0.0053047258 0.046452455 0.05289872 0 -0.25019264 0.4048202
0.0059979521 0.045755472 0.053727567 0 -0.25019264 0.4048202
0.0066888388 0.04510105 0.054506164 0 -0.25019264 0.4048202
0.0073781898 0.044509031 0.055210967 0 -0.25019264 0.4048202
0.0080666253 0.043985676 0.055834554 0 -0.25019264 0.4048202
0.0087526469 0.043464154 0.056456201 0 -0.25019264 0.4048202
0.0094395746 0.043047111 0.056954138 0 -0.25019264 0.4048202
0.010124711 0.042634893 0.057446595 0 -0.25019264 0.4048202
0.010808849 0.042247888 0.057909377 0 -0.25019264 0.4048202
0.011493933 0.041930929 0.058289301 0 -0.25019264 0.4048202
0.012177573 0.041614644 0.058668669 0 -0.25019264 0.4048202
0.01286121 0.041331541 0.059008908 0 -0.25019264 0.4048202
0.013545974 0.041100807 0.059287261 0 -0.25019264 0.4048202
0.014229703 0.040870421 0.059565444 0 -0.25019264 0.4048202
0.014913956 0.040670775 0.059807397 0 -0.25019264 0.4048202
0.015599919 0.040519796 0.059991863 0 -0.25019264 0.4048202
0.016285224 0.040368963 0.060176391 0 -0.25019264 0.4048202
0.016971201 0.040241003 0.060334034 0 -0.25019264 0.4048202
0.01765985 0.040166084 0.060429003 0 -0.25019264 0.4048202
0.018348206 0.040091198 0.060524177 0 -0.25019264 0.4048202
0.019037118 0.040029299 0.060604185 0 -0.25019264 0.4048202
0.019730009 0.040029299 0.060611024 0 -0.25019264 0.4048202
0.020422967 0.040029299 0.060618106 0 -0.25019264 0.4048202
0.02111626 0.040032938 0.06062112 0 -0.25019264 0.4048202
0.021815084 0.040108964 0.06053853 0 -0.25019264 0.4048202
0.022514347 0.040185034 0.060456134 0 -0.25019264 0.4048202
0.023214057 0.040261157 0.060373932 0 -0.25019264 0.4048202
0.023920545 0.040414251 0.060200695 0 -0.25019264 0.4048202
0.024628069 0.040569976 0.0600246 0 -0.25019264 0.4048202
0.025336439 0.040725883 0.05984854 0 -0.25019264 0.4048202
0.026053153 0.040965728 0.059573203 0 -0.25019264 0.4048202
0.026771298 0.041207712 0.059295595 0 -0.25019264 0.4048202
0.027491821 0.041461688 0.059004031 0 -0.25019264 0.4048202
0.028221747 0.041799389 0.058613457 0 -0.25019264 0.4048202
0.028953467 0.042137921 0.058222167 0 -0.25019264 0.4048202
0.029691778 0.042524487 0.057774205 0 -0.25019264 0.4048202
0.030438554 0.042973801 0.05725212 0 -0.25019264 0.4048202
0.031187739 0.043424565 0.056728601 0 -0.25019264 0.4048202
0.031952776 0.044000454 0.056057032 0 -0.25019264 0.4048202
0.032721639 0.044584945 0.055375557 0 -0.25019264 0.4048202
0.033506654 0.045286246 0.054555912 0 -0.25019264 0.4048202
0.034301069 0.046038721 0.053675912 0 -0.25019264 0.4048202
0.03511798 0.046950087 0.052607886 0 -0.25019264 0.4048202
0.035948299 0.047935437 0.051452499 0 -0.25019264 0.4048202
0.036820494 0.049221914 0.049940541 0 -0.25019264 0.4048202
0.037738431 0.050823096 0.048055954 0 -0.25019264 0.4048202
0.038751546 0.053108159 0.045361269 0 -0.25019264 0.4048202
0.00036615823 0.056319293 0.040037747 0 -0.25019264 0.4048202
0.0010884078 0.053509921 0.043381456 0 -0.25019264 0.4048202
0.0018032998 0.051715624 0.04551737 0 -0.25019264 0.4048202
0.0025131956 0.050348435 0.047145218 0 -0.25019264 0.4048202
0.0032185353 0.049164321 0.048555437 0 -0.25019264 0.4048202
0.0039201891 0.048129462 0.04978827 0 -0.25019264 0.4048202
0.0046194675 0.0472592 0.050825454 0 -0.25019264 0.4048202
0.0053155134 0.046439756 0.051802404 0 -0.25019264 0.4048202
0.0060101715 0.045743898 0.052632511 0 -0.25019264 0.4048202
0.0067024357 0.045088168 0.053415097 0 -0.25019264 0.4048202
0.0073932242 0.044497602 0.054120373 0 -0.25019264 0.4048202
0.0080830334 0.0439732 0.054747146 0 -0.25019264 0.4048202
0.0087704193 0.043450642 0.055371962 0 -0.25019264 0.4048202
0.0094588036 0.043035544 0.055869132 0 -0.25019264 0.4048202
0.010145308 0.042622503 0.056364089 0 -0.25019264 0.4048202
0.010830918 0.042237677 0.056825701 0 -0.25019264 0.4048202
0.011517377 0.041920085 0.057207543 0 -0.25019264 0.4048202
0.012202385 0.041603163 0.057588823 0 -0.25019264 0.4048202
0.01288753 0.041322671 0.057926983 0 -0.25019264 0.4048202
0.013573676 0.041091472 0.058206726 0 -0.25019264 0.4048202
0.01425878 0.040860623 0.05848629 0 -0.25019264 0.4048202
0.01494459 0.040664032 0.058725324 0 -0.25019264 0.4048202
0.015631946 0.040512748 0.058910683 0 -0.25019264 0.4048202
0.016318642 0.040361609 0.059096105 0 -0.25019264 0.4048202
0.017006235 0.040237192 0.059249975 0 -0.25019264 0.4048202
0.017696301 0.04016212 0.059345365 0 -0.25019264 0.4048202
0.018386068 0.040087081 0.059440956 0 -0.25019264 0.4048202
0.019076675 0.040029299 0.059516255 0 -0.25019264 0.4048202
0.019771008 0.040029299 0.05952305 0 -0.25019264 0.4048202
0.020465408 0.040029299 0.059530087 0 -0.25019264 0.4048202
0.021160496 0.040037751 0.059527308 0 -0.25019264 0.4048202
0.021860797 0.040113937 0.059444197 0 -0.25019264 0.4048202
0.022561543 0.040190171 0.059361272 0 -0.25019264 0.4048202
0.023262979 0.040269528 0.059274878 0 -0.25019264 0.4048202
0.023971189 0.040425401 0.059097711 0 -0.25019264 0.4048202
0.024680244 0.040581457 0.058920573 0 -0.25019264 0.4048202
0.025390562 0.040742468 0.058737807 0 -0.25019264 0.4048202
0.026109008 0.040984552 0.058458846 0 -0.25019264 0.4048202
0.026828745 0.041227069 0.058179632 0 -0.25019264 0.4048202
0.027551603 0.041489344 0.057877179 0 -0.25019264 0.4048202
0.028283192 0.041827817 0.057484359 0 -0.25019264 0.4048202
0.029016582 0.042167123 0.057090815 0 -0.25019264 0.4048202
0.029757559 0.042564064 0.056628991 0 -0.25019264 0.4048202
0.030506099 0.043014441 0.056103889 0 -0.25019264 0.4048202
0.03125767 0.043472029 0.055570494 0 -0.25019264 0.4048202
0.032025252 0.044055548 0.054887615 0 -0.25019264 0.4048202
0.03279601 0.044641484 0.054202158 0 -0.25019264 0.4048202
0.033584788 0.045360252 0.053359032 0 -0.25019264 0.4048202
0.034381267 0.046114683 0.052473806 0 -0.25019264 0.4048202
0.035202913 0.047050074 0.051373716 0 -0.25019264 0.4048202
0.036039356 0.048069742 0.050173745 0 -0.25019264 0.4048202
0.03691417 0.049360085 0.048652284 0 -0.25019264 0.4048202
0.037841398 0.051017307 0.046694979 0 -0.25019264 0.4048202
0.038870435 0.053406533 0.043867785 0 -0.25019264 0.4048202
0.00036580188 0.055385474 0.039999999 0 -0.25019264 0.4048202
0.0010906511 0.053504292 0.042246137 0 -0.25019264 0.4048202
0.0018069946 0.051706348 0.044393145 0 -0.25019264 0.4048202
0.0025183409 0.05033873 0.046026643 0 -0.25019264 0.4048202
0.0032251242 0.049154602 0.047441326 0 -0.25019264 0.4048202
0.0039281868 0.048117664 0.048680522 0 -0.25019264 0.4048202
0.0046289018 0.047248095 0.049720146 0 -0.25019264 0.4048202
0.0053263395 0.046427008 0.050702121 0 -0.25019264 0.4048202
0.0060224351 0.045732278 0.051533483 0 -0.25019264 0.4048202
0.0067160819 0.045075245 0.052320082 0 -0.25019264 0.4048202
0.007408313 0.044486132 0.053025827 0 -0.25019264 0.4048202
0.008099501 0.043960683 0.053655807 0 -0.25019264 0.4048202
0.0087883119 0.043438949 0.054281577 0 -0.25019264 0.4048202
0.0094781034 0.043023933 0.054780193 0 -0.25019264 0.4048202
0.01016598 0.042610064 0.055277664 0 -0.25019264 0.4048202
0.010853069 0.042227428 0.055738088 0 -0.25019264 0.4048202
0.011540906 0.041909199 0.056121856 0 -0.25019264 0.4048202
0.012227288 0.041591641 0.056505058 0 -0.25019264 0.4048202
0.012913947 0.041313771 0.056841116 0 -0.25019264 0.4048202
0.013601478 0.041082103 0.057122257 0 -0.25019264 0.4048202
0.014287964 0.040850788 0.057403211 0 -0.25019264 0.4048202
0.014975335 0.040657263 0.05763929 0 -0.25019264 0.4048202
0.015664091 0.040505674 0.05782555 0 -0.25019264 0.4048202
0.016352182 0.040354226 0.058011871 0 -0.25019264 0.4048202
0.0170414 0.040233366 0.058161922 0 -0.25019264 0.4048202
0.017732883 0.040158138 0.058257736 0 -0.25019264 0.4048202
0.01842407 0.040082946 0.058353756 0 -0.25019264 0.4048202
0.019116377 0.040029299 0.058424294 0 -0.25019264 0.4048202
0.019812157 0.040029299 0.05843104 0 -0.25019264 0.4048202
0.020508006 0.040029299 0.058438029 0 -0.25019264 0.4048202
0.021204896 0.040042583 0.058429405 0 -0.25019264 0.4048202
0.021906681 0.040118929 0.058345761 0 -0.25019264 0.4048202
0.022608913 0.040195324 0.058262307 0 -0.25019264 0.4048202
0.023312284 0.040280379 0.058168765 0 -0.25019264 0.4048202
0.024022024 0.040436588 0.057990551 0 -0.25019264 0.4048202
0.024732614 0.040592987 0.057812367 0 -0.25019264 0.4048202
0.02544504 0.040760823 0.057620782 0 -0.25019264 0.4048202
0.026165079 0.041003443 0.057340212 0 -0.25019264 0.4048202
0.026886415 0.041246504 0.057059381 0 -0.25019264 0.4048202
0.027611617 0.041517112 0.056745932 0 -0.25019264 0.4048202
0.028344877 0.041856356 0.05635085 0 -0.25019264 0.4048202
0.029079946 0.042196438 0.055955037 0 -0.25019264 0.4048202
0.029823603 0.042603802 0.055479214 0 -0.25019264 0.4048202
0.030573914 0.043055244 0.054951079 0 -0.25019264 0.4048202
0.031328551 0.043525912 0.054400284 0 -0.25019264 0.4048202
0.032098025 0.044110868 0.053713419 0 -0.25019264 0.4048202
0.032870691 0.044698257 0.053023949 0 -0.25019264 0.4048202
0.033663251 0.045434576 0.052157104 0 -0.25019264 0.4048202
0.034461804 0.04619097 0.051266618 0 -0.25019264 0.4048202
0.035288218 0.0471505 0.05013413 0 -0.25019264 0.4048202
0.036130831 0.048204668 0.048889086 0 -0.25019264 0.4048202
0.037008282 0.049498897 0.047358043 0 -0.25019264 0.4048202
0.037944883 0.051212493 0.045327175 0 -0.25019264 0.4048202
0.038999613 0.053781535 0.042276435 0 -0.25019264 0.4048202
0.039982036 0.055701748 0.039999999 0 -0.25019264 0.4048202
0.00036540866 0.054422449 0.039999999 0 -0.25019264 0.4048202
0.0010929027 0.053498641 0.041106641 0 -0.25019264 0.4048202
0.001810703 0.051697042 0.04326481 0 -0.25019264 0.4048202
0.0025235051 0.050328989 0.044903986 0 -0.25019264 0.4048202
0.0032317373 0.049144849 0.046323143 0 -0.25019264 0.4048202
0.0039362134 0.048105825 0.047568742 0 -0.25019264 0.4048202
0.0046383711 0.047236945 0.04861081 0 -0.25019264 0.4048202
0.0053372052 0.046414215 0.049597844 0 -0.25019264 0.4048202
0.0060347435 0.045720622 0.050430458 0 -0.25019264 0.4048202
0.0067297779 0.04506227 0.051221095 0 -0.25019264 0.4048202
0.0074234568 0.04447462 0.051927298 0 -0.25019264 0.4048202
0.0081160283 0.043948118 0.052560501 0 -0.25019264 0.4048202
0.0088062966 0.04342813 0.053186137 0 -0.25019264 0.4048202
0.009497473 0.043012276 0.053687293 0 -0.25019264 0.4048202
0.010186727 0.042597581 0.054187294 0 -0.25019264 0.4048202
0.0108753 0.042217143 0.054646507 0 -0.25019264 0.4048202
0.01156452 0.041898273 0.05503222 0 -0.25019264 0.4048202
0.01225228 0.041580081 0.055417351 0 -0.25019264 0.4048202
0.012940461 0.041304838 0.055751283 0 -0.25019264 0.4048202
0.013629382 0.0410727 0.056033827 0 -0.25019264 0.4048202
0.014317254 0.04084092 0.056316178 0 -0.25019264 0.4048202
0.015006194 0.040650472 0.05654927 0 -0.25019264 0.4048202
0.015696354 0.040498573 0.056736436 0 -0.25019264 0.4048202
0.016385846 0.040346816 0.056923658 0 -0.25019264 0.4048202
0.017076693 0.040229525 0.057069853 0 -0.25019264 0.4048202
0.017769601 0.040154144 0.057166096 0 -0.25019264 0.4048202
0.018462211 0.040078796 0.05726254 0 -0.25019264 0.4048202
0.019156229 0.040029299 0.057328269 0 -0.25019264 0.4048202
0.019853462 0.040029299 0.057334971 0 -0.25019264 0.4048202
0.020550763 0.040029299 0.057341911 0 -0.25019264 0.4048202
0.021249464 0.04004743 0.057327382 0 -0.25019264 0.4048202
0.021952739 0.04012394 0.057243206 0 -0.25019264 0.4048202
0.022656461 0.040200494 0.057159215 0 -0.25019264 0.4048202
0.023361774 0.040291272 0.05705845 0 -0.25019264 0.4048202
0.024073053 0.04044782 0.056879185 0 -0.25019264 0.4048202
0.024785185 0.040604554 0.056699947 0 -0.25019264 0.4048202
0.025499729 0.040779252 0.056499459 0 -0.25019264 0.4048202
0.026221367 0.041022412 0.056217268 0 -0.25019264 0.4048202
0.026944306 0.041266009 0.055934809 0 -0.25019264 0.4048202
0.027671868 0.041544985 0.055610258 0 -0.25019264 0.4048202
0.028406803 0.041885007 0.0552129 0 -0.25019264 0.4048202
0.029143557 0.042225868 0.054814801 0 -0.25019264 0.4048202
0.02988991 0.0426437 0.054324843 0 -0.25019264 0.4048202
0.030642001 0.043096211 0.05379365 0 -0.25019264 0.4048202
0.031399723 0.043580014 0.053225279 0 -0.25019264 0.4048202
0.032171093 0.04416642 0.052534401 0 -0.25019264 0.4048202
0.032945674 0.044755261 0.051840894 0 -0.25019264 0.4048202
0.033742048 0.045509212 0.050950091 0 -0.25019264 0.4048202
0.034543391 0.046273652 0.050047036 0 -0.25019264 0.4048202
0.0353739 0.04725137 0.048889078 0 -0.25019264 0.4048202
0.03622273 0.04834022 0.04759847 0 -0.25019264 0.4048202
0.03710283 0.049638357 0.046057772 0 -0.25019264 0.4048202
0.038048886 0.05140866 0.043952495 0 -0.25019264 0.4048202
0.039151348 0.054328073 0.040472746 0 -0.25019264 0.4048202
0.039938886 0.054734584 0.039999999 0 -0.25019264 0.4048202
0.00036501646 0.053461917 0.039999999 0 -0.25019264 0.4048202
0.0010950514 0.053462122 0.039999999 0 -0.25019264 0.4048202
0.0018144249 0.051687699 0.04213234 0 -0.25019264 0.4048202
0.0025286884 0.050319213 0.043777216 0 -0.25019264 0.4048202
0.0032383746 0.049135059 0.045200869 0 -0.25019264 0.4048202
0.0039442698 0.048093945 0.04645291 0 -0.25019264 0.4048202
0.0046478747 0.047225758 0.047497425 0 -0.25019264 0.4048202
0.0053481106 0.046401378 0.048489545 0 -0.25019264 0.4048202
0.006047097 0.045708921 0.049323406 0 -0.25019264 0.4048202
0.0067435233 0.04504925 0.050118107 0 -0.25019264 0.4048202
0.0074386559 0.044463065 0.050824761 0 -0.25019264 0.4048202
0.0081326161 0.043935508 0.051461209 0 -0.25019264 0.4048202
0.0088243475 0.043417268 0.052086689 0 -0.25019264 0.4048202
0.0095169134 0.043000579 0.052590404 0 -0.25019264 0.4048202
0.010207549 0.042585053 0.053092957 0 -0.25019264 0.4048202
0.010897611 0.04220682 0.053550933 0 -0.25019264 0.4048202
0.011588221 0.041887309 0.053938597 0 -0.25019264 0.4048202
0.012277364 0.041568473 0.054325677 0 -0.25019264 0.4048202
0.012967071 0.041295871 0.054657452 0 -0.25019264 0.4048202
0.013657387 0.041063264 0.054941408 0 -0.25019264 0.4048202
0.01434665 0.040831015 0.055225167 0 -0.25019264 0.4048202
0.015037166 0.040643655 0.055455234 0 -0.25019264 0.4048202
0.015728734 0.040491443 0.055643309 0 -0.25019264 0.4048202
0.016419634 0.040339381 0.055831444 0 -0.25019264 0.4048202
0.017112117 0.040225673 0.055973738 0 -0.25019264 0.4048202
0.017806455 0.040150136 0.056070413 0 -0.25019264 0.4048202
0.018500494 0.040074632 0.056167286 0 -0.25019264 0.4048202
0.019196227 0.040029299 0.056228153 0 -0.25019264 0.4048202
0.019894918 0.040029299 0.056234811 0 -0.25019264 0.4048202
0.020593679 0.040029299 0.056241702 0 -0.25019264 0.4048202
0.021294197 0.040052295 0.056221213 0 -0.25019264 0.4048202
0.02199897 0.040128969 0.056136496 0 -0.25019264 0.4048202
0.02270419 0.040205687 0.05605197 0 -0.25019264 0.4048202
0.023411455 0.040302206 0.055943906 0 -0.25019264 0.4048202
0.024124278 0.040459093 0.055763584 0 -0.25019264 0.4048202
0.024837956 0.04061617 0.055583283 0 -0.25019264 0.4048202
0.025554629 0.040797751 0.05537381 0 -0.25019264 0.4048202
0.026277872 0.041041449 0.055089984 0 -0.25019264 0.4048202
0.027002422 0.041285593 0.054805886 0 -0.25019264 0.4048202
0.027732354 0.041572969 0.054470126 0 -0.25019264 0.4048202
0.028468972 0.04191377 0.054070476 0 -0.25019264 0.4048202
0.02920742 0.042255413 0.053670075 0 -0.25019264 0.4048202
0.029956484 0.042683754 0.053165846 0 -0.25019264 0.4048202
0.03071036 0.043137342 0.052631576 0 -0.25019264 0.4048202
0.031471185 0.04363434 0.052045453 0 -0.25019264 0.4048202
0.032244466 0.044222195 0.051350534 0 -0.25019264 0.4048202
0.033022687 0.044827826 0.050634559 0 -0.25019264 0.4048202
0.033821177 0.045584165 0.049737953 0 -0.25019264 0.4048202
0.034627143 0.046372253 0.048803531 0 -0.25019264 0.4048202
0.035459962 0.047352683 0.047638528 0 -0.25019264 0.4048202
0.036315057 0.048476398 0.046301849 0 -0.25019264 0.4048202
0.037201863 0.049811058 0.044712305 0 -0.25019264 0.4048202
0.038153637 0.051607564 0.042568769 0 -0.25019264 0.4048202
0.039159909 0.053758692 0.039999999 0 -0.25019264 0.4048202
0.039895847 0.053769931 0.039999999 0 -0.25019264 0.4048202
0.00036462527 0.052503865 0.039999999 0 -0.25019264 0.4048202
0.0010938778 0.05250407 0.039999999 0 -0.25019264 0.4048202
0.0018181604 0.051678322 0.040995706 0 -0.25019264 0.4048202
0.0025338905 0.050309401 0.042646304 0 -0.25019264 0.4048202
0.0032450364 0.049125236 0.044074472 0 -0.25019264 0.4048202
0.0039523551 0.04808202 0.045332994 0 -0.25019264 0.4048202
0.0046574129 0.04721453 0.046379961 0 -0.25019264 0.4048202
0.0053590555 0.046388492 0.047377199 0 -0.25019264 0.4048202
0.0060594957 0.045697175 0.048212305 0 -0.25019264 0.4048202
0.0067573194 0.045036182 0.049011096 0 -0.25019264 0.4048202
0.0074539105 0.044451468 0.049718186 0 -0.25019264 0.4048202
0.0081492644 0.043922853 0.050357897 0 -0.25019264 0.4048202
0.0088424645 0.043406367 0.050983213 0 -0.25019264 0.4048202
0.0095364256 0.04298884 0.051489502 0 -0.25019264 0.4048202
0.010228448 0.04257248 0.051994614 0 -0.25019264 0.4048202
0.010920005 0.04219646 0.052451339 0 -0.25019264 0.4048202
0.011612009 0.041876301 0.052840967 0 -0.25019264 0.4048202
0.012302539 0.041556828 0.053230006 0 -0.25019264 0.4048202
0.01299378 0.041286871 0.053559594 0 -0.25019264 0.4048202
0.013685497 0.041053794 0.053844973 0 -0.25019264 0.4048202
0.014376155 0.040821072 0.054130152 0 -0.25019264 0.4048202
0.015068253 0.040636815 0.054357156 0 -0.25019264 0.4048202
0.015761236 0.040484291 0.054546151 0 -0.25019264 0.4048202
0.016453546 0.040331919 0.054735199 0 -0.25019264 0.4048202
0.017147673 0.040221803 0.054873552 0 -0.25019264 0.4048202
0.017843446 0.040146112 0.054970663 0 -0.25019264 0.4048202
0.018538918 0.040070452 0.055067964 0 -0.25019264 0.4048202
0.019236377 0.040029299 0.055123921 0 -0.25019264 0.4048202
0.019936532 0.040029299 0.05513053 0 -0.25019264 0.4048202
0.020636756 0.040029299 0.055137377 0 -0.25019264 0.4048202
0.021339102 0.040057182 0.055110861 0 -0.25019264 0.4048202
0.022045374 0.040134016 0.055025607 0 -0.25019264 0.4048202
0.022752099 0.040210899 0.054940533 0 -0.25019264 0.4048202
0.023461323 0.040313181 0.054825105 0 -0.25019264 0.4048202
0.024175696 0.04047041 0.05464372 0 -0.25019264 0.4048202
0.024890928 0.04062783 0.054462351 0 -0.25019264 0.4048202
0.025609741 0.040816318 0.054243799 0 -0.25019264 0.4048202
0.026334597 0.041060563 0.05395833 0 -0.25019264 0.4048202
0.027060764 0.041305251 0.053672582 0 -0.25019264 0.4048202
0.027793078 0.041601066 0.0533255 0 -0.25019264 0.4048202
0.028531387 0.041942645 0.052923545 0 -0.25019264 0.4048202
0.029271534 0.042285077 0.05252083 0 -0.25019264 0.4048202
0.030023325 0.042723969 0.052002188 0 -0.25019264 0.4048202
0.030778997 0.043178637 0.051464815 0 -0.25019264 0.4048202
0.031542942 0.04368889 0.050860766 0 -0.25019264 0.4048202
0.032318138 0.044278201 0.050161779 0 -0.25019264 0.4048202
0.033100069 0.044901125 0.049422596 0 -0.25019264 0.4048202
0.033900645 0.045659434 0.048520654 0 -0.25019264 0.4048202
0.034711268 0.046471287 0.04755453 0 -0.25019264 0.4048202
0.035546403 0.047454447 0.046382427 0 -0.25019264 0.4048202
0.036407813 0.048613217 0.044999175 0 -0.25019264 0.4048202
0.037303682 0.0500031 0.043337964 0 -0.25019264 0.4048202
0.038270865 0.051901776 0.041064478 0 -0.25019264 0.4048202
0.039117783 0.052796692 0.039999999 0 -0.25019264 0.4048202
0.039852925 0.052807778 0.039999999 0 -0.25019264 0.4048202
0.00036423508 0.05154828 0.039999999 0 -0.25019264 0.4048202
0.0010927073 0.051548481 0.039999999 0 -0.25019264 0.4048202
0.0018211855 0.051548883 0.039999999 0 -0.25019264 0.4048202
0.0025391118 0.050299555 0.041511226 0 -0.25019264 0.4048202
0.0032517225 0.049115375 0.042943921 0 -0.25019264 0.4048202
0.0039604707 0.048070051 0.044208962 0 -0.25019264 0.4048202
0.0046669864 0.047203258 0.045258388 0 -0.25019264 0.4048202
0.0053700409 0.046375558 0.046260778 0 -0.25019264 0.4048202
0.0060719396 0.045685388 0.047097124 0 -0.25019264 0.4048202
0.0067711654 0.045023069 0.047900025 0 -0.25019264 0.4048202
0.0074692215 0.04443983 0.048607547 0 -0.25019264 0.4048202
0.0081659742 0.043910149 0.049250543 0 -0.25019264 0.4048202
0.0088606486 0.04339543 0.04987568 0 -0.25019264 0.4048202
0.0095560085 0.042977057 0.050384559 0 -0.25019264 0.4048202
0.010249423 0.042559858 0.050892249 0 -0.25019264 0.4048202
0.010942481 0.042186063 0.051347695 0 -0.25019264 0.4048202
0.011635885 0.041865256 0.051739305 0 -0.25019264 0.4048202
0.012327807 0.041545138 0.052130312 0 -0.25019264 0.4048202
0.013020587 0.041277837 0.052457687 0 -0.25019264 0.4048202
0.013713709 0.041044287 0.052744497 0 -0.25019264 0.4048202
0.014405769 0.040811095 0.053031098 0 -0.25019264 0.4048202
0.015099455 0.040629946 0.05325501 0 -0.25019264 0.4048202
0.015793856 0.040477112 0.053444929 0 -0.25019264 0.4048202
0.016487584 0.040324427 0.053634893 0 -0.25019264 0.4048202
0.017183363 0.040217921 0.053769264 0 -0.25019264 0.4048202
0.017880576 0.040142071 0.053866811 0 -0.25019264 0.4048202
0.018577486 0.040066257 0.053964548 0 -0.25019264 0.4048202
0.019276677 0.040029299 0.054015547 0 -0.25019264 0.4048202
0.0199783 0.040029299 0.054022107 0 -0.25019264 0.4048202
0.020679994 0.040029299 0.054028902 0 -0.25019264 0.4048202
0.021384176 0.040062085 0.053996306 0 -0.25019264 0.4048202
0.022091955 0.040139083 0.053910505 0 -0.25019264 0.4048202
0.022800189 0.040216133 0.053824887 0 -0.25019264 0.4048202
0.023511384 0.0403242 0.053702019 0 -0.25019264 0.4048202
0.024227312 0.040481772 0.053519562 0 -0.25019264 0.4048202
0.024944104 0.040639535 0.053337116 0 -0.25019264 0.4048202
0.025665067 0.040834963 0.053109396 0 -0.25019264 0.4048202
0.02639154 0.041079752 0.052822277 0 -0.25019264 0.4048202
0.027119331 0.041324984 0.052534867 0 -0.25019264 0.4048202
0.027854042 0.04162927 0.052176353 0 -0.25019264 0.4048202
0.028594051 0.041971635 0.051772077 0 -0.25019264 0.4048202
0.029335903 0.042314857 0.05136703 0 -0.25019264 0.4048202
0.030090434 0.042764347 0.050833832 0 -0.25019264 0.4048202
0.030847909 0.043220099 0.050293341 0 -0.25019264 0.4048202
0.031614993 0.043743666 0.049671181 0 -0.25019264 0.4048202
0.032392118 0.044334441 0.048968095 0 -0.25019264 0.4048202
0.033177786 0.044974737 0.048205465 0 -0.25019264 0.4048202
0.033980452 0.045735028 0.047298152 0 -0.25019264 0.4048202
0.034795765 0.046570763 0.046299998 0 -0.25019264 0.4048202
0.035633229 0.047556661 0.045120742 0 -0.25019264 0.4048202
0.036501005 0.048750672 0.043690398 0 -0.25019264 0.4048202
0.037406012 0.050196111 0.041956682 0 -0.25019264 0.4048202
0.038341634 0.05182644 0.039999999 0 -0.25019264 0.4048202
0.039075766 0.051837172 0.039999999 0 -0.25019264 0.4048202
0.03981011 0.05184811 0.039999999 0 -0.25019264 0.4048202
0.0003638459 0.050595146 0.039999999 0 -0.25019264 0.4048202
0.0010915396 0.050595347 0.039999999 0 -0.25019264 0.4048202
0.0018192395 0.050595742 0.039999999 0 -0.25019264 0.4048202
0.0025443526 0.050289668 0.040371951 0 -0.25019264 0.4048202
0.0032584334 0.049105477 0.04180919 0 -0.25019264 0.4048202
0.0039686156 0.048058037 0.043080796 0 -0.25019264 0.4048202
0.0046765949 0.047191948 0.04413268 0 -0.25019264 0.4048202
0.0053810664 0.046362579 0.045140252 0 -0.25019264 0.4048202
0.0060844296 0.045673557 0.045977835 0 -0.25019264 0.4048202
0.0067850626 0.045009904 0.046784874 0 -0.25019264 0.4048202
0.0074845888 0.044428147 0.047492817 0 -0.25019264 0.4048202
0.0081827445 0.043897398 0.048139118 0 -0.25019264 0.4048202
0.0088788997 0.043384448 0.048764061 0 -0.25019264 0.4048202
0.0095756641 0.042965233 0.049275544 0 -0.25019264 0.4048202
0.010270474 0.042547192 0.049785826 0 -0.25019264 0.4048202
0.010965041 0.042175625 0.050239976 0 -0.25019264 0.4048202
0.011659848 0.041854169 0.050633576 0 -0.25019264 0.4048202
0.012353169 0.041533403 0.051026564 0 -0.25019264 0.4048202
0.013047493 0.041268773 0.0513517 0 -0.25019264 0.4048202
0.013742026 0.041034747 0.051639948 0 -0.25019264 0.4048202
0.014435492 0.040801078 0.051927984 0 -0.25019264 0.4048202
0.015130773 0.040623054 0.052148767 0 -0.25019264 0.4048202
0.0158266 0.040469907 0.052339613 0 -0.25019264 0.4048202
0.016521748 0.040316906 0.052530505 0 -0.25019264 0.4048202
0.017219186 0.040214024 0.052660849 0 -0.25019264 0.4048202
0.017917844 0.040138017 0.052758835 0 -0.25019264 0.4048202
0.018616199 0.040062044 0.052857008 0 -0.25019264 0.4048202
0.019317128 0.040029299 0.052902997 0 -0.25019264 0.4048202
0.020020226 0.040029299 0.052909508 0 -0.25019264 0.4048202
0.020723395 0.040029299 0.052916255 0 -0.25019264 0.4048202
0.021429421 0.040067006 0.052877512 0 -0.25019264 0.4048202
0.022138713 0.040144172 0.052791167 0 -0.25019264 0.4048202
0.022848461 0.040221382 0.052704997 0 -0.25019264 0.4048202
0.023561638 0.04033526 0.052574616 0 -0.25019264 0.4048202
0.024279127 0.040493175 0.052391078 0 -0.25019264 0.4048202
0.024997484 0.04065128 0.052207552 0 -0.25019264 0.4048202
0.025720609 0.040853679 0.051970575 0 -0.25019264 0.4048202
0.026448706 0.041099016 0.051681787 0 -0.25019264 0.4048202
0.027178129 0.041344795 0.051392708 0 -0.25019264 0.4048202
0.027915249 0.041657586 0.051022649 0 -0.25019264 0.4048202
0.028656961 0.042000744 0.050616037 0 -0.25019264 0.4048202
0.029401008 0.04234954 0.050202843 0 -0.25019264 0.4048202
0.030157818 0.042804889 0.049660746 0 -0.25019264 0.4048202
0.030917102 0.043261729 0.049117114 0 -0.25019264 0.4048202
0.031687345 0.04379867 0.048476662 0 -0.25019264 0.4048202
0.032466404 0.044390913 0.047769453 0 -0.25019264 0.4048202
0.03325583 0.045048665 0.046983134 0 -0.25019264 0.4048202
0.034060597 0.045810945 0.046070412 0 -0.25019264 0.4048202
0.034880638 0.046670679 0.045039881 0 -0.25019264 0.4048202
0.035720441 0.047659334 0.043853421 0 -0.25019264 0.4048202
0.036594637 0.048888776 0.042375475 0 -0.25019264 0.4048202
0.037508864 0.050390102 0.0405684 0 -0.25019264 0.4048202
0.038300518 0.050869536 0.039999999 0 -0.25019264 0.4048202
0.039033853 0.050880123 0.039999999 0 -0.25019264 0.4048202
0.039767407 0.050890911 0.039999999 0 -0.25019264 0.4048202
0.00036345772 0.049644452 0.039999999 0 -0.25019264 0.4048202
0.0010903751 0.049644649 0.039999999 0 -0.25019264 0.4048202
0.0018172985 0.04964504 0.039999999 0 -0.25019264 0.4048202
0.0025442319 0.049645629 0.039999999 0 -0.25019264 0.4048202
0.0032651692 0.049095541 0.040670253 0 -0.25019264 0.4048202
0.0039767907 0.048045978 0.04194846 0 -0.25019264 0.4048202
0.0046862392 0.047180593 0.04300281 0 -0.25019264 0.4048202
0.0053921328 0.046349552 0.044015594 0 -0.25019264 0.4048202
0.0060969656 0.045661684 0.04485441 0 -0.25019264 0.4048202
0.006799011 0.04499669 0.045665614 0 -0.25019264 0.4048202
0.0075000129 0.04441642 0.046373967 0 -0.25019264 0.4048202
0.0081995772 0.043884601 0.047023591 0 -0.25019264 0.4048202
0.0088972179 0.043373425 0.047648329 0 -0.25019264 0.4048202
0.0095953923 0.042953365 0.048162434 0 -0.25019264 0.4048202
0.010291604 0.042534482 0.048675325 0 -0.25019264 0.4048202
0.010987684 0.042165149 0.049128156 0 -0.25019264 0.4048202
0.0116839 0.041843042 0.049523756 0 -0.25019264 0.4048202
0.012378624 0.041521627 0.049918741 0 -0.25019264 0.4048202
0.0130745 0.041259672 0.050241604 0 -0.25019264 0.4048202
0.013770448 0.041025169 0.050531298 0 -0.25019264 0.4048202
0.014465326 0.040791027 0.050820779 0 -0.25019264 0.4048202
0.015162208 0.040616136 0.051038399 0 -0.25019264 0.4048202
0.015859464 0.040462673 0.051230177 0 -0.25019264 0.4048202
0.016556039 0.040309358 0.051422 0 -0.25019264 0.4048202
0.017255142 0.040210113 0.051548276 0 -0.25019264 0.4048202
0.017955251 0.040133949 0.051646702 0 -0.25019264 0.4048202
0.018655056 0.040057816 0.051745318 0 -0.25019264 0.4048202
0.019357733 0.040029299 0.05178624 0 -0.25019264 0.4048202
0.020062311 0.040029299 0.051792704 0 -0.25019264 0.4048202
0.02076696 0.040029299 0.051799402 0 -0.25019264 0.4048202
0.021474838 0.040071949 0.051754452 0 -0.25019264 0.4048202
0.02218565 0.040149275 0.051667552 0 -0.25019264 0.4048202
0.022896918 0.040226653 0.051580831 0 -0.25019264 0.4048202
0.023612084 0.040346362 0.051442862 0 -0.25019264 0.4048202
0.024331141 0.040504623 0.05125824 0 -0.25019264 0.4048202
0.02505107 0.040663075 0.051073626 0 -0.25019264 0.4048202
0.025776369 0.040872466 0.050827302 0 -0.25019264 0.4048202
0.026506098 0.041118354 0.050536837 0 -0.25019264 0.4048202
0.027237156 0.041364685 0.050246075 0 -0.25019264 0.4048202
0.027976697 0.041686017 0.049864359 0 -0.25019264 0.4048202
0.028720122 0.042029966 0.049455393 0 -0.25019264 0.4048202
0.029466858 0.042389158 0.04902814 0 -0.25019264 0.4048202
0.030225474 0.042845599 0.048482899 0 -0.25019264 0.4048202
0.030986575 0.043303531 0.047936104 0 -0.25019264 0.4048202
0.03176 0.043853901 0.047277179 0 -0.25019264 0.4048202
0.032540999 0.044447623 0.046565816 0 -0.25019264 0.4048202
0.033334211 0.045122907 0.045755565 0 -0.25019264 0.4048202
0.034141093 0.045887191 0.044837393 0 -0.25019264 0.4048202
0.034965891 0.046771042 0.043774143 0 -0.25019264 0.4048202
0.035808045 0.047762465 0.042580422 0 -0.25019264 0.4048202
0.036688708 0.049027532 0.041054349 0 -0.25019264 0.4048202
0.037527174 0.049904846 0.039999999 0 -0.25019264 0.4048202
0.038259506 0.049915086 0.039999999 0 -0.25019264 0.4048202
0.038992051 0.049925528 0.039999999 0 -0.25019264 0.4048202
0.039724812 0.049936172 0.039999999 0 -0.25019264 0.4048202
0.00036307052 0.048696183 0.039999999 0 -0.25019264 0.4048202
0.0010892135 0.048696376 0.039999999 0 -0.25019264 0.4048202
0.0018153625 0.04869676 0.039999999 0 -0.25019264 0.4048202
0.0025415213 0.048697341 0.039999999 0 -0.25019264 0.4048202
0.0032676943 0.048698112 0.039999999 0 -0.25019264 0.4048202
0.0039849961 0.048033878 0.04081193 0 -0.25019264 0.4048202
0.0046959193 0.047169197 0.041868746 0 -0.25019264 0.4048202
0.0054032397 0.046336476 0.042886779 0 -0.25019264 0.4048202
0.0061095483 0.045649763 0.04372682 0 -0.25019264 0.4048202
0.0068130111 0.044983432 0.044542216 0 -0.25019264 0.4048202
0.0075154938 0.044404652 0.045250967 0 -0.25019264 0.4048202
0.0082164723 0.04387176 0.04590394 0 -0.25019264 0.4048202
0.0089156041 0.043362364 0.046528451 0 -0.25019264 0.4048202
0.0096151931 0.042941451 0.047045197 0 -0.25019264 0.4048202
0.010312812 0.042521723 0.047560714 0 -0.25019264 0.4048202
0.011010411 0.042154633 0.048012204 0 -0.25019264 0.4048202
0.011708041 0.041831873 0.04840982 0 -0.25019264 0.4048202
0.012404173 0.041509807 0.048806809 0 -0.25019264 0.4048202
0.013101607 0.041250538 0.049127374 0 -0.25019264 0.4048202
0.013798976 0.041015554 0.049418524 0 -0.25019264 0.4048202
0.01449527 0.040780935 0.049709454 0 -0.25019264 0.4048202
0.01519376 0.040609188 0.049923878 0 -0.25019264 0.4048202
0.015892452 0.040455412 0.050116595 0 -0.25019264 0.4048202
0.016590459 0.040301785 0.050309353 0 -0.25019264 0.4048202
0.017291233 0.040206186 0.05043152 0 -0.25019264 0.4048202
0.0179928 0.040129863 0.050530389 0 -0.25019264 0.4048202
0.01869406 0.040053573 0.050629444 0 -0.25019264 0.4048202
0.019398492 0.040029299 0.050665252 0 -0.25019264 0.4048202
0.020104555 0.040029299 0.050671671 0 -0.25019264 0.4048202
0.020810692 0.040029299 0.050678313 0 -0.25019264 0.4048202
0.02152043 0.040076908 0.050627097 0 -0.25019264 0.4048202
0.022232765 0.040154401 0.050539643 0 -0.25019264 0.4048202
0.022945561 0.040231947 0.050452363 0 -0.25019264 0.4048202
0.023662725 0.040357508 0.05030673 0 -0.25019264 0.4048202
0.024383357 0.040516116 0.050121017 0 -0.25019264 0.4048202
0.025104865 0.040674917 0.049935304 0 -0.25019264 0.4048202
0.025832348 0.040891327 0.04967954 0 -0.25019264 0.4048202
0.026563713 0.041137766 0.049387388 0 -0.25019264 0.4048202
0.027296415 0.041384652 0.049094934 0 -0.25019264 0.4048202
0.028038392 0.04171456 0.048701447 0 -0.25019264 0.4048202
0.028783536 0.042059302 0.048290111 0 -0.25019264 0.4048202
0.029532975 0.042428941 0.04784866 0 -0.25019264 0.4048202
0.030293405 0.04288647 0.047300249 0 -0.25019264 0.4048202
0.031056333 0.043345504 0.04675027 0 -0.25019264 0.4048202
0.031832956 0.043909363 0.046072688 0 -0.25019264 0.4048202
0.032615907 0.044504568 0.045357142 0 -0.25019264 0.4048202
0.03341293 0.045197468 0.04452271 0 -0.25019264 0.4048202
0.034221932 0.045963764 0.04359905 0 -0.25019264 0.4048202
0.035051525 0.046871852 0.042502739 0 -0.25019264 0.4048202
0.035896044 0.047866061 0.041301705 0 -0.25019264 0.4048202
0.036755718 0.048943073 0.039999999 0 -0.25019264 0.4048202
0.037487056 0.048952978 0.039999999 0 -0.25019264 0.4048202
0.038218599 0.048963081 0.039999999 0 -0.25019264 0.4048202
0.038950354 0.048973378 0.039999999 0 -0.25019264 0.4048202
0.039682325 0.048983872 0.039999999 0 -0.25019264 0.4048202
0.00036268428 0.047750324 0.039999999 0 -0.25019264 0.4048202
0.0010880549 0.047750514 0.039999999 0 -0.25019264 0.4048202
0.0018134314 0.047750894 0.039999999 0 -0.25019264 0.4048202
0.0025388179 0.047751464 0.039999999 0 -0.25019264 0.4048202
0.0032642181 0.047752228 0.039999999 0 -0.25019264 0.4048202
0.0039896364 0.047753178 0.039999999 0 -0.25019264 0.4048202
0.0047056354 0.047157757 0.040730461 0 -0.25019264 0.4048202
0.0054143881 0.046323352 0.041753773 0 -0.25019264 0.4048202
0.0061221775 0.045637801 0.042595036 0 -0.25019264 0.4048202
0.0068270629 0.044970121 0.043414649 0 -0.25019264 0.4048202
0.0075310324 0.044392839 0.044123795 0 -0.25019264 0.4048202
0.0082334299 0.043858867 0.044780131 0 -0.25019264 0.4048202
0.0089340582 0.043351259 0.045404408 0 -0.25019264 0.4048202
0.0096350675 0.042929493 0.045923803 0 -0.25019264 0.4048202
0.0103341 0.042508915 0.046441965 0 -0.25019264 0.4048202
0.011033223 0.042144079 0.046892092 0 -0.25019264 0.4048202
0.011732272 0.041820664 0.047291733 0 -0.25019264 0.4048202
0.012429818 0.041497942 0.047690742 0 -0.25019264 0.4048202
0.013128814 0.04124137 0.048008978 0 -0.25019264 0.4048202
0.013827611 0.041005906 0.048301592 0 -0.25019264 0.4048202
0.014525326 0.04077081 0.048593987 0 -0.25019264 0.4048202
0.015225431 0.040602218 0.04880517 0 -0.25019264 0.4048202
0.015925562 0.040448125 0.048998833 0 -0.25019264 0.4048202
0.016625008 0.040294182 0.049192537 0 -0.25019264 0.4048202
0.017327461 0.040202245 0.049310546 0 -0.25019264 0.4048202
0.018030489 0.040125765 0.049409863 0 -0.25019264 0.4048202
0.018733211 0.040049314 0.049509361 0 -0.25019264 0.4048202
0.019439405 0.040029299 0.049540002 0 -0.25019264 0.4048202
0.02014696 0.040029299 0.049546368 0 -0.25019264 0.4048202
0.020854589 0.040029299 0.049552966 0 -0.25019264 0.4048202
0.021566197 0.040081888 0.049495414 0 -0.25019264 0.4048202
0.022280062 0.04015955 0.049407404 0 -0.25019264 0.4048202
0.02299439 0.040237259 0.049319562 0 -0.25019264 0.4048202
0.023713565 0.040368699 0.049166191 0 -0.25019264 0.4048202
0.024435775 0.040527653 0.048979376 0 -0.25019264 0.4048202
0.025158867 0.040686801 0.04879256 0 -0.25019264 0.4048202
0.025888545 0.040910266 0.048527263 0 -0.25019264 0.4048202
0.026621556 0.041157257 0.048233416 0 -0.25019264 0.4048202
0.027355907 0.041404702 0.047939256 0 -0.25019264 0.4048202
0.028100332 0.041743215 0.047533881 0 -0.25019264 0.4048202
0.028847205 0.042088758 0.047120161 0 -0.25019264 0.4048202
0.029599363 0.042468883 0.046664368 0 -0.25019264 0.4048202
0.030361615 0.042927511 0.046112768 0 -0.25019264 0.4048202
0.031126376 0.043387644 0.045559581 0 -0.25019264 0.4048202
0.031906217 0.043965057 0.044863153 0 -0.25019264 0.4048202
0.032691129 0.044561755 0.044143394 0 -0.25019264 0.4048202
0.033491988 0.045272354 0.043284535 0 -0.25019264 0.4048202
0.034303121 0.046040665 0.042355347 0 -0.25019264 0.4048202
0.035137545 0.046973117 0.041225623 0 -0.25019264 0.4048202
0.035986137 0.047984201 0.039999999 0 -0.25019264 0.4048202
0.036716487 0.047993772 0.039999999 0 -0.25019264 0.4048202
0.037447039 0.048003539 0.039999999 0 -0.25019264 0.4048202
0.038177799 0.048013501 0.039999999 0 -0.25019264 0.4048202
0.038908765 0.048023656 0.039999999 0 -0.25019264 0.4048202
0.03963995 0.048034005 0.039999999 0 -0.25019264 0.4048202
0.00036229906 0.046806861 0.039999999 0 -0.25019264 0.4048202
0.0010868992 0.046807047 0.039999999 0 -0.25019264 0.4048202
0.0018115052 0.046807423 0.039999999 0 -0.25019264 0.4048202
0.0025361211 0.046807986 0.039999999 0 -0.25019264 0.4048202
0.0032607508 0.046808738 0.039999999 0 -0.25019264 0.4048202
0.0039853984 0.046809677 0.039999999 0 -0.25019264 0.4048202
0.004710068 0.046810802 0.039999999 0 -0.25019264 0.4048202
0.005425578 0.046310175 0.04061655 0 -0.25019264 0.4048202
0.0061348537 0.045625795 0.041459031 0 -0.25019264 0.4048202
0.0068411673 0.044956762 0.042282887 0 -0.25019264 0.4048202
0.0075466293 0.044380981 0.042992413 0 -0.25019264 0.4048202
0.0082504507 0.043845929 0.043652136 0 -0.25019264 0.4048202
0.0089525823 0.043340117 0.044276163 0 -0.25019264 0.4048202
0.0096550165 0.04291749 0.044798229 0 -0.25019264 0.4048202
0.010355465 0.042496059 0.045319051 0 -0.25019264 0.4048202
0.01105612 0.042133488 0.045767792 0 -0.25019264 0.4048202
0.011756593 0.04180941 0.046169471 0 -0.25019264 0.4048202
0.012455557 0.041486032 0.04657051 0 -0.25019264 0.4048202
0.013156124 0.041232169 0.046886388 0 -0.25019264 0.4048202
0.013856352 0.040996224 0.047180481 0 -0.25019264 0.4048202
0.014555495 0.040760644 0.04747434 0 -0.25019264 0.4048202
0.015257221 0.040595222 0.047682252 0 -0.25019264 0.4048202
0.015958797 0.040440809 0.047876868 0 -0.25019264 0.4048202
0.016659686 0.040286548 0.048071519 0 -0.25019264 0.4048202
0.017363828 0.040198289 0.048185326 0 -0.25019264 0.4048202
0.018068321 0.040121648 0.048285093 0 -0.25019264 0.4048202
0.018772509 0.040045038 0.048385039 0 -0.25019264 0.4048202
0.019480474 0.040029299 0.04841046 0 -0.25019264 0.4048202
0.020189527 0.040029299 0.048416778 0 -0.25019264 0.4048202
0.020898651 0.040029299 0.04842332 0 -0.25019264 0.4048202
0.021612139 0.040086884 0.048359375 0 -0.25019264 0.4048202
0.022327542 0.040164713 0.048270803 0 -0.25019264 0.4048202
0.023043407 0.04024259 0.048182398 0 -0.25019264 0.4048202
0.023764601 0.04037993 0.048021212 0 -0.25019264 0.4048202
0.024488399 0.040539235 0.047833286 0 -0.25019264 0.4048202
0.025213081 0.040698733 0.04764536 0 -0.25019264 0.4048202
0.025944965 0.040929276 0.047370438 0 -0.25019264 0.4048202
0.026679626 0.041176822 0.04707488 0 -0.25019264 0.4048202
0.027415795 0.041426513 0.046776932 0 -0.25019264 0.4048202
0.028162524 0.041771989 0.046361625 0 -0.25019264 0.4048202
0.028911129 0.042118333 0.045945503 0 -0.25019264 0.4048202
0.029666023 0.04250899 0.04547523 0 -0.25019264 0.4048202
0.030430105 0.042968716 0.044920418 0 -0.25019264 0.4048202
0.031196706 0.04342996 0.044364005 0 -0.25019264 0.4048202
0.031979784 0.044020984 0.043648537 0 -0.25019264 0.4048202
0.03276667 0.04461918 0.042924535 0 -0.25019264 0.4048202
0.033571389 0.045347564 0.042041 0 -0.25019264 0.4048202
0.034384664 0.046117906 0.041106246 0 -0.25019264 0.4048202
0.035218421 0.047028199 0.039999999 0 -0.25019264 0.4048202
0.035947792 0.047037445 0.039999999 0 -0.25019264 0.4048202
0.036677357 0.047046885 0.039999999 0 -0.25019264 0.4048202
0.037407126 0.047056515 0.039999999 0 -0.25019264 0.4048202
0.038137101 0.047066335 0.039999999 0 -0.25019264 0.4048202
0.038867284 0.047076348 0.039999999 0 -0.25019264 0.4048202
0.039597679 0.047086548 0.039999999 0 -0.25019264 0.4048202
0.0003619148 0.045865782 0.039999999 0 -0.25019264 0.4048202
0.0010857463 0.045865964 0.039999999 0 -0.25019264 0.4048202
0.0018095839 0.045866337 0.039999999 0 -0.25019264 0.4048202
0.0025334312 0.045866892 0.039999999 0 -0.25019264 0.4048202
0.0032572923 0.045867629 0.039999999 0 -0.25019264 0.4048202
0.0039811712 0.045868557 0.039999999 0 -0.25019264 0.4048202
0.0047050719 0.045869667 0.039999999 0 -0.25019264 0.4048202
0.0054289983 0.045870963 0.039999999 0 -0.25019264 0.4048202
0.0061475779 0.045613743 0.040318776 0 -0.25019264 0.4048202
0.0068553244 0.044943351 0.041146901 0 -0.25019264 0.4048202
0.0075622844 0.044369079 0.041856799 0 -0.25019264 0.4048202
0.0082675349 0.043832939 0.042519931 0 -0.25019264 0.4048202
0.0089711752 0.04332893 0.04314369 0 -0.25019264 0.4048202
0.0096750408 0.042905442 0.043668445 0 -0.25019264 0.4048202
0.010376912 0.042483155 0.044191938 0 -0.25019264 0.4048202
0.011079103 0.042122852 0.044639271 0 -0.25019264 0.4048202
0.011781006 0.041798115 0.045043003 0 -0.25019264 0.4048202
0.012481393 0.041474078 0.045446087 0 -0.25019264 0.4048202
0.013183538 0.04122293 0.045759577 0 -0.25019264 0.4048202
0.013885202 0.040986501 0.046055153 0 -0.25019264 0.4048202
0.014585777 0.04075044 0.046350494 0 -0.25019264 0.4048202
0.015289131 0.0405882 0.046555094 0 -0.25019264 0.4048202
0.015992159 0.040433466 0.046750665 0 -0.25019264 0.4048202
0.016694495 0.040278886 0.046946269 0 -0.25019264 0.4048202
0.01740033 0.040194318 0.047055833 0 -0.25019264 0.4048202
0.018106299 0.040117517 0.047156051 0 -0.25019264 0.4048202
0.018811956 0.040040746 0.047256447 0 -0.25019264 0.4048202
0.0195217 0.040029299 0.047276597 0 -0.25019264 0.4048202
0.020232257 0.040029299 0.047282863 0 -0.25019264 0.4048202
0.020942885 0.040029299 0.047289357 0 -0.25019264 0.4048202
0.021658259 0.040091902 0.047218949 0 -0.25019264 0.4048202
0.022375204 0.040169898 0.04712981 0 -0.25019264 0.4048202
0.023092614 0.040247943 0.047040835 0 -0.25019264 0.4048202
0.023815837 0.040391207 0.046871759 0 -0.25019264 0.4048202
0.024541227 0.040550862 0.046682719 0 -0.25019264 0.4048202
0.025267508 0.040710714 0.046493672 0 -0.25019264 0.4048202
0.026001608 0.040948361 0.046209034 0 -0.25019264 0.4048202
0.026737928 0.041196469 0.045911752 0 -0.25019264 0.4048202
0.027476504 0.041454598 0.045602363 0 -0.25019264 0.4048202
0.028224964 0.041800879 0.04518465 0 -0.25019264 0.4048202
0.02897531 0.042148028 0.044766109 0 -0.25019264 0.4048202
0.029732956 0.042549264 0.044281207 0 -0.25019264 0.4048202
0.030498875 0.043010097 0.043723162 0 -0.25019264 0.4048202
0.031268127 0.043479979 0.043154228 0 -0.25019264 0.4048202
0.032053664 0.044077147 0.042428803 0 -0.25019264 0.4048202
0.032842528 0.044676848 0.041700527 0 -0.25019264 0.4048202
0.033651136 0.045423098 0.040792059 0 -0.25019264 0.4048202
0.034452561 0.046075046 0.039999999 0 -0.25019264 0.4048202
0.035180952 0.046083976 0.039999999 0 -0.25019264 0.4048202
0.035909541 0.046093091 0.039999999 0 -0.25019264 0.4048202
0.036638327 0.046102397 0.039999999 0 -0.25019264 0.4048202
0.037367314 0.046111889 0.039999999 0 -0.25019264 0.4048202
0.038096502 0.046121567 0.039999999 0 -0.25019264 0.4048202
0.038825903 0.04613144 0.039999999 0 -0.25019264 0.4048202
0.039555516 0.046141498 0.039999999 0 -0.25019264 0.4048202
0.00036153151 0.044927072 0.039999999 0 -0.25019264 0.4048202
0.0010845965 0.044927254 0.039999999 0 -0.25019264 0.4048202
0.0018076673 0.044927616 0.039999999 0 -0.25019264 0.4048202
0.002530748 0.044928163 0.039999999 0 -0.25019264 0.4048202
0.0032538425 0.044928893 0.039999999 0 -0.25019264 0.4048202
0.0039769546 0.044929806 0.039999999 0 -0.25019264 0.4048202
0.0047000884 0.044930901 0.039999999 0 -0.25019264 0.4048202
0.0054232483 0.044932179 0.039999999 0 -0.25019264 0.4048202
0.006146437 0.044933636 0.039999999 0 -0.25019264 0.4048202
0.006869534 0.044929892 0.04000666 0 -0.25019264 0.4048202
0.0075779981 0.044357136 0.04071692 0 -0.25019264 0.4048202
0.0082846833 0.043819904 0.041383479 0 -0.25019264 0.4048202
0.008989838 0.043317702 0.042006958 0 -0.25019264 0.4048202
0.0096951388 0.04289335 0.042534418 0 -0.25019264 0.4048202
0.010398437 0.042470206 0.043060604 0 -0.25019264 0.4048202
0.011102173 0.042112179 0.043506507 0 -0.25019264 0.4048202
0.011805511 0.041786779 0.043912303 0 -0.25019264 0.4048202
0.012507327 0.041462082 0.044317439 0 -0.25019264 0.4048202
0.013211054 0.041213658 0.044628516 0 -0.25019264 0.4048202
0.01391416 0.040976744 0.044925582 0 -0.25019264 0.4048202
0.014616173 0.040740196 0.045222409 0 -0.25019264 0.4048202
0.015321162 0.040581148 0.045423664 0 -0.25019264 0.4048202
0.016025646 0.040426098 0.045620199 0 -0.25019264 0.4048202
0.016729437 0.040271197 0.045816761 0 -0.25019264 0.4048202
0.017436972 0.040190332 0.045922037 0 -0.25019264 0.4048202
0.018144419 0.040113367 0.046022709 0 -0.25019264 0.4048202
0.018851554 0.04003644 0.046123561 0 -0.25019264 0.4048202
0.019563084 0.040029299 0.04613838 0 -0.25019264 0.4048202
0.020275149 0.040029299 0.046144597 0 -0.25019264 0.4048202
0.020987287 0.040029299 0.046151035 0 -0.25019264 0.4048202
0.021704558 0.040096939 0.046074104 0 -0.25019264 0.4048202
0.022423051 0.040175103 0.045984395 0 -0.25019264 0.4048202
0.023142012 0.040253319 0.04589485 0 -0.25019264 0.4048202
0.023867272 0.040402528 0.045717802 0 -0.25019264 0.4048202
0.024594264 0.040562537 0.045527641 0 -0.25019264 0.4048202
0.025322147 0.040722739 0.045337468 0 -0.25019264 0.4048202
0.026058478 0.040967524 0.04504301 0 -0.25019264 0.4048202
0.026796462 0.041216191 0.044743996 0 -0.25019264 0.4048202
