# .PCD v0.7 - Point Cloud Data file format
VERSION 0.7
FIELDS x y z vp_x vp_y vp_z
SIZE 4 4 4 4 4 4
TYPE F F F F F F
COUNT 1 1 1 1 1 1
WIDTH 693
HEIGHT 1
VIEWPOINT 0 0 0 1 0 0 0
POINTS 693
DATA ascii
0.01601509 0.079999998 0.039736945 0.23852047 0.14741376 0.38593423
0.013814052 0.079999998 0.036843389 0.23852047 0.14741376 0.38593423
0.011574882 0.079999998 0.033899609 0.23852047 0.14741376 0.38593423
0.00929657 0.079999998 0.030904271 0.23852047 0.14741376 0.38593423
0.0069780671 0.079999998 0.027855994 0.23852047 0.14741376 0.38593423
0.0046182876 0.079999998 0.024753347 0.23852047 0.14741376 0.38593423
0.002216106 0.079999998 0.02159485 0.23852047 0.14741376 0.38593423
0.039999999 0.00034074771 0.0057610897 0.23852047 0.14741376 0.38593423
0.039999999 0.0012122749 0.0064717485 0.23852047 0.14741376 0.38593423
0.039999999 0.0020804305 0.0071795508 0.23852047 0.14741376 0.38593423
0.039999999 0.002945239 0.0078845164 0.23852047 0.14741376 0.38593423
0.039999999 0.003806724 0.0085866675 0.23852047 0.14741376 0.38593423
0.039999999 0.0046649096 0.0092860209 0.23852047 0.14741376 0.38593423
0.039999999 0.005519819 0.0099825999 0.23852047 0.14741376 0.38593423
0.039999999 0.0063714753 0.010676421 0.23852047 0.14741376 0.38593423
0.039999999 0.0072199022 0.011367505 0.23852047 0.14741376 0.38593423
0.039999999 0.0080651222 0.012055872 0.23852047 0.14741376 0.38593423
0.039999999 0.0089071589 0.012741541 0.23852047 0.14741376 0.38593423
0.039999999 0.0097460328 0.013424528 0.23852047 0.14741376 0.38593423
0.039999999 0.010581768 0.014104855 0.23852047 0.14741376 0.38593423
0.039999999 0.011414386 0.01478254 0.23852047 0.14741376 0.38593423
0.039999999 0.012243909 0.015457599 0.23852047 0.14741376 0.38593423
0.039999999 0.013070358 0.016130054 0.23852047 0.14741376 0.38593423
0.039999999 0.013893755 0.016799919 0.23852047 0.14741376 0.38593423
0.039999999 0.014714121 0.017467216 0.23852047 0.14741376 0.38593423
0.039999999 0.015531477 0.01813196 0.23852047 0.14741376 0.38593423
0.039999999 0.016345844 0.01879417 0.23852047 0.14741376 0.38593423
0.039999999 0.017157244 0.019453861 0.23852047 0.14741376 0.38593423
0.039999999 0.017965695 0.020111054 0.23852047 0.14741376 0.38593423
0.039999999 0.01877122 0.020765763 0.23852047 0.14741376 0.38593423
0.039999999 0.019573838 0.021418007 0.23852047 0.14741376 0.38593423
0.039999999 0.020373568 0.022067802 0.23852047 0.14741376 0.38593423
0.039999999 0.021170432 0.022715164 0.23852047 0.14741376 0.38593423
0.039999999 0.021964448 0.023360111 0.23852047 0.14741376 0.38593423
0.039999999 0.022755636 0.024002658 0.23852047 0.14741376 0.38593423
0.039999999 0.023544015 0.024642821 0.23852047 0.14741376 0.38593423
0.039999999 0.024329605 0.025280619 0.23852047 0.14741376 0.38593423
0.039999999 0.025112426 0.025916064 0.23852047 0.14741376 0.38593423
0.039999999 0.025892492 0.026549175 0.23852047 0.14741376 0.38593423
0.039999999 0.026669828 0.027179968 0.23852047 0.14741376 0.38593423
0.039999999 0.027444448 0.027808454 0.23852047 0.14741376 0.38593423
0.039999999 0.028216373 0.028434653 0.23852047 0.14741376 0.38593423
0.039999999 0.028985621 0.029058579 0.23852047 0.14741376 0.38593423
0.039999999 0.029752208 0.029680246 0.23852047 0.14741376 0.38593423
0.039999999 0.030516153 0.030299669 0.23852047 0.14741376 0.38593423
0.039999999 0.031277474 0.030916866 0.23852047 0.14741376 0.38593423
0.039999999 0.032036189 0.031531848 0.23852047 0.14741376 0.38593423
0.039999999 0.032792315 0.032144632 0.23852047 0.14741376 0.38593423
0.039999999 0.033545867 0.032755233 0.23852047 0.14741376 0.38593423
0.039999999 0.034296867 0.033363663 0.23852047 0.14741376 0.38593423
0.039999999 0.035045326 0.033969939 0.23852047 0.14741376 0.38593423
0.039999999 0.035791267 0.034574069 0.23852047 0.14741376 0.38593423
0.039999999 0.036534704 0.035176076 0.23852047 0.14741376 0.38593423
0.039999999 0.037275653 0.035775967 0.23852047 0.14741376 0.38593423
0.039999999 0.038014129 0.036373761 0.23852047 0.14741376 0.38593423
0.039999999 0.038750153 0.036969468 0.23852047 0.14741376 0.38593423
0.039999999 0.039483737 0.037563104 0.23852047 0.14741376 0.38593423
0.039999999 0.0402149 0.03815468 0.23852047 0.14741376 0.38593423
0.039999999 0.040943656 0.038744211 0.23852047 0.14741376 0.38593423
0.039999999 0.041670017 0.039331708 0.23852047 0.14741376 0.38593423
0.039999999 0.042394008 0.039917186 0.23852047 0.14741376 0.38593423
0.039712269 0.04296447 0.039999999 0.23852047 0.14741376 0.38593423
0.039377045 0.043509893 0.039999999 0.23852047 0.14741376 0.38593423
0.039041832 0.044055413 0.039999999 0.23852047 0.14741376 0.38593423
0.038706638 0.044601031 0.039999999 0.23852047 0.14741376 0.38593423
0.038371451 0.045146752 0.039999999 0.23852047 0.14741376 0.38593423
0.038036279 0.045692574 0.039999999 0.23852047 0.14741376 0.38593423
0.037701115 0.046238508 0.039999999 0.23852047 0.14741376 0.38593423
0.037365954 0.046784546 0.039999999 0.23852047 0.14741376 0.38593423
0.037030805 0.0473307 0.039999999 0.23852047 0.14741376 0.38593423
0.036695655 0.047876965 0.039999999 0.23852047 0.14741376 0.38593423
0.03636051 0.04842335 0.039999999 0.23852047 0.14741376 0.38593423
0.036956508 0.049422529 0.041590717 0.23852047 0.14741376 0.38593423
0.037511822 0.050395682 0.043106802 0.23852047 0.14741376 0.38593423
0.03801005 0.051335406 0.044520676 0.23852047 0.14741376 0.38593423
0.03839612 0.052216131 0.045739245 0.23852047 0.14741376 0.38593423
0.038736522 0.053070448 0.046876311 0.23852047 0.14741376 0.38593423
0.039032325 0.053899366 0.047934089 0.23852047 0.14741376 0.38593423
0.039251387 0.054688405 0.048858594 0.23852047 0.14741376 0.38593423
0.039469294 0.055473298 0.049778149 0.23852047 0.14741376 0.38593423
0.039618041 0.056222897 0.050578102 0.23852047 0.14741376 0.38593423
0.03973832 0.056956444 0.051327553 0.23852047 0.14741376 0.38593423
0.039858088 0.057686877 0.052073721 0.23852047 0.14741376 0.38593423
0.039912477 0.058385141 0.052707799 0.23852047 0.14741376 0.38593423
0.039949778 0.0590734 0.053311225 0.23852047 0.14741376 0.38593423
0.039986957 0.059759326 0.053912509 0.23852047 0.14741376 0.38593423
0.039977107 0.060422387 0.054433368 0.23852047 0.14741376 0.38593423
0.039941873 0.061072484 0.054910261 0.23852047 0.14741376 0.38593423
0.039906733 0.06172087 0.055385806 0.23852047 0.14741376 0.38593423
0.039850641 0.062358547 0.055825043 0.23852047 0.14741376 0.38593423
0.039749481 0.062975489 0.056188151 0.23852047 0.14741376 0.38593423
0.039648514 0.063591242 0.056550458 0.23852047 0.14741376 0.38593423
0.039547749 0.064205803 0.056911975 0.23852047 0.14741376 0.38593423
0.039394196 0.0647972 0.057185236 0.23852047 0.14741376 0.38593423
0.039231323 0.065383852 0.057442315 0.23852047 0.14741376 0.38593423
0.039068662 0.06596975 0.057698969 0.23852047 0.14741376 0.38593423
0.038888637 0.066547789 0.057926331 0.23852047 0.14741376 0.38593423
0.038665503 0.067107789 0.058082316 0.23852047 0.14741376 0.38593423
0.038442519 0.067667417 0.058238104 0.23852047 0.14741376 0.38593423
0.038219679 0.068226688 0.058393694 0.23852047 0.14741376 0.38593423
0.037954688 0.068769008 0.058480047 0.23852047 0.14741376 0.38593423
0.037671074 0.069303945 0.058535829 0.23852047 0.14741376 0.38593423
0.037387468 0.069838867 0.058591515 0.23852047 0.14741376 0.38593423
0.037096512 0.070370965 0.058635157 0.23852047 0.14741376 0.38593423
0.036750022 0.070882037 0.058588635 0.23852047 0.14741376 0.38593423
0.036403317 0.071393415 0.058541995 0.23852047 0.14741376 0.38593423
0.036056403 0.071905114 0.058495231 0.23852047 0.14741376 0.38593423
0.035668343 0.072402 0.058382265 0.23852047 0.14741376 0.38593423
0.03525392 0.072889879 0.058227226 0.23852047 0.14741376 0.38593423
0.03483896 0.073378384 0.058071893 0.23852047 0.14741376 0.38593423
0.034406494 0.07386142 0.057888996 0.23852047 0.14741376 0.38593423
0.03391704 0.074325033 0.057615317 0.23852047 0.14741376 0.38593423
0.03342659 0.074789591 0.057340987 0.23852047 0.14741376 0.38593423
0.03293303 0.075254351 0.057062622 0.23852047 0.14741376 0.38593423
0.032357462 0.075691901 0.056654245 0.23852047 0.14741376 0.38593423
0.031780247 0.076130711 0.056244601 0.23852047 0.14741376 0.38593423
0.031197619 0.07656949 0.055827715 0.23852047 0.14741376 0.38593423
0.030519182 0.076977685 0.055259902 0.23852047 0.14741376 0.38593423
0.029838139 0.077387452 0.054689817 0.23852047 0.14741376 0.38593423
0.029117107 0.077786371 0.05405822 0.23852047 0.14741376 0.38593423
0.028310204 0.07815969 0.053292792 0.23852047 0.14741376 0.38593423
0.02749924 0.078534879 0.052523423 0.23852047 0.14741376 0.38593423
0.026547387 0.078867741 0.051534273 0.23852047 0.14741376 0.38593423
0.02557091 0.079196766 0.05050949 0.23852047 0.14741376 0.38593423
0.024422187 0.079475343 0.049217075 0.23852047 0.14741376 0.38593423
0.023210229 0.079739258 0.047829438 0.23852047 0.14741376 0.38593423
0.021670587 0.079906754 0.045932394 0.23852047 0.14741376 0.38593423
0.019852746 0.079996012 0.043605745 0.23852047 0.14741376 0.38593423
0.01721199 0.079843186 0.039999999 0.23852047 0.14741376 0.38593423
0.015548944 0.079999998 0.037931338 0.23852047 0.14741376 0.38593423
0.013334768 0.079999998 0.035010237 0.23852047 0.14741376 0.38593423
0.011082072 0.079999998 0.032038216 0.23852047 0.14741376 0.38593423
0.008789828 0.079999998 0.029013921 0.23852047 0.14741376 0.38593423
0.0064569754 0.079999998 0.025935942 0.23852047 0.14741376 0.38593423
0.0040824106 0.079999998 0.022802826 0.23852047 0.14741376 0.38593423
0.0016649925 0.079999998 0.019613063 0.23852047 0.14741376 0.38593423
0.039999999 0.00028098616 0.0044135968 0.23852047 0.14741376 0.38593423
0.039999999 0.0011547615 0.0051286099 0.23852047 0.14741376 0.38593423
0.039999999 0.0020251484 0.0058407392 0.23852047 0.14741376 0.38593423
0.039999999 0.0028921708 0.0065500052 0.23852047 0.14741376 0.38593423
0.039999999 0.0037558533 0.0072564287 0.23852047 0.14741376 0.38593423
0.039999999 0.0046162196 0.0079600299 0.23852047 0.14741376 0.38593423
0.039999999 0.0054732934 0.0086608278 0.23852047 0.14741376 0.38593423
0.039999999 0.0063270982 0.0093588429 0.23852047 0.14741376 0.38593423
0.039999999 0.007177657 0.010054096 0.23852047 0.14741376 0.38593423
0.039999999 0.0080249934 0.010746605 0.23852047 0.14741376 0.38593423
0.039999999 0.0088691302 0.011436389 0.23852047 0.14741376 0.38593423
0.039999999 0.0097100893 0.012123468 0.23852047 0.14741376 0.38593423
0.039999999 0.010547894 0.012807861 0.23852047 0.14741376 0.38593423
0.039999999 0.011382567 0.013489586 0.23852047 0.14741376 0.38593423
0.039999999 0.012214128 0.014168663 0.23852047 0.14741376 0.38593423
0.039999999 0.013042601 0.01484511 0.23852047 0.14741376 0.38593423
0.039999999 0.013868008 0.015518944 0.23852047 0.14741376 0.38593423
0.039999999 0.014690368 0.016190184 0.23852047 0.14741376 0.38593423
0.039999999 0.015509704 0.016858848 0.23852047 0.14741376 0.38593423
0.039999999 0.016326036 0.017524952 0.23852047 0.14741376 0.38593423
0.039999999 0.017139388 0.018188518 0.23852047 0.14741376 0.38593423
0.039999999 0.017949777 0.018849559 0.23852047 0.14741376 0.38593423
0.039999999 0.018757224 0.019508095 0.23852047 0.14741376 0.38593423
0.039999999 0.019561753 0.020164141 0.23852047 0.14741376 0.38593423
0.039999999 0.020363379 0.020817718 0.23852047 0.14741376 0.38593423
0.039999999 0.021162124 0.021468839 0.23852047 0.14741376 0.38593423
0.039999999 0.02195801 0.02211752 0.23852047 0.14741376 0.38593423
0.039999999 0.022751054 0.022763781 0.23852047 0.14741376 0.38593423
0.039999999 0.023541275 0.023407638 0.23852047 0.14741376 0.38593423
0.039999999 0.024328696 0.024049103 0.23852047 0.14741376 0.38593423
0.039999999 0.025113331 0.024688199 0.23852047 0.14741376 0.38593423
0.039999999 0.025895204 0.025324935 0.23852047 0.14741376 0.38593423
0.039999999 0.02667433 0.025959333 0.23852047 0.14741376 0.38593423
0.039999999 0.027450729 0.026591403 0.23852047 0.14741376 0.38593423
0.039999999 0.028224422 0.027221166 0.23852047 0.14741376 0.38593423
0.039999999 0.028995423 0.027848635 0.23852047 0.14741376 0.38593423
0.039999999 0.029763751 0.028473824 0.23852047 0.14741376 0.38593423
0.039999999 0.030529426 0.029096749 0.23852047 0.14741376 0.38593423
0.039999999 0.031292465 0.029717427 0.23852047 0.14741376 0.38593423
0.039999999 0.032052886 0.030335872 0.23852047 0.14741376 0.38593423
0.039999999 0.032810707 0.030952096 0.23852047 0.14741376 0.38593423
0.039999999 0.033565942 0.031566117 0.23852047 0.14741376 0.38593423
0.039999999 0.034318611 0.032177947 0.23852047 0.14741376 0.38593423
0.039999999 0.035068732 0.032787606 0.23852047 0.14741376 0.38593423
0.039999999 0.035816323 0.0333951 0.23852047 0.14741376 0.38593423
0.039999999 0.036561396 0.034000453 0.23852047 0.14741376 0.38593423
0.039999999 0.037303969 0.034603667 0.23852047 0.14741376 0.38593423
0.039999999 0.038044065 0.035204768 0.23852047 0.14741376 0.38593423
0.039999999 0.038781691 0.035803761 0.23852047 0.14741376 0.38593423
0.039999999 0.03951687 0.036400665 0.23852047 0.14741376 0.38593423
0.039999999 0.040249616 0.036995489 0.23852047 0.14741376 0.38593423
0.039999999 0.040979944 0.037588254 0.23852047 0.14741376 0.38593423
0.039999999 0.04170787 0.038178965 0.23852047 0.14741376 0.38593423
0.039999999 0.042433411 0.03876764 0.23852047 0.14741376 0.38593423
0.039999999 0.043156583 0.039354291 0.23852047 0.14741376 0.38593423
0.039999999 0.0438774 0.03993893 0.23852047 0.14741376 0.38593423
0.039700232 0.044440623 0.039999999 0.23852047 0.14741376 0.38593423
0.039365444 0.044985671 0.039999999 0.23852047 0.14741376 0.38593423
0.039030667 0.045530822 0.039999999 0.23852047 0.14741376 0.38593423
0.038695902 0.046076078 0.039999999 0.23852047 0.14741376 0.38593423
0.038361147 0.046621442 0.039999999 0.23852047 0.14741376 0.38593423
0.038026404 0.047166914 0.039999999 0.23852047 0.14741376 0.38593423
0.037691664 0.047712501 0.039999999 0.23852047 0.14741376 0.38593423
0.037356932 0.0482582 0.039999999 0.23852047 0.14741376 0.38593423
0.037022207 0.048804019 0.039999999 0.23852047 0.14741376 0.38593423
0.037015282 0.049509224 0.040561836 0.23852047 0.14741376 0.38593423
0.037554152 0.050475523 0.042055734 0.23852047 0.14741376 0.38593423
0.038053185 0.05141677 0.043476641 0.23852047 0.14741376 0.38593423
0.0384266 0.052292626 0.044678617 0.23852047 0.14741376 0.38593423
0.038767591 0.053148422 0.045821436 0.23852047 0.14741376 0.38593423
0.039052945 0.053973641 0.046865929 0.23852047 0.14741376 0.38593423
0.039272405 0.054764111 0.047795169 0.23852047 0.14741376 0.38593423
0.039490707 0.055550419 0.048719414 0.23852047 0.14741376 0.38593423
0.039630193 0.056297019 0.049507339 0.23852047 0.14741376 0.38593423
0.039750699 0.057031944 0.050260644 0.23852047 0.14741376 0.38593423
0.039870691 0.05776374 0.051010646 0.23852047 0.14741376 0.38593423
0.039916504 0.058459442 0.051633365 0.23852047 0.14741376 0.38593423
0.03995388 0.059149038 0.052239906 0.23852047 0.14741376 0.38593423
0.039991125 0.059836291 0.05284429 0.23852047 0.14741376 0.38593423
0.039973058 0.06049706 0.053354084 0.23852047 0.14741376 0.38593423
0.039937753 0.061148461 0.05383344 0.23852047 0.14741376 0.38593423
0.039902542 0.061798144 0.054311432 0.23852047 0.14741376 0.38593423
0.039838322 0.062433671 0.054739557 0.23852047 0.14741376 0.38593423
0.039736953 0.063051894 0.05510452 0.23852047 0.14741376 0.38593423
0.039635781 0.063668914 0.055468678 0.23852047 0.14741376 0.38593423
0.039534803 0.064284742 0.055832036 0.23852047 0.14741376 0.38593423
0.039372865 0.064874038 0.056093302 0.23852047 0.14741376 0.38593423
0.039209642 0.065461949 0.056351662 0.23852047 0.14741376 0.38593423
0.039046634 0.066049099 0.056609593 0.23852047 0.14741376 0.38593423
0.038857874 0.066624992 0.056824308 0.23852047 0.14741376 0.38593423
0.038634244 0.067186236 0.056981012 0.23852047 0.14741376 0.38593423
0.038410768 0.067747109 0.057137523 0.23852047 0.14741376 0.38593423
0.038187433 0.068307616 0.057293832 0.23852047 0.14741376 0.38593423
0.03791298 0.068847679 0.05736598 0.23852047 0.14741376 0.38593423
0.037628714 0.069383845 0.057421915 0.23852047 0.14741376 0.38593423
0.037344452 0.069920003 0.05747775 0.23852047 0.14741376 0.38593423
0.037043173 0.070449643 0.057505734 0.23852047 0.14741376 0.38593423
0.036695849 0.070961937 0.05745877 0.23852047 0.14741376 0.38593423
0.036348317 0.071474545 0.057411678 0.23852047 0.14741376 0.38593423
0.036000565 0.071987472 0.05736446 0.23852047 0.14741376 0.38593423
0.035600748 0.072481573 0.057233129 0.23852047 0.14741376 0.38593423
0.035185281 0.072970681 0.057076979 0.23852047 0.14741376 0.38593423
0.034769274 0.073460422 0.056920532 0.23852047 0.14741376 0.38593423
0.034323305 0.073940217 0.056716349 0.23852047 0.14741376 0.38593423
0.033832554 0.074405059 0.056440804 0.23852047 0.14741376 0.38593423
0.033340804 0.074870847 0.056164604 0.23852047 0.14741376 0.38593423
0.032831267 0.07533171 0.055860817 0.23852047 0.14741376 0.38593423
0.032254085 0.07577049 0.055449679 0.23852047 0.14741376 0.38593423
0.031675242 0.076210536 0.055037268 0.23852047 0.14741376 0.38593423
0.031073045 0.076644443 0.054588929 0.23852047 0.14741376 0.38593423
0.030392567 0.077053867 0.054017238 0.23852047 0.14741376 0.38593423
0.029709468 0.077464871 0.053443249 0.23852047 0.14741376 0.38593423
0.028963462 0.077857457 0.052771129 0.23852047 0.14741376 0.38593423
0.028153926 0.07823199 0.052000348 0.23852047 0.14741376 0.38593423
0.027328454 0.078604549 0.05120679 0.23852047 0.14741376 0.38593423
0.026354855 0.078932613 0.050181381 0.23852047 0.14741376 0.38593423
0.025374863 0.07926283 0.049149141 0.23852047 0.14741376 0.38593423
0.024178941 0.079528876 0.047779527 0.23852047 0.14741376 0.38593423
0.022896716 0.079773366 0.046278287 0.23852047 0.14741376 0.38593423
0.021349847 0.079941653 0.044365533 0.23852047 0.14741376 0.38593423
0.019365219 0.079982825 0.041771296 0.23852047 0.14741376 0.38593423
0.017268425 0.079999998 0.03900924 0.23852047 0.14741376 0.38593423
0.015078874 0.079999998 0.03611052 0.23852047 0.14741376 0.38593423
0.012851414 0.079999998 0.033161514 0.23852047 0.14741376 0.38593423
0.01058504 0.079999998 0.03016088 0.23852047 0.14741376 0.38593423
0.0082787089 0.079999998 0.027107237 0.23852047 0.14741376 0.38593423
0.005931342 0.079999998 0.023999158 0.23852047 0.14741376 0.38593423
0.0035418225 0.079999998 0.020835157 0.23852047 0.14741376 0.38593423
0.0011089905 0.079999998 0.017613698 0.23852047 0.14741376 0.38593423
0.039999999 0.0002209206 0.0030592487 0.23852047 0.14741376 0.38593423
0.039999999 0.0010969561 0.0037786514 0.23852047 0.14741376 0.38593423
0.039999999 0.0019695857 0.0044951425 0.23852047 0.14741376 0.38593423
0.039999999 0.0028388342 0.0052087428 0.23852047 0.14741376 0.38593423
0.039999999 0.0037047255 0.0059194737 0.23852047 0.14741376 0.38593423
0.039999999 0.0045672841 0.0066273548 0.23852047 0.14741376 0.38593423
0.039999999 0.0054265335 0.0073324065 0.23852047 0.14741376 0.38593423
0.039999999 0.0062824981 0.0080346493 0.23852047 0.14741376 0.38593423
0.039999999 0.0071352003 0.0087341024 0.23852047 0.14741376 0.38593423
0.039999999 0.0079846643 0.0094307866 0.23852047 0.14741376 0.38593423
0.039999999 0.0088309115 0.01012472 0.23852047 0.14741376 0.38593423
0.039999999 0.009673967 0.010815922 0.23852047 0.14741376 0.38593423
0.039999999 0.010513851 0.011504414 0.23852047 0.14741376 0.38593423
0.039999999 0.011350589 0.012190212 0.23852047 0.14741376 0.38593423
0.039999999 0.0121842 0.012873337 0.23852047 0.14741376 0.38593423
0.039999999 0.013014707 0.013553807 0.23852047 0.14741376 0.38593423
0.039999999 0.013842133 0.014231639 0.23852047 0.14741376 0.38593423
0.039999999 0.014666498 0.014906853 0.23852047 0.14741376 0.38593423
0.039999999 0.015487825 0.015579468 0.23852047 0.14741376 0.38593423
0.039999999 0.016306132 0.0162495 0.23852047 0.14741376 0.38593423
0.039999999 0.017121445 0.016916968 0.23852047 0.14741376 0.38593423
0.039999999 0.01793378 0.017581888 0.23852047 0.14741376 0.38593423
0.039999999 0.018743161 0.01824428 0.23852047 0.14741376 0.38593423
0.039999999 0.019549608 0.018904159 0.23852047 0.14741376 0.38593423
0.039999999 0.02035314 0.019561544 0.23852047 0.14741376 0.38593423
0.039999999 0.021153778 0.020216452 0.23852047 0.14741376 0.38593423
0.039999999 0.021951541 0.020868899 0.23852047 0.14741376 0.38593423
0.039999999 0.022746449 0.021518903 0.23852047 0.14741376 0.38593423
0.039999999 0.023538522 0.022166478 0.23852047 0.14741376 0.38593423
0.039999999 0.024327781 0.022811642 0.23852047 0.14741376 0.38593423
0.039999999 0.025114242 0.023454413 0.23852047 0.14741376 0.38593423
0.039999999 0.025897928 0.024094805 0.23852047 0.14741376 0.38593423
0.039999999 0.026678855 0.024732834 0.23852047 0.14741376 0.38593423
0.039999999 0.02745704 0.025368517 0.23852047 0.14741376 0.38593423
0.039999999 0.028232506 0.026001869 0.23852047 0.14741376 0.38593423
0.039999999 0.02900527 0.026632907 0.23852047 0.14741376 0.38593423
0.039999999 0.029775349 0.027261645 0.23852047 0.14741376 0.38593423
0.039999999 0.030542761 0.027888099 0.23852047 0.14741376 0.38593423
0.039999999 0.031307526 0.028512282 0.23852047 0.14741376 0.38593423
0.039999999 0.032069661 0.029134214 0.23852047 0.14741376 0.38593423
0.039999999 0.032829184 0.029753907 0.23852047 0.14741376 0.38593423
0.039999999 0.033586111 0.030371374 0.23852047 0.14741376 0.38593423
0.039999999 0.03434046 0.030986633 0.23852047 0.14741376 0.38593423
0.039999999 0.03509225 0.031599697 0.23852047 0.14741376 0.38593423
0.039999999 0.035841495 0.032210581 0.23852047 0.14741376 0.38593423
0.039999999 0.036588214 0.032819297 0.23852047 0.14741376 0.38593423
0.039999999 0.037332423 0.033425864 0.23852047 0.14741376 0.38593423
0.039999999 0.03807414 0.034030292 0.23852047 0.14741376 0.38593423
0.039999999 0.038813379 0.034632597 0.23852047 0.14741376 0.38593423
0.039999999 0.039550159 0.035232794 0.23852047 0.14741376 0.38593423
0.039999999 0.040284492 0.035830893 0.23852047 0.14741376 0.38593423
0.039999999 0.0410164 0.036426909 0.23852047 0.14741376 0.38593423
0.039999999 0.041745897 0.037020858 0.23852047 0.14741376 0.38593423
0.039999999 0.042473 0.037612751 0.23852047 0.14741376 0.38593423
0.039999999 0.043197718 0.038202602 0.23852047 0.14741376 0.38593423
0.039999999 0.043920074 0.038790427 0.23852047 0.14741376 0.38593423
0.039999999 0.044640079 0.039376233 0.23852047 0.14741376 0.38593423
0.039999999 0.045357753 0.039960038 0.23852047 0.14741376 0.38593423
0.039688561 0.045914125 0.039999999 0.23852047 0.14741376 0.38593423
0.039354205 0.046458811 0.039999999 0.23852047 0.14741376 0.38593423
0.03901986 0.047003608 0.039999999 0.23852047 0.14741376 0.38593423
0.038685527 0.047548514 0.039999999 0.23852047 0.14741376 0.38593423
0.038351201 0.048093535 0.039999999 0.23852047 0.14741376 0.38593423
0.038016886 0.048638672 0.039999999 0.23852047 0.14741376 0.38593423
0.037682574 0.049183924 0.039999999 0.23852047 0.14741376 0.38593423
0.037348267 0.049729299 0.039999999 0.23852047 0.14741376 0.38593423
0.037596658 0.050555691 0.041000333 0.23852047 0.14741376 0.38593423
0.038096499 0.051498465 0.042428315 0.23852047 0.14741376 0.38593423
0.038457207 0.052369449 0.043613505 0.23852047 0.14741376 0.38593423
0.03879879 0.053226724 0.044762112 0.23852047 0.14741376 0.38593423
0.039073657 0.054048236 0.045793161 0.23852047 0.14741376 0.38593423
0.039293513 0.05484014 0.046727162 0.23852047 0.14741376 0.38593423
0.03951221 0.055627868 0.047656137 0.23852047 0.14741376 0.38593423
0.039642401 0.056371465 0.048431881 0.23852047 0.14741376 0.38593423
0.039763134 0.057107773 0.049189072 0.23852047 0.14741376 0.38593423
0.039882973 0.057840772 0.049942296 0.23852047 0.14741376 0.38593423
0.03992055 0.058534075 0.05055416 0.23852047 0.14741376 0.38593423
0.039957996 0.059225012 0.051163837 0.23852047 0.14741376 0.38593423
0.039995316 0.059913598 0.051771339 0.23852047 0.14741376 0.38593423
0.039968994 0.060572069 0.052269943 0.23852047 0.14741376 0.38593423
0.039933618 0.061224777 0.052751772 0.23852047 0.14741376 0.38593423
0.039898336 0.061875764 0.05323223 0.23852047 0.14741376 0.38593423
0.039825946 0.062509142 0.053649109 0.23852047 0.14741376 0.38593423
0.039724369 0.06312865 0.054015946 0.23852047 0.14741376 0.38593423
0.039622985 0.063746944 0.054381967 0.23852047 0.14741376 0.38593423
0.039515216 0.064361304 0.054736216 0.23852047 0.14741376 0.38593423
0.039351434 0.064951234 0.054996304 0.23852047 0.14741376 0.38593423
0.03918786 0.065540403 0.055255957 0.23852047 0.14741376 0.38593423
0.039024502 0.066128813 0.055515174 0.23852047 0.14741376 0.38593423
0.038826965 0.066702567 0.055717092 0.23852047 0.14741376 0.38593423
0.03860284 0.067265056 0.055874527 0.23852047 0.14741376 0.38593423
0.038378865 0.067827173 0.05603176 0.23852047 0.14741376 0.38593423
0.038155034 0.068388924 0.056188792 0.23852047 0.14741376 0.38593423
0.03787107 0.068926729 0.056246571 0.23852047 0.14741376 0.38593423
0.037586145 0.069464132 0.056302659 0.23852047 0.14741376 0.38593423
0.037301231 0.07000152 0.056358647 0.23852047 0.14741376 0.38593423
0.036989573 0.070528701 0.056370791 0.23852047 0.14741376 0.38593423
0.036641415 0.071042225 0.056323376 0.23852047 0.14741376 0.38593423
0.036293045 0.071556069 0.056275826 0.23852047 0.14741376 0.38593423
0.035944454 0.072070234 0.056228153 0.23852047 0.14741376 0.38593423
0.035532814 0.072561555 0.05607824 0.23852047 0.14741376 0.38593423
0.0351163 0.073051892 0.055920973 0.23852047 0.14741376 0.38593423
0.034699243 0.073542871 0.055763401 0.23852047 0.14741376 0.38593423
0.034239691 0.074019417 0.055537675 0.23852047 0.14741376 0.38593423
0.033747636 0.074485496 0.055260256 0.23852047 0.14741376 0.38593423
0.033254575 0.07495252 0.054982167 0.23852047 0.14741376 0.38593423
0.03272897 0.075409479 0.05465265 0.23852047 0.14741376 0.38593423
0.032150157 0.075849496 0.054238729 0.23852047 0.14741376 0.38593423
0.031569678 0.076290779 0.053823519 0.23852047 0.14741376 0.38593423
0.030947786 0.076719806 0.053343341 0.23852047 0.14741376 0.38593423
0.030265255 0.077130467 0.052767739 0.23852047 0.14741376 0.38593423
0.029580086 0.077542715 0.052189816 0.23852047 0.14741376 0.38593423
0.028808935 0.077928945 0.05147665 0.23852047 0.14741376 0.38593423
0.027996751 0.078304708 0.05070046 0.23852047 0.14741376 0.38593423
0.027138248 0.078668647 0.049853135 0.23852047 0.14741376 0.38593423
0.026161153 0.07899788 0.048820268 0.23852047 0.14741376 0.38593423
0.025140133 0.079317324 0.047721077 0.23852047 0.14741376 0.38593423
0.023934107 0.079582766 0.046332594 0.23852047 0.14741376 0.38593423
0.022580957 0.079807721 0.044716015 0.23852047 0.14741376 0.38593423
0.021013217 0.079972588 0.042765956 0.23852047 0.14741376 0.38593423
0.018923679 0.079984948 0.039999999 0.23852047 0.14741376 0.38593423
0.01680742 0.079999998 0.0372006 0.23852047 0.14741376 0.38593423
0.014604826 0.079999998 0.034274299 0.23852047 0.14741376 0.38593423
0.012363935 0.079999998 0.031297013 0.23852047 0.14741376 0.38593423
0.010083729 0.079999998 0.028267382 0.23852047 0.14741376 0.38593423
0.0077631511 0.079999998 0.025184 0.23852047 0.14741376 0.38593423
0.0054011052 0.079999998 0.022045411 0.23852047 0.14741376 0.38593423
0.0029964577 0.079999998 0.018850101 0.23852047 0.14741376 0.38593423
0.00054803211 0.079999998 0.015596508 0.23852047 0.14741376 0.38593423
0.039999999 0.0001605484 0.0016979867 0.23852047 0.14741376 0.38593423
0.039999999 0.0010388561 0.002421814 0.23852047 0.14741376 0.38593423
0.039999999 0.0019137406 0.0031427022 0.23852047 0.14741376 0.38593423
0.039999999 0.0027852268 0.003860672 0.23852047 0.14741376 0.38593423
0.039999999 0.0036533389 0.0045757443 0.23852047 0.14741376 0.38593423
0.039999999 0.0045181015 0.0052879401 0.23852047 0.14741376 0.38593423
0.039999999 0.0053795381 0.0059972797 0.23852047 0.14741376 0.38593423
0.039999999 0.0062376731 0.0067037828 0.23852047 0.14741376 0.38593423
0.039999999 0.0070925299 0.0074074706 0.23852047 0.14741376 0.38593423
0.039999999 0.0079441313 0.0081083626 0.23852047 0.14741376 0.38593423
0.039999999 0.0087925019 0.0088064782 0.23852047 0.14741376 0.38593423
0.039999999 0.0096376631 0.0095018363 0.23852047 0.14741376 0.38593423
0.039999999 0.010479639 0.010194458 0.23852047 0.14741376 0.38593423
0.039999999 0.011318451 0.010884361 0.23852047 0.14741376 0.38593423
0.039999999 0.012154123 0.011571567 0.23852047 0.14741376 0.38593423
0.039999999 0.012986675 0.012256091 0.23852047 0.14741376 0.38593423
0.039999999 0.013816129 0.012937954 0.23852047 0.14741376 0.38593423
0.039999999 0.01464251 0.013617174 0.23852047 0.14741376 0.38593423
0.039999999 0.015465836 0.014293769 0.23852047 0.14741376 0.38593423
0.039999999 0.016286131 0.014967758 0.23852047 0.14741376 0.38593423
0.039999999 0.017103413 0.015639158 0.23852047 0.14741376 0.38593423
0.039999999 0.017917706 0.016307989 0.23852047 0.14741376 0.38593423
0.039999999 0.018729029 0.016974267 0.23852047 0.14741376 0.38593423
0.039999999 0.019537404 0.017638007 0.23852047 0.14741376 0.38593423
0.039999999 0.020342851 0.018299233 0.23852047 0.14741376 0.38593423
0.039999999 0.02114539 0.018957956 0.23852047 0.14741376 0.38593423
0.039999999 0.021945041 0.019614195 0.23852047 0.14741376 0.38593423
0.039999999 0.022741823 0.020267969 0.23852047 0.14741376 0.38593423
0.039999999 0.023535756 0.020919293 0.23852047 0.14741376 0.38593423
0.039999999 0.024326863 0.021568185 0.23852047 0.14741376 0.38593423
0.039999999 0.025115158 0.022214659 0.23852047 0.14741376 0.38593423
0.039999999 0.025900664 0.022858733 0.23852047 0.14741376 0.38593423
0.039999999 0.026683399 0.023500422 0.23852047 0.14741376 0.38593423
0.039999999 0.027463382 0.024139743 0.23852047 0.14741376 0.38593423
0.039999999 0.02824063 0.024776714 0.23852047 0.14741376 0.38593423
0.039999999 0.029015165 0.025411347 0.23852047 0.14741376 0.38593423
0.039999999 0.029787002 0.026043661 0.23852047 0.14741376 0.38593423
0.039999999 0.030556161 0.026673669 0.23852047 0.14741376 0.38593423
0.039999999 0.031322662 0.027301388 0.23852047 0.14741376 0.38593423
0.039999999 0.032086518 0.027926831 0.23852047 0.14741376 0.38593423
0.039999999 0.032847751 0.028550016 0.23852047 0.14741376 0.38593423
0.039999999 0.033606376 0.029170956 0.23852047 0.14741376 0.38593423
0.039999999 0.034362413 0.029789668 0.23852047 0.14741376 0.38593423
0.039999999 0.035115875 0.030406166 0.23852047 0.14741376 0.38593423
0.039999999 0.035866786 0.031020463 0.23852047 0.14741376 0.38593423
0.039999999 0.036615156 0.031632572 0.23852047 0.14741376 0.38593423
0.039999999 0.037361007 0.032242514 0.23852047 0.14741376 0.38593423
0.039999999 0.038104355 0.032850295 0.23852047 0.14741376 0.38593423
0.039999999 0.038845211 0.033455938 0.23852047 0.14741376 0.38593423
0.039999999 0.039583601 0.03405945 0.23852047 0.14741376 0.38593423
0.039999999 0.040319536 0.034660846 0.23852047 0.14741376 0.38593423
0.039999999 0.041053031 0.035260145 0.23852047 0.14741376 0.38593423
0.039999999 0.041784104 0.035857353 0.23852047 0.14741376 0.38593423
0.039999999 0.042512771 0.036452487 0.23852047 0.14741376 0.38593423
0.039999999 0.043239046 0.037045565 0.23852047 0.14741376 0.38593423
0.039999999 0.043962948 0.037636593 0.23852047 0.14741376 0.38593423
0.039999999 0.044684488 0.038225587 0.23852047 0.14741376 0.38593423
0.039999999 0.045403685 0.038812563 0.23852047 0.14741376 0.38593423
0.039999999 0.046120554 0.039397527 0.23852047 0.14741376 0.38593423
0.039999999 0.04683511 0.039980501 0.23852047 0.14741376 0.38593423
0.039677255 0.047385011 0.039999999 0.23852047 0.14741376 0.38593423
0.039343331 0.04792935 0.039999999 0.23852047 0.14741376 0.38593423
0.039009418 0.048473809 0.039999999 0.23852047 0.14741376 0.38593423
0.038675517 0.049018379 0.039999999 0.23852047 0.14741376 0.38593423
0.038341619 0.049563069 0.039999999 0.23852047 0.14741376 0.38593423
0.038007732 0.050107881 0.039999999 0.23852047 0.14741376 0.38593423
0.037673846 0.050652817 0.039999999 0.23852047 0.14741376 0.38593423
0.038139991 0.0515805 0.041375667 0.23852047 0.14741376 0.38593423
0.038487948 0.052446596 0.042543873 0.23852047 0.14741376 0.38593423
0.03883012 0.053305358 0.043698307 0.23852047 0.14741376 0.38593423
0.039094456 0.054123156 0.044715751 0.23852047 0.14741376 0.38593423
0.03931471 0.054916501 0.04565455 0.23852047 0.14741376 0.38593423
0.039533183 0.055705365 0.046587221 0.23852047 0.14741376 0.38593423
0.039654661 0.056446236 0.047351703 0.23852047 0.14741376 0.38593423
0.039775621 0.057183933 0.048112802 0.23852047 0.14741376 0.38593423
0.039886963 0.05791438 0.048855107 0.23852047 0.14741376 0.38593423
0.03992461 0.058609039 0.049470145 0.23852047 0.14741376 0.38593423
0.039962132 0.05930132 0.050082982 0.23852047 0.14741376 0.38593423
0.039999526 0.059991248 0.050693624 0.23852047 0.14741376 0.38593423
0.039964911 0.060647417 0.051180903 0.23852047 0.14741376 0.38593423
0.039929464 0.06130144 0.051665228 0.23852047 0.14741376 0.38593423
0.039894111 0.061953735 0.052148167 0.23852047 0.14741376 0.38593423
0.039813515 0.062584952 0.052553665 0.23852047 0.14741376 0.38593423
0.039711725 0.063205749 0.052922387 0.23852047 0.14741376 0.38593423
0.039610133 0.063825332 0.053290281 0.23852047 0.14741376 0.38593423
0.039494034 0.064437583 0.053632814 0.23852047 0.14741376 0.38593423
0.039329901 0.065028787 0.053894211 0.23852047 0.14741376 0.38593423
0.039165977 0.065619223 0.05415516 0.23852047 0.14741376 0.38593423
0.03900227 0.066208899 0.054415673 0.23852047 0.14741376 0.38593423
0.038795907 0.066780508 0.054604646 0.23852047 0.14741376 0.38593423
0.038571287 0.067344248 0.054762814 0.23852047 0.14741376 0.38593423
0.038346812 0.067907616 0.054920778 0.23852047 0.14741376 0.38593423
0.038114551 0.06846749 0.055065434 0.23852047 0.14741376 0.38593423
0.03782896 0.069006152 0.055121783 0.23852047 0.14741376 0.38593423
0.037543375 0.0695448 0.055178024 0.23852047 0.14741376 0.38593423
0.037257802 0.070083439 0.05523416 0.23852047 0.14741376 0.38593423
0.036935709 0.070608146 0.055230279 0.23852047 0.14741376 0.38593423
0.036586713 0.071122915 0.055182409 0.23852047 0.14741376 0.38593423
0.036237501 0.071637996 0.055134401 0.23852047 0.14741376 0.38593423
0.035881564 0.07215099 0.055075642 0.23852047 0.14741376 0.38593423
0.035464536 0.072641931 0.054917555 0.23852047 0.14741376 0.38593423
0.035046969 0.073133506 0.05475916 0.23852047 0.14741376 0.38593423
0.034628857 0.073625728 0.054600455 0.23852047 0.14741376 0.38593423
0.034155641 0.074099027 0.054352928 0.23852047 0.14741376 0.38593423
0.033662278 0.074566342 0.054073613 0.23852047 0.14741376 0.38593423
0.033167899 0.075034626 0.053793624 0.23852047 0.14741376 0.38593423
0.032626126 0.075487658 0.05343806 0.23852047 0.14741376 0.38593423
0.032045677 0.075928926 0.053021338 0.23852047 0.14741376 0.38593423
0.031463556 0.076371461 0.052603308 0.23852047 0.14741376 0.38593423
0.030821837 0.076795585 0.052090887 0.23852047 0.14741376 0.38593423
0.030137239 0.077207491 0.05151134 0.23852047 0.14741376 0.38593423
0.02944999 0.077620991 0.050929446 0.23852047 0.14741376 0.38593423
0.028653516 0.078000851 0.050174709 0.23852047 0.14741376 0.38593423
0.027838664 0.078377843 0.049393062 0.23852047 0.14741376 0.38593423
0.026946886 0.078733124 0.048491247 0.23852047 0.14741376 0.38593423
0.025966268 0.07906355 0.047450852 0.23852047 0.14741376 0.38593423
0.024898583 0.079370491 0.04627534 0.23852047 0.14741376 0.38593423
0.023687668 0.079637006 0.044876184 0.23852047 0.14741376 0.38593423
0.022262923 0.079842314 0.043142505 0.23852047 0.14741376 0.38593423
0.020608764 0.079983525 0.041051183 0.23852047 0.14741376 0.38593423
0.018520622 0.079999998 0.038280603 0.23852047 0.14741376 0.38593423
0.016342528 0.079999998 0.035376709 0.23852047 0.14741376 0.38593423
0.014126746 0.079999998 0.032422464 0.23852047 0.14741376 0.38593423
0.011872276 0.079999998 0.029416522 0.23852047 0.14741376 0.38593423
0.0095780827 0.079999998 0.026357505 0.23852047 0.14741376 0.38593423
0.007243095 0.079999998 0.023243982 0.23852047 0.14741376 0.38593423
0.0048662014 0.079999998 0.020074466 0.23852047 0.14741376 0.38593423
0.0024462505 0.079999998 0.01684742 0.23852047 0.14741376 0.38593423
0.039999999 9.9866913e-05 0.000329751 0.23852047 0.14741376 0.38593423
0.039999999 0.00098045904 0.001058039 0.23852047 0.14741376 0.38593423
0.039999999 0.0018576105 0.0017833596 0.23852047 0.14741376 0.38593423
0.039999999 0.0027313463 0.0025057339 0.23852047 0.14741376 0.38593423
0.039999999 0.003601691 0.0032251829 0.23852047 0.14741376 0.38593423
0.039999999 0.0044686687 0.0039417278 0.23852047 0.14741376 0.38593423
0.039999999 0.0053323046 0.0046553891 0.23852047 0.14741376 0.38593423
0.039999999 0.0061926218 0.0053661875 0.23852047 0.14741376 0.38593423
0.039999999 0.0070496439 0.0060741431 0.23852047 0.14741376 0.38593423
0.039999999 0.0079033952 0.0067792763 0.23852047 0.14741376 0.38593423
0.039999999 0.0087538986 0.0074816071 0.23852047 0.14741376 0.38593423
0.039999999 0.0096011776 0.0081811547 0.23852047 0.14741376 0.38593423
0.039999999 0.010445255 0.0088779395 0.23852047 0.14741376 0.38593423
0.039999999 0.011286153 0.0095719807 0.23852047 0.14741376 0.38593423
0.039999999 0.012123895 0.010263297 0.23852047 0.14741376 0.38593423
0.039999999 0.012958502 0.010951908 0.23852047 0.14741376 0.38593423
0.039999999 0.013789997 0.011637833 0.23852047 0.14741376 0.38593423
0.039999999 0.014618402 0.01232109 0.23852047 0.14741376 0.38593423
0.039999999 0.015443739 0.013001697 0.23852047 0.14741376 0.38593423
0.039999999 0.016266029 0.013679675 0.23852047 0.14741376 0.38593423
0.039999999 0.017085293 0.014355038 0.23852047 0.14741376 0.38593423
0.039999999 0.017901553 0.015027808 0.23852047 0.14741376 0.38593423
0.039999999 0.018714828 0.015698001 0.23852047 0.14741376 0.38593423
0.039999999 0.019525141 0.016365636 0.23852047 0.14741376 0.38593423
0.039999999 0.020332512 0.017030729 0.23852047 0.14741376 0.38593423
0.039999999 0.02113696 0.017693298 0.23852047 0.14741376 0.38593423
0.039999999 0.021938508 0.018353362 0.23852047 0.14741376 0.38593423
0.039999999 0.022737173 0.019010935 0.23852047 0.14741376 0.38593423
0.039999999 0.023532977 0.019666035 0.23852047 0.14741376 0.38593423
0.039999999 0.024325939 0.020318681 0.23852047 0.14741376 0.38593423
0.039999999 0.025116079 0.020968888 0.23852047 0.14741376 0.38593423
0.039999999 0.025903415 0.021616671 0.23852047 0.14741376 0.38593423
0.039999999 0.026687967 0.02226205 0.23852047 0.14741376 0.38593423
0.039999999 0.027469752 0.022905039 0.23852047 0.14741376 0.38593423
0.039999999 0.028248794 0.023545653 0.23852047 0.14741376 0.38593423
0.039999999 0.029025108 0.02418391 0.23852047 0.14741376 0.38593423
0.039999999 0.029798711 0.024819825 0.23852047 0.14741376 0.38593423
0.039999999 0.030569626 0.025453415 0.23852047 0.14741376 0.38593423
0.039999999 0.031337868 0.026084693 0.23852047 0.14741376 0.38593423
0.039999999 0.032103453 0.026713677 0.23852047 0.14741376 0.38593423
0.039999999 0.032866403 0.02734038 0.23852047 0.14741376 0.38593423
0.039999999 0.033626735 0.027964821 0.23852047 0.14741376 0.38593423
0.039999999 0.034384467 0.02858701 0.23852047 0.14741376 0.38593423
0.039999999 0.035139617 0.029206965 0.23852047 0.14741376 0.38593423
0.039999999 0.035892196 0.0298247 0.23852047 0.14741376 0.38593423
0.039999999 0.036642227 0.03044023 0.23852047 0.14741376 0.38593423
0.039999999 0.037389729 0.031053569 0.23852047 0.14741376 0.38593423
0.039999999 0.038134713 0.031664733 0.23852047 0.14741376 0.38593423
0.039999999 0.038877197 0.032273732 0.23852047 0.14741376 0.38593423
0.039999999 0.039617203 0.032880586 0.23852047 0.14741376 0.38593423
0.039999999 0.04035474 0.033485308 0.23852047 0.14741376 0.38593423
0.039999999 0.041089829 0.034087908 0.23852047 0.14741376 0.38593423
0.039999999 0.041822486 0.034688398 0.23852047 0.14741376 0.38593423
0.039999999 0.042552724 0.035286803 0.23852047 0.14741376 0.38593423
0.039999999 0.043280564 0.035883125 0.23852047 0.14741376 0.38593423
0.039999999 0.04400602 0.036477383 0.23852047 0.14741376 0.38593423
0.039999999 0.044729102 0.037069589 0.23852047 0.14741376 0.38593423
0.039999999 0.045449831 0.037659757 0.23852047 0.14741376 0.38593423
0.039999999 0.046168223 0.038247898 0.23852047 0.14741376 0.38593423
0.039999999 0.046884291 0.038834028 0.23852047 0.14741376 0.38593423
0.039999999 0.047598049 0.039418157 0.23852047 0.14741376 0.38593423
0.039999828 0.04830943 0.039999999 0.23852047 0.14741376 0.38593423
0.039666325 0.048853323 0.039999999 0.23852047 0.14741376 0.38593423
0.039332837 0.049397331 0.039999999 0.23852047 0.14741376 0.38593423
0.038999356 0.049941462 0.039999999 0.23852047 0.14741376 0.38593423
0.03866588 0.050485712 0.039999999 0.23852047 0.14741376 0.38593423
0.038332414 0.051030084 0.039999999 0.23852047 0.14741376 0.38593423
0.038173795 0.051658154 0.040301632 0.23852047 0.14741376 0.38593423
0.03851882 0.052524075 0.041469689 0.23852047 0.14741376 0.38593423
0.038861584 0.053384323 0.042629987 0.23852047 0.14741376 0.38593423
0.039115347 0.054198399 0.043633662 0.23852047 0.14741376 0.38593423
0.039336003 0.05499319 0.044577289 0.23852047 0.14741376 0.38593423
0.039545264 0.055779062 0.045498312 0.23852047 0.14741376 0.38593423
0.039666977 0.056521341 0.046266761 0.23852047 0.14741376 0.38593423
0.039788164 0.057260431 0.047031797 0.23852047 0.14741376 0.38593423
0.039890971 0.057988316 0.047763046 0.23852047 0.14741376 0.38593423
0.039928693 0.058684338 0.048381284 0.23852047 0.14741376 0.38593423
0.039966285 0.059377976 0.048997302 0.23852047 0.14741376 0.38593423
0.039996423 0.060066018 0.049598686 0.23852047 0.14741376 0.38593423
0.039960809 0.060723107 0.050086927 0.23852047 0.14741376 0.38593423
0.039925288 0.061378453 0.050573759 0.23852047 0.14741376 0.38593423
0.039889865 0.062032059 0.051059198 0.23852047 0.14741376 0.38593423
0.039801028 0.062661119 0.051453184 0.23852047 0.14741376 0.38593423
0.039699025 0.063283205 0.051823802 0.23852047 0.14741376 0.38593423
0.039597221 0.063904084 0.052193586 0.23852047 0.14741376 0.38593423
0.039472759 0.064514227 0.052524261 0.23852047 0.14741376 0.38593423
0.039308269 0.065106705 0.052786972 0.23852047 0.14741376 0.38593423
0.039143994 0.065698415 0.053049233 0.23852047 0.14741376 0.38593423
0.038979933 0.06628935 0.05331105 0.23852047 0.14741376 0.38593423
0.038764708 0.066858813 0.053486925 0.23852047 0.14741376 0.38593423
0.038539585 0.067423813 0.053645834 0.23852047 0.14741376 0.38593423
0.038314607 0.06798844 0.053804532 0.23852047 0.14741376 0.38593423
0.038072899 0.068546049 0.053935058 0.23852047 0.14741376 0.38593423
0.037786644 0.069085963 0.053991564 0.23852047 0.14741376 0.38593423
0.0375004 0.069625862 0.054047957 0.23852047 0.14741376 0.38593423
0.037214164 0.070165746 0.05410425 0.23852047 0.14741376 0.38593423
0.036881581 0.070687987 0.054084152 0.23852047 0.14741376 0.38593423
0.036531739 0.071203999 0.05403582 0.23852047 0.14741376 0.38593423
0.036181681 0.071720324 0.053987354 0.23852047 0.14741376 0.38593423
0.035813998 0.072230525 0.053910241 0.23852047 0.14741376 0.38593423
0.035395917 0.072722711 0.053751022 0.23852047 0.14741376 0.38593423
0.034977291 0.073215537 0.053591486 0.23852047 0.14741376 0.38593423
0.034558114 0.073709011 0.053431641 0.23852047 0.14741376 0.38593423
0.034071159 0.074179046 0.05316205 0.23852047 0.14741376 0.38593423
0.033576477 0.074647613 0.052880827 0.23852047 0.14741376 0.38593423
0.033080775 0.075117148 0.052598923 0.23852047 0.14741376 0.38593423
0.032522734 0.075566262 0.052216992 0.23852047 0.14741376 0.38593423
0.031940643 0.076008774 0.051797442 0.23852047 0.14741376 0.38593423
0.031356864 0.076452568 0.05137657 0.23852047 0.14741376 0.38593423
0.030695191 0.07687179 0.050831504 0.23852047 0.14741376 0.38593423
0.030008513 0.07728494 0.050247978 0.23852047 0.14741376 0.38593423
0.029310606 0.077696845 0.049648311 0.23852047 0.14741376 0.38593423
0.028497199 0.078073174 0.048865236 0.23852047 0.14741376 0.38593423
0.027679663 0.07845141 0.048078083 0.23852047 0.14741376 0.38593423
0.026754355 0.078797996 0.047121044 0.23852047 0.14741376 0.38593423
0.025770189 0.079129621 0.046073046 0.23852047 0.14741376 0.38593423
0.02465545 0.079424001 0.044820134 0.23852047 0.14741376 0.38593423
0.023439609 0.079691604 0.043410189 0.23852047 0.14741376 0.38593423
0.021942593 0.079877168 0.041557617 0.23852047 0.14741376 0.38593423
0.020218691 0.079999998 0.039350651 0.23852047 0.14741376 0.38593423
0.018064741 0.079999998 0.036468882 0.23852047 0.14741376 0.38593423
0.015873697 0.079999998 0.033537369 0.23852047 0.14741376 0.38593423
0.013644582 0.079999998 0.030554803 0.23852047 0.14741376 0.38593423
0.011376379 0.079999998 0.027519826 0.23852047 0.14741376 0.38593423
0.0090680411 0.079999998 0.024431029 0.23852047 0.14741376 0.38593423
0.0067184791 0.079999998 0.021286953 0.23852047 0.14741376 0.38593423
0.0043265661 0.079999998 0.018086089 0.23852047 0.14741376 0.38593423
0.0018911329 0.079999998 0.014826865 0.23852047 0.14741376 0.38593423
0.039999999 0.001801193 0.00041705492 0.23852047 0.14741376 0.38593423
0.039999999 0.0026771904 0.0011438692 0.23852047 0.14741376 0.38593423
0.039999999 0.0035497793 0.0018677303 0.23852047 0.14741376 0.38593423
0.039999999 0.0044189845 0.0025886593 0.23852047 0.14741376 0.38593423
0.039999999 0.0052848305 0.0033066773 0.23852047 0.14741376 0.38593423
0.039999999 0.0061473413 0.0040218048 0.23852047 0.14741376 0.38593423
0.039999999 0.0070065409 0.0047340631 0.23852047 0.14741376 0.38593423
0.039999999 0.0078624533 0.0054434715 0.23852047 0.14741376 0.38593423
0.039999999 0.0087151015 0.006150051 0.23852047 0.14741376 0.38593423
0.039999999 0.0095645087 0.0068538212 0.23852047 0.14741376 0.38593423
0.039999999 0.010410698 0.0075548021 0.23852047 0.14741376 0.38593423
0.039999999 0.011253693 0.0082530137 0.23852047 0.14741376 0.38593423
0.039999999 0.012093516 0.0089484742 0.23852047 0.14741376 0.38593423
0.039999999 0.012930189 0.009641205 0.23852047 0.14741376 0.38593423
0.039999999 0.013763735 0.010331223 0.23852047 0.14741376 0.38593423
0.039999999 0.014594176 0.011018548 0.23852047 0.14741376 0.38593423
0.039999999 0.015421533 0.0117032 0.23852047 0.14741376 0.38593423
0.039999999 0.016245827 0.012385196 0.23852047 0.14741376 0.38593423
0.039999999 0.017067082 0.013064555 0.23852047 0.14741376 0.38593423
0.039999999 0.017885318 0.013741295 0.23852047 0.14741376 0.38593423
0.039999999 0.018700557 0.014415435 0.23852047 0.14741376 0.38593423
0.039999999 0.019512817 0.015086992 0.23852047 0.14741376 0.38593423
0.039999999 0.020322122 0.015755983 0.23852047 0.14741376 0.38593423
0.039999999 0.021128491 0.016422428 0.23852047 0.14741376 0.38593423
0.039999999 0.021931944 0.017086342 0.23852047 0.14741376 0.38593423
0.039999999 0.022732502 0.017747745 0.23852047 0.14741376 0.38593423
0.039999999 0.023530183 0.018406652 0.23852047 0.14741376 0.38593423
0.039999999 0.024325011 0.019063082 0.23852047 0.14741376 0.38593423
0.039999999 0.025117002 0.019717049 0.23852047 0.14741376 0.38593423
0.039999999 0.025906177 0.02036857 0.23852047 0.14741376 0.38593423
0.039999999 0.026692556 0.021017665 0.23852047 0.14741376 0.38593423
0.039999999 0.027476156 0.021664349 0.23852047 0.14741376 0.38593423
0.039999999 0.028256997 0.022308636 0.23852047 0.14741376 0.38593423
0.039999999 0.029035097 0.022950545 0.23852047 0.14741376 0.38593423
0.039999999 0.029810477 0.02359009 0.23852047 0.14741376 0.38593423
0.039999999 0.030583154 0.024227288 0.23852047 0.14741376 0.38593423
0.039999999 0.031353146 0.024862153 0.23852047 0.14741376 0.38593423
0.039999999 0.03212047 0.025494704 0.23852047 0.14741376 0.38593423
0.039999999 0.032885149 0.026124952 0.23852047 0.14741376 0.38593423
0.039999999 0.033647195 0.026752917 0.23852047 0.14741376 0.38593423
0.039999999 0.034406628 0.027378611 0.23852047 0.14741376 0.38593423
0.039999999 0.035163466 0.02800205 0.23852047 0.14741376 0.38593423
0.039999999 0.035917729 0.028623249 0.23852047 0.14741376 0.38593423
