# .PCD v0.7 - Point Cloud Data file format
VERSION 0.7
FIELDS x y z vp_x vp_y vp_z
SIZE 4 4 4 4 4 4
TYPE F F F F F F
COUNT 1 1 1 1 1 1
WIDTH 699
HEIGHT 1
VIEWPOINT 0 0 0 1 0 0 0
POINTS 699
DATA ascii
0.015066999 0 0.032291558 0.23852047 -0.14741376 0.38593423
0.016312623 0 0.033692356 0.23852047 -0.14741376 0.38593423
0.017548494 0 0.035082221 0.23852047 -0.14741376 0.38593423
0.018774729 0 0.036461283 0.23852047 -0.14741376 0.38593423
0.019991446 0 0.037829675 0.23852047 -0.14741376 0.38593423
0.021198763 0 0.039187528 0.23852047 -0.14741376 0.38593423
0.022062052 0.00022832038 0.039999999 0.23852047 -0.14741376 0.38593423
0.022416135 0.00080211333 0.039999999 0.23852047 -0.14741376 0.38593423
0.02277023 0.0013759721 0.039999999 0.23852047 -0.14741376 0.38593423
0.023124337 0.0019498994 0.039999999 0.23852047 -0.14741376 0.38593423
0.023478458 0.0025238981 0.039999999 0.23852047 -0.14741376 0.38593423
0.023832595 0.003097971 0.039999999 0.23852047 -0.14741376 0.38593423
0.024186749 0.0036721211 0.039999999 0.23852047 -0.14741376 0.38593423
0.024540924 0.0042463513 0.039999999 0.23852047 -0.14741376 0.38593423
0.024895119 0.0048206639 0.039999999 0.23852047 -0.14741376 0.38593423
0.025249336 0.0053950623 0.039999999 0.23852047 -0.14741376 0.38593423
0.025603579 0.0059695495 0.039999999 0.23852047 -0.14741376 0.38593423
0.025957849 0.0065441276 0.039999999 0.23852047 -0.14741376 0.38593423
0.026312144 0.0071188002 0.039999999 0.23852047 -0.14741376 0.38593423
0.026666472 0.0076935696 0.039999999 0.23852047 -0.14741376 0.38593423
0.027020831 0.0082684392 0.039999999 0.23852047 -0.14741376 0.38593423
0.027375223 0.0088434117 0.039999999 0.23852047 -0.14741376 0.38593423
0.027729649 0.0094184894 0.039999999 0.23852047 -0.14741376 0.38593423
0.028084114 0.0099936752 0.039999999 0.23852047 -0.14741376 0.38593423
0.028438617 0.010568973 0.039999999 0.23852047 -0.14741376 0.38593423
0.028793158 0.011144385 0.039999999 0.23852047 -0.14741376 0.38593423
0.029147744 0.011719913 0.039999999 0.23852047 -0.14741376 0.38593423
0.029502373 0.012295563 0.039999999 0.23852047 -0.14741376 0.38593423
0.029857047 0.012871334 0.039999999 0.23852047 -0.14741376 0.38593423
0.030211769 0.013447232 0.039999999 0.23852047 -0.14741376 0.38593423
0.030566541 0.014023257 0.039999999 0.23852047 -0.14741376 0.38593423
0.030921362 0.014599415 0.039999999 0.23852047 -0.14741376 0.38593423
0.031276237 0.015175706 0.039999999 0.23852047 -0.14741376 0.38593423
0.031631168 0.015752135 0.039999999 0.23852047 -0.14741376 0.38593423
0.031986155 0.016328704 0.039999999 0.23852047 -0.14741376 0.38593423
0.032341197 0.016905416 0.039999999 0.23852047 -0.14741376 0.38593423
0.032696299 0.017482273 0.039999999 0.23852047 -0.14741376 0.38593423
0.033051465 0.01805928 0.039999999 0.23852047 -0.14741376 0.38593423
0.033406693 0.018636439 0.039999999 0.23852047 -0.14741376 0.38593423
0.033761989 0.019213751 0.039999999 0.23852047 -0.14741376 0.38593423
0.034117348 0.019791221 0.039999999 0.23852047 -0.14741376 0.38593423
0.034472778 0.020368852 0.039999999 0.23852047 -0.14741376 0.38593423
0.034828275 0.020946646 0.039999999 0.23852047 -0.14741376 0.38593423
0.035183851 0.021524606 0.039999999 0.23852047 -0.14741376 0.38593423
0.035539493 0.022102734 0.039999999 0.23852047 -0.14741376 0.38593423
0.035895217 0.022681035 0.039999999 0.23852047 -0.14741376 0.38593423
0.036251016 0.023259511 0.039999999 0.23852047 -0.14741376 0.38593423
0.036606893 0.023838166 0.039999999 0.23852047 -0.14741376 0.38593423
0.036962856 0.024417002 0.039999999 0.23852047 -0.14741376 0.38593423
0.037318897 0.02499602 0.039999999 0.23852047 -0.14741376 0.38593423
0.037675023 0.025575224 0.039999999 0.23852047 -0.14741376 0.38593423
0.038031239 0.026154619 0.039999999 0.23852047 -0.14741376 0.38593423
0.038387541 0.026734207 0.039999999 0.23852047 -0.14741376 0.38593423
0.038743932 0.027313991 0.039999999 0.23852047 -0.14741376 0.38593423
0.039100416 0.027893972 0.039999999 0.23852047 -0.14741376 0.38593423
0.039456997 0.028474154 0.039999999 0.23852047 -0.14741376 0.38593423
0.039813668 0.029054541 0.039999999 0.23852047 -0.14741376 0.38593423
0.039999999 0.029787272 0.03970274 0.23852047 -0.14741376 0.38593423
0.039999999 0.030689018 0.039078679 0.23852047 -0.14741376 0.38593423
0.039999999 0.031594325 0.038452189 0.23852047 -0.14741376 0.38593423
0.039999999 0.032503221 0.037823249 0.23852047 -0.14741376 0.38593423
0.039999999 0.033415731 0.037191842 0.23852047 -0.14741376 0.38593423
0.039999999 0.034331877 0.03655795 0.23852047 -0.14741376 0.38593423
0.039999999 0.035251688 0.035921559 0.23852047 -0.14741376 0.38593423
0.039999999 0.036175191 0.035282649 0.23852047 -0.14741376 0.38593423
0.039999999 0.037102416 0.034641199 0.23852047 -0.14741376 0.38593423
0.039999999 0.038033381 0.033997193 0.23852047 -0.14741376 0.38593423
0.039999999 0.03896812 0.033350613 0.23852047 -0.14741376 0.38593423
0.039999999 0.039906658 0.03270144 0.23852047 -0.14741376 0.38593423
0.039999999 0.040849023 0.032049656 0.23852047 -0.14741376 0.38593423
0.039999999 0.041795243 0.031395238 0.23852047 -0.14741376 0.38593423
0.039999999 0.042745344 0.030738171 0.23852047 -0.14741376 0.38593423
0.039999999 0.043699361 0.030078433 0.23852047 -0.14741376 0.38593423
0.039999999 0.044657312 0.029416006 0.23852047 -0.14741376 0.38593423
0.039999999 0.045619234 0.02875087 0.23852047 -0.14741376 0.38593423
0.039999999 0.046585158 0.028083004 0.23852047 -0.14741376 0.38593423
0.039999999 0.047555104 0.02741239 0.23852047 -0.14741376 0.38593423
0.039999999 0.048529111 0.026739005 0.23852047 -0.14741376 0.38593423
0.039999999 0.049507201 0.026062829 0.23852047 -0.14741376 0.38593423
0.039999999 0.050489411 0.025383843 0.23852047 -0.14741376 0.38593423
0.039999999 0.051475771 0.024702024 0.23852047 -0.14741376 0.38593423
0.026825881 0.065730654 0 0.23852047 -0.14741376 0.38593423
0.039999999 0.053461056 0.023329806 0.23852047 -0.14741376 0.38593423
0.039999999 0.054460045 0.022639362 0.23852047 -0.14741376 0.38593423
0.039999999 0.05546331 0.021946002 0.23852047 -0.14741376 0.38593423
0.028432466 0.068350978 0 0.23852047 -0.14741376 0.38593423
0.039999999 0.05748279 0.020550437 0.23852047 -0.14741376 0.38593423
0.039999999 0.058499072 0.01984819 0.23852047 -0.14741376 0.38593423
0.039999999 0.059519753 0.019142935 0.23852047 -0.14741376 0.38593423
0.039999999 0.060544878 0.018434649 0.23852047 -0.14741376 0.38593423
0.039999999 0.06157447 0.017723311 0.23852047 -0.14741376 0.38593423
0.039999999 0.06260857 0.017008895 0.23852047 -0.14741376 0.38593423
0.039999999 0.063647211 0.01629138 0.23852047 -0.14741376 0.38593423
0.039999999 0.065738253 0.014846951 0.23852047 -0.14741376 0.38593423
0.039999999 0.06679073 0.014119991 0.23852047 -0.14741376 0.38593423
0.039999999 0.067847878 0.013389833 0.23852047 -0.14741376 0.38593423
0.039999999 0.068909749 0.012656454 0.23852047 -0.14741376 0.38593423
0.039999999 0.069976382 0.011919828 0.23852047 -0.14741376 0.38593423
0.0340776 0.077565096 0 0.23852047 -0.14741376 0.38593423
0.039999999 0.072124042 0.010436735 0.23852047 -0.14741376 0.38593423
0.034887079 0.078887224 0 0.23852047 -0.14741376 0.38593423
0.039999999 0.074291177 0.0089403465 0.23852047 -0.14741376 0.38593423
0.039999999 0.075382136 0.0081871022 0.23852047 -0.14741376 0.38593423
0.039999999 0.076478079 0.0074304552 0.23852047 -0.14741376 0.38593423
0.039999999 0.077579051 0.0066703786 0.23852047 -0.14741376 0.38593423
0.039999999 0.078685075 0.0059068454 0.23852047 -0.14741376 0.38593423
0.039999999 0.079796202 0.0051398282 0.23852047 -0.14741376 0.38593423
0.00068639516 0 0.014925551 0.23852047 -0.14741376 0.38593423
0.0020506484 0 0.01646431 0.23852047 -0.14741376 0.38593423
0.0034036415 0 0.017990401 0.23852047 -0.14741376 0.38593423
0.0047455193 0 0.019503988 0.23852047 -0.14741376 0.38593423
0.0060764248 0 0.021005232 0.23852047 -0.14741376 0.38593423
0.0073964982 0 0.02249429 0.23852047 -0.14741376 0.38593423
0.0087058768 0 0.023971317 0.23852047 -0.14741376 0.38593423
0.010004696 0 0.025436465 0.23852047 -0.14741376 0.38593423
0.01129309 0 0.026889883 0.23852047 -0.14741376 0.38593423
0.012571189 0 0.028331721 0.23852047 -0.14741376 0.38593423
0.013839122 0 0.029762121 0.23852047 -0.14741376 0.38593423
0.015097015 0 0.031181227 0.23852047 -0.14741376 0.38593423
0.016344992 0 0.032589179 0.23852047 -0.14741376 0.38593423
0.017583178 0 0.033986118 0.23852047 -0.14741376 0.38593423
0.018811692 0 0.035372172 0.23852047 -0.14741376 0.38593423
0.020030651 0 0.036747482 0.23852047 -0.14741376 0.38593423
0.021240175 0 0.038112171 0.23852047 -0.14741376 0.38593423
0.022440376 0 0.039466377 0.23852047 -0.14741376 0.38593423
0.023126887 0.00034607333 0.039999999 0.23852047 -0.14741376 0.38593423
0.023480611 0.00091925415 0.039999999 0.23852047 -0.14741376 0.38593423
0.023834348 0.0014925023 0.039999999 0.23852047 -0.14741376 0.38593423
0.024188099 0.0020658206 0.039999999 0.23852047 -0.14741376 0.38593423
0.02454187 0.0026392119 0.039999999 0.23852047 -0.14741376 0.38593423
0.024895659 0.0032126789 0.039999999 0.23852047 -0.14741376 0.38593423
0.025249468 0.0037862249 0.039999999 0.23852047 -0.14741376 0.38593423
0.025603302 0.0043598521 0.039999999 0.23852047 -0.14741376 0.38593423
0.02595716 0.0049335635 0.039999999 0.23852047 -0.14741376 0.38593423
0.026311042 0.0055073625 0.039999999 0.23852047 -0.14741376 0.38593423
0.026664954 0.0060812514 0.039999999 0.23852047 -0.14741376 0.38593423
0.027018895 0.006655233 0.039999999 0.23852047 -0.14741376 0.38593423
0.027372869 0.00722931 0.039999999 0.23852047 -0.14741376 0.38593423
0.027726876 0.0078034862 0.039999999 0.23852047 -0.14741376 0.38593423
0.028080916 0.0083777634 0.039999999 0.23852047 -0.14741376 0.38593423
0.028434994 0.0089521445 0.039999999 0.23852047 -0.14741376 0.38593423
0.02878911 0.0095266337 0.039999999 0.23852047 -0.14741376 0.38593423
0.029143268 0.010101232 0.039999999 0.23852047 -0.14741376 0.38593423
0.029497467 0.010675943 0.039999999 0.23852047 -0.14741376 0.38593423
0.029851709 0.011250771 0.039999999 0.23852047 -0.14741376 0.38593423
0.030205997 0.011825716 0.039999999 0.23852047 -0.14741376 0.38593423
0.030560333 0.012400783 0.039999999 0.23852047 -0.14741376 0.38593423
0.030914716 0.012975974 0.039999999 0.23852047 -0.14741376 0.38593423
0.031269152 0.013551292 0.039999999 0.23852047 -0.14741376 0.38593423
0.031623639 0.01412674 0.039999999 0.23852047 -0.14741376 0.38593423
0.031978182 0.014702322 0.039999999 0.23852047 -0.14741376 0.38593423
0.032332782 0.015278039 0.039999999 0.23852047 -0.14741376 0.38593423
0.032687437 0.015853895 0.039999999 0.23852047 -0.14741376 0.38593423
0.033042151 0.016429892 0.039999999 0.23852047 -0.14741376 0.38593423
0.03339693 0.017006032 0.039999999 0.23852047 -0.14741376 0.38593423
0.033751767 0.017582322 0.039999999 0.23852047 -0.14741376 0.38593423
0.034106676 0.01815876 0.039999999 0.23852047 -0.14741376 0.38593423
0.034461647 0.018735351 0.039999999 0.23852047 -0.14741376 0.38593423
0.034816686 0.019312099 0.039999999 0.23852047 -0.14741376 0.38593423
0.035171796 0.019889006 0.039999999 0.23852047 -0.14741376 0.38593423
0.03552698 0.020466074 0.039999999 0.23852047 -0.14741376 0.38593423
0.035882235 0.021043308 0.039999999 0.23852047 -0.14741376 0.38593423
0.036237568 0.021620708 0.039999999 0.23852047 -0.14741376 0.38593423
0.036592975 0.022198278 0.039999999 0.23852047 -0.14741376 0.38593423
0.036948465 0.022776023 0.039999999 0.23852047 -0.14741376 0.38593423
0.037304033 0.023353944 0.039999999 0.23852047 -0.14741376 0.38593423
0.037659682 0.023932043 0.039999999 0.23852047 -0.14741376 0.38593423
0.038015421 0.024510326 0.039999999 0.23852047 -0.14741376 0.38593423
0.038371243 0.025088793 0.039999999 0.23852047 -0.14741376 0.38593423
0.038727153 0.025667448 0.039999999 0.23852047 -0.14741376 0.38593423
0.039083153 0.026246294 0.039999999 0.23852047 -0.14741376 0.38593423
0.039439246 0.026825333 0.039999999 0.23852047 -0.14741376 0.38593423
0.039795432 0.027404571 0.039999999 0.23852047 -0.14741376 0.38593423
0.039999999 0.02811815 0.039735429 0.23852047 -0.14741376 0.38593423
0.039999999 0.029015195 0.039112348 0.23852047 -0.14741376 0.38593423
0.039999999 0.029915769 0.03848685 0.23852047 -0.14741376 0.38593423
0.039999999 0.030819898 0.037858911 0.23852047 -0.14741376 0.38593423
0.039999999 0.031727608 0.037228517 0.23852047 -0.14741376 0.38593423
0.039999999 0.032638922 0.03659565 0.23852047 -0.14741376 0.38593423
0.039999999 0.033553872 0.035960294 0.23852047 -0.14741376 0.38593423
0.039999999 0.034472477 0.035322431 0.23852047 -0.14741376 0.38593423
0.039999999 0.035394765 0.034682039 0.23852047 -0.14741376 0.38593423
0.039999999 0.036320765 0.034039102 0.23852047 -0.14741376 0.38593423
0.039999999 0.037250504 0.033393603 0.23852047 -0.14741376 0.38593423
0.039999999 0.038184002 0.032745522 0.23852047 -0.14741376 0.38593423
0.039999999 0.039121296 0.03209484 0.23852047 -0.14741376 0.38593423
0.039999999 0.040062409 0.03144154 0.23852047 -0.14741376 0.38593423
0.039999999 0.04100737 0.030785602 0.23852047 -0.14741376 0.38593423
0.039999999 0.041956205 0.030127004 0.23852047 -0.14741376 0.38593423
0.039999999 0.04290894 0.029465731 0.23852047 -0.14741376 0.38593423
0.039999999 0.043865614 0.02880176 0.23852047 -0.14741376 0.38593423
0.039999999 0.044826243 0.028135072 0.23852047 -0.14741376 0.38593423
0.039999999 0.045790862 0.027465649 0.23852047 -0.14741376 0.38593423
0.039999999 0.046759505 0.026793467 0.23852047 -0.14741376 0.38593423
0.039999999 0.047732193 0.026118509 0.23852047 -0.14741376 0.38593423
0.039999999 0.04870896 0.025440753 0.23852047 -0.14741376 0.38593423
0.039999999 0.049689841 0.024760177 0.23852047 -0.14741376 0.38593423
0.039999999 0.050674859 0.024076764 0.23852047 -0.14741376 0.38593423
0.039999999 0.051664047 0.023390487 0.23852047 -0.14741376 0.38593423
0.039999999 0.052657437 0.02270133 0.23852047 -0.14741376 0.38593423
0.039999999 0.053655062 0.022009268 0.23852047 -0.14741376 0.38593423
0.028395256 0.06646923 0 0.23852047 -0.14741376 0.38593423
0.039999999 0.055663142 0.020616343 0.23852047 -0.14741376 0.38593423
0.039999999 0.056673657 0.019915437 0.23852047 -0.14741376 0.38593423
0.039999999 0.057688538 0.019211538 0.23852047 -0.14741376 0.38593423
0.039999999 0.058707815 0.018504625 0.23852047 -0.14741376 0.38593423
0.039999999 0.059731517 0.017794672 0.23852047 -0.14741376 0.38593423
0.039999999 0.060759686 0.017081657 0.23852047 -0.14741376 0.38593423
0.039999999 0.061792351 0.016365558 0.23852047 -0.14741376 0.38593423
0.031611603 0.071713284 0 0.23852047 -0.14741376 0.38593423
0.039999999 0.063871309 0.014924011 0.23852047 -0.14741376 0.38593423
0.039999999 0.064917669 0.014198515 0.23852047 -0.14741376 0.38593423
0.039999999 0.06596867 0.013469837 0.23852047 -0.14741376 0.38593423
0.039999999 0.067024343 0.012737953 0.23852047 -0.14741376 0.38593423
0.039999999 0.068084724 0.01200284 0.23852047 -0.14741376 0.38593423
0.034031469 0.075660847 0 0.23852047 -0.14741376 0.38593423
0.039999999 0.070219755 0.010522821 0.23852047 -0.14741376 0.38593423
0.039999999 0.071294487 0.0097778644 0.23852047 -0.14741376 0.38593423
0.039999999 0.072374068 0.0090295756 0.23852047 -0.14741376 0.38593423
0.039999999 0.073458545 0.0082779285 0.23852047 -0.14741376 0.38593423
0.039999999 0.074547961 0.0075228969 0.23852047 -0.14741376 0.38593423
0.036458362 0.079621702 0 0.23852047 -0.14741376 0.38593423
0.039999999 0.07674174 0.006002571 0.23852047 -0.14741376 0.38593423
0.039999999 0.077846192 0.0052372226 0.23852047 -0.14741376 0.38593423
0.039999999 0.078955725 0.0044683814 0.23852047 -0.14741376 0.38593423
0.00068782788 0 0.013725921 0.23852047 -0.14741376 0.38593423
0.0020549109 0 0.015272861 0.23852047 -0.14741376 0.38593423
0.003410687 2.7755576e-17 0.016807038 0.23852047 -0.14741376 0.38593423
0.0047553023 0 0.018328615 0.23852047 -0.14741376 0.38593423
0.0060889004 0 0.019837754 0.23852047 -0.14741376 0.38593423
0.007411622 0 0.021334616 0.23852047 -0.14741376 0.38593423
0.0087236054 0 0.022819355 0.23852047 -0.14741376 0.38593423
0.010024988 0 0.024292128 0.23852047 -0.14741376 0.38593423
0.011315903 0 0.025753083 0.23852047 -0.14741376 0.38593423
0.012596481 0 0.027202372 0.23852047 -0.14741376 0.38593423
0.013866854 0 0.028640136 0.23852047 -0.14741376 0.38593423
0.015127148 0 0.030066526 0.23852047 -0.14741376 0.38593423
0.016377488 0 0.031481676 0.23852047 -0.14741376 0.38593423
0.017617999 0 0.03288573 0.23852047 -0.14741376 0.38593423
0.018848799 0 0.034278825 0.23852047 -0.14741376 0.38593423
0.020070009 0 0.035661094 0.23852047 -0.14741376 0.38593423
0.021281747 0 0.037032668 0.23852047 -0.14741376 0.38593423
0.022484127 0 0.03839368 0.23852047 -0.14741376 0.38593423
0.023677265 0 0.039744258 0.23852047 -0.14741376 0.38593423
0.024189327 0.0004636056 0.039999999 0.23852047 -0.14741376 0.38593423
0.024542695 0.0010361762 0.039999999 0.23852047 -0.14741376 0.38593423
0.024896078 0.0016088159 0.039999999 0.23852047 -0.14741376 0.38593423
0.025249483 0.0021815272 0.039999999 0.23852047 -0.14741376 0.38593423
0.025602907 0.0027543129 0.039999999 0.23852047 -0.14741376 0.38593423
0.025956353 0.003327176 0.039999999 0.23852047 -0.14741376 0.38593423
0.026309825 0.0039001193 0.039999999 0.23852047 -0.14741376 0.38593423
0.026663324 0.0044731461 0.039999999 0.23852047 -0.14741376 0.38593423
0.027016848 0.0050462582 0.039999999 0.23852047 -0.14741376 0.38593423
0.027370404 0.0056194589 0.039999999 0.23852047 -0.14741376 0.38593423
0.02772399 0.0061927517 0.039999999 0.23852047 -0.14741376 0.38593423
0.02807761 0.0067661381 0.039999999 0.23852047 -0.14741376 0.38593423
0.028431265 0.0073396224 0.039999999 0.23852047 -0.14741376 0.38593423
0.028784957 0.0079132067 0.039999999 0.23852047 -0.14741376 0.38593423
0.029138686 0.008486893 0.039999999 0.23852047 -0.14741376 0.38593423
0.029492456 0.0090606865 0.039999999 0.23852047 -0.14741376 0.38593423
0.029846268 0.009634587 0.039999999 0.23852047 -0.14741376 0.38593423
0.030200124 0.0102086 0.039999999 0.23852047 -0.14741376 0.38593423
0.030554025 0.010782727 0.039999999 0.23852047 -0.14741376 0.38593423
0.030907972 0.011356971 0.039999999 0.23852047 -0.14741376 0.38593423
0.031261969 0.011931335 0.039999999 0.23852047 -0.14741376 0.38593423
0.031616017 0.012505822 0.039999999 0.23852047 -0.14741376 0.38593423
0.031970117 0.013080434 0.039999999 0.23852047 -0.14741376 0.38593423
0.032324269 0.013655175 0.039999999 0.23852047 -0.14741376 0.38593423
0.032678481 0.014230047 0.039999999 0.23852047 -0.14741376 0.38593423
0.033032745 0.014805054 0.039999999 0.23852047 -0.14741376 0.38593423
0.033387072 0.015380198 0.039999999 0.23852047 -0.14741376 0.38593423
0.033741463 0.015955482 0.039999999 0.23852047 -0.14741376 0.38593423
0.034095913 0.016530909 0.039999999 0.23852047 -0.14741376 0.38593423
0.034450427 0.017106481 0.039999999 0.23852047 -0.14741376 0.38593423
0.034805011 0.017682202 0.039999999 0.23852047 -0.14741376 0.38593423
0.035159662 0.018258076 0.039999999 0.23852047 -0.14741376 0.38593423
0.035514381 0.018834103 0.039999999 0.23852047 -0.14741376 0.38593423
0.035869174 0.019410288 0.039999999 0.23852047 -0.14741376 0.38593423
0.036224037 0.019986631 0.039999999 0.23852047 -0.14741376 0.38593423
0.036578979 0.020563141 0.039999999 0.23852047 -0.14741376 0.38593423
0.036933996 0.021139814 0.039999999 0.23852047 -0.14741376 0.38593423
0.037289094 0.021716656 0.039999999 0.23852047 -0.14741376 0.38593423
0.037644271 0.02229367 0.039999999 0.23852047 -0.14741376 0.38593423
0.037999533 0.022870859 0.039999999 0.23852047 -0.14741376 0.38593423
0.038354877 0.023448227 0.039999999 0.23852047 -0.14741376 0.38593423
0.038710307 0.024025774 0.039999999 0.23852047 -0.14741376 0.38593423
0.039065823 0.024603505 0.039999999 0.23852047 -0.14741376 0.38593423
0.039421432 0.025181422 0.039999999 0.23852047 -0.14741376 0.38593423
0.03977713 0.025759527 0.039999999 0.23852047 -0.14741376 0.38593423
0.039999999 0.026454242 0.039768219 0.23852047 -0.14741376 0.38593423
0.039999999 0.027346626 0.039146114 0.23852047 -0.14741376 0.38593423
0.039999999 0.028242508 0.038521603 0.23852047 -0.14741376 0.38593423
0.039999999 0.029141912 0.037894662 0.23852047 -0.14741376 0.38593423
0.039999999 0.030044865 0.037265282 0.23852047 -0.14741376 0.38593423
0.039999999 0.03095139 0.036633436 0.23852047 -0.14741376 0.38593423
0.039999999 0.031861514 0.035999112 0.23852047 -0.14741376 0.38593423
0.039999999 0.032775264 0.035362288 0.23852047 -0.14741376 0.38593423
0.039999999 0.033692662 0.03472295 0.23852047 -0.14741376 0.38593423
0.039999999 0.03461374 0.034081079 0.23852047 -0.14741376 0.38593423
0.039999999 0.035538517 0.03343666 0.23852047 -0.14741376 0.38593423
0.039999999 0.036467027 0.032789666 0.23852047 -0.14741376 0.38593423
0.039999999 0.037399292 0.032140084 0.23852047 -0.14741376 0.38593423
0.039999999 0.038335342 0.031487897 0.23852047 -0.14741376 0.38593423
0.039999999 0.039275203 0.030833082 0.23852047 -0.14741376 0.38593423
0.039999999 0.040218905 0.030175623 0.23852047 -0.14741376 0.38593423
0.039999999 0.041166473 0.029515497 0.23852047 -0.14741376 0.38593423
0.039999999 0.042117935 0.028852688 0.23852047 -0.14741376 0.38593423
0.039999999 0.043073323 0.028187176 0.23852047 -0.14741376 0.38593423
0.039999999 0.044032663 0.027518937 0.23852047 -0.14741376 0.38593423
0.039999999 0.044995986 0.026847957 0.23852047 -0.14741376 0.38593423
0.039999999 0.045963321 0.026174212 0.23852047 -0.14741376 0.38593423
0.039999999 0.046934698 0.025497681 0.23852047 -0.14741376 0.38593423
0.039999999 0.047910143 0.024818346 0.23852047 -0.14741376 0.38593423
0.039999999 0.048889689 0.024136184 0.23852047 -0.14741376 0.38593423
0.027156536 0.062637039 0 0.23852047 -0.14741376 0.38593423
0.039999999 0.05086121 0.022763295 0.23852047 -0.14741376 0.38593423
0.039999999 0.051853247 0.022072528 0.23852047 -0.14741376 0.38593423
0.039999999 0.052849505 0.021378847 0.23852047 -0.14741376 0.38593423
0.039999999 0.053850025 0.020682234 0.23852047 -0.14741376 0.38593423
0.039999999 0.054854829 0.019982664 0.23852047 -0.14741376 0.38593423
0.039999999 0.055863958 0.019280117 0.23852047 -0.14741376 0.38593423
0.039999999 0.056877438 0.018574568 0.23852047 -0.14741376 0.38593423
0.039999999 0.057895306 0.017865995 0.23852047 -0.14741376 0.38593423
0.039999999 0.058917597 0.017154377 0.23852047 -0.14741376 0.38593423
0.039999999 0.059944339 0.016439689 0.23852047 -0.14741376 0.38593423
0.039999999 0.060975567 0.015721908 0.23852047 -0.14741376 0.38593423
0.039999999 0.06201132 0.015001009 0.23852047 -0.14741376 0.38593423
0.039999999 0.063051634 0.01427697 0.23852047 -0.14741376 0.38593423
0.039999999 0.064096533 0.013549767 0.23852047 -0.14741376 0.38593423
0.039999999 0.065146059 0.012819373 0.23852047 -0.14741376 0.38593423
0.039999999 0.066200249 0.012085766 0.23852047 -0.14741376 0.38593423
0.039999999 0.06725914 0.011348919 0.23852047 -0.14741376 0.38593423
0.039999999 0.06832277 0.010608808 0.23852047 -0.14741376 0.38593423
0.039999999 0.069391169 0.0098654078 0.23852047 -0.14741376 0.38593423
0.039999999 0.070464373 0.0091186929 0.23852047 -0.14741376 0.38593423
0.039999999 0.071542434 0.0083686356 0.23852047 -0.14741376 0.38593423
0.039999999 0.072625369 0.0076152119 0.23852047 -0.14741376 0.38593423
0.039999999 0.073713236 0.0068583935 0.23852047 -0.14741376 0.38593423
0.039999999 0.074806064 0.0060981549 0.23852047 -0.14741376 0.38593423
0.039999999 0.075903893 0.0053344686 0.23852047 -0.14741376 0.38593423
0.039999999 0.077006765 0.004567307 0.23852047 -0.14741376 0.38593423
0.039999999 0.078114711 0.0037966426 0.23852047 -0.14741376 0.38593423
0.039999999 0.079227783 0.0030224482 0.23852047 -0.14741376 0.38593423
0.00068926648 0 0.012521334 0.23852047 -0.14741376 0.38593423
0.002059191 0 0.01407651 0.23852047 -0.14741376 0.38593423
0.0034177615 0 0.015618825 0.23852047 -0.14741376 0.38593423
0.0047651255 0 0.017148444 0.23852047 -0.14741376 0.38593423
0.0061014262 0 0.018665534 0.23852047 -0.14741376 0.38593423
0.0074268067 0 0.020170249 0.23852047 -0.14741376 0.38593423
0.0087414058 0 0.021662753 0.23852047 -0.14741376 0.38593423
0.010045361 0 0.023143198 0.23852047 -0.14741376 0.38593423
0.011338806 0 0.024611739 0.23852047 -0.14741376 0.38593423
0.012621875 0 0.026068525 0.23852047 -0.14741376 0.38593423
0.013894697 0 0.027513703 0.23852047 -0.14741376 0.38593423
0.015157401 0 0.02894742 0.23852047 -0.14741376 0.38593423
0.016410111 0 0.030369818 0.23852047 -0.14741376 0.38593423
0.017652955 0 0.031781036 0.23852047 -0.14741376 0.38593423
0.01888605 0 0.033181213 0.23852047 -0.14741376 0.38593423
0.020109519 0 0.034570485 0.23852047 -0.14741376 0.38593423
0.02132348 0 0.035948988 0.23852047 -0.14741376 0.38593423
0.022528049 0 0.037316848 0.23852047 -0.14741376 0.38593423
0.023723338 0 0.038674198 0.23852047 -0.14741376 0.38593423
0.024896391 9.0204658e-06 0.039999999 0.23852047 -0.14741376 0.38593423
0.025249388 0.00058091525 0.039999999 0.23852047 -0.14741376 0.38593423
0.025602406 0.0011528777 0.039999999 0.23852047 -0.14741376 0.38593423
0.025955444 0.0017249106 0.039999999 0.23852047 -0.14741376 0.38593423
0.026308505 0.0022970168 0.039999999 0.23852047 -0.14741376 0.38593423
0.02666159 0.002869199 0.039999999 0.23852047 -0.14741376 0.38593423
0.027014701 0.0034414602 0.039999999 0.23852047 -0.14741376 0.38593423
0.02736784 0.0040138029 0.039999999 0.23852047 -0.14741376 0.38593423
0.027721006 0.0045862305 0.039999999 0.23852047 -0.14741376 0.38593423
0.028074207 0.0051587452 0.039999999 0.23852047 -0.14741376 0.38593423
0.028427439 0.0057313503 0.039999999 0.23852047 -0.14741376 0.38593423
0.028780706 0.006304048 0.039999999 0.23852047 -0.14741376 0.38593423
0.029134011 0.0068768421 0.039999999 0.23852047 -0.14741376 0.38593423
0.029487353 0.0074497345 0.039999999 0.23852047 -0.14741376 0.38593423
0.029840736 0.0080227284 0.039999999 0.23852047 -0.14741376 0.38593423
0.03019416 0.008595827 0.039999999 0.23852047 -0.14741376 0.38593423
0.030547626 0.0091690328 0.039999999 0.23852047 -0.14741376 0.38593423
0.030901138 0.0097423485 0.039999999 0.23852047 -0.14741376 0.38593423
0.031254698 0.010315777 0.039999999 0.23852047 -0.14741376 0.38593423
0.031608306 0.010889322 0.039999999 0.23852047 -0.14741376 0.38593423
0.031961966 0.011462984 0.039999999 0.23852047 -0.14741376 0.38593423
0.032315675 0.012036768 0.039999999 0.23852047 -0.14741376 0.38593423
0.03266944 0.012610677 0.039999999 0.23852047 -0.14741376 0.38593423
0.033023261 0.013184712 0.039999999 0.23852047 -0.14741376 0.38593423
0.033377141 0.013758878 0.039999999 0.23852047 -0.14741376 0.38593423
0.033731077 0.014333176 0.039999999 0.23852047 -0.14741376 0.38593423
0.034085076 0.014907611 0.039999999 0.23852047 -0.14741376 0.38593423
0.034439135 0.015482183 0.039999999 0.23852047 -0.14741376 0.38593423
0.034793261 0.016056897 0.039999999 0.23852047 -0.14741376 0.38593423
0.035147455 0.016631756 0.039999999 0.23852047 -0.14741376 0.38593423
0.035501715 0.01720676 0.039999999 0.23852047 -0.14741376 0.38593423
0.035856042 0.017781917 0.039999999 0.23852047 -0.14741376 0.38593423
0.036210444 0.018357225 0.039999999 0.23852047 -0.14741376 0.38593423
0.036564916 0.018932689 0.039999999 0.23852047 -0.14741376 0.38593423
0.036919467 0.019508312 0.039999999 0.23852047 -0.14741376 0.38593423
0.037274092 0.020084096 0.039999999 0.23852047 -0.14741376 0.38593423
0.0376288 0.020660045 0.039999999 0.23852047 -0.14741376 0.38593423
0.037983585 0.021236161 0.039999999 0.23852047 -0.14741376 0.38593423
0.038338453 0.021812446 0.039999999 0.23852047 -0.14741376 0.38593423
0.038693402 0.022388907 0.039999999 0.23852047 -0.14741376 0.38593423
0.039048441 0.022965543 0.039999999 0.23852047 -0.14741376 0.38593423
0.039403565 0.023542356 0.039999999 0.23852047 -0.14741376 0.38593423
0.039758779 0.024119353 0.039999999 0.23852047 -0.14741376 0.38593423
0.039999999 0.024795497 0.039801087 0.23852047 -0.14741376 0.38593423
0.039999999 0.02568326 0.039179958 0.23852047 -0.14741376 0.38593423
0.039999999 0.026574489 0.038556434 0.23852047 -0.14741376 0.38593423
0.039999999 0.027469208 0.037930489 0.23852047 -0.14741376 0.38593423
0.039999999 0.028367445 0.037302114 0.23852047 -0.14741376 0.38593423
0.039999999 0.029269222 0.036671285 0.23852047 -0.14741376 0.38593423
0.039999999 0.030174565 0.036037989 0.23852047 -0.14741376 0.38593423
0.039999999 0.0310835 0.035402205 0.23852047 -0.14741376 0.38593423
0.039999999 0.031996049 0.034763917 0.23852047 -0.14741376 0.38593423
0.039999999 0.032912247 0.034123112 0.23852047 -0.14741376 0.38593423
0.039999999 0.03383211 0.033479761 0.23852047 -0.14741376 0.38593423
0.039999999 0.03475567 0.032833856 0.23852047 -0.14741376 0.38593423
0.039999999 0.03568295 0.032185372 0.23852047 -0.14741376 0.38593423
0.039999999 0.036613982 0.031534292 0.23852047 -0.14741376 0.38593423
0.039999999 0.037548792 0.030880598 0.23852047 -0.14741376 0.38593423
0.039999999 0.038487401 0.030224271 0.23852047 -0.14741376 0.38593423
0.039999999 0.039429847 0.029565291 0.23852047 -0.14741376 0.38593423
0.039999999 0.040376149 0.028903639 0.23852047 -0.14741376 0.38593423
0.039999999 0.04132634 0.028239295 0.23852047 -0.14741376 0.38593423
0.039999999 0.042280447 0.027572241 0.23852047 -0.14741376 0.38593423
0.039999999 0.043238498 0.026902456 0.23852047 -0.14741376 0.38593423
0.039999999 0.044200525 0.026229918 0.23852047 -0.14741376 0.38593423
0.039999999 0.045166552 0.025554609 0.23852047 -0.14741376 0.38593423
0.039999999 0.046136618 0.024876507 0.23852047 -0.14741376 0.38593423
0.039999999 0.04711074 0.024195593 0.23852047 -0.14741376 0.38593423
0.039999999 0.04808896 0.023511846 0.23852047 -0.14741376 0.38593423
0.039999999 0.049071301 0.022825243 0.23852047 -0.14741376 0.38593423
0.039999999 0.050057799 0.022135762 0.23852047 -0.14741376 0.38593423
0.039999999 0.051048476 0.021443386 0.23852047 -0.14741376 0.38593423
0.039999999 0.052043375 0.020748088 0.23852047 -0.14741376 0.38593423
0.02912141 0.06402719 0 0.23852047 -0.14741376 0.38593423
0.039999999 0.054045949 0.019348649 0.23852047 -0.14741376 0.38593423
0.039999999 0.055053685 0.018644461 0.23852047 -0.14741376 0.38593423
0.039999999 0.056065772 0.017937263 0.23852047 -0.14741376 0.38593423
0.039999999 0.057082232 0.017227035 0.23852047 -0.14741376 0.38593423
0.039999999 0.058103107 0.016513752 0.23852047 -0.14741376 0.38593423
0.031527173 0.067943618 0 0.23852047 -0.14741376 0.38593423
0.039999999 0.060158223 0.015077929 0.23852047 -0.14741376 0.38593423
0.039999999 0.061192531 0.014355342 0.23852047 -0.14741376 0.38593423
0.039999999 0.063274831 0.012900695 0.23852047 -0.14741376 0.38593423
0.039999999 0.064322889 0.012168587 0.23852047 -0.14741376 0.38593423
0.039999999 0.065375604 0.011433257 0.23852047 -0.14741376 0.38593423
0.039999999 0.066433005 0.010694679 0.23852047 -0.14741376 0.38593423
0.039999999 0.067495137 0.0099528274 0.23852047 -0.14741376 0.38593423
0.039999999 0.068562023 0.009207678 0.23852047 -0.14741376 0.38593423
0.039999999 0.069633715 0.0084592048 0.23852047 -0.14741376 0.38593423
0.039999999 0.070710249 0.0077073816 0.23852047 -0.14741376 0.38593423
0.039999999 0.071791649 0.0069521819 0.23852047 -0.14741376 0.38593423
0.039999999 0.072877966 0.0061935792 0.23852047 -0.14741376 0.38593423
0.039999999 0.073969238 0.0054315468 0.23852047 -0.14741376 0.38593423
0.039999999 0.075065501 0.0046660574 0.23852047 -0.14741376 0.38593423
0.039999999 0.076166794 0.0038970839 0.23852047 -0.14741376 0.38593423
0.038379621 0.079107113 0 0.23852047 -0.14741376 0.38593423
0.039999999 0.07838463 0.0023485734 0.23852047 -0.14741376 0.38593423
0.039999999 0.079501264 0.0015689803 0.23852047 -0.14741376 0.38593423
0 0.0004281227 0.010223766 0.23852047 -0.14741376 0.38593423
2.7755576e-17 0.0012864354 0.0096196476 0.23852047 -0.14741376 0.38593423
0.0034248652 0 0.014425728 0.23852047 -0.14741376 0.38593423
0.0047749882 2.7755576e-17 0.015963443 0.23852047 -0.14741376 0.38593423
0 0.0038780689 0.0077956938 0.23852047 -0.14741376 0.38593423
0.0074420534 0 0.019001156 0.23852047 -0.14741376 0.38593423
0.0087592779 0 0.020501474 0.23852047 -0.14741376 0.38593423
0.010065815 0 0.021989644 0.23852047 -0.14741376 0.38593423
0.011361801 0 0.023465818 0.23852047 -0.14741376 0.38593423
0.012647369 0 0.024930151 0.23852047 -0.14741376 0.38593423
0.01392265 0 0.026382791 0.23852047 -0.14741376 0.38593423
0.015187772 0 0.027823882 0.23852047 -0.14741376 0.38593423
0.016442863 0 0.02925357 0.23852047 -0.14741376 0.38593423
0.017688047 0 0.030671999 0.23852047 -0.14741376 0.38593423
0.018923448 0 0.032079305 0.23852047 -0.14741376 0.38593423
0.020149184 0 0.033475626 0.23852047 -0.14741376 0.38593423
0.021365376 0 0.034861095 0.23852047 -0.14741376 0.38593423
0.022572139 0 0.03623585 0.23852047 -0.14741376 0.38593423
0.023769589 0 0.037600014 0.23852047 -0.14741376 0.38593423
0.024957838 0 0.038953725 0.23852047 -0.14741376 0.38593423
0.025954438 0.00012671338 0.039999999 0.23852047 -0.14741376 0.38593423
0.026307089 0.00069800031 0.039999999 0.23852047 -0.14741376 0.38593423
0.026659762 0.0012693565 0.039999999 0.23852047 -0.14741376 0.38593423
0.02701246 0.0018407846 0.039999999 0.23852047 -0.14741376 0.38593423
0.027365183 0.0024122875 0.039999999 0.23852047 -0.14741376 0.38593423
0.027717935 0.0029838681 0.039999999 0.23852047 -0.14741376 0.38593423
0.028070714 0.0035555291 0.039999999 0.23852047 -0.14741376 0.38593423
0.028423527 0.0041272733 0.039999999 0.23852047 -0.14741376 0.38593423
0.028776372 0.0046991035 0.039999999 0.23852047 -0.14741376 0.38593423
0.02912925 0.0052710227 0.039999999 0.23852047 -0.14741376 0.38593423
0.029482165 0.0058430335 0.039999999 0.23852047 -0.14741376 0.38593423
0.02983512 0.006415139 0.039999999 0.23852047 -0.14741376 0.38593423
0.030188113 0.0069873417 0.039999999 0.23852047 -0.14741376 0.38593423
0.030541148 0.0075596445 0.039999999 0.23852047 -0.14741376 0.38593423
0.030894227 0.0081320507 0.039999999 0.23852047 -0.14741376 0.38593423
0.031247351 0.0087045627 0.039999999 0.23852047 -0.14741376 0.38593423
0.03160052 0.0092771826 0.039999999 0.23852047 -0.14741376 0.38593423
0.031953741 0.0098499143 0.039999999 0.23852047 -0.14741376 0.38593423
0.03230701 0.010422761 0.039999999 0.23852047 -0.14741376 0.38593423
0.032660332 0.010995724 0.039999999 0.23852047 -0.14741376 0.38593423
0.033013705 0.011568808 0.039999999 0.23852047 -0.14741376 0.38593423
0.033367138 0.012142014 0.039999999 0.23852047 -0.14741376 0.38593423
0.033720624 0.012715345 0.039999999 0.23852047 -0.14741376 0.38593423
0.034074172 0.013288806 0.039999999 0.23852047 -0.14741376 0.38593423
0.034427781 0.013862398 0.039999999 0.23852047 -0.14741376 0.38593423
0.034781449 0.014436124 0.039999999 0.23852047 -0.14741376 0.38593423
0.035135183 0.015009987 0.039999999 0.23852047 -0.14741376 0.38593423
0.035488985 0.01558399 0.039999999 0.23852047 -0.14741376 0.38593423
0.035842855 0.016158136 0.039999999 0.23852047 -0.14741376 0.38593423
0.036196791 0.016732428 0.039999999 0.23852047 -0.14741376 0.38593423
0.036550801 0.017306868 0.039999999 0.23852047 -0.14741376 0.38593423
0.036904883 0.017881459 0.039999999 0.23852047 -0.14741376 0.38593423
0.037259039 0.018456204 0.039999999 0.23852047 -0.14741376 0.38593423
0.037613273 0.019031107 0.039999999 0.23852047 -0.14741376 0.38593423
0.037967585 0.019606169 0.039999999 0.23852047 -0.14741376 0.38593423
0.038321979 0.020181395 0.039999999 0.23852047 -0.14741376 0.38593423
0.038676452 0.020756787 0.039999999 0.23852047 -0.14741376 0.38593423
0.03903101 0.021332348 0.039999999 0.23852047 -0.14741376 0.38593423
0.039385654 0.021908078 0.039999999 0.23852047 -0.14741376 0.38593423
0.039740384 0.022483986 0.039999999 0.23852047 -0.14741376 0.38593423
0.039999999 0.023141861 0.039834023 0.23852047 -0.14741376 0.38593423
0.039999999 0.024025043 0.039213866 0.23852047 -0.14741376 0.38593423
0.039999999 0.024911659 0.038591322 0.23852047 -0.14741376 0.38593423
0.039999999 0.025801737 0.037966371 0.23852047 -0.14741376 0.38593423
0.039999999 0.026695296 0.037338994 0.23852047 -0.14741376 0.38593423
0.039999999 0.027592365 0.036709182 0.23852047 -0.14741376 0.38593423
0.039999999 0.028492969 0.036076911 0.23852047 -0.14741376 0.38593423
0.039999999 0.02939713 0.035442166 0.23852047 -0.14741376 0.38593423
0.039999999 0.030304875 0.034804925 0.23852047 -0.14741376 0.38593423
0.039999999 0.03121623 0.034165174 0.23852047 -0.14741376 0.38593423
0.039999999 0.032131221 0.033522896 0.23852047 -0.14741376 0.38593423
0.039999999 0.033049878 0.032878071 0.23852047 -0.14741376 0.38593423
0.039999999 0.033972219 0.032230679 0.23852047 -0.14741376 0.38593423
0.039999999 0.034898274 0.031580705 0.23852047 -0.14741376 0.38593423
0.039999999 0.035828073 0.030928129 0.23852047 -0.14741376 0.38593423
0.039999999 0.036761642 0.030272931 0.23852047 -0.14741376 0.38593423
0.039999999 0.037699003 0.029615091 0.23852047 -0.14741376 0.38593423
0.039999999 0.03864019 0.028954593 0.23852047 -0.14741376 0.38593423
0.039999999 0.039585229 0.028291415 0.23852047 -0.14741376 0.38593423
0.039999999 0.04053415 0.027625538 0.23852047 -0.14741376 0.38593423
0.039999999 0.041486979 0.026956944 0.23852047 -0.14741376 0.38593423
0.039999999 0.042443741 0.026285611 0.23852047 -0.14741376 0.38593423
0.039999999 0.043404471 0.025611518 0.23852047 -0.14741376 0.38593423
0.039999999 0.044369198 0.024934648 0.23852047 -0.14741376 0.38593423
0.039999999 0.045337949 0.024254976 0.23852047 -0.14741376 0.38593423
0.039999999 0.046310756 0.023572484 0.23852047 -0.14741376 0.38593423
0.039999999 0.047287647 0.022887152 0.23852047 -0.14741376 0.38593423
0.039999999 0.04826865 0.022198956 0.23852047 -0.14741376 0.38593423
0.02828363 0.060860816 0 0.23852047 -0.14741376 0.38593423
0.039999999 0.050243128 0.020813892 0.23852047 -0.14741376 0.38593423
0.039999999 0.051236667 0.020116979 0.23852047 -0.14741376 0.38593423
0.039999999 0.052234441 0.019417118 0.23852047 -0.14741376 0.38593423
0.029882986 0.063462041 0 0.23852047 -0.14741376 0.38593423
0.039999999 0.054242842 0.018008457 0.23852047 -0.14741376 0.38593423
0.039999999 0.055253528 0.017299615 0.23852047 -0.14741376 0.38593423
0.031084241 0.065416172 0 0.23852047 -0.14741376 0.38593423
0.039999999 0.057288047 0.015872784 0.23852047 -0.14741376 0.38593423
0.039999999 0.058311943 0.015154752 0.23852047 -0.14741376 0.38593423
0.039999999 0.059340309 0.01443361 0.23852047 -0.14741376 0.38593423
0.039999999 0.06037318 0.013709335 0.23852047 -0.14741376 0.38593423
0.039999999 0.061410587 0.012981902 0.23852047 -0.14741376 0.38593423
0.039999999 0.06245257 0.012251287 0.23852047 -0.14741376 0.38593423
0.039999999 0.06349916 0.011517466 0.23852047 -0.14741376 0.38593423
0.039999999 0.064550392 0.010780414 0.23852047 -0.14741376 0.38593423
0.039999999 0.065606311 0.010040105 0.23852047 -0.14741376 0.38593423
0.039999999 0.066666946 0.009296515 0.23852047 -0.14741376 0.38593423
0.039999999 0.067732327 0.0085496185 0.23852047 -0.14741376 0.38593423
0.039999999 0.068802506 0.0077993888 0.23852047 -0.14741376 0.38593423
0.039999999 0.069877505 0.0070457999 0.23852047 -0.14741376 0.38593423
0.039999999 0.070957378 0.006288826 0.23852047 -0.14741376 0.38593423
0.039999999 0.072042152 0.0055284402 0.23852047 -0.14741376 0.38593423
0.039999999 0.073131867 0.0047646156 0.23852047 -0.14741376 0.38593423
0.039999999 0.074226566 0.003997325 0.23852047 -0.14741376 0.38593423
0.039999999 0.075326286 0.0032265407 0.23852047 -0.14741376 0.38593423
0.039999999 0.076431058 0.0024522357 0.23852047 -0.14741376 0.38593423
0.039999999 0.077540942 0.0016743812 0.23852047 -0.14741376 0.38593423
0.039999999 0.079776168 0.00010791158 0.23852047 -0.14741376 0.38593423
0.00069216167 2.7755576e-17 0.010097141 0.23852047 -0.14741376 0.38593423
0.0020678041 0 0.011668956 0.23852047 -0.14741376 0.38593423
0.0034319982 0 0.013227711 0.23852047 -0.14741376 0.38593423
0.0047848918 0 0.014773576 0.23852047 -0.14741376 0.38593423
0.006126632 0 0.016306717 0.23852047 -0.14741376 0.38593423
0.0074573616 0 0.0178273 0.23852047 -0.14741376 0.38593423
0.0087772226 0 0.019335484 0.23852047 -0.14741376 0.38593423
0.010086353 0 0.020831428 0.23852047 -0.14741376 0.38593423
0.011384889 0 0.022315288 0.23852047 -0.14741376 0.38593423
0.012672966 0 0.023787217 0.23852047 -0.14741376 0.38593423
0.013950715 0 0.025247363 0.23852047 -0.14741376 0.38593423
0.015218265 0 0.026695879 0.23852047 -0.14741376 0.38593423
0.016475745 0 0.028132906 0.23852047 -0.14741376 0.38593423
0.017723279 0 0.02955859 0.23852047 -0.14741376 0.38593423
0.018960992 0 0.030973068 0.23852047 -0.14741376 0.38593423
0.020189004 0 0.032376483 0.23852047 -0.14741376 0.38593423
0.021407435 0 0.033768967 0.23852047 -0.14741376 0.38593423
0.022616401 0 0.035150655 0.23852047 -0.14741376 0.38593423
0.023816017 0 0.036521681 0.23852047 -0.14741376 0.38593423
0.0250064 0 0.037882172 0.23852047 -0.14741376 0.38593423
0.02618766 0 0.039232258 0.23852047 -0.14741376 0.38593423
0.027010139 0.00024417779 0.039999999 0.23852047 -0.14741376 0.38593423
0.027362447 0.00081485882 0.039999999 0.23852047 -0.14741376 0.38593423
0.027714783 0.0013856106 0.039999999 0.23852047 -0.14741376 0.38593423
0.028067145 0.0019564359 0.039999999 0.23852047 -0.14741376 0.38593423
0.028419537 0.0025273375 0.039999999 0.23852047 -0.14741376 0.38593423
0.028771961 0.0030983181 0.039999999 0.23852047 -0.14741376 0.38593423
0.029124416 0.0036693809 0.039999999 0.23852047 -0.14741376 0.38593423
0.029476907 0.0042405282 0.039999999 0.23852047 -0.14741376 0.38593423
0.029829433 0.0048117633 0.039999999 0.23852047 -0.14741376 0.38593423
0.030181998 0.0053830887 0.039999999 0.23852047 -0.14741376 0.38593423
0.030534603 0.0059545073 0.039999999 0.23852047 -0.14741376 0.38593423
0.030887248 0.0065260222 0.039999999 0.23852047 -0.14741376 0.38593423
0.031239936 0.0070976354 0.039999999 0.23852047 -0.14741376 0.38593423
0.031592671 0.0076693506 0.039999999 0.23852047 -0.14741376 0.38593423
0.031945452 0.0082411701 0.039999999 0.23852047 -0.14741376 0.38593423
0.032298282 0.0088130971 0.039999999 0.23852047 -0.14741376 0.38593423
0.03265116 0.0093851341 0.039999999 0.23852047 -0.14741376 0.38593423
0.03300409 0.0099572837 0.039999999 0.23852047 -0.14741376 0.38593423
0.033357076 0.01052955 0.039999999 0.23852047 -0.14741376 0.38593423
0.033710115 0.011101934 0.039999999 0.23852047 -0.14741376 0.38593423
0.034063213 0.01167444 0.039999999 0.23852047 -0.14741376 0.38593423
0.034416366 0.01224707 0.039999999 0.23852047 -0.14741376 0.38593423
0.034769583 0.012819827 0.039999999 0.23852047 -0.14741376 0.38593423
0.035122864 0.013392713 0.039999999 0.23852047 -0.14741376 0.38593423
0.035476208 0.013965733 0.039999999 0.23852047 -0.14741376 0.38593423
0.035829615 0.014538889 0.039999999 0.23852047 -0.14741376 0.38593423
0.036183093 0.015112182 0.039999999 0.23852047 -0.14741376 0.38593423
0.036536638 0.015685618 0.039999999 0.23852047 -0.14741376 0.38593423
0.036890253 0.016259197 0.039999999 0.23852047 -0.14741376 0.38593423
0.037243944 0.016832924 0.039999999 0.23852047 -0.14741376 0.38593423
0.037597708 0.017406799 0.039999999 0.23852047 -0.14741376 0.38593423
0.037951548 0.017980829 0.039999999 0.23852047 -0.14741376 0.38593423
0.038305465 0.018555013 0.039999999 0.23852047 -0.14741376 0.38593423
0.038659465 0.019129356 0.039999999 0.23852047 -0.14741376 0.38593423
0.039013546 0.019703861 0.039999999 0.23852047 -0.14741376 0.38593423
0.039367709 0.020278528 0.039999999 0.23852047 -0.14741376 0.38593423
0.039721958 0.020853365 0.039999999 0.23852047 -0.14741376 0.38593423
0.039999999 0.021493284 0.039867003 0.23852047 -0.14741376 0.38593423
0.039999999 0.022371924 0.039247815 0.23852047 -0.14741376 0.38593423
0.039999999 0.023253966 0.03862625 0.23852047 -0.14741376 0.38593423
0.039999999 0.02413944 0.038002286 0.23852047 -0.14741376 0.38593423
0.039999999 0.025028365 0.037375916 0.23852047 -0.14741376 0.38593423
0.039999999 0.025920765 0.036747113 0.23852047 -0.14741376 0.38593423
0.039999999 0.026816668 0.036115862 0.23852047 -0.14741376 0.38593423
0.039999999 0.027716098 0.03548215 0.23852047 -0.14741376 0.38593423
0.039999999 0.028619081 0.034845952 0.23852047 -0.14741376 0.38593423
0.039999999 0.029525639 0.034207258 0.23852047 -0.14741376 0.38593423
0.039999999 0.030435801 0.033566047 0.23852047 -0.14741376 0.38593423
0.039999999 0.031349592 0.032922298 0.23852047 -0.14741376 0.38593423
0.039999999 0.032267034 0.032275997 0.23852047 -0.14741376 0.38593423
0.039999999 0.033188161 0.031627122 0.23852047 -0.14741376 0.38593423
0.039999999 0.034112994 0.030975658 0.23852047 -0.14741376 0.38593423
0.039999999 0.035041559 0.030321585 0.23852047 -0.14741376 0.38593423
0.039999999 0.035973888 0.029664883 0.23852047 -0.14741376 0.38593423
0.039999999 0.036910005 0.029005533 0.23852047 -0.14741376 0.38593423
0.039999999 0.037849937 0.028343517 0.23852047 -0.14741376 0.38593423
0.039999999 0.038793713 0.027678816 0.23852047 -0.14741376 0.38593423
0.039999999 0.039741363 0.027011408 0.23852047 -0.14741376 0.38593423
0.039999999 0.040692911 0.026341273 0.23852047 -0.14741376 0.38593423
0.039999999 0.041648392 0.025668394 0.23852047 -0.14741376 0.38593423
0.039999999 0.042607829 0.024992747 0.23852047 -0.14741376 0.38593423
0.039999999 0.043571252 0.024314314 0.23852047 -0.14741376 0.38593423
0.039999999 0.044538692 0.023633074 0.23852047 -0.14741376 0.38593423
0.039999999 0.04551018 0.022949006 0.23852047 -0.14741376 0.38593423
0.039999999 0.046485744 0.022262091 0.23852047 -0.14741376 0.38593423
0.028246455 0.059003375 0 0.23852047 -0.14741376 0.38593423
0.039999999 0.048449222 0.020879626 0.23852047 -0.14741376 0.38593423
0.039999999 0.049437199 0.020184034 0.23852047 -0.14741376 0.38593423
0.029443892 0.060949467 0 0.23852047 -0.14741376 0.38593423
0.029843356 0.061598752 0 0.23852047 -0.14741376 0.38593423
0.039999999 0.052426454 0.01807956 0.23852047 -0.14741376 0.38593423
0.039999999 0.053431422 0.017372096 0.23852047 -0.14741376 0.38593423
0.039999999 0.054440714 0.016661607 0.23852047 -0.14741376 0.38593423
0.039999999 0.05545437 0.015948068 0.23852047 -0.14741376 0.38593423
0.039999999 0.056472417 0.01523146 0.23852047 -0.14741376 0.38593423
0.039999999 0.05749489 0.014511758 0.23852047 -0.14741376 0.38593423
0.039999999 0.058521826 0.013788938 0.23852047 -0.14741376 0.38593423
0.039999999 0.059553258 0.013062975 0.23852047 -0.14741376 0.38593423
0.039999999 0.06058922 0.012333848 0.23852047 -0.14741376 0.38593423
0.039999999 0.061629742 0.011601529 0.23852047 -0.14741376 0.38593423
0.039999999 0.06372463 0.010127223 0.23852047 -0.14741376 0.38593423
0.039999999 0.064779058 0.0093851862 0.23852047 -0.14741376 0.38593423
0.035453975 0.070721559 0 0.23852047 -0.14741376 0.38593423
0.039999999 0.066902079 0.0078912154 0.23852047 -0.14741376 0.38593423
0.039999999 0.067970738 0.0071392301 0.23852047 -0.14741376 0.38593423
0.039999999 0.069044217 0.0063838772 0.23852047 -0.14741376 0.38593423
0.039999999 0.070122555 0.0056251306 0.23852047 -0.14741376 0.38593423
0.039999999 0.071205787 0.0048629628 0.23852047 -0.14741376 0.38593423
0.039999999 0.072293945 0.0040973471 0.23852047 -0.14741376 0.38593423
0.038273085 0.075307809 0 0.23852047 -0.14741376 0.38593423
0.039999999 0.074485227 0.0025556632 0.23852047 -0.14741376 0.38593423
0.039999999 0.07558842 0.0017795397 0.23852047 -0.14741376 0.38593423
0.039999999 0.077810124 0.00021658877 0.23852047 -0.14741376 0.38593423
0.00069361832 0 0.0088774618 0.23852047 -0.14741376 0.38593423
0.0020721378 0 0.010457679 0.23852047 -0.14741376 0.38593423
0.0034391605 0 0.012024736 0.23852047 -0.14741376 0.38593423
0.0047948365 0 0.013578804 0.23852047 -0.14741376 0.38593423
0.0061393124 2.7755576e-17 0.015120053 0.23852047 -0.14741376 0.38593423
0.007472733 2.7755576e-17 0.016648646 0.23852047 -0.14741376 0.38593423
0.00879524 0 0.018164748 0.23852047 -0.14741376 0.38593423
0.010106973 0 0.019668519 0.23852047 -0.14741376 0.38593423
