# .PCD v0.7 - Point Cloud Data file format
VERSION 0.7
FIELDS x y z vp_x vp_y vp_z
SIZE 4 4 4 4 4 4
TYPE F F F F F F
COUNT 1 1 1 1 1 1
WIDTH 757
HEIGHT 1
VIEWPOINT 0 0 0 1 0 0 0
POINTS 757
DATA ascii
0.021175712 0.026894189 0 0.23852047 0.14741376 -0.38593423
0.020802403 0.027500629 0 0.23852047 0.14741376 -0.38593423
2.7755576e-17 0.016931426 0.036151361 0.23852047 0.14741376 -0.38593423
0.020055881 0.028713772 0 0.23852047 0.14741376 -0.38593423
0.019682666 0.02932048 5.5511151e-17 0.23852047 0.14741376 -0.38593423
2.7755576e-17 0.019578338 0.033995509 0.23852047 0.14741376 -0.38593423
0.018936323 0.030534189 0 0.23852047 0.14741376 -0.38593423
0.018563189 0.031141194 0 0.23852047 0.14741376 -0.38593423
0.018190078 0.031748302 0 0.23852047 0.14741376 -0.38593423
2.7755576e-17 0.023067074 0.031155769 0.23852047 0.14741376 -0.38593423
0.017443923 0.03296284 0 0.23852047 0.14741376 -0.38593423
0.017070875 0.033570278 0 0.23852047 0.14741376 -0.38593423
0.016697841 0.034177829 0 0.23852047 0.14741376 -0.38593423
0.016324824 0.034785502 0 0.23852047 0.14741376 -0.38593423
0 0.027364619 0.02766047 0.23852047 0.14741376 -0.38593423
0.015578828 0.036001205 5.5511151e-17 0.23852047 0.14741376 -0.38593423
0.015205846 0.036609244 0 0.23852047 0.14741376 -0.38593423
0.014832873 0.037217412 5.5511151e-17 0.23852047 0.14741376 -0.38593423
2.7755576e-17 0.030753372 0.024906537 0.23852047 0.14741376 -0.38593423
0.014086943 0.038434152 0 0.23852047 0.14741376 -0.38593423
0.013713985 0.039042722 5.5511151e-17 0.23852047 0.14741376 -0.38593423
0.013341027 0.039651435 0 0.23852047 0.14741376 -0.38593423
0 0.034099534 0.022189178 0.23852047 0.14741376 -0.38593423
0.012595112 0.040869292 0 0.23852047 0.14741376 -0.38593423
0.012222149 0.041478444 0 0.23852047 0.14741376 -0.38593423
0.011849182 0.042087745 5.5511151e-17 0.23852047 0.14741376 -0.38593423
0.011476208 0.042697202 0 0.23852047 0.14741376 -0.38593423
0.011103224 0.043306813 0 0.23852047 0.14741376 -0.38593423
0.010730231 0.043916587 0 0.23852047 0.14741376 -0.38593423
0.010357225 0.044526521 5.5511151e-17 0.23852047 0.14741376 -0.38593423
0.0099842073 0.045136623 0 0.23852047 0.14741376 -0.38593423
0.0096111726 0.045746893 0 0.23852047 0.14741376 -0.38593423
0.0092381211 0.04635733 0 0.23852047 0.14741376 -0.38593423
0.0088650519 0.046967946 0 0.23852047 0.14741376 -0.38593423
0.0084919613 0.047578737 0 0.23852047 0.14741376 -0.38593423
0.0081188483 0.048189707 0 0.23852047 0.14741376 -0.38593423
0.0077457121 0.04880086 0 0.23852047 0.14741376 -0.38593423
0.0073725502 0.049412198 0 0.23852047 0.14741376 -0.38593423
0.0069993613 0.050023723 0 0.23852047 0.14741376 -0.38593423
0.0066261431 0.050635442 5.5511151e-17 0.23852047 0.14741376 -0.38593423
0 0.048658449 0.010389767 0.23852047 0.14741376 -0.38593423
0.0058796131 0.051859461 0 0.23852047 0.14741376 -0.38593423
0.005506298 0.052471764 0 0.23852047 0.14741376 -0.38593423
0.0051329471 0.053084277 0 0.23852047 0.14741376 -0.38593423
0.0047595585 0.05369699 0 0.23852047 0.14741376 -0.38593423
0.0043861307 0.054309912 0 0.23852047 0.14741376 -0.38593423
0.0040126625 0.054923046 0 0.23852047 0.14741376 -0.38593423
0.0036391511 0.055536393 0 0.23852047 0.14741376 -0.38593423
0.0032655955 0.05614996 0 0.23852047 0.14741376 -0.38593423
0 0.055651147 0.0047367765 0.23852047 0.14741376 -0.38593423
0 0.056416988 0.0041182484 0.23852047 0.14741376 -0.38593423
0.0021446459 0.057991982 0 0.23852047 0.14741376 -0.38593423
0.0017708958 0.058606442 0 0.23852047 0.14741376 -0.38593423
0.0013970928 0.059221134 0 0.23852047 0.14741376 -0.38593423
0.0010232351 0.059836056 0 0.23852047 0.14741376 -0.38593423
0.00064932124 0.060451221 0 0.23852047 0.14741376 -0.38593423
0.00027534916 0.06106662 5.5511151e-17 0.23852047 0.14741376 -0.38593423
0.036572576 0.00039702957 0 0.23852047 0.14741376 -0.38593423
0.036195841 0.0010030026 0 0.23852047 0.14741376 -0.38593423
0.035819214 0.0016089437 0 0.23852047 0.14741376 -0.38593423
0.035066266 0.0028207405 0 0.23852047 0.14741376 -0.38593423
0.029839193 0 0.0091844499 0.23852047 0.14741376 -0.38593423
0.03431372 0.0040324419 0 0.23852047 0.14741376 -0.38593423
0.033937596 0.004638264 5.5511151e-17 0.23852047 0.14741376 -0.38593423
0.033561565 0.0052440702 0 0.23852047 0.14741376 -0.38593423
0.033185624 0.0058498639 5.5511151e-17 0.23852047 0.14741376 -0.38593423
0.032809779 0.0064556473 0 0.23852047 0.14741376 -0.38593423
0.032434024 0.0070614237 0 0.23852047 0.14741376 -0.38593423
0.032058354 0.0076671955 0 0.23852047 0.14741376 -0.38593423
0.031682771 0.0082729654 0 0.23852047 0.14741376 -0.38593423
0.031307276 0.0088787368 0 0.23852047 0.14741376 -0.38593423
0.016657323 2.7755576e-17 0.026538225 0.23852047 0.14741376 -0.38593423
0.03055653 0.010090292 0 0.23852047 0.14741376 -0.38593423
0.029806102 0.011301885 0 0.23852047 0.14741376 -0.38593423
0.029431004 0.011907702 5.5511151e-17 0.23852047 0.14741376 -0.38593423
0.029055979 0.012513537 0 0.23852047 0.14741376 -0.38593423
0.0081815403 0 0.037702419 0.23852047 0.14741376 -0.38593423
0.0067242738 2.7755576e-17 0.039622344 0.23852047 0.14741376 -0.38593423
0.027931338 0.014331174 0 0.23852047 0.14741376 -0.38593423
0.027556594 0.014937107 5.5511151e-17 0.23852047 0.14741376 -0.38593423
0.027181918 0.01554307 0 0.23852047 0.14741376 -0.38593423
0.026807306 0.016149068 0 0.23852047 0.14741376 -0.38593423
0.026432756 0.016755102 0 0.23852047 0.14741376 -0.38593423
0.026058266 0.017361175 0 0.23852047 0.14741376 -0.38593423
0.025683837 0.017967291 0 0.23852047 0.14741376 -0.38593423
0.025309464 0.018573454 0 0.23852047 0.14741376 -0.38593423
0.0027981827 0.00588889 0.039999999 0.23852047 0.14741376 -0.38593423
0.0023851302 0.0065579852 0.039999999 0.23852047 0.14741376 -0.38593423
0.024186676 0.020392235 0 0.23852047 0.14741376 -0.38593423
0.023812518 0.020998605 0 0.23852047 0.14741376 -0.38593423
0.023438407 0.021605032 5.5511151e-17 0.23852047 0.14741376 -0.38593423
0.023064343 0.022211522 0 0.23852047 0.14741376 -0.38593423
0.00032069671 0.0099044051 0.039999999 0.23852047 0.14741376 -0.38593423
2.7755576e-17 0.010626681 0.03983571 0.23852047 0.14741376 -0.38593423
0.021942422 0.024031388 5.5511151e-17 0.23852047 0.14741376 -0.38593423
0.021568531 0.024638152 5.5511151e-17 0.23852047 0.14741376 -0.38593423
2.7755576e-17 0.013330491 0.037638202 0.23852047 0.14741376 -0.38593423
2.7755576e-17 0.014225691 0.03691088 0.23852047 0.14741376 -0.38593423
0.020447085 0.026458906 0 0.23852047 0.14741376 -0.38593423
0.020073339 0.027065989 0 0.23852047 0.14741376 -0.38593423
0.019699626 0.027673157 5.5511151e-17 0.23852047 0.14741376 -0.38593423
0.019325942 0.028280415 0 0.23852047 0.14741376 -0.38593423
0.018952288 0.028887764 5.5511151e-17 0.23852047 0.14741376 -0.38593423
0 0.019534534 0.032600172 0.23852047 0.14741376 -0.38593423
0.018205058 0.03010275 5.5511151e-17 0.23852047 0.14741376 -0.38593423
0 0.021280862 0.03118315 0.23852047 0.14741376 -0.38593423
0 0.022149745 0.030478293 0.23852047 0.14741376 -0.38593423
0.017084384 0.031925991 5.5511151e-17 0.23852047 0.14741376 -0.38593423
0.016710866 0.032533951 5.5511151e-17 0.23852047 0.14741376 -0.38593423
0 0.024739496 0.028378161 0.23852047 0.14741376 -0.38593423
0.015963878 0.03375021 5.5511151e-17 0.23852047 0.14741376 -0.38593423
0.015590404 0.034358513 0 0.23852047 0.14741376 -0.38593423
0.015216943 0.034966934 0 0.23852047 0.14741376 -0.38593423
0.014843492 0.035575479 0 0.23852047 0.14741376 -0.38593423
0.014470048 0.036184151 0 0.23852047 0.14741376 -0.38593423
0.014096612 0.036792949 0 0.23852047 0.14741376 -0.38593423
0.013723181 0.037401881 0 0.23852047 0.14741376 -0.38593423
0.013349752 0.038010944 0 0.23852047 0.14741376 -0.38593423
0.012976325 0.038620148 0 0.23852047 0.14741376 -0.38593423
0.012229469 0.03983897 5.5511151e-17 0.23852047 0.14741376 -0.38593423
0.011856036 0.040448595 0 0.23852047 0.14741376 -0.38593423
0.011482599 0.041058373 5.5511151e-17 0.23852047 0.14741376 -0.38593423
0 0.036502581 0.018853076 0.23852047 0.14741376 -0.38593423
0 0.037323251 0.018189427 0.23852047 0.14741376 -0.38593423
0.010362237 0.042888615 0 0.23852047 0.14741376 -0.38593423
0.0099887606 0.043499008 0 0.23852047 0.14741376 -0.38593423
2.7755576e-17 0.039770223 0.01621135 0.23852047 0.14741376 -0.38593423
0.0092417663 0.044720288 0 0.23852047 0.14741376 -0.38593423
0.0088682435 0.045331176 0 0.23852047 0.14741376 -0.38593423
0.0084947022 0.045942236 0 0.23852047 0.14741376 -0.38593423
0.0081211403 0.04655347 0 0.23852047 0.14741376 -0.38593423
0 0.043799303 0.012956664 0.23852047 0.14741376 -0.38593423
0.0073739481 0.047776468 5.5511151e-17 0.23852047 0.14741376 -0.38593423
0.0070003141 0.048388239 5.5511151e-17 0.23852047 0.14741376 -0.38593423
0.006626653 0.049000192 0 0.23852047 0.14741376 -0.38593423
0.0062529626 0.049612336 0 0.23852047 0.14741376 -0.38593423
0.005879241 0.050224669 0 0.23852047 0.14741376 -0.38593423
0.0055054873 0.050837193 0 0.23852047 0.14741376 -0.38593423
0.0051316991 0.051449917 0 0.23852047 0.14741376 -0.38593423
0.0047578751 0.052062836 0 0.23852047 0.14741376 -0.38593423
0.0043840134 0.052675959 0 0.23852047 0.14741376 -0.38593423
0.0040101125 0.053289287 0 0.23852047 0.14741376 -0.38593423
0.0036361702 0.053902823 0 0.23852047 0.14741376 -0.38593423
0.003262185 0.054516569 0 0.23852047 0.14741376 -0.38593423
0.0028881554 0.055130526 5.5511151e-17 0.23852047 0.14741376 -0.38593423
0.0025140794 0.0557447 0 0.23852047 0.14741376 -0.38593423
0.0021399555 0.056359094 5.5511151e-17 0.23852047 0.14741376 -0.38593423
2.7755576e-17 0.056299184 0.002878404 0.23852047 0.14741376 -0.38593423
0.0013915567 0.057588551 0 0.23852047 0.14741376 -0.38593423
0.0010172784 0.058203619 0 0.23852047 0.14741376 -0.38593423
0 0.058579464 0.001043119 0.23852047 0.14741376 -0.38593423
0.00026855536 0.059434451 0 0.23852047 0.14741376 -0.38593423
0.0354826 0.00053889886 0 0.23852047 0.14741376 -0.38593423
0.035105605 0.0011455275 0 0.23852047 0.14741376 -0.38593423
0.032277349 0 0.0046423012 0.23852047 0.14741376 -0.38593423
0.034351915 0.0023586957 0 0.23852047 0.14741376 -0.38593423
0.029776311 0 0.0079224622 0.23852047 0.14741376 -0.38593423
0.03359862 0.0035717641 0 0.23852047 0.14741376 -0.38593423
0.033222117 0.0041782679 0 0.23852047 0.14741376 -0.38593423
0.032845706 0.0047847549 0 0.23852047 0.14741376 -0.38593423
0.024647612 0 0.014650205 0.23852047 0.14741376 -0.38593423
0.023338236 0 0.016368108 0.23852047 0.14741376 -0.38593423
0.022017688 0 0.018100785 0.23852047 0.14741376 -0.38593423
0.020685812 0 0.019848436 0.23852047 0.14741376 -0.38593423
0.030965 0.0078170355 5.5511151e-17 0.23852047 0.14741376 -0.38593423
0.030589117 0.0084234802 0 0.23852047 0.14741376 -0.38593423
0.016620696 0 0.025183275 0.23852047 0.14741376 -0.38593423
0.02983759 0.0096363807 5.5511151e-17 0.23852047 0.14741376 -0.38593423
0.029461944 0.010242842 0 0.23852047 0.14741376 -0.38593423
0.012447961 2.7755576e-17 0.030660406 0.23852047 0.14741376 -0.38593423
0.028710883 0.011455799 0 0.23852047 0.14741376 -0.38593423
0.028335463 0.012062302 0 0.23852047 0.14741376 -0.38593423
0.027960112 0.012668823 0 0.23852047 0.14741376 -0.38593423
0.027584832 0.013275366 0 0.23852047 0.14741376 -0.38593423
0.027209621 0.013881935 0 0.23852047 0.14741376 -0.38593423
0.026834475 0.01448853 5.5511151e-17 0.23852047 0.14741376 -0.38593423
0.026459392 0.015095156 5.5511151e-17 0.23852047 0.14741376 -0.38593423
0.026084375 0.015701815 0 0.23852047 0.14741376 -0.38593423
0.025709417 0.016308509 0 0.23852047 0.14741376 -0.38593423
0.025334517 0.016915243 5.5511151e-17 0.23852047 0.14741376 -0.38593423
0.024959676 0.017522017 5.5511151e-17 0.23852047 0.14741376 -0.38593423
0.024584891 0.018128837 0 0.23852047 0.14741376 -0.38593423
0.0019980534 0.0053989147 0.039999999 0.23852047 0.14741376 -0.38593423
0.023835482 0.019342616 0 0.23852047 0.14741376 -0.38593423
0.023460854 0.019949583 0 0.23852047 0.14741376 -0.38593423
0.023086276 0.020556606 5.5511151e-17 0.23852047 0.14741376 -0.38593423
0.022711745 0.021163687 0 0.23852047 0.14741376 -0.38593423
0.022337258 0.021770827 0 0.23852047 0.14741376 -0.38593423
0.021962816 0.022378033 0 0.23852047 0.14741376 -0.38593423
0.021588417 0.022985304 0 0.23852047 0.14741376 -0.38593423
0 0.01150488 0.037675973 0.23852047 0.14741376 -0.38593423
0.020839738 0.024200054 0 0.23852047 0.14741376 -0.38593423
0.020465454 0.024807541 0 0.23852047 0.14741376 -0.38593423
2.7755576e-17 0.014193621 0.035498377 0.23852047 0.14741376 -0.38593423
0.019716993 0.026022747 0 0.23852047 0.14741376 -0.38593423
0.019342812 0.026630474 0 0.23852047 0.14741376 -0.38593423
2.7755576e-17 0.016855462 0.033343632 0.23852047 0.14741376 -0.38593423
0.018594537 0.027846185 0 0.23852047 0.14741376 -0.38593423
0.018220441 0.028454177 0 0.23852047 0.14741376 -0.38593423
0.01784637 0.029062264 0 0.23852047 0.14741376 -0.38593423
0.017472323 0.029670445 0 0.23852047 0.14741376 -0.38593423
2.7755576e-17 0.02123352 0.029801976 0.23852047 0.14741376 -0.38593423
0.016724292 0.030887112 0 0.23852047 0.14741376 -0.38593423
2.7755576e-17 0.022964764 0.028402295 0.23852047 0.14741376 -0.38593423
2.7755576e-17 0.02382618 0.027706031 0.23852047 0.14741376 -0.38593423
0.015602381 0.032712907 5.5511151e-17 0.23852047 0.14741376 -0.38593423
0.015228439 0.033321727 5.5511151e-17 0.23852047 0.14741376 -0.38593423
2.7755576e-17 0.02639382 0.025631364 0.23852047 0.14741376 -0.38593423
0.014480589 0.034539722 5.5511151e-17 0.23852047 0.14741376 -0.38593423
0.014106678 0.0351489 5.5511151e-17 0.23852047 0.14741376 -0.38593423
0.013732772 0.035758205 0 0.23852047 0.14741376 -0.38593423
0.013358871 0.036367636 0 0.23852047 0.14741376 -0.38593423
0.012984974 0.036977194 5.5511151e-17 0.23852047 0.14741376 -0.38593423
0.012611078 0.03758689 0 0.23852047 0.14741376 -0.38593423
0.012237182 0.03819672 0 0.23852047 0.14741376 -0.38593423
0.011863284 0.038806688 5.5511151e-17 0.23852047 0.14741376 -0.38593423
0.011489382 0.039416797 5.5511151e-17 0.23852047 0.14741376 -0.38593423
0.011115475 0.040027052 5.5511151e-17 0.23852047 0.14741376 -0.38593423
0.010741561 0.040637456 0 0.23852047 0.14741376 -0.38593423
0.010367638 0.041248009 0 0.23852047 0.14741376 -0.38593423
0.009993704 0.04185871 0 0.23852047 0.14741376 -0.38593423
0 0.038059197 0.016219232 0.23852047 0.14741376 -0.38593423
2.7755576e-17 0.038873222 0.015563298 0.23852047 0.14741376 -0.38593423
0.0088718235 0.043691773 5.5511151e-17 0.23852047 0.14741376 -0.38593423
0.0084978305 0.044303115 0 0.23852047 0.14741376 -0.38593423
0.0081238188 0.044914626 0 0.23852047 0.14741376 -0.38593423
0.0077497861 0.045526307 0 0.23852047 0.14741376 -0.38593423
0.0073757316 0.04613816 0 0.23852047 0.14741376 -0.38593423
0.0070016524 0.046750192 5.5511151e-17 0.23852047 0.14741376 -0.38593423
0.0066275476 0.047362398 0 0.23852047 0.14741376 -0.38593423
0.0062534148 0.047974788 0 0.23852047 0.14741376 -0.38593423
0.0058792531 0.048587359 0 0.23852047 0.14741376 -0.38593423
0.0055050598 0.049200118 0 0.23852047 0.14741376 -0.38593423
0.0051308344 0.049813069 5.5511151e-17 0.23852047 0.14741376 -0.38593423
0.0047565745 0.050426211 0 0.23852047 0.14741376 -0.38593423
0.0043822783 0.051039547 0 0.23852047 0.14741376 -0.38593423
2.7755576e-17 0.050016481 0.0065958216 0.23852047 0.14741376 -0.38593423
0 0.050794952 0.0059701884 0.23852047 0.14741376 -0.38593423
0.003259155 0.052880764 0 0.23852047 0.14741376 -0.38593423
2.7755576e-17 0.052345138 0.0047246786 0.23852047 0.14741376 -0.38593423
0.002510194 0.054109268 0 0.23852047 0.14741376 -0.38593423
0.0021356444 0.05472384 0 0.23852047 0.14741376 -0.38593423
0.0017610468 0.055338625 5.5511151e-17 0.23852047 0.14741376 -0.38593423
2.7755576e-17 0.055418912 0.0022563562 0.23852047 0.14741376 -0.38593423
0.0010116999 0.056568857 5.5511151e-17 0.23852047 0.14741376 -0.38593423
0.00063694717 0.057184309 0 0.23852047 0.14741376 -0.38593423
0.00026213931 0.057799987 5.5511151e-17 0.23852047 0.14741376 -0.38593423
0.034767922 7.3859577e-05 0 0.23852047 0.14741376 -0.38593423
0.033442922 0 0.0017916237 0.23852047 0.14741376 -0.38593423
0.034013286 0.001288463 5.5511151e-17 0.23852047 0.14741376 -0.38593423
0.033636119 0.0018957199 0 0.23852047 0.14741376 -0.38593423
0.033259049 0.0025029506 0 0.23852047 0.14741376 -0.38593423
0.032882076 0.003110158 5.5511151e-17 0.23852047 0.14741376 -0.38593423
0.027175697 0 0.0099838991 0.23852047 0.14741376 -0.38593423
0.032128405 0.004324514 0 0.23852047 0.14741376 -0.38593423
0.031751707 0.0049316674 0 0.23852047 0.14741376 -0.38593423
0.031375099 0.0055388091 0 0.23852047 0.14741376 -0.38593423
0.030998575 0.0061459411 0 0.23852047 0.14741376 -0.38593423
0.030622138 0.0067530666 5.5511151e-17 0.23852047 0.14741376 -0.38593423
0.019300394 0 0.02028187 0.23852047 0.14741376 -0.38593423
0.02986951 0.0079673082 0 0.23852047 0.14741376 -0.38593423
0.029493317 0.008574429 0 0.23852047 0.14741376 -0.38593423
0.029117202 0.0091815554 0 0.23852047 0.14741376 -0.38593423
0.028741166 0.0097886883 0 0.23852047 0.14741376 -0.38593423
0.028365202 0.010395831 5.5511151e-17 0.23852047 0.14741376 -0.38593423
0.027989313 0.011002987 0 0.23852047 0.14741376 -0.38593423
0.027613495 0.011610158 5.5511151e-17 0.23852047 0.14741376 -0.38593423
0.0081446785 0 0.034875866 0.23852047 0.14741376 -0.38593423
0.006693841 0 0.036774386 0.23852047 0.14741376 -0.38593423
0.026486449 0.01343179 0 0.23852047 0.14741376 -0.38593423
0.026110901 0.014039051 0 0.23852047 0.14741376 -0.38593423
0.025735412 0.01464634 0 0.23852047 0.14741376 -0.38593423
0.0032670528 0.0015559802 0.039999999 0.23852047 0.14741376 -0.38593423
0.0028527812 0.0022262856 0.039999999 0.23852047 0.14741376 -0.38593423
0.024609311 0.016468411 0 0.23852047 0.14741376 -0.38593423
0.024234056 0.017075846 0 0.23852047 0.14741376 -0.38593423
0.023858858 0.017683323 0 0.23852047 0.14741376 -0.38593423
0.023483712 0.018290846 0 0.23852047 0.14741376 -0.38593423
0.00078234036 0.0055784956 0.039999999 0.23852047 0.14741376 -0.38593423
0.022733569 0.019506041 0 0.23852047 0.14741376 -0.38593423
0.02235857 0.020113718 0 0.23852047 0.14741376 -0.38593423
0.021983618 0.020721452 5.5511151e-17 0.23852047 0.14741376 -0.38593423
0.021608708 0.021329246 0 0.23852047 0.14741376 -0.38593423
0.02123384 0.021937102 0 0.23852047 0.14741376 -0.38593423
0.020859014 0.022545025 0 0.23852047 0.14741376 -0.38593423
0.020484226 0.023153014 0 0.23852047 0.14741376 -0.38593423
0.020109477 0.023761075 0 0.23852047 0.14741376 -0.38593423
0.019734761 0.02436921 5.5511151e-17 0.23852047 0.14741376 -0.38593423
0.01936008 0.024977421 0 0.23852047 0.14741376 -0.38593423
0.01898543 0.025585711 0 0.23852047 0.14741376 -0.38593423
2.7755576e-17 0.015935339 0.032661363 0.23852047 0.14741376 -0.38593423
0.018236222 0.02680254 0 0.23852047 0.14741376 -0.38593423
0.017861659 0.027411083 0 0.23852047 0.14741376 -0.38593423
0.01748712 0.028019719 5.5511151e-17 0.23852047 0.14741376 -0.38593423
0.017112605 0.028628446 0 0.23852047 0.14741376 -0.38593423
0.016738113 0.02923727 0 0.23852047 0.14741376 -0.38593423
0.016363639 0.029846191 0 0.23852047 0.14741376 -0.38593423
0 0.02205158 0.027729915 0.23852047 0.14741376 -0.38593423
0 0.022913963 0.027035043 0.23852047 0.14741376 -0.38593423
0.015240326 0.03167358 0 0.23852047 0.14741376 -0.38593423
0.014865916 0.032282926 5.5511151e-17 0.23852047 0.14741376 -0.38593423
0.014491518 0.032892384 0 0.23852047 0.14741376 -0.38593423
0 0.026335808 0.024278978 0.23852047 0.14741376 -0.38593423
0 0.027184436 0.023595745 0.23852047 0.14741376 -0.38593423
0 0.028030369 0.022914797 0.23852047 0.14741376 -0.38593423
0.012994009 0.035331398 0 0.23852047 0.14741376 -0.38593423
0 0.029714212 0.021559693 0.23852047 0.14741376 -0.38593423
0.012245279 0.036551654 5.5511151e-17 0.23852047 0.14741376 -0.38593423
0.011870915 0.03716198 5.5511151e-17 0.23852047 0.14741376 -0.38593423
0.011496549 0.037772439 0 0.23852047 0.14741376 -0.38593423
0.011122178 0.038383037 0 0.23852047 0.14741376 -0.38593423
2.7755576e-17 0.033877816 0.018210897 0.23852047 0.14741376 -0.38593423
0.010373419 0.03960466 0 0.23852047 0.14741376 -0.38593423
0.0099990275 0.04021569 0 0.23852047 0.14741376 -0.38593423
0.0096246246 0.040826868 0 0.23852047 0.14741376 -0.38593423
0.0092502097 0.0414382 0 0.23852047 0.14741376 -0.38593423
2.7755576e-17 0.037977356 0.014916381 0.23852047 0.14741376 -0.38593423
0 0.038789757 0.014263842 0.23852047 0.14741376 -0.38593423
0 0.039599691 0.013613394 0.23852047 0.14741376 -0.38593423
0.0077523929 0.043885101 0 0.23852047 0.14741376 -0.38593423
0.0073778904 0.044497233 0 0.23852047 0.14741376 -0.38593423
0.0070033656 0.045109536 0 0.23852047 0.14741376 -0.38593423
0.0066288165 0.045722011 0 0.23852047 0.14741376 -0.38593423
0 0.043612901 0.010392065 0.23852047 0.14741376 -0.38593423
0.0058796383 0.04694749 5.5511151e-17 0.23852047 0.14741376 -0.38593423
0 0.045201458 0.0091177216 0.23852047 0.14741376 -0.38593423
0.0051303422 0.048173692 0 0.23852047 0.14741376 -0.38593423
0.0047556455 0.048787069 0 0.23852047 0.14741376 -0.38593423
0.0043809144 0.049400635 0 0.23852047 0.14741376 -0.38593423
0 0.048350547 0.0065928134 0.23852047 0.14741376 -0.38593423
0.003631341 0.050628349 0 0.23852047 0.14741376 -0.38593423
0.0032564956 0.051242501 0 0.23852047 0.14741376 -0.38593423
0.0028816084 0.051856853 5.5511151e-17 0.23852047 0.14741376 -0.38593423
0.0025066782 0.05247141 0 0.23852047 0.14741376 -0.38593423
0.0021317028 0.053086173 0 0.23852047 0.14741376 -0.38593423
0.0017566809 0.053701144 0 0.23852047 0.14741376 -0.38593423
2.7755576e-17 0.053773928 0.0022485168 0.23852047 0.14741376 -0.38593423
0.0010064896 0.05493173 0 0.23852047 0.14741376 -0.38593423
0.00063131703 0.055547345 5.5511151e-17 0.23852047 0.14741376 -0.38593423
0 0.056065109 0.00041480895 0.23852047 0.14741376 -0.38593423
0.033674058 0.0002158877 0 0.23852047 0.14741376 -0.38593423
0.033296421 0.00082386279 5.5511151e-17 0.23852047 0.14741376 -0.38593423
0.032918878 0.0014318078 5.5511151e-17 0.23852047 0.14741376 -0.38593423
0.032541435 0.0020397254 5.5511151e-17 0.23852047 0.14741376 -0.38593423
0.032164082 0.0026476185 0 0.23852047 0.14741376 -0.38593423
0.031786826 0.00325549 5.5511151e-17 0.23852047 0.14741376 -0.38593423
0.031409655 0.0038633421 0 0.23852047 0.14741376 -0.38593423
0.031032575 0.0044711782 0 0.23852047 0.14741376 -0.38593423
0.030655583 0.0050790007 0 0.23852047 0.14741376 -0.38593423
0.021922946 0 0.015485663 0.23852047 0.14741376 -0.38593423
0.029901853 0.006294617 0 0.23852047 0.14741376 -0.38593423
0.02952511 0.0069024162 0 0.23852047 0.14741376 -0.38593423
0.02914845 0.0075102127 0 0.23852047 0.14741376 -0.38593423
0.028771866 0.0081180101 0 0.23852047 0.14741376 -0.38593423
0.02839536 0.0087258099 0 0.23852047 0.14741376 -0.38593423
0.028018929 0.0093336171 0 0.23852047 0.14741376 -0.38593423
0.02764257 0.0099414317 0 0.23852047 0.14741376 -0.38593423
0.027266283 0.010549258 5.5511151e-17 0.23852047 0.14741376 -0.38593423
0.009561142 0 0.031601436 0.23852047 0.14741376 -0.38593423
0.026513917 0.011764958 0 0.23852047 0.14741376 -0.38593423
0.0066787316 0 0.035360396 0.23852047 0.14741376 -0.38593423
0.025761817 0.012980737 5.5511151e-17 0.23852047 0.14741376 -0.38593423
0.0037440762 0 0.039187938 0.23852047 0.14741376 -0.38593423
0.025009969 0.014196617 0 0.23852047 0.14741376 -0.38593423
0.024634134 0.014804603 0 0.23852047 0.14741376 -0.38593423
0.024258358 0.015412621 0 0.23852047 0.14741376 -0.38593423
0.023882637 0.016020678 0 0.23852047 0.14741376 -0.38593423
0.001221983 0.0030736136 0.039999999 0.23852047 0.14741376 -0.38593423
0.023131358 0.017236909 5.5511151e-17 0.23852047 0.14741376 -0.38593423
0.00039295139 0.0044159978 0.039999999 0.23852047 0.14741376 -0.38593423
0.022380281 0.01845332 5.5511151e-17 0.23852047 0.14741376 -0.38593423
0.022004815 0.019061601 0 0.23852047 0.14741376 -0.38593423
0.021629395 0.019669935 0 0.23852047 0.14741376 -0.38593423
0.02125402 0.020278323 0 0.23852047 0.14741376 -0.38593423
0.020878686 0.020886771 0 0.23852047 0.14741376 -0.38593423
0.020503392 0.021495283 0 0.23852047 0.14741376 -0.38593423
0 0.010554664 0.035569642 0.23852047 0.14741376 -0.38593423
2.7755576e-17 0.011452993 0.034846704 0.23852047 0.14741376 -0.38593423
0.019377738 0.023321209 5.5511151e-17 0.23852047 0.14741376 -0.38593423
0.01900259 0.023929993 0 0.23852047 0.14741376 -0.38593423
0.018627474 0.024538852 0 0.23852047 0.14741376 -0.38593423
0.01825239 0.02514779 0 0.23852047 0.14741376 -0.38593423
2.7755576e-17 0.015899707 0.031269833 0.23852047 0.14741376 -0.38593423
0.017502302 0.026365912 5.5511151e-17 0.23852047 0.14741376 -0.38593423
0.017127298 0.026975101 0 0.23852047 0.14741376 -0.38593423
0.016752316 0.02758438 0 0.23852047 0.14741376 -0.38593423
0.016377356 0.028193751 0 0.23852047 0.14741376 -0.38593423
0.016002417 0.028803218 5.5511151e-17 0.23852047 0.14741376 -0.38593423
0 0.021139484 0.027058661 0.23852047 0.14741376 -0.38593423
0.015252591 0.030022446 5.5511151e-17 0.23852047 0.14741376 -0.38593423
0.014877702 0.030632215 0 0.23852047 0.14741376 -0.38593423
0.014502825 0.031242089 5.5511151e-17 0.23852047 0.14741376 -0.38593423
0.014127961 0.031852074 0 0.23852047 0.14741376 -0.38593423
0.013753106 0.032462168 0 0.23852047 0.14741376 -0.38593423
0.01337826 0.033072378 0 0.23852047 0.14741376 -0.38593423
0.013003419 0.033682708 5.5511151e-17 0.23852047 0.14741376 -0.38593423
0.012628583 0.034293156 0 0.23852047 0.14741376 -0.38593423
0.01225375 0.034903727 0 0.23852047 0.14741376 -0.38593423
0.011878919 0.035514425 0 0.23852047 0.14741376 -0.38593423
0.011504087 0.03612525 0 0.23852047 0.14741376 -0.38593423
0.011129253 0.036736209 0 0.23852047 0.14741376 -0.38593423
0.010754415 0.037347302 0 0.23852047 0.14741376 -0.38593423
0.010379571 0.037958529 0 0.23852047 0.14741376 -0.38593423
0.010004721 0.038569897 0 0.23852047 0.14741376 -0.38593423
0.0096298605 0.039181411 0 0.23852047 0.14741376 -0.38593423
0.0092549901 0.03979307 0 0.23852047 0.14741376 -0.38593423
0.0088801067 0.040404875 0 0.23852047 0.14741376 -0.38593423
0.0081302961 0.041628946 0 0.23852047 0.14741376 -0.38593423
0.0077553657 0.042241216 0 0.23852047 0.14741376 -0.38593423
0.0073804152 0.042853646 0 0.23852047 0.14741376 -0.38593423
0.0070054443 0.04346624 0 0.23852047 0.14741376 -0.38593423
0.0066304505 0.044078998 0 0.23852047 0.14741376 -0.38593423
0.006255432 0.044691924 5.5511151e-17 0.23852047 0.14741376 -0.38593423
0.0058803875 0.045305021 5.5511151e-17 0.23852047 0.14741376 -0.38593423
0.005505315 0.045918293 5.5511151e-17 0.23852047 0.14741376 -0.38593423
0.0051302128 0.046531741 0 0.23852047 0.14741376 -0.38593423
0 0.045105789 0.0078503825 0.23852047 0.14741376 -0.38593423
0 0.04589501 0.0072194161 0.23852047 0.14741376 -0.38593423
2.7755576e-17 0.046681914 0.0065904101 0.23852047 0.14741376 -0.38593423
0.0036294728 0.048987366 0 0.23852047 0.14741376 -0.38593423
0.0032541964 0.049601745 5.5511151e-17 0.23852047 0.14741376 -0.38593423
0.0028788801 0.050216317 0 0.23852047 0.14741376 -0.38593423
0.002503522 0.050831087 0 0.23852047 0.14741376 -0.38593423
0.0021281205 0.051446054 0 0.23852047 0.14741376 -0.38593423
2.7755576e-17 0.051355381 0.0028568781 0.23852047 0.14741376 -0.38593423
0.0013771799 0.052676607 0 0.23852047 0.14741376 -0.38593423
0.0010016374 0.053292193 0 0.23852047 0.14741376 -0.38593423
0.00062604452 0.05390799 0 0.23852047 0.14741376 -0.38593423
0.00025039952 0.054524004 0 0.23852047 0.14741376 -0.38593423
0.032200184 0.00096695434 0 0.23852047 0.14741376 -0.38593423
0.029589303 0 0.0041694334 0.23852047 0.14741376 -0.38593423
0.031444635 0.0021841405 0 0.23852047 0.14741376 -0.38593423
0.031066995 0.0027926979 0 0.23852047 0.14741376 -0.38593423
0.02578097 0 0.0091148531 0.23852047 0.14741376 -0.38593423
0.030311985 0.0040097549 0 0.23852047 0.14741376 -0.38593423
0.029934609 0.0046182601 0 0.23852047 0.14741376 -0.38593423
0.029557317 0.0052267537 0 0.23852047 0.14741376 -0.38593423
0.029180108 0.0058352379 5.5511151e-17 0.23852047 0.14741376 -0.38593423
0.028802978 0.0064437161 0 0.23852047 0.14741376 -0.38593423
0.017870139 0 0.019390505 0.23852047 0.14741376 -0.38593423
0.028048951 0.0076606646 0 0.23852047 0.14741376 -0.38593423
0.027672052 0.0082691405 0 0.23852047 0.14741376 -0.38593423
0.013759568 0 0.024731295 0.23852047 0.14741376 -0.38593423
0.026918473 0.0094861109 0 0.23852047 0.14741376 -0.38593423
0.026541788 0.01009461 0 0.23852047 0.14741376 -0.38593423
0.026165172 0.010703122 0 0.23852047 0.14741376 -0.38593423
0.025788622 0.011311651 0 0.23852047 0.14741376 -0.38593423
0.0066636926 0 0.033952996 0.23852047 0.14741376 -0.38593423
0.025035715 0.012528768 5.5511151e-17 0.23852047 0.14741376 -0.38593423
0.024659354 0.013137361 5.5511151e-17 0.23852047 0.14741376 -0.38593423
0.024283053 0.013745982 0 0.23852047 0.14741376 -0.38593423
0.02390681 0.014354632 0 0.23852047 0.14741376 -0.38593423
0.023530623 0.014963316 0 0.23852047 0.14741376 -0.38593423
0.023154492 0.015572035 0 0.23852047 0.14741376 -0.38593423
0.02277841 0.016180793 5.5511151e-17 0.23852047 0.14741376 -0.38593423
0.022402382 0.016789591 0 0.23852047 0.14741376 -0.38593423
0.022026403 0.017398434 0 0.23852047 0.14741376 -0.38593423
0.021650471 0.018007321 0 0.23852047 0.14741376 -0.38593423
0.021274583 0.018616261 5.5511151e-17 0.23852047 0.14741376 -0.38593423
0.020898741 0.019225251 0 0.23852047 0.14741376 -0.38593423
0.020522941 0.019834297 0 0.23852047 0.14741376 -0.38593423
0.020147182 0.0204434 5.5511151e-17 0.23852047 0.14741376 -0.38593423
0.019771462 0.021052565 5.5511151e-17 0.23852047 0.14741376 -0.38593423
0 0.010530882 0.03416089 0.23852047 0.14741376 -0.38593423
0.019020131 0.022271087 0 0.23852047 0.14741376 -0.38593423
0.018644517 0.02288045 0 0.23852047 0.14741376 -0.38593423
0.018268935 0.023489885 0 0.23852047 0.14741376 -0.38593423
0.017893383 0.024099395 5.5511151e-17 0.23852047 0.14741376 -0.38593423
0.017517861 0.024708981 0 0.23852047 0.14741376 -0.38593423
0.017142365 0.025318649 0 0.23852047 0.14741376 -0.38593423
0.016766895 0.025928399 0 0.23852047 0.14741376 -0.38593423
0.016391447 0.026538234 0 0.23852047 0.14741376 -0.38593423
0.016016021 0.027148159 0 0.23852047 0.14741376 -0.38593423
0 0.019361332 0.027082972 0.23852047 0.14741376 -0.38593423
0.015265228 0.028368285 0 0.23852047 0.14741376 -0.38593423
0.014889858 0.028978493 0 0.23852047 0.14741376 -0.38593423
0.014514502 0.0295888 0 0.23852047 0.14741376 -0.38593423
0.014139161 0.030199209 0 0.23852047 0.14741376 -0.38593423
0.013763829 0.030809725 0 0.23852047 0.14741376 -0.38593423
0.013388508 0.031420346 0 0.23852047 0.14741376 -0.38593423
0.013013195 0.032031082 5.5511151e-17 0.23852047 0.14741376 -0.38593423
0.012637888 0.032641932 0 0.23852047 0.14741376 -0.38593423
0.012262587 0.033252895 0 0.23852047 0.14741376 -0.38593423
0.011887287 0.03386398 0 0.23852047 0.14741376 -0.38593423
0.011511989 0.034475189 0 0.23852047 0.14741376 -0.38593423
0.01113669 0.03508652 0 0.23852047 0.14741376 -0.38593423
2.7755576e-17 0.030419521 0.018235007 0.23852047 0.14741376 -0.38593423
0.010386084 0.036309574 5.5511151e-17 0.23852047 0.14741376 -0.38593423
0.010010774 0.036921296 0 0.23852047 0.14741376 -0.38593423
0 0.032907475 0.016246814 0.23852047 0.14741376 -0.38593423
0.0092601292 0.038145158 5.5511151e-17 0.23852047 0.14741376 -0.38593423
0.0088847913 0.038757302 0 0.23852047 0.14741376 -0.38593423
0.0085094403 0.039369591 0 0.23852047 0.14741376 -0.38593423
0.0081340754 0.039982028 0 0.23852047 0.14741376 -0.38593423
2.7755576e-17 0.03700313 0.012975918 0.23852047 0.14741376 -0.38593423
0 0.037814766 0.012328033 0.23852047 0.14741376 -0.38593423
0.0070078783 0.04182025 0 0.23852047 0.14741376 -0.38593423
0.0066324393 0.042433307 0 0.23852047 0.14741376 -0.38593423
0.0062569771 0.043046523 0 0.23852047 0.14741376 -0.38593423
0.0058814902 0.043659907 0 0.23852047 0.14741376 -0.38593423
0.0055059772 0.044273458 0 0.23852047 0.14741376 -0.38593423
0.0051304358 0.044887181 0 0.23852047 0.14741376 -0.38593423
2.7755576e-17 0.043428142 0.0078500221 0.23852047 0.14741376 -0.38593423
0.0043792622 0.046115149 0 0.23852047 0.14741376 -0.38593423
0.0040036263 0.046729397 0 0.23852047 0.14741376 -0.38593423
0.0036279554 0.047343832 0 0.23852047 0.14741376 -0.38593423
0.0032522478 0.047958452 0 0.23852047 0.14741376 -0.38593423
0.0028765015 0.048573256 0 0.23852047 0.14741376 -0.38593423
2.7755576e-17 0.048147518 0.0040891138 0.23852047 0.14741376 -0.38593423
0.002124887 0.049803443 0 0.23852047 0.14741376 -0.38593423
0.0017490149 0.050418831 0 0.23852047 0.14741376 -0.38593423
0.0013730975 0.051034421 0 0.23852047 0.14741376 -0.38593423
0.00099713297 0.051650211 0 0.23852047 0.14741376 -0.38593423
0 0.052017789 0.0010076163 0.23852047 0.14741376 -0.38593423
0.0002450553 0.052882407 0 0.23852047 0.14741376 -0.38593423
0.031480026 0.00050115446 5.5511151e-17 0.23852047 0.14741376 -0.38593423
0.031101827 0.0011104502 0 0.23852047 0.14741376 -0.38593423
0.030723719 0.0017197191 0 0.23852047 0.14741376 -0.38593423
0.030345703 0.002328964 0 0.23852047 0.14741376 -0.38593423
0.029967772 0.0029381872 0 0.23852047 0.14741376 -0.38593423
0.029589929 0.0035473921 0 0.23852047 0.14741376 -0.38593423
0.029212169 0.0041565811 0 0.23852047 0.14741376 -0.38593423
0.02883449 0.0047657574 0 0.23852047 0.14741376 -0.38593423
0.028456893 0.0053749238 5.5511151e-17 0.23852047 0.14741376 -0.38593423
0.019175325 0 0.016329402 0.23852047 0.14741376 -0.38593423
0.027701933 0.0065932362 0 0.23852047 0.14741376 -0.38593423
0.027324567 0.0072023887 0 0.23852047 0.14741376 -0.38593423
0.026947273 0.0078115421 0 0.23852047 0.14741376 -0.38593423
0.026570052 0.0084206993 0 0.23852047 0.14741376 -0.38593423
0.026192902 0.0090298634 0 0.23852047 0.14741376 -0.38593423
0.025815818 0.0096390368 0 0.23852047 0.14741376 -0.38593423
0.0095185637 0 0.02883479 0.23852047 0.14741376 -0.38593423
0.025061851 0.010857423 5.5511151e-17 0.23852047 0.14741376 -0.38593423
0.024684964 0.011466641 0 0.23852047 0.14741376 -0.38593423
0.024308136 0.01207588 0 0.23852047 0.14741376 -0.38593423
0.023931369 0.012685142 0 0.23852047 0.14741376 -0.38593423
0.02355466 0.01329443 0 0.23852047 0.14741376 -0.38593423
0.023178007 0.013903747 0 0.23852047 0.14741376 -0.38593423
0.022801409 0.014513096 5.5511151e-17 0.23852047 0.14741376 -0.38593423
0.022424864 0.01512248 0 0.23852047 0.14741376 -0.38593423
0.022048369 0.015731901 0 0.23852047 0.14741376 -0.38593423
0.021671923 0.016341362 0 0.23852047 0.14741376 -0.38593423
0.021295525 0.016950866 5.5511151e-17 0.23852047 0.14741376 -0.38593423
0.020919174 0.017560415 0 0.23852047 0.14741376 -0.38593423
0.020542866 0.018170014 0 0.23852047 0.14741376 -0.38593423
0.0201666 0.018779663 0 0.23852047 0.14741376 -0.38593423
0.019790376 0.019389367 5.5511151e-17 0.23852047 0.14741376 -0.38593423
0.01941419 0.019999128 0 0.23852047 0.14741376 -0.38593423
0.019038042 0.020608947 5.5511151e-17 0.23852047 0.14741376 -0.38593423
0.018661929 0.021218831 5.5511151e-17 0.23852047 0.14741376 -0.38593423
0.01828585 0.021828778 5.5511151e-17 0.23852047 0.14741376 -0.38593423
0.017909802 0.022438794 0 0.23852047 0.14741376 -0.38593423
0.017533787 0.023048881 0 0.23852047 0.14741376 -0.38593423
0.017157799 0.023659041 0 0.23852047 0.14741376 -0.38593423
0.016781837 0.024269279 0 0.23852047 0.14741376 -0.38593423
0.016405901 0.024879595 5.5511151e-17 0.23852047 0.14741376 -0.38593423
0.016029989 0.025489993 0 0.23852047 0.14741376 -0.38593423
0.015654098 0.026100477 0 0.23852047 0.14741376 -0.38593423
0.015278228 0.026711049 0 0.23852047 0.14741376 -0.38593423
0.014902375 0.027321711 0 0.23852047 0.14741376 -0.38593423
0.014526539 0.027932467 5.5511151e-17 0.23852047 0.14741376 -0.38593423
0.014150718 0.028543318 0 0.23852047 0.14741376 -0.38593423
0.013774911 0.029154269 0 0.23852047 0.14741376 -0.38593423
0.013399115 0.029765321 0 0.23852047 0.14741376 -0.38593423
0 0.023617124 0.022289187 0.23852047 0.14741376 -0.38593423
2.7755576e-17 0.024468573 0.021610036 0.23852047 0.14741376 -0.38593423
0.012271777 0.031599119 0 0.23852047 0.14741376 -0.38593423
0.01189601 0.032210607 0 0.23852047 0.14741376 -0.38593423
0.011520244 0.03282221 5.5511151e-17 0.23852047 0.14741376 -0.38593423
0 0.027847389 0.018915966 0.23852047 0.14741376 -0.38593423
0.010768716 0.034045778 0 0.23852047 0.14741376 -0.38593423
0.010392949 0.034657747 0 0.23852047 0.14741376 -0.38593423
0.010017178 0.035269842 0 0.23852047 0.14741376 -0.38593423
0.0096414015 0.035882067 5.5511151e-17 0.23852047 0.14741376 -0.38593423
0 0.032011483 0.015598007 0.23852047 0.14741376 -0.38593423
0.0088898242 0.03710692 0 0.23852047 0.14741376 -0.38593423
0.0085140197 0.037719555 0 0.23852047 0.14741376 -0.38593423
0.0081382031 0.038332328 0 0.23852047 0.14741376 -0.38593423
0.0077623711 0.03894525 0 0.23852047 0.14741376 -0.38593423
0 0.036111496 0.012333594 0.23852047 0.14741376 -0.38593423
0.0070106583 0.04017153 5.5511151e-17 0.23852047 0.14741376 -0.38593423
0.0066347728 0.040784899 0 0.23852047 0.14741376 -0.38593423
0 0.038541578 0.010399957 0.23852047 0.14741376 -0.38593423
0.005882937 0.04201211 5.5511151e-17 0.23852047 0.14741376 -0.38593423
0.0055069826 0.042625956 0 0.23852047 0.14741376 -0.38593423
0.005131002 0.043239962 0 0.23852047 0.14741376 -0.38593423
0.0047549927 0.04385414 5.5511151e-17 0.23852047 0.14741376 -0.38593423
0.0043789535 0.044468489 0 0.23852047 0.14741376 -0.38593423
0.0040028831 0.045083009 0 0.23852047 0.14741376 -0.38593423
0.0036267787 0.045697704 0 0.23852047 0.14741376 -0.38593423
0.0032506392 0.046312578 5.5511151e-17 0.23852047 0.14741376 -0.38593423
0.0028744629 0.046927631 0 0.23852047 0.14741376 -0.38593423
0.0024982477 0.047542874 0 0.23852047 0.14741376 -0.38593423
0 0.047267351 0.0034642755 0.23852047 0.14741376 -0.38593423
0.0017456947 0.048773918 0 0.23852047 0.14741376 -0.38593423
0 0.048823722 0.0022284535 0.23852047 0.14741376 -0.38593423
0.000992966 0.050005738 0 0.23852047 0.14741376 -0.38593423
0.00061653147 0.050621942 0 0.23852047 0.14741376 -0.38593423
0.00024004783 0.051238351 5.5511151e-17 0.23852047 0.14741376 -0.38593423
0.030758392 3.4402907e-05 0 0.23852047 0.14741376 -0.38593423
0.029465979 0 0.0016944417 0.23852047 0.14741376 -0.38593423
0.030001333 0.0012543489 0 0.23852047 0.14741376 -0.38593423
0.029622937 0.0018642825 5.5511151e-17 0.23852047 0.14741376 -0.38593423
0.029244624 0.0024741937 0 0.23852047 0.14741376 -0.38593423
0.028866397 0.0030840852 0 0.23852047 0.14741376 -0.38593423
0.028488252 0.0036939597 0 0.23852047 0.14741376 -0.38593423
0.021782409 0 0.011606402 0.23852047 0.14741376 -0.38593423
0.027732203 0.0049136695 0 0.23852047 0.14741376 -0.38593423
0.017792793 0 0.016754394 0.23852047 0.14741376 -0.38593423
0.026598701 0.0067431773 0 0.23852047 0.14741376 -0.38593423
0.026221015 0.0073530092 0 0.23852047 0.14741376 -0.38593423
0.025843397 0.0079628443 0 0.23852047 0.14741376 -0.38593423
0.025465848 0.0085726846 5.5511151e-17 0.23852047 0.14741376 -0.38593423
0.025088366 0.0091825332 0 0.23852047 0.14741376 -0.38593423
0.0094974209 0 0.027460992 0.23852047 0.14741376 -0.38593423
0.024333596 0.010402266 0 0.23852047 0.14741376 -0.38593423
0.0066338233 0 0.031157756 0.23852047 0.14741376 -0.38593423
0.023579072 0.011622067 0 0.23852047 0.14741376 -0.38593423
0.023201898 0.012231999 0 0.23852047 0.14741376 -0.38593423
0.022824779 0.012841956 0 0.23852047 0.14741376 -0.38593423
0.022447716 0.013451941 5.5511151e-17 0.23852047 0.14741376 -0.38593423
0.022070706 0.014061958 5.5511151e-17 0.23852047 0.14741376 -0.38593423
0.021693746 0.014672006 0 0.23852047 0.14741376 -0.38593423
0.021316836 0.015282093 0 0.23852047 0.14741376 -0.38593423
0.020939972 0.015892217 0 0.23852047 0.14741376 -0.38593423
2.7755576e-17 0.004151566 0.036410917 0.23852047 0.14741376 -0.38593423
0.020186383 0.017112596 0 0.23852047 0.14741376 -0.38593423
2.7755576e-17 0.0059761475 0.034955855 0.23852047 0.14741376 -0.38593423
0.019432966 0.018333165 0 0.23852047 0.14741376 -0.38593423
0.019056315 0.018943528 0 0.23852047 0.14741376 -0.38593423
0.018679703 0.019553946 0 0.23852047 0.14741376 -0.38593423
2.7755576e-17 0.0095882332 0.032076504 0.23852047 0.14741376 -0.38593423
0 0.01048365 0.031362977 0.23852047 0.14741376 -0.38593423
2.7755576e-17 0.011376063 0.030651946 0.23852047 0.14741376 -0.38593423
0.017173588 0.021996235 0 0.23852047 0.14741376 -0.38593423
0.016797137 0.022606976 0 0.23852047 0.14741376 -0.38593423
0.016420711 0.02321779 0 0.23852047 0.14741376 -0.38593423
0.016044311 0.02382868 0 0.23852047 0.14741376 -0.38593423
0.015667934 0.024439646 0 0.23852047 0.14741376 -0.38593423
0.015291578 0.025050694 0 0.23852047 0.14741376 -0.38593423
0.014915244 0.025661828 0 0.23852047 0.14741376 -0.38593423
0.014538927 0.026273048 0 0.23852047 0.14741376 -0.38593423
0.014162626 0.026884357 0 0.23852047 0.14741376 -0.38593423
2.7755576e-17 0.020139374 0.023675179 0.23852047 0.14741376 -0.38593423
0 0.021000039 0.022990517 0.23852047 0.14741376 -0.38593423
0.013033808 0.028718852 0 0.23852047 0.14741376 -0.38593423
0.012657557 0.029330546 5.5511151e-17 0.23852047 0.14741376 -0.38593423
0.012281314 0.029942347 0 0.23852047 0.14741376 -0.38593423
0.011905076 0.030554254 0 0.23852047 0.14741376 -0.38593423
0.011528844 0.03116627 0 0.23852047 0.14741376 -0.38593423
0.011152614 0.031778399 0 0.23852047 0.14741376 -0.38593423
0.010776385 0.032390643 0 0.23852047 0.14741376 -0.38593423
0.010400156 0.033003006 0 0.23852047 0.14741376 -0.38593423
0.010023924 0.033615489 0 0.23852047 0.14741376 -0.38593423
0.0096476879 0.034228094 0 0.23852047 0.14741376 -0.38593423
0.0092714457 0.034840826 0 0.23852047 0.14741376 -0.38593423
0.008895196 0.035453688 5.5511151e-17 0.23852047 0.14741376 -0.38593423
2.7755576e-17 0.031942543 0.014294468 0.23852047 0.14741376 -0.38593423
2.7755576e-17 0.032765936 0.013640785 0.23852047 0.14741376 -0.38593423
0.0077663842 0.03729308 5.5511151e-17 0.23852047 0.14741376 -0.38593423
0.007390087 0.037906487 5.5511151e-17 0.23852047 0.14741376 -0.38593423
0 0.035220973 0.01169234 0.23852047 0.14741376 -0.38593423
0.0066374419 0.039133735 0 0.23852047 0.14741376 -0.38593423
0.0062610903 0.039747585 5.5511151e-17 0.23852047 0.14741376 -0.38593423
0.0058847177 0.040361583 0 0.23852047 0.14741376 -0.38593423
0.0055083218 0.040975738 0 0.23852047 0.14741376 -0.38593423
2.7755576e-17 0.039263129 0.008486174 0.23852047 0.14741376 -0.38593423
0.0047554527 0.042204525 0 0.23852047 0.14741376 -0.38593423
0.0043789768 0.042819161 5.5511151e-17 0.23852047 0.14741376 -0.38593423
0.0040024705 0.043433964 0 0.23852047 0.14741376 -0.38593423
0.0036259326 0.044048935 5.5511151e-17 0.23852047 0.14741376 -0.38593423
0.0032493607 0.044664081 0 0.23852047 0.14741376 -0.38593423
0.0028727537 0.045279402 0 0.23852047 0.14741376 -0.38593423
0.0024961093 0.045894902 0 0.23852047 0.14741376 -0.38593423
0.0021194264 0.046510581 0 0.23852047 0.14741376 -0.38593423
0.0017427027 0.047126442 0 0.23852047 0.14741376 -0.38593423
0.0013659366 0.047742493 0 0.23852047 0.14741376 -0.38593423
0.00098912639 0.048358735 0 0.23852047 0.14741376 -0.38593423
0.00061227044 0.048975166 5.5511151e-17 0.23852047 0.14741376 -0.38593423
0.00023536687 0.049591795 0 0.23852047 0.14741376 -0.38593423
0.02965633 0.00017737436 0 0.23852047 0.14741376 -0.38593423
0.029277466 0.0007880248 0 0.23852047 0.14741376 -0.38593423
0.028898688 0.0013986488 0 0.23852047 0.14741376 -0.38593423
0.028519994 0.0020092491 0 0.23852047 0.14741376 -0.38593423
0.028141383 0.0026198286 0 0.23852047 0.14741376 -0.38593423
0.027762851 0.0032303899 0 0.23852047 0.14741376 -0.38593423
0.0273844 0.0038409361 0 0.23852047 0.14741376 -0.38593423
0.027006026 0.00445147 0 0.23852047 0.14741376 -0.38593423
0.026627727 0.0050619938 0 0.23852047 0.14741376 -0.38593423
0.01775438 0 0.01544516 0.23852047 0.14741376 -0.38593423
0.025871349 0.0062830248 0 0.23852047 0.14741376 -0.38593423
0.015042737 0 0.018932873 0.23852047 0.14741376 -0.38593423
0.025115253 0.0075040506 0 0.23852047 0.14741376 -0.38593423
0.024737306 0.0081145689 0 0.23852047 0.14741376 -0.38593423
0.024359424 0.0087250937 0 0.23852047 0.14741376 -0.38593423
0.023981607 0.0093356296 0 0.23852047 0.14741376 -0.38593423
0.023603849 0.0099461777 0 0.23852047 0.14741376 -0.38593423
0.023226151 0.010556742 5.5511151e-17 0.23852047 0.14741376 -0.38593423
0.022848513 0.011167324 0 0.23852047 0.14741376 -0.38593423
0.022470931 0.011777927 0 0.23852047 0.14741376 -0.38593423
0.022093402 0.012388555 0 0.23852047 0.14741376 -0.38593423
0.021715928 0.01299921 0 0.23852047 0.14741376 -0.38593423
0.021338504 0.013609895 0 0.23852047 0.14741376 -0.38593423
0.02096113 0.014220611 0 0.23852047 0.14741376 -0.38593423
0.020583803 0.014831363 0 0.23852047 0.14741376 -0.38593423
0.020206522 0.015442153 0 0.23852047 0.14741376 -0.38593423
0.019829286 0.016052984 0 0.23852047 0.14741376 -0.38593423
0.019452093 0.016663859 0 0.23852047 0.14741376 -0.38593423
0.019074939 0.01727478 0 0.23852047 0.14741376 -0.38593423
0 0.0068682688 0.032827061 0.23852047 0.14741376 -0.38593423
0.01832075 0.018496774 0 0.23852047 0.14741376 -0.38593423
0.017943708 0.019107852 0 0.23852047 0.14741376 -0.38593423
0 0.0095667476 0.030683303 0.23852047 0.14741376 -0.38593423
0.017189726 0.020330185 0 0.23852047 0.14741376 -0.38593423
0.016812781 0.020941446 0 0.23852047 0.14741376 -0.38593423
0 0.012238149 0.028561922 0.23852047 0.14741376 -0.38593423
0.016058976 0.022164166 0 0.23852047 0.14741376 -0.38593423
0.015682112 0.022775633 0 0.23852047 0.14741376 -0.38593423
0.015305272 0.023387175 5.5511151e-17 0.23852047 0.14741376 -0.38593423
0.014928454 0.023998795 0 0.23852047 0.14741376 -0.38593423
0.014551654 0.024610495 0 0.23852047 0.14741376 -0.38593423
0.014174874 0.025222277 0 0.23852047 0.14741376 -0.38593423
0.01379811 0.025834147 0 0.23852047 0.14741376 -0.38593423
0.013421361 0.026446104 0 0.23852047 0.14741376 -0.38593423
2.7755576e-17 0.02009513 0.022327745 0.23852047 0.14741376 -0.38593423
0.012667901 0.027670298 0 0.23852047 0.14741376 -0.38593423
0.012291186 0.02828254 0 0.23852047 0.14741376 -0.38593423
0.011914479 0.028894881 5.5511151e-17 0.23852047 0.14741376 -0.38593423
0.011537777 0.029507326 0 0.23852047 0.14741376 -0.38593423
0.011161081 0.030119875 0 0.23852047 0.14741376 -0.38593423
0.010784387 0.030732535 0 0.23852047 0.14741376 -0.38593423
0.010407694 0.031345304 0 0.23852047 0.14741376 -0.38593423
0.010031001 0.031958189 0 0.23852047 0.14741376 -0.38593423
0.009654304 0.032571193 0 0.23852047 0.14741376 -0.38593423
0 0.028561376 0.015619002 0.23852047 0.14741376 -0.38593423
0.0089008976 0.033797558 0 0.23852047 0.14741376 -0.38593423
0.0085241832 0.034410931 0 0.23852047 0.14741376 -0.38593423
0.0081474595 0.035024431 5.5511151e-17 0.23852047 0.14741376 -0.38593423
0.0077707246 0.03563806 0 0.23852047 0.14741376 -0.38593423
0.0073939771 0.036251824 0 0.23852047 0.14741376 -0.38593423
0.0070172143 0.036865726 5.5511151e-17 0.23852047 0.14741376 -0.38593423
0 0.034331549 0.011052144 0.23852047 0.14741376 -0.38593423
0.0062636388 0.038093954 0 0.23852047 0.14741376 -0.38593423
0.005886822 0.038708284 0 0.23852047 0.14741376 -0.38593423
0.0055099837 0.039322764 0 0.23852047 0.14741376 -0.38593423
0.0051331222 0.039937396 0 0.23852047 0.14741376 -0.38593423
0 0.038377944 0.0078523299 0.23852047 0.14741376 -0.38593423
0 0.03917991 0.0072184242 0.23852047 0.14741376 -0.38593423
0.0040023793 0.041782226 0 0.23852047 0.14741376 -0.38593423
0.0036254069 0.042397492 0 0.23852047 0.14741376 -0.38593423
0.0032484024 0.043012924 5.5511151e-17 0.23852047 0.14741376 -0.38593423
0.0028713641 0.043628525 0 0.23852047 0.14741376 -0.38593423
0.00249429 0.044244297 0 0.23852047 0.14741376 -0.38593423
0 0.043941796 0.0034563469 0.23852047 0.14741376 -0.38593423
0 0.044727258 0.0028361152 0.23852047 0.14741376 -0.38593423
0.0013628375 0.04609267 5.5511151e-17 0.23852047 0.14741376 -0.38593423
0 0.046291307 0.0016013577 0.23852047 0.14741376 -0.38593423
