# .PCD v0.7 - Point Cloud Data file format
VERSION 0.7
FIELDS x y z vp_x vp_y vp_z
SIZE 4 4 4 4 4 4
TYPE F F F F F F
COUNT 1 1 1 1 1 1
WIDTH 1030
HEIGHT 1
VIEWPOINT 0 0 0 1 0 0 0
POINTS 1030
DATA ascii
0.024248503 0.052450921 0 0 0 -0.47704095
0.024252674 0.053201016 5.5511151e-17 0 0 -0.47704095
0.024261197 0.054701991 5.5511151e-17 0 0 -0.47704095
0.024265548 0.055452876 5.5511151e-17 0 0 -0.47704095
0.024269961 0.056204032 0 0 0 -0.47704095
0.024274431 0.056955464 0 0 0 -0.47704095
0.024278963 0.057707176 0 0 0 -0.47704095
0.024288209 0.059211452 5.5511151e-17 0 0 -0.47704095
0.024302529 0.061470047 0 0 0 -0.47704095
0.024307424 0.062223509 5.5511151e-17 0 0 -0.47704095
0.024317395 0.063731357 0 0 0 -0.47704095
0.02432761 0.065240458 0 0 0 -0.47704095
0.024338068 0.066750839 0 0 0 -0.47704095
0.024343388 0.067506522 0 0 0 -0.47704095
0.024348769 0.068262532 0 0 0 -0.47704095
0.024354214 0.069018885 5.5511151e-17 0 0 -0.47704095
0.024359716 0.069775574 0 0 0 -0.47704095
0.024365282 0.070532605 5.5511151e-17 0 0 -0.47704095
0.024370909 0.071289986 5.5511151e-17 0 0 -0.47704095
0.024376597 0.072047725 0 0 0 -0.47704095
0.024382347 0.072805814 0 0 0 -0.47704095
0.024388157 0.073564261 5.5511151e-17 0 0 -0.47704095
0.02625729 0.079999998 0.036437213 0 0 -0.47704095
0.024399964 0.07508225 0 0 0 -0.47704095
0.025744071 0.079999998 0.026154824 0 0 -0.47704095
0.025495006 0.079999998 0.021162879 0 0 -0.47704095
0.02441814 0.077362038 0 0 0 -0.47704095
0.024424322 0.07812272 0 0 0 -0.47704095
0.024430566 0.078883797 5.5511151e-17 0 0 -0.47704095
0.024545712 0.079999998 0.0021246953 0 0 -0.47704095
0.023360413 0.00037050419 5.5511151e-17 0 0 -0.47704095
0.023360468 0.0011115143 5.5511151e-17 0 0 -0.47704095
0.02336058 0.0018525298 0 0 0 -0.47704095
0.02336075 0.0025935543 0 0 0 -0.47704095
0.023360975 0.0033345912 5.5511151e-17 0 0 -0.47704095
0.023361256 0.0040756445 5.5511151e-17 0 0 -0.47704095
0.023361595 0.004816717 0 0 0 -0.47704095
0.02336199 0.0055578132 0 0 0 -0.47704095
0.023362441 0.006298936 0 0 0 -0.47704095
0.023362948 0.007040089 0 0 0 -0.47704095
0.025322549 0.0084337378 0.039999999 0 0 -0.47704095
0.023364132 0.0085225012 0 0 0 -0.47704095
0.023364808 0.0092637669 0 0 0 -0.47704095
0.023365542 0.010005077 0 0 0 -0.47704095
0.023366332 0.010746436 0 0 0 -0.47704095
0.023367178 0.011487847 0 0 0 -0.47704095
0.023368079 0.012229313 0 0 0 -0.47704095
0.025328537 0.014058447 0.039999999 0 0 -0.47704095
0.023370054 0.013712427 5.5511151e-17 0 0 -0.47704095
0.023371125 0.014454081 5.5511151e-17 0 0 -0.47704095
0.023372253 0.015195805 0 0 0 -0.47704095
0.023373438 0.015937602 0 0 0 -0.47704095
0.023374679 0.016679477 5.5511151e-17 0 0 -0.47704095
0.025336059 0.018882222 0.039999999 0 0 -0.47704095
0.025337527 0.019686483 0.039999999 0 0 -0.47704095
0.023378743 0.018905599 0 0 0 -0.47704095
0.025340647 0.02129529 0.039999999 0 0 -0.47704095
0.023381734 0.020390129 0 0 0 -0.47704095
0.025344012 0.02290451 0.039999999 0 0 -0.47704095
0.025345786 0.023709284 0.039999999 0 0 -0.47704095
0.025347622 0.024514172 0.039999999 0 0 -0.47704095
0.023388397 0.023360405 0 0 0 -0.47704095
0.023390204 0.024103247 0 0 0 -0.47704095
0.023392068 0.024846205 0 0 0 -0.47704095
0.025355581 0.027734952 0.039999999 0 0 -0.47704095
0.023395967 0.026332488 5.5511151e-17 0 0 -0.47704095
0.02535993 0.029346133 0.039999999 0 0 -0.47704095
0.023400092 0.02781928 0 0 0 -0.47704095
0.02340224 0.028562875 0 0 0 -0.47704095
0.025366915 0.031763978 0.039999999 0 0 -0.47704095
0.025369367 0.032570228 0.039999999 0 0 -0.47704095
0.025371879 0.033376638 0.039999999 0 0 -0.47704095
0.025374454 0.034183208 0.039999999 0 0 -0.47704095
0.023413835 0.032283004 5.5511151e-17 0 0 -0.47704095
0.023416325 0.033027485 0 0 0 -0.47704095
0.023418872 0.033772126 0 0 0 -0.47704095
0.023421476 0.034516931 0 0 0 -0.47704095
0.023424137 0.035261903 0 0 0 -0.47704095
0.025391202 0.039026245 0.039999999 0 0 -0.47704095
0.02342963 0.036752362 0 0 0 -0.47704095
0.023432463 0.037497859 0 0 0 -0.47704095
0.023435352 0.03824354 0 0 0 -0.47704095
0.023441304 0.039735455 0 0 0 -0.47704095
0.023444366 0.040481701 0 0 0 -0.47704095
0.023447484 0.041228145 5.5511151e-17 0 0 -0.47704095
0.023450661 0.04197479 5.5511151e-17 0 0 -0.47704095
0.023453895 0.042721637 0 0 0 -0.47704095
0.023457186 0.043468695 5.5511151e-17 0 0 -0.47704095
0.023463942 0.044963442 0 0 0 -0.47704095
0.023467407 0.045711145 0 0 0 -0.47704095
0.023470927 0.046459068 0 0 0 -0.47704095
0.023474507 0.047207218 0 0 0 -0.47704095
0.02348184 0.048704214 0 0 0 -0.47704095
0.023489404 0.050202157 0 0 0 -0.47704095
0.023493273 0.050951496 0 0 0 -0.47704095
0.0234972 0.051701084 0 0 0 -0.47704095
0.023501184 0.052450921 0 0 0 -0.47704095
0.023513487 0.054701991 0 0 0 -0.47704095
0.023517704 0.055452876 5.5511151e-17 0 0 -0.47704095
0.02352198 0.056204032 5.5511151e-17 0 0 -0.47704095
0.023530707 0.057707176 0 0 0 -0.47704095
0.023535157 0.05845917 0 0 0 -0.47704095
0.023539666 0.059211452 5.5511151e-17 0 0 -0.47704095
0.023544233 0.05996402 5.5511151e-17 0 0 -0.47704095
0.02354886 0.060716886 0 0 0 -0.47704095
0.023553547 0.061470047 0 0 0 -0.47704095
0.023558289 0.062223509 0 0 0 -0.47704095
0.023563093 0.062977277 0 0 0 -0.47704095
0.023572873 0.064485751 0 0 0 -0.47704095
0.023577854 0.065240458 0 0 0 -0.47704095
0.023593144 0.067506522 0 0 0 -0.47704095
0.023598362 0.068262532 0 0 0 -0.47704095
0.023603637 0.069018885 0 0 0 -0.47704095
0.023608971 0.069775574 0 0 0 -0.47704095
0.023614364 0.070532605 0 0 0 -0.47704095
0.023619818 0.071289986 0 0 0 -0.47704095
0.023625331 0.072047725 0 0 0 -0.47704095
0.023630902 0.072805814 0 0 0 -0.47704095
0.025618464 0.079732642 0.039999999 0 0 -0.47704095
0.023642227 0.074323073 0 0 0 -0.47704095
0.023647979 0.07508225 0 0 0 -0.47704095
0.02365379 0.075841807 0 0 0 -0.47704095
0.023659661 0.076601729 0 0 0 -0.47704095
0.023665592 0.077362038 0 0 0 -0.47704095
0.023671584 0.07812272 0 0 0 -0.47704095
0.024012672 0.079999998 0.0067500891 0 0 -0.47704095
0.023683747 0.079645269 0 0 0 -0.47704095
0.022617683 0.00037050419 0 0 0 -0.47704095
0.022617737 0.0011115143 5.5511151e-17 0 0 -0.47704095
0.022617847 0.0018525298 0 0 0 -0.47704095
0.022618009 0.0025935543 0 0 0 -0.47704095
0.024514772 0.0036141975 0.039999999 0 0 -0.47704095
0.022618501 0.0040756445 0 0 0 -0.47704095
0.022618828 0.004816717 5.5511151e-17 0 0 -0.47704095
0.02261921 0.0055578132 0 0 0 -0.47704095
0.022619648 0.006298936 5.5511151e-17 0 0 -0.47704095
0.022620138 0.007040089 0 0 0 -0.47704095
0.022620684 0.007781276 5.5511151e-17 0 0 -0.47704095
0.022621285 0.0085225012 0 0 0 -0.47704095
0.022621939 0.0092637669 0 0 0 -0.47704095
0.022622649 0.010005077 5.5511151e-17 0 0 -0.47704095
0.022623414 0.010746436 5.5511151e-17 0 0 -0.47704095
0.022624232 0.011487847 0 0 0 -0.47704095
0.022625105 0.012229313 0 0 0 -0.47704095
0.022626035 0.012970839 0 0 0 -0.47704095
0.022627018 0.013712427 0 0 0 -0.47704095
0.022628056 0.014454081 5.5511151e-17 0 0 -0.47704095
0.022629147 0.015195805 0 0 0 -0.47704095
0.022630295 0.015937602 5.5511151e-17 0 0 -0.47704095
0.022631496 0.016679477 0 0 0 -0.47704095
0.024530515 0.018882222 0.039999999 0 0 -0.47704095
0.022634065 0.018163471 0 0 0 -0.47704095
0.02263543 0.018905599 0 0 0 -0.47704095
0.022636851 0.019647816 0 0 0 -0.47704095
0.022638327 0.020390129 5.5511151e-17 0 0 -0.47704095
0.022639858 0.021132542 0 0 0 -0.47704095
0.022641443 0.021875056 5.5511151e-17 0 0 -0.47704095
0.022643082 0.022617675 0 0 0 -0.47704095
0.024543548 0.02531918 0.039999999 0 0 -0.47704095
0.022646528 0.024103247 0 0 0 -0.47704095
0.0245474 0.026929567 0.039999999 0 0 -0.47704095
0.022650192 0.025589285 0 0 0 -0.47704095
0.022652106 0.026332488 5.5511151e-17 0 0 -0.47704095
0.022654077 0.027075818 0 0 0 -0.47704095
0.024555821 0.030151933 0.039999999 0 0 -0.47704095
0.022658182 0.028562875 0 0 0 -0.47704095
0.022660317 0.029306611 0 0 0 -0.47704095
0.024562763 0.032570228 0.039999999 0 0 -0.47704095
0.024565196 0.033376638 0.039999999 0 0 -0.47704095
0.022667052 0.03153868 0 0 0 -0.47704095
0.022669407 0.032283004 0 0 0 -0.47704095
0.022671819 0.033027485 0 0 0 -0.47704095
0.022674283 0.033772126 0 0 0 -0.47704095
0.022676805 0.034516931 5.5511151e-17 0 0 -0.47704095
0.024581052 0.038218621 0.039999999 0 0 -0.47704095
0.022682013 0.036007047 0 0 0 -0.47704095
0.022684701 0.036752362 0 0 0 -0.47704095
0.022687443 0.037497859 0 0 0 -0.47704095
0.02269024 0.03824354 0 0 0 -0.47704095
0.022693094 0.038989402 0 0 0 -0.47704095
0.022698967 0.040481701 0 0 0 -0.47704095
0.022701986 0.041228145 0 0 0 -0.47704095
0.022705061 0.04197479 0 0 0 -0.47704095
0.022708192 0.042721637 0 0 0 -0.47704095
0.022711379 0.043468695 5.5511151e-17 0 0 -0.47704095
0.022714622 0.044215962 0 0 0 -0.47704095
0.022724684 0.046459068 0 0 0 -0.47704095
0.022728151 0.047207218 5.5511151e-17 0 0 -0.47704095
0.022731673 0.047955599 5.5511151e-17 0 0 -0.47704095
0.022735249 0.048704214 5.5511151e-17 0 0 -0.47704095
0.022738883 0.049453065 5.5511151e-17 0 0 -0.47704095
0.022742573 0.050202157 5.5511151e-17 0 0 -0.47704095
0.022746319 0.050951496 0 0 0 -0.47704095
0.022750121 0.051701084 0 0 0 -0.47704095
0.022753978 0.052450921 0 0 0 -0.47704095
0.022757893 0.053201016 0 0 0 -0.47704095
0.022761863 0.053951371 0 0 0 -0.47704095
0.02276589 0.054701991 0 0 0 -0.47704095
0.022769975 0.055452876 0 0 0 -0.47704095
0.022774113 0.056204032 0 0 0 -0.47704095
0.02277831 0.056955464 0 0 0 -0.47704095
0.022782562 0.057707176 0 0 0 -0.47704095
0.022791237 0.059211452 0 0 0 -0.47704095
0.02279566 0.05996402 0 0 0 -0.47704095
0.02280014 0.060716886 5.5511151e-17 0 0 -0.47704095
0.022804676 0.061470047 0 0 0 -0.47704095
0.022809269 0.062223509 5.5511151e-17 0 0 -0.47704095
0.022813918 0.062977277 5.5511151e-17 0 0 -0.47704095
0.022818625 0.063731357 0 0 0 -0.47704095
0.02282339 0.064485751 0 0 0 -0.47704095
0.02282821 0.065240458 5.5511151e-17 0 0 -0.47704095
0.022838024 0.066750839 0 0 0 -0.47704095
0.022848066 0.068262532 5.5511151e-17 0 0 -0.47704095
0.026157748 0.078999028 0.068980224 0 0 -0.47704095
0.025907543 0.079083338 0.06363523 0 0 -0.47704095
0.025662135 0.079166032 0.058391374 0 0 -0.47704095
0.02286884 0.071289986 0 0 0 -0.47704095
0.022874178 0.072047725 5.5511151e-17 0 0 -0.47704095
0.02493971 0.079361439 0.042954013 0 0 -0.47704095
0.02480394 0.079732642 0.039999999 0 0 -0.47704095
0.022890536 0.074323073 0 0 0 -0.47704095
0.022896105 0.07508225 5.5511151e-17 0 0 -0.47704095
0.02415737 0.079999998 0.026154824 0 0 -0.47704095
0.023923654 0.079999998 0.021162879 0 0 -0.47704095
0.023694474 0.079999998 0.016266588 0 0 -0.47704095
0.022918962 0.07812272 0 0 0 -0.47704095
0.02292482 0.078883797 5.5511151e-17 0 0 -0.47704095
0.022930738 0.079645269 0 0 0 -0.47704095
0.021875063 0.00037050419 0 0 0 -0.47704095
0.021875115 0.0011115143 0 0 0 -0.47704095
0.023709463 0.0020078649 0.039999999 0 0 -0.47704095
0.02187538 0.0025935543 5.5511151e-17 0 0 -0.47704095
0.02187559 0.0033345912 5.5511151e-17 0 0 -0.47704095
0.021875855 0.0040756445 0 0 0 -0.47704095
0.021876171 0.004816717 0 0 0 -0.47704095
0.02187654 0.0055578132 5.5511151e-17 0 0 -0.47704095
0.021876963 0.006298936 0 0 0 -0.47704095
0.021877438 0.007040089 5.5511151e-17 0 0 -0.47704095
0.021877965 0.007781276 0 0 0 -0.47704095
0.023713067 0.0092371143 0.039999999 0 0 -0.47704095
0.021879179 0.0092637669 0 0 0 -0.47704095
0.021879867 0.010005077 0 0 0 -0.47704095
0.021880606 0.010746436 5.5511151e-17 0 0 -0.47704095
0.021881398 0.011487847 5.5511151e-17 0 0 -0.47704095
0.023717074 0.013254744 0.039999999 0 0 -0.47704095
0.021883139 0.012970839 0 0 0 -0.47704095
0.023719078 0.014862217 0.039999999 0 0 -0.47704095
0.023720166 0.015666058 0.039999999 0 0 -0.47704095
0.021886151 0.015195805 0 0 0 -0.47704095
0.02188726 0.015937602 0 0 0 -0.47704095
0.021888422 0.016679477 0 0 0 -0.47704095
0.021889638 0.017421432 0 0 0 -0.47704095
0.023726463 0.019686483 0.039999999 0 0 -0.47704095
0.021892227 0.018905599 5.5511151e-17 0 0 -0.47704095
0.021893602 0.019647816 0 0 0 -0.47704095
0.021895029 0.020390129 0 0 0 -0.47704095
0.021896509 0.021132542 5.5511151e-17 0 0 -0.47704095
0.021898042 0.021875056 0 0 0 -0.47704095
0.021899629 0.022617675 5.5511151e-17 0 0 -0.47704095
0.023737695 0.02531918 0.039999999 0 0 -0.47704095
0.02190296 0.024103247 5.5511151e-17 0 0 -0.47704095
0.021904707 0.024846205 0 0 0 -0.47704095
0.021906504 0.025589285 0 0 0 -0.47704095
0.021908358 0.026332488 0 0 0 -0.47704095
0.021910261 0.027075818 5.5511151e-17 0 0 -0.47704095
0.021912221 0.02781928 5.5511151e-17 0 0 -0.47704095
0.021914233 0.028562875 5.5511151e-17 0 0 -0.47704095
0.023753984 0.031763978 0.039999999 0 0 -0.47704095
0.021918414 0.030050486 0 0 0 -0.47704095
0.021920586 0.030794509 0 0 0 -0.47704095
0.02192281 0.03153868 0 0 0 -0.47704095
0.021925088 0.032283004 0 0 0 -0.47704095
0.02192742 0.033027485 5.5511151e-17 0 0 -0.47704095
0.023768624 0.036603928 0.039999999 0 0 -0.47704095
0.021932244 0.034516931 0 0 0 -0.47704095
0.021934735 0.035261903 5.5511151e-17 0 0 -0.47704095
0.023776727 0.039026245 0.039999999 0 0 -0.47704095
0.021939879 0.036752362 0 0 0 -0.47704095
0.021942532 0.037497859 5.5511151e-17 0 0 -0.47704095
0.021945238 0.03824354 0 0 0 -0.47704095
0.021947997 0.038989402 0 0 0 -0.47704095
0.021950811 0.039735455 0 0 0 -0.47704095
0.021953678 0.040481701 0 0 0 -0.47704095
0.021956598 0.041228145 0 0 0 -0.47704095
0.021962602 0.042721637 0 0 0 -0.47704095
0.021965684 0.043468695 0 0 0 -0.47704095
0.021968819 0.044215962 0 0 0 -0.47704095
0.021978552 0.046459068 0 0 0 -0.47704095
0.021981902 0.047207218 5.5511151e-17 0 0 -0.47704095
0.02198877 0.048704214 0 0 0 -0.47704095
0.021992283 0.049453065 5.5511151e-17 0 0 -0.47704095
0.021995852 0.050202157 5.5511151e-17 0 0 -0.47704095
0.021999475 0.050951496 5.5511151e-17 0 0 -0.47704095
0.022003151 0.051701084 0 0 0 -0.47704095
0.022006884 0.052450921 0 0 0 -0.47704095
0.02201451 0.053951371 0 0 0 -0.47704095
0.022030415 0.056955464 5.5511151e-17 0 0 -0.47704095
0.022034528 0.057707176 0 0 0 -0.47704095
0.022038696 0.05845917 5.5511151e-17 0 0 -0.47704095
0.022042919 0.059211452 5.5511151e-17 0 0 -0.47704095
0.022047196 0.05996402 0 0 0 -0.47704095
0.022055916 0.061470047 5.5511151e-17 0 0 -0.47704095
0.022060359 0.062223509 5.5511151e-17 0 0 -0.47704095
0.022064855 0.062977277 0 0 0 -0.47704095
0.022074016 0.064485751 0 0 0 -0.47704095
0.022078678 0.065240458 5.5511151e-17 0 0 -0.47704095
0.022083396 0.065995485 0 0 0 -0.47704095
0.022088168 0.066750839 0 0 0 -0.47704095
0.022092998 0.067506522 0 0 0 -0.47704095
0.022097882 0.068262532 0 0 0 -0.47704095
0.022102822 0.069018885 5.5511151e-17 0 0 -0.47704095
0.025131635 0.079319194 0.065247744 0 0 -0.47704095
0.022112867 0.070532605 5.5511151e-17 0 0 -0.47704095
0.022117974 0.071289986 5.5511151e-17 0 0 -0.47704095
0.022123136 0.072047725 0 0 0 -0.47704095
0.022128355 0.072805814 5.5511151e-17 0 0 -0.47704095
0.022133628 0.073564261 0 0 0 -0.47704095
0.022138959 0.074323073 0 0 0 -0.47704095
0.022144344 0.07508225 5.5511151e-17 0 0 -0.47704095
0.023364197 0.079999998 0.026154824 0 0 -0.47704095
0.023138154 0.079999998 0.021162879 0 0 -0.47704095
0.022160837 0.077362038 5.5511151e-17 0 0 -0.47704095
0.022699105 0.079999998 0.011463206 0 0 -0.47704095
0.022172116 0.078883797 0 0 0 -0.47704095
0.02217784 0.079645269 0 0 0 -0.47704095
0.022904517 0.00040157104 0.039999999 0 0 -0.47704095
0.0211326 0.0011115143 5.5511151e-17 0 0 -0.47704095
0.022904683 0.0020078649 0.039999999 0 0 -0.47704095
0.021132853 0.0025935543 0 0 0 -0.47704095
0.02290507 0.0036141975 0.039999999 0 0 -0.47704095
0.021133313 0.0040756445 5.5511151e-17 0 0 -0.47704095
0.021133618 0.004816717 0 0 0 -0.47704095
0.022906065 0.0060238373 0.039999999 0 0 -0.47704095
0.022906506 0.006827103 0.039999999 0 0 -0.47704095
0.021134842 0.007040089 0 0 0 -0.47704095
0.021135353 0.007781276 0 0 0 -0.47704095
0.021135913 0.0085225012 0 0 0 -0.47704095
0.022908829 0.010040536 0.039999999 0 0 -0.47704095
0.021137189 0.010005077 0 0 0 -0.47704095
0.021137903 0.010746436 0 0 0 -0.47704095
0.021138668 0.011487847 5.5511151e-17 0 0 -0.47704095
0.021139484 0.012229313 0 0 0 -0.47704095
0.021140352 0.012970839 0 0 0 -0.47704095
0.02291397 0.014862217 0.039999999 0 0 -0.47704095
0.021142239 0.014454081 0 0 0 -0.47704095
0.021143259 0.015195805 0 0 0 -0.47704095
0.021144332 0.015937602 5.5511151e-17 0 0 -0.47704095
0.021145456 0.016679477 0 0 0 -0.47704095
0.021146629 0.017421432 0 0 0 -0.47704095
0.021147855 0.018163471 0 0 0 -0.47704095
0.021149131 0.018905599 5.5511151e-17 0 0 -0.47704095
0.021150459 0.019647816 0 0 0 -0.47704095
0.022925423 0.022099847 0.039999999 0 0 -0.47704095
0.021153267 0.021132542 0 0 0 -0.47704095
0.021154748 0.021875056 0 0 0 -0.47704095
0.021156281 0.022617675 0 0 0 -0.47704095
0.021157864 0.023360405 0 0 0 -0.47704095
0.0211595 0.024103247 0 0 0 -0.47704095
0.022935556 0.026929567 0.039999999 0 0 -0.47704095
0.021162923 0.025589285 0 0 0 -0.47704095
0.021164712 0.026332488 5.5511151e-17 0 0 -0.47704095
0.021166554 0.027075818 0 0 0 -0.47704095
0.021168444 0.02781928 0 0 0 -0.47704095
0.022945531 0.030957879 0.039999999 0 0 -0.47704095
0.021172382 0.029306611 0 0 0 -0.47704095
0.021174429 0.030050486 0 0 0 -0.47704095
0.021176526 0.030794509 0 0 0 -0.47704095
0.021178676 0.03153868 0 0 0 -0.47704095
0.021180876 0.032283004 0 0 0 -0.47704095
0.021183129 0.033027485 0 0 0 -0.47704095
0.021185433 0.033772126 0 0 0 -0.47704095
0.021187788 0.034516931 0 0 0 -0.47704095
0.021190196 0.035261903 0 0 0 -0.47704095
0.021192655 0.036007047 5.5511151e-17 0 0 -0.47704095
0.022972384 0.03983406 0.039999999 0 0 -0.47704095
0.021197727 0.037497859 5.5511151e-17 0 0 -0.47704095
0.021203008 0.038989402 0 0 0 -0.47704095
0.021205725 0.039735455 0 0 0 -0.47704095
0.021208495 0.040481701 5.5511151e-17 0 0 -0.47704095
0.021214191 0.04197479 0 0 0 -0.47704095
0.021217115 0.042721637 0 0 0 -0.47704095
0.021223122 0.044215962 5.5511151e-17 0 0 -0.47704095
0.021226205 0.044963442 0 0 0 -0.47704095
0.021232525 0.046459068 0 0 0 -0.47704095
0.021235762 0.047207218 5.5511151e-17 0 0 -0.47704095
0.021239053 0.047955599 0 0 0 -0.47704095
0.021242395 0.048704214 5.5511151e-17 0 0 -0.47704095
0.021245791 0.049453065 0 0 0 -0.47704095
0.021252738 0.050951496 5.5511151e-17 0 0 -0.47704095
0.02125629 0.051701084 0 0 0 -0.47704095
0.021259895 0.052450921 5.5511151e-17 0 0 -0.47704095
0.021263553 0.053201016 5.5511151e-17 0 0 -0.47704095
0.021267261 0.053951371 5.5511151e-17 0 0 -0.47704095
0.021271024 0.054701991 0 0 0 -0.47704095
0.021278707 0.056204032 5.5511151e-17 0 0 -0.47704095
0.021282628 0.056955464 0 0 0 -0.47704095
0.021290628 0.05845917 0 0 0 -0.47704095
0.021294707 0.059211452 0 0 0 -0.47704095
0.021303024 0.060716886 0 0 0 -0.47704095
0.021307264 0.061470047 0 0 0 -0.47704095
0.021311555 0.062223509 0 0 0 -0.47704095
0.021315899 0.062977277 0 0 0 -0.47704095
0.021320296 0.063731357 0 0 0 -0.47704095
0.021324748 0.064485751 0 0 0 -0.47704095
0.021329252 0.065240458 0 0 0 -0.47704095
0.02133381 0.065995485 0 0 0 -0.47704095
0.021338422 0.066750839 0 0 0 -0.47704095
0.021343086 0.067506522 0 0 0 -0.47704095
0.021347804 0.068262532 5.5511151e-17 0 0 -0.47704095
0.021352576 0.069018885 0 0 0 -0.47704095
0.021357402 0.069775574 0 0 0 -0.47704095
0.02136228 0.070532605 0 0 0 -0.47704095
0.021367215 0.071289986 5.5511151e-17 0 0 -0.47704095
0.021372201 0.072047725 5.5511151e-17 0 0 -0.47704095
0.021377243 0.072805814 5.5511151e-17 0 0 -0.47704095
0.023178188 0.079742745 0.040065523 0 0 -0.47704095
0.021387486 0.074323073 0 0 0 -0.47704095
0.02139269 0.07508225 0 0 0 -0.47704095
0.021397946 0.075841807 0 0 0 -0.47704095
0.021403259 0.076601729 5.5511151e-17 0 0 -0.47704095
0.021408623 0.077362038 0 0 0 -0.47704095
0.021414043 0.07812272 0 0 0 -0.47704095
0.021419518 0.078883797 0 0 0 -0.47704095
0.021425048 0.079645269 0 0 0 -0.47704095
0.022099854 0.00040157104 0.039999999 0 0 -0.47704095
0.020390185 0.0011115143 5.5511151e-17 0 0 -0.47704095
0.020390283 0.0018525298 5.5511151e-17 0 0 -0.47704095
0.022100173 0.0028110244 0.039999999 0 0 -0.47704095
0.020390628 0.0033345912 0 0 0 -0.47704095
0.020390874 0.0040756445 5.5511151e-17 0 0 -0.47704095
0.020391168 0.004816717 0 0 0 -0.47704095
0.020391513 0.0055578132 5.5511151e-17 0 0 -0.47704095
0.020391908 0.006298936 0 0 0 -0.47704095
0.022102254 0.0076304022 0.039999999 0 0 -0.47704095
0.022102786 0.0084337378 0.039999999 0 0 -0.47704095
0.022103373 0.0092371143 0.039999999 0 0 -0.47704095
0.020393973 0.0092637669 5.5511151e-17 0 0 -0.47704095
0.020394614 0.010005077 0 0 0 -0.47704095
0.020395303 0.010746436 0 0 0 -0.47704095
0.022106254 0.012451106 0.039999999 0 0 -0.47704095
0.020396829 0.012229313 0 0 0 -0.47704095
0.020397665 0.012970839 0 0 0 -0.47704095
0.020398552 0.013712427 0 0 0 -0.47704095
0.020399487 0.014454081 5.5511151e-17 0 0 -0.47704095
0.020400472 0.015195805 5.5511151e-17 0 0 -0.47704095
0.022112178 0.017273974 0.039999999 0 0 -0.47704095
0.022113351 0.018078055 0.039999999 0 0 -0.47704095
0.022114579 0.018882222 0.039999999 0 0 -0.47704095
0.020404905 0.018163471 5.5511151e-17 0 0 -0.47704095
0.020406136 0.018905599 0 0 0 -0.47704095
0.022118583 0.02129529 0.039999999 0 0 -0.47704095
0.020408748 0.020390129 0 0 0 -0.47704095
0.022121521 0.02290451 0.039999999 0 0 -0.47704095
0.02212307 0.023709284 0.039999999 0 0 -0.47704095
0.020413034 0.022617675 5.5511151e-17 0 0 -0.47704095
0.020414563 0.023360405 0 0 0 -0.47704095
0.022128038 0.02612431 0.039999999 0 0 -0.47704095
0.022129802 0.026929567 0.039999999 0 0 -0.47704095
0.020419445 0.025589285 5.5511151e-17 0 0 -0.47704095
0.02042117 0.026332488 0 0 0 -0.47704095
0.020422947 0.027075818 0 0 0 -0.47704095
0.020424772 0.02781928 0 0 0 -0.47704095
0.020426646 0.028562875 0 0 0 -0.47704095
0.020428572 0.029306611 0 0 0 -0.47704095
0.020430546 0.030050486 0 0 0 -0.47704095
0.020432569 0.030794509 0 0 0 -0.47704095
0.020434642 0.03153868 0 0 0 -0.47704095
0.022150394 0.034989942 0.039999999 0 0 -0.47704095
0.020438939 0.033027485 0 0 0 -0.47704095
0.020441163 0.033772126 0 0 0 -0.47704095
0.020443436 0.034516931 5.5511151e-17 0 0 -0.47704095
0.020445758 0.035261903 5.5511151e-17 0 0 -0.47704095
0.020448131 0.036007047 0 0 0 -0.47704095
0.020450553 0.036752362 5.5511151e-17 0 0 -0.47704095
0.020453025 0.037497859 0 0 0 -0.47704095
0.020455549 0.03824354 0 0 0 -0.47704095
0.020458121 0.038989402 0 0 0 -0.47704095
0.020460742 0.039735455 0 0 0 -0.47704095
0.020463414 0.040481701 0 0 0 -0.47704095
0.020466138 0.041228145 5.5511151e-17 0 0 -0.47704095
0.020468909 0.04197479 5.5511151e-17 0 0 -0.47704095
0.020471733 0.042721637 0 0 0 -0.47704095
0.020474605 0.043468695 5.5511151e-17 0 0 -0.47704095
0.020477528 0.044215962 0 0 0 -0.47704095
0.020480502 0.044963442 0 0 0 -0.47704095
0.020483525 0.045711145 5.5511151e-17 0 0 -0.47704095
0.020489724 0.047207218 5.5511151e-17 0 0 -0.47704095
0.020492898 0.047955599 0 0 0 -0.47704095
0.020496124 0.048704214 0 0 0 -0.47704095
0.020502726 0.050202157 0 0 0 -0.47704095
0.020506103 0.050951496 0 0 0 -0.47704095
0.02050953 0.051701084 0 0 0 -0.47704095
0.020516537 0.053201016 0 0 0 -0.47704095
0.020523747 0.054701991 0 0 0 -0.47704095
0.020527428 0.055452876 0 0 0 -0.47704095
0.020531161 0.056204032 5.5511151e-17 0 0 -0.47704095
0.020534944 0.056955464 0 0 0 -0.47704095
0.020538777 0.057707176 0 0 0 -0.47704095
0.020550584 0.05996402 0 0 0 -0.47704095
0.020554623 0.060716886 0 0 0 -0.47704095
0.020558713 0.061470047 5.5511151e-17 0 0 -0.47704095
0.020567045 0.062977277 5.5511151e-17 0 0 -0.47704095
0.020571288 0.063731357 5.5511151e-17 0 0 -0.47704095
0.020575583 0.064485751 0 0 0 -0.47704095
0.02057993 0.065240458 5.5511151e-17 0 0 -0.47704095
0.020584328 0.065995485 0 0 0 -0.47704095
0.020588776 0.066750839 0 0 0 -0.47704095
0.02059783 0.068262532 0 0 0 -0.47704095
0.020602435 0.069018885 0 0 0 -0.47704095
0.02060709 0.069775574 5.5511151e-17 0 0 -0.47704095
0.020611798 0.070532605 0 0 0 -0.47704095
0.020616557 0.071289986 0 0 0 -0.47704095
0.020621371 0.072047725 0 0 0 -0.47704095
0.022609042 0.079804666 0.045858134 0 0 -0.47704095
0.020631149 0.073564261 0 0 0 -0.47704095
0.020636117 0.074323073 0 0 0 -0.47704095
0.020641139 0.07508225 0 0 0 -0.47704095
0.020646211 0.075841807 0 0 0 -0.47704095
0.020651335 0.076601729 5.5511151e-17 0 0 -0.47704095
0.020656513 0.077362038 0 0 0 -0.47704095
0.020661743 0.07812272 0 0 0 -0.47704095
0.020667024 0.078883797 0 0 0 -0.47704095
0.020764433 0.079999998 0.0021246953 0 0 -0.47704095
0.021295296 0.00040157104 0.039999999 0 0 -0.47704095
0.021295348 0.0012047151 0.039999999 0 0 -0.47704095
0.019647965 0.0018525298 5.5511151e-17 0 0 -0.47704095
0.021295605 0.0028110244 0.039999999 0 0 -0.47704095
0.019648297 0.0033345912 0 0 0 -0.47704095
0.019648533 0.0040756445 0 0 0 -0.47704095
0.019648818 0.004816717 0 0 0 -0.47704095
0.021296736 0.0060238373 0.039999999 0 0 -0.47704095
0.01964953 0.006298936 0 0 0 -0.47704095
0.019649956 0.007040089 5.5511151e-17 0 0 -0.47704095
0.019650429 0.007781276 0 0 0 -0.47704095
0.021298688 0.0092371143 0.039999999 0 0 -0.47704095
0.019651521 0.0092637669 5.5511151e-17 0 0 -0.47704095
0.019652138 0.010005077 0 0 0 -0.47704095
0.019652801 0.010746436 0 0 0 -0.47704095
0.019653512 0.011487847 5.5511151e-17 0 0 -0.47704095
0.019654272 0.012229313 0 0 0 -0.47704095
0.019655079 0.012970839 0 0 0 -0.47704095
0.019655932 0.013712427 5.5511151e-17 0 0 -0.47704095
0.019656833 0.014454081 0 0 0 -0.47704095
0.021306092 0.016469978 0.039999999 0 0 -0.47704095
0.019658778 0.015937602 5.5511151e-17 0 0 -0.47704095
0.019659823 0.016679477 0 0 0 -0.47704095
0.019660914 0.017421432 0 0 0 -0.47704095
0.019662052 0.018163471 5.5511151e-17 0 0 -0.47704095
0.019663239 0.018905599 0 0 0 -0.47704095
0.021313345 0.02129529 0.039999999 0 0 -0.47704095
0.021314735 0.022099847 0.039999999 0 0 -0.47704095
0.019667085 0.021132542 0 0 0 -0.47704095
0.019668462 0.021875056 0 0 0 -0.47704095
0.019669887 0.022617675 0 0 0 -0.47704095
0.021320809 0.02531918 0.039999999 0 0 -0.47704095
0.01967288 0.024103247 0 0 0 -0.47704095
0.019674448 0.024846205 0 0 0 -0.47704095
0.019676063 0.025589285 0 0 0 -0.47704095
0.019677727 0.026332488 5.5511151e-17 0 0 -0.47704095
0.019679438 0.027075818 0 0 0 -0.47704095
0.019681197 0.02781928 0 0 0 -0.47704095
0.019683003 0.028562875 0 0 0 -0.47704095
0.019684859 0.029306611 0 0 0 -0.47704095
0.01968676 0.030050486 5.5511151e-17 0 0 -0.47704095
0.019688711 0.030794509 0 0 0 -0.47704095
0.02134178 0.034183208 0.039999999 0 0 -0.47704095
0.021343999 0.034989942 0.039999999 0 0 -0.47704095
0.01969485 0.033027485 0 0 0 -0.47704095
0.021348588 0.036603928 0.039999999 0 0 -0.47704095
0.021350963 0.037411183 0.039999999 0 0 -0.47704095
0.019701419 0.035261903 0 0 0 -0.47704095
0.019703707 0.036007047 5.5511151e-17 0 0 -0.47704095
0.019706041 0.036752362 0 0 0 -0.47704095
0.019708423 0.037497859 0 0 0 -0.47704095
0.019710854 0.03824354 0 0 0 -0.47704095
0.019713331 0.038989402 0 0 0 -0.47704095
0.019715859 0.039735455 0 0 0 -0.47704095
0.019718433 0.040481701 5.5511151e-17 0 0 -0.47704095
0.019723728 0.04197479 5.5511151e-17 0 0 -0.47704095
0.019726448 0.042721637 5.5511151e-17 0 0 -0.47704095
0.019729218 0.043468695 5.5511151e-17 0 0 -0.47704095
0.019732034 0.044215962 0 0 0 -0.47704095
0.019734899 0.044963442 5.5511151e-17 0 0 -0.47704095
0.019737812 0.045711145 0 0 0 -0.47704095
0.019740775 0.046459068 0 0 0 -0.47704095
0.019743785 0.047207218 0 0 0 -0.47704095
0.019746844 0.047955599 0 0 0 -0.47704095
0.019749952 0.048704214 0 0 0 -0.47704095
0.019753108 0.049453065 0 0 0 -0.47704095
0.019756313 0.050202157 0 0 0 -0.47704095
0.019759567 0.050951496 0 0 0 -0.47704095
0.01976287 0.051701084 0 0 0 -0.47704095
0.019766223 0.052450921 0 0 0 -0.47704095
0.01977657 0.054701991 5.5511151e-17 0 0 -0.47704095
0.019783713 0.056204032 0 0 0 -0.47704095
0.019787358 0.056955464 5.5511151e-17 0 0 -0.47704095
0.019791052 0.057707176 0 0 0 -0.47704095
0.019794796 0.05845917 0 0 0 -0.47704095
0.019798588 0.059211452 0 0 0 -0.47704095
0.019802431 0.05996402 5.5511151e-17 0 0 -0.47704095
0.019806322 0.060716886 0 0 0 -0.47704095
0.019810261 0.061470047 0 0 0 -0.47704095
0.019814253 0.062223509 5.5511151e-17 0 0 -0.47704095
0.01982238 0.063731357 0 0 0 -0.47704095
0.019830706 0.065240458 0 0 0 -0.47704095
0.019834943 0.065995485 0 0 0 -0.47704095
0.019839231 0.066750839 5.5511151e-17 0 0 -0.47704095
0.019843569 0.067506522 0 0 0 -0.47704095
0.019847956 0.068262532 0 0 0 -0.47704095
0.019852392 0.069018885 5.5511151e-17 0 0 -0.47704095
0.019856878 0.069775574 0 0 0 -0.47704095
0.019861415 0.070532605 0 0 0 -0.47704095
0.022249635 0.079843767 0.057238054 0 0 -0.47704095
0.019870639 0.072047725 0 0 0 -0.47704095
0.019875325 0.072805814 0 0 0 -0.47704095
0.019880062 0.073564261 0 0 0 -0.47704095
0.021403689 0.079999998 0.036437213 0 0 -0.47704095
0.019889686 0.07508225 5.5511151e-17 0 0 -0.47704095
0.019894574 0.075841807 5.5511151e-17 0 0 -0.47704095
0.019899514 0.076601729 0 0 0 -0.47704095
0.019904502 0.077362038 0 0 0 -0.47704095
0.01990954 0.07812272 5.5511151e-17 0 0 -0.47704095
0.019919772 0.079645269 0 0 0 -0.47704095
0.020490844 0.00040157104 0.039999999 0 0 -0.47704095
0.018905649 0.0011115143 0 0 0 -0.47704095
0.01890574 0.0018525298 0 0 0 -0.47704095
0.018905878 0.0025935543 5.5511151e-17 0 0 -0.47704095
0.018906061 0.0033345912 5.5511151e-17 0 0 -0.47704095
0.018906288 0.0040756445 0 0 0 -0.47704095
0.018906562 0.004816717 0 0 0 -0.47704095
0.01890688 0.0055578132 0 0 0 -0.47704095
0.020492623 0.006827103 0.039999999 0 0 -0.47704095
0.018907657 0.007040089 5.5511151e-17 0 0 -0.47704095
0.018908113 0.007781276 0 0 0 -0.47704095
0.018908614 0.0085225012 0 0 0 -0.47704095
0.018909162 0.0092637669 5.5511151e-17 0 0 -0.47704095
0.018909756 0.010005077 0 0 0 -0.47704095
0.018910395 0.010746436 0 0 0 -0.47704095
0.018911079 0.011487847 0 0 0 -0.47704095
0.018911809 0.012229313 5.5511151e-17 0 0 -0.47704095
0.018912585 0.012970839 0 0 0 -0.47704095
0.018913407 0.013712427 0 0 0 -0.47704095
0.018914275 0.014454081 5.5511151e-17 0 0 -0.47704095
0.02050123 0.016469978 0.039999999 0 0 -0.47704095
0.018916147 0.015937602 0 0 0 -0.47704095
0.018917151 0.016679477 0 0 0 -0.47704095
0.018918201 0.017421432 0 0 0 -0.47704095
0.018919297 0.018163471 0 0 0 -0.47704095
0.018920438 0.018905599 0 0 0 -0.47704095
0.018921627 0.019647816 0 0 0 -0.47704095
0.01892286 0.020390129 0 0 0 -0.47704095
0.018924139 0.021132542 5.5511151e-17 0 0 -0.47704095
0.018925464 0.021875056 5.5511151e-17 0 0 -0.47704095
0.018926835 0.022617675 0 0 0 -0.47704095
0.018928252 0.023360405 0 0 0 -0.47704095
0.020516977 0.02612431 0.039999999 0 0 -0.47704095
0.018931223 0.024846205 5.5511151e-17 0 0 -0.47704095
0.020520296 0.027734952 0.039999999 0 0 -0.47704095
0.02052203 0.028540473 0.039999999 0 0 -0.47704095
0.020523816 0.029346133 0.039999999 0 0 -0.47704095
0.020525649 0.030151933 0.039999999 0 0 -0.47704095
0.018939456 0.028562875 0 0 0 -0.47704095
0.020529468 0.031763978 0.039999999 0 0 -0.47704095
0.018943071 0.030050486 0 0 0 -0.47704095
0.020533487 0.033376638 0.039999999 0 0 -0.47704095
0.018946871 0.03153868 0 0 0 -0.47704095
0.01894884 0.032283004 0 0 0 -0.47704095
0.018950853 0.033027485 5.5511151e-17 0 0 -0.47704095
0.020542122 0.036603928 0.039999999 0 0 -0.47704095
0.020544406 0.037411183 0.039999999 0 0 -0.47704095
0.018957177 0.035261903 0 0 0 -0.47704095
0.018959377 0.036007047 0 0 0 -0.47704095
0.018961621 0.036752362 5.5511151e-17 0 0 -0.47704095
0.018968638 0.038989402 5.5511151e-17 0 0 -0.47704095
0.018973548 0.040481701 5.5511151e-17 0 0 -0.47704095
0.018978642 0.04197479 0 0 0 -0.47704095
0.018981259 0.042721637 0 0 0 -0.47704095
0.018986633 0.044215962 0 0 0 -0.47704095
0.018989392 0.044963442 0 0 0 -0.47704095
0.018992195 0.045711145 0 0 0 -0.47704095
0.018995045 0.046459068 0 0 0 -0.47704095
0.018997941 0.047207218 0 0 0 -0.47704095
0.019000886 0.047955599 0 0 0 -0.47704095
0.019003876 0.048704214 5.5511151e-17 0 0 -0.47704095
0.019009996 0.050202157 0 0 0 -0.47704095
0.019013127 0.050951496 0 0 0 -0.47704095
0.019016305 0.051701084 5.5511151e-17 0 0 -0.47704095
0.019019531 0.052450921 0 0 0 -0.47704095
0.019022802 0.053201016 0 0 0 -0.47704095
0.019026121 0.053951371 0 0 0 -0.47704095
0.019029487 0.054701991 0 0 0 -0.47704095
0.019032901 0.055452876 5.5511151e-17 0 0 -0.47704095
0.01903636 0.056204032 5.5511151e-17 0 0 -0.47704095
0.019043423 0.057707176 0 0 0 -0.47704095
0.019047026 0.05845917 0 0 0 -0.47704095
0.019050675 0.059211452 0 0 0 -0.47704095
0.019054372 0.05996402 5.5511151e-17 0 0 -0.47704095
0.019058116 0.060716886 0 0 0 -0.47704095
0.019061906 0.061470047 0 0 0 -0.47704095
0.019065747 0.062223509 0 0 0 -0.47704095
0.019069633 0.062977277 0 0 0 -0.47704095
0.019073568 0.063731357 5.5511151e-17 0 0 -0.47704095
0.019077549 0.064485751 5.5511151e-17 0 0 -0.47704095
0.01908158 0.065240458 0 0 0 -0.47704095
0.019085657 0.065995485 0 0 0 -0.47704095
0.019089783 0.066750839 0 0 0 -0.47704095
0.019098176 0.068262532 0 0 0 -0.47704095
0.019102445 0.069018885 0 0 0 -0.47704095
0.019106762 0.069775574 5.5511151e-17 0 0 -0.47704095
0.019111129 0.070532605 0 0 0 -0.47704095
0.019115541 0.071289986 5.5511151e-17 0 0 -0.47704095
0.019120002 0.072047725 0 0 0 -0.47704095
0.019124512 0.072805814 0 0 0 -0.47704095
0.01912907 0.073564261 0 0 0 -0.47704095
0.019133676 0.074323073 5.5511151e-17 0 0 -0.47704095
0.019138331 0.07508225 5.5511151e-17 0 0 -0.47704095
0.019143034 0.075841807 0 0 0 -0.47704095
0.019997235 0.079999998 0.021162879 0 0 -0.47704095
0.019152587 0.077362038 0 0 0 -0.47704095
0.019157436 0.07812272 5.5511151e-17 0 0 -0.47704095
0.019162333 0.078883797 5.5511151e-17 0 0 -0.47704095
0.01916728 0.079645269 5.5511151e-17 0 0 -0.47704095
0.018163476 0.00037050419 0 0 0 -0.47704095
0.018163521 0.0011115143 0 0 0 -0.47704095
0.018163608 0.0018525298 0 0 0 -0.47704095
0.018163739 0.0025935543 0 0 0 -0.47704095
0.018163914 0.0033345912 5.5511151e-17 0 0 -0.47704095
0.018164134 0.0040756445 0 0 0 -0.47704095
0.018164396 0.004816717 0 0 0 -0.47704095
0.018164704 0.0055578132 0 0 0 -0.47704095
0.018165054 0.006298936 0 0 0 -0.47704095
0.018165449 0.007040089 5.5511151e-17 0 0 -0.47704095
0.018165886 0.007781276 5.5511151e-17 0 0 -0.47704095
0.018166369 0.0085225012 0 0 0 -0.47704095
0.018166896 0.0092637669 5.5511151e-17 0 0 -0.47704095
0.019690812 0.010844005 0.039999999 0 0 -0.47704095
0.019691477 0.011647528 0.039999999 0 0 -0.47704095
0.018168736 0.011487847 0 0 0 -0.47704095
0.018169438 0.012229313 5.5511151e-17 0 0 -0.47704095
0.019693758 0.014058447 0.039999999 0 0 -0.47704095
0.019694613 0.014862217 0.039999999 0 0 -0.47704095
0.018171806 0.014454081 0 0 0 -0.47704095
0.018172683 0.015195805 0 0 0 -0.47704095
0.018173605 0.015937602 0 0 0 -0.47704095
0.019698512 0.018078055 0.039999999 0 0 -0.47704095
0.01817558 0.017421432 0 0 0 -0.47704095
0.018176632 0.018163471 5.5511151e-17 0 0 -0.47704095
0.018177729 0.018905599 0 0 0 -0.47704095
0.018178871 0.019647816 5.5511151e-17 0 0 -0.47704095
0.019704457 0.022099847 0.039999999 0 0 -0.47704095
0.018181285 0.021132542 5.5511151e-17 0 0 -0.47704095
0.019707169 0.023709284 0.039999999 0 0 -0.47704095
0.018183874 0.022617675 0 0 0 -0.47704095
0.019710073 0.02531918 0.039999999 0 0 -0.47704095
0.018186642 0.024103247 5.5511151e-17 0 0 -0.47704095
0.019713167 0.026929567 0.039999999 0 0 -0.47704095
0.018189585 0.025589285 0 0 0 -0.47704095
0.019716453 0.028540473 0.039999999 0 0 -0.47704095
0.019718166 0.029346133 0.039999999 0 0 -0.47704095
0.018194329 0.02781928 5.5511151e-17 0 0 -0.47704095
0.018196 0.028562875 5.5511151e-17 0 0 -0.47704095
0.018197715 0.029306611 5.5511151e-17 0 0 -0.47704095
0.018199474 0.030050486 5.5511151e-17 0 0 -0.47704095
0.019727457 0.033376638 0.039999999 0 0 -0.47704095
0.01972946 0.034183208 0.039999999 0 0 -0.47704095
0.018205015 0.032283004 0 0 0 -0.47704095
0.01820695 0.033027485 5.5511151e-17 0 0 -0.47704095
0.019735754 0.036603928 0.039999999 0 0 -0.47704095
0.018210955 0.034516931 0 0 0 -0.47704095
0.018213024 0.035261903 0 0 0 -0.47704095
0.018215138 0.036007047 0 0 0 -0.47704095
0.018217295 0.036752362 5.5511151e-17 0 0 -0.47704095
0.018219499 0.037497859 0 0 0 -0.47704095
0.018224036 0.038989402 0 0 0 -0.47704095
0.018226372 0.039735455 0 0 0 -0.47704095
0.018228753 0.040481701 0 0 0 -0.47704095
0.018231178 0.041228145 5.5511151e-17 0 0 -0.47704095
0.018233648 0.04197479 0 0 0 -0.47704095
0.018236162 0.042721637 0 0 0 -0.47704095
0.018238721 0.043468695 0 0 0 -0.47704095
0.018241325 0.044215962 0 0 0 -0.47704095
0.018243974 0.044963442 5.5511151e-17 0 0 -0.47704095
0.01825219 0.047207218 0 0 0 -0.47704095
0.01825789 0.048704214 0 0 0 -0.47704095
0.018269833 0.051701084 0 0 0 -0.47704095
0.018272931 0.052450921 5.5511151e-17 0 0 -0.47704095
0.018276075 0.053201016 0 0 0 -0.47704095
0.018279264 0.053951371 0 0 0 -0.47704095
0.018282497 0.054701991 0 0 0 -0.47704095
0.018285776 0.055452876 0 0 0 -0.47704095
0.0182891 0.056204032 0 0 0 -0.47704095
0.01829247 0.056955464 5.5511151e-17 0 0 -0.47704095
0.018295886 0.057707176 0 0 0 -0.47704095
0.018299347 0.05845917 0 0 0 -0.47704095
0.018302852 0.059211452 0 0 0 -0.47704095
0.018306404 0.05996402 0 0 0 -0.47704095
0.018310001 0.060716886 0 0 0 -0.47704095
0.018317332 0.062223509 0 0 0 -0.47704095
0.018324846 0.063731357 0 0 0 -0.47704095
0.018328672 0.064485751 0 0 0 -0.47704095
0.018336462 0.065995485 0 0 0 -0.47704095
0.018340426 0.066750839 0 0 0 -0.47704095
0.018344434 0.067506522 5.5511151e-17 0 0 -0.47704095
0.018348489 0.068262532 5.5511151e-17 0 0 -0.47704095
0.018356739 0.069775574 0 0 0 -0.47704095
0.018360933 0.070532605 5.5511151e-17 0 0 -0.47704095
0.018365173 0.071289986 0 0 0 -0.47704095
0.02039386 0.07998772 0.052572157 0 0 -0.47704095
0.02018762 0.079993069 0.047092631 0 0 -0.47704095
0.01837817 0.073564261 0 0 0 -0.47704095
0.018382596 0.074323073 0 0 0 -0.47704095
0.018387068 0.07508225 5.5511151e-17 0 0 -0.47704095
0.018391587 0.075841807 5.5511151e-17 0 0 -0.47704095
0.018396152 0.076601729 0 0 0 -0.47704095
0.018400764 0.077362038 0 0 0 -0.47704095
0.018847702 0.079999998 0.011463206 0 0 -0.47704095
0.018410128 0.078883797 0 0 0 -0.47704095
0.018414881 0.079645269 0 0 0 -0.47704095
0.017421437 0.00037050419 5.5511151e-17 0 0 -0.47704095
0.017421478 0.0011115143 5.5511151e-17 0 0 -0.47704095
0.017421562 0.0018525298 5.5511151e-17 0 0 -0.47704095
0.017421689 0.0025935543 0 0 0 -0.47704095
0.017421857 0.0033345912 0 0 0 -0.47704095
0.017422067 0.0040756445 0 0 0 -0.47704095
0.01742232 0.004816717 0 0 0 -0.47704095
0.018883504 0.0060238373 0.039999999 0 0 -0.47704095
0.01742295 0.006298936 5.5511151e-17 0 0 -0.47704095
0.017423328 0.007040089 0 0 0 -0.47704095
0.018884735 0.0084337378 0.039999999 0 0 -0.47704095
0.018885236 0.0092371143 0.039999999 0 0 -0.47704095
0.017424716 0.0092637669 0 0 0 -0.47704095
0.017425263 0.010005077 5.5511151e-17 0 0 -0.47704095
0.018887013 0.011647528 0.039999999 0 0 -0.47704095
0.017426483 0.011487847 0 0 0 -0.47704095
0.017427156 0.012229313 0 0 0 -0.47704095
0.017427871 0.012970839 0 0 0 -0.47704095
0.017428627 0.013712427 5.5511151e-17 0 0 -0.47704095
0.017429426 0.014454081 0 0 0 -0.47704095
0.017430268 0.015195805 0 0 0 -0.47704095
0.017431151 0.015937602 0 0 0 -0.47704095
0.017432077 0.016679477 0 0 0 -0.47704095
0.01889481 0.018882222 0.039999999 0 0 -0.47704095
0.017434055 0.018163471 0 0 0 -0.47704095
0.017435107 0.018905599 0 0 0 -0.47704095
0.017436203 0.019647816 0 0 0 -0.47704095
0.017437339 0.020390129 0 0 0 -0.47704095
0.017438518 0.021132542 0 0 0 -0.47704095
0.017439738 0.021875056 0 0 0 -0.47704095
0.017441003 0.022617675 5.5511151e-17 0 0 -0.47704095
0.01890485 0.02531918 0.039999999 0 0 -0.47704095
0.017443655 0.024103247 0 0 0 -0.47704095
0.017445046 0.024846205 0 0 0 -0.47704095
0.017446479 0.025589285 0 0 0 -0.47704095
0.017447954 0.026332488 0 0 0 -0.47704095
0.018912613 0.029346133 0.039999999 0 0 -0.47704095
0.017451029 0.02781928 0 0 0 -0.47704095
0.017452631 0.028562875 5.5511151e-17 0 0 -0.47704095
0.017454276 0.029306611 0 0 0 -0.47704095
0.017455963 0.030050486 0 0 0 -0.47704095
0.017457692 0.030794509 0 0 0 -0.47704095
0.017459465 0.03153868 0 0 0 -0.47704095
0.017461279 0.032283004 5.5511151e-17 0 0 -0.47704095
0.018927423 0.035796847 0.039999999 0 0 -0.47704095
0.017465034 0.033772126 5.5511151e-17 0 0 -0.47704095
0.017466977 0.034516931 0 0 0 -0.47704095
0.017468961 0.035261903 0 0 0 -0.47704095
0.017470988 0.036007047 5.5511151e-17 0 0 -0.47704095
0.018938178 0.03983406 0.039999999 0 0 -0.47704095
0.017475171 0.037497859 0 0 0 -0.47704095
0.017477326 0.03824354 5.5511151e-17 0 0 -0.47704095
0.017479524 0.038989402 0 0 0 -0.47704095
0.017481763 0.039735455 0 0 0 -0.47704095
0.017484047 0.040481701 5.5511151e-17 0 0 -0.47704095
0.017488742 0.04197479 0 0 0 -0.47704095
0.017491154 0.042721637 0 0 0 -0.47704095
0.017496105 0.044215962 0 0 0 -0.47704095
0.017498646 0.044963442 0 0 0 -0.47704095
0.017501229 0.045711145 5.5511151e-17 0 0 -0.47704095
0.017503856 0.046459068 0 0 0 -0.47704095
0.017506527 0.047207218 5.5511151e-17 0 0 -0.47704095
0.017509239 0.047955599 0 0 0 -0.47704095
0.017511994 0.048704214 0 0 0 -0.47704095
0.017514793 0.049453065 0 0 0 -0.47704095
0.017520521 0.050951496 0 0 0 -0.47704095
0.017523449 0.051701084 0 0 0 -0.47704095
0.01752642 0.052450921 0 0 0 -0.47704095
0.017529435 0.053201016 0 0 0 -0.47704095
0.017535595 0.054701991 5.5511151e-17 0 0 -0.47704095
0.01754193 0.056204032 0 0 0 -0.47704095
0.017545162 0.056955464 5.5511151e-17 0 0 -0.47704095
0.017548436 0.057707176 5.5511151e-17 0 0 -0.47704095
0.017551756 0.05845917 0 0 0 -0.47704095
0.017555119 0.059211452 0 0 0 -0.47704095
0.017561976 0.060716886 5.5511151e-17 0 0 -0.47704095
0.01756547 0.061470047 0 0 0 -0.47704095
0.017569007 0.062223509 0 0 0 -0.47704095
0.017572589 0.062977277 0 0 0 -0.47704095
0.017576216 0.063731357 0 0 0 -0.47704095
0.017583597 0.065240458 0 0 0 -0.47704095
0.017587354 0.065995485 0 0 0 -0.47704095
0.017591156 0.066750839 5.5511151e-17 0 0 -0.47704095
0.017595002 0.067506522 0 0 0 -0.47704095
0.017602826 0.069018885 5.5511151e-17 0 0 -0.47704095
0.017606804 0.069775574 0 0 0 -0.47704095
0.017610827 0.070532605 0 0 0 -0.47704095
0.017614894 0.071289986 0 0 0 -0.47704095
0.017619004 0.072047725 0 0 0 -0.47704095
0.019360375 0.079982691 0.047024623 0 0 -0.47704095
0.01762736 0.073564261 0 0 0 -0.47704095
0.017631605 0.074323073 0 0 0 -0.47704095
0.017635895 0.07508225 0 0 0 -0.47704095
0.018607393 0.079999998 0.026154824 0 0 -0.47704095
0.017644607 0.076601729 0 0 0 -0.47704095
0.01764903 0.077362038 0 0 0 -0.47704095
0.017653499 0.07812272 5.5511151e-17 0 0 -0.47704095
0.01766257 0.079645269 0 0 0 -0.47704095
0.016679483 0.00037050419 5.5511151e-17 0 0 -0.47704095
0.016679522 0.0011115143 0 0 0 -0.47704095
0.016679602 0.0018525298 0 0 0 -0.47704095
0.016679723 0.0025935543 0 0 0 -0.47704095
0.016679885 0.0033345912 5.5511151e-17 0 0 -0.47704095
0.016680086 0.0040756445 0 0 0 -0.47704095
0.016680326 0.004816717 5.5511151e-17 0 0 -0.47704095
0.016680609 0.0055578132 0 0 0 -0.47704095
0.01668093 0.006298936 0 0 0 -0.47704095
0.016681293 0.007040089 0 0 0 -0.47704095
0.016681695 0.007781276 0 0 0 -0.47704095
0.016682139 0.0085225012 0 0 0 -0.47704095
0.016682621 0.0092637669 0 0 0 -0.47704095
0.016683144 0.010005077 5.5511151e-17 0 0 -0.47704095
0.016683709 0.010746436 0 0 0 -0.47704095
0.016684312 0.011487847 5.5511151e-17 0 0 -0.47704095
0.018083995 0.013254744 0.039999999 0 0 -0.47704095
0.01668564 0.012970839 0 0 0 -0.47704095
0.016686367 0.013712427 0 0 0 -0.47704095
0.016687131 0.014454081 5.5511151e-17 0 0 -0.47704095
0.016687937 0.015195805 0 0 0 -0.47704095
0.016688783 0.015937602 5.5511151e-17 0 0 -0.47704095
0.018089103 0.018078055 0.039999999 0 0 -0.47704095
0.016690595 0.017421432 0 0 0 -0.47704095
0.018091155 0.019686483 0.039999999 0 0 -0.47704095
0.016692569 0.018905599 0 0 0 -0.47704095
0.016693618 0.019647816 0 0 0 -0.47704095
0.016694706 0.020390129 0 0 0 -0.47704095
0.018095784 0.02290451 0.039999999 0 0 -0.47704095
0.016697004 0.021875056 0 0 0 -0.47704095
0.016698213 0.022617675 0 0 0 -0.47704095
0.016699463 0.023360405 5.5511151e-17 0 0 -0.47704095
0.016700754 0.024103247 0 0 0 -0.47704095
0.016702086 0.024846205 0 0 0 -0.47704095
0.016703457 0.025589285 0 0 0 -0.47704095
0.016704869 0.026332488 5.5511151e-17 0 0 -0.47704095
0.01810715 0.029346133 0.039999999 0 0 -0.47704095
0.016707815 0.02781928 0 0 0 -0.47704095
0.016709348 0.028562875 0 0 0 -0.47704095
0.016710922 0.029306611 0 0 0 -0.47704095
0.016712537 0.030050486 0 0 0 -0.47704095
0.016714193 0.030794509 5.5511151e-17 0 0 -0.47704095
0.018117521 0.034183208 0.039999999 0 0 -0.47704095
0.018119404 0.034989942 0.039999999 0 0 -0.47704095
0.016719405 0.033027485 0 0 0 -0.47704095
0.016721223 0.033772126 5.5511151e-17 0 0 -0.47704095
0.016723081 0.034516931 0 0 0 -0.47704095
0.016724981 0.035261903 0 0 0 -0.47704095
0.016726922 0.036007047 5.5511151e-17 0 0 -0.47704095
0.016728904 0.036752362 0 0 0 -0.47704095
0.016730927 0.037497859 0 0 0 -0.47704095
0.016732991 0.03824354 5.5511151e-17 0 0 -0.47704095
0.016735094 0.038989402 0 0 0 -0.47704095
0.016737239 0.039735455 0 0 0 -0.47704095
0.016739426 0.040481701 0 0 0 -0.47704095
0.016741652 0.041228145 0 0 0 -0.47704095
0.016746229 0.042721637 0 0 0 -0.47704095
0.016748579 0.043468695 0 0 0 -0.47704095
0.016750971 0.044215962 0 0 0 -0.47704095
0.016755877 0.045711145 5.5511151e-17 0 0 -0.47704095
0.016758392 0.046459068 5.5511151e-17 0 0 -0.47704095
0.016763544 0.047955599 0 0 0 -0.47704095
0.016768862 0.049453065 5.5511151e-17 0 0 -0.47704095
0.016771583 0.050202157 5.5511151e-17 0 0 -0.47704095
0.016774345 0.050951496 5.5511151e-17 0 0 -0.47704095
0.016777148 0.051701084 0 0 0 -0.47704095
0.01678288 0.053201016 0 0 0 -0.47704095
0.016785808 0.053951371 0 0 0 -0.47704095
0.016788779 0.054701991 5.5511151e-17 0 0 -0.47704095
0.016791789 0.055452876 0 0 0 -0.47704095
0.016794842 0.056204032 5.5511151e-17 0 0 -0.47704095
0.016797937 0.056955464 5.5511151e-17 0 0 -0.47704095
0.016801072 0.057707176 5.5511151e-17 0 0 -0.47704095
0.016804252 0.05845917 0 0 0 -0.47704095
0.01680747 0.059211452 0 0 0 -0.47704095
0.016810732 0.05996402 5.5511151e-17 0 0 -0.47704095
0.016814036 0.060716886 5.5511151e-17 0 0 -0.47704095
0.01681738 0.061470047 0 0 0 -0.47704095
0.016824197 0.062977277 0 0 0 -0.47704095
0.016831182 0.064485751 5.5511151e-17 0 0 -0.47704095
0.016841974 0.066750839 5.5511151e-17 0 0 -0.47704095
0.01684938 0.068262532 0 0 0 -0.47704095
0.016853146 0.069018885 5.5511151e-17 0 0 -0.47704095
0.016856954 0.069775574 0 0 0 -0.47704095
0.016860805 0.070532605 0 0 0 -0.47704095
0.016864698 0.071289986 5.5511151e-17 0 0 -0.47704095
0.016868636 0.072047725 0 0 0 -0.47704095
0.016872615 0.072805814 5.5511151e-17 0 0 -0.47704095
0.016876636 0.073564261 0 0 0 -0.47704095
0.016880699 0.074323073 0 0 0 -0.47704095
0.016884806 0.07508225 0 0 0 -0.47704095
0.016888956 0.075841807 5.5511151e-17 0 0 -0.47704095
0.016893148 0.076601729 0 0 0 -0.47704095
0.016897382 0.077362038 0 0 0 -0.47704095
0.017307805 0.079999998 0.011463206 0 0 -0.47704095
0.016905982 0.078883797 0 0 0 -0.47704095
0.016985662 0.079999998 0.0021246953 0 0 -0.47704095
0.015937608 0.00037050419 0 0 0 -0.47704095
0.01727402 0.0012047151 0.039999999 0 0 -0.47704095
0.015937723 0.0018525298 0 0 0 -0.47704095
0.015937839 0.0025935543 0 0 0 -0.47704095
0.015937991 0.0033345912 0 0 0 -0.47704095
0.015938183 0.0040756445 0 0 0 -0.47704095
0.015938414 0.004816717 5.5511151e-17 0 0 -0.47704095
0.015938684 0.0055578132 5.5511151e-17 0 0 -0.47704095
0.015938992 0.006298936 0 0 0 -0.47704095
0.015939338 0.007040089 0 0 0 -0.47704095
0.015939722 0.007781276 0 0 0 -0.47704095
0.015940145 0.0085225012 0 0 0 -0.47704095
0.015940607 0.0092637669 0 0 0 -0.47704095
0.017277773 0.010844005 0.039999999 0 0 -0.47704095
0.015941646 0.010746436 0 0 0 -0.47704095
0.015942223 0.011487847 0 0 0 -0.47704095
0.015942838 0.012229313 0 0 0 -0.47704095
