# .PCD v0.7 - Point Cloud Data file format
VERSION 0.7
FIELDS x y z vp_x vp_y vp_z
SIZE 4 4 4 4 4 4
TYPE F F F F F F
COUNT 1 1 1 1 1 1
WIDTH 722
HEIGHT 1
VIEWPOINT 0 0 0 1 0 0 0
POINTS 722
DATA ascii
0.020208323 0.012896387 0 0.23852047 -0.14741376 -0.38593423
0.020594357 0.013519585 0 0.23852047 -0.14741376 -0.38593423
0.020980466 0.01414286 5.5511151e-17 0.23852047 -0.14741376 -0.38593423
0.021366654 0.014766215 5.5511151e-17 0.23852047 -0.14741376 -0.38593423
0.021752924 0.015389653 0 0.23852047 -0.14741376 -0.38593423
0.022139275 0.016013177 0 0.23852047 -0.14741376 -0.38593423
0.022525711 0.016636791 5.5511151e-17 0.23852047 -0.14741376 -0.38593423
0.022912232 0.017260496 0 0.23852047 -0.14741376 -0.38593423
0.023298843 0.017884295 5.5511151e-17 0.23852047 -0.14741376 -0.38593423
0.023685543 0.018508192 5.5511151e-17 0.23852047 -0.14741376 -0.38593423
0.024072334 0.019132189 0 0.23852047 -0.14741376 -0.38593423
0.024459219 0.019756293 5.5511151e-17 0.23852047 -0.14741376 -0.38593423
0.024846198 0.020380501 0 0.23852047 -0.14741376 -0.38593423
0.025233276 0.02100482 0 0.23852047 -0.14741376 -0.38593423
0.025620451 0.021629252 5.5511151e-17 0.23852047 -0.14741376 -0.38593423
0.026007729 0.022253798 0 0.23852047 -0.14741376 -0.38593423
0.02639511 0.022878462 0 0.23852047 -0.14741376 -0.38593423
0.026782595 0.023503251 0 0.23852047 -0.14741376 -0.38593423
0.027170187 0.024128163 0 0.23852047 -0.14741376 -0.38593423
0.005692753 0.04259738 0.039999999 0.23852047 -0.14741376 -0.38593423
0.027945697 0.025378373 0 0.23852047 -0.14741376 -0.38593423
0.028333619 0.026003677 0 0.23852047 -0.14741376 -0.38593423
0.028721655 0.026629118 0 0.23852047 -0.14741376 -0.38593423
0.003708292 0.048441984 0.046813827 0.23852047 -0.14741376 -0.38593423
0.029498078 0.027880421 0 0.23852047 -0.14741376 -0.38593423
0.0015210771 0.052423969 0.052470714 0.23852047 -0.14741376 -0.38593423
0.03027498 0.029132308 0 0.23852047 -0.14741376 -0.38593423
0.00054169958 0.055433683 0.055928286 0.23852047 -0.14741376 -0.38593423
0.031052375 0.030384803 0 0.23852047 -0.14741376 -0.38593423
0.031441264 0.031011285 0 0.23852047 -0.14741376 -0.38593423
0.031830281 0.031637929 0 0.23852047 -0.14741376 -0.38593423
1.6895727e-05 0.060311623 0.060242347 0.23852047 -0.14741376 -0.38593423
7.4811775e-05 0.061379831 0.060977302 0.23852047 -0.14741376 -0.38593423
0.032998122 0.033518855 0 0.23852047 -0.14741376 -0.38593423
0.033387676 0.034146171 0 0.23852047 -0.14741376 -0.38593423
0.033777367 0.034773663 0 0.23852047 -0.14741376 -0.38593423
0.00074553752 0.065300465 0.063118942 0.23852047 -0.14741376 -0.38593423
0.034557171 0.03602919 0 0.23852047 -0.14741376 -0.38593423
0.034947291 0.036657229 5.5511151e-17 0.23852047 -0.14741376 -0.38593423
0.035337556 0.037285458 0 0.23852047 -0.14741376 -0.38593423
0.0020191269 0.068719655 0.064151265 0.23852047 -0.14741376 -0.38593423
0.036118533 0.03854249 0 0.23852047 -0.14741376 -0.38593423
0.036509246 0.039171301 0 0.23852047 -0.14741376 -0.38593423
0.0033182187 0.070982702 0.064281225 0.23852047 -0.14741376 -0.38593423
0.037291139 0.040429529 5.5511151e-17 0.23852047 -0.14741376 -0.38593423
0.037682325 0.041058954 5.5511151e-17 0.23852047 -0.14741376 -0.38593423
0.038073666 0.041688584 0 0.23852047 -0.14741376 -0.38593423
0.038465172 0.04231843 5.5511151e-17 0.23852047 -0.14741376 -0.38593423
0.038856838 0.042948492 5.5511151e-17 0.23852047 -0.14741376 -0.38593423
0.039248671 0.04357877 5.5511151e-17 0.23852047 -0.14741376 -0.38593423
0.039640673 0.044209275 0 0.23852047 -0.14741376 -0.38593423
0.039999999 0.044871818 6.3864383e-05 0.23852047 -0.14741376 -0.38593423
0.039999999 0.045884963 0.0008283619 0.23852047 -0.14741376 -0.38593423
0.039999999 0.046902534 0.0015962337 0.23852047 -0.14741376 -0.38593423
0.039999999 0.047924563 0.0023675058 0.23852047 -0.14741376 -0.38593423
0.039999999 0.048951086 0.0031422044 0.23852047 -0.14741376 -0.38593423
0.01167077 0.078150883 0.059553307 0.23852047 -0.14741376 -0.38593423
0.039999999 0.051017746 0.0047019874 0.23852047 -0.14741376 -0.38593423
0.039999999 0.052057959 0.0054871258 0.23852047 -0.14741376 -0.38593423
0.039999999 0.053102802 0.0062757991 0.23852047 -0.14741376 -0.38593423
0.039999999 0.054152321 0.0070680338 0.23852047 -0.14741376 -0.38593423
0.016107943 0.079592019 0.055257693 0.23852047 -0.14741376 -0.38593423
0.039999999 0.056265514 0.0086633014 0.23852047 -0.14741376 -0.38593423
0.039999999 0.057329264 0.0094663911 0.23852047 -0.14741376 -0.38593423
0.039999999 0.058397833 0.010273157 0.23852047 -0.14741376 -0.38593423
0.039999999 0.059471261 0.011083626 0.23852047 -0.14741376 -0.38593423
0.039999999 0.060549587 0.01189783 0.23852047 -0.14741376 -0.38593423
0.039999999 0.061632846 0.012715797 0.23852047 -0.14741376 -0.38593423
0.039999999 0.062721081 0.013537559 0.23852047 -0.14741376 -0.38593423
0.025530037 0.079210542 0.043540426 0.23852047 -0.14741376 -0.38593423
0.039999999 0.06491264 0.015192583 0.23852047 -0.14741376 -0.38593423
0.039999999 0.066016041 0.016025908 0.23852047 -0.14741376 -0.38593423
0.039999999 0.067124575 0.016863152 0.23852047 -0.14741376 -0.38593423
0.039999999 0.068238296 0.017704343 0.23852047 -0.14741376 -0.38593423
0.039999999 0.069357231 0.018549515 0.23852047 -0.14741376 -0.38593423
0.039999999 0.070481434 0.019398699 0.23852047 -0.14741376 -0.38593423
0.039999999 0.071610935 0.02025193 0.23852047 -0.14741376 -0.38593423
0.033458795 0.079999998 0.034521222 0.23852047 -0.14741376 -0.38593423
0.039999999 0.073886044 0.021970659 0.23852047 -0.14741376 -0.38593423
0.039999999 0.075031728 0.022836227 0.23852047 -0.14741376 -0.38593423
0.039999999 0.076182894 0.023705972 0.23852047 -0.14741376 -0.38593423
0.037650108 0.079999998 0.029439196 0.23852047 -0.14741376 -0.38593423
0.039999999 0.078501858 0.025458142 0.23852047 -0.14741376 -0.38593423
0.039999999 0.079669744 0.026340635 0.23852047 -0.14741376 -0.38593423
0.00071935297 0 0.012670553 0.23852047 -0.14741376 -0.38593423
0.0021486843 0 0.010938373 0.23852047 -0.14741376 -0.38593423
0.003565657 0 0.0092212046 0.23852047 -0.14741376 -0.38593423
0.0049704378 0 0.0075188433 0.23852047 -0.14741376 -0.38593423
0.0063631902 0 0.0058310912 0.23852047 -0.14741376 -0.38593423
0.0077440748 2.7755576e-17 0.0041577527 0.23852047 -0.14741376 -0.38593423
0.0091132494 0 0.002498637 0.23852047 -0.14741376 -0.38593423
0.01047087 0 0.00085355522 0.23852047 -0.14741376 -0.38593423
0.011359346 0.00029764621 0 0.23852047 -0.14741376 -0.38593423
0 0.0086027747 0.01998733 0.23852047 -0.14741376 -0.38593423
0.012129894 0.0015436005 0 0.23852047 -0.14741376 -0.38593423
0.012515225 0.0021666046 0 0.23852047 -0.14741376 -0.38593423
0.012900596 0.002789631 0 0.23852047 -0.14741376 -0.38593423
0.01328601 0.0034126823 0 0.23852047 -0.14741376 -0.38593423
2.7755576e-17 0.01324433 0.023465915 0.23852047 -0.14741376 -0.38593423
0.014056971 0.0046588718 0 0.23852047 -0.14741376 -0.38593423
0.014442522 0.005282016 0 0.23852047 -0.14741376 -0.38593423
0.014828122 0.005905197 0 0.23852047 -0.14741376 -0.38593423
0.015213774 0.0065284176 5.5511151e-17 0.23852047 -0.14741376 -0.38593423
0.015599478 0.007151681 0 0.23852047 -0.14741376 -0.38593423
2.7755576e-17 0.018922569 0.027722578 0.23852047 -0.14741376 -0.38593423
0.016371055 0.0083983485 0 0.23852047 -0.14741376 -0.38593423
0.016756929 0.0090217581 0 0.23852047 -0.14741376 -0.38593423
0.017142866 0.0096452218 0 0.23852047 -0.14741376 -0.38593423
0.017528864 0.010268743 0 0.23852047 -0.14741376 -0.38593423
0.017914925 0.010892326 0 0.23852047 -0.14741376 -0.38593423
0.018301053 0.011515971 0 0.23852047 -0.14741376 -0.38593423
0.018687248 0.012139684 0 0.23852047 -0.14741376 -0.38593423
0 0.026685476 0.03354397 0.23852047 -0.14741376 -0.38593423
2.7755576e-17 0.027671792 0.034283765 0.23852047 -0.14741376 -0.38593423
0.019846262 0.014011249 5.5511151e-17 0.23852047 -0.14741376 -0.38593423
0.020232748 0.014635256 0 0.23852047 -0.14741376 -0.38593423
0.02061931 0.015259346 0 0.23852047 -0.14741376 -0.38593423
0.021005953 0.01588352 0 0.23852047 -0.14741376 -0.38593423
0.021392675 0.01650778 0 0.23852047 -0.14741376 -0.38593423
0.021779479 0.017132131 0 0.23852047 -0.14741376 -0.38593423
0.022166369 0.017756576 0 0.23852047 -0.14741376 -0.38593423
0.022553345 0.018381117 0 0.23852047 -0.14741376 -0.38593423
0.022940408 0.019005757 0 0.23852047 -0.14741376 -0.38593423
0.0010239806 0.036943734 0.039999999 0.23852047 -0.14741376 -0.38593423
0.023714809 0.020255346 0 0.23852047 -0.14741376 -0.38593423
0.02410215 0.020880301 0 0.23852047 -0.14741376 -0.38593423
0.024489585 0.021505367 5.5511151e-17 0.23852047 -0.14741376 -0.38593423
0.024877118 0.022130549 0 0.23852047 -0.14741376 -0.38593423
0.025264751 0.022755846 0 0.23852047 -0.14741376 -0.38593423
0.025652485 0.023381265 0 0.23852047 -0.14741376 -0.38593423
0.026040321 0.024006806 5.5511151e-17 0.23852047 -0.14741376 -0.38593423
0.026428264 0.024632473 0 0.23852047 -0.14741376 -0.38593423
0.026816312 0.025258271 0 0.23852047 -0.14741376 -0.38593423
0.027204469 0.0258842 5.5511151e-17 0.23852047 -0.14741376 -0.38593423
0.027592737 0.026510263 0 0.23852047 -0.14741376 -0.38593423
0.027981117 0.027136466 5.5511151e-17 0.23852047 -0.14741376 -0.38593423
0.028369613 0.02776281 0 0.23852047 -0.14741376 -0.38593423
0.028758224 0.028389297 0 0.23852047 -0.14741376 -0.38593423
0.029146953 0.029015934 0 0.23852047 -0.14741376 -0.38593423
0.029535802 0.02964272 0 0.23852047 -0.14741376 -0.38593423
0.00059090118 0.055256478 0.05427219 0.23852047 -0.14741376 -0.38593423
0.030313868 0.030896755 0 0.23852047 -0.14741376 -0.38593423
0.00011599804 0.057860527 0.056802783 0.23852047 -0.14741376 -0.38593423
5.3055908e-05 0.059021432 0.057750922 0.23852047 -0.14741376 -0.38593423
0.031481914 0.032779012 0 0.23852047 -0.14741376 -0.38593423
6.7019995e-05 0.061236121 0.059397578 0.23852047 -0.14741376 -0.38593423
0.032261267 0.034034684 0 0.23852047 -0.14741376 -0.38593423
0.032651145 0.034662783 0 0.23852047 -0.14741376 -0.38593423
0.033041161 0.035291061 5.5511151e-17 0.23852047 -0.14741376 -0.38593423
0.033431314 0.035919517 0 0.23852047 -0.14741376 -0.38593423
0.033821609 0.036548156 5.5511151e-17 0.23852047 -0.14741376 -0.38593423
0.034212049 0.037176985 0 0.23852047 -0.14741376 -0.38593423
0.0016024483 0.067780264 0.062456038 0.23852047 -0.14741376 -0.38593423
0.034993362 0.038435213 0 0.23852047 -0.14741376 -0.38593423
0.035384238 0.03906462 0 0.23852047 -0.14741376 -0.38593423
0.035775267 0.039694224 0 0.23852047 -0.14741376 -0.38593423
0.036166448 0.040324032 0 0.23852047 -0.14741376 -0.38593423
0.0037225389 0.071579032 0.062745482 0.23852047 -0.14741376 -0.38593423
0.036949277 0.041584268 0 0.23852047 -0.14741376 -0.38593423
0.037340928 0.042214703 0 0.23852047 -0.14741376 -0.38593423
0.005316684 0.073561624 0.062306922 0.23852047 -0.14741376 -0.38593423
0.038124714 0.043476216 0 0.23852047 -0.14741376 -0.38593423
0.038516849 0.044107307 0 0.23852047 -0.14741376 -0.38593423
0.038909152 0.044738617 0 0.23852047 -0.14741376 -0.38593423
0.039301626 0.045370154 5.5511151e-17 0.23852047 -0.14741376 -0.38593423
0.039694265 0.046001926 5.5511151e-17 0.23852047 -0.14741376 -0.38593423
0.0092187431 0.076820023 0.060036004 0.23852047 -0.14741376 -0.38593423
0.039999999 0.047738086 0.00093553937 0.23852047 -0.14741376 -0.38593423
0.039999999 0.048761562 0.0017051074 0.23852047 -0.14741376 -0.38593423
0.039999999 0.049789537 0.0024780936 0.23852047 -0.14741376 -0.38593423
0.039999999 0.050822046 0.0032545242 0.23852047 -0.14741376 -0.38593423
0.013183658 0.078777112 0.056711778 0.23852047 -0.14741376 -0.38593423
0.039999999 0.052900825 0.0048178267 0.23852047 -0.14741376 -0.38593423
0.014964918 0.07934045 0.054981072 0.23852047 -0.14741376 -0.38593423
0.039999999 0.054998178 0.0063952319 0.23852047 -0.14741376 -0.38593423
0.039999999 0.05605391 0.0071892925 0.23852047 -0.14741376 -0.38593423
0.017920328 0.079862252 0.05179932 0.23852047 -0.14741376 -0.38593423
0.039999999 0.05817968 0.008788269 0.23852047 -0.14741376 -0.38593423
0.039999999 0.059249792 0.0095932428 0.23852047 -0.14741376 -0.38593423
0.039999999 0.060324769 0.010401912 0.23852047 -0.14741376 -0.38593423
0.039999999 0.061404657 0.011214306 0.23852047 -0.14741376 -0.38593423
0.039999999 0.062489487 0.012030454 0.23852047 -0.14741376 -0.38593423
0.039999999 0.063579299 0.012850387 0.23852047 -0.14741376 -0.38593423
0.039999999 0.064674146 0.013674134 0.23852047 -0.14741376 -0.38593423
0.039999999 0.065774053 0.014501727 0.23852047 -0.14741376 -0.38593423
0.039999999 0.066879064 0.015333196 0.23852047 -0.14741376 -0.38593423
0.039999999 0.06798923 0.016168572 0.23852047 -0.14741376 -0.38593423
0.039999999 0.069104575 0.017007887 0.23852047 -0.14741376 -0.38593423
0.039999999 0.070225157 0.017851174 0.23852047 -0.14741376 -0.38593423
0.039999999 0.071351014 0.018698463 0.23852047 -0.14741376 -0.38593423
0.039999999 0.072482191 0.019549787 0.23852047 -0.14741376 -0.38593423
0.039999999 0.074760661 0.021264676 0.23852047 -0.14741376 -0.38593423
0.039999999 0.075908042 0.022128306 0.23852047 -0.14741376 -0.38593423
0.039999999 0.077060923 0.022996107 0.23852047 -0.14741376 -0.38593423
0.039999999 0.078219339 0.023868112 0.23852047 -0.14741376 -0.38593423
0.039999999 0.079383343 0.024744354 0.23852047 -0.14741376 -0.38593423
0.00071778614 0 0.01135863 0.23852047 -0.14741376 -0.38593423
0.0021440245 0 0.0096358927 0.23852047 -0.14741376 -0.38593423
0.0035579577 0 0.0079280492 0.23852047 -0.14741376 -0.38593423
0 0.0031303877 0.014562759 0.23852047 -0.14741376 -0.38593423
0.0063495673 0 0.0045562424 0.23852047 -0.14741376 -0.38593423
0.0077275662 0 0.0028918898 0.23852047 -0.14741376 -0.38593423
0.0090939049 0 0.0012416502 0.23852047 -0.14741376 -0.38593423
0.010215268 0.00015090209 5.5511151e-17 0.23852047 -0.14741376 -0.38593423
0.010600905 0.00077456288 5.5511151e-17 0.23852047 -0.14741376 -0.38593423
0.010986575 0.001398238 0 0.23852047 -0.14741376 -0.38593423
0 0.0095034977 0.019321976 0.23852047 -0.14741376 -0.38593423
0.011758021 0.0026456432 0 0.23852047 -0.14741376 -0.38593423
0 0.01135266 0.020703143 0.23852047 -0.14741376 -0.38593423
0.012529622 0.0038931414 0 0.23852047 -0.14741376 -0.38593423
0.012915485 0.0045169331 0 0.23852047 -0.14741376 -0.38593423
0.013301391 0.0051407563 0 0.23852047 -0.14741376 -0.38593423
0.013687344 0.0057646153 0 0.23852047 -0.14741376 -0.38593423
0 0.016032264 0.024198953 0.23852047 -0.14741376 -0.38593423
0.014459395 0.0070124497 0 0.23852047 -0.14741376 -0.38593423
0.014845496 0.0076364316 5.5511151e-17 0.23852047 -0.14741376 -0.38593423
0.01523165 0.0082604606 0 0.23852047 -0.14741376 -0.38593423
0.01561786 0.0088845398 0 0.23852047 -0.14741376 -0.38593423
0.016004127 0.0095086712 0 0.23852047 -0.14741376 -0.38593423
0.016390452 0.010132859 0 0.23852047 -0.14741376 -0.38593423
0.016776839 0.010757105 0 0.23852047 -0.14741376 -0.38593423
0.017163288 0.011381414 0 0.23852047 -0.14741376 -0.38593423
0.0175498 0.012005787 0 0.23852047 -0.14741376 -0.38593423
0.017936379 0.012630228 0 0.23852047 -0.14741376 -0.38593423
0.018323027 0.01325474 5.5511151e-17 0.23852047 -0.14741376 -0.38593423
0.018709743 0.013879325 0 0.23852047 -0.14741376 -0.38593423
0 0.02859574 0.033587974 0.23852047 -0.14741376 -0.38593423
0.019483395 0.01512873 0 0.23852047 -0.14741376 -0.38593423
0.019870333 0.015753554 0 0.23852047 -0.14741376 -0.38593423
0.020257348 0.016378466 0 0.23852047 -0.14741376 -0.38593423
0.020644441 0.017003464 5.5511151e-17 0.23852047 -0.14741376 -0.38593423
0.021031616 0.017628556 0 0.23852047 -0.14741376 -0.38593423
0.021418875 0.01825374 0 0.23852047 -0.14741376 -0.38593423
2.7755576e-17 0.035611734 0.038833465 0.23852047 -0.14741376 -0.38593423
0.022193648 0.019504407 0 0.23852047 -0.14741376 -0.38593423
0.022581166 0.020129895 5.5511151e-17 0.23852047 -0.14741376 -0.38593423
0.022968773 0.02075549 0 0.23852047 -0.14741376 -0.38593423
0.023356473 0.021381194 0 0.23852047 -0.14741376 -0.38593423
0.023744268 0.022007011 0 0.23852047 -0.14741376 -0.38593423
0.024132159 0.022632942 0 0.23852047 -0.14741376 -0.38593423
0.0023401673 0.040948302 0.039999999 0.23852047 -0.14741376 -0.38593423
0.024908233 0.023885166 5.5511151e-17 0.23852047 -0.14741376 -0.38593423
0.025296422 0.024511464 0 0.23852047 -0.14741376 -0.38593423
0.0036254381 0.043021936 0.039999999 0.23852047 -0.14741376 -0.38593423
0.026073113 0.025764443 0 0.23852047 -0.14741376 -0.38593423
0.026461618 0.026391134 0 0.23852047 -0.14741376 -0.38593423
0.0049117547 0.045096867 0.039999999 0.23852047 -0.14741376 -0.38593423
0.027238958 0.027644927 0 0.23852047 -0.14741376 -0.38593423
0.027627796 0.028272035 0 0.23852047 -0.14741376 -0.38593423
0.028016748 0.02889929 0 0.23852047 -0.14741376 -0.38593423
0.028405817 0.029526694 0 0.23852047 -0.14741376 -0.38593423
0.028795004 0.030154249 5.5511151e-17 0.23852047 -0.14741376 -0.38593423
0.029184313 0.03078196 5.5511151e-17 0.23852047 -0.14741376 -0.38593423
0.029573744 0.03140983 0 0.23852047 -0.14741376 -0.38593423
0.00013993592 0.05769917 0.055188015 0.23852047 -0.14741376 -0.38593423
0.030352978 0.032666054 0 0.23852047 -0.14741376 -0.38593423
1.6567362e-06 0.060030557 0.057099752 0.23852047 -0.14741376 -0.38593423
0.031132726 0.033922944 0 0.23852047 -0.14741376 -0.38593423
0.031522796 0.03455165 0 0.23852047 -0.14741376 -0.38593423
0.031913001 0.035180531 0 0.23852047 -0.14741376 -0.38593423
0.00043842121 0.064121485 0.059635021 0.23852047 -0.14741376 -0.38593423
0.00067342247 0.06504073 0.06003968 0.23852047 -0.14741376 -0.38593423
0.033084434 0.037068263 0 0.23852047 -0.14741376 -0.38593423
0.033475194 0.037697878 0 0.23852047 -0.14741376 -0.38593423
0.033866093 0.038327686 0 0.23852047 -0.14741376 -0.38593423
0.03425714 0.038957693 0 0.23852047 -0.14741376 -0.38593423
0.034648336 0.039587893 0 0.23852047 -0.14741376 -0.38593423
0.035039678 0.040218297 5.5511151e-17 0.23852047 -0.14741376 -0.38593423
0.0031661429 0.07075841 0.061313812 0.23852047 -0.14741376 -0.38593423
0.03582282 0.041479714 0 0.23852047 -0.14741376 -0.38593423
0.03621462 0.042110741 0 0.23852047 -0.14741376 -0.38593423
0.03660658 0.042741977 0 0.23852047 -0.14741376 -0.38593423
0.036998697 0.043373432 5.5511151e-17 0.23852047 -0.14741376 -0.38593423
0.0058072843 0.074063919 0.060603879 0.23852047 -0.14741376 -0.38593423
0.037783418 0.044637002 5.5511151e-17 0.23852047 -0.14741376 -0.38593423
0.038176022 0.045269124 0 0.23852047 -0.14741376 -0.38593423
0.038568795 0.045901477 5.5511151e-17 0.23852047 -0.14741376 -0.38593423
0.038961735 0.046534058 0 0.23852047 -0.14741376 -0.38593423
0.03935485 0.047166876 5.5511151e-17 0.23852047 -0.14741376 -0.38593423
0.039748132 0.047799934 0 0.23852047 -0.14741376 -0.38593423
0.039999999 0.048573017 0.00027545783 0.23852047 -0.14741376 -0.38593423
0.039999999 0.049597938 0.0010433214 0.23852047 -0.14741376 -0.38593423
0.012175693 0.078384489 0.056160837 0.23852047 -0.14741376 -0.38593423
0.013016084 0.078720644 0.055399403 0.23852047 -0.14741376 -0.38593423
0.039999999 0.052699901 0.0033674762 0.23852047 -0.14741376 -0.38593423
0.039999999 0.053743076 0.0041491375 0.23852047 -0.14741376 -0.38593423
0.015732 0.079509273 0.052715775 0.23852047 -0.14741376 -0.38593423
0.039999999 0.055843424 0.0057230396 0.23852047 -0.14741376 -0.38593423
0.039999999 0.056900673 0.0065153348 0.23852047 -0.14741376 -0.38593423
0.039999999 0.057962682 0.0073112301 0.23852047 -0.14741376 -0.38593423
0.039999999 0.059029493 0.0081107542 0.23852047 -0.14741376 -0.38593423
0.039999999 0.060101148 0.0089139361 0.23852047 -0.14741376 -0.38593423
0.039999999 0.061177678 0.0097208042 0.23852047 -0.14741376 -0.38593423
0.039999999 0.062259126 0.010531388 0.23852047 -0.14741376 -0.38593423
0.039999999 0.063345529 0.011345717 0.23852047 -0.14741376 -0.38593423
0.039999999 0.064436927 0.012163821 0.23852047 -0.14741376 -0.38593423
0.039999999 0.065533362 0.01298573 0.23852047 -0.14741376 -0.38593423
0.039999999 0.066634871 0.013811475 0.23852047 -0.14741376 -0.38593423
0.039999999 0.067741498 0.014641087 0.23852047 -0.14741376 -0.38593423
0.029767973 0.079999998 0.036163773 0.23852047 -0.14741376 -0.38593423
0.039999999 0.069970272 0.016312035 0.23852047 -0.14741376 -0.38593423
0.031907234 0.079999998 0.033585463 0.23852047 -0.14741376 -0.38593423
0.032967903 0.079999998 0.032307152 0.23852047 -0.14741376 -0.38593423
0.039999999 0.073352858 0.018848246 0.23852047 -0.14741376 -0.38593423
0.039999999 0.074491069 0.019701723 0.23852047 -0.14741376 -0.38593423
0.039999999 0.075634696 0.020559292 0.23852047 -0.14741376 -0.38593423
0.039999999 0.076783784 0.021420985 0.23852047 -0.14741376 -0.38593423
0.039999999 0.077938378 0.02228684 0.23852047 -0.14741376 -0.38593423
0.039999999 0.079098523 0.023156887 0.23852047 -0.14741376 -0.38593423
0.00071622623 0 0.01005247 0.23852047 -0.14741376 -0.38593423
0 0.0013341795 0.01190751 0.23852047 -0.14741376 -0.38593423
0.0035502918 0 0.0066405246 0.23852047 -0.14741376 -0.38593423
0.004949111 0 0.0049565192 0.23852047 -0.14741376 -0.38593423
0.0063360035 0 0.0032868984 0.23852047 -0.14741376 -0.38593423
0.0077111288 0 0.0016314697 0.23852047 -0.14741376 -0.38593423
0.0090687247 3.8022445e-06 0 0.23852047 -0.14741376 -0.38593423
0.0094547486 0.00062815688 0 0.23852047 -0.14741376 -0.38593423
0.0098408023 0.0012525241 0 0.23852047 -0.14741376 -0.38593423
2.7755576e-17 0.0085646939 0.017288728 0.23852047 -0.14741376 -0.38593423
0.010613005 0.0025013082 0 0.23852047 -0.14741376 -0.38593423
0.010999158 0.0031257311 0 0.23852047 -0.14741376 -0.38593423
0.011385348 0.0037501783 0 0.23852047 -0.14741376 -0.38593423
0.011771576 0.0043746531 0 0.23852047 -0.14741376 -0.38593423
0.012157845 0.0049991584 0 0.23852047 -0.14741376 -0.38593423
0 0.014118949 0.021423569 0.23852047 -0.14741376 -0.38593423
0.012930511 0.0062482716 0 0.23852047 -0.14741376 -0.38593423
0.013316913 0.0068728859 0 0.23852047 -0.14741376 -0.38593423
0.013703362 0.0074975425 0 0.23852047 -0.14741376 -0.38593423
0 0.01788687 0.024229135 0.23852047 -0.14741376 -0.38593423
0.014476412 0.0087469947 5.5511151e-17 0.23852047 -0.14741376 -0.38593423
0.014863016 0.0093717957 0 0.23852047 -0.14741376 -0.38593423
0.015249675 0.0099966517 0 0.23852047 -0.14741376 -0.38593423
0.015636392 0.010621564 5.5511151e-17 0.23852047 -0.14741376 -0.38593423
0.016023166 0.011246538 5.5511151e-17 0.23852047 -0.14741376 -0.38593423
0.016410002 0.011871574 0 0.23852047 -0.14741376 -0.38593423
0.016796902 0.012496676 0 0.23852047 -0.14741376 -0.38593423
0 0.025585318 0.029962696 0.23852047 -0.14741376 -0.38593423
0.017570894 0.013747091 0 0.23852047 -0.14741376 -0.38593423
2.7755576e-17 0.02754489 0.031422406 0.23852047 -0.14741376 -0.38593423
0 0.028530052 0.032156307 0.23852047 -0.14741376 -0.38593423
0.018732399 0.015623285 5.5511151e-17 0.23852047 -0.14741376 -0.38593423
0.019119712 0.016248846 0 0.23852047 -0.14741376 -0.38593423
0.019507101 0.016874496 0 0.23852047 -0.14741376 -0.38593423
0.019894568 0.017500237 0 0.23852047 -0.14741376 -0.38593423
0.020282114 0.018126069 5.5511151e-17 0.23852047 -0.14741376 -0.38593423
0.020669742 0.018751998 0 0.23852047 -0.14741376 -0.38593423
0.021057451 0.019378025 0 0.23852047 -0.14741376 -0.38593423
0.021445246 0.020004153 5.5511151e-17 0.23852047 -0.14741376 -0.38593423
0.021833127 0.020630389 0 0.23852047 -0.14741376 -0.38593423
0 0.038584769 0.039648209 0.23852047 -0.14741376 -0.38593423
0.022609159 0.021883186 0 0.23852047 -0.14741376 -0.38593423
0.022997314 0.022509754 0 0.23852047 -0.14741376 -0.38593423
0.023385562 0.023136439 5.5511151e-17 0.23852047 -0.14741376 -0.38593423
0.023773907 0.023763245 5.5511151e-17 0.23852047 -0.14741376 -0.38593423
0.024162348 0.024390174 0 0.23852047 -0.14741376 -0.38593423
0.024550891 0.025017228 5.5511151e-17 0.23852047 -0.14741376 -0.38593423
0.024939535 0.025644412 0 0.23852047 -0.14741376 -0.38593423
0.025328282 0.026271729 5.5511151e-17 0.23852047 -0.14741376 -0.38593423
0.0036612188 0.044965778 0.039999999 0.23852047 -0.14741376 -0.38593423
0.026106097 0.027526772 0 0.23852047 -0.14741376 -0.38593423
0.026495166 0.028154504 0 0.23852047 -0.14741376 -0.38593423
0.026884347 0.028782379 0 0.23852047 -0.14741376 -0.38593423
0.027273642 0.029410401 5.5511151e-17 0.23852047 -0.14741376 -0.38593423
0.027663052 0.030038577 0 0.23852047 -0.14741376 -0.38593423
0.02805258 0.030666903 0 0.23852047 -0.14741376 -0.38593423
0.0006885241 0.054904878 0.050986253 0.23852047 -0.14741376 -0.38593423
0.02883199 0.031924032 0 0.23852047 -0.14741376 -0.38593423
0.029221879 0.032552838 0 0.23852047 -0.14741376 -0.38593423
0.029611893 0.033181809 0 0.23852047 -0.14741376 -0.38593423
0.030002033 0.033810951 5.5511151e-17 0.23852047 -0.14741376 -0.38593423
5.1550058e-05 0.06095079 0.056261171 0.23852047 -0.14741376 -0.38593423
0.0307827 0.035069752 0 0.23852047 -0.14741376 -0.38593423
0.031173229 0.035699416 0 0.23852047 -0.14741376 -0.38593423
0.031563893 0.036329262 0 0.23852047 -0.14741376 -0.38593423
0.031954695 0.036959294 0 0.23852047 -0.14741376 -0.38593423
0.032345634 0.037589513 5.5511151e-17 0.23852047 -0.14741376 -0.38593423
0.032736715 0.038219921 5.5511151e-17 0.23852047 -0.14741376 -0.38593423
0.033127934 0.038850524 0 0.23852047 -0.14741376 -0.38593423
0.033519298 0.039481323 0 0.23852047 -0.14741376 -0.38593423
0.0022409132 0.069137983 0.059735674 0.23852047 -0.14741376 -0.38593423
0.034302466 0.040743522 0 0.23852047 -0.14741376 -0.38593423
0.034694273 0.041374929 5.5511151e-17 0.23852047 -0.14741376 -0.38593423
0.035086233 0.042006545 0 0.23852047 -0.14741376 -0.38593423
0.0040475256 0.07205835 0.059742425 0.23852047 -0.14741376 -0.38593423
0.035870612 0.043270417 0 0.23852047 -0.14741376 -0.38593423
0.036263037 0.043902677 0 0.23852047 -0.14741376 -0.38593423
0.03665562 0.04453516 0 0.23852047 -0.14741376 -0.38593423
0.037048366 0.045167867 5.5511151e-17 0.23852047 -0.14741376 -0.38593423
0.037441276 0.045800801 5.5511151e-17 0.23852047 -0.14741376 -0.38593423
0.03783435 0.04643397 0 0.23852047 -0.14741376 -0.38593423
0.038227588 0.04706737 0 0.23852047 -0.14741376 -0.38593423
0.038621001 0.047701005 0 0.23852047 -0.14741376 -0.38593423
0.039014582 0.048334882 0 0.23852047 -0.14741376 -0.38593423
0.039408334 0.048969004 0 0.23852047 -0.14741376 -0.38593423
0.039802264 0.049603373 0 0.23852047 -0.14741376 -0.38593423
0.039999999 0.050433695 0.00038213326 0.23852047 -0.14741376 -0.38593423
0.039999999 0.05146458 0.0011516931 0.23852047 -0.14741376 -0.38593423
0.039999999 0.052500024 0.0019246804 0.23852047 -0.14741376 -0.38593423
0.039999999 0.053540055 0.0027011218 0.23852047 -0.14741376 -0.38593423
0.039999999 0.054584716 0.0034810444 0.23852047 -0.14741376 -0.38593423
0.016493289 0.079676829 0.050467711 0.23852047 -0.14741376 -0.38593423
0.039999999 0.056688067 0.0050514415 0.23852047 -0.14741376 -0.38593423
0.039999999 0.057746828 0.0058419709 0.23852047 -0.14741376 -0.38593423
0.039999999 0.058810361 0.006636092 0.23852047 -0.14741376 -0.38593423
0.039999999 0.059878707 0.0074338326 0.23852047 -0.14741376 -0.38593423
0.039999999 0.060951903 0.0082352217 0.23852047 -0.14741376 -0.38593423
0.039999999 0.062029988 0.0090402886 0.23852047 -0.14741376 -0.38593423
0.024609718 0.079434067 0.040532123 0.23852047 -0.14741376 -0.38593423
0.039999999 0.064200975 0.010661569 0.23852047 -0.14741376 -0.38593423
0.039999999 0.06529396 0.011477844 0.23852047 -0.14741376 -0.38593423
0.039999999 0.06639199 0.012297914 0.23852047 -0.14741376 -0.38593423
0.028448701 0.079999998 0.03634166 0.23852047 -0.14741376 -0.38593423
0.039999999 0.068603352 0.013949565 0.23852047 -0.14741376 -0.38593423
0.039999999 0.069716766 0.014781206 0.23852047 -0.14741376 -0.38593423
0.031663828 0.079999998 0.032478493 0.23852047 -0.14741376 -0.38593423
0.032723583 0.079999998 0.031205192 0.23852047 -0.14741376 -0.38593423
0.039999999 0.073088445 0.017299777 0.23852047 -0.14741376 -0.38593423
0.039999999 0.074222952 0.018147288 0.23852047 -0.14741376 -0.38593423
0.039999999 0.075362846 0.018998848 0.23852047 -0.14741376 -0.38593423
0.039999999 0.076508164 0.019854492 0.23852047 -0.14741376 -0.38593423
0.039999999 0.077658959 0.020714249 0.23852047 -0.14741376 -0.38593423
0.039999999 0.078815266 0.021578155 0.23852047 -0.14741376 -0.38593423
0.039999999 0.07997714 0.022446245 0.23852047 -0.14741376 -0.38593423
0.00071467314 0 0.0087520275 0.23852047 -0.14741376 -0.38593423
0.002134766 0 0.0070479768 0.23852047 -0.14741376 -0.38593423
0.0035426593 0 0.0053585889 0.23852047 -0.14741376 -0.38593423
0.0049385168 0 0.0036836669 0.23852047 -0.14741376 -0.38593423
0.006322498 0 0.0020230177 0.23852047 -0.14741376 -0.38593423
0.0076947617 2.7755576e-17 0.00037645194 0.23852047 -0.14741376 -0.38593423
0.008306114 0.00048139901 5.5511151e-17 0.23852047 -0.14741376 -0.38593423
0.0086925579 0.0011064606 0 0.23852047 -0.14741376 -0.38593423
2.7755576e-17 0.0076332358 0.01527147 0.23852047 -0.14741376 -0.38593423
0.0094655296 0.002356628 0 0.23852047 -0.14741376 -0.38593423
2.7755576e-17 0.0094614532 0.016627779 0.23852047 -0.14741376 -0.38593423
0.010238627 0.003606874 0 0.23852047 -0.14741376 -0.38593423
0.010625227 0.0042320341 5.5511151e-17 0.23852047 -0.14741376 -0.38593423
2.7755576e-17 0.012227438 0.018679976 0.23852047 -0.14741376 -0.38593423
0.01139854 0.0054824436 0 0.23852047 -0.14741376 -0.38593423
2.7755576e-17 0.014087447 0.020060113 0.23852047 -0.14741376 -0.38593423
0.012172015 0.0067329914 0 0.23852047 -0.14741376 -0.38593423
0 0.015960468 0.021450002 0.23852047 -0.14741376 -0.38593423
0.012945668 0.0079837013 5.5511151e-17 0.23852047 -0.14741376 -0.38593423
0.013332565 0.0086091254 0 0.23852047 -0.14741376 -0.38593423
0.013719512 0.0092345979 0 0.23852047 -0.14741376 -0.38593423
0.014106511 0.0098601235 0 0.23852047 -0.14741376 -0.38593423
2.7755576e-17 0.020701112 0.024968261 0.23852047 -0.14741376 -0.38593423
0.014880671 0.011111345 0 0.23852047 -0.14741376 -0.38593423
0.015267837 0.011737046 0 0.23852047 -0.14741376 -0.38593423
0.015655061 0.012362812 0 0.23852047 -0.14741376 -0.38593423
0.016042346 0.012988645 5.5511151e-17 0.23852047 -0.14741376 -0.38593423
0 0.025527 0.028550403 0.23852047 -0.14741376 -0.38593423
0.016817106 0.014240526 0 0.23852047 -0.14741376 -0.38593423
0.017204585 0.014866579 0 0.23852047 -0.14741376 -0.38593423
0.017592132 0.015492713 5.5511151e-17 0.23852047 -0.14741376 -0.38593423
0.01797975 0.016118929 5.5511151e-17 0.23852047 -0.14741376 -0.38593423
0.01836744 0.01674523 0 0.23852047 -0.14741376 -0.38593423
0.018755203 0.017371619 0 0.23852047 -0.14741376 -0.38593423
0.019143043 0.017998101 0 0.23852047 -0.14741376 -0.38593423
0 0.033433102 0.034420215 0.23852047 -0.14741376 -0.38593423
2.7755576e-17 0.034437865 0.035166305 0.23852047 -0.14741376 -0.38593423
0 0.035446379 0.035915207 0.23852047 -0.14741376 -0.38593423
0.020695198 0.020505 0 0.23852047 -0.14741376 -0.38593423
0.021083444 0.021131985 0 0.23852047 -0.14741376 -0.38593423
0.021471778 0.021759078 5.5511151e-17 0.23852047 -0.14741376 -0.38593423
0.021860201 0.022386285 0 0.23852047 -0.14741376 -0.38593423
0 0.04054613 0.039702553 0.23852047 -0.14741376 -0.38593423
0.00026219885 0.041369952 0.039999999 0.23852047 -0.14741376 -0.38593423
0.023026023 0.024268609 0 0.23852047 -0.14741376 -0.38593423
0.0011202808 0.042755302 0.039999999 0.23852047 -0.14741376 -0.38593423
0.023803717 0.02552411 0 0.23852047 -0.14741376 -0.38593423
0.024192711 0.026152054 0 0.23852047 -0.14741376 -0.38593423
0.02458181 0.026780132 0 0.23852047 -0.14741376 -0.38593423
0.024971012 0.027408348 0 0.23852047 -0.14741376 -0.38593423
0.02536032 0.028036704 0 0.23852047 -0.14741376 -0.38593423
0.025749736 0.028665204 0 0.23852047 -0.14741376 -0.38593423
0.026139261 0.029293848 0 0.23852047 -0.14741376 -0.38593423
0.026528899 0.029922642 0 0.23852047 -0.14741376 -0.38593423
0.02691865 0.030551588 0 0.23852047 -0.14741376 -0.38593423
0.027308516 0.031180689 0 0.23852047 -0.14741376 -0.38593423
0.027698498 0.031809948 0 0.23852047 -0.14741376 -0.38593423
0.028088601 0.032439366 0 0.23852047 -0.14741376 -0.38593423
0.028478825 0.033068951 0 0.23852047 -0.14741376 -0.38593423
0.028869171 0.033698704 0 0.23852047 -0.14741376 -0.38593423
0.029259643 0.034328628 0 0.23852047 -0.14741376 -0.38593423
0.029650241 0.034958724 0 0.23852047 -0.14741376 -0.38593423
0.030040968 0.035588995 0 0.23852047 -0.14741376 -0.38593423
0.030431826 0.036219448 0 0.23852047 -0.14741376 -0.38593423
0.030822815 0.036850084 0 0.23852047 -0.14741376 -0.38593423
0.031213941 0.037480906 5.5511151e-17 0.23852047 -0.14741376 -0.38593423
0.031605203 0.038111914 0 0.23852047 -0.14741376 -0.38593423
0.031996604 0.038743116 5.5511151e-17 0.23852047 -0.14741376 -0.38593423
0.032388143 0.039374515 0 0.23852047 -0.14741376 -0.38593423
0.0017857209 0.068240255 0.058139633 0.23852047 -0.14741376 -0.38593423
0.03317165 0.040637907 0 0.23852047 -0.14741376 -0.38593423
0.033563625 0.04126991 0 0.23852047 -0.14741376 -0.38593423
0.033955745 0.041902117 0 0.23852047 -0.14741376 -0.38593423
0.0034927845 0.071240164 0.058323681 0.23852047 -0.14741376 -0.38593423
0.034740437 0.04316717 5.5511151e-17 0.23852047 -0.14741376 -0.38593423
0.0044996981 0.072599798 0.058127701 0.23852047 -0.14741376 -0.38593423
0.035525747 0.044433095 0 0.23852047 -0.14741376 -0.38593423
0.035918638 0.045066386 0 0.23852047 -0.14741376 -0.38593423
0.036311686 0.045699909 5.5511151e-17 0.23852047 -0.14741376 -0.38593423
0.036704898 0.046333659 0 0.23852047 -0.14741376 -0.38593423
0.037098274 0.046967641 5.5511151e-17 0.23852047 -0.14741376 -0.38593423
0.0081432471 0.076072574 0.056343295 0.23852047 -0.14741376 -0.38593423
0.0088197337 0.076579958 0.055909917 0.23852047 -0.14741376 -0.38593423
0.0095585147 0.077024452 0.055355147 0.23852047 -0.14741376 -0.38593423
0.038673453 0.049505964 0 0.23852047 -0.14741376 -0.38593423
0.039067678 0.050141156 0 0.23852047 -0.14741376 -0.38593423
0.039462075 0.050776601 0 0.23852047 -0.14741376 -0.38593423
0.039856654 0.051412303 0 0.23852047 -0.14741376 -0.38593423
0.013557279 0.078903005 0.051960595 0.23852047 -0.14741376 -0.38593423
0.039999999 0.053338092 0.0012606388 0.23852047 -0.14741376 -0.38593423
0.039999999 0.054379605 0.0020353491 0.23852047 -0.14741376 -0.38593423
0.016305704 0.079635546 0.049212296 0.23852047 -0.14741376 -0.38593423
0.039999999 0.056476571 0.0035952139 0.23852047 -0.14741376 -0.38593423
0.018327074 0.079906501 0.046991948 0.23852047 -0.14741376 -0.38593423
0.019386273 0.079983391 0.045780104 0.23852047 -0.14741376 -0.38593423
0.039999999 0.05965744 0.0059615322 0.23852047 -0.14741376 -0.38593423
0.039999999 0.060727321 0.0067574889 0.23852047 -0.14741376 -0.38593423
0.039999999 0.061802063 0.0075570848 0.23852047 -0.14741376 -0.38593423
0.039999999 0.062881708 0.0083603486 0.23852047 -0.14741376 -0.38593423
0.039999999 0.063966282 0.0091673099 0.23852047 -0.14741376 -0.38593423
0.039999999 0.06505584 0.0099779982 0.23852047 -0.14741376 -0.38593423
0.039999999 0.066150405 0.010792443 0.23852047 -0.14741376 -0.38593423
0.039999999 0.067250036 0.011610673 0.23852047 -0.14741376 -0.38593423
0.039999999 0.068354763 0.012432721 0.23852047 -0.14741376 -0.38593423
0.039999999 0.069464624 0.013258616 0.23852047 -0.14741376 -0.38593423
0.031421166 0.079999998 0.031374902 0.23852047 -0.14741376 -0.38593423
0.032480005 0.079999998 0.030106585 0.23852047 -0.14741376 -0.38593423
0.039999999 0.072825454 0.015759697 0.23852047 -0.14741376 -0.38593423
0.039999999 0.073956288 0.016601296 0.23852047 -0.14741376 -0.38593423
0.039999999 0.07509248 0.0174469 0.23852047 -0.14741376 -0.38593423
0.039999999 0.076234058 0.018296544 0.23852047 -0.14741376 -0.38593423
0.039999999 0.077381067 0.019150259 0.23852047 -0.14741376 -0.38593423
0.039999999 0.078533567 0.020008078 0.23852047 -0.14741376 -0.38593423
0.039999999 0.079691596 0.020870037 0.23852047 -0.14741376 -0.38593423
0.00071312679 0 0.0074572591 0.23852047 -0.14741376 -0.38593423
0.0021301669 0 0.0057624551 0.23852047 -0.14741376 -0.38593423
0.0035350597 0 0.0040821997 0.23852047 -0.14741376 -0.38593423
0.0049279677 0 0.002416298 0.23852047 -0.14741376 -0.38593423
0.0063090506 0 0.00076455908 0.23852047 -0.14741376 -0.38593423
0.0071549835 0.00033429079 5.5511151e-17 0.23852047 -0.14741376 -0.38593423
0.0075418232 0.00096004881 0 0.23852047 -0.14741376 -0.38593423
0.0079286862 0.0015858187 5.5511151e-17 0.23852047 -0.14741376 -0.38593423
0.0083155762 0.0022116036 5.5511151e-17 0.23852047 -0.14741376 -0.38593423
0.0087024933 0.0028374065 5.5511151e-17 0.23852047 -0.14741376 -0.38593423
0.0090894401 0.0034632303 0 0.23852047 -0.14741376 -0.38593423
0 0.010357324 0.015967559 0.23852047 -0.14741376 -0.38593423
0.0098634306 0.0047149528 0 0.23852047 -0.14741376 -0.38593423
0.010250477 0.0053408574 0 0.23852047 -0.14741376 -0.38593423
0.010637561 0.0059667947 0 0.23852047 -0.14741376 -0.38593423
0.011024683 0.0065927682 0 0.23852047 -0.14741376 -0.38593423
0.011411847 0.00721878 0 0.23852047 -0.14741376 -0.38593423
0.011799052 0.0078448346 0 0.23852047 -0.14741376 -0.38593423
0.012186303 0.008470933 0 0.23852047 -0.14741376 -0.38593423
0.012573599 0.0090970797 0 0.23852047 -0.14741376 -0.38593423
0.012960943 0.0097232778 5.5511151e-17 0.23852047 -0.14741376 -0.38593423
0 0.019701831 0.02287841 0.23852047 -0.14741376 -0.38593423
0.013735784 0.010975838 5.5511151e-17 0.23852047 -0.14741376 -0.38593423
0.014123284 0.011602205 0 0.23852047 -0.14741376 -0.38593423
0.01451084 0.012228637 0 0.23852047 -0.14741376 -0.38593423
0.014898453 0.012855134 0 0.23852047 -0.14741376 -0.38593423
0.015286125 0.013481699 0 0.23852047 -0.14741376 -0.38593423
0.015673859 0.014108337 0 0.23852047 -0.14741376 -0.38593423
0.016061654 0.01473505 0 0.23852047 -0.14741376 -0.38593423
0.016449517 0.01536184 0 0.23852047 -0.14741376 -0.38593423
0.016837444 0.015988711 0 0.23852047 -0.14741376 -0.38593423
2.7755576e-17 0.029383594 0.030040832 0.23852047 -0.14741376 -0.38593423
0.017613508 0.017242707 0 0.23852047 -0.14741376 -0.38593423
0.018001646 0.017869839 5.5511151e-17 0.23852047 -0.14741376 -0.38593423
0.01838986 0.018497065 0 0.23852047 -0.14741376 -0.38593423
0.018778149 0.019124385 0 0.23852047 -0.14741376 -0.38593423
0.019166516 0.019751804 5.5511151e-17 0.23852047 -0.14741376 -0.38593423
0.019554963 0.020379325 0 0.23852047 -0.14741376 -0.38593423
0.019943492 0.021006953 0 0.23852047 -0.14741376 -0.38593423
0.020332105 0.021634687 0 0.23852047 -0.14741376 -0.38593423
0.020720802 0.022262532 5.5511151e-17 0.23852047 -0.14741376 -0.38593423
0.021109588 0.022890493 0 0.23852047 -0.14741376 -0.38593423
0.021498462 0.02351857 0 0.23852047 -0.14741376 -0.38593423
0.021887427 0.024146767 0 0.23852047 -0.14741376 -0.38593423
0.022276487 0.024775088 0 0.23852047 -0.14741376 -0.38593423
0.02266564 0.025403533 0 0.23852047 -0.14741376 -0.38593423
0.00072304544 0.044008836 0.039999999 0.23852047 -0.14741376 -0.38593423
0.023444239 0.026660817 0 0.23852047 -0.14741376 -0.38593423
0.0015825614 0.045396727 0.039999999 0.23852047 -0.14741376 -0.38593423
0.024223238 0.027918642 0 0.23852047 -0.14741376 -0.38593423
0.024612894 0.028547766 0 0.23852047 -0.14741376 -0.38593423
0.025002657 0.029177032 0 0.23852047 -0.14741376 -0.38593423
0.025392527 0.029806448 0 0.23852047 -0.14741376 -0.38593423
0.025782507 0.030436015 5.5511151e-17 0.23852047 -0.14741376 -0.38593423
0.026172599 0.031065734 0 0.23852047 -0.14741376 -0.38593423
0.0012612909 0.053076003 0.046069201 0.23852047 -0.14741376 -0.38593423
0.00078512204 0.05455697 0.047734819 0.23852047 -0.14741376 -0.38593423
0.00042746874 0.055945318 0.049190242 0.23852047 -0.14741376 -0.38593423
0.027734125 0.033586212 0 0.23852047 -0.14741376 -0.38593423
0.028124806 0.034216743 0 0.23852047 -0.14741376 -0.38593423
0.028515609 0.03484745 5.5511151e-17 0.23852047 -0.14741376 -0.38593423
0.028906537 0.035478331 5.5511151e-17 0.23852047 -0.14741376 -0.38593423
0.029297594 0.036109392 0 0.23852047 -0.14741376 -0.38593423
0.00021111121 0.062734976 0.054476604 0.23852047 -0.14741376 -0.38593423
0.030080095 0.03737206 0 0.23852047 -0.14741376 -0.38593423
0.030471545 0.038003672 0 0.23852047 -0.14741376 -0.38593423
0.00081639219 0.065555654 0.055842303 0.23852047 -0.14741376 -0.38593423
0.03125485 0.039267473 0 0.23852047 -0.14741376 -0.38593423
0.03164671 0.03989967 0 0.23852047 -0.14741376 -0.38593423
0.032038711 0.040532064 0 0.23852047 -0.14741376 -0.38593423
0.032430854 0.041164659 0 0.23852047 -0.14741376 -0.38593423
0.032823142 0.041797463 5.5511151e-17 0.23852047 -0.14741376 -0.38593423
0.033215579 0.042430479 0 0.23852047 -0.14741376 -0.38593423
0.033608161 0.043063704 5.5511151e-17 0.23852047 -0.14741376 -0.38593423
0.034000892 0.043697145 0 0.23852047 -0.14741376 -0.38593423
0.03439378 0.044330806 0 0.23852047 -0.14741376 -0.38593423
0.03478682 0.044964686 5.5511151e-17 0.23852047 -0.14741376 -0.38593423
0.035180017 0.045598794 0 0.23852047 -0.14741376 -0.38593423
0.035573371 0.046233132 0 0.23852047 -0.14741376 -0.38593423
0.035966888 0.046867698 0 0.23852047 -0.14741376 -0.38593423
0.0073523452 0.075471319 0.055378266 0.23852047 -0.14741376 -0.38593423
0.036754407 0.048137538 0 0.23852047 -0.14741376 -0.38593423
0.0086958725 0.07649269 0.054529957 0.23852047 -0.14741376 -0.38593423
0.037542589 0.049408343 0 0.23852047 -0.14741376 -0.38593423
0.037936937 0.050044116 0 0.23852047 -0.14741376 -0.38593423
0.038331456 0.050680138 0 0.23852047 -0.14741376 -0.38593423
0.038726147 0.051316414 0 0.23852047 -0.14741376 -0.38593423
0.039121017 0.051952943 0 0.23852047 -0.14741376 -0.38593423
0.039516065 0.052589737 0 0.23852047 -0.14741376 -0.38593423
0.039911289 0.053226791 0 0.23852047 -0.14741376 -0.38593423
0.039999999 0.054175556 0.00059716462 0.23852047 -0.14741376 -0.38593423
0.01611878 0.079594404 0.04796131 0.23852047 -0.14741376 -0.38593423
0.039999999 0.056266185 0.0021465854 0.23852047 -0.14741376 -0.38593423
0.039999999 0.057318501 0.0029265182 0.23852047 -0.14741376 -0.38593423
0.039999999 0.058375541 0.0037099691 0.23852047 -0.14741376 -0.38593423
0.039999999 0.059437335 0.004496966 0.23852047 -0.14741376 -0.38593423
0.021451337 0.079930611 0.041841146 0.23852047 -0.14741376 -0.38593423
0.039999999 0.061575342 0.0060817078 0.23852047 -0.14741376 -0.38593423
0.039999999 0.062651634 0.0068795099 0.23852047 -0.14741376 -0.38593423
0.039999999 0.063732833 0.0076809712 0.23852047 -0.14741376 -0.38593423
0.039999999 0.064818978 0.00848612 0.23852047 -0.14741376 -0.38593423
0.039999999 0.065910108 0.0092949867 0.23852047 -0.14741376 -0.38593423
0.039999999 0.067006268 0.0101076 0.23852047 -0.14741376 -0.38593423
0.039999999 0.068107493 0.01092399 0.23852047 -0.14741376 -0.38593423
0.039999999 0.06921383 0.011744188 0.23852047 -0.14741376 -0.38593423
0.039999999 0.070325315 0.012568224 0.23852047 -0.14741376 -0.38593423
0.039999999 0.071441986 0.013396129 0.23852047 -0.14741376 -0.38593423
0.039999999 0.072563894 0.014227933 0.23852047 -0.14741376 -0.38593423
0.039999999 0.07369107 0.01506367 0.23852047 -0.14741376 -0.38593423
0.039999999 0.074823573 0.01590337 0.23852047 -0.14741376 -0.38593423
0.039999999 0.075961433 0.016747067 0.23852047 -0.14741376 -0.38593423
0.039999999 0.077104695 0.017594792 0.23852047 -0.14741376 -0.38593423
0.039999999 0.078253403 0.018446578 0.23852047 -0.14741376 -0.38593423
0.039481528 0.079999998 0.020360809 0.23852047 -0.14741376 -0.38593423
0.00071158714 0 0.0061681224 0.23852047 -0.14741376 -0.38593423
0.0021255878 0 0.0044825007 0.23852047 -0.14741376 -0.38593423
0.003527493 0 0.0028113143 0.23852047 -0.14741376 -0.38593423
0.0049174647 0 0.0011543711 0.23852047 -0.14741376 -0.38593423
0.006001336 0.0001868339 0 0.23852047 -0.14741376 -0.38593423
0.0063885786 0.00081329059 0 0.23852047 -0.14741376 -0.38593423
0.0067758407 0.0014397574 0 0.23852047 -0.14741376 -0.38593423
2.7755576e-17 0.0066943336 0.011949028 0.23852047 -0.14741376 -0.38593423
0 0.0075997305 0.01261623 0.23852047 -0.14741376 -0.38593423
0.0079377694 0.0033192488 0 0.23852047 -0.14741376 -0.38593423
0.0083251316 0.0039457865 0 0.23852047 -0.14741376 -0.38593423
0.0087125245 0.0045723487 0 0.23852047 -0.14741376 -0.38593423
0.0090999482 0.0051989397 0 0.23852047 -0.14741376 -0.38593423
0.0094874054 0.0058255615 5.5511151e-17 0.23852047 -0.14741376 -0.38593423
0.009874898 0.0064522177 0 0.23852047 -0.14741376 -0.38593423
0.010262427 0.0070789107 0 0.23852047 -0.14741376 -0.38593423
0.010649996 0.0077056438 0 0.23852047 -0.14741376 -0.38593423
0.011037605 0.0083324201 5.5511151e-17 0.23852047 -0.14741376 -0.38593423
0.011425257 0.0089592431 0 0.23852047 -0.14741376 -0.38593423
0.011812953 0.0095861144 0 0.23852047 -0.14741376 -0.38593423
0.012200695 0.010213039 5.5511151e-17 0.23852047 -0.14741376 -0.38593423
0.012588487 0.010840017 0 0.23852047 -0.14741376 -0.38593423
0 0.020608013 0.02220412 0.23852047 -0.14741376 -0.38593423
0.013364221 0.012094153 5.5511151e-17 0.23852047 -0.14741376 -0.38593423
0.013752168 0.012721316 5.5511151e-17 0.23852047 -0.14741376 -0.38593423
2.7755576e-17 0.023479588 0.0243211 0.23852047 -0.14741376 -0.38593423
0.014528231 0.013975845 0 0.23852047 -0.14741376 -0.38593423
2.7755576e-17 0.025411168 0.025745189 0.23852047 -0.14741376 -0.38593423
0.015304531 0.015230668 0 0.23852047 -0.14741376 -0.38593423
0.015692774 0.015858196 0 0.23852047 -0.14741376 -0.38593423
0.016081084 0.016485807 0 0.23852047 -0.14741376 -0.38593423
0.01646946 0.017113503 0 0.23852047 -0.14741376 -0.38593423
0.016857905 0.017741287 5.5511151e-17 0.23852047 -0.14741376 -0.38593423
2.7755576e-17 0.031290524 0.030080272 0.23852047 -0.14741376 -0.38593423
0.017635008 0.018997133 0 0.23852047 -0.14741376 -0.38593423
0.01802367 0.0196252 0 0.23852047 -0.14741376 -0.38593423
0.018412409 0.020253368 0 0.23852047 -0.14741376 -0.38593423
0.018801225 0.02088164 0 0.23852047 -0.14741376 -0.38593423
0.019190121 0.021510018 0 0.23852047 -0.14741376 -0.38593423
2.7755576e-17 0.037300926 0.034512643 0.23852047 -0.14741376 -0.38593423
0.019968163 0.022767104 0 0.23852047 -0.14741376 -0.38593423
0.020357311 0.02339582 0 0.23852047 -0.14741376 -0.38593423
0.020746546 0.024024654 0 0.23852047 -0.14741376 -0.38593423
0.021135872 0.02465361 0 0.23852047 -0.14741376 -0.38593423
0.021525288 0.02528269 0 0.23852047 -0.14741376 -0.38593423
0.021914797 0.025911897 0 0.23852047 -0.14741376 -0.38593423
0.022304403 0.026541237 5.5511151e-17 0.23852047 -0.14741376 -0.38593423
0.022694105 0.027170708 0 0.23852047 -0.14741376 -0.38593423
0.023083905 0.027800318 0 0.23852047 -0.14741376 -0.38593423
0.0011853809 0.046655331 0.039999999 0.23852047 -0.14741376 -0.38593423
0.0016158069 0.047350511 0.039999999 0.23852047 -0.14741376 -0.38593423
0.02425392 0.029689999 0 0.23852047 -0.14741376 -0.38593423
0.024644135 0.030320186 0 0.23852047 -0.14741376 -0.38593423
0.025034459 0.030950528 0 0.23852047 -0.14741376 -0.38593423
0.025424892 0.031581022 0 0.23852047 -0.14741376 -0.38593423
0.025815438 0.032211676 0 0.23852047 -0.14741376 -0.38593423
0.0262061 0.032842491 0 0.23852047 -0.14741376 -0.38593423
0.00045319638 0.05578839 0.047610275 0.23852047 -0.14741376 -0.38593423
0.026987771 0.034104619 0 0.23852047 -0.14741376 -0.38593423
0.027378784 0.034735937 0 0.23852047 -0.14741376 -0.38593423
0.027769921 0.035367426 0 0.23852047 -0.14741376 -0.38593423
0.028161181 0.035999097 5.5511151e-17 0.23852047 -0.14741376 -0.38593423
0.028552568 0.036630943 0 0.23852047 -0.14741376 -0.38593423
0.028944081 0.037262976 0 0.23852047 -0.14741376 -0.38593423
0.029335724 0.037895195 5.5511151e-17 0.23852047 -0.14741376 -0.38593423
0.029727498 0.0385276 0 0.23852047 -0.14741376 -0.38593423
0.00078047375 0.06542629 0.054332245 0.23852047 -0.14741376 -0.38593423
0.030511448 0.039792996 5.5511151e-17 0.23852047 -0.14741376 -0.38593423
0.03090363 0.04042599 0 0.23852047 -0.14741376 -0.38593423
0.031295948 0.041059185 0 0.23852047 -0.14741376 -0.38593423
0.031688411 0.041692585 0 0.23852047 -0.14741376 -0.38593423
