# .PCD v0.7 - Point Cloud Data file format
VERSION 0.7
FIELDS x y z vp_x vp_y vp_z
SIZE 4 4 4 4 4 4
TYPE F F F F F F
COUNT 1 1 1 1 1 1
WIDTH 717
HEIGHT 1
VIEWPOINT 0 0 0 1 0 0 0
POINTS 717
DATA ascii
2.7755576e-17 0.049668659 0.033596322 -0.23852047 0.14741376 -0.38593423
2.7755576e-17 0.048850998 0.034295071 -0.23852047 0.14741376 -0.38593423
0 0.048030827 0.034996152 -0.23852047 0.14741376 -0.38593423
2.7755576e-17 0.047208127 0.035699584 -0.23852047 0.14741376 -0.38593423
0 0.046382885 0.036405381 -0.23852047 0.14741376 -0.38593423
0 0.045555085 0.037113559 -0.23852047 0.14741376 -0.38593423
0 0.04472471 0.037824132 -0.23852047 0.14741376 -0.38593423
2.7755576e-17 0.043891739 0.038537115 -0.23852047 0.14741376 -0.38593423
0 0.043056156 0.039252527 -0.23852047 0.14741376 -0.38593423
0 0.042217948 0.039970379 -0.23852047 0.14741376 -0.38593423
0.023630269 0.079999998 0.039681811 -0.23852047 0.14741376 -0.38593423
0.020618543 0.079999998 0.035443086 -0.23852047 0.14741376 -0.38593423
0.017667677 0.079999998 0.031290203 -0.23852047 0.14741376 -0.38593423
0.014775831 0.079999998 0.027220564 -0.23852047 0.14741376 -0.38593423
0.011941234 0.079999998 0.023231674 -0.23852047 0.14741376 -0.38593423
0.0091621866 0.079999998 0.019321136 -0.23852047 0.14741376 -0.38593423
0.0064370567 0.079999998 0.015486646 -0.23852047 0.14741376 -0.38593423
0.0037642757 0.079999998 0.011725991 -0.23852047 0.14741376 -0.38593423
0.0011423341 0.079999998 0.0080370447 -0.23852047 0.14741376 -0.38593423
2.7755576e-17 0.079593331 0.0067725116 -0.23852047 0.14741376 -0.38593423
2.7755576e-17 0.078863397 0.0073876241 -0.23852047 0.14741376 -0.38593423
0 0.078131512 0.0080045592 -0.23852047 0.14741376 -0.38593423
2.7755576e-17 0.077397659 0.008623329 -0.23852047 0.14741376 -0.38593423
0 0.076661825 0.0092439428 -0.23852047 0.14741376 -0.38593423
0 0.075184166 0.010490751 -0.23852047 0.14741376 -0.38593423
0 0.07444232 0.011116967 -0.23852047 0.14741376 -0.38593423
2.7755576e-17 0.073698446 0.011745071 -0.23852047 0.14741376 -0.38593423
0 0.072204553 0.013006996 -0.23852047 0.14741376 -0.38593423
0 0.071454518 0.013640839 -0.23852047 0.14741376 -0.38593423
0.033210412 0.060021482 0.07 -0.23852047 0.14741376 -0.38593423
0 0.069948182 0.014914343 -0.23852047 0.14741376 -0.38593423
0 0.069191866 0.015554029 -0.23852047 0.14741376 -0.38593423
2.7755576e-17 0.068433426 0.016195685 -0.23852047 0.14741376 -0.38593423
0 0.067672856 0.016839324 -0.23852047 0.14741376 -0.38593423
0 0.066910133 0.017484959 -0.23852047 0.14741376 -0.38593423
0 0.066145256 0.018132601 -0.23852047 0.14741376 -0.38593423
2.7755576e-17 0.065378204 0.018782262 -0.23852047 0.14741376 -0.38593423
0.02975329 0.054279812 0.07 -0.23852047 0.14741376 -0.38593423
2.7755576e-17 0.063837528 0.020087693 -0.23852047 0.14741376 -0.38593423
2.7755576e-17 0.063063875 0.020743489 -0.23852047 0.14741376 -0.38593423
2.7755576e-17 0.062287994 0.021401353 -0.23852047 0.14741376 -0.38593423
0.028025702 0.051416326 0.07 -0.23852047 0.14741376 -0.38593423
2.7755576e-17 0.060729489 0.022723345 -0.23852047 0.14741376 -0.38593423
2.7755576e-17 0.059946835 0.023387495 -0.23852047 0.14741376 -0.38593423
0.026730336 0.049271751 0.07 -0.23852047 0.14741376 -0.38593423
0 0.058374655 0.024722176 -0.23852047 0.14741376 -0.38593423
2.7755576e-17 0.057585102 0.02539273 -0.23852047 0.14741376 -0.38593423
2.7755576e-17 0.056793217 0.026065445 -0.23852047 0.14741376 -0.38593423
2.7755576e-17 0.055998988 0.026740335 -0.23852047 0.14741376 -0.38593423
0.02457186 0.045702986 0.07 -0.23852047 0.14741376 -0.38593423
2.7755576e-17 0.054403439 0.028096694 -0.23852047 0.14741376 -0.38593423
2.7755576e-17 0.053602085 0.02877819 -0.23852047 0.14741376 -0.38593423
0 0.052798327 0.029461915 -0.23852047 0.14741376 -0.38593423
0 0.051992148 0.030147884 -0.23852047 0.14741376 -0.38593423
2.7755576e-17 0.051183529 0.030836111 -0.23852047 0.14741376 -0.38593423
2.7755576e-17 0.050372463 0.03152661 -0.23852047 0.14741376 -0.38593423
0 0.049558926 0.032219395 -0.23852047 0.14741376 -0.38593423
0 0.048742905 0.032914478 -0.23852047 0.14741376 -0.38593423
0 0.047924388 0.033611879 -0.23852047 0.14741376 -0.38593423
2.7755576e-17 0.047103349 0.034311607 -0.23852047 0.14741376 -0.38593423
0 0.046279781 0.035013683 -0.23852047 0.14741376 -0.38593423
0 0.045453664 0.035718117 -0.23852047 0.14741376 -0.38593423
2.7755576e-17 0.044624977 0.036424927 -0.23852047 0.14741376 -0.38593423
0 0.043793712 0.037134126 -0.23852047 0.14741376 -0.38593423
2.7755576e-17 0.042959847 0.037845727 -0.23852047 0.14741376 -0.38593423
2.7755576e-17 0.042123362 0.038559753 -0.23852047 0.14741376 -0.38593423
0 0.041284245 0.039276212 -0.23852047 0.14741376 -0.38593423
2.7755576e-17 0.040442478 0.039995123 -0.23852047 0.14741376 -0.38593423
0.022874909 0.079999998 0.037121821 -0.23852047 0.14741376 -0.38593423
0.019885555 0.079999998 0.032929767 -0.23852047 0.14741376 -0.38593423
0.016956318 0.079999998 0.028822197 -0.23852047 0.14741376 -0.38593423
0.014085384 0.079999998 0.024796562 -0.23852047 0.14741376 -0.38593423
0.011271014 0.079999998 0.020850422 -0.23852047 0.14741376 -0.38593423
0.0085115377 0.079999998 0.016981425 -0.23852047 0.14741376 -0.38593423
0.0058053494 0.079999998 0.013187314 -0.23852047 0.14741376 -0.38593423
0.003150905 0.079999998 0.0094659226 -0.23852047 0.14741376 -0.38593423
0.00054671953 0.079999998 0.0058151628 -0.23852047 0.14741376 -0.38593423
2.7755576e-17 0.079427473 0.0055296328 -0.23852047 0.14741376 -0.38593423
0.038462061 0.06761837 0.069365084 -0.23852047 0.14741376 -0.38593423
0 0.077968255 0.0067557488 -0.23852047 0.14741376 -0.38593423
2.7755576e-17 0.077235721 0.007371529 -0.23852047 0.14741376 -0.38593423
0 0.076501206 0.0079891393 -0.23852047 0.14741376 -0.38593423
2.7755576e-17 0.075764708 0.0086085899 -0.23852047 0.14741376 -0.38593423
2.7755576e-17 0.075026214 0.009229891 -0.23852047 0.14741376 -0.38593423
0 0.074285708 0.0098530557 -0.23852047 0.14741376 -0.38593423
0 0.073543184 0.010478094 -0.23852047 0.14741376 -0.38593423
0.035381034 0.061730556 0.07 -0.23852047 0.14741376 -0.38593423
0 0.072052017 0.011733838 -0.23852047 0.14741376 -0.38593423
0 0.071303353 0.012364566 -0.23852047 0.14741376 -0.38593423
0.034081876 0.059570029 0.07 -0.23852047 0.14741376 -0.38593423
0 0.069799796 0.013631792 -0.23852047 0.14741376 -0.38593423
0.033216052 0.058131322 0.07 -0.23852047 0.14741376 -0.38593423
0.032783218 0.057412449 0.07 -0.23852047 0.14741376 -0.38593423
0 0.06752868 0.015547232 -0.23852047 0.14741376 -0.38593423
0.031917699 0.055975661 0.07 -0.23852047 0.14741376 -0.38593423
2.7755576e-17 0.066003941 0.016834063 -0.23852047 0.14741376 -0.38593423
2.7755576e-17 0.065238327 0.017480478 -0.23852047 0.14741376 -0.38593423
0 0.063700549 0.018779362 -0.23852047 0.14741376 -0.38593423
0.029754678 0.052389078 0.07 -0.23852047 0.14741376 -0.38593423
0 0.062153954 0.020086406 -0.23852047 0.14741376 -0.38593423
2.7755576e-17 0.061377313 0.020743018 -0.23852047 0.14741376 -0.38593423
2.7755576e-17 0.060598422 0.021401709 -0.23852047 0.14741376 -0.38593423
0 0.059817269 0.02206249 -0.23852047 0.14741376 -0.38593423
0 0.059033837 0.022725374 -0.23852047 0.14741376 -0.38593423
0 0.058248118 0.023390373 -0.23852047 0.14741376 -0.38593423
2.7755576e-17 0.057460088 0.024057504 -0.23852047 0.14741376 -0.38593423
2.7755576e-17 0.056669742 0.024726776 -0.23852047 0.14741376 -0.38593423
0 0.05587706 0.025398204 -0.23852047 0.14741376 -0.38593423
0 0.055082023 0.026071802 -0.23852047 0.14741376 -0.38593423
0 0.054284625 0.026747582 -0.23852047 0.14741376 -0.38593423
2.7755576e-17 0.053484846 0.027425561 -0.23852047 0.14741376 -0.38593423
2.7755576e-17 0.052682672 0.028105749 -0.23852047 0.14741376 -0.38593423
0 0.051878087 0.028788161 -0.23852047 0.14741376 -0.38593423
2.7755576e-17 0.051071074 0.029472809 -0.23852047 0.14741376 -0.38593423
0 0.05026162 0.030159712 -0.23852047 0.14741376 -0.38593423
0 0.049449708 0.030848881 -0.23852047 0.14741376 -0.38593423
0 0.048635319 0.03154033 -0.23852047 0.14741376 -0.38593423
2.7755576e-17 0.047818445 0.032234076 -0.23852047 0.14741376 -0.38593423
0 0.046999063 0.032930132 -0.23852047 0.14741376 -0.38593423
0 0.046177156 0.033628508 -0.23852047 0.14741376 -0.38593423
0 0.045352716 0.034329228 -0.23852047 0.14741376 -0.38593423
0 0.044525716 0.035032298 -0.23852047 0.14741376 -0.38593423
0 0.043696146 0.035737742 -0.23852047 0.14741376 -0.38593423
0 0.042863987 0.036445566 -0.23852047 0.14741376 -0.38593423
2.7755576e-17 0.042029224 0.037155788 -0.23852047 0.14741376 -0.38593423
0 0.041191835 0.037868429 -0.23852047 0.14741376 -0.38593423
0 0.040351812 0.038583498 -0.23852047 0.14741376 -0.38593423
0 0.039509125 0.039301015 -0.23852047 0.14741376 -0.38593423
0.025155669 0.079999998 0.038819447 -0.23852047 0.14741376 -0.38593423
0.022127153 0.079999998 0.034587599 -0.23852047 0.14741376 -0.38593423
0.019159874 0.079999998 0.030441498 -0.23852047 0.14741376 -0.38593423
0.016251979 0.079999998 0.026378548 -0.23852047 0.14741376 -0.38593423
0.013401685 0.079999998 0.022396253 -0.23852047 0.14741376 -0.38593423
0.010607284 0.079999998 0.018492222 -0.23852047 0.14741376 -0.38593423
0.0078671295 0.079999998 0.014664151 -0.23852047 0.14741376 -0.38593423
0.0051796441 0.079999998 0.010909828 -0.23852047 0.14741376 -0.38593423
0.0025433078 0.079999998 0.0072271279 -0.23852047 0.14741376 -0.38593423
0 0.079987749 0.0036847983 -0.23852047 0.14741376 -0.38593423
0.038167831 0.068356812 0.066735916 -0.23852047 0.14741376 -0.38593423
0 0.078534998 0.0049014464 -0.23852047 0.14741376 -0.38593423
0 0.07780572 0.0055124545 -0.23852047 0.14741376 -0.38593423
0 0.07707449 0.0061252662 -0.23852047 0.14741376 -0.38593423
0 0.076341294 0.0067398925 -0.23852047 0.14741376 -0.38593423
0.037991744 0.064168543 0.07 -0.23852047 0.14741376 -0.38593423
2.7755576e-17 0.074868955 0.0079746312 -0.23852047 0.14741376 -0.38593423
0 0.07412979 0.0085947653 -0.23852047 0.14741376 -0.38593423
0 0.073388614 0.0092167584 -0.23852047 0.14741376 -0.38593423
0.036256079 0.061280318 0.07 -0.23852047 0.14741376 -0.38593423
0 0.071900167 0.010466363 -0.23852047 0.14741376 -0.38593423
2.7755576e-17 0.071152866 0.011093997 -0.23852047 0.14741376 -0.38593423
2.7755576e-17 0.070403509 0.011723536 -0.23852047 0.14741376 -0.38593423
2.7755576e-17 0.069652066 0.012354989 -0.23852047 0.14741376 -0.38593423
2.7755576e-17 0.068898536 0.012988368 -0.23852047 0.14741376 -0.38593423
2.7755576e-17 0.068142906 0.013623686 -0.23852047 0.14741376 -0.38593423
0 0.067385159 0.014260953 -0.23852047 0.14741376 -0.38593423
2.7755576e-17 0.066625275 0.014900182 -0.23852047 0.14741376 -0.38593423
2.7755576e-17 0.065863259 0.015541386 -0.23852047 0.14741376 -0.38593423
0 0.065099075 0.016184574 -0.23852047 0.14741376 -0.38593423
0 0.064332731 0.016829761 -0.23852047 0.14741376 -0.38593423
0 0.063564196 0.017476957 -0.23852047 0.14741376 -0.38593423
2.7755576e-17 0.062020525 0.01877743 -0.23852047 0.14741376 -0.38593423
0.029755423 0.050495852 0.07 -0.23852047 0.14741376 -0.38593423
0 0.060467951 0.020086093 -0.23852047 0.14741376 -0.38593423
0 0.059688292 0.020743527 -0.23852047 0.14741376 -0.38593423
0.028456438 0.048347082 0.07 -0.23852047 0.14741376 -0.38593423
2.7755576e-17 0.058122154 0.022064663 -0.23852047 0.14741376 -0.38593423
2.7755576e-17 0.057335649 0.022728393 -0.23852047 0.14741376 -0.38593423
2.7755576e-17 0.05654683 0.023394246 -0.23852047 0.14741376 -0.38593423
0.026724856 0.045485921 0.07 -0.23852047 0.14741376 -0.38593423
2.7755576e-17 0.054962203 0.024732379 -0.23852047 0.14741376 -0.38593423
0 0.054166362 0.025404686 -0.23852047 0.14741376 -0.38593423
2.7755576e-17 0.053368151 0.026079169 -0.23852047 0.14741376 -0.38593423
2.7755576e-17 0.052567553 0.026755845 -0.23852047 0.14741376 -0.38593423
2.7755576e-17 0.051764555 0.027434725 -0.23852047 0.14741376 -0.38593423
0 0.050959136 0.028115824 -0.23852047 0.14741376 -0.38593423
2.7755576e-17 0.050151289 0.028799158 -0.23852047 0.14741376 -0.38593423
2.7755576e-17 0.049340993 0.029484736 -0.23852047 0.14741376 -0.38593423
2.7755576e-17 0.048528235 0.030172577 -0.23852047 0.14741376 -0.38593423
0 0.047712997 0.030862693 -0.23852047 0.14741376 -0.38593423
2.7755576e-17 0.046895262 0.031555098 -0.23852047 0.14741376 -0.38593423
0 0.046075013 0.032249808 -0.23852047 0.14741376 -0.38593423
0 0.045252237 0.032946836 -0.23852047 0.14741376 -0.38593423
2.7755576e-17 0.044426918 0.0336462 -0.23852047 0.14741376 -0.38593423
0 0.043599039 0.03434791 -0.23852047 0.14741376 -0.38593423
0 0.042768579 0.035051983 -0.23852047 0.14741376 -0.38593423
2.7755576e-17 0.041935526 0.035758436 -0.23852047 0.14741376 -0.38593423
0 0.041099861 0.036467284 -0.23852047 0.14741376 -0.38593423
0 0.04026157 0.037178539 -0.23852047 0.14741376 -0.38593423
0 0.039420631 0.037892219 -0.23852047 0.14741376 -0.38593423
2.7755576e-17 0.038577028 0.038608339 -0.23852047 0.14741376 -0.38593423
2.7755576e-17 0.037730746 0.039326914 -0.23852047 0.14741376 -0.38593423
0.024392866 0.079999998 0.036263991 -0.23852047 0.14741376 -0.38593423
0.021386882 0.079999998 0.032078747 -0.23852047 0.14741376 -0.38593423
0.018441387 0.079999998 0.027977895 -0.23852047 0.14741376 -0.38593423
0.032661013 0.075461142 0.05155633 -0.23852047 0.14741376 -0.38593423
0.012724634 0.079999998 0.020019284 -0.23852047 0.14741376 -0.38593423
0.0099499449 0.079999998 0.016156733 -0.23852047 0.14741376 -0.38593423
0.0072288685 0.079999998 0.012368984 -0.23852047 0.14741376 -0.38593423
0.0045598517 0.079999998 0.0086538671 -0.23852047 0.14741376 -0.38593423
0.0019414 0.079999998 0.0050092964 -0.23852047 0.14741376 -0.38593423
0.037769083 0.069119088 0.063956253 -0.23852047 0.14741376 -0.38593423
0 0.079097934 0.0030602643 -0.23852047 0.14741376 -0.38593423
0 0.078371882 0.0036665606 -0.23852047 0.14741376 -0.38593423
0 0.077643901 0.0042746351 -0.23852047 0.14741376 -0.38593423
2.7755576e-17 0.076913975 0.0048844982 -0.23852047 0.14741376 -0.38593423
0 0.07618209 0.0054961606 -0.23852047 0.14741376 -0.38593423
2.7755576e-17 0.075448237 0.006109633 -0.23852047 0.14741376 -0.38593423
0 0.074712403 0.0067249262 -0.23852047 0.14741376 -0.38593423
2.7755576e-17 0.073974565 0.0073420512 -0.23852047 0.14741376 -0.38593423
2.7755576e-17 0.073234729 0.0079610189 -0.23852047 0.14741376 -0.38593423
0 0.072492875 0.0085818404 -0.23852047 0.14741376 -0.38593423
0 0.071748987 0.0092045264 -0.23852047 0.14741376 -0.38593423
0 0.07100305 0.009829089 -0.23852047 0.14741376 -0.38593423
0.035829816 0.058664516 0.07 -0.23852047 0.14741376 -0.38593423
0 0.069505006 0.011083888 -0.23852047 0.14741376 -0.38593423
0 0.068752863 0.011714147 -0.23852047 0.14741376 -0.38593423
0 0.067998625 0.012346328 -0.23852047 0.14741376 -0.38593423
2.7755576e-17 0.06724228 0.012980442 -0.23852047 0.14741376 -0.38593423
0 0.066483811 0.013616502 -0.23852047 0.14741376 -0.38593423
0.033225417 0.054343879 0.07 -0.23852047 0.14741376 -0.38593423
2.7755576e-17 0.064960457 0.014894505 -0.23852047 0.14741376 -0.38593423
0 0.064195544 0.015536472 -0.23852047 0.14741376 -0.38593423
2.7755576e-17 0.063428454 0.016180433 -0.23852047 0.14741376 -0.38593423
0 0.062659182 0.016826399 -0.23852047 0.14741376 -0.38593423
2.7755576e-17 0.061114002 0.018124394 -0.23852047 0.14741376 -0.38593423
0 0.060338076 0.01877645 -0.23852047 0.14741376 -0.38593423
2.7755576e-17 0.059559904 0.019430561 -0.23852047 0.14741376 -0.38593423
0 0.058779471 0.020086739 -0.23852047 0.14741376 -0.38593423
0 0.057996769 0.020744998 -0.23852047 0.14741376 -0.38593423
0 0.057211775 0.021405349 -0.23852047 0.14741376 -0.38593423
0 0.05642448 0.022067808 -0.23852047 0.14741376 -0.38593423
0 0.055634871 0.022732386 -0.23852047 0.14741376 -0.38593423
0 0.054842927 0.023399096 -0.23852047 0.14741376 -0.38593423
0 0.054048639 0.024067951 -0.23852047 0.14741376 -0.38593423
0 0.053251989 0.024738967 -0.23852047 0.14741376 -0.38593423
0 0.052452963 0.025412155 -0.23852047 0.14741376 -0.38593423
2.7755576e-17 0.051651545 0.02608753 -0.23852047 0.14741376 -0.38593423
0 0.05084772 0.026765103 -0.23852047 0.14741376 -0.38593423
0 0.050041471 0.027444892 -0.23852047 0.14741376 -0.38593423
2.7755576e-17 0.049232785 0.028126907 -0.23852047 0.14741376 -0.38593423
2.7755576e-17 0.048421644 0.028811164 -0.23852047 0.14741376 -0.38593423
2.7755576e-17 0.047608037 0.029497676 -0.23852047 0.14741376 -0.38593423
0 0.046791941 0.030186459 -0.23852047 0.14741376 -0.38593423
2.7755576e-17 0.045973346 0.030877525 -0.23852047 0.14741376 -0.38593423
0 0.045152232 0.031570893 -0.23852047 0.14741376 -0.38593423
2.7755576e-17 0.044328585 0.032266572 -0.23852047 0.14741376 -0.38593423
0 0.043502387 0.03296458 -0.23852047 0.14741376 -0.38593423
2.7755576e-17 0.042673621 0.033664931 -0.23852047 0.14741376 -0.38593423
2.7755576e-17 0.041842271 0.034367636 -0.23852047 0.14741376 -0.38593423
2.7755576e-17 0.04100832 0.035072718 -0.23852047 0.14741376 -0.38593423
2.7755576e-17 0.040171754 0.035780188 -0.23852047 0.14741376 -0.38593423
0 0.03933255 0.03649006 -0.23852047 0.14741376 -0.38593423
0 0.038490698 0.037202351 -0.23852047 0.14741376 -0.38593423
2.7755576e-17 0.037646174 0.037917078 -0.23852047 0.14741376 -0.38593423
0 0.036798961 0.038634252 -0.23852047 0.14741376 -0.38593423
2.7755576e-17 0.035949048 0.039353896 -0.23852047 0.14741376 -0.38593423
0.026683098 0.079999998 0.037959237 -0.23852047 0.14741376 -0.38593423
0.023637731 0.079999998 0.033734228 -0.23852047 0.14741376 -0.38593423
0.020653982 0.079999998 0.029594876 -0.23852047 0.14741376 -0.38593423
0.017729983 0.079999998 0.025538582 -0.23852047 0.14741376 -0.38593423
0.01486394 0.079999998 0.021562854 -0.23852047 0.14741376 -0.38593423
0.012054131 0.079999998 0.017665299 -0.23852047 0.14741376 -0.38593423
0.0092989029 0.079999998 0.013843617 -0.23852047 0.14741376 -0.38593423
0.006596664 0.079999998 0.010095597 -0.23852047 0.14741376 -0.38593423
0.0039458866 0.079999998 0.0064191148 -0.23852047 0.14741376 -0.38593423
0.0013450992 0.079999998 0.002812125 -0.23852047 0.14741376 -0.38593423
0 0.079657093 0.0012320458 -0.23852047 0.14741376 -0.38593423
0.038339067 0.067927055 0.064162344 -0.23852047 0.14741376 -0.38593423
0 0.078209482 0.0024370877 -0.23852047 0.14741376 -0.38593423
0 0.077482797 0.0030422483 -0.23852047 0.14741376 -0.38593423
0 0.076754168 0.0036491826 -0.23852047 0.14741376 -0.38593423
0 0.076023586 0.0042579016 -0.23852047 0.14741376 -0.38593423
0 0.075291045 0.0048684152 -0.23852047 0.14741376 -0.38593423
0.039316755 0.062547036 0.07 -0.23852047 0.14741376 -0.38593423
0 0.073820032 0.0060948702 -0.23852047 0.14741376 -0.38593423
0 0.073081523 0.0067108334 -0.23852047 0.14741376 -0.38593423
2.7755576e-17 0.071598478 0.0079482859 -0.23852047 0.14741376 -0.38593423
0 0.070853904 0.0085697975 -0.23852047 0.14741376 -0.38593423
0 0.070107274 0.0091931801 -0.23852047 0.14741376 -0.38593423
0 0.069358595 0.0098184459 -0.23852047 0.14741376 -0.38593423
0.035836693 0.056767575 0.07 -0.23852047 0.14741376 -0.38593423
0.03540197 0.056046616 0.07 -0.23852047 0.14741376 -0.38593423
2.7755576e-17 0.067100033 0.011705656 -0.23852047 0.14741376 -0.38593423
0.034532692 0.054605648 0.07 -0.23852047 0.14741376 -0.38593423
0 0.065583788 0.01297342 -0.23852047 0.14741376 -0.38593423
0 0.064822458 0.013610226 -0.23852047 0.14741376 -0.38593423
2.7755576e-17 0.064058974 0.014248995 -0.23852047 0.14741376 -0.38593423
0 0.063293323 0.014889741 -0.23852047 0.14741376 -0.38593423
0 0.062525496 0.015532476 -0.23852047 0.14741376 -0.38593423
0 0.061755471 0.016177211 -0.23852047 0.14741376 -0.38593423
0 0.060983241 0.016823959 -0.23852047 0.14741376 -0.38593423
0 0.060208786 0.017472731 -0.23852047 0.14741376 -0.38593423
0.030623337 0.048136242 0.07 -0.23852047 0.14741376 -0.38593423
0.030189166 0.047418863 0.07 -0.23852047 0.14741376 -0.38593423
0 0.057871949 0.019431327 -0.23852047 0.14741376 -0.38593423
2.7755576e-17 0.057088464 0.020088324 -0.23852047 0.14741376 -0.38593423
2.7755576e-17 0.056302689 0.020747412 -0.23852047 0.14741376 -0.38593423
2.7755576e-17 0.055514608 0.021408601 -0.23852047 0.14741376 -0.38593423
2.7755576e-17 0.054724198 0.022071904 -0.23852047 0.14741376 -0.38593423
0 0.053931456 0.022737334 -0.23852047 0.14741376 -0.38593423
2.7755576e-17 0.05313636 0.023404906 -0.23852047 0.14741376 -0.38593423
0 0.052338898 0.024074631 -0.23852047 0.14741376 -0.38593423
0 0.051539052 0.024746522 -0.23852047 0.14741376 -0.38593423
2.7755576e-17 0.050736811 0.025420597 -0.23852047 0.14741376 -0.38593423
2.7755576e-17 0.049932156 0.026096866 -0.23852047 0.14741376 -0.38593423
0 0.049125075 0.026775341 -0.23852047 0.14741376 -0.38593423
0 0.048315547 0.027456041 -0.23852047 0.14741376 -0.38593423
0 0.047503565 0.028138977 -0.23852047 0.14741376 -0.38593423
2.7755576e-17 0.046689101 0.028824164 -0.23852047 0.14741376 -0.38593423
2.7755576e-17 0.045872148 0.029511614 -0.23852047 0.14741376 -0.38593423
2.7755576e-17 0.045052689 0.030201342 -0.23852047 0.14741376 -0.38593423
0 0.044230707 0.030893365 -0.23852047 0.14741376 -0.38593423
2.7755576e-17 0.043406181 0.031587698 -0.23852047 0.14741376 -0.38593423
0 0.042579103 0.032284349 -0.23852047 0.14741376 -0.38593423
0 0.041749451 0.03298334 -0.23852047 0.14741376 -0.38593423
0 0.040917207 0.033684686 -0.23852047 0.14741376 -0.38593423
2.7755576e-17 0.040082358 0.034388393 -0.23852047 0.14741376 -0.38593423
0 0.039244886 0.035094488 -0.23852047 0.14741376 -0.38593423
2.7755576e-17 0.03840477 0.035802979 -0.23852047 0.14741376 -0.38593423
2.7755576e-17 0.037561998 0.036513884 -0.23852047 0.14741376 -0.38593423
0 0.036716551 0.037227213 -0.23852047 0.14741376 -0.38593423
0 0.03586841 0.037942991 -0.23852047 0.14741376 -0.38593423
0 0.035017561 0.038661227 -0.23852047 0.14741376 -0.38593423
0 0.034163978 0.03938194 -0.23852047 0.14741376 -0.38593423
0.028998261 0.079999998 0.039673641 -0.23852047 0.14741376 -0.38593423
0.025912818 0.079999998 0.035408232 -0.23852047 0.14741376 -0.38593423
0.022890149 0.079999998 0.031229768 -0.23852047 0.14741376 -0.38593423
0.01992834 0.079999998 0.027135601 -0.23852047 0.14741376 -0.38593423
0.017025555 0.079999998 0.02312319 -0.23852047 0.14741376 -0.38593423
0.014180033 0.079999998 0.01919009 -0.23852047 0.14741376 -0.38593423
0.011390078 0.079999998 0.015333959 -0.23852047 0.14741376 -0.38593423
0.0086540645 0.079999998 0.011552542 -0.23852047 0.14741376 -0.38593423
0.0059704278 0.079999998 0.0078436714 -0.23852047 0.14741376 -0.38593423
0.0033376638 0.079999998 0.0042052646 -0.23852047 0.14741376 -0.38593423
0.00075432466 0.079999998 0.00063531584 -0.23852047 0.14741376 -0.38593423
0.038007215 0.068669938 0.061512832 -0.23852047 0.14741376 -0.38593423
2.7755576e-17 0.078771271 0.00061246828 -0.23852047 0.14741376 -0.38593423
0 0.07804779 0.001212986 -0.23852047 0.14741376 -0.38593423
0 0.077322394 0.0018152522 -0.23852047 0.14741376 -0.38593423
0.039363518 0.0649077 0.066510044 -0.23852047 0.14741376 -0.38593423
0 0.075865783 0.0030250726 -0.23852047 0.14741376 -0.38593423
0 0.075134546 0.0036326475 -0.23852047 0.14741376 -0.38593423
0 0.074401349 0.0042420132 -0.23852047 0.14741376 -0.38593423
2.7755576e-17 0.072928995 0.005466159 -0.23852047 0.14741376 -0.38593423
0 0.072189823 0.0060809613 -0.23852047 0.14741376 -0.38593423
0 0.071448632 0.006697597 -0.23852047 0.14741376 -0.38593423
0.038020056 0.058478132 0.07 -0.23852047 0.14741376 -0.38593423
0.037149031 0.057033211 0.07 -0.23852047 0.14741376 -0.38593423
0.036713615 0.056311235 0.07 -0.23852047 0.14741376 -0.38593423
0 0.067711987 0.0098086735 -0.23852047 0.14741376 -0.38593423
2.7755576e-17 0.066958427 0.010436547 -0.23852047 0.14741376 -0.38593423
2.7755576e-17 0.066202767 0.011066333 -0.23852047 0.14741376 -0.38593423
0 0.065444984 0.011698044 -0.23852047 0.14741376 -0.38593423
0 0.064685076 0.012331691 -0.23852047 0.14741376 -0.38593423
2.7755576e-17 0.063923016 0.012967285 -0.23852047 0.14741376 -0.38593423
0.033667296 0.051266167 0.07 -0.23852047 0.14741376 -0.38593423
2.7755576e-17 0.062392414 0.014244365 -0.23852047 0.14741376 -0.38593423
0.032797374 0.049827434 0.07 -0.23852047 0.14741376 -0.38593423
0 0.060853064 0.015529378 -0.23852047 0.14741376 -0.38593423
2.7755576e-17 0.060080077 0.016174892 -0.23852047 0.14741376 -0.38593423
0 0.059304863 0.016822426 -0.23852047 0.14741376 -0.38593423
0 0.05852741 0.017471991 -0.23852047 0.14741376 -0.38593423
0 0.057747696 0.018123602 -0.23852047 0.14741376 -0.38593423
0 0.056965716 0.018777272 -0.23852047 0.14741376 -0.38593423
0 0.056181453 0.019433012 -0.23852047 0.14741376 -0.38593423
2.7755576e-17 0.055394888 0.020090835 -0.23852047 0.14741376 -0.38593423
2.7755576e-17 0.054606013 0.020750755 -0.23852047 0.14741376 -0.38593423
0 0.053814806 0.021412784 -0.23852047 0.14741376 -0.38593423
0 0.05302126 0.022076935 -0.23852047 0.14741376 -0.38593423
2.7755576e-17 0.052225355 0.022743221 -0.23852047 0.14741376 -0.38593423
0 0.051427078 0.023411658 -0.23852047 0.14741376 -0.38593423
2.7755576e-17 0.050626416 0.024082256 -0.23852047 0.14741376 -0.38593423
0 0.049823347 0.024755031 -0.23852047 0.14741376 -0.38593423
0 0.049017861 0.025429994 -0.23852047 0.14741376 -0.38593423
0 0.048209939 0.02610716 -0.23852047 0.14741376 -0.38593423
0 0.047399569 0.026786543 -0.23852047 0.14741376 -0.38593423
2.7755576e-17 0.046586737 0.02746816 -0.23852047 0.14741376 -0.38593423
2.7755576e-17 0.04577142 0.028152019 -0.23852047 0.14741376 -0.38593423
0 0.044953607 0.028838139 -0.23852047 0.14741376 -0.38593423
0 0.044133283 0.029526532 -0.23852047 0.14741376 -0.38593423
0 0.043310426 0.030217212 -0.23852047 0.14741376 -0.38593423
0 0.042485025 0.030910196 -0.23852047 0.14741376 -0.38593423
2.7755576e-17 0.04165706 0.031605497 -0.23852047 0.14741376 -0.38593423
0 0.040826518 0.032303128 -0.23852047 0.14741376 -0.38593423
0 0.039993379 0.033003107 -0.23852047 0.14741376 -0.38593423
2.7755576e-17 0.039157629 0.033705447 -0.23852047 0.14741376 -0.38593423
2.7755576e-17 0.038319249 0.034410164 -0.23852047 0.14741376 -0.38593423
0 0.03747822 0.035117272 -0.23852047 0.14741376 -0.38593423
2.7755576e-17 0.036634527 0.035826791 -0.23852047 0.14741376 -0.38593423
2.7755576e-17 0.035788156 0.036538731 -0.23852047 0.14741376 -0.38593423
2.7755576e-17 0.03493908 0.037253108 -0.23852047 0.14741376 -0.38593423
0 0.034087293 0.037969943 -0.23852047 0.14741376 -0.38593423
0 0.033232767 0.038689245 -0.23852047 0.14741376 -0.38593423
2.7755576e-17 0.032375488 0.039411034 -0.23852047 0.14741376 -0.38593423
0.028212551 0.079999998 0.037101049 -0.23852047 0.14741376 -0.38593423
0.025150279 0.079999998 0.032882851 -0.23852047 0.14741376 -0.38593423
0.022150002 0.079999998 0.028750215 -0.23852047 0.14741376 -0.38593423
0.019209843 0.079999998 0.024700547 -0.23852047 0.14741376 -0.38593423
0.016327998 0.079999998 0.020731354 -0.23852047 0.14741376 -0.38593423
0.013502731 0.079999998 0.016840247 -0.23852047 0.14741376 -0.38593423
0.010732379 0.079999998 0.013024927 -0.23852047 0.14741376 -0.38593423
0.0080153383 0.079999998 0.0092831841 -0.23852047 0.14741376 -0.38593423
0.0053500729 0.079999998 0.0056128935 -0.23852047 0.14741376 -0.38593423
0.0027351005 0.079999998 0.0020120132 -0.23852047 0.14741376 -0.38593423
0.0011136786 0.079733185 0 -0.23852047 0.14741376 -0.38593423
0.038125657 0.068446539 0.060297519 -0.23852047 0.14741376 -0.38593423
0.00037353206 0.078501262 0 -0.23852047 0.14741376 -0.38593423
3.5756175e-06 0.077885762 0 -0.23852047 0.14741376 -0.38593423
0 0.077162683 0.00059360598 -0.23852047 0.14741376 -0.38593423
0 0.076436646 0.0011947418 -0.23852047 0.14741376 -0.38593423
0 0.075708665 0.0017976325 -0.23852047 0.14741376 -0.38593423
0 0.074978732 0.0024022884 -0.23852047 0.14741376 -0.38593423
2.7755576e-17 0.074246846 0.0030087202 -0.23852047 0.14741376 -0.38593423
0 0.073512986 0.0036169381 -0.23852047 0.14741376 -0.38593423
0 0.072777137 0.0042269533 -0.23852047 0.14741376 -0.38593423
2.7755576e-17 0.072039299 0.0048387763 -0.23852047 0.14741376 -0.38593423
0 0.071299449 0.0054524178 -0.23852047 0.14741376 -0.38593423
0 0.070557572 0.0060678888 -0.23852047 0.14741376 -0.38593423
2.7755576e-17 0.069813669 0.0066852001 -0.23852047 0.14741376 -0.38593423
2.7755576e-17 0.069067717 0.0073043634 -0.23852047 0.14741376 -0.38593423
2.7755576e-17 0.068319701 0.0079253893 -0.23852047 0.14741376 -0.38593423
0 0.067569621 0.0085482886 -0.23852047 0.14741376 -0.38593423
0 0.066817448 0.0091730738 -0.23852047 0.14741376 -0.38593423
0 0.066063181 0.0097997552 -0.23852047 0.14741376 -0.38593423
2.7755576e-17 0.065306805 0.010428345 -0.23852047 0.14741376 -0.38593423
0 0.064548306 0.011058855 -0.23852047 0.14741376 -0.38593423
0 0.063787669 0.011691296 -0.23852047 0.14741376 -0.38593423
0 0.063024879 0.01232568 -0.23852047 0.14741376 -0.38593423
0 0.062259927 0.012962019 -0.23852047 0.14741376 -0.38593423
0 0.061492797 0.013600324 -0.23852047 0.14741376 -0.38593423
0 0.05995195 0.014882885 -0.23852047 0.14741376 -0.38593423
2.7755576e-17 0.059178207 0.015527165 -0.23852047 0.14741376 -0.38593423
2.7755576e-17 0.058402229 0.01617346 -0.23852047 0.14741376 -0.38593423
0 0.057624005 0.016821781 -0.23852047 0.14741376 -0.38593423
2.7755576e-17 0.056843519 0.017472144 -0.23852047 0.14741376 -0.38593423
0 0.056060761 0.01812456 -0.23852047 0.14741376 -0.38593423
0 0.055275712 0.018779041 -0.23852047 0.14741376 -0.38593423
2.7755576e-17 0.054488361 0.019435601 -0.23852047 0.14741376 -0.38593423
0 0.053698689 0.020094253 -0.23852047 0.14741376 -0.38593423
0 0.052906685 0.020755008 -0.23852047 0.14741376 -0.38593423
0 0.05211233 0.02141788 -0.23852047 0.14741376 -0.38593423
0 0.051315613 0.022082884 -0.23852047 0.14741376 -0.38593423
0 0.05051652 0.022750031 -0.23852047 0.14741376 -0.38593423
2.7755576e-17 0.049715035 0.023419337 -0.23852047 0.14741376 -0.38593423
0 0.048911136 0.024090812 -0.23852047 0.14741376 -0.38593423
2.7755576e-17 0.048104819 0.024764471 -0.23852047 0.14741376 -0.38593423
0 0.047296058 0.025440328 -0.23852047 0.14741376 -0.38593423
0 0.046484843 0.026118398 -0.23852047 0.14741376 -0.38593423
0 0.045671158 0.026798693 -0.23852047 0.14741376 -0.38593423
2.7755576e-17 0.044854984 0.027481228 -0.23852047 0.14741376 -0.38593423
2.7755576e-17 0.04403631 0.028166017 -0.23852047 0.14741376 -0.38593423
0 0.043215115 0.028853074 -0.23852047 0.14741376 -0.38593423
0 0.042391386 0.029542413 -0.23852047 0.14741376 -0.38593423
2.7755576e-17 0.041565102 0.030234048 -0.23852047 0.14741376 -0.38593423
0 0.040736254 0.030927997 -0.23852047 0.14741376 -0.38593423
0 0.039904818 0.031624272 -0.23852047 0.14741376 -0.38593423
2.7755576e-17 0.039070781 0.032322887 -0.23852047 0.14741376 -0.38593423
0 0.038234126 0.033023857 -0.23852047 0.14741376 -0.38593423
2.7755576e-17 0.037394837 0.033727199 -0.23852047 0.14741376 -0.38593423
0 0.036552891 0.034432929 -0.23852047 0.14741376 -0.38593423
0 0.035708275 0.035141062 -0.23852047 0.14741376 -0.38593423
2.7755576e-17 0.034860972 0.035851609 -0.23852047 0.14741376 -0.38593423
2.7755576e-17 0.034010965 0.036564589 -0.23852047 0.14741376 -0.38593423
0 0.033158235 0.037280019 -0.23852047 0.14741376 -0.38593423
2.7755576e-17 0.03230276 0.037997913 -0.23852047 0.14741376 -0.38593423
2.7755576e-17 0.031444527 0.038718287 -0.23852047 0.14741376 -0.38593423
2.7755576e-17 0.030583519 0.039441157 -0.23852047 0.14741376 -0.38593423
0.030537346 0.079999998 0.038812988 -0.23852047 0.14741376 -0.38593423
0.02743477 0.079999998 0.034554418 -0.23852047 0.14741376 -0.38593423
0.024395354 0.079999998 0.0303827 -0.23852047 0.14741376 -0.38593423
0.021417176 0.079999998 0.026295191 -0.23852047 0.14741376 -0.38593423
0.018498385 0.079999998 0.022289345 -0.23852047 0.14741376 -0.38593423
0.015637208 0.079999998 0.018362725 -0.23852047 0.14741376 -0.38593423
0.012831938 0.079999998 0.014512985 -0.23852047 0.14741376 -0.38593423
0.010080939 0.079999998 0.010737874 -0.23852047 0.14741376 -0.38593423
0.035841595 0.072198041 0.052514527 -0.23852047 0.14741376 -0.38593423
0.0047355131 0.079999998 0.0034029563 -0.23852047 0.14741376 -0.38593423
0.0022385118 0.079971872 0 -0.23852047 0.14741376 -0.38593423
0.037724577 0.069203034 0.057566792 -0.23852047 0.14741376 -0.38593423
0.0014970622 0.078738138 0 -0.23852047 0.14741376 -0.38593423
0.0011264597 0.078121744 0 -0.23852047 0.14741376 -0.38593423
0.00075593661 0.077505656 0 -0.23852047 0.14741376 -0.38593423
0.039219555 0.065426253 0.062733442 -0.23852047 0.14741376 -0.38593423
1.5121596e-05 0.07627441 0 -0.23852047 0.14741376 -0.38593423
0 0.075552233 0.00057554018 -0.23852047 0.14741376 -0.38593423
0 0.074823603 0.0011772967 -0.23852047 0.14741376 -0.38593423
2.7755576e-17 0.074093021 0.0017808143 -0.23852047 0.14741376 -0.38593423
0 0.073360473 0.0023861034 -0.23852047 0.14741376 -0.38593423
2.7755576e-17 0.07262595 0.0029931744 -0.23852047 0.14741376 -0.38593423
0 0.07188943 0.0036020381 -0.23852047 0.14741376 -0.38593423
2.7755576e-17 0.071150914 0.0042127054 -0.23852047 0.14741376 -0.38593423
0 0.070410386 0.0048251869 -0.23852047 0.14741376 -0.38593423
0 0.069667831 0.0054394938 -0.23852047 0.14741376 -0.38593423
0 0.068923235 0.0060556363 -0.23852047 0.14741376 -0.38593423
2.7755576e-17 0.06817659 0.0066736261 -0.23852047 0.14741376 -0.38593423
0 0.067427881 0.0072934744 -0.23852047 0.14741376 -0.38593423
0 0.06592422 0.00853879 -0.23852047 0.14741376 -0.38593423
0.036726449 0.052505549 0.07 -0.23852047 0.14741376 -0.38593423
2.7755576e-17 0.064412147 0.0097916741 -0.23852047 0.14741376 -0.38593423
0.035853736 0.051062223 0.07 -0.23852047 0.14741376 -0.38593423
0 0.06289155 0.011052219 -0.23852047 0.14741376 -0.38593423
2.7755576e-17 0.06212803 0.011685394 -0.23852047 0.14741376 -0.38593423
0 0.061362341 0.012320518 -0.23852047 0.14741376 -0.38593423
2.7755576e-17 0.060594466 0.012957606 -0.23852047 0.14741376 -0.38593423
0 0.059824396 0.013596666 -0.23852047 0.14741376 -0.38593423
0 0.059052117 0.014237713 -0.23852047 0.14741376 -0.38593423
0 0.058277611 0.014880759 -0.23852047 0.14741376 -0.38593423
2.7755576e-17 0.057500869 0.015525815 -0.23852047 0.14741376 -0.38593423
0 0.056721877 0.016172895 -0.23852047 0.14741376 -0.38593423
0.031493094 0.043862943 0.07 -0.23852047 0.14741376 -0.38593423
0 0.055157077 0.017473172 -0.23852047 0.14741376 -0.38593423
0.029958503 0.042684969 0.068876974 -0.23852047 0.14741376 -0.38593423
2.7755576e-17 0.053583097 0.018781694 -0.23852047 0.14741376 -0.38593423
0 0.052792627 0.019439077 -0.23852047 0.14741376 -0.38593423
0 0.051999819 0.020098561 -0.23852047 0.14741376 -0.38593423
0 0.051204659 0.020760156 -0.23852047 0.14741376 -0.38593423
0 0.050407127 0.021423876 -0.23852047 0.14741376 -0.38593423
0 0.049607214 0.022089737 -0.23852047 0.14741376 -0.38593423
2.7755576e-17 0.048804902 0.022757748 -0.23852047 0.14741376 -0.38593423
0.019124318 0.040029299 0.056250148 -0.23852047 0.14741376 -0.38593423
0 0.047193017 0.024100281 -0.23852047 0.14741376 -0.38593423
0.0088420613 0.042638175 0.039999999 -0.23852047 0.14741376 -0.38593423
0 0.045571353 0.025451584 -0.23852047 0.14741376 -0.38593423
0 0.044756815 0.026130561 -0.23852047 0.14741376 -0.38593423
0 0.043939784 0.026811771 -0.23852047 0.14741376 -0.38593423
0 0.043120243 0.02749523 -0.23852047 0.14741376 -0.38593423
2.7755576e-17 0.042298175 0.028180951 -0.23852047 0.14741376 -0.38593423
0 0.041473571 0.028868949 -0.23852047 0.14741376 -0.38593423
2.7755576e-17 0.040646404 0.02955924 -0.23852047 0.14741376 -0.38593423
0 0.039816666 0.030251836 -0.23852047 0.14741376 -0.38593423
2.7755576e-17 0.038984336 0.030946754 -0.23852047 0.14741376 -0.38593423
2.7755576e-17 0.038149398 0.031644005 -0.23852047 0.14741376 -0.38593423
0 0.037311837 0.032343611 -0.23852047 0.14741376 -0.38593423
2.7755576e-17 0.036471631 0.033045579 -0.23852047 0.14741376 -0.38593423
0 0.03562877 0.033749927 -0.23852047 0.14741376 -0.38593423
0 0.034783229 0.034456674 -0.23852047 0.14741376 -0.38593423
2.7755576e-17 0.033934996 0.035165831 -0.23852047 0.14741376 -0.38593423
2.7755576e-17 0.03308405 0.035877414 -0.23852047 0.14741376 -0.38593423
0 0.032230377 0.03659144 -0.23852047 0.14741376 -0.38593423
0 0.031373952 0.037307929 -0.23852047 0.14741376 -0.38593423
2.7755576e-17 0.030514764 0.038026888 -0.23852047 0.14741376 -0.38593423
0 0.029652793 0.038748339 -0.23852047 0.14741376 -0.38593423
0 0.028788017 0.039472293 -0.23852047 0.14741376 -0.38593423
0.029744033 0.079999998 0.036244757 -0.23852047 0.14741376 -0.38593423
0.026664792 0.079999998 0.032033339 -0.23852047 0.14741376 -0.38593423
0.023647932 0.079999998 0.02790739 -0.23852047 0.14741376 -0.38593423
0.020691561 0.079999998 0.02386432 -0.23852047 0.14741376 -0.38593423
0.01779386 0.079999998 0.019901637 -0.23852047 0.14741376 -0.38593423
0.014953084 0.079999998 0.016016953 -0.23852047 0.14741376 -0.38593423
0.012167557 0.079999998 0.012207967 -0.23852047 0.14741376 -0.38593423
0.0094356686 0.079999998 0.0084724752 -0.23852047 0.14741376 -0.38593423
0.006755868 0.079999998 0.0048083528 -0.23852047 0.14741376 -0.38593423
0.0041266652 0.079999998 0.0012135584 -0.23852047 0.14741376 -0.38593423
0.0029946333 0.079593383 0 -0.23852047 0.14741376 -0.38593423
0.0026232929 0.078975767 5.5511151e-17 -0.23852047 0.14741376 -0.38593423
0.0022520372 0.078358464 0 -0.23852047 0.14741376 -0.38593423
0.0018808645 0.077741481 0 -0.23852047 0.14741376 -0.38593423
0.0015097732 0.077124812 0 -0.23852047 0.14741376 -0.38593423
0.0011387618 0.07650844 0 -0.23852047 0.14741376 -0.38593423
0.00076782814 0.075892381 0 -0.23852047 0.14741376 -0.38593423
0.00039697086 0.075276613 5.5511151e-17 -0.23852047 0.14741376 -0.38593423
2.6188138e-05 0.074661151 0 -0.23852047 0.14741376 -0.38593423
0 0.07393986 0.00055825425 -0.23852047 0.14741376 -0.38593423
0 0.073208623 0.0011606339 -0.23852047 0.14741376 -0.38593423
0 0.072475411 0.0017647807 -0.23852047 0.14741376 -0.38593423
2.7755576e-17 0.071740225 0.0023707054 -0.23852047 0.14741376 -0.38593423
2.7755576e-17 0.071003035 0.0029784185 -0.23852047 0.14741376 -0.38593423
0 0.070263848 0.0035879307 -0.23852047 0.14741376 -0.38593423
0.039674394 0.056566585 0.069092259 -0.23852047 0.14741376 -0.38593423
2.7755576e-17 0.068779394 0.0048123957 -0.23852047 0.14741376 -0.38593423
0 0.068034112 0.0054273698 -0.23852047 0.14741376 -0.38593423
0.038917374 0.054213122 0.07 -0.23852047 0.14741376 -0.38593423
0.038480178 0.053489681 0.07 -0.23852047 0.14741376 -0.38593423
0 0.06578587 0.0072833942 -0.23852047 0.14741376 -0.38593423
0.037605971 0.052043729 0.07 -0.23852047 0.14741376 -0.38593423
2.7755576e-17 0.064276583 0.0085301055 -0.23852047 0.14741376 -0.38593423
0 0.06351877 0.0091563044 -0.23852047 0.14741376 -0.38593423
0 0.062758818 0.0097844135 -0.23852047 0.14741376 -0.38593423
0 0.061232463 0.011046411 -0.23852047 0.14741376 -0.38593423
0 0.060466032 0.011680321 -0.23852047 0.14741376 -0.38593423
0 0.059697412 0.01231619 -0.23852047 0.14741376 -0.38593423
0 0.05892659 0.012954027 -0.23852047 0.14741376 -0.38593423
2.7755576e-17 0.058153551 0.013593847 -0.23852047 0.14741376 -0.38593423
2.7755576e-17 0.057378288 0.01423566 -0.23852047 0.14741376 -0.38593423
0 0.056600776 0.014879479 -0.23852047 0.14741376 -0.38593423
0 0.055821009 0.015525316 -0.23852047 0.14741376 -0.38593423
0 0.055038974 0.016173184 -0.23852047 0.14741376 -0.38593423
0 0.054254647 0.016823094 -0.23852047 0.14741376 -0.38593423
0 0.053468022 0.017475061 -0.23852047 0.14741376 -0.38593423
2.7755576e-17 0.052679084 0.018129097 -0.23852047 0.14741376 -0.38593423
0 0.051887818 0.018785212 -0.23852047 0.14741376 -0.38593423
2.7755576e-17 0.051094204 0.019443424 -0.23852047 0.14741376 -0.38593423
2.7755576e-17 0.050298233 0.020103741 -0.23852047 0.14741376 -0.38593423
0 0.049499884 0.02076618 -0.23852047 0.14741376 -0.38593423
2.7755576e-17 0.048699148 0.021430753 -0.23852047 0.14741376 -0.38593423
0 0.047896009 0.022097472 -0.23852047 0.14741376 -0.38593423
0 0.047090448 0.022766352 -0.23852047 0.14741376 -0.38593423
0 0.046282455 0.023437405 -0.23852047 0.14741376 -0.38593423
0.0092427349 0.041521735 0.039999999 -0.23852047 0.14741376 -0.38593423
2.7755576e-17 0.044659097 0.024786089 -0.23852047 0.14741376 -0.38593423
0 0.043843701 0.025463745 -0.23852047 0.14741376 -0.38593423
0 0.043025807 0.026143631 -0.23852047 0.14741376 -0.38593423
0 0.042205397 0.026825761 -0.23852047 0.14741376 -0.38593423
2.7755576e-17 0.041382458 0.027510148 -0.23852047 0.14741376 -0.38593423
0 0.040556971 0.028196806 -0.23852047 0.14741376 -0.38593423
2.7755576e-17 0.039728925 0.028885752 -0.23852047 0.14741376 -0.38593423
0 0.038898293 0.029576998 -0.23852047 0.14741376 -0.38593423
0 0.038065065 0.030270558 -0.23852047 0.14741376 -0.38593423
0 0.037229225 0.03096645 -0.23852047 0.14741376 -0.38593423
2.7755576e-17 0.036390755 0.031664684 -0.23852047 0.14741376 -0.38593423
0 0.035549633 0.032365281 -0.23852047 0.14741376 -0.38593423
0 0.034705851 0.033068251 -0.23852047 0.14741376 -0.38593423
2.7755576e-17 0.033859383 0.033773612 -0.23852047 0.14741376 -0.38593423
2.7755576e-17 0.033010215 0.03448138 -0.23852047 0.14741376 -0.38593423
0 0.03215833 0.035191569 -0.23852047 0.14741376 -0.38593423
2.7755576e-17 0.031303708 0.035904191 -0.23852047 0.14741376 -0.38593423
2.7755576e-17 0.030446334 0.036619272 -0.23852047 0.14741376 -0.38593423
2.7755576e-17 0.029586187 0.037336819 -0.23852047 0.14741376 -0.38593423
0 0.028723249 0.038056847 -0.23852047 0.14741376 -0.38593423
0 0.027857503 0.038779378 -0.23852047 0.14741376 -0.38593423
0 0.026988929 0.039504427 -0.23852047 0.14741376 -0.38593423
0.032078486 0.079999998 0.037954181 -0.23852047 0.14741376 -0.38593423
0.028958715 0.079999998 0.033702418 -0.23852047 0.14741376 -0.38593423
0.0259025 0.079999998 0.029537423 -0.23852047 0.14741376 -0.38593423
0.022907896 0.079999998 0.02545654 -0.23852047 0.14741376 -0.38593423
0.019973047 0.079999998 0.021457236 -0.23852047 0.14741376 -0.38593423
0.017096162 0.079999998 0.017537069 -0.23852047 0.14741376 -0.38593423
0.014275527 0.079999998 0.013693696 -0.23852047 0.14741376 -0.38593423
0.011509493 0.079999998 0.0099248653 -0.23852047 0.14741376 -0.38593423
0.0087964758 0.079999998 0.0062284144 -0.23852047 0.14741376 -0.38593423
0.0061349487 0.079999998 0.0026022615 -0.23852047 0.14741376 -0.38593423
0.0041242493 0.079832666 0 -0.23852047 0.14741376 -0.38593423
0.0037522444 0.079214141 0 -0.23852047 0.14741376 -0.38593423
0.037960343 0.068758346 0.055169772 -0.23852047 0.14741376 -0.38593423
0.0030084986 0.077978045 5.5511151e-17 -0.23852047 0.14741376 -0.38593423
0.0026367542 0.077360474 0 -0.23852047 0.14741376 -0.38593423
0.0022650934 0.076743208 0 -0.23852047 0.14741376 -0.38593423
0.0018935144 0.076126248 0 -0.23852047 0.14741376 -0.38593423
0.0015220153 0.0755096 0 -0.23852047 0.14741376 -0.38593423
0.0011505947 0.074893244 0 -0.23852047 0.14741376 -0.38593423
0.00077925058 0.074277192 5.5511151e-17 -0.23852047 0.14741376 -0.38593423
0.00040798142 0.073661432 0 -0.23852047 0.14741376 -0.38593423
3.6785415e-05 0.073045962 0 -0.23852047 0.14741376 -0.38593423
0 0.072325535 0.00054173137 -0.23852047 0.14741376 -0.38593423
0 0.07159166 0.0011447367 -0.23852047 0.14741376 -0.38593423
0 0.070855804 0.0017495154 -0.23852047 0.14741376 -0.38593423
2.7755576e-17 0.070117943 0.0023560782 -0.23852047 0.14741376 -0.38593423
0 0.069378078 0.0029644358 -0.23852047 0.14741376 -0.38593423
0 0.068636186 0.003574599 -0.23852047 0.14741376 -0.38593423
0 0.067892253 0.0041865786 -0.23852047 0.14741376 -0.38593423
0 0.067146279 0.0048003853 -0.23852047 0.14741376 -0.38593423
0.038796391 0.053220708 0.069070853 -0.23852047 0.14741376 -0.38593423
0 0.065648124 0.0060335244 -0.23852047 0.14741376 -0.38593423
0.038184747 0.051685642 0.069502153 -0.23852047 0.14741376 -0.38593423
0 0.064141624 0.0072741057 -0.23852047 0.14741376 -0.38593423
0.037411064 0.05020564 0.069668241 -0.23852047 0.14741376 -0.38593423
0 0.062626675 0.008522219 -0.23852047 0.14741376 -0.38593423
2.7755576e-17 0.061865993 0.0091491295 -0.23852047 0.14741376 -0.38593423
2.7755576e-17 0.061103165 0.0097779566 -0.23852047 0.14741376 -0.38593423
0 0.060338169 0.010408713 -0.23852047 0.14741376 -0.38593423
2.7755576e-17 0.059570991 0.011041411 -0.23852047 0.14741376 -0.38593423
0.034316082 0.04605294 0.068880491 -0.23852047 0.14741376 -0.38593423
0 0.058030047 0.012312677 -0.23852047 0.14741376 -0.38593423
2.7755576e-17 0.057256252 0.012951269 -0.23852047 0.14741376 -0.38593423
2.7755576e-17 0.056480221 0.013591849 -0.23852047 0.14741376 -0.38593423
2.7755576e-17 0.055701941 0.014234432 -0.23852047 0.14741376 -0.38593423
0 0.0549214 0.014879026 -0.23852047 0.14741376 -0.38593423
0 0.054138582 0.015525648 -0.23852047 0.14741376 -0.38593423
0.028717505 0.042028755 0.064587571 -0.23852047 0.14741376 -0.38593423
0.027692031 0.041554313 0.063585036 -0.23852047 0.14741376 -0.38593423
0 0.05177632 0.017477792 -0.23852047 0.14741376 -0.38593423
0 0.050984249 0.018132642 -0.23852047 0.14741376 -0.38593423
2.7755576e-17 0.050189827 0.018789582 -0.23852047 0.14741376 -0.38593423
2.7755576e-17 0.049393043 0.019448623 -0.23852047 0.14741376 -0.38593423
0 0.048593879 0.02010978 -0.23852047 0.14741376 -0.38593423
0.018470362 0.04007791 0.052267347 -0.23852047 0.14741376 -0.38593423
0 0.046988346 0.021438492 -0.23852047 0.14741376 -0.38593423
0 0.046181951 0.022106076 -0.23852047 0.14741376 -0.38593423
0 0.045373116 0.022775827 -0.23852047 0.14741376 -0.38593423
0 0.044561822 0.023447761 -0.23852047 0.14741376 -0.38593423
0.0092359409 0.039733935 0.039999999 -0.23852047 0.14741376 -0.38593423
0.0088279685 0.039064784 0.039999999 -0.23852047 0.14741376 -0.38593423
2.7755576e-17 0.042113043 0.025476793 -0.23852047 0.14741376 -0.38593423
2.7755576e-17 0.041291766 0.026157593 -0.23852047 0.14741376 -0.38593423
0 0.040467951 0.026840648 -0.23852047 0.14741376 -0.38593423
2.7755576e-17 0.039641585 0.027525967 -0.23852047 0.14741376 -0.38593423
0 0.038812645 0.028213566 -0.23852047 0.14741376 -0.38593423
2.7755576e-17 0.037981123 0.028903462 -0.23852047 0.14741376 -0.38593423
2.7755576e-17 0.037146997 0.029595667 -0.23852047 0.14741376 -0.38593423
0 0.036310252 0.030290198 -0.23852047 0.14741376 -0.38593423
0 0.035470866 0.030987065 -0.23852047 0.14741376 -0.38593423
2.7755576e-17 0.034628831 0.031686291 -0.23852047 0.14741376 -0.38593423
0 0.033784121 0.032387882 -0.23852047 0.14741376 -0.38593423
0 0.032936726 0.033091858 -0.23852047 0.14741376 -0.38593423
0 0.032086622 0.033798236 -0.23852047 0.14741376 -0.38593423
0 0.031233793 0.034507029 -0.23852047 0.14741376 -0.38593423
2.7755576e-17 0.030378222 0.035218254 -0.23852047 0.14741376 -0.38593423
2.7755576e-17 0.029519893 0.035931926 -0.23852047 0.14741376 -0.38593423
0 0.028658785 0.036648061 -0.23852047 0.14741376 -0.38593423
0 0.027794881 0.037366673 -0.23852047 0.14741376 -0.38593423
0 0.02692816 0.038087778 -0.23852047 0.14741376 -0.38593423
2.7755576e-17 0.026058607 0.038811397 -0.23852047 0.14741376 -0.38593423
2.7755576e-17 0.025186202 0.039537542 -0.23852047 0.14741376 -0.38593423
0.034438554 0.079999998 0.039682988 -0.23852047 0.14741376 -0.38593423
0.031277537 0.079999998 0.035390235 -0.23852047 0.14741376 -0.38593423
0.028181273 0.079999998 0.031185567 -0.23852047 0.14741376 -0.38593423
0.025147773 0.079999998 0.027066279 -0.23852047 0.14741376 -0.38593423
0.022175135 0.079999998 0.02302978 -0.23852047 0.14741376 -0.38593423
0.019261526 0.079999998 0.019073581 -0.23852047 0.14741376 -0.38593423
0.016405189 0.079999998 0.015195294 -0.23852047 0.14741376 -0.38593423
0.01360444 0.079999998 0.011392622 -0.23852047 0.14741376 -0.38593423
0.010857654 0.079999998 0.007663358 -0.23852047 0.14741376 -0.38593423
0.0081632715 0.079999998 0.0040053814 -0.23852047 0.14741376 -0.38593423
0.0055197943 0.079999998 0.0004166514 -0.23852047 0.14741376 -0.38593423
0.03702268 0.070479862 0.05095816 -0.23852047 0.14741376 -0.38593423
0.0045113531 0.078834154 5.5511151e-17 -0.23852047 0.14741376 -0.38593423
0.0041388595 0.078215353 5.5511151e-17 -0.23852047 0.14741376 -0.38593423
