# .PCD v0.7 - Point Cloud Data file format
VERSION 0.7
FIELDS x y z vp_x vp_y vp_z
SIZE 4 4 4 4 4 4
TYPE F F F F F F
COUNT 1 1 1 1 1 1
WIDTH 728
HEIGHT 1
VIEWPOINT 0 0 0 1 0 0 0
POINTS 728
DATA ascii
0.019866239 0.013623415 5.5511151e-17 -0.23852047 -0.14741376 -0.38593423
0.020267311 0.012974354 0 -0.23852047 -0.14741376 -0.38593423
0.020668432 0.012325328 0 -0.23852047 -0.14741376 -0.38593423
0.021069605 0.01167633 0 -0.23852047 -0.14741376 -0.38593423
0.021470832 0.011027359 0 -0.23852047 -0.14741376 -0.38593423
0.021872114 0.010378412 5.5511151e-17 -0.23852047 -0.14741376 -0.38593423
0.022674855 0.009080573 0 -0.23852047 -0.14741376 -0.38593423
0.023076316 0.0084316758 0 -0.23852047 -0.14741376 -0.38593423
0.024281096 0.006485031 5.5511151e-17 -0.23852047 -0.14741376 -0.38593423
0.024682827 0.0058361543 0 -0.23852047 -0.14741376 -0.38593423
0.02508463 0.0051872754 0 -0.23852047 -0.14741376 -0.38593423
0.025486507 0.0045383894 0 -0.23852047 -0.14741376 -0.38593423
0.02588846 0.0038894946 0 -0.23852047 -0.14741376 -0.38593423
0.026692603 0.0025916633 0 -0.23852047 -0.14741376 -0.38593423
0.027094796 0.0019427201 0 -0.23852047 -0.14741376 -0.38593423
0.027497075 0.0012937547 0 -0.23852047 -0.14741376 -0.38593423
0.028309599 0 1.1145614e-05 -0.23852047 -0.14741376 -0.38593423
0.029893998 0 0.0017180013 -0.23852047 -0.14741376 -0.38593423
0.031492632 0 0.0034401165 -0.23852047 -0.14741376 -0.38593423
0.033105705 0 0.0051777051 -0.23852047 -0.14741376 -0.38593423
0.034733415 0 0.006930986 -0.23852047 -0.14741376 -0.38593423
0.03637597 0 0.0087001817 -0.23852047 -0.14741376 -0.38593423
0.038033586 0 0.010485518 -0.23852047 -0.14741376 -0.38593423
0.039706476 0 0.012287227 -0.23852047 -0.14741376 -0.38593423
0 0.079507098 0.020891352 -0.23852047 -0.14741376 -0.38593423
0 0.078403801 0.020165928 -0.23852047 -0.14741376 -0.38593423
0 0.07730487 0.019443292 -0.23852047 -0.14741376 -0.38593423
0.0040421621 0.079999998 0.025581086 -0.23852047 -0.14741376 -0.38593423
0.0052305725 0.079999998 0.026864422 -0.23852047 -0.14741376 -0.38593423
0.0064259535 0.079999998 0.0281552 -0.23852047 -0.14741376 -0.38593423
0 0.072952241 0.016580258 -0.23852047 -0.14741376 -0.38593423
0.0088378955 0.079999998 0.03075937 -0.23852047 -0.14741376 -0.38593423
0 0.070801355 0.01516497 -0.23852047 -0.14741376 -0.38593423
0.011278534 0.079999998 0.03339418 -0.23852047 -0.14741376 -0.38593423
0.012509789 0.079999998 0.03472326 -0.23852047 -0.14741376 -0.38593423
0 0.067606151 0.013061906 -0.23852047 -0.14741376 -0.38593423
0 0.066549271 0.01236611 -0.23852047 -0.14741376 -0.38593423
0 0.064447612 0.010982243 -0.23852047 -0.14741376 -0.38593423
0 0.063402787 0.010294138 -0.23852047 -0.14741376 -0.38593423
0.020051783 0.079997204 0.042860795 -0.23852047 -0.14741376 -0.38593423
0.021281306 0.079949111 0.044155724 -0.23852047 -0.14741376 -0.38593423
0.022429928 0.07982415 0.045312651 -0.23852047 -0.14741376 -0.38593423
0 0.059262831 0.0075668343 -0.23852047 -0.14741376 -0.38593423
0.024589507 0.079438515 0.047388285 -0.23852047 -0.14741376 -0.38593423
0.02560694 0.079184629 0.048318461 -0.23852047 -0.14741376 -0.38593423
0.026553435 0.078865699 0.049129162 -0.23852047 -0.14741376 -0.38593423
0 0.055184577 0.0048788963 -0.23852047 -0.14741376 -0.38593423
0.028354969 0.078138977 0.050593071 -0.23852047 -0.14741376 -0.38593423
0.029218756 0.077739343 0.051261093 -0.23852047 -0.14741376 -0.38593423
0.030015673 0.077280633 0.051817961 -0.23852047 -0.14741376 -0.38593423
0 0.051166371 0.0022292638 -0.23852047 -0.14741376 -0.38593423
0 0.050171014 0.0015727201 -0.23852047 -0.14741376 -0.38593423
0 0.049179286 0.0009184907 -0.23852047 -0.14741376 -0.38593423
0 0.04819116 0.00026656009 -0.23852047 -0.14741376 -0.38593423
0.00023699613 0.047399994 0 -0.23852047 -0.14741376 -0.38593423
0.00063856819 0.046744041 5.5511151e-17 -0.23852047 -0.14741376 -0.38593423
0.0010400888 0.046088293 0 -0.23852047 -0.14741376 -0.38593423
0.0014415599 0.045432746 0 -0.23852047 -0.14741376 -0.38593423
0.0018429836 0.044777397 5.5511151e-17 -0.23852047 -0.14741376 -0.38593423
0.0022443619 0.044122241 5.5511151e-17 -0.23852047 -0.14741376 -0.38593423
0.002645697 0.043467276 5.5511151e-17 -0.23852047 -0.14741376 -0.38593423
0.0030469906 0.042812496 0 -0.23852047 -0.14741376 -0.38593423
0.0034482451 0.0421579 0 -0.23852047 -0.14741376 -0.38593423
0.0038494626 0.041503482 0 -0.23852047 -0.14741376 -0.38593423
0.038534816 0.067435771 0.054501686 -0.23852047 -0.14741376 -0.38593423
0.038869943 0.066594698 0.054306995 -0.23852047 -0.14741376 -0.38593423
0.039141815 0.065706261 0.054012775 -0.23852047 -0.14741376 -0.38593423
0.0054540006 0.038887553 0 -0.23852047 -0.14741376 -0.38593423
0.039602581 0.063871376 0.053296346 -0.23852047 -0.14741376 -0.38593423
0.0062560993 0.037580583 0 -0.23852047 -0.14741376 -0.38593423
0.0066571129 0.036927335 5.5511151e-17 -0.23852047 -0.14741376 -0.38593423
0.0070581059 0.036274236 0 -0.23852047 -0.14741376 -0.38593423
0.0074590803 0.035621293 0 -0.23852047 -0.14741376 -0.38593423
0.0078600375 0.034968492 0 -0.23852047 -0.14741376 -0.38593423
0.0082609793 0.034315836 0 -0.23852047 -0.14741376 -0.38593423
0.008661909 0.033663321 0 -0.23852047 -0.14741376 -0.38593423
0.039363544 0.055092391 0.047232922 -0.23852047 -0.14741376 -0.38593423
0.038995702 0.053767454 0.045960166 -0.23852047 -0.14741376 -0.38593423
0.0098646414 0.031706579 0 -0.23852047 -0.14741376 -0.38593423
0.01026554 0.03105459 0 -0.23852047 -0.14741376 -0.38593423
0.010666436 0.030402724 5.5511151e-17 -0.23852047 -0.14741376 -0.38593423
0.011067331 0.029750977 0 -0.23852047 -0.14741376 -0.38593423
0.011468228 0.029099349 0 -0.23852047 -0.14741376 -0.38593423
0.011869128 0.028447833 5.5511151e-17 -0.23852047 -0.14741376 -0.38593423
0.012270033 0.027796427 0 -0.23852047 -0.14741376 -0.38593423
0.012670946 0.027145127 5.5511151e-17 -0.23852047 -0.14741376 -0.38593423
0.039148055 0.044518527 0.039999999 -0.23852047 -0.14741376 -0.38593423
0.013472802 0.025842836 0 -0.23852047 -0.14741376 -0.38593423
0.013873749 0.025191838 0 -0.23852047 -0.14741376 -0.38593423
0.014274713 0.024540933 0 -0.23852047 -0.14741376 -0.38593423
0.014675693 0.023890119 5.5511151e-17 -0.23852047 -0.14741376 -0.38593423
0.015076693 0.023239391 0 -0.23852047 -0.14741376 -0.38593423
0.015878759 0.021938182 0 -0.23852047 -0.14741376 -0.38593423
0.01627983 0.021287696 0 -0.23852047 -0.14741376 -0.38593423
0.017082056 0.019986942 5.5511151e-17 -0.23852047 -0.14741376 -0.38593423
0.017483218 0.019336667 0 -0.23852047 -0.14741376 -0.38593423
0.017884411 0.018686457 0 -0.23852047 -0.14741376 -0.38593423
0.01828564 0.018036306 0 -0.23852047 -0.14741376 -0.38593423
0.018686907 0.017386213 0 -0.23852047 -0.14741376 -0.38593423
0.019088214 0.016736174 0 -0.23852047 -0.14741376 -0.38593423
0.019890955 0.015436244 5.5511151e-17 -0.23852047 -0.14741376 -0.38593423
0.021095417 0.013486675 0 -0.23852047 -0.14741376 -0.38593423
0.021497006 0.012836891 0 -0.23852047 -0.14741376 -0.38593423
0.022702102 0.010887714 5.5511151e-17 -0.23852047 -0.14741376 -0.38593423
0.023505798 0.0095883748 0 -0.23852047 -0.14741376 -0.38593423
0.02390774 0.0089387288 5.5511151e-17 -0.23852047 -0.14741376 -0.38593423
0.024309749 0.0082890941 0 -0.23852047 -0.14741376 -0.38593423
0.024711825 0.0076394673 5.5511151e-17 -0.23852047 -0.14741376 -0.38593423
0.025113972 0.0069898455 0 -0.23852047 -0.14741376 -0.38593423
0.025516191 0.0063402252 0 -0.23852047 -0.14741376 -0.38593423
0.025918486 0.0056906035 0 -0.23852047 -0.14741376 -0.38593423
0.026320856 0.0050409767 0 -0.23852047 -0.14741376 -0.38593423
0.026723305 0.0043913415 0 -0.23852047 -0.14741376 -0.38593423
0.027125834 0.0037416951 5.5511151e-17 -0.23852047 -0.14741376 -0.38593423
0.027528444 0.0030920338 5.5511151e-17 -0.23852047 -0.14741376 -0.38593423
0.027931141 0.0024423541 0 -0.23852047 -0.14741376 -0.38593423
0.028333923 0.0017926532 0 -0.23852047 -0.14741376 -0.38593423
0.028736794 0.0011429277 0 -0.23852047 -0.14741376 -0.38593423
0.029139755 0.00049317413 5.5511151e-17 -0.23852047 -0.14741376 -0.38593423
0.0298279 0 0.00041044809 -0.23852047 -0.14741376 -0.38593423
0.03142269 0 0.0021228741 -0.23852047 -0.14741376 -0.38593423
0.033031847 0 0.0038506491 -0.23852047 -0.14741376 -0.38593423
0.034655575 0 0.005593989 -0.23852047 -0.14741376 -0.38593423
0.036294077 0 0.007353114 -0.23852047 -0.14741376 -0.38593423
0.037947569 0 0.0091282483 -0.23852047 -0.14741376 -0.38593423
0.039616261 0 0.010919621 -0.23852047 -0.14741376 -0.38593423
0 0.079320878 0.019461349 -0.23852047 -0.14741376 -0.38593423
0.0018810966 0.079999998 0.021931935 -0.23852047 -0.14741376 -0.38593423
0.003054528 0.079999998 0.02319546 -0.23852047 -0.14741376 -0.38593423
0 0.076032847 0.017306948 -0.23852047 -0.14741376 -0.38593423
0.0054219225 0.079999998 0.025744354 -0.23852047 -0.14741376 -0.38593423
0.0066160164 0.079999998 0.027029863 -0.23852047 -0.14741376 -0.38593423
0 0.072783388 0.015177055 -0.23852047 -0.14741376 -0.38593423
0 0.071708664 0.014472447 -0.23852047 -0.14741376 -0.38593423
0 0.070638113 0.013770487 -0.23852047 -0.14741376 -0.38593423
0.011463265 0.079999998 0.032247305 -0.23852047 -0.14741376 -0.38593423
0.013930378 0.079999998 0.034902301 -0.23852047 -0.14741376 -0.38593423
0 0.066397011 0.010988753 -0.23852047 -0.14741376 -0.38593423
0.016427243 0.079999998 0.037588954 -0.23852047 -0.14741376 -0.38593423
0 0.064300731 0.0096132979 -0.23852047 -0.14741376 -0.38593423
0.018921405 0.079970814 0.040253188 -0.23852047 -0.14741376 -0.38593423
0.020222751 0.079993971 0.041668322 -0.23852047 -0.14741376 -0.38593423
0.021435244 0.079932362 0.042932145 -0.23852047 -0.14741376 -0.38593423
0.022582328 0.079807572 0.044084039 -0.23852047 -0.14741376 -0.38593423
0 0.059129033 0.0062184851 -0.23852047 -0.14741376 -0.38593423
0.024723336 0.079409063 0.046125047 -0.23852047 -0.14741376 -0.38593423
0.025726262 0.079144418 0.047029801 -0.23852047 -0.14741376 -0.38593423
0.026671257 0.078825995 0.04783684 -0.23852047 -0.14741376 -0.38593423
0 0.055060912 0.0035465935 -0.23852047 -0.14741376 -0.38593423
0 0.054053284 0.0028845882 -0.23852047 -0.14741376 -0.38593423
0.029321011 0.077692032 0.049940839 -0.23852047 -0.14741376 -0.38593423
0.030106695 0.077225871 0.050479151 -0.23852047 -0.14741376 -0.38593423
0.030889515 0.076754868 0.051011115 -0.23852047 -0.14741376 -0.38593423
0.031629074 0.076245628 0.051471349 -0.23852047 -0.14741376 -0.38593423
0.00024154417 0.049269259 5.5511151e-17 -0.23852047 -0.14741376 -0.38593423
0.033034727 0.075160764 0.05226893 -0.23852047 -0.14741376 -0.38593423
0.0010455758 0.047955047 0 -0.23852047 -0.14741376 -0.38593423
0.001447513 0.047298256 0 -0.23852047 -0.14741376 -0.38593423
0.0018494006 0.04664167 0 -0.23852047 -0.14741376 -0.38593423
0.035453517 0.072654903 0.053220101 -0.23852047 -0.14741376 -0.38593423
0.036003835 0.071982652 0.053369109 -0.23852047 -0.14741376 -0.38593423
0.03649294 0.071261227 0.053419907 -0.23852047 -0.14741376 -0.38593423
0.0034564957 0.044017319 0 -0.23852047 -0.14741376 -0.38593423
0.03741977 0.069777943 0.053439412 -0.23852047 -0.14741376 -0.38593423
0.0042597987 0.042706285 5.5511151e-17 -0.23852047 -0.14741376 -0.38593423
0.03822884 0.068203688 0.053272169 -0.23852047 -0.14741376 -0.38593423
0.038563624 0.067363478 0.05307854 -0.23852047 -0.14741376 -0.38593423
0.0054644933 0.040741093 0 -0.23852047 -0.14741376 -0.38593423
0.0058659972 0.040086377 0 -0.23852047 -0.14741376 -0.38593423
0.0062674736 0.039431829 0 -0.23852047 -0.14741376 -0.38593423
0.0066689253 0.038777448 0 -0.23852047 -0.14741376 -0.38593423
0.0070703537 0.038123224 5.5511151e-17 -0.23852047 -0.14741376 -0.38593423
0.0074717612 0.037469164 5.5511151e-17 -0.23852047 -0.14741376 -0.38593423
0.0078731496 0.036815256 0 -0.23852047 -0.14741376 -0.38593423
0.0082745217 0.036161501 5.5511151e-17 -0.23852047 -0.14741376 -0.38593423
0.039925881 0.058632433 0.048788931 -0.23852047 -0.14741376 -0.38593423
0.0090772212 0.034854427 0 -0.23852047 -0.14741376 -0.38593423
0.0094785541 0.034201108 0 -0.23852047 -0.14741376 -0.38593423
0.0098798787 0.033547923 5.5511151e-17 -0.23852047 -0.14741376 -0.38593423
0.010281196 0.032894876 5.5511151e-17 -0.23852047 -0.14741376 -0.38593423
0.038399003 0.052223373 0.042923823 -0.23852047 -0.14741376 -0.38593423
0.037636932 0.050631654 0.041056007 -0.23852047 -0.14741376 -0.38593423
0.037396856 0.049421553 0.039999999 -0.23852047 -0.14741376 -0.38593423
0.011886437 0.030283967 0 -0.23852047 -0.14741376 -0.38593423
0.012287751 0.029631544 0 -0.23852047 -0.14741376 -0.38593423
0.01268907 0.028979234 5.5511151e-17 -0.23852047 -0.14741376 -0.38593423
0.013090396 0.028327039 0 -0.23852047 -0.14741376 -0.38593423
0.039611436 0.04582195 0.039999999 -0.23852047 -0.14741376 -0.38593423
0.01389308 0.027022967 0 -0.23852047 -0.14741376 -0.38593423
0.014294441 0.026371084 0 -0.23852047 -0.14741376 -0.38593423
0.014695818 0.025719302 0 -0.23852047 -0.14741376 -0.38593423
0.015097211 0.025067613 0 -0.23852047 -0.14741376 -0.38593423
0.015498625 0.024416016 5.5511151e-17 -0.23852047 -0.14741376 -0.38593423
0.015900061 0.023764508 5.5511151e-17 -0.23852047 -0.14741376 -0.38593423
0.016301518 0.023113085 0 -0.23852047 -0.14741376 -0.38593423
0.016703004 0.022461744 5.5511151e-17 -0.23852047 -0.14741376 -0.38593423
0.017104516 0.021810481 0 -0.23852047 -0.14741376 -0.38593423
0.017506057 0.021159295 0 -0.23852047 -0.14741376 -0.38593423
0.017907631 0.020508179 0 -0.23852047 -0.14741376 -0.38593423
0.018309239 0.019857133 0 -0.23852047 -0.14741376 -0.38593423
0.018710881 0.019206151 0 -0.23852047 -0.14741376 -0.38593423
0.019112563 0.018555231 0 -0.23852047 -0.14741376 -0.38593423
0.019514283 0.017904371 0 -0.23852047 -0.14741376 -0.38593423
0.019916046 0.017253565 0 -0.23852047 -0.14741376 -0.38593423
0.020317854 0.016602812 0 -0.23852047 -0.14741376 -0.38593423
0.020719707 0.015952108 0 -0.23852047 -0.14741376 -0.38593423
0.021121606 0.015301449 0 -0.23852047 -0.14741376 -0.38593423
0.021925561 0.014000256 0 -0.23852047 -0.14741376 -0.38593423
0.022327617 0.013349714 0 -0.23852047 -0.14741376 -0.38593423
0.023131901 0.012048725 0 -0.23852047 -0.14741376 -0.38593423
0.023534132 0.011398271 0 -0.23852047 -0.14741376 -0.38593423
0.023936426 0.010747839 0 -0.23852047 -0.14741376 -0.38593423
0.024338784 0.010097426 0 -0.23852047 -0.14741376 -0.38593423
0.024741208 0.0094470298 0 -0.23852047 -0.14741376 -0.38593423
0.025143702 0.0087966453 0 -0.23852047 -0.14741376 -0.38593423
0.025546264 0.0081462711 5.5511151e-17 -0.23852047 -0.14741376 -0.38593423
0.025948899 0.0074959029 0 -0.23852047 -0.14741376 -0.38593423
0.026351608 0.0068455371 0 -0.23852047 -0.14741376 -0.38593423
0.026754394 0.0061951713 0 -0.23852047 -0.14741376 -0.38593423
0.02715726 0.0055448012 0 -0.23852047 -0.14741376 -0.38593423
0.027560204 0.0048944242 0 -0.23852047 -0.14741376 -0.38593423
0.028366346 0.0035936362 0 -0.23852047 -0.14741376 -0.38593423
0.028769545 0.0029432185 0 -0.23852047 -0.14741376 -0.38593423
0.029172832 0.0022927804 0 -0.23852047 -0.14741376 -0.38593423
0.029576212 0.0016423188 0 -0.23852047 -0.14741376 -0.38593423
0.029979683 0.00099183037 5.5511151e-17 -0.23852047 -0.14741376 -0.38593423
0.03038325 0.00034131191 0 -0.23852047 -0.14741376 -0.38593423
0.031353045 0 0.00081130269 -0.23852047 -0.14741376 -0.38593423
0.032958306 0 0.0025293324 -0.23852047 -0.14741376 -0.38593423
0.03457807 0 0.0042628013 -0.23852047 -0.14741376 -0.38593423
0.036212541 0 0.0060119275 -0.23852047 -0.14741376 -0.38593423
0.037861932 0 0.0077769323 -0.23852047 -0.14741376 -0.38593423
0.039526448 0 0.0095580425 -0.23852047 -0.14741376 -0.38593423
0.00091017666 0.079999998 0.019579368 -0.23852047 -0.14741376 -0.38593423
0 0.078038089 0.017321452 -0.23852047 -0.14741376 -0.38593423
0 0.076944999 0.0166078 -0.23852047 -0.14741376 -0.38593423
0 0.075856201 0.015896862 -0.23852047 -0.14741376 -0.38593423
0 0.074771672 0.01518862 -0.23852047 -0.14741376 -0.38593423
0 0.073691376 0.014483056 -0.23852047 -0.14741376 -0.38593423
0.0080053275 0.079999998 0.027195536 -0.23852047 -0.14741376 -0.38593423
0 0.071543373 0.013079882 -0.23852047 -0.14741376 -0.38593423
0 0.070475608 0.012382236 -0.23852047 -0.14741376 -0.38593423
0.011647442 0.079999998 0.031103861 -0.23852047 -0.14741376 -0.38593423
0 0.068352394 0.010994736 -0.23852047 -0.14741376 -0.38593423
0 0.067296892 0.010304845 -0.23852047 -0.14741376 -0.38593423
0 0.066245429 0.0096175037 -0.23852047 -0.14741376 -0.38593423
0.016605793 0.079999998 0.036423326 -0.23852047 -0.14741376 -0.38593423
0 0.064154491 0.0082503976 -0.23852047 -0.14741376 -0.38593423
0 0.062079355 0.00689328 -0.23852047 -0.14741376 -0.38593423
0.021588689 0.079915665 0.041712493 -0.23852047 -0.14741376 -0.38593423
0 0.060019813 0.0055460134 -0.23852047 -0.14741376 -0.38593423
0.023818925 0.079608113 0.043902788 -0.23852047 -0.14741376 -0.38593423
0 0.057975646 0.0042084642 -0.23852047 -0.14741376 -0.38593423
0.025845174 0.079104356 0.0457456 -0.23852047 -0.14741376 -0.38593423
0.026788671 0.078786433 0.046548992 -0.23852047 -0.14741376 -0.38593423
0 0.054937784 0.0022200728 -0.23852047 -0.14741376 -0.38593423
0 0.05393263 0.0015619928 -0.23852047 -0.14741376 -0.38593423
0 0.052931171 0.00090624497 -0.23852047 -0.14741376 -0.38593423
0.030197386 0.077171303 0.049145214 -0.23852047 -0.14741376 -0.38593423
0.00024642766 0.051144153 0 -0.23852047 -0.14741376 -0.38593423
0.031708203 0.076185472 0.050118584 -0.23852047 -0.14741376 -0.38593423
0.0010514011 0.049827382 0 -0.23852047 -0.14741376 -0.38593423
0.0014538059 0.049169321 5.5511151e-17 -0.23852047 -0.14741376 -0.38593423
0.0018561588 0.048511479 5.5511151e-17 -0.23852047 -0.14741376 -0.38593423
0.034370132 0.073895857 0.051470418 -0.23852047 -0.14741376 -0.38593423
0.0026607171 0.047196418 0 -0.23852047 -0.14741376 -0.38593423
0.0030629267 0.046539195 0 -0.23852047 -0.14741376 -0.38593423
0.0034650927 0.045882177 0 -0.23852047 -0.14741376 -0.38593423
0.0038672169 0.045225352 0 -0.23852047 -0.14741376 -0.38593423
0.0042693019 0.044568721 0 -0.23852047 -0.14741376 -0.38593423
0.0046713492 0.04391228 5.5511151e-17 -0.23852047 -0.14741376 -0.38593423
0.0050733606 0.043256029 0 -0.23852047 -0.14741376 -0.38593423
0.03825824 0.068129912 0.051853526 -0.23852047 -0.14741376 -0.38593423
0.0058772862 0.041944072 5.5511151e-17 -0.23852047 -0.14741376 -0.38593423
0.038926031 0.066453934 0.051468726 -0.23852047 -0.14741376 -0.38593423
0.0066810944 0.040632818 0 -0.23852047 -0.14741376 -0.38593423
0.0070829596 0.03997745 0 -0.23852047 -0.14741376 -0.38593423
0.0074848016 0.03932225 5.5511151e-17 -0.23852047 -0.14741376 -0.38593423
0.007886623 0.038667209 0 -0.23852047 -0.14741376 -0.38593423
0.0082884245 0.038012333 0 -0.23852047 -0.14741376 -0.38593423
0.0086902091 0.03735761 0 -0.23852047 -0.14741376 -0.38593423
0.0090919789 0.036703043 0 -0.23852047 -0.14741376 -0.38593423
0.0094937356 0.036048625 0 -0.23852047 -0.14741376 -0.38593423
0.03981274 0.057410322 0.046478875 -0.23852047 -0.14741376 -0.38593423
0.010297218 0.034740224 0 -0.23852047 -0.14741376 -0.38593423
0.010698949 0.034086235 0 -0.23852047 -0.14741376 -0.38593423
0.011100674 0.033432383 5.5511151e-17 -0.23852047 -0.14741376 -0.38593423
0.011502396 0.032778665 0 -0.23852047 -0.14741376 -0.38593423
0.037859276 0.050733306 0.039999999 -0.23852047 -0.14741376 -0.38593423
0.012305842 0.031471614 0 -0.23852047 -0.14741376 -0.38593423
0.012707568 0.030818274 0 -0.23852047 -0.14741376 -0.38593423
0.013109299 0.030165054 0 -0.23852047 -0.14741376 -0.38593423
0.013511038 0.029511951 5.5511151e-17 -0.23852047 -0.14741376 -0.38593423
0.013912787 0.028858962 0 -0.23852047 -0.14741376 -0.38593423
0.014314547 0.028206082 0 -0.23852047 -0.14741376 -0.38593423
0.014716321 0.027553309 0 -0.23852047 -0.14741376 -0.38593423
0.01511811 0.026900638 5.5511151e-17 -0.23852047 -0.14741376 -0.38593423
0.015519916 0.026248068 0 -0.23852047 -0.14741376 -0.38593423
0.015921742 0.025595594 0 -0.23852047 -0.14741376 -0.38593423
0.016323591 0.024943214 0 -0.23852047 -0.14741376 -0.38593423
0.016725462 0.024290923 0 -0.23852047 -0.14741376 -0.38593423
0.017127359 0.02363872 0 -0.23852047 -0.14741376 -0.38593423
0.017931238 0.022334557 0 -0.23852047 -0.14741376 -0.38593423
0.018333225 0.021682594 0 -0.23852047 -0.14741376 -0.38593423
0.018735245 0.021030704 5.5511151e-17 -0.23852047 -0.14741376 -0.38593423
0.019539395 0.019727129 0 -0.23852047 -0.14741376 -0.38593423
0.019941529 0.019075438 0 -0.23852047 -0.14741376 -0.38593423
0.020343704 0.018423809 0 -0.23852047 -0.14741376 -0.38593423
0.020745924 0.017772235 5.5511151e-17 -0.23852047 -0.14741376 -0.38593423
0.02114819 0.017120715 5.5511151e-17 -0.23852047 -0.14741376 -0.38593423
0.021550504 0.016469246 0 -0.23852047 -0.14741376 -0.38593423
0.021952868 0.015817823 0 -0.23852047 -0.14741376 -0.38593423
0.022355285 0.015166444 0 -0.23852047 -0.14741376 -0.38593423
0.022757756 0.014515105 0 -0.23852047 -0.14741376 -0.38593423
0.023160281 0.013863804 0 -0.23852047 -0.14741376 -0.38593423
0.023562865 0.013212536 0 -0.23852047 -0.14741376 -0.38593423
0.023965511 0.012561298 0 -0.23852047 -0.14741376 -0.38593423
0.024368219 0.011910087 0 -0.23852047 -0.14741376 -0.38593423
0.02477099 0.011258901 5.5511151e-17 -0.23852047 -0.14741376 -0.38593423
0.02517383 0.010607735 0 -0.23852047 -0.14741376 -0.38593423
0.025576735 0.0099565862 0 -0.23852047 -0.14741376 -0.38593423
0.025979713 0.0093054511 0 -0.23852047 -0.14741376 -0.38593423
0.026382763 0.0086543271 0 -0.23852047 -0.14741376 -0.38593423
0.027189089 0.0073520974 0 -0.23852047 -0.14741376 -0.38593423
0.027592368 0.0067009851 0 -0.23852047 -0.14741376 -0.38593423
0.027995728 0.0060498705 5.5511151e-17 -0.23852047 -0.14741376 -0.38593423
0.028399171 0.0053987498 0 -0.23852047 -0.14741376 -0.38593423
0.0288027 0.0047476203 0 -0.23852047 -0.14741376 -0.38593423
0.029206315 0.0040964782 0 -0.23852047 -0.14741376 -0.38593423
0.030013815 0.002794143 0 -0.23852047 -0.14741376 -0.38593423
0.030417703 0.0021429437 0 -0.23852047 -0.14741376 -0.38593423
0.030821687 0.0014917188 0 -0.23852047 -0.14741376 -0.38593423
0.031225767 0.00084046478 5.5511151e-17 -0.23852047 -0.14741376 -0.38593423
0.031629946 0.00018917854 0 -0.23852047 -0.14741376 -0.38593423
0.032885086 0 0.0012137118 -0.23852047 -0.14741376 -0.38593423
0.034500904 0 0.0029373788 -0.23852047 -0.14741376 -0.38593423
0.036131363 0 0.0046765762 -0.23852047 -0.14741376 -0.38593423
0.037776668 0 0.0064315232 -0.23852047 -0.14741376 -0.38593423
0.039437026 0 0.0082024438 -0.23852047 -0.14741376 -0.38593423
0 0.078950971 0.016620774 -0.23852047 -0.14741376 -0.38593423
0 0.077856474 0.015908856 -0.23852047 -0.14741376 -0.38593423
0 0.076766282 0.015199644 -0.23852047 -0.14741376 -0.38593423
0 0.07568036 0.01449312 -0.23852047 -0.14741376 -0.38593423
0.0058029359 0.079999998 0.02351409 -0.23852047 -0.14741376 -0.38593423
0 0.073521219 0.013088061 -0.23852047 -0.14741376 -0.38593423
0 0.072447941 0.012389489 -0.23852047 -0.14741376 -0.38593423
0.010611207 0.079999998 0.028658833 -0.23852047 -0.14741376 -0.38593423
0 0.069252916 0.010309383 -0.23852047 -0.14741376 -0.38593423
0.013058193 0.079999998 0.031276483 -0.23852047 -0.14741376 -0.38593423
0 0.067143291 0.0089354729 -0.23852047 -0.14741376 -0.38593423
0 0.066094518 0.0082523124 -0.23852047 -0.14741376 -0.38593423
0 0.06504973 0.00757166 -0.23852047 -0.14741376 -0.38593423
0.018040663 0.079999998 0.036605299 -0.23852047 -0.14741376 -0.38593423
0.01930514 0.079999998 0.03795743 -0.23852047 -0.14741376 -0.38593423
0.020577312 0.079999998 0.039317694 -0.23852047 -0.14741376 -0.38593423
0.021741644 0.079899028 0.040496748 -0.23852047 -0.14741376 -0.38593423
0.022885654 0.079774573 0.041638669 -0.23852047 -0.14741376 -0.38593423
0.023953384 0.079578519 0.042652268 -0.23852047 -0.14741376 -0.38593423
0.024989646 0.079350449 0.043611251 -0.23852047 -0.14741376 -0.38593423
0.025963673 0.079064421 0.044465825 -0.23852047 -0.14741376 -0.38593423
0 0.055821579 0.0015557979 -0.23852047 -0.14741376 -0.38593423
0.027807927 0.078392066 0.045998305 -0.23852047 -0.14741376 -0.38593423
0 0.0538125 0.00024510763 -0.23852047 -0.14741376 -0.38593423
0.00025165992 0.053024743 0 -0.23852047 -0.14741376 -0.38593423
0.00065464817 0.052364938 0 -0.23852047 -0.14741376 -0.38593423
0.031067809 0.076647595 0.048343223 -0.23852047 -0.14741376 -0.38593423
0.001460452 0.051046014 0 -0.23852047 -0.14741376 -0.38593423
0.0018632716 0.050386887 5.5511151e-17 -0.23852047 -0.14741376 -0.38593423
0.0022660391 0.04972798 0 -0.23852047 -0.14741376 -0.38593423
0.0026687565 0.049069289 0 -0.23852047 -0.14741376 -0.38593423
0.0030714262 0.048410814 0 -0.23852047 -0.14741376 -0.38593423
0.0034740497 0.047752544 0 -0.23852047 -0.14741376 -0.38593423
0.0038766295 0.047094483 0 -0.23852047 -0.14741376 -0.38593423
0.0042791679 0.046436623 5.5511151e-17 -0.23852047 -0.14741376 -0.38593423
0.0046816659 0.04577896 0 -0.23852047 -0.14741376 -0.38593423
0.0050841267 0.045121495 0 -0.23852047 -0.14741376 -0.38593423
0.0054865517 0.044464223 5.5511151e-17 -0.23852047 -0.14741376 -0.38593423
0.0058889431 0.043807138 0 -0.23852047 -0.14741376 -0.38593423
0.0062913033 0.043150239 5.5511151e-17 -0.23852047 -0.14741376 -0.38593423
0.0066936337 0.042493522 0 -0.23852047 -0.14741376 -0.38593423
0.0070959372 0.041836981 5.5511151e-17 -0.23852047 -0.14741376 -0.38593423
0.007498215 0.041180618 0 -0.23852047 -0.14741376 -0.38593423
0.0079004699 0.040524427 0 -0.23852047 -0.14741376 -0.38593423
0.0083027026 0.039868403 5.5511151e-17 -0.23852047 -0.14741376 -0.38593423
0.0087049175 0.039212547 0 -0.23852047 -0.14741376 -0.38593423
0.039908461 0.061688948 0.048004724 -0.23852047 -0.14741376 -0.38593423
0.0095092962 0.037901312 0 -0.23852047 -0.14741376 -0.38593423
0.0099114645 0.037245929 0 -0.23852047 -0.14741376 -0.38593423
0.010313623 0.036590699 5.5511151e-17 -0.23852047 -0.14741376 -0.38593423
0.010715771 0.035935618 0 -0.23852047 -0.14741376 -0.38593423
0.011117914 0.035280678 5.5511151e-17 -0.23852047 -0.14741376 -0.38593423
0.03929558 0.054847594 0.042871162 -0.23852047 -0.14741376 -0.38593423
0.011922185 0.033971224 0 -0.23852047 -0.14741376 -0.38593423
0.012324318 0.033316702 5.5511151e-17 -0.23852047 -0.14741376 -0.38593423
0.012726453 0.03266231 0 -0.23852047 -0.14741376 -0.38593423
0.039210659 0.050604146 0.039999999 -0.23852047 -0.14741376 -0.38593423
0.013530734 0.031353906 0 -0.23852047 -0.14741376 -0.38593423
0.013932885 0.030699888 5.5511151e-17 -0.23852047 -0.14741376 -0.38593423
0.014335045 0.030045988 0 -0.23852047 -0.14741376 -0.38593423
0.015139401 0.02873853 0 -0.23852047 -0.14741376 -0.38593423
0.015541602 0.028084964 0 -0.23852047 -0.14741376 -0.38593423
0.01594382 0.027431503 0 -0.23852047 -0.14741376 -0.38593423
0.016748317 0.026124883 0 -0.23852047 -0.14741376 -0.38593423
0.0171506 0.025471717 5.5511151e-17 -0.23852047 -0.14741376 -0.38593423
0.017955245 0.024165655 0 -0.23852047 -0.14741376 -0.38593423
0.01835761 0.023512753 0 -0.23852047 -0.14741376 -0.38593423
0.018760009 0.022859933 5.5511151e-17 -0.23852047 -0.14741376 -0.38593423
0.019564908 0.021554522 0 -0.23852047 -0.14741376 -0.38593423
0.019967414 0.020901926 0 -0.23852047 -0.14741376 -0.38593423
0.02036996 0.020249398 0 -0.23852047 -0.14741376 -0.38593423
0.020772548 0.019596934 0 -0.23852047 -0.14741376 -0.38593423
0.02117518 0.018944534 0 -0.23852047 -0.14741376 -0.38593423
0.021577857 0.018292191 0 -0.23852047 -0.14741376 -0.38593423
0.021980584 0.017639901 0 -0.23852047 -0.14741376 -0.38593423
0.02238336 0.016987665 0 -0.23852047 -0.14741376 -0.38593423
0.022786189 0.016335476 0 -0.23852047 -0.14741376 -0.38593423
0.023189072 0.015683332 0 -0.23852047 -0.14741376 -0.38593423
0.02359201 0.01503123 0 -0.23852047 -0.14741376 -0.38593423
0.023995008 0.014379166 0 -0.23852047 -0.14741376 -0.38593423
0.024398066 0.013727138 0 -0.23852047 -0.14741376 -0.38593423
0.024801185 0.013075141 0 -0.23852047 -0.14741376 -0.38593423
0.025204372 0.012423173 0 -0.23852047 -0.14741376 -0.38593423
0.025607623 0.011771229 0 -0.23852047 -0.14741376 -0.38593423
0.026010942 0.011119308 0 -0.23852047 -0.14741376 -0.38593423
0.026817797 0.0098155178 0 -0.23852047 -0.14741376 -0.38593423
0.027221335 0.0091636414 0 -0.23852047 -0.14741376 -0.38593423
0.02762495 0.0085117742 0 -0.23852047 -0.14741376 -0.38593423
0.028028643 0.0078599127 5.5511151e-17 -0.23852047 -0.14741376 -0.38593423
0.028432418 0.0072080521 0 -0.23852047 -0.14741376 -0.38593423
0.028836276 0.006556191 0 -0.23852047 -0.14741376 -0.38593423
0.029240219 0.0059043248 0 -0.23852047 -0.14741376 -0.38593423
0.029644249 0.0052524512 0 -0.23852047 -0.14741376 -0.38593423
0.030048367 0.0046005659 0 -0.23852047 -0.14741376 -0.38593423
0.030452577 0.0039486662 0 -0.23852047 -0.14741376 -0.38593423
0.030856881 0.0032967483 0 -0.23852047 -0.14741376 -0.38593423
0.03126128 0.0026448094 0 -0.23852047 -0.14741376 -0.38593423
0.031665776 0.0019928461 0 -0.23852047 -0.14741376 -0.38593423
0.032070372 0.0013408549 0 -0.23852047 -0.14741376 -0.38593423
0.03287987 3.6775753e-05 5.5511151e-17 -0.23852047 -0.14741376 -0.38593423
0.03442407 0 0.0016176777 -0.23852047 -0.14741376 -0.38593423
0.036050536 0 0.0033470162 -0.23852047 -0.14741376 -0.38593423
0.039347999 0 0.00685278 -0.23852047 -0.14741376 -0.38593423
0 0.079863168 0.015920285 -0.23852047 -0.14741376 -0.38593423
0 0.07876727 0.015210102 -0.23852047 -0.14741376 -0.38593423
0 0.077675678 0.014502618 -0.23852047 -0.14741376 -0.38593423
0.0036327525 0.079999998 0.019885877 -0.23852047 -0.14741376 -0.38593423
0.0048092618 0.079999998 0.021141268 -0.23852047 -0.14741376 -0.38593423
0.0059926058 0.079999998 0.022403855 -0.23852047 -0.14741376 -0.38593423
0 0.073351823 0.011699297 -0.23852047 -0.14741376 -0.38593423
0 0.072281338 0.011005029 -0.23852047 -0.14741376 -0.38593423
0.0095843021 0.079999998 0.026235489 -0.23852047 -0.14741376 -0.38593423
0 0.070152745 0.0096242363 -0.23852047 -0.14741376 -0.38593423
0.012014155 0.079999998 0.028827175 -0.23852047 -0.14741376 -0.38593423
0 0.068040468 0.0082536517 -0.23852047 -0.14741376 -0.38593423
0 0.066990368 0.0075721433 -0.23852047 -0.14741376 -0.38593423
0.015713394 0.079999998 0.032772049 -0.23852047 -0.14741376 -0.38593423
0.016961278 0.079999998 0.0341026 -0.23852047 -0.14741376 -0.38593423
0.018216686 0.079999998 0.035441071 -0.23852047 -0.14741376 -0.38593423
0.019479692 0.079999998 0.036787543 -0.23852047 -0.14741376 -0.38593423
0.02075037 0.079999998 0.038142093 -0.23852047 -0.14741376 -0.38593423
0 0.060772728 0.0035349897 -0.23852047 -0.14741376 -0.38593423
0 0.059750028 0.0028706226 -0.23852047 -0.14741376 -0.38593423
0.024087397 0.079549029 0.041405909 -0.23852047 -0.14741376 -0.38593423
0.025122136 0.079321288 0.042360641 -0.23852047 -0.14741376 -0.38593423
0 0.056704666 0.00089175149 -0.23852047 -0.14741376 -0.38593423
0 0.055697042 0.00023681753 -0.23852047 -0.14741376 -0.38593423
0.0002572544 0.054911103 0 -0.23852047 -0.14741376 -0.38593423
0.028767606 0.077948071 0.045352273 -0.23852047 -0.14741376 -0.38593423
0.0010641203 0.053589068 0 -0.23852047 -0.14741376 -0.38593423
0.0014674646 0.052928403 0 -0.23852047 -0.14741376 -0.38593423
0.0018707523 0.052267972 0 -0.23852047 -0.14741376 -0.38593423
0.0022739857 0.051607769 0 -0.23852047 -0.14741376 -0.38593423
0.032569114 0.075531006 0.047829345 -0.23852047 -0.14741376 -0.38593423
0.0030802977 0.050288033 0 -0.23852047 -0.14741376 -0.38593423
0.0034833804 0.049628492 5.5511151e-17 -0.23852047 -0.14741376 -0.38593423
0.0038864173 0.048969168 0 -0.23852047 -0.14741376 -0.38593423
0.0042894101 0.048310056 0 -0.23852047 -0.14741376 -0.38593423
0.0046923608 0.047651149 5.5511151e-17 -0.23852047 -0.14741376 -0.38593423
0.0050952714 0.046992451 0 -0.23852047 -0.14741376 -0.38593423
0.0054981448 0.04633395 5.5511151e-17 -0.23852047 -0.14741376 -0.38593423
0.0059009818 0.045675647 0 -0.23852047 -0.14741376 -0.38593423
0.0063037854 0.045017537 5.5511151e-17 -0.23852047 -0.14741376 -0.38593423
0.0067065577 0.044359617 0 -0.23852047 -0.14741376 -0.38593423
0.0071093002 0.043701887 0 -0.23852047 -0.14741376 -0.38593423
0.0075120148 0.04304434 0 -0.23852047 -0.14741376 -0.38593423
0.0079147043 0.042386971 0 -0.23852047 -0.14741376 -0.38593423
0.0083173709 0.041729782 0 -0.23852047 -0.14741376 -0.38593423
0.0087200152 0.041072767 0 -0.23852047 -0.14741376 -0.38593423
0.0091226408 0.04041592 0 -0.23852047 -0.14741376 -0.38593423
0.039809208 0.062611237 0.047118798 -0.23852047 -0.14741376 -0.38593423
0.039912578 0.061613031 0.046577636 -0.23852047 -0.14741376 -0.38593423
0.010330422 0.038446367 0 -0.23852047 -0.14741376 -0.38593423
0.010732991 0.037790168 0 -0.23852047 -0.14741376 -0.38593423
0.01113555 0.037134122 0 -0.23852047 -0.14741376 -0.38593423
0.011538103 0.036478225 0 -0.23852047 -0.14741376 -0.38593423
0.011940651 0.035822477 5.5511151e-17 -0.23852047 -0.14741376 -0.38593423
0.012343195 0.035166871 0 -0.23852047 -0.14741376 -0.38593423
0.01274574 0.034511406 5.5511151e-17 -0.23852047 -0.14741376 -0.38593423
0.013148285 0.033856075 0 -0.23852047 -0.14741376 -0.38593423
0.013550833 0.033200879 5.5511151e-17 -0.23852047 -0.14741376 -0.38593423
0.013953387 0.032545809 0 -0.23852047 -0.14741376 -0.38593423
0.014355948 0.031890869 0 -0.23852047 -0.14741376 -0.38593423
0.014758519 0.031236051 5.5511151e-17 -0.23852047 -0.14741376 -0.38593423
0.015161101 0.030581353 0 -0.23852047 -0.14741376 -0.38593423
0.015966307 0.029272301 0 -0.23852047 -0.14741376 -0.38593423
0.016368935 0.028617943 0 -0.23852047 -0.14741376 -0.38593423
0.016771583 0.027963689 0 -0.23852047 -0.14741376 -0.38593423
0.017576946 0.02665549 0 -0.23852047 -0.14741376 -0.38593423
0.017979665 0.026001535 5.5511151e-17 -0.23852047 -0.14741376 -0.38593423
0.018382411 0.025347672 5.5511151e-17 -0.23852047 -0.14741376 -0.38593423
0.01959084 0.023386613 0 -0.23852047 -0.14741376 -0.38593423
0.019993719 0.02273309 5.5511151e-17 -0.23852047 -0.14741376 -0.38593423
0.020396635 0.022079643 5.5511151e-17 -0.23852047 -0.14741376 -0.38593423
0.020799592 0.02142627 0 -0.23852047 -0.14741376 -0.38593423
0.02120259 0.020772966 0 -0.23852047 -0.14741376 -0.38593423
0.021605633 0.020119727 0 -0.23852047 -0.14741376 -0.38593423
0.022008723 0.019466553 5.5511151e-17 -0.23852047 -0.14741376 -0.38593423
0.022815047 0.018160377 0 -0.23852047 -0.14741376 -0.38593423
0.023218285 0.017507371 0 -0.23852047 -0.14741376 -0.38593423
0.02402493 0.016201505 0 -0.23852047 -0.14741376 -0.38593423
0.025235342 0.01424302 0 -0.23852047 -0.14741376 -0.38593423
0.026042601 0.012937533 0 -0.23852047 -0.14741376 -0.38593423
0.026446333 0.012284831 0 -0.23852047 -0.14741376 -0.38593423
0.027254013 0.010979494 5.5511151e-17 -0.23852047 -0.14741376 -0.38593423
0.027657963 0.010326851 0 -0.23852047 -0.14741376 -0.38593423
0.028061992 0.0096742222 0 -0.23852047 -0.14741376 -0.38593423
0.028466098 0.0090216026 0 -0.23852047 -0.14741376 -0.38593423
0.028870285 0.0083689895 5.5511151e-17 -0.23852047 -0.14741376 -0.38593423
0.029274557 0.0077163801 0 -0.23852047 -0.14741376 -0.38593423
0.030083356 0.0064111571 0 -0.23852047 -0.14741376 -0.38593423
0.030892512 0.0051059071 5.5511151e-17 -0.23852047 -0.14741376 -0.38593423
0.031297229 0.0044532632 0 -0.23852047 -0.14741376 -0.38593423
0.032106955 0.0031479232 0 -0.23852047 -0.14741376 -0.38593423
0.032511964 0.0024952195 0 -0.23852047 -0.14741376 -0.38593423
0.032917075 0.0018424892 0 -0.23852047 -0.14741376 -0.38593423
0.033322293 0.0011897291 0 -0.23852047 -0.14741376 -0.38593423
0.035970055 0 0.0020232033 -0.23852047 -0.14741376 -0.38593423
0.037607249 0 0.0037582468 -0.23852047 -0.14741376 -0.38593423
0.039259356 0 0.0055090045 -0.23852047 -0.14741376 -0.38593423
0.00033885293 0.079999998 0.015080418 -0.23852047 -0.14741376 -0.38593423
0.0014940444 0.079999998 0.016309666 -0.23852047 -0.14741376 -0.38593423
0 0.077495687 0.013102692 -0.23852047 -0.14741376 -0.38593423
0 0.076411247 0.012402263 -0.23852047 -0.14741376 -0.38593423
0 0.074255019 0.011009294 -0.23852047 -0.14741376 -0.38593423
0.0085666012 0.079999998 0.023833519 -0.23852047 -0.14741376 -0.38593423
0 0.071051896 0.008939282 -0.23852047 -0.14741376 -0.38593423
0.010979538 0.079999998 0.026399622 -0.23852047 -0.14741376 -0.38593423
0 0.068936944 0.0075720274 -0.23852047 -0.14741376 -0.38593423
0 0.067885533 0.0068921731 -0.23852047 -0.14741376 -0.38593423
0.01465274 0.079999998 0.030305229 -0.23852047 -0.14741376 -0.38593423
0.015891766 0.079999998 0.031622447 -0.23852047 -0.14741376 -0.38593423
0 0.064755194 0.0048674946 -0.23852047 -0.14741376 -0.38593423
0.018392181 0.079999998 0.034280349 -0.23852047 -0.14741376 -0.38593423
0.019653717 0.079999998 0.035621189 -0.23852047 -0.14741376 -0.38593423
0.022199817 0.079999998 0.038327035 -0.23852047 -0.14741376 -0.38593423
0.023484534 0.079999998 0.039692201 -0.23852047 -0.14741376 -0.38593423
0.024220964 0.079519629 0.040163677 -0.23852047 -0.14741376 -0.38593423
0 0.05758705 0.0002279216 -0.23852047 -0.14741376 -0.38593423
0.026199454 0.078984976 0.04191944 -0.23852047 -0.14741376 -0.38593423
0.00066716439 0.056140814 0 -0.23852047 -0.14741376 -0.38593423
0.028015649 0.078295961 0.0434024 -0.23852047 -0.14741376 -0.38593423
0.0014748573 0.054816566 0 -0.23852047 -0.14741376 -0.38593423
0.029691828 0.077475481 0.04465105 -0.23852047 -0.14741376 -0.38593423
0.0022823154 0.05349328 0 -0.23852047 -0.14741376 -0.38593423
0.0026859615 0.052831989 0 -0.23852047 -0.14741376 -0.38593423
0.0030895553 0.052170929 0 -0.23852047 -0.14741376 -0.38593423
0.0034930985 0.051510096 5.5511151e-17 -0.23852047 -0.14741376 -0.38593423
0.0038965936 0.050849486 5.5511151e-17 -0.23852047 -0.14741376 -0.38593423
0.033936441 0.074306652 0.04710352 -0.23852047 -0.14741376 -0.38593423
0.0047034468 0.049528923 5.5511151e-17 -0.23852047 -0.14741376 -0.38593423
0.035118941 0.073048778 0.047542743 -0.23852047 -0.14741376 -0.38593423
0.0055101314 0.048209213 0 -0.23852047 -0.14741376 -0.38593423
0.036194146 0.071701944 0.047809944 -0.23852047 -0.14741376 -0.38593423
0.036679331 0.070986301 0.047860354 -0.23852047 -0.14741376 -0.38593423
0.0067198793 0.04623118 5.5511151e-17 -0.23852047 -0.14741376 -0.38593423
0.0071230619 0.045572236 0 -0.23852047 -0.14741376 -0.38593423
0.0075262152 0.044913482 0 -0.23852047 -0.14741376 -0.38593423
0.0079293409 0.044254914 0 -0.23852047 -0.14741376 -0.38593423
0.0083324406 0.043596536 0 -0.23852047 -0.14741376 -0.38593423
0.008735517 0.042938337 0 -0.23852047 -0.14741376 -0.38593423
0.009138572 0.042280316 0 -0.23852047 -0.14741376 -0.38593423
0.0095416075 0.041622475 0 -0.23852047 -0.14741376 -0.38593423
0.0099446261 0.040964801 0 -0.23852047 -0.14741376 -0.38593423
0.010347629 0.040307298 0 -0.23852047 -0.14741376 -0.38593423
0.039916676 0.061537422 0.045156375 -0.23852047 -0.14741376 -0.38593423
0.039972417 0.060508903 0.044546753 -0.23852047 -0.14741376 -0.38593423
0.011556567 0.038335767 0 -0.23852047 -0.14741376 -0.38593423
0.011959529 0.037678905 0 -0.23852047 -0.14741376 -0.38593423
0.012362487 0.037022192 0 -0.23852047 -0.14741376 -0.38593423
0.012765441 0.036365628 0 -0.23852047 -0.14741376 -0.38593423
0.013168395 0.03570921 0 -0.23852047 -0.14741376 -0.38593423
0.01357135 0.035052933 0 -0.23852047 -0.14741376 -0.38593423
0.013974307 0.034396794 0 -0.23852047 -0.14741376 -0.38593423
0.014377271 0.033740789 5.5511151e-17 -0.23852047 -0.14741376 -0.38593423
0.014780241 0.033084918 0 -0.23852047 -0.14741376 -0.38593423
0.015586212 0.031773552 0 -0.23852047 -0.14741376 -0.38593423
0.015989216 0.031118054 0 -0.23852047 -0.14741376 -0.38593423
0.016392237 0.030462673 0 -0.23852047 -0.14741376 -0.38593423
0.016795276 0.029807406 0 -0.23852047 -0.14741376 -0.38593423
0.017198332 0.02915225 0 -0.23852047 -0.14741376 -0.38593423
0.017601412 0.028497202 5.5511151e-17 -0.23852047 -0.14741376 -0.38593423
0.018407643 0.027187418 0 -0.23852047 -0.14741376 -0.38593423
0.018810799 0.026532674 0 -0.23852047 -0.14741376 -0.38593423
0.019213986 0.025878023 0 -0.23852047 -0.14741376 -0.38593423
0.019617204 0.025223466 0 -0.23852047 -0.14741376 -0.38593423
0.020020455 0.024568994 0 -0.23852047 -0.14741376 -0.38593423
0.02082707 0.023260301 0 -0.23852047 -0.14741376 -0.38593423
0.021230435 0.022606073 0 -0.23852047 -0.14741376 -0.38593423
0.021633843 0.021951921 0 -0.23852047 -0.14741376 -0.38593423
0.022037296 0.021297839 0 -0.23852047 -0.14741376 -0.38593423
0.022440795 0.020643823 0 -0.23852047 -0.14741376 -0.38593423
0.022844343 0.019989872 0 -0.23852047 -0.14741376 -0.38593423
0.02324794 0.019335983 0 -0.23852047 -0.14741376 -0.38593423
0.023651589 0.018682152 0 -0.23852047 -0.14741376 -0.38593423
0.024055295 0.018028375 0 -0.23852047 -0.14741376 -0.38593423
0.024459055 0.017374648 0 -0.23852047 -0.14741376 -0.38593423
0.024862874 0.016720969 0 -0.23852047 -0.14741376 -0.38593423
0.025266754 0.016067335 0 -0.23852047 -0.14741376 -0.38593423
0.025670698 0.015413743 0 -0.23852047 -0.14741376 -0.38593423
0.026074704 0.014760187 0 -0.23852047 -0.14741376 -0.38593423
0.026478779 0.014106666 0 -0.23852047 -0.14741376 -0.38593423
0.026882922 0.013453176 0 -0.23852047 -0.14741376 -0.38593423
0.027287137 0.012799714 0 -0.23852047 -0.14741376 -0.38593423
0.027691424 0.012146276 0 -0.23852047 -0.14741376 -0.38593423
0.028095786 0.01149286 0 -0.23852047 -0.14741376 -0.38593423
0.028500225 0.01083946 0 -0.23852047 -0.14741376 -0.38593423
0.028904743 0.010186076 0 -0.23852047 -0.14741376 -0.38593423
0.029309344 0.0095327022 0 -0.23852047 -0.14741376 -0.38593423
0.029714026 0.0088793365 5.5511151e-17 -0.23852047 -0.14741376 -0.38593423
0.030118795 0.0082259756 0 -0.23852047 -0.14741376 -0.38593423
0.030928595 0.0069192527 0 -0.23852047 -0.14741376 -0.38593423
0.031333633 0.0062658852 0 -0.23852047 -0.14741376 -0.38593423
0.031738762 0.0056125084 0 -0.23852047 -0.14741376 -0.38593423
0.032143988 0.0049591195 5.5511151e-17 -0.23852047 -0.14741376 -0.38593423
0.032549314 0.0043057147 0 -0.23852047 -0.14741376 -0.38593423
0.032954738 0.0036522916 0 -0.23852047 -0.14741376 -0.38593423
0.033360261 0.0029988461 0 -0.23852047 -0.14741376 -0.38593423
0.033765893 0.002345375 5.5511151e-17 -0.23852047 -0.14741376 -0.38593423
0.03417163 0.0016918752 0 -0.23852047 -0.14741376 -0.38593423
0.034577474 0.0010383432 0 -0.23852047 -0.14741376 -0.38593423
0.035889924 0 0.00070509408 -0.23852047 -0.14741376 -0.38593423
0.037523091 0 0.0024302904 -0.23852047 -0.14741376 -0.38593423
0.0391711 0 0.0041710734 -0.23852047 -0.14741376 -0.38593423
0 0.079492427 0.013109096 -0.23852047 -0.14741376 -0.38593423
0 0.078402333 0.012407738 -0.23852047 -0.14741376 -0.38593423
0 0.077316508 0.011709026 -0.23852047 -0.14741376 -0.38593423
0 0.076234914 0.011012941 -0.23852047 -0.14741376 -0.38593423
0 0.075157538 0.010319465 -0.23852047 -0.14741376 -0.38593423
0 0.074084334 0.00962858 -0.23852047 -0.14741376 -0.38593423
0.0087525966 0.079999998 0.022719409 -0.23852047 -0.14741376 -0.38593423
0 0.070889518 0.0075712893 -0.23852047 -0.14741376 -0.38593423
0.011162889 0.079999998 0.025275007 -0.23852047 -0.14741376 -0.38593423
0 0.068780005 0.0062123891 -0.23852047 -0.14741376 -0.38593423
0 0.067731284 0.005536675 -0.23852047 -0.14741376 -0.38593423
0.014831987 0.079999998 0.029164512 -0.23852047 -0.14741376 -0.38593423
0.016069606 0.079999998 0.030476268 -0.23852047 -0.14741376 -0.38593423
0 0.064608887 0.003524272 -0.23852047 -0.14741376 -0.38593423
0 0.063575931 0.0028583279 -0.23852047 -0.14741376 -0.38593423
0.019827217 0.079999998 0.034458339 -0.23852047 -0.14741376 -0.38593423
0.021094918 0.079999998 0.035801556 -0.23852047 -0.14741376 -0.38593423
0.022370324 0.079999998 0.037152827 -0.23852047 -0.14741376 -0.38593423
0 0.059482578 0.00021839782 -0.23852047 -0.14741376 -0.38593423
0.00026958418 0.058701426 5.5511151e-17 -0.23852047 -0.14741376 -0.38593423
0.025465218 0.079331473 0.039999999 -0.23852047 -0.14741376 -0.38593423
0.0010783545 0.057373937 0 -0.23852047 -0.14741376 -0.38593423
0.001482644 0.056710571 0 -0.23852047 -0.14741376 -0.38593423
0.0018868725 0.056047454 0 -0.23852047 -0.14741376 -0.38593423
0.0022910419 0.055384587 0 -0.23852047 -0.14741376 -0.38593423
0.0026951546 0.054721963 0 -0.23852047 -0.14741376 -0.38593423
0.0030992124 0.054059573 5.5511151e-17 -0.23852047 -0.14741376 -0.38593423
0.0035032176 0.053397425 0 -0.23852047 -0.14741376 -0.38593423
0.003907172 0.052735504 0 -0.23852047 -0.14741376 -0.38593423
0.0043110782 0.052073814 0 -0.23852047 -0.14741376 -0.38593423
0.0047149379 0.051412348 0 -0.23852047 -0.14741376 -0.38593423
0.034002654 0.074243933 0.045753252 -0.23852047 -0.14741376 -0.38593423
0.0055225263 0.050090082 5.5511151e-17 -0.23852047 -0.14741376 -0.38593423
0.0059262589 0.049429271 0 -0.23852047 -0.14741376 -0.38593423
0.0063299537 0.048768673 0 -0.23852047 -0.14741376 -0.38593423
0.0067336122 0.048108283 0 -0.23852047 -0.14741376 -0.38593423
0.0071372371 0.047448095 0 -0.23852047 -0.14741376 -0.38593423
0.0075408299 0.046788111 0 -0.23852047 -0.14741376 -0.38593423
0.007944393 0.046128325 0 -0.23852047 -0.14741376 -0.38593423
0.0083479276 0.045468733 0 -0.23852047 -0.14741376 -0.38593423
0.03837467 0.0678377 0.04623501 -0.23852047 -0.14741376 -0.38593423
0.0091549233 0.044150114 5.5511151e-17 -0.23852047 -0.14741376 -0.38593423
0.039015941 0.066159643 0.045826875 -0.23852047 -0.14741376 -0.38593423
0.0099618323 0.042832233 0 -0.23852047 -0.14741376 -0.38593423
0.01036526 0.042173561 0 -0.23852047 -0.14741376 -0.38593423
0.010768672 0.04151506 0 -0.23852047 -0.14741376 -0.38593423
0.01117207 0.04085673 0 -0.23852047 -0.14741376 -0.38593423
0.011575458 0.040198568 0 -0.23852047 -0.14741376 -0.38593423
0.039976373 0.060435884 0.043134686 -0.23852047 -0.14741376 -0.38593423
0.012382207 0.038882729 0 -0.23852047 -0.14741376 -0.38593423
0.012785573 0.038225047 0 -0.23852047 -0.14741376 -0.38593423
0.013188936 0.037567519 5.5511151e-17 -0.23852047 -0.14741376 -0.38593423
0.013592297 0.036910139 5.5511151e-17 -0.23852047 -0.14741376 -0.38593423
0.01399566 0.036252908 0 -0.23852047 -0.14741376 -0.38593423
0.014399027 0.035595819 5.5511151e-17 -0.23852047 -0.14741376 -0.38593423
0.014802398 0.034938868 0 -0.23852047 -0.14741376 -0.38593423
0.015205777 0.034282055 0 -0.23852047 -0.14741376 -0.38593423
0.015609166 0.033625375 0 -0.23852047 -0.14741376 -0.38593423
0.016012564 0.032968823 0 -0.23852047 -0.14741376 -0.38593423
0.016415978 0.032312401 5.5511151e-17 -0.23852047 -0.14741376 -0.38593423
0.016819406 0.031656098 0 -0.23852047 -0.14741376 -0.38593423
0.017626317 0.030343849 0 -0.23852047 -0.14741376 -0.38593423
0.018836852 0.028376313 0 -0.23852047 -0.14741376 -0.38593423
0.019240417 0.027720677 5.5511151e-17 -0.23852047 -0.14741376 -0.38593423
0.020047639 0.026409701 0 -0.23852047 -0.14741376 -0.38593423
0.020451298 0.025754353 0 -0.23852047 -0.14741376 -0.38593423
0.02125873 0.024443923 0 -0.23852047 -0.14741376 -0.38593423
0.021662505 0.023788832 5.5511151e-17 -0.23852047 -0.14741376 -0.38593423
0.022066321 0.023133822 0 -0.23852047 -0.14741376 -0.38593423
0.022470184 0.022478886 0 -0.23852047 -0.14741376 -0.38593423
0.022874091 0.021824023 0 -0.23852047 -0.14741376 -0.38593423
0.023278046 0.02116923 0 -0.23852047 -0.14741376 -0.38593423
0.023682052 0.020514503 0 -0.23852047 -0.14741376 -0.38593423
0.024086112 0.019859837 0 -0.23852047 -0.14741376 -0.38593423
0.024490226 0.019205231 0 -0.23852047 -0.14741376 -0.38593423
0.025298623 0.017896183 0 -0.23852047 -0.14741376 -0.38593423
0.025702914 0.017241733 0 -0.23852047 -0.14741376 -0.38593423
0.026916167 0.015278649 0 -0.23852047 -0.14741376 -0.38593423
0.02732072 0.014624362 0 -0.23852047 -0.14741376 -0.38593423
0.028534815 0.012661685 0 -0.23852047 -0.14741376 -0.38593423
0.028939664 0.012007509 0 -0.23852047 -0.14741376 -0.38593423
0.029749604 0.01069921 0 -0.23852047 -0.14741376 -0.38593423
0.030154698 0.01004508 5.5511151e-17 -0.23852047 -0.14741376 -0.38593423
0.030559877 0.0093909604 0 -0.23852047 -0.14741376 -0.38593423
0.030965144 0.0087368451 0 -0.23852047 -0.14741376 -0.38593423
