# .PCD v0.7 - Point Cloud Data file format
VERSION 0.7
FIELDS x y z vp_x vp_y vp_z
SIZE 4 4 4 4 4 4
TYPE F F F F F F
COUNT 1 1 1 1 1 1
WIDTH 682
HEIGHT 1
VIEWPOINT 0 0 0 1 0 0 0
POINTS 682
DATA ascii
0.016553083 0.011517361 0.039999999 -0.14741376 -0.38593423 0.23852047
0.017239146 0.011259527 0.039999999 -0.14741376 -0.38593423 0.23852047
0.017925365 0.011001897 0.039999999 -0.14741376 -0.38593423 0.23852047
0.018611748 0.010744469 0.039999999 -0.14741376 -0.38593423 0.23852047
0.019298296 0.010487243 0.039999999 -0.14741376 -0.38593423 0.23852047
0.019985015 0.010230214 0.039999999 -0.14741376 -0.38593423 0.23852047
0.020671908 0.0099733835 0.039999999 -0.14741376 -0.38593423 0.23852047
0.021358982 0.0097167492 0.039999999 -0.14741376 -0.38593423 0.23852047
0.022046238 0.0094603095 0.039999999 -0.14741376 -0.38593423 0.23852047
0.022733683 0.0092040617 0.039999999 -0.14741376 -0.38593423 0.23852047
0.023421319 0.0089480057 0.039999999 -0.14741376 -0.38593423 0.23852047
0.024109153 0.0086921398 0.039999999 -0.14741376 -0.38593423 0.23852047
0.024797186 0.0084364619 0.039999999 -0.14741376 -0.38593423 0.23852047
0.025485426 0.0081809703 0.039999999 -0.14741376 -0.38593423 0.23852047
0.026173873 0.0079256641 0.039999999 -0.14741376 -0.38593423 0.23852047
0.026862536 0.0076705413 0.039999999 -0.14741376 -0.38593423 0.23852047
0.027551414 0.0074156006 0.039999999 -0.14741376 -0.38593423 0.23852047
0.028240517 0.007160841 0.039999999 -0.14741376 -0.38593423 0.23852047
0.028929844 0.0069062598 0.039999999 -0.14741376 -0.38593423 0.23852047
0.029619405 0.0066518565 0.039999999 -0.14741376 -0.38593423 0.23852047
0.030309198 0.0063976292 0.039999999 -0.14741376 -0.38593423 0.23852047
0.030999232 0.006143576 0.039999999 -0.14741376 -0.38593423 0.23852047
0.03168951 0.0058896961 0.039999999 -0.14741376 -0.38593423 0.23852047
0.032380037 0.0056359875 0.039999999 -0.14741376 -0.38593423 0.23852047
0.033070814 0.0053824489 0.039999999 -0.14741376 -0.38593423 0.23852047
0.033761851 0.0051290784 0.039999999 -0.14741376 -0.38593423 0.23852047
0.03445315 0.0048758751 0.039999999 -0.14741376 -0.38593423 0.23852047
0.035144713 0.0046228371 0.039999999 -0.14741376 -0.38593423 0.23852047
0.035836544 0.004369963 0.039999999 -0.14741376 -0.38593423 0.23852047
0.036528651 0.0041172514 0.039999999 -0.14741376 -0.38593423 0.23852047
0.037221037 0.0038647007 0.039999999 -0.14741376 -0.38593423 0.23852047
0.037913706 0.0036123092 0.039999999 -0.14741376 -0.38593423 0.23852047
0.038606662 0.0033600756 0.039999999 -0.14741376 -0.38593423 0.23852047
0.039299913 0.0031079985 0.039999999 -0.14741376 -0.38593423 0.23852047
0.039993457 0.0028560762 0.039999999 -0.14741376 -0.38593423 0.23852047
2.7755576e-17 0.077859946 0.013241265 -0.14741376 -0.38593423 0.23852047
0 0.075136542 0.014416731 -0.14741376 -0.38593423 0.23852047
0 0.072441898 0.015579907 -0.14741376 -0.38593423 0.23852047
0 0.069775552 0.016730994 -0.14741376 -0.38593423 0.23852047
0 0.067137055 0.017870184 -0.14741376 -0.38593423 0.23852047
0 0.064525947 0.018997669 -0.14741376 -0.38593423 0.23852047
2.7755576e-17 0.061941803 0.020113636 -0.14741376 -0.38593423 0.23852047
2.7755576e-17 0.05938419 0.021218266 -0.14741376 -0.38593423 0.23852047
2.7755576e-17 0.056852695 0.02231174 -0.14741376 -0.38593423 0.23852047
2.7755576e-17 0.054346908 0.023394229 -0.14741376 -0.38593423 0.23852047
2.7755576e-17 0.051866423 0.024465906 -0.14741376 -0.38593423 0.23852047
0 0.049410857 0.025526939 -0.14741376 -0.38593423 0.23852047
2.7755576e-17 0.046979818 0.026577491 -0.14741376 -0.38593423 0.23852047
2.7755576e-17 0.044572931 0.027617726 -0.14741376 -0.38593423 0.23852047
2.7755576e-17 0.042189833 0.028647799 -0.14741376 -0.38593423 0.23852047
0 0.039830152 0.029667864 -0.14741376 -0.38593423 0.23852047
0 0.037493546 0.030678075 -0.14741376 -0.38593423 0.23852047
2.7755576e-17 0.035179656 0.031678576 -0.14741376 -0.38593423 0.23852047
0 0.032888152 0.032669518 -0.14741376 -0.38593423 0.23852047
2.7755576e-17 0.030618696 0.033651039 -0.14741376 -0.38593423 0.23852047
2.7755576e-17 0.028370962 0.034623276 -0.14741376 -0.38593423 0.23852047
2.7755576e-17 0.026144629 0.035586376 -0.14741376 -0.38593423 0.23852047
2.7755576e-17 0.023939384 0.036540464 -0.14741376 -0.38593423 0.23852047
2.7755576e-17 0.02175492 0.037485674 -0.14741376 -0.38593423 0.23852047
2.7755576e-17 0.019590933 0.038422137 -0.14741376 -0.38593423 0.23852047
0 0.017447129 0.039349977 -0.14741376 -0.38593423 0.23852047
0.00020026007 0.015868319 0.039999999 -0.14741376 -0.38593423 0.23852047
0.00088168017 0.015606238 0.039999999 -0.14741376 -0.38593423 0.23852047
0.0015631588 0.015344392 0.039999999 -0.14741376 -0.38593423 0.23852047
0.0022447002 0.015082779 0.039999999 -0.14741376 -0.38593423 0.23852047
0.0029263084 0.014821399 0.039999999 -0.14741376 -0.38593423 0.23852047
0.0036079879 0.014560249 0.039999999 -0.14741376 -0.38593423 0.23852047
0.0042897426 0.014299327 0.039999999 -0.14741376 -0.38593423 0.23852047
0.0049715764 0.014038633 0.039999999 -0.14741376 -0.38593423 0.23852047
0.0056534945 0.013778163 0.039999999 -0.14741376 -0.38593423 0.23852047
0.0063355002 0.013517917 0.039999999 -0.14741376 -0.38593423 0.23852047
0.0070175976 0.013257894 0.039999999 -0.14741376 -0.38593423 0.23852047
0.0076997918 0.012998091 0.039999999 -0.14741376 -0.38593423 0.23852047
0.0083820857 0.012738506 0.039999999 -0.14741376 -0.38593423 0.23852047
0.0090644853 0.01247914 0.039999999 -0.14741376 -0.38593423 0.23852047
0.009746993 0.012219989 0.039999999 -0.14741376 -0.38593423 0.23852047
0.010429614 0.011961052 0.039999999 -0.14741376 -0.38593423 0.23852047
0.011112353 0.011702329 0.039999999 -0.14741376 -0.38593423 0.23852047
0.011795213 0.011443815 0.039999999 -0.14741376 -0.38593423 0.23852047
0.012478198 0.011185512 0.039999999 -0.14741376 -0.38593423 0.23852047
0.013161314 0.010927416 0.039999999 -0.14741376 -0.38593423 0.23852047
0.013844564 0.010669528 0.039999999 -0.14741376 -0.38593423 0.23852047
0.014527951 0.010411843 0.039999999 -0.14741376 -0.38593423 0.23852047
0.015211483 0.010154362 0.039999999 -0.14741376 -0.38593423 0.23852047
0.01589516 0.0098970821 0.039999999 -0.14741376 -0.38593423 0.23852047
0.016578987 0.0096400026 0.039999999 -0.14741376 -0.38593423 0.23852047
0.017262971 0.0093831215 0.039999999 -0.14741376 -0.38593423 0.23852047
0.017947115 0.0091264369 0.039999999 -0.14741376 -0.38593423 0.23852047
0.018631423 0.0088699488 0.039999999 -0.14741376 -0.38593423 0.23852047
0.019315897 0.0086136535 0.039999999 -0.14741376 -0.38593423 0.23852047
0.020000543 0.0083575509 0.039999999 -0.14741376 -0.38593423 0.23852047
0.020685367 0.0081016393 0.039999999 -0.14741376 -0.38593423 0.23852047
0.021370372 0.0078459168 0.039999999 -0.14741376 -0.38593423 0.23852047
0.022055563 0.0075903824 0.039999999 -0.14741376 -0.38593423 0.23852047
0.02274094 0.0073350337 0.039999999 -0.14741376 -0.38593423 0.23852047
0.023426512 0.00707987 0.039999999 -0.14741376 -0.38593423 0.23852047
0.024112282 0.0068248892 0.039999999 -0.14741376 -0.38593423 0.23852047
0.024798254 0.0065700901 0.039999999 -0.14741376 -0.38593423 0.23852047
0.025484432 0.0063154711 0.039999999 -0.14741376 -0.38593423 0.23852047
0.026170822 0.0060610306 0.039999999 -0.14741376 -0.38593423 0.23852047
0.026857425 0.0058067669 0.039999999 -0.14741376 -0.38593423 0.23852047
0.027544247 0.0055526788 0.039999999 -0.14741376 -0.38593423 0.23852047
0.028231293 0.0052987649 0.039999999 -0.14741376 -0.38593423 0.23852047
0.028918566 0.0050450233 0.039999999 -0.14741376 -0.38593423 0.23852047
0.029606072 0.0047914525 0.039999999 -0.14741376 -0.38593423 0.23852047
0.030293815 0.0045380513 0.039999999 -0.14741376 -0.38593423 0.23852047
0.030981798 0.0042848182 0.039999999 -0.14741376 -0.38593423 0.23852047
0.031670026 0.0040317513 0.039999999 -0.14741376 -0.38593423 0.23852047
0.032358501 0.0037788495 0.039999999 -0.14741376 -0.38593423 0.23852047
0.033047233 0.0035261111 0.039999999 -0.14741376 -0.38593423 0.23852047
0.033736221 0.0032735346 0.039999999 -0.14741376 -0.38593423 0.23852047
0.034425471 0.0030211187 0.039999999 -0.14741376 -0.38593423 0.23852047
0.035114989 0.0027688614 0.039999999 -0.14741376 -0.38593423 0.23852047
0.035804778 0.0025167617 0.039999999 -0.14741376 -0.38593423 0.23852047
0.03649484 0.0022648179 0.039999999 -0.14741376 -0.38593423 0.23852047
0.037185185 0.0020130286 0.039999999 -0.14741376 -0.38593423 0.23852047
0.037875813 0.0017613923 0.039999999 -0.14741376 -0.38593423 0.23852047
0.038566727 0.0015099075 0.039999999 -0.14741376 -0.38593423 0.23852047
0.039257936 0.0012585727 0.039999999 -0.14741376 -0.38593423 0.23852047
0.039949439 0.0010073863 0.039999999 -0.14741376 -0.38593423 0.23852047
2.7755576e-17 0.077938825 0.012288106 -0.14741376 -0.38593423 0.23852047
2.7755576e-17 0.075212255 0.013469823 -0.14741376 -0.38593423 0.23852047
0 0.072514512 0.014639172 -0.14741376 -0.38593423 0.23852047
2.7755576e-17 0.069845133 0.01579635 -0.14741376 -0.38593423 0.23852047
2.7755576e-17 0.067203648 0.016941557 -0.14741376 -0.38593423 0.23852047
2.7755576e-17 0.06458962 0.018074982 -0.14741376 -0.38593423 0.23852047
2.7755576e-17 0.062002607 0.019196812 -0.14741376 -0.38593423 0.23852047
2.7755576e-17 0.059442185 0.020307234 -0.14741376 -0.38593423 0.23852047
0 0.056907933 0.021406423 -0.14741376 -0.38593423 0.23852047
2.7755576e-17 0.054399442 0.02249456 -0.14741376 -0.38593423 0.23852047
2.7755576e-17 0.051916309 0.023571817 -0.14741376 -0.38593423 0.23852047
2.7755576e-17 0.049458139 0.02463836 -0.14741376 -0.38593423 0.23852047
2.7755576e-17 0.047024552 0.025694355 -0.14741376 -0.38593423 0.23852047
2.7755576e-17 0.044615161 0.026739966 -0.14741376 -0.38593423 0.23852047
0 0.042229604 0.027775351 -0.14741376 -0.38593423 0.23852047
2.7755576e-17 0.039867517 0.028800666 -0.14741376 -0.38593423 0.23852047
2.7755576e-17 0.037528545 0.029816061 -0.14741376 -0.38593423 0.23852047
2.7755576e-17 0.035212338 0.030821688 -0.14741376 -0.38593423 0.23852047
2.7755576e-17 0.032918558 0.031817693 -0.14741376 -0.38593423 0.23852047
2.7755576e-17 0.030646866 0.032804217 -0.14741376 -0.38593423 0.23852047
2.7755576e-17 0.028396938 0.033781406 -0.14741376 -0.38593423 0.23852047
2.7755576e-17 0.026168454 0.034749392 -0.14741376 -0.38593423 0.23852047
0 0.023961097 0.035708312 -0.14741376 -0.38593423 0.23852047
0 0.021774556 0.036658302 -0.14741376 -0.38593423 0.23852047
2.7755576e-17 0.019608535 0.037599485 -0.14741376 -0.38593423 0.23852047
2.7755576e-17 0.01746273 0.038531996 -0.14741376 -0.38593423 0.23852047
2.7755576e-17 0.015336853 0.039455954 -0.14741376 -0.38593423 0.23852047
0.00027636896 0.013978967 0.039999999 -0.14741376 -0.38593423 0.23852047
0.00095567765 0.013717986 0.039999999 -0.14741376 -0.38593423 0.23852047
0.0016350471 0.013457234 0.039999999 -0.14741376 -0.38593423 0.23852047
0.0023144817 0.013196708 0.039999999 -0.14741376 -0.38593423 0.23852047
0.0029939853 0.012936407 0.039999999 -0.14741376 -0.38593423 0.23852047
0.0036735623 0.012676329 0.039999999 -0.14741376 -0.38593423 0.23852047
0.0043532168 0.012416474 0.039999999 -0.14741376 -0.38593423 0.23852047
0.0050329529 0.012156838 0.039999999 -0.14741376 -0.38593423 0.23852047
0.005712775 0.01189742 0.039999999 -0.14741376 -0.38593423 0.23852047
0.0063926871 0.011638219 0.039999999 -0.14741376 -0.38593423 0.23852047
0.0070726932 0.011379233 0.039999999 -0.14741376 -0.38593423 0.23852047
0.0077527976 0.011120461 0.039999999 -0.14741376 -0.38593423 0.23852047
0.0084330048 0.010861902 0.039999999 -0.14741376 -0.38593423 0.23852047
0.0091133183 0.010603552 0.039999999 -0.14741376 -0.38593423 0.23852047
0.0097937426 0.010345411 0.039999999 -0.14741376 -0.38593423 0.23852047
0.010474282 0.010087479 0.039999999 -0.14741376 -0.38593423 0.23852047
0.01115494 0.0098297512 0.039999999 -0.14741376 -0.38593423 0.23852047
0.011835722 0.0095722284 0.039999999 -0.14741376 -0.38593423 0.23852047
0.012516632 0.0093149077 0.039999999 -0.14741376 -0.38593423 0.23852047
0.013197673 0.0090577891 0.039999999 -0.14741376 -0.38593423 0.23852047
0.01387885 0.0088008698 0.039999999 -0.14741376 -0.38593423 0.23852047
0.014560168 0.0085441479 0.039999999 -0.14741376 -0.38593423 0.23852047
0.015241629 0.0082876226 0.039999999 -0.14741376 -0.38593423 0.23852047
0.015923239 0.0080312928 0.039999999 -0.14741376 -0.38593423 0.23852047
0.016605003 0.0077751558 0.039999999 -0.14741376 -0.38593423 0.23852047
0.017286923 0.0075192112 0.039999999 -0.14741376 -0.38593423 0.23852047
0.017969003 0.0072634565 0.039999999 -0.14741376 -0.38593423 0.23852047
0.018651249 0.0070078908 0.039999999 -0.14741376 -0.38593423 0.23852047
0.019333664 0.006752512 0.039999999 -0.14741376 -0.38593423 0.23852047
0.020016255 0.0064973193 0.039999999 -0.14741376 -0.38593423 0.23852047
0.020699022 0.0062423102 0.039999999 -0.14741376 -0.38593423 0.23852047
0.02138197 0.0059874845 0.039999999 -0.14741376 -0.38593423 0.23852047
0.022065107 0.0057328395 0.039999999 -0.14741376 -0.38593423 0.23852047
0.022748433 0.0054783737 0.039999999 -0.14741376 -0.38593423 0.23852047
0.023431955 0.0052240863 0.039999999 -0.14741376 -0.38593423 0.23852047
0.024115676 0.0049699759 0.039999999 -0.14741376 -0.38593423 0.23852047
0.024799598 0.0047160401 0.039999999 -0.14741376 -0.38593423 0.23852047
0.025483731 0.004462278 0.039999999 -0.14741376 -0.38593423 0.23852047
0.026168073 0.0042086877 0.039999999 -0.14741376 -0.38593423 0.23852047
0.026852632 0.0039552683 0.039999999 -0.14741376 -0.38593423 0.23852047
0.027537413 0.0037020175 0.039999999 -0.14741376 -0.38593423 0.23852047
0.028222416 0.0034489343 0.039999999 -0.14741376 -0.38593423 0.23852047
0.028907649 0.0031960171 0.039999999 -0.14741376 -0.38593423 0.23852047
0.029593116 0.0029432646 0.039999999 -0.14741376 -0.38593423 0.23852047
0.030278819 0.0026906747 0.039999999 -0.14741376 -0.38593423 0.23852047
0.030964764 0.0024382467 0.039999999 -0.14741376 -0.38593423 0.23852047
0.031650953 0.0021859785 0.039999999 -0.14741376 -0.38593423 0.23852047
0.032337397 0.0019338689 0.039999999 -0.14741376 -0.38593423 0.23852047
0.033024091 0.0016819162 0.039999999 -0.14741376 -0.38593423 0.23852047
0.033711046 0.0014301192 0.039999999 -0.14741376 -0.38593423 0.23852047
0.034398265 0.001178476 0.039999999 -0.14741376 -0.38593423 0.23852047
0.035085749 0.00092698558 0.039999999 -0.14741376 -0.38593423 0.23852047
0.035773505 0.00067564612 0.039999999 -0.14741376 -0.38593423 0.23852047
0.03646154 0.00042445629 0.039999999 -0.14741376 -0.38593423 0.23852047
0.037149854 0.00017341453 0.039999999 -0.14741376 -0.38593423 0.23852047
0.037875649 0 0.039960135 -0.14741376 -0.38593423 0.23852047
0.038685612 5.5511151e-17 0.039831016 -0.14741376 -0.38593423 0.23852047
0.039496854 5.5511151e-17 0.039701805 -0.14741376 -0.38593423 0.23852047
2.7755576e-17 0.078017838 0.011333274 -0.14741376 -0.38593423 0.23852047
2.7755576e-17 0.075288102 0.012521265 -0.14741376 -0.38593423 0.23852047
2.7755576e-17 0.072587252 0.013696807 -0.14741376 -0.38593423 0.23852047
2.7755576e-17 0.069914825 0.014860098 -0.14741376 -0.38593423 0.23852047
2.7755576e-17 0.067270353 0.016011341 -0.14741376 -0.38593423 0.23852047
2.7755576e-17 0.064653397 0.017150722 -0.14741376 -0.38593423 0.23852047
2.7755576e-17 0.062063515 0.018278437 -0.14741376 -0.38593423 0.23852047
2.7755576e-17 0.059500277 0.019394668 -0.14741376 -0.38593423 0.23852047
2.7755576e-17 0.056963265 0.020499596 -0.14741376 -0.38593423 0.23852047
2.7755576e-17 0.054452065 0.021593399 -0.14741376 -0.38593423 0.23852047
2.7755576e-17 0.051966276 0.022676252 -0.14741376 -0.38593423 0.23852047
2.7755576e-17 0.049505502 0.023748321 -0.14741376 -0.38593423 0.23852047
2.7755576e-17 0.047069356 0.024809778 -0.14741376 -0.38593423 0.23852047
0 0.044657461 0.025860783 -0.14741376 -0.38593423 0.23852047
0 0.042269442 0.026901497 -0.14741376 -0.38593423 0.23852047
2.7755576e-17 0.039904941 0.027932076 -0.14741376 -0.38593423 0.23852047
2.7755576e-17 0.0375636 0.028952675 -0.14741376 -0.38593423 0.23852047
2.7755576e-17 0.035245072 0.029963441 -0.14741376 -0.38593423 0.23852047
0 0.032949008 0.030964525 -0.14741376 -0.38593423 0.23852047
2.7755576e-17 0.03067508 0.031956073 -0.14741376 -0.38593423 0.23852047
2.7755576e-17 0.028422955 0.03293822 -0.14741376 -0.38593423 0.23852047
2.7755576e-17 0.026192315 0.033911109 -0.14741376 -0.38593423 0.23852047
2.7755576e-17 0.023982842 0.034874879 -0.14741376 -0.38593423 0.23852047
0 0.021794224 0.035829656 -0.14741376 -0.38593423 0.23852047
2.7755576e-17 0.019626163 0.036775578 -0.14741376 -0.38593423 0.23852047
2.7755576e-17 0.017478356 0.037712771 -0.14741376 -0.38593423 0.23852047
2.7755576e-17 0.015350513 0.03864136 -0.14741376 -0.38593423 0.23852047
2.7755576e-17 0.013242347 0.039561469 -0.14741376 -0.38593423 0.23852047
0.0003522356 0.012102394 0.039999999 -0.14741376 -0.38593423 0.23852047
0.0010294477 0.011842497 0.039999999 -0.14741376 -0.38593423 0.23852047
0.0017067229 0.01158282 0.039999999 -0.14741376 -0.38593423 0.23852047
0.0023840654 0.011323363 0.039999999 -0.14741376 -0.38593423 0.23852047
0.0030614792 0.011064122 0.039999999 -0.14741376 -0.38593423 0.23852047
0.0037389686 0.0108051 0.039999999 -0.14741376 -0.38593423 0.23852047
0.0044165375 0.010546291 0.039999999 -0.14741376 -0.38593423 0.23852047
0.0050941906 0.010287696 0.039999999 -0.14741376 -0.38593423 0.23852047
0.0057719313 0.010029312 0.039999999 -0.14741376 -0.38593423 0.23852047
0.0064497641 0.0097711394 0.039999999 -0.14741376 -0.38593423 0.23852047
0.0071276929 0.0095131742 0.039999999 -0.14741376 -0.38593423 0.23852047
0.0078057223 0.0092554158 0.039999999 -0.14741376 -0.38593423 0.23852047
0.008483856 0.0089978622 0.039999999 -0.14741376 -0.38593423 0.23852047
0.0091620982 0.0087405136 0.039999999 -0.14741376 -0.38593423 0.23852047
0.009840454 0.0084833661 0.039999999 -0.14741376 -0.38593423 0.23852047
0.010518926 0.0082264198 0.039999999 -0.14741376 -0.38593423 0.23852047
0.011197519 0.0079696728 0.039999999 -0.14741376 -0.38593423 0.23852047
0.011876238 0.0077131232 0.039999999 -0.14741376 -0.38593423 0.23852047
0.012555085 0.0074567692 0.039999999 -0.14741376 -0.38593423 0.23852047
0.013234067 0.0072006099 0.039999999 -0.14741376 -0.38593423 0.23852047
0.013913185 0.0069446433 0.039999999 -0.14741376 -0.38593423 0.23852047
0.014592446 0.0066888686 0.039999999 -0.14741376 -0.38593423 0.23852047
0.015271853 0.0064332834 0.039999999 -0.14741376 -0.38593423 0.23852047
0.01595141 0.0061778864 0.039999999 -0.14741376 -0.38593423 0.23852047
0.016631121 0.0059226765 0.039999999 -0.14741376 -0.38593423 0.23852047
0.01731099 0.0056676515 0.039999999 -0.14741376 -0.38593423 0.23852047
0.017991023 0.00541281 0.039999999 -0.14741376 -0.38593423 0.23852047
0.018671222 0.005158151 0.039999999 -0.14741376 -0.38593423 0.23852047
0.019351592 0.0049036727 0.039999999 -0.14741376 -0.38593423 0.23852047
0.020032138 0.0046493737 0.039999999 -0.14741376 -0.38593423 0.23852047
0.020712862 0.0043952521 0.039999999 -0.14741376 -0.38593423 0.23852047
0.02139377 0.004141307 0.039999999 -0.14741376 -0.38593423 0.23852047
0.022074867 0.003887536 0.039999999 -0.14741376 -0.38593423 0.23852047
0.022756156 0.0036339383 0.039999999 -0.14741376 -0.38593423 0.23852047
0.02343764 0.0033805121 0.039999999 -0.14741376 -0.38593423 0.23852047
0.024119325 0.0031272562 0.039999999 -0.14741376 -0.38593423 0.23852047
0.024801213 0.0028741686 0.039999999 -0.14741376 -0.38593423 0.23852047
0.025483312 0.0026212484 0.039999999 -0.14741376 -0.38593423 0.23852047
0.026165623 0.0023684935 0.039999999 -0.14741376 -0.38593423 0.23852047
0.026848152 0.0021159027 0.039999999 -0.14741376 -0.38593423 0.23852047
0.027530901 0.0018634746 0.039999999 -0.14741376 -0.38593423 0.23852047
0.028213877 0.0016112076 0.039999999 -0.14741376 -0.38593423 0.23852047
0.028897082 0.0013591002 0.039999999 -0.14741376 -0.38593423 0.23852047
0.029580522 0.0011071508 0.039999999 -0.14741376 -0.38593423 0.23852047
0.030264201 0.00085535814 0.039999999 -0.14741376 -0.38593423 0.23852047
0.030948121 0.0006037206 0.039999999 -0.14741376 -0.38593423 0.23852047
0.031632289 0.0003522367 0.039999999 -0.14741376 -0.38593423 0.23852047
0.032316707 0.00010090497 0.039999999 -0.14741376 -0.38593423 0.23852047
0.03307166 0 0.03992267 -0.14741376 -0.38593423 0.23852047
0.033874828 0 0.039793357 -0.14741376 -0.38593423 0.23852047
0.039999999 0.011277013 0.033853356 -0.14741376 -0.38593423 0.23852047
0.035484891 5.5511151e-17 0.039534453 -0.14741376 -0.38593423 0.23852047
0.0362918 0 0.039404862 -0.14741376 -0.38593423 0.23852047
0.037099969 0 0.039275173 -0.14741376 -0.38593423 0.23852047
0.037909407 0 0.039145391 -0.14741376 -0.38593423 0.23852047
0.03872012 5.5511151e-17 0.039015513 -0.14741376 -0.38593423 0.23852047
0.039532114 0 0.038885538 -0.14741376 -0.38593423 0.23852047
2.7755576e-17 0.078097001 0.010376761 -0.14741376 -0.38593423 0.23852047
2.7755576e-17 0.075364083 0.011571047 -0.14741376 -0.38593423 0.23852047
0 0.072660118 0.012752802 -0.14741376 -0.38593423 0.23852047
0 0.069984637 0.013922228 -0.14741376 -0.38593423 0.23852047
2.7755576e-17 0.067337178 0.015079525 -0.14741376 -0.38593423 0.23852047
2.7755576e-17 0.064717285 0.016224887 -0.14741376 -0.38593423 0.23852047
2.7755576e-17 0.062124524 0.017358504 -0.14741376 -0.38593423 0.23852047
2.7755576e-17 0.059558466 0.018480564 -0.14741376 -0.38593423 0.23852047
2.7755576e-17 0.05701869 0.019591248 -0.14741376 -0.38593423 0.23852047
2.7755576e-17 0.054504775 0.020690735 -0.14741376 -0.38593423 0.23852047
2.7755576e-17 0.052016325 0.021779202 -0.14741376 -0.38593423 0.23852047
2.7755576e-17 0.04955294 0.022856819 -0.14741376 -0.38593423 0.23852047
2.7755576e-17 0.047114234 0.023923753 -0.14741376 -0.38593423 0.23852047
2.7755576e-17 0.044699829 0.024980169 -0.14741376 -0.38593423 0.23852047
2.7755576e-17 0.042309348 0.026026228 -0.14741376 -0.38593423 0.23852047
2.7755576e-17 0.039942428 0.027062088 -0.14741376 -0.38593423 0.23852047
2.7755576e-17 0.037598714 0.028087907 -0.14741376 -0.38593423 0.23852047
0 0.035277855 0.02910383 -0.14741376 -0.38593423 0.23852047
2.7755576e-17 0.032979511 0.030110009 -0.14741376 -0.38593423 0.23852047
0 0.030703338 0.031106591 -0.14741376 -0.38593423 0.23852047
2.7755576e-17 0.028449014 0.032093715 -0.14741376 -0.38593423 0.23852047
2.7755576e-17 0.026216215 0.033071525 -0.14741376 -0.38593423 0.23852047
2.7755576e-17 0.02400462 0.034040153 -0.14741376 -0.38593423 0.23852047
2.7755576e-17 0.021813922 0.034999739 -0.14741376 -0.38593423 0.23852047
2.7755576e-17 0.019643817 0.035950411 -0.14741376 -0.38593423 0.23852047
2.7755576e-17 0.017494004 0.036892302 -0.14741376 -0.38593423 0.23852047
2.7755576e-17 0.015364192 0.037825536 -0.14741376 -0.38593423 0.23852047
2.7755576e-17 0.013254094 0.038750235 -0.14741376 -0.38593423 0.23852047
2.7755576e-17 0.011163427 0.039666526 -0.14741376 -0.38593423 0.23852047
0.00042785858 0.010238452 0.039999999 -0.14741376 -0.38593423 0.23852047
0.0011029887 0.0099796187 0.039999999 -0.14741376 -0.38593423 0.23852047
0.0017781842 0.0097209988 0.039999999 -0.14741376 -0.38593423 0.23852047
0.0024534492 0.0094625922 0.039999999 -0.14741376 -0.38593423 0.23852047
0.0031287877 0.009204397 0.039999999 -0.14741376 -0.38593423 0.23852047
0.0038042041 0.0089464104 0.039999999 -0.14741376 -0.38593423 0.23852047
0.0044797021 0.0086886324 0.039999999 -0.14741376 -0.38593423 0.23852047
0.0051552863 0.0084310612 0.039999999 -0.14741376 -0.38593423 0.23852047
0.0058309599 0.0081736939 0.039999999 -0.14741376 -0.38593423 0.23852047
0.006506728 0.0079165306 0.039999999 -0.14741376 -0.38593423 0.23852047
0.0071825944 0.0076595685 0.039999999 -0.14741376 -0.38593423 0.23852047
0.0078585632 0.007402807 0.039999999 -0.14741376 -0.38593423 0.23852047
0.0085346382 0.0071462439 0.039999999 -0.14741376 -0.38593423 0.23852047
0.0092108231 0.0068898778 0.039999999 -0.14741376 -0.38593423 0.23852047
0.0098871235 0.0066337073 0.039999999 -0.14741376 -0.38593423 0.23852047
0.010563542 0.006377731 0.039999999 -0.14741376 -0.38593423 0.23852047
0.011240085 0.006121947 0.039999999 -0.14741376 -0.38593423 0.23852047
0.011916753 0.0058663539 0.039999999 -0.14741376 -0.38593423 0.23852047
0.012593553 0.0056109498 0.039999999 -0.14741376 -0.38593423 0.23852047
0.013270488 0.0053557339 0.039999999 -0.14741376 -0.38593423 0.23852047
0.013947562 0.0051007047 0.039999999 -0.14741376 -0.38593423 0.23852047
0.014624781 0.0048458599 0.039999999 -0.14741376 -0.38593423 0.23852047
0.015302147 0.0045911982 0.039999999 -0.14741376 -0.38593423 0.23852047
0.015979664 0.0043367185 0.039999999 -0.14741376 -0.38593423 0.23852047
0.016657338 0.004082419 0.039999999 -0.14741376 -0.38593423 0.23852047
0.017335171 0.0038282985 0.039999999 -0.14741376 -0.38593423 0.23852047
0.018013168 0.0035743548 0.039999999 -0.14741376 -0.38593423 0.23852047
0.018691335 0.0033205871 0.039999999 -0.14741376 -0.38593423 0.23852047
0.019369673 0.0030669936 0.039999999 -0.14741376 -0.38593423 0.23852047
0.020048188 0.0028135725 0.039999999 -0.14741376 -0.38593423 0.23852047
0.020726884 0.0025603226 0.039999999 -0.14741376 -0.38593423 0.23852047
0.021405766 0.0023072427 0.039999999 -0.14741376 -0.38593423 0.23852047
0.022084836 0.0020543307 0.039999999 -0.14741376 -0.38593423 0.23852047
0.0227641 0.0018015855 0.039999999 -0.14741376 -0.38593423 0.23852047
0.023443559 0.0015490055 0.039999999 -0.14741376 -0.38593423 0.23852047
0.024123223 0.0012965892 0.039999999 -0.14741376 -0.38593423 0.23852047
0.024803091 0.001044335 0.039999999 -0.14741376 -0.38593423 0.23852047
0.025483169 0.00079224154 0.039999999 -0.14741376 -0.38593423 0.23852047
0.026163463 0.00054030737 0.039999999 -0.14741376 -0.38593423 0.23852047
0.026843973 0.00028853086 0.039999999 -0.14741376 -0.38593423 0.23852047
0.027524706 3.6910638e-05 0.039999999 -0.14741376 -0.38593423 0.23852047
0.028303355 0 0.039889574 -0.14741376 -0.38593423 0.23852047
0.029099932 0 0.039760072 -0.14741376 -0.38593423 0.23852047
0.029897712 0 0.03963048 -0.14741376 -0.38593423 0.23852047
0.030696705 0 0.039500799 -0.14741376 -0.38593423 0.23852047
0.031496916 5.5511151e-17 0.039371025 -0.14741376 -0.38593423 0.23852047
0.032298353 0 0.039241157 -0.14741376 -0.38593423 0.23852047
0.033101019 5.5511151e-17 0.039111193 -0.14741376 -0.38593423 0.23852047
0.033904921 0 0.03898114 -0.14741376 -0.38593423 0.23852047
0.034710065 0 0.038850989 -0.14741376 -0.38593423 0.23852047
0.035516463 0 0.038720742 -0.14741376 -0.38593423 0.23852047
0.036324114 0 0.038590398 -0.14741376 -0.38593423 0.23852047
0.037133031 0 0.038459953 -0.14741376 -0.38593423 0.23852047
0.037943218 0 0.038329411 -0.14741376 -0.38593423 0.23852047
0.039999999 0.002581595 0.036858778 -0.14741376 -0.38593423 0.23852047
0.039567426 0 0.038068034 -0.14741376 -0.38593423 0.23852047
2.7755576e-17 0.078176297 0.0094185583 -0.14741376 -0.38593423 0.23852047
2.7755576e-17 0.075440198 0.010619161 -0.14741376 -0.38593423 0.23852047
0 0.072733112 0.01180715 -0.14741376 -0.38593423 0.23852047
2.7755576e-17 0.070054576 0.012982731 -0.14741376 -0.38593423 0.23852047
2.7755576e-17 0.067404114 0.014146104 -0.14741376 -0.38593423 0.23852047
2.7755576e-17 0.064781278 0.015297463 -0.14741376 -0.38593423 0.23852047
0 0.062185641 0.016437003 -0.14741376 -0.38593423 0.23852047
2.7755576e-17 0.059616756 0.017564911 -0.14741376 -0.38593423 0.23852047
2.7755576e-17 0.057074204 0.01868137 -0.14741376 -0.38593423 0.23852047
0 0.054557573 0.019786561 -0.14741376 -0.38593423 0.23852047
2.7755576e-17 0.052066457 0.02088066 -0.14741376 -0.38593423 0.23852047
2.7755576e-17 0.04960046 0.02196384 -0.14741376 -0.38593423 0.23852047
2.7755576e-17 0.047159187 0.023036269 -0.14741376 -0.38593423 0.23852047
0 0.044742264 0.024098113 -0.14741376 -0.38593423 0.23852047
2.7755576e-17 0.042349312 0.025149535 -0.14741376 -0.38593423 0.23852047
0 0.039979972 0.026190696 -0.14741376 -0.38593423 0.23852047
2.7755576e-17 0.037633885 0.027221747 -0.14741376 -0.38593423 0.23852047
2.7755576e-17 0.035310693 0.028242843 -0.14741376 -0.38593423 0.23852047
2.7755576e-17 0.033010058 0.029254135 -0.14741376 -0.38593423 0.23852047
2.7755576e-17 0.030731641 0.030255767 -0.14741376 -0.38593423 0.23852047
0 0.028475113 0.031247884 -0.14741376 -0.38593423 0.23852047
2.7755576e-17 0.02624015 0.032230627 -0.14741376 -0.38593423 0.23852047
2.7755576e-17 0.024026433 0.033204135 -0.14741376 -0.38593423 0.23852047
2.7755576e-17 0.021833651 0.034168541 -0.14741376 -0.38593423 0.23852047
0 0.019661499 0.035123978 -0.14741376 -0.38593423 0.23852047
2.7755576e-17 0.017509678 0.036070578 -0.14741376 -0.38593423 0.23852047
2.7755576e-17 0.015377894 0.037008468 -0.14741376 -0.38593423 0.23852047
2.7755576e-17 0.013265858 0.037937772 -0.14741376 -0.38593423 0.23852047
2.7755576e-17 0.01117329 0.038858615 -0.14741376 -0.38593423 0.23852047
2.7755576e-17 0.009099911 0.039771117 -0.14741376 -0.38593423 0.23852047
0.00050323649 0.008386991 0.039999999 -0.14741376 -0.38593423 0.23852047
0.0011762992 0.0081292037 0.039999999 -0.14741376 -0.38593423 0.23852047
0.0018494294 0.007871625 0.039999999 -0.14741376 -0.38593423 0.23852047
0.0025226315 0.0076142512 0.039999999 -0.14741376 -0.38593423 0.23852047
0.0031959091 0.0073570819 0.039999999 -0.14741376 -0.38593423 0.23852047
0.0038692667 0.0071001155 0.039999999 -0.14741376 -0.38593423 0.23852047
0.0045427079 0.0068433504 0.039999999 -0.14741376 -0.38593423 0.23852047
0.0052162372 0.006586785 0.039999999 -0.14741376 -0.38593423 0.23852047
0.0058898586 0.0063304175 0.039999999 -0.14741376 -0.38593423 0.23852047
0.0065635759 0.006074247 0.039999999 -0.14741376 -0.38593423 0.23852047
0.0072373939 0.0058182715 0.039999999 -0.14741376 -0.38593423 0.23852047
0.0079113161 0.0055624899 0.039999999 -0.14741376 -0.38593423 0.23852047
0.0085853459 0.0053068995 0.039999999 -0.14741376 -0.38593423 0.23852047
0.0092594884 0.0050515002 0.039999999 -0.14741376 -0.38593423 0.23852047
0.0099337474 0.0047962898 0.039999999 -0.14741376 -0.38593423 0.23852047
0.010608127 0.0045412667 0.039999999 -0.14741376 -0.38593423 0.23852047
0.011282632 0.0042864298 0.039999999 -0.14741376 -0.38593423 0.23852047
0.011957265 0.0040317769 0.039999999 -0.14741376 -0.38593423 0.23852047
0.012632031 0.003777307 0.039999999 -0.14741376 -0.38593423 0.23852047
0.013306934 0.0035230184 0.039999999 -0.14741376 -0.38593423 0.23852047
0.013981978 0.0032689099 0.039999999 -0.14741376 -0.38593423 0.23852047
0.014657168 0.0030149794 0.039999999 -0.14741376 -0.38593423 0.23852047
0.015332506 0.0027612257 0.039999999 -0.14741376 -0.38593423 0.23852047
0.016007997 0.0025076475 0.039999999 -0.14741376 -0.38593423 0.23852047
0.016683647 0.002254243 0.039999999 -0.14741376 -0.38593423 0.23852047
0.017359458 0.0020010108 0.039999999 -0.14741376 -0.38593423 0.23852047
0.018035434 0.0017479494 0.039999999 -0.14741376 -0.38593423 0.23852047
0.018711582 0.0014950574 0.039999999 -0.14741376 -0.38593423 0.23852047
0.019387901 0.0012423331 0.039999999 -0.14741376 -0.38593423 0.23852047
0.020064401 0.00098977506 0.039999999 -0.14741376 -0.38593423 0.23852047
0.020741081 0.00073738187 0.039999999 -0.14741376 -0.38593423 0.23852047
0.021417947 0.00048515201 0.039999999 -0.14741376 -0.38593423 0.23852047
0.022095006 0.00023308396 0.039999999 -0.14741376 -0.38593423 0.23852047
0.022780558 5.5511151e-17 0.039990317 -0.14741376 -0.38593423 0.23852047
0.023569582 0 0.039860722 -0.14741376 -0.38593423 0.23852047
0.02435977 0 0.039731041 -0.14741376 -0.38593423 0.23852047
0.025151128 0 0.03960127 -0.14741376 -0.38593423 0.23852047
0.025943661 0 0.039471406 -0.14741376 -0.38593423 0.23852047
0.026737377 0 0.039341457 -0.14741376 -0.38593423 0.23852047
0.027532281 0 0.039211415 -0.14741376 -0.38593423 0.23852047
0.02832838 0 0.039081279 -0.14741376 -0.38593423 0.23852047
0.029125679 0 0.03895105 -0.14741376 -0.38593423 0.23852047
0.029924188 0 0.038820732 -0.14741376 -0.38593423 0.23852047
0.039999999 0.020096596 0.028284641 -0.14741376 -0.38593423 0.23852047
0.039999999 0.018279174 0.029088978 -0.14741376 -0.38593423 0.23852047
0.032327019 0 0.038429197 -0.14741376 -0.38593423 0.23852047
0.033130419 0 0.038298495 -0.14741376 -0.38593423 0.23852047
0.033935059 0 0.038167693 -0.14741376 -0.38593423 0.23852047
0.034740943 0 0.038036793 -0.14741376 -0.38593423 0.23852047
0.035548083 0 0.037905794 -0.14741376 -0.38593423 0.23852047
0.036356479 0 0.037774693 -0.14741376 -0.38593423 0.23852047
0.037166141 0 0.037643496 -0.14741376 -0.38593423 0.23852047
0.037977077 0 0.037512194 -0.14741376 -0.38593423 0.23852047
0.038789291 0 0.037380788 -0.14741376 -0.38593423 0.23852047
0.03960279 0 0.037249282 -0.14741376 -0.38593423 0.23852047
0 0.078255735 0.0084586563 -0.14741376 -0.38593423 0.23852047
2.7755576e-17 0.075516447 0.0096655972 -0.14741376 -0.38593423 0.23852047
2.7755576e-17 0.072806239 0.010859841 -0.14741376 -0.38593423 0.23852047
0 0.070124626 0.012041598 -0.14741376 -0.38593423 0.23852047
2.7755576e-17 0.067471161 0.013211066 -0.14741376 -0.38593423 0.23852047
0 0.064845391 0.014368445 -0.14741376 -0.38593423 0.23852047
2.7755576e-17 0.062246859 0.015513927 -0.14741376 -0.38593423 0.23852047
2.7755576e-17 0.059675142 0.016647702 -0.14741376 -0.38593423 0.23852047
0 0.057129815 0.017769955 -0.14741376 -0.38593423 0.23852047
2.7755576e-17 0.054610461 0.018880868 -0.14741376 -0.38593423 0.23852047
0 0.052116673 0.019980617 -0.14741376 -0.38593423 0.23852047
2.7755576e-17 0.049648054 0.021069378 -0.14741376 -0.38593423 0.23852047
2.7755576e-17 0.047204215 0.02214732 -0.14741376 -0.38593423 0.23852047
2.7755576e-17 0.044784769 0.023214612 -0.14741376 -0.38593423 0.23852047
2.7755576e-17 0.042389348 0.024271414 -0.14741376 -0.38593423 0.23852047
2.7755576e-17 0.040017579 0.025317889 -0.14741376 -0.38593423 0.23852047
2.7755576e-17 0.037669111 0.026354192 -0.14741376 -0.38593423 0.23852047
2.7755576e-17 0.035343584 0.027380476 -0.14741376 -0.38593423 0.23852047
0 0.033040654 0.028396895 -0.14741376 -0.38593423 0.23852047
2.7755576e-17 0.03075999 0.029403595 -0.14741376 -0.38593423 0.23852047
2.7755576e-17 0.028501254 0.030400719 -0.14741376 -0.38593423 0.23852047
2.7755576e-17 0.026264124 0.031388413 -0.14741376 -0.38593423 0.23852047
2.7755576e-17 0.024048278 0.032366809 -0.14741376 -0.38593423 0.23852047
2.7755576e-17 0.02185341 0.033336051 -0.14741376 -0.38593423 0.23852047
2.7755576e-17 0.019679207 0.03429627 -0.14741376 -0.38593423 0.23852047
2.7755576e-17 0.017525375 0.035247594 -0.14741376 -0.38593423 0.23852047
0 0.015391615 0.036190156 -0.14741376 -0.38593423 0.23852047
0 0.013277641 0.037124079 -0.14741376 -0.38593423 0.23852047
2.7755576e-17 0.011183169 0.038049489 -0.14741376 -0.38593423 0.23852047
5.5511151e-17 0.0091079194 0.038966507 -0.14741376 -0.38593423 0.23852047
2.7755576e-17 0.0070516211 0.03987525 -0.14741376 -0.38593423 0.23852047
0.00057836791 0.0065478655 0.039999999 -0.14741376 -0.38593423 0.23852047
0.0012493775 0.0062911077 0.039999999 -0.14741376 -0.38593423 0.23852047
0.0019204569 0.0060345507 0.039999999 -0.14741376 -0.38593423 0.23852047
0.00259161 0.005778193 0.039999999 -0.14741376 -0.38593423 0.23852047
0.0032628411 0.0055220332 0.039999999 -0.14741376 -0.38593423 0.23852047
0.0039341538 0.0052660694 0.039999999 -0.14741376 -0.38593423 0.23852047
0.0046055526 0.0050103003 0.039999999 -0.14741376 -0.38593423 0.23852047
0.0052770418 0.0047547244 0.039999999 -0.14741376 -0.38593423 0.23852047
0.0059486246 0.00449934 0.039999999 -0.14741376 -0.38593423 0.23852047
0.0066203056 0.0042441455 0.039999999 -0.14741376 -0.38593423 0.23852047
0.0072920886 0.00398914 0.039999999 -0.14741376 -0.38593423 0.23852047
0.0079639778 0.0037343211 0.039999999 -0.14741376 -0.38593423 0.23852047
0.0086359773 0.003479688 0.039999999 -0.14741376 -0.38593423 0.23852047
0.0093080904 0.0032252388 0.039999999 -0.14741376 -0.38593423 0.23852047
0.0099803228 0.0029709721 0.039999999 -0.14741376 -0.38593423 0.23852047
0.010652677 0.0027168861 0.039999999 -0.14741376 -0.38593423 0.23852047
0.011325158 0.0024629799 0.039999999 -0.14741376 -0.38593423 0.23852047
0.01199777 0.0022092515 0.039999999 -0.14741376 -0.38593423 0.23852047
0.012670515 0.0019556994 0.039999999 -0.14741376 -0.38593423 0.23852047
0.013343399 0.0017023224 0.039999999 -0.14741376 -0.38593423 0.23852047
0.014016427 0.0014491187 0.039999999 -0.14741376 -0.38593423 0.23852047
0.014689601 0.001196087 0.039999999 -0.14741376 -0.38593423 0.23852047
0.015362926 0.00094322569 0.039999999 -0.14741376 -0.38593423 0.23852047
0.016036406 0.00069053331 0.039999999 -0.14741376 -0.38593423 0.23852047
0.016710045 0.00043800837 0.039999999 -0.14741376 -0.38593423 0.23852047
0.017383846 0.00018564936 0.039999999 -0.14741376 -0.38593423 0.23852047
0.039999999 0.051101029 0.013675403 -0.14741376 -0.38593423 0.23852047
0.018869217 0 0.039835989 -0.14741376 -0.38593423 0.23852047
0.039999999 0.047002237 0.015492892 -0.14741376 -0.38593423 0.23852047
0.039999999 0.042968057 0.017282179 -0.14741376 -0.38593423 0.23852047
0.022012034 0 0.039316032 -0.14741376 -0.38593423 0.23852047
0.022800608 0 0.039185818 -0.14741376 -0.38593423 0.23852047
0.023590341 0 0.039055519 -0.14741376 -0.38593423 0.23852047
0.024381241 0 0.038925126 -0.14741376 -0.38593423 0.23852047
0.025173312 0 0.03879464 -0.14741376 -0.38593423 0.23852047
0.025966562 0 0.038664062 -0.14741376 -0.38593423 0.23852047
0.026760995 0 0.03853339 -0.14741376 -0.38593423 0.23852047
0.027556621 0 0.038402624 -0.14741376 -0.38593423 0.23852047
0.028353442 0 0.038271766 -0.14741376 -0.38593423 0.23852047
0.029151468 0 0.038140807 -0.14741376 -0.38593423 0.23852047
0.029950703 0 0.038009755 -0.14741376 -0.38593423 0.23852047
0.030751152 0 0.037878603 -0.14741376 -0.38593423 0.23852047
0.031552825 0 0.037747357 -0.14741376 -0.38593423 0.23852047
0.032355726 0 0.037616007 -0.14741376 -0.38593423 0.23852047
0.033159863 0 0.03748456 -0.14741376 -0.38593423 0.23852047
0.033965241 0 0.037353009 -0.14741376 -0.38593423 0.23852047
0.034771871 0 0.037221361 -0.14741376 -0.38593423 0.23852047
0.039999999 0.0093223248 0.032224 -0.14741376 -0.38593423 0.23852047
0.039999999 0.007582312 0.03299772 -0.14741376 -0.38593423 0.23852047
0.039999999 0.0058548609 0.033765957 -0.14741376 -0.38593423 0.23852047
0.038823955 0 0.036561556 -0.14741376 -0.38593423 0.23852047
0.03963821 0 0.036429279 -0.14741376 -0.38593423 0.23852047
0 0.078335315 0.0074970457 -0.14741376 -0.38593423 0.23852047
0 0.075592831 0.0087103462 -0.14741376 -0.38593423 0.23852047
0 0.072879486 0.0099108685 -0.14741376 -0.38593423 0.23852047
2.7755576e-17 0.070194811 0.01109882 -0.14741376 -0.38593423 0.23852047
0 0.067538336 0.012274405 -0.14741376 -0.38593423 0.23852047
2.7755576e-17 0.064909607 0.013437822 -0.14741376 -0.38593423 0.23852047
2.7755576e-17 0.062308185 0.014589266 -0.14741376 -0.38593423 0.23852047
2.7755576e-17 0.059733629 0.015728928 -0.14741376 -0.38593423 0.23852047
2.7755576e-17 0.057185519 0.016856994 -0.14741376 -0.38593423 0.23852047
2.7755576e-17 0.054663438 0.017973647 -0.14741376 -0.38593423 0.23852047
2.7755576e-17 0.052166976 0.019079067 -0.14741376 -0.38593423 0.23852047
2.7755576e-17 0.04969573 0.020173427 -0.14741376 -0.38593423 0.23852047
2.7755576e-17 0.047249317 0.021256899 -0.14741376 -0.38593423 0.23852047
2.7755576e-17 0.044827346 0.022329655 -0.14741376 -0.38593423 0.23852047
2.7755576e-17 0.042429447 0.023391854 -0.14741376 -0.38593423 0.23852047
2.7755576e-17 0.040055249 0.02444366 -0.14741376 -0.38593423 0.23852047
2.7755576e-17 0.037704393 0.025485231 -0.14741376 -0.38593423 0.23852047
2.7755576e-17 0.035376526 0.026516721 -0.14741376 -0.38593423 0.23852047
2.7755576e-17 0.033071302 0.027538283 -0.14741376 -0.38593423 0.23852047
2.7755576e-17 0.030788383 0.028550066 -0.14741376 -0.38593423 0.23852047
2.7755576e-17 0.028527435 0.029552214 -0.14741376 -0.38593423 0.23852047
2.7755576e-17 0.026288133 0.03054487 -0.14741376 -0.38593423 0.23852047
2.7755576e-17 0.024070159 0.031528175 -0.14741376 -0.38593423 0.23852047
2.7755576e-17 0.021873198 0.032502268 -0.14741376 -0.38593423 0.23852047
2.7755576e-17 0.019696945 0.033467278 -0.14741376 -0.38593423 0.23852047
2.7755576e-17 0.017541096 0.034423344 -0.14741376 -0.38593423 0.23852047
2.7755576e-17 0.015405359 0.035370588 -0.14741376 -0.38593423 0.23852047
2.7755576e-17 0.013289441 0.036309145 -0.14741376 -0.38593423 0.23852047
2.7755576e-17 0.011193061 0.037239134 -0.14741376 -0.38593423 0.23852047
2.7755576e-17 0.00911594 0.038160682 -0.14741376 -0.38593423 0.23852047
2.7755576e-17 0.0070578023 0.039073903 -0.14741376 -0.38593423 0.23852047
2.7755576e-17 0.0050183819 0.039978918 -0.14741376 -0.38593423 0.23852047
0.00065325142 0.0047209319 0.039999999 -0.14741376 -0.38593423 0.23852047
0.0013222221 0.004465186 0.039999999 -0.14741376 -0.38593423 0.23852047
0.0019912645 0.0042096344 0.039999999 -0.14741376 -0.38593423 0.23852047
0.002660383 0.0039542755 0.039999999 -0.14741376 -0.38593423 0.23852047
0.0033295816 0.003699108 0.039999999 -0.14741376 -0.38593423 0.23852047
0.003998864 0.0034441301 0.039999999 -0.14741376 -0.38593423 0.23852047
0.0046682339 0.0031893402 0.039999999 -0.14741376 -0.38593423 0.23852047
0.0053376965 0.0029347371 0.039999999 -0.14741376 -0.38593423 0.23852047
0.0060072546 0.0026803191 0.039999999 -0.14741376 -0.38593423 0.23852047
0.0066769128 0.0024260848 0.039999999 -0.14741376 -0.38593423 0.23852047
0.0073466753 0.0021720324 0.039999999 -0.14741376 -0.38593423 0.23852047
0.0080165453 0.0019181607 0.039999999 -0.14741376 -0.38593423 0.23852047
0.0086865276 0.001664468 0.039999999 -0.14741376 -0.38593423 0.23852047
0.0093566263 0.0014109529 0.039999999 -0.14741376 -0.38593423 0.23852047
0.010026844 0.0011576138 0.039999999 -0.14741376 -0.38593423 0.23852047
0.010697187 0.00090444938 0.039999999 -0.14741376 -0.38593423 0.23852047
0.011367658 0.00065145799 0.039999999 -0.14741376 -0.38593423 0.23852047
0.012038262 0.00039863811 0.039999999 -0.14741376 -0.38593423 0.23852047
0.012709 0.00014598834 0.039999999 -0.14741376 -0.38593423 0.23852047
0.013424261 0 0.039945204 -0.14741376 -0.38593423 0.23852047
0.01420116 0 0.039815262 -0.14741376 -0.38593423 0.23852047
0.014979154 0 0.039685231 -0.14741376 -0.38593423 0.23852047
0.01575825 0 0.039555117 -0.14741376 -0.38593423 0.23852047
0.016538454 0 0.039424915 -0.14741376 -0.38593423 0.23852047
0.017319772 5.5511151e-17 0.03929463 -0.14741376 -0.38593423 0.23852047
0.01810221 0 0.039164253 -0.14741376 -0.38593423 0.23852047
0.018885775 0 0.039033789 -0.14741376 -0.38593423 0.23852047
0.01967047 0 0.038903236 -0.14741376 -0.38593423 0.23852047
0.020456303 5.5511151e-17 0.03877259 -0.14741376 -0.38593423 0.23852047
0.039999999 0.042920593 0.016412918 -0.14741376 -0.38593423 0.23852047
0.022031406 0 0.03851103 -0.14741376 -0.38593423 0.23852047
0.022820687 5.5511151e-17 0.038380112 -0.14741376 -0.38593423 0.23852047
0.023611132 0 0.038249098 -0.14741376 -0.38593423 0.23852047
0.024402743 0 0.038117994 -0.14741376 -0.38593423 0.23852047
0.02519553 0 0.037986793 -0.14741376 -0.38593423 0.23852047
0.039999999 0.031182414 0.021642324 -0.14741376 -0.38593423 0.23852047
0.026784651 0 0.0377241 -0.14741376 -0.38593423 0.23852047
0.027580997 5.5511151e-17 0.037592612 -0.14741376 -0.38593423 0.23852047
0.039999999 0.025513731 0.024169181 -0.14741376 -0.38593423 0.23852047
0.029177293 0 0.037329335 -0.14741376 -0.38593423 0.23852047
0.029977256 0 0.037197549 -0.14741376 -0.38593423 0.23852047
0.030778438 0 0.037065659 -0.14741376 -0.38593423 0.23852047
0.031580843 0 0.036933668 -0.14741376 -0.38593423 0.23852047
0.032384481 5.5511151e-17 0.036801577 -0.14741376 -0.38593423 0.23852047
0.033189356 5.5511151e-17 0.036669385 -0.14741376 -0.38593423 0.23852047
0.039999999 0.012774169 0.029851567 -0.14741376 -0.38593423 0.23852047
0.039999999 0.011007563 0.030639961 -0.14741376 -0.38593423 0.23852047
0.035611469 0 0.036272172 -0.14741376 -0.38593423 0.23852047
0.036421359 0 0.036139555 -0.14741376 -0.38593423 0.23852047
0.037232518 5.5511151e-17 0.036006834 -0.14741376 -0.38593423 0.23852047
0.039999999 0.0040683919 0.033737771 -0.14741376 -0.38593423 0.23852047
0.038858674 0 0.035741065 -0.14741376 -0.38593423 0.23852047
0.039999999 0.00067313702 0.035254098 -0.14741376 -0.38593423 0.23852047
2.7755576e-17 0.078415036 0.0065337177 -0.14741376 -0.38593423 0.23852047
2.7755576e-17 0.075669348 0.0077533997 -0.14741376 -0.38593423 0.23852047
2.7755576e-17 0.072952867 0.00896022 -0.14741376 -0.38593423 0.23852047
0 0.070265114 0.010154389 -0.14741376 -0.38593423 0.23852047
0 0.067605622 0.011336111 -0.14741376 -0.38593423 0.23852047
0 0.064973935 0.012505587 -0.14741376 -0.38593423 0.23852047
2.7755576e-17 0.062369615 0.013663013 -0.14741376 -0.38593423 0.23852047
2.7755576e-17 0.059792217 0.014808581 -0.14741376 -0.38593423 0.23852047
0 0.057241321 0.015942479 -0.14741376 -0.38593423 0.23852047
2.7755576e-17 0.054716505 0.017064892 -0.14741376 -0.38593423 0.23852047
0 0.052217361 0.018175999 -0.14741376 -0.38593423 0.23852047
2.7755576e-17 0.049743488 0.019275976 -0.14741376 -0.38593423 0.23852047
2.7755576e-17 0.047294494 0.020364998 -0.14741376 -0.38593423 0.23852047
2.7755576e-17 0.044869993 0.021443233 -0.14741376 -0.38593423 0.23852047
2.7755576e-17 0.04246961 0.022510847 -0.14741376 -0.38593423 0.23852047
2.7755576e-17 0.040092979 0.023568003 -0.14741376 -0.38593423 0.23852047
0 0.037739731 0.024614858 -0.14741376 -0.38593423 0.23852047
0 0.035409521 0.02565157 -0.14741376 -0.38593423 0.23852047
2.7755576e-17 0.033101998 0.026678292 -0.14741376 -0.38593423 0.23852047
2.7755576e-17 0.030816821 0.027695172 -0.14741376 -0.38593423 0.23852047
2.7755576e-17 0.028553659 0.028702358 -0.14741376 -0.38593423 0.23852047
0 0.026312184 0.029699994 -0.14741376 -0.38593423 0.23852047
2.7755576e-17 0.024092074 0.030688221 -0.14741376 -0.38593423 0.23852047
2.7755576e-17 0.021893019 0.031667177 -0.14741376 -0.38593423 0.23852047
2.7755576e-17 0.019714709 0.032636996 -0.14741376 -0.38593423 0.23852047
0 0.017556842 0.033597816 -0.14741376 -0.38593423 0.23852047
2.7755576e-17 0.015419123 0.034549762 -0.14741376 -0.38593423 0.23852047
2.7755576e-17 0.01330126 0.035492964 -0.14741376 -0.38593423 0.23852047
2.7755576e-17 0.01120297 0.03642755 -0.14741376 -0.38593423 0.23852047
2.7755576e-17 0.0091239717 0.037353639 -0.14741376 -0.38593423 0.23852047
2.7755576e-17 0.0070639928 0.038271353 -0.14741376 -0.38593423 0.23852047
2.7755576e-17 0.0050227633 0.039180808 -0.14741376 -0.38593423 0.23852047
6.1010007e-05 0.0031609877 0.039999999 -0.14741376 -0.38593423 0.23852047
0.00072788569 0.0029060477 0.039999999 -0.14741376 -0.38593423 0.23852047
0.0013948313 0.0026512973 0.039999999 -0.14741376 -0.38593423 0.23852047
0.0020618511 0.0023967344 0.039999999 -0.14741376 -0.38593423 0.23852047
0.0027289488 0.0021423579 0.039999999 -0.14741376 -0.38593423 0.23852047
0.0033961283 0.0018881659 0.039999999 -0.14741376 -0.38593423 0.23852047
0.0040633939 0.0016341574 0.039999999 -0.14741376 -0.38593423 0.23852047
0.0047307494 0.0013803305 0.039999999 -0.14741376 -0.38593423 0.23852047
0.005398199 0.0011266839 0.039999999 -0.14741376 -0.38593423 0.23852047
0.0060657463 0.00087321602 0.039999999 -0.14741376 -0.38593423 0.23852047
0.0067333956 0.00061992533 0.039999999 -0.14741376 -0.38593423 0.23852047
0.0074011507 0.00036681033 0.039999999 -0.14741376 -0.38593423 0.23852047
0.008069016 0.00011386955 0.039999999 -0.14741376 -0.38593423 0.23852047
0.0087932134 0 0.039928526 -0.14741376 -0.38593423 0.23852047
0.0095643317 0 0.039798412 -0.14741376 -0.38593423 0.23852047
0.010336513 0 0.039668217 -0.14741376 -0.38593423 0.23852047
0.011109764 0 0.03953794 -0.14741376 -0.38593423 0.23852047
0.01188409 0 0.039407577 -0.14741376 -0.38593423 0.23852047
0.014213574 0 0.039015971 -0.14741376 -0.38593423 0.23852047
0.014992259 5.5511151e-17 0.038885262 -0.14741376 -0.38593423 0.23852047
0.015772047 0 0.038754467 -0.14741376 -0.38593423 0.23852047
0.016552944 0 0.038623579 -0.14741376 -0.38593423 0.23852047
