# .PCD v0.7 - Point Cloud Data file format
VERSION 0.7
FIELDS x y z vp_x vp_y vp_z
SIZE 4 4 4 4 4 4
TYPE F F F F F F
COUNT 1 1 1 1 1 1
WIDTH 683
HEIGHT 1
VIEWPOINT 0 0 0 1 0 0 0
POINTS 683
DATA ascii
0.027556973 0.041491829 0.048537668 0.14741376 -0.38593423 0.23852047
0.028241195 0.041808385 0.048523627 0.14741376 -0.38593423 0.23852047
0.028925741 0.042125095 0.048509728 0.14741376 -0.38593423 0.23852047
0.029602667 0.042470872 0.048483144 0.14741376 -0.38593423 0.23852047
0.03026557 0.042869721 0.048433259 0.14741376 -0.38593423 0.23852047
0.030929051 0.043268919 0.048383478 0.14741376 -0.38593423 0.23852047
0.031580012 0.043717071 0.048312284 0.14741376 -0.38593423 0.23852047
0.032221287 0.044204574 0.048223969 0.14741376 -0.38593423 0.23852047
0.032863393 0.044692706 0.048135687 0.14741376 -0.38593423 0.23852047
0.033484254 0.04526503 0.048010524 0.14741376 -0.38593423 0.23852047
0.03410285 0.045850966 0.047879715 0.14741376 -0.38593423 0.23852047
0.034713235 0.046473604 0.047733083 0.14741376 -0.38593423 0.23852047
0.035305727 0.047171112 0.047553834 0.14741376 -0.38593423 0.23852047
0.035899568 0.047870211 0.047374327 0.14741376 -0.38593423 0.23852047
0.036463134 0.048694815 0.047139995 0.14741376 -0.38593423 0.23852047
0.037027083 0.049526632 0.046903007 0.14741376 -0.38593423 0.23852047
0.037560694 0.050487865 0.046609633 0.14741376 -0.38593423 0.23852047
0.038088456 0.051483296 0.046301831 0.14741376 -0.38593423 0.23852047
0.038573641 0.052661665 0.045914311 0.14741376 -0.38593423 0.23852047
0.039040457 0.053928666 0.045488629 0.14741376 -0.38593423 0.23852047
0.039455395 0.05542323 0.04496393 0.14741376 -0.38593423 0.23852047
0.039789595 0.057269156 0.044286169 0.14741376 -0.38593423 0.23852047
0.039984636 0.059716541 0.043346126 0.14741376 -0.38593423 0.23852047
0.038871277 0.067664981 0.039999999 0.14741376 -0.38593423 0.23852047
0.039599963 0.067973547 0.039999999 0.14741376 -0.38593423 0.23852047
0.037566446 0.079999998 0.034878787 0.14741376 -0.38593423 0.23852047
0.039999999 0.073114164 0.038024962 0.14741376 -0.38593423 0.23852047
0.039999999 0.076599739 0.036640309 0.14741376 -0.38593423 0.23852047
0.00040943993 0.04981691 0.039999999 0.14741376 -0.38593423 0.23852047
0.0011292144 0.050100826 0.039999999 0.14741376 -0.38593423 0.23852047
0.0018489816 0.05038511 0.039999999 0.14741376 -0.38593423 0.23852047
0.0029241354 0.049598526 0.040487085 0.14741376 -0.38593423 0.23852047
0.0044366573 0.047474422 0.041581471 0.14741376 -0.38593423 0.23852047
0.0057215621 0.046017274 0.042371735 0.14741376 -0.38593423 0.23852047
0.0068839877 0.044916201 0.042999551 0.14741376 -0.38593423 0.23852047
0.0079597542 0.044066921 0.043512531 0.14741376 -0.38593423 0.23852047
0.0090014534 0.043310713 0.043982826 0.14741376 -0.38593423 0.23852047
0.0099871466 0.042717662 0.04437878 0.14741376 -0.38593423 0.23852047
0.010951496 0.04218189 0.044748466 0.14741376 -0.38593423 0.23852047
0.01187921 0.041752681 0.045069639 0.14741376 -0.38593423 0.23852047
0.012794879 0.041353893 0.045376811 0.14741376 -0.38593423 0.23852047
0.013676326 0.041056883 0.045637779 0.14741376 -0.38593423 0.23852047
0.014555582 0.040760614 0.045898244 0.14741376 -0.38593423 0.23852047
0.015402257 0.0405633 0.046113901 0.14741376 -0.38593423 0.23852047
0.016243618 0.040378124 0.046323977 0.14741376 -0.38593423 0.23852047
0.017072108 0.040230025 0.046517245 0.14741376 -0.38593423 0.23852047
0.017880937 0.040142033 0.046683375 0.14741376 -0.38593423 0.23852047
0.018688565 0.040054172 0.046849404 0.14741376 -0.38593423 0.23852047
0.019476118 0.040029299 0.046987068 0.14741376 -0.38593423 0.23852047
0.020255325 0.040029299 0.047113553 0.14741376 -0.38593423 0.23852047
0.021033708 0.040029299 0.047240049 0.14741376 -0.38593423 0.23852047
0.021788629 0.040106084 0.047332097 0.14741376 -0.38593423 0.23852047
0.022541516 0.040187992 0.047421914 0.14741376 -0.38593423 0.23852047
0.023292128 0.040275943 0.047509078 0.14741376 -0.38593423 0.23852047
0.024021264 0.040436421 0.047563829 0.14741376 -0.38593423 0.23852047
0.024750195 0.040596854 0.04761871 0.14741376 -0.38593423 0.23852047
0.025475016 0.040770922 0.0476676 0.14741376 -0.38593423 0.23852047
0.026181504 0.041008979 0.047688011 0.14741376 -0.38593423 0.23852047
0.026888061 0.041247059 0.047708571 0.14741376 -0.38593423 0.23852047
0.027588703 0.04150651 0.047719747 0.14741376 -0.38593423 0.23852047
0.028273521 0.041823342 0.047705498 0.14741376 -0.38593423 0.23852047
0.028958665 0.042140327 0.04769139 0.14741376 -0.38593423 0.23852047
0.02963509 0.042490382 0.047662754 0.14741376 -0.38593423 0.23852047
0.030298585 0.042889588 0.047612466 0.14741376 -0.38593423 0.23852047
0.030962659 0.04328914 0.047562279 0.14741376 -0.38593423 0.23852047
0.031613003 0.043742154 0.047488581 0.14741376 -0.38593423 0.23852047
0.032254867 0.044230103 0.047399651 0.14741376 -0.38593423 0.23852047
0.032897562 0.044718683 0.047310755 0.14741376 -0.38593423 0.23852047
0.033517648 0.045296658 0.047182504 0.14741376 -0.38593423 0.23852047
0.034136828 0.045883149 0.047050845 0.14741376 -0.38593423 0.23852047
0.034746215 0.046512429 0.0469006 0.14741376 -0.38593423 0.23852047
0.035339285 0.047210619 0.046720237 0.14741376 -0.38593423 0.23852047
0.035933055 0.047912952 0.04653848 0.14741376 -0.38593423 0.23852047
0.03649595 0.048743218 0.046300594 0.14741376 -0.38593423 0.23852047
0.037060473 0.04957588 0.046062168 0.14741376 -0.38593423 0.23852047
0.037592288 0.050547451 0.045762919 0.14741376 -0.38593423 0.23852047
0.038120613 0.051543944 0.04545328 0.14741376 -0.38593423 0.23852047
0.038603257 0.052735992 0.045058016 0.14741376 -0.38593423 0.23852047
0.039066322 0.054021828 0.044622157 0.14741376 -0.38593423 0.23852047
0.039481763 0.05551821 0.044094365 0.14741376 -0.38593423 0.23852047
0.039809924 0.057393134 0.043400887 0.14741376 -0.38593423 0.23852047
0.039994061 0.059890427 0.042434823 0.14741376 -0.38593423 0.23852047
0.039386261 0.065732852 0.039999999 0.14741376 -0.38593423 0.23852047
0.039999999 0.066514015 0.039791755 0.14741376 -0.38593423 0.23852047
0.039999999 0.069908455 0.038436957 0.14741376 -0.38593423 0.23852047
0.039999999 0.073351122 0.037063066 0.14741376 -0.38593423 0.23852047
0.039999999 0.076843075 0.035669662 0.14741376 -0.38593423 0.23852047
0.0003318371 0.047686234 0.039999999 0.14741376 -0.38593423 0.23852047
0.0010492174 0.047968682 0.039999999 0.14741376 -0.38593423 0.23852047
0.0017665873 0.048251495 0.039999999 0.14741376 -0.38593423 0.23852047
0.0024839514 0.048534676 0.039999999 0.14741376 -0.38593423 0.23852047
0.0032013145 0.048818223 0.039999999 0.14741376 -0.38593423 0.23852047
0.0044675884 0.047438007 0.040759392 0.14741376 -0.38593423 0.23852047
0.005749878 0.045990452 0.041548673 0.14741376 -0.38593423 0.23852047
0.0069131143 0.044888612 0.04217954 0.14741376 -0.38593423 0.23852047
0.0079872878 0.044045988 0.042691693 0.14741376 -0.38593423 0.23852047
0.0090279598 0.043294765 0.043161746 0.14741376 -0.38593423 0.23852047
0.010014388 0.04270127 0.043559611 0.14741376 -0.38593423 0.23852047
0.010978015 0.042169623 0.043929014 0.14741376 -0.38593423 0.23852047
0.011906437 0.041740086 0.044251721 0.14741376 -0.38593423 0.23852047
0.012821571 0.041344896 0.044558585 0.14741376 -0.38593423 0.23852047
0.013703701 0.041047659 0.044820782 0.14741376 -0.38593423 0.23852047
0.014583636 0.040751159 0.045082469 0.14741376 -0.38593423 0.23852047
0.015429879 0.040557221 0.045297522 0.14741376 -0.38593423 0.23852047
0.016271902 0.040371895 0.045508567 0.14741376 -0.38593423 0.23852047
0.017100034 0.040226988 0.045701221 0.14741376 -0.38593423 0.23852047
0.01790951 0.040138923 0.045868095 0.14741376 -0.38593423 0.23852047
0.018717781 0.040050995 0.046034861 0.14741376 -0.38593423 0.23852047
0.019505005 0.040029299 0.046171676 0.14741376 -0.38593423 0.23852047
0.020284845 0.040029299 0.046298694 0.14741376 -0.38593423 0.23852047
0.021063859 0.040029299 0.046425723 0.14741376 -0.38593423 0.23852047
0.021818457 0.040109329 0.046516698 0.14741376 -0.38593423 0.23852047
0.022571964 0.040191304 0.046606854 0.14741376 -0.38593423 0.23852047
0.023322251 0.04028257 0.046692885 0.14741376 -0.38593423 0.23852047
0.024051998 0.040443186 0.046747793 0.14741376 -0.38593423 0.23852047
0.02478154 0.040603753 0.04680283 0.14741376 -0.38593423 0.23852047
0.025505999 0.040781364 0.046850324 0.14741376 -0.38593423 0.23852047
0.026213093 0.041019622 0.046870712 0.14741376 -0.38593423 0.23852047
0.026920252 0.041257903 0.046891242 0.14741376 -0.38593423 0.23852047
0.027620478 0.04152121 0.046900716 0.14741376 -0.38593423 0.23852047
0.028305892 0.041838318 0.046886258 0.14741376 -0.38593423 0.23852047
0.028991634 0.042155579 0.046871934 0.14741376 -0.38593423 0.23852047
0.02966756 0.042509917 0.046841234 0.14741376 -0.38593423 0.23852047
0.030331647 0.042909481 0.046790536 0.14741376 -0.38593423 0.23852047
0.030996315 0.043309391 0.046739943 0.14741376 -0.38593423 0.23852047
0.031646043 0.04376727 0.046663724 0.14741376 -0.38593423 0.23852047
0.032288495 0.044255666 0.046574179 0.14741376 -0.38593423 0.23852047
0.032931779 0.044744696 0.04648466 0.14741376 -0.38593423 0.23852047
0.033551089 0.045328334 0.046353299 0.14741376 -0.38593423 0.23852047
0.034170851 0.04591538 0.046220791 0.14741376 -0.38593423 0.23852047
0.034779243 0.046551313 0.046066899 0.14741376 -0.38593423 0.23852047
0.035372894 0.047250185 0.045885418 0.14741376 -0.38593423 0.23852047
0.035965346 0.047960583 0.045699254 0.14741376 -0.38593423 0.23852047
0.036528815 0.048791692 0.045459934 0.14741376 -0.38593423 0.23852047
0.037093911 0.049625203 0.045220062 0.14741376 -0.38593423 0.23852047
0.037623931 0.050607134 0.044914894 0.14741376 -0.38593423 0.23852047
0.038152691 0.051605195 0.044603184 0.14741376 -0.38593423 0.23852047
0.038632922 0.052810438 0.044200338 0.14741376 -0.38593423 0.23852047
0.039092232 0.05411515 0.043754213 0.14741376 -0.38593423 0.23852047
0.039508179 0.055613358 0.04322331 0.14741376 -0.38593423 0.23852047
0.03983029 0.057517339 0.042513981 0.14741376 -0.38593423 0.23852047
0.03999446 0.060102224 0.041505061 0.14741376 -0.38593423 0.23852047
0.039897524 0.063814692 0.039999999 0.14741376 -0.38593423 0.23852047
0.039999999 0.066739194 0.038844764 0.14741376 -0.38593423 0.23852047
0.039999999 0.070139721 0.037481483 0.14741376 -0.38593423 0.23852047
0.039999999 0.073588632 0.036098953 0.14741376 -0.38593423 0.23852047
0.039999999 0.077086978 0.034696762 0.14741376 -0.38593423 0.23852047
0.000254432 0.045571275 0.039999999 0.14741376 -0.38593423 0.23852047
0.00096943654 0.045852285 0.039999999 0.14741376 -0.38593423 0.23852047
0.0016844275 0.046133649 0.039999999 0.14741376 -0.38593423 0.23852047
0.0023994097 0.04641537 0.039999999 0.14741376 -0.38593423 0.23852047
0.0031143874 0.046697453 0.039999999 0.14741376 -0.38593423 0.23852047
0.0038293658 0.046979893 0.039999999 0.14741376 -0.38593423 0.23852047
0.0045443494 0.047262695 0.039999999 0.14741376 -0.38593423 0.23852047
0.0057782279 0.045963597 0.040724628 0.14741376 -0.38593423 0.23852047
0.0069422754 0.044860989 0.041358553 0.14741376 -0.38593423 0.23852047
0.0080148559 0.04402503 0.041869853 0.14741376 -0.38593423 0.23852047
0.0090544997 0.043278795 0.042339645 0.14741376 -0.38593423 0.23852047
0.010041662 0.042684861 0.042739425 0.14741376 -0.38593423 0.23852047
0.011004569 0.042157337 0.043108534 0.14741376 -0.38593423 0.23852047
0.011933697 0.041727472 0.04343278 0.14741376 -0.38593423 0.23852047
0.012848298 0.041335892 0.043739315 0.14741376 -0.38593423 0.23852047
0.013731111 0.041038424 0.044002745 0.14741376 -0.38593423 0.23852047
0.014611727 0.040741697 0.044265661 0.14741376 -0.38593423 0.23852047
0.015457537 0.040551133 0.0444801 0.14741376 -0.38593423 0.23852047
0.016300222 0.040365662 0.044692114 0.14741376 -0.38593423 0.23852047
0.017127996 0.040223945 0.044884142 0.14741376 -0.38593423 0.23852047
0.017938118 0.040135812 0.045051757 0.14741376 -0.38593423 0.23852047
0.018747035 0.040047809 0.045219269 0.14741376 -0.38593423 0.23852047
0.01953393 0.040029299 0.045355219 0.14741376 -0.38593423 0.23852047
0.020314403 0.040029299 0.045482773 0.14741376 -0.38593423 0.23852047
0.021093696 0.040030483 0.045609802 0.14741376 -0.38593423 0.23852047
0.021848325 0.040112581 0.045700219 0.14741376 -0.38593423 0.23852047
0.022602452 0.040194619 0.045790717 0.14741376 -0.38593423 0.23852047
0.023352413 0.040289208 0.045875601 0.14741376 -0.38593423 0.23852047
0.024082772 0.040449958 0.045930672 0.14741376 -0.38593423 0.23852047
0.024812927 0.040610664 0.045985866 0.14741376 -0.38593423 0.23852047
0.025537025 0.040791817 0.046031944 0.14741376 -0.38593423 0.23852047
0.026244722 0.04103028 0.046052307 0.14741376 -0.38593423 0.23852047
0.026952486 0.041268766 0.046072815 0.14741376 -0.38593423 0.23852047
0.027652293 0.041535929 0.046080567 0.14741376 -0.38593423 0.23852047
0.028338308 0.041853316 0.046065897 0.14741376 -0.38593423 0.23852047
0.029024649 0.042170856 0.046051361 0.14741376 -0.38593423 0.23852047
0.029700074 0.042529479 0.046018571 0.14741376 -0.38593423 0.23852047
0.030364756 0.0429294 0.045967471 0.14741376 -0.38593423 0.23852047
0.031030016 0.043329667 0.045916468 0.14741376 -0.38593423 0.23852047
0.031679127 0.043792423 0.0458377 0.14741376 -0.38593423 0.23852047
0.032322168 0.044281267 0.045747541 0.14741376 -0.38593423 0.23852047
0.032965314 0.044773486 0.045656174 0.14741376 -0.38593423 0.23852047
0.033584576 0.045360055 0.045522906 0.14741376 -0.38593423 0.23852047
0.034204926 0.045947656 0.04538954 0.14741376 -0.38593423 0.23852047
0.03481232 0.04659025 0.045231972 0.14741376 -0.38593423 0.23852047
0.035406552 0.047289807 0.045049373 0.14741376 -0.38593423 0.23852047
0.035997689 0.048008285 0.044858765 0.14741376 -0.38593423 0.23852047
0.036561731 0.04884024 0.044617999 0.14741376 -0.38593423 0.23852047
0.037127402 0.0496746 0.044376682 0.14741376 -0.38593423 0.23852047
0.037655622 0.050666906 0.044065543 0.14741376 -0.38593423 0.23852047
0.03818186 0.051678404 0.043746479 0.14741376 -0.38593423 0.23852047
0.038662631 0.052885007 0.043341264 0.14741376 -0.38593423 0.23852047
0.039118186 0.054208629 0.042884786 0.14741376 -0.38593423 0.23852047
0.039534092 0.055710908 0.042349771 0.14741376 -0.38593423 0.23852047
0.039850693 0.057641774 0.04162544 0.14741376 -0.38593423 0.23852047
0.039979495 0.060378321 0.040544912 0.14741376 -0.38593423 0.23852047
0.039999999 0.063605763 0.039248452 0.14741376 -0.38593423 0.23852047
0.039999999 0.066964887 0.037895624 0.14741376 -0.38593423 0.23852047
0.039999999 0.070371516 0.036523815 0.14741376 -0.38593423 0.23852047
0.039999999 0.073826686 0.035132609 0.14741376 -0.38593423 0.23852047
0.039381262 0.079999998 0.032541886 0.14741376 -0.38593423 0.23852047
0.00017722647 0.043471839 0.039999999 0.14741376 -0.38593423 0.23852047
0.00088987336 0.043751433 0.039999999 0.14741376 -0.38593423 0.23852047
0.0016025036 0.044031374 0.039999999 0.14741376 -0.38593423 0.23852047
0.0023151219 0.044311661 0.039999999 0.14741376 -0.38593423 0.23852047
0.0030277327 0.044592299 0.039999999 0.14741376 -0.38593423 0.23852047
0.0037403412 0.04487329 0.039999999 0.14741376 -0.38593423 0.23852047
0.0044529513 0.045154635 0.039999999 0.14741376 -0.38593423 0.23852047
0.0051655686 0.045436334 0.039999999 0.14741376 -0.38593423 0.23852047
0.005878197 0.045718394 0.039999999 0.14741376 -0.38593423 0.23852047
0.0069714719 0.044833332 0.040536579 0.14741376 -0.38593423 0.23852047
0.0080424566 0.044004049 0.041047007 0.14741376 -0.38593423 0.23852047
0.0090810722 0.04326281 0.04151652 0.14741376 -0.38593423 0.23852047
0.010068972 0.042668432 0.041918218 0.14741376 -0.38593423 0.23852047
0.011031155 0.042145036 0.042287018 0.14741376 -0.38593423 0.23852047
0.011960992 0.041714843 0.042612802 0.14741376 -0.38593423 0.23852047
0.012875058 0.041326877 0.042919002 0.14741376 -0.38593423 0.23852047
0.013758556 0.041029178 0.043183666 0.14741376 -0.38593423 0.23852047
0.014639853 0.04073222 0.043447815 0.14741376 -0.38593423 0.23852047
0.01548523 0.040545039 0.043661624 0.14741376 -0.38593423 0.23852047
0.016328579 0.040359423 0.043874614 0.14741376 -0.38593423 0.23852047
0.017155994 0.040220898 0.044066001 0.14741376 -0.38593423 0.23852047
0.017966764 0.040132694 0.044234361 0.14741376 -0.38593423 0.23852047
0.018776327 0.040044624 0.044402614 0.14741376 -0.38593423 0.23852047
0.019562894 0.040029299 0.04453769 0.14741376 -0.38593423 0.23852047
0.020344 0.040029299 0.044665784 0.14741376 -0.38593423 0.23852047
0.021122981 0.040033668 0.044791896 0.14741376 -0.38593423 0.23852047
0.021878233 0.040115833 0.044882659 0.14741376 -0.38593423 0.23852047
0.022632981 0.040197942 0.044973504 0.14741376 -0.38593423 0.23852047
0.023382615 0.040295858 0.045057226 0.14741376 -0.38593423 0.23852047
0.02411359 0.040456742 0.045112457 0.14741376 -0.38593423 0.23852047
0.024844356 0.040617578 0.045167811 0.14741376 -0.38593423 0.23852047
0.025568092 0.040802285 0.045212455 0.14741376 -0.38593423 0.23852047
0.026276395 0.041040953 0.045232795 0.14741376 -0.38593423 0.23852047
0.026984764 0.04127964 0.045253277 0.14741376 -0.38593423 0.23852047
0.027684156 0.04155067 0.045259289 0.14741376 -0.38593423 0.23852047
0.028370768 0.041868333 0.045244411 0.14741376 -0.38593423 0.23852047
0.029057708 0.042186148 0.045229662 0.14741376 -0.38593423 0.23852047
0.029732633 0.04254907 0.045194764 0.14741376 -0.38593423 0.23852047
0.030397909 0.042949345 0.045143258 0.14741376 -0.38593423 0.23852047
0.031063765 0.043349974 0.045091845 0.14741376 -0.38593423 0.23852047
0.03171226 0.04381761 0.045010511 0.14741376 -0.38593423 0.23852047
0.03235589 0.0443069 0.044919729 0.14741376 -0.38593423 0.23852047
0.032998268 0.044804696 0.044825435 0.14741376 -0.38593423 0.23852047
0.033618115 0.04539182 0.044691309 0.14741376 -0.38593423 0.23852047
0.03423905 0.045979977 0.044557091 0.14741376 -0.38593423 0.23852047
0.034845445 0.04662925 0.044395816 0.14741376 -0.38593423 0.23852047
0.035440259 0.047329489 0.044212092 0.14741376 -0.38593423 0.23852047
0.03603008 0.048056062 0.044017002 0.14741376 -0.38593423 0.23852047
0.036594693 0.048888862 0.043774795 0.14741376 -0.38593423 0.23852047
0.037159264 0.049730711 0.043529056 0.14741376 -0.38593423 0.23852047
0.037687361 0.050726771 0.043214865 0.14741376 -0.38593423 0.23852047
0.038211077 0.051751729 0.042888384 0.14741376 -0.38593423 0.23852047
0.038692392 0.052959695 0.042480797 0.14741376 -0.38593423 0.23852047
0.039144184 0.054302271 0.042013869 0.14741376 -0.38593423 0.23852047
0.039554104 0.055832971 0.041463863 0.14741376 -0.38593423 0.23852047
0.039871134 0.057766438 0.04073526 0.14741376 -0.38593423 0.23852047
0.039999999 0.06050754 0.039648075 0.14741376 -0.38593423 0.23852047
0.036137249 0.079999998 0.031105548 0.14741376 -0.38593423 0.23852047
0.039999999 0.067191094 0.036944311 0.14741376 -0.38593423 0.23852047
0.039999999 0.070603848 0.035563942 0.14741376 -0.38593423 0.23852047
0.039999999 0.07406529 0.034164026 0.14741376 -0.38593423 0.23852047
0.039999999 0.077576488 0.032744139 0.14741376 -0.38593423 0.23852047
0.00010022241 0.041387729 0.039999999 0.14741376 -0.38593423 0.23852047
0.00081052951 0.04166593 0.039999999 0.14741376 -0.38593423 0.23852047
0.0015208169 0.04194447 0.039999999 0.14741376 -0.38593423 0.23852047
0.0022310894 0.042223349 0.039999999 0.14741376 -0.38593423 0.23852047
0.0029413514 0.042502571 0.039999999 0.14741376 -0.38593423 0.23852047
0.0036516078 0.042782135 0.039999999 0.14741376 -0.38593423 0.23852047
0.0043618628 0.043062046 0.039999999 0.14741376 -0.38593423 0.23852047
0.0050721215 0.0433423 0.039999999 0.14741376 -0.38593423 0.23852047
0.0057823886 0.043622907 0.039999999 0.14741376 -0.38593423 0.23852047
0.0064926683 0.043903865 0.039999999 0.14741376 -0.38593423 0.23852047
0.0072029652 0.044185173 0.039999999 0.14741376 -0.38593423 0.23852047
0.0080700926 0.043983039 0.040223148 0.14741376 -0.38593423 0.23852047
0.0091076773 0.043246802 0.040692363 0.14741376 -0.38593423 0.23852047
0.010096314 0.042651977 0.041095983 0.14741376 -0.38593423 0.23852047
0.011057776 0.04213272 0.041464459 0.14741376 -0.38593423 0.23852047
0.011988321 0.0417022 0.041791789 0.14741376 -0.38593423 0.23852047
0.012901853 0.041317847 0.042097636 0.14741376 -0.38593423 0.23852047
0.013786036 0.041019917 0.042363539 0.14741376 -0.38593423 0.23852047
0.014667288 0.040725064 0.042627849 0.14741376 -0.38593423 0.23852047
0.015512959 0.040538937 0.04284209 0.14741376 -0.38593423 0.23852047
0.016356971 0.040353172 0.043056052 0.14741376 -0.38593423 0.23852047
0.01718403 0.04021785 0.043246791 0.14741376 -0.38593423 0.23852047
0.017995449 0.040129576 0.0434159 0.14741376 -0.38593423 0.23852047
0.018805658 0.040041432 0.043584898 0.14741376 -0.38593423 0.23852047
0.019591896 0.040029299 0.043719083 0.14741376 -0.38593423 0.23852047
0.020373635 0.040029299 0.043847717 0.14741376 -0.38593423 0.23852047
0.021152304 0.040036861 0.043972902 0.14741376 -0.38593423 0.23852047
0.021908179 0.040119089 0.044064011 0.14741376 -0.38593423 0.23852047
0.022663552 0.040201269 0.044155203 0.14741376 -0.38593423 0.23852047
0.023412859 0.040302515 0.044237752 0.14741376 -0.38593423 0.23852047
0.024144446 0.040463533 0.044293139 0.14741376 -0.38593423 0.23852047
0.024875827 0.040624507 0.044348653 0.14741376 -0.38593423 0.23852047
0.025599202 0.040812768 0.044391852 0.14741376 -0.38593423 0.23852047
0.02630811 0.041051637 0.044412166 0.14741376 -0.38593423 0.23852047
0.027017087 0.041290533 0.044432621 0.14741376 -0.38593423 0.23852047
0.027716059 0.041565433 0.044436883 0.14741376 -0.38593423 0.23852047
0.028403271 0.041883372 0.044421792 0.14741376 -0.38593423 0.23852047
0.029090812 0.042201467 0.044406828 0.14741376 -0.38593423 0.23852047
0.029765239 0.042568687 0.044369809 0.14741376 -0.38593423 0.23852047
0.030431109 0.04296932 0.04431789 0.14741376 -0.38593423 0.23852047
0.031097561 0.043370306 0.044266067 0.14741376 -0.38593423 0.23852047
0.031745441 0.043842833 0.044182148 0.14741376 -0.38593423 0.23852047
0.032389663 0.044332575 0.044090744 0.14741376 -0.38593423 0.23852047
0.033031266 0.044835955 0.043993492 0.14741376 -0.38593423 0.23852047
0.033651698 0.045423634 0.043858513 0.14741376 -0.38593423 0.23852047
0.034273222 0.046012346 0.043723438 0.14741376 -0.38593423 0.23852047
0.034878623 0.046668302 0.043558422 0.14741376 -0.38593423 0.23852047
0.035474014 0.047369227 0.04337357 0.14741376 -0.38593423 0.23852047
0.03606252 0.04810391 0.043173961 0.14741376 -0.38593423 0.23852047
0.03662771 0.048937559 0.042930305 0.14741376 -0.38593423 0.23852047
0.037190493 0.049789608 0.042678893 0.14741376 -0.38593423 0.23852047
0.037719153 0.050786734 0.042362854 0.14741376 -0.38593423 0.23852047
0.038240343 0.051825173 0.042028889 0.14741376 -0.38593423 0.23852047
0.038722202 0.053034507 0.041618917 0.14741376 -0.38593423 0.23852047
0.039170224 0.054396074 0.041141458 0.14741376 -0.38593423 0.23852047
0.039574157 0.055955257 0.040576316 0.14741376 -0.38593423 0.23852047
0.039976347 0.05754156 0.039999999 0.14741376 -0.38593423 0.23852047
0.039999999 0.060722426 0.038711347 0.14741376 -0.38593423 0.23852047
0.036191836 0.079999998 0.030228751 0.14741376 -0.38593423 0.23852047
0.039999999 0.067417823 0.035990823 0.14741376 -0.38593423 0.23852047
0.039999999 0.070836715 0.034601849 0.14741376 -0.38593423 0.23852047
0.039999999 0.074304454 0.033193182 0.14741376 -0.38593423 0.23852047
0.039999999 0.077822104 0.031764392 0.14741376 -0.38593423 0.23852047
2.3421662e-05 0.039318755 0.039999999 0.14741376 -0.38593423 0.23852047
0.00073140668 0.039595589 0.039999999 0.14741376 -0.38593423 0.23852047
0.0014393691 0.039872751 0.039999999 0.14741376 -0.38593423 0.23852047
0.0021473134 0.040150244 0.039999999 0.14741376 -0.38593423 0.23852047
0.0028552446 0.040428072 0.039999999 0.14741376 -0.38593423 0.23852047
0.0035631666 0.040706232 0.039999999 0.14741376 -0.38593423 0.23852047
0.0042710844 0.040984731 0.039999999 0.14741376 -0.38593423 0.23852047
0.0049790028 0.041263569 0.039999999 0.14741376 -0.38593423 0.23852047
0.0056869262 0.041542746 0.039999999 0.14741376 -0.38593423 0.23852047
0.0063948594 0.041822266 0.039999999 0.14741376 -0.38593423 0.23852047
0.0071028066 0.042102128 0.039999999 0.14741376 -0.38593423 0.23852047
0.0078107724 0.042382341 0.039999999 0.14741376 -0.38593423 0.23852047
0.008518762 0.0426629 0.039999999 0.14741376 -0.38593423 0.23852047
0.0092267795 0.042943805 0.039999999 0.14741376 -0.38593423 0.23852047
0.010123692 0.042635508 0.040272716 0.14741376 -0.38593423 0.23852047
0.011084431 0.04212039 0.04064085 0.14741376 -0.38593423 0.23852047
0.012015685 0.041689541 0.040969733 0.14741376 -0.38593423 0.23852047
0.012928682 0.041308805 0.041275211 0.14741376 -0.38593423 0.23852047
0.013813552 0.041010644 0.041542359 0.14741376 -0.38593423 0.23852047
0.014694386 0.040719099 0.041806269 0.14741376 -0.38593423 0.23852047
0.015540725 0.040532824 0.042021494 0.14741376 -0.38593423 0.23852047
0.016385401 0.040346917 0.042236432 0.14741376 -0.38593423 0.23852047
0.017212102 0.040214796 0.042426508 0.14741376 -0.38593423 0.23852047
0.018024169 0.04012645 0.042596366 0.14741376 -0.38593423 0.23852047
0.018835027 0.040038239 0.042766113 0.14741376 -0.38593423 0.23852047
0.019620936 0.040029299 0.042899396 0.14741376 -0.38593423 0.23852047
0.020403311 0.040029299 0.043028571 0.14741376 -0.38593423 0.23852047
0.021181667 0.040040053 0.043152813 0.14741376 -0.38593423 0.23852047
0.021938168 0.040122353 0.043244272 0.14741376 -0.38593423 0.23852047
0.022694163 0.040204596 0.043335807 0.14741376 -0.38593423 0.23852047
0.023443144 0.04030918 0.043417167 0.14741376 -0.38593423 0.23852047
0.024175346 0.040470332 0.043472718 0.14741376 -0.38593423 0.23852047
0.024907341 0.040631443 0.043528389 0.14741376 -0.38593423 0.23852047
0.025630355 0.040823266 0.043570131 0.14741376 -0.38593423 0.23852047
0.02633987 0.04106234 0.043590419 0.14741376 -0.38593423 0.23852047
0.027049452 0.041301437 0.043610848 0.14741376 -0.38593423 0.23852047
0.027748009 0.041580211 0.043613341 0.14741376 -0.38593423 0.23852047
0.028435821 0.041898433 0.043598033 0.14741376 -0.38593423 0.23852047
0.029123964 0.042216804 0.043582857 0.14741376 -0.38593423 0.23852047
0.029797889 0.042588331 0.043543693 0.14741376 -0.38593423 0.23852047
0.030464355 0.042989325 0.043491367 0.14741376 -0.38593423 0.23852047
0.031131404 0.043390669 0.043439131 0.14741376 -0.38593423 0.23852047
0.031778667 0.043868091 0.0433526 0.14741376 -0.38593423 0.23852047
0.032423481 0.044358283 0.043260574 0.14741376 -0.38593423 0.23852047
0.033064317 0.044867259 0.043160338 0.14741376 -0.38593423 0.23852047
0.033685334 0.045455493 0.043024503 0.14741376 -0.38593423 0.23852047
0.034307446 0.046044763 0.042888567 0.14741376 -0.38593423 0.23852047
0.034911845 0.046707418 0.042719785 0.14741376 -0.38593423 0.23852047
0.035507821 0.047409028 0.042533804 0.14741376 -0.38593423 0.23852047
0.036095008 0.048151832 0.042329639 0.14741376 -0.38593423 0.23852047
0.036660772 0.048986327 0.042084526 0.14741376 -0.38593423 0.23852047
0.037221767 0.049848601 0.041827396 0.14741376 -0.38593423 0.23852047
0.037750993 0.050846789 0.041509498 0.14741376 -0.38593423 0.23852047
0.038269654 0.05189874 0.041167989 0.14741376 -0.38593423 0.23852047
0.038752057 0.053109441 0.040755626 0.14741376 -0.38593423 0.23852047
0.039196312 0.054490037 0.040267538 0.14741376 -0.38593423 0.23852047
0.039763901 0.055382248 0.039999999 0.14741376 -0.38593423 0.23852047
0.039999999 0.05765358 0.03911306 0.14741376 -0.38593423 0.23852047
0.039999999 0.060937796 0.037772499 0.14741376 -0.38593423 0.23852047
0.039999999 0.064267963 0.036413327 0.14741376 -0.38593423 0.23852047
0.037074182 0.079999998 0.029492456 0.14741376 -0.38593423 0.23852047
0.039999999 0.071070127 0.033637531 0.14741376 -0.38593423 0.23852047
0.039999999 0.074544176 0.032220073 0.14741376 -0.38593423 0.23852047
0.039999999 0.078068301 0.030782335 0.14741376 -0.38593423 0.23852047
0.00065250642 0.03754022 0.039999999 0.14741376 -0.38593423 0.23852047
0.0013581612 0.037816025 0.039999999 0.14741376 -0.38593423 0.23852047
0.0020637952 0.038092159 0.039999999 0.14741376 -0.38593423 0.23852047
0.0027694127 0.038368613 0.039999999 0.14741376 -0.38593423 0.23852047
0.0034750183 0.038645394 0.039999999 0.14741376 -0.38593423 0.23852047
0.0041806167 0.038922507 0.039999999 0.14741376 -0.38593423 0.23852047
0.0048862128 0.039199948 0.039999999 0.14741376 -0.38593423 0.23852047
0.0055918102 0.039477721 0.039999999 0.14741376 -0.38593423 0.23852047
0.0062974142 0.039755825 0.039999999 0.14741376 -0.38593423 0.23852047
0.0070030293 0.040034268 0.039999999 0.14741376 -0.38593423 0.23852047
0.0077086599 0.040313046 0.039999999 0.14741376 -0.38593423 0.23852047
0.0084143104 0.040592168 0.039999999 0.14741376 -0.38593423 0.23852047
0.0091199866 0.040871628 0.039999999 0.14741376 -0.38593423 0.23852047
0.0098256916 0.041151434 0.039999999 0.14741376 -0.38593423 0.23852047
0.01053143 0.041431583 0.039999999 0.14741376 -0.38593423 0.23852047
0.011237207 0.041712079 0.039999999 0.14741376 -0.38593423 0.23852047
0.012043084 0.041676864 0.040146623 0.14741376 -0.38593423 0.23852047
0.012955546 0.041299753 0.040451724 0.14741376 -0.38593423 0.23852047
0.013841103 0.041001361 0.040720116 0.14741376 -0.38593423 0.23852047
0.014721519 0.040713128 0.040983614 0.14741376 -0.38593423 0.23852047
0.015568526 0.040526707 0.041199826 0.14741376 -0.38593423 0.23852047
0.016413867 0.040340651 0.041415744 0.14741376 -0.38593423 0.23852047
0.01724021 0.040211737 0.041605141 0.14741376 -0.38593423 0.23852047
0.018052928 0.040123321 0.041775756 0.14741376 -0.38593423 0.23852047
0.018864434 0.040035039 0.041946247 0.14741376 -0.38593423 0.23852047
0.019650014 0.040029299 0.042078618 0.14741376 -0.38593423 0.23852047
0.020433025 0.040029299 0.042208336 0.14741376 -0.38593423 0.23852047
0.021211069 0.040043253 0.042331625 0.14741376 -0.38593423 0.23852047
0.021968193 0.04012562 0.042423431 0.14741376 -0.38593423 0.23852047
0.022724815 0.040207934 0.042515315 0.14741376 -0.38593423 0.23852047
0.02347347 0.040315855 0.042595472 0.14741376 -0.38593423 0.23852047
0.024206286 0.040477142 0.042651184 0.14741376 -0.38593423 0.23852047
0.024938896 0.040638387 0.042707015 0.14741376 -0.38593423 0.23852047
0.025661549 0.040833779 0.042747281 0.14741376 -0.38593423 0.23852047
0.026371671 0.041073058 0.042767547 0.14741376 -0.38593423 0.23852047
0.027081862 0.041312359 0.04278795 0.14741376 -0.38593423 0.23852047
0.027780002 0.041595016 0.042788651 0.14741376 -0.38593423 0.23852047
0.028468415 0.041913513 0.042773131 0.14741376 -0.38593423 0.23852047
0.02915716 0.04223216 0.042757742 0.14741376 -0.38593423 0.23852047
0.029830586 0.042608004 0.042716417 0.14741376 -0.38593423 0.23852047
0.030497648 0.043009356 0.042663679 0.14741376 -0.38593423 0.23852047
0.031165294 0.043411061 0.042611029 0.14741376 -0.38593423 0.23852047
0.031811941 0.043893389 0.042521868 0.14741376 -0.38593423 0.23852047
0.032457348 0.044384029 0.042429216 0.14741376 -0.38593423 0.23852047
0.033097412 0.044898607 0.042325974 0.14741376 -0.38593423 0.23852047
0.033719018 0.045487396 0.042189278 0.14741376 -0.38593423 0.23852047
0.034341719 0.046077225 0.042052478 0.14741376 -0.38593423 0.23852047
0.034945119 0.046746589 0.041879896 0.14741376 -0.38593423 0.23852047
0.03554168 0.047448885 0.041692778 0.14741376 -0.38593423 0.23852047
0.036127549 0.048199829 0.041484021 0.14741376 -0.38593423 0.23852047
0.03669389 0.049035173 0.041237447 0.14741376 -0.38593423 0.23852047
0.037253093 0.049907684 0.040974554 0.14741376 -0.38593423 0.23852047
0.037782881 0.050906941 0.04065479 0.14741376 -0.38593423 0.23852047
0.038299017 0.051972426 0.040305674 0.14741376 -0.38593423 0.23852047
0.038841624 0.052943334 0.039999999 0.14741376 -0.38593423 0.23852047
0.03955273 0.053239357 0.039999999 0.14741376 -0.38593423 0.23852047
0.039999999 0.054618865 0.039510757 0.14741376 -0.38593423 0.23852047
0.039999999 0.061153654 0.036831524 0.14741376 -0.38593423 0.23852047
0.039999999 0.064489707 0.03546397 0.14741376 -0.38593423 0.23852047
0.039999999 0.067872837 0.034077257 0.14741376 -0.38593423 0.23852047
0.039999999 0.071304075 0.032670971 0.14741376 -0.38593423 0.23852047
0.039999999 0.074784458 0.031244684 0.14741376 -0.38593423 0.23852047
0.039999999 0.078315072 0.029797958 0.14741376 -0.38593423 0.23852047
0.00057383033 0.035499632 0.039999999 0.14741376 -0.38593423 0.23852047
0.0012771948 0.035774112 0.039999999 0.14741376 -0.38593423 0.23852047
0.0019805357 0.0360489 0.039999999 0.14741376 -0.38593423 0.23852047
0.002683857 0.036324009 0.039999999 0.14741376 -0.38593423 0.23852047
0.0033871636 0.036599435 0.039999999 0.14741376 -0.38593423 0.23852047
0.00409046 0.036875181 0.039999999 0.14741376 -0.38593423 0.23852047
0.0047937506 0.037151247 0.039999999 0.14741376 -0.38593423 0.23852047
0.0054970402 0.037427638 0.039999999 0.14741376 -0.38593423 0.23852047
0.0062003331 0.037704356 0.039999999 0.14741376 -0.38593423 0.23852047
0.0069036339 0.037981398 0.039999999 0.14741376 -0.38593423 0.23852047
0.0076069469 0.038258772 0.039999999 0.14741376 -0.38593423 0.23852047
0.008310277 0.038536478 0.039999999 0.14741376 -0.38593423 0.23852047
0.0090136286 0.038814515 0.039999999 0.14741376 -0.38593423 0.23852047
0.0097170062 0.039092887 0.039999999 0.14741376 -0.38593423 0.23852047
0.010420414 0.039371595 0.039999999 0.14741376 -0.38593423 0.23852047
0.011123857 0.039650645 0.039999999 0.14741376 -0.38593423 0.23852047
0.011827339 0.039930031 0.039999999 0.14741376 -0.38593423 0.23852047
0.012530867 0.040209763 0.039999999 0.14741376 -0.38593423 0.23852047
0.013234442 0.040489838 0.039999999 0.14741376 -0.38593423 0.23852047
0.013938071 0.040770259 0.039999999 0.14741376 -0.38593423 0.23852047
0.014748689 0.040707149 0.040159881 0.14741376 -0.38593423 0.23852047
0.015596364 0.040520579 0.040377077 0.14741376 -0.38593423 0.23852047
0.016442372 0.040334377 0.040593982 0.14741376 -0.38593423 0.23852047
0.017268356 0.040208675 0.04078269 0.14741376 -0.38593423 0.23852047
0.018081725 0.040120188 0.040954057 0.14741376 -0.38593423 0.23852047
0.018893881 0.040031835 0.041125301 0.14741376 -0.38593423 0.23852047
0.019679131 0.040029299 0.041256744 0.14741376 -0.38593423 0.23852047
0.020462779 0.040029299 0.041387007 0.14741376 -0.38593423 0.23852047
0.021240512 0.040046457 0.04150933 0.14741376 -0.38593423 0.23852047
0.021998262 0.04012889 0.041601487 0.14741376 -0.38593423 0.23852047
0.022755507 0.040211271 0.041693717 0.14741376 -0.38593423 0.23852047
0.023503836 0.040322538 0.04177266 0.14741376 -0.38593423 0.23852047
0.02423727 0.040483963 0.041828532 0.14741376 -0.38593423 0.23852047
0.024970496 0.040645342 0.041884523 0.14741376 -0.38593423 0.23852047
0.025692787 0.040844303 0.041923296 0.14741376 -0.38593423 0.23852047
0.026403518 0.041083787 0.041943539 0.14741376 -0.38593423 0.23852047
0.027114319 0.041323297 0.041963916 0.14741376 -0.38593423 0.23852047
0.027812039 0.041609839 0.041962814 0.14741376 -0.38593423 0.23852047
0.028501056 0.041928612 0.041947082 0.14741376 -0.38593423 0.23852047
0.029190402 0.042247541 0.041931473 0.14741376 -0.38593423 0.23852047
0.02986333 0.042627707 0.041887969 0.14741376 -0.38593423 0.23852047
0.030530987 0.043029416 0.041834816 0.14741376 -0.38593423 0.23852047
0.031199234 0.043431479 0.041781753 0.14741376 -0.38593423 0.23852047
0.031845264 0.043918721 0.041689936 0.14741376 -0.38593423 0.23852047
0.032491263 0.044409811 0.041596659 0.14741376 -0.38593423 0.23852047
0.033130556 0.044930004 0.041490383 0.14741376 -0.38593423 0.23852047
0.033752751 0.045519348 0.041352823 0.14741376 -0.38593423 0.23852047
0.03437604 0.046109736 0.041215159 0.14741376 -0.38593423 0.23852047
0.034978442 0.046785817 0.041038752 0.14741376 -0.38593423 0.23852047
0.035575587 0.047488805 0.040850494 0.14741376 -0.38593423 0.23852047
0.036160138 0.048247896 0.040637106 0.14741376 -0.38593423 0.23852047
0.036727056 0.049084093 0.040389068 0.14741376 -0.38593423 0.23852047
0.037284471 0.049966864 0.040120356 0.14741376 -0.38593423 0.23852047
0.037925832 0.050524678 0.039999999 0.14741376 -0.38593423 0.23852047
0.038634215 0.050818473 0.039999999 0.14741376 -0.38593423 0.23852047
0.039342821 0.051112685 0.039999999 0.14741376 -0.38593423 0.23852047
0.039999999 0.051617716 0.039904498 0.14741376 -0.38593423 0.23852047
0.039999999 0.054823838 0.038584046 0.14741376 -0.38593423 0.23852047
0.039999999 0.058074288 0.037245475 0.14741376 -0.38593423 0.23852047
0.039999999 0.061370004 0.035888404 0.14741376 -0.38593423 0.23852047
0.036356017 0.079999998 0.027591519 0.14741376 -0.38593423 0.23852047
0.039999999 0.068101138 0.033117156 0.14741376 -0.38593423 0.23852047
0.039999999 0.071538568 0.031702157 0.14741376 -0.38593423 0.23852047
0.039999999 0.075025305 0.030267 0.14741376 -0.38593423 0.23852047
0.039999999 0.078562438 0.028811248 0.14741376 -0.38593423 0.23852047
0.00049538002 0.033473652 0.039999999 0.14741376 -0.38593423 0.23852047
0.0011964713 0.03374682 0.039999999 0.14741376 -0.38593423 0.23852047
0.001897536 0.034020294 0.039999999 0.14741376 -0.38593423 0.23852047
0.0025985783 0.034294076 0.039999999 0.14741376 -0.38593423 0.23852047
0.0032996032 0.034568164 0.039999999 0.14741376 -0.38593423 0.23852047
0.0040006149 0.034842569 0.039999999 0.14741376 -0.38593423 0.23852047
0.0047016176 0.035117287 0.039999999 0.14741376 -0.38593423 0.23852047
0.0054026162 0.035392318 0.039999999 0.14741376 -0.38593423 0.23852047
0.0061036153 0.035667669 0.039999999 0.14741376 -0.38593423 0.23852047
0.006804619 0.035943337 0.039999999 0.14741376 -0.38593423 0.23852047
0.0075056325 0.036219329 0.039999999 0.14741376 -0.38593423 0.23852047
0.008206659 0.036495641 0.039999999 0.14741376 -0.38593423 0.23852047
0.0089077037 0.036772277 0.039999999 0.14741376 -0.38593423 0.23852047
0.0096087717 0.037049241 0.039999999 0.14741376 -0.38593423 0.23852047
0.010309868 0.037326533 0.039999999 0.14741376 -0.38593423 0.23852047
0.011010994 0.037604157 0.039999999 0.14741376 -0.38593423 0.23852047
0.011712157 0.037882112 0.039999999 0.14741376 -0.38593423 0.23852047
0.012413361 0.038160402 0.039999999 0.14741376 -0.38593423 0.23852047
0.013114611 0.038439024 0.039999999 0.14741376 -0.38593423 0.23852047
0.01381591 0.038717989 0.039999999 0.14741376 -0.38593423 0.23852047
0.014517264 0.038997289 0.039999999 0.14741376 -0.38593423 0.23852047
0.015218675 0.039276935 0.039999999 0.14741376 -0.38593423 0.23852047
0.015920151 0.039556921 0.039999999 0.14741376 -0.38593423 0.23852047
0.016621694 0.039837252 0.039999999 0.14741376 -0.38593423 0.23852047
0.01732331 0.040117934 0.039999999 0.14741376 -0.38593423 0.23852047
0.01811056 0.040117051 0.040131271 0.14741376 -0.38593423 0.23852047
0.018923163 0.040029299 0.040302955 0.14741376 -0.38593423 0.23852047
0.019708289 0.040029299 0.040433772 0.14741376 -0.38593423 0.23852047
0.020492572 0.040029299 0.040564578 0.14741376 -0.38593423 0.23852047
0.021269992 0.040049665 0.040685918 0.14741376 -0.38593423 0.23852047
0.02202837 0.040132165 0.040778428 0.14741376 -0.38593423 0.23852047
0.022786241 0.040214613 0.040871006 0.14741376 -0.38593423 0.23852047
0.023534246 0.040329229 0.040948719 0.14741376 -0.38593423 0.23852047
0.024268296 0.040490791 0.041004755 0.14741376 -0.38593423 0.23852047
0.025002139 0.040652305 0.041060906 0.14741376 -0.38593423 0.23852047
0.025724068 0.040854841 0.041098174 0.14741376 -0.38593423 0.23852047
0.026435409 0.041094534 0.041118391 0.14741376 -0.38593423 0.23852047
0.027146818 0.041334245 0.041138742 0.14741376 -0.38593423 0.23852047
0.027844122 0.04162468 0.041135821 0.14741376 -0.38593423 0.23852047
0.028533742 0.041943736 0.041119874 0.14741376 -0.38593423 0.23852047
0.029223692 0.042262942 0.041104048 0.14741376 -0.38593423 0.23852047
0.02989612 0.042647433 0.041058343 0.14741376 -0.38593423 0.23852047
0.030564375 0.043049507 0.041004777 0.14741376 -0.38593423 0.23852047
0.031232882 0.043453183 0.040950723 0.14741376 -0.38593423 0.23852047
0.031878635 0.043944087 0.040856808 0.14741376 -0.38593423 0.23852047
0.032525226 0.044435631 0.040762901 0.14741376 -0.38593423 0.23852047
0.033163749 0.044961445 0.040653564 0.14741376 -0.38593423 0.23852047
0.033786532 0.045551348 0.040515143 0.14741376 -0.38593423 0.23852047
0.034410417 0.046142295 0.040376607 0.14741376 -0.38593423 0.23852047
0.035011817 0.046825107 0.040196341 0.14741376 -0.38593423 0.23852047
0.035609547 0.047528781 0.040006943 0.14741376 -0.38593423 0.23852047
0.03631093 0.047834747 0.039999999 0.14741376 -0.38593423 0.23852047
0.037016425 0.048125956 0.039999999 0.14741376 -0.38593423 0.23852047
0.037722126 0.048417568 0.039999999 0.14741376 -0.38593423 0.23852047
0.038428035 0.04870959 0.039999999 0.14741376 -0.38593423 0.23852047
0.039134156 0.049002025 0.039999999 0.14741376 -0.38593423 0.23852047
0.039840501 0.049294867 0.039999999 0.14741376 -0.38593423 0.23852047
0.033084728 0.079999998 0.026137613 0.14741376 -0.38593423 0.23852047
0.039999999 0.055029269 0.037655253 0.14741376 -0.38593423 0.23852047
0.039999999 0.058285356 0.036308516 0.14741376 -0.38593423 0.23852047
0.039999999 0.061586849 0.03494313 0.14741376 -0.38593423 0.23852047
0.039999999 0.064934716 0.033558704 0.14741376 -0.38593423 0.23852047
0.037240542 0.079999998 0.026853299 0.14741376 -0.38593423 0.23852047
0.039999999 0.071773611 0.030731073 0.14741376 -0.38593423 0.23852047
0.039999999 0.075266726 0.02928701 0.14741376 -0.38593423 0.23852047
0.039999999 0.078810386 0.027822193 0.14741376 -0.38593423 0.23852047
0.00041715699 0.031462096 0.039999999 0.14741376 -0.38593423 0.23852047
0.001115992 0.031733975 0.039999999 0.14741376 -0.38593423 0.23852047
0.0018147974 0.032006152 0.039999999 0.14741376 -0.38593423 0.23852047
0.0025135779 0.032278631 0.039999999 0.14741376 -0.38593423 0.23852047
0.0032123378 0.032551412 0.039999999 0.14741376 -0.38593423 0.23852047
0.0039110817 0.032824494 0.039999999 0.14741376 -0.38593423 0.23852047
0.0046098139 0.033097882 0.039999999 0.14741376 -0.38593423 0.23852047
0.0053085391 0.033371579 0.039999999 0.14741376 -0.38593423 0.23852047
0.0060072611 0.033645585 0.039999999 0.14741376 -0.38593423 0.23852047
0.0067059854 0.033919901 0.039999999 0.14741376 -0.38593423 0.23852047
0.0074047158 0.034194529 0.039999999 0.14741376 -0.38593423 0.23852047
0.0081034563 0.034469474 0.039999999 0.14741376 -0.38593423 0.23852047
0.0088022128 0.034744736 0.039999999 0.14741376 -0.38593423 0.23852047
0.0095009888 0.035020314 0.039999999 0.14741376 -0.38593423 0.23852047
0.010199788 0.035296213 0.039999999 0.14741376 -0.38593423 0.23852047
0.010898616 0.035572436 0.039999999 0.14741376 -0.38593423 0.23852047
0.011597478 0.035848979 0.039999999 0.14741376 -0.38593423 0.23852047
0.012296376 0.03612585 0.039999999 0.14741376 -0.38593423 0.23852047
0.012995317 0.036403049 0.039999999 0.14741376 -0.38593423 0.23852047
0.013694304 0.036680575 0.039999999 0.14741376 -0.38593423 0.23852047
0.014393342 0.036958434 0.039999999 0.14741376 -0.38593423 0.23852047
0.015092435 0.037236623 0.039999999 0.14741376 -0.38593423 0.23852047
0.015791588 0.037515152 0.039999999 0.14741376 -0.38593423 0.23852047
0.016490806 0.037794016 0.039999999 0.14741376 -0.38593423 0.23852047
0.017190091 0.038073219 0.039999999 0.14741376 -0.38593423 0.23852047
0.017889451 0.038352761 0.039999999 0.14741376 -0.38593423 0.23852047
0.018588889 0.038632646 0.039999999 0.14741376 -0.38593423 0.23852047
0.01928841 0.038912877 0.039999999 0.14741376 -0.38593423 0.23852047
0.019988015 0.039193455 0.039999999 0.14741376 -0.38593423 0.23852047
0.020687712 0.039474379 0.039999999 0.14741376 -0.38593423 0.23852047
0.021387506 0.039755657 0.039999999 0.14741376 -0.38593423 0.23852047
0.022087401 0.040037282 0.039999999 0.14741376 -0.38593423 0.23852047
0.022817018 0.040217962 0.04004718 0.14741376 -0.38593423 0.23852047
0.023564696 0.040335931 0.040123649 0.14741376 -0.38593423 0.23852047
0.024299365 0.040497631 0.040179845 0.14741376 -0.38593423 0.23852047
0.025033824 0.040659279 0.040236156 0.14741376 -0.38593423 0.23852047
0.025755392 0.040865399 0.040271908 0.14741376 -0.38593423 0.23852047
0.026467344 0.041105293 0.040292099 0.14741376 -0.38593423 0.23852047
0.027179362 0.041345213 0.040312421 0.14741376 -0.38593423 0.23852047
0.02787625 0.041639544 0.040307663 0.14741376 -0.38593423 0.23852047
0.028566472 0.04195888 0.040291499 0.14741376 -0.38593423 0.23852047
0.029257029 0.042278364 0.040275458 0.14741376 -0.38593423 0.23852047
0.029928956 0.042667191 0.040227532 0.14741376 -0.38593423 0.23852047
0.030597812 0.043069623 0.040173553 0.14741376 -0.38593423 0.23852047
0.031265706 0.043478135 0.04011701 0.14741376 -0.38593423 0.23852047
0.031912055 0.043969493 0.040022466 0.14741376 -0.38593423 0.23852047
0.032600921 0.044305306 0.039999999 0.14741376 -0.38593423 0.23852047
0.033303037 0.044592835 0.039999999 0.14741376 -0.38593423 0.23852047
0.034005329 0.044880755 0.039999999 0.14741376 -0.38593423 0.23852047
0.034707803 0.045169059 0.039999999 0.14741376 -0.38593423 0.23852047
0.035410464 0.045457758 0.039999999 0.14741376 -0.38593423 0.23852047
0.036113318 0.045746848 0.039999999 0.14741376 -0.38593423 0.23852047
0.036816366 0.046036329 0.039999999 0.14741376 -0.38593423 0.23852047
0.037519615 0.046326209 0.039999999 0.14741376 -0.38593423 0.23852047
0.038223069 0.046616487 0.039999999 0.14741376 -0.38593423 0.23852047
0.038926736 0.046907168 0.039999999 0.14741376 -0.38593423 0.23852047
0.03963061 0.047198247 0.039999999 0.14741376 -0.38593423 0.23852047
0.039999999 0.048844542 0.039379459 0.14741376 -0.38593423 0.23852047
0.039999999 0.055235162 0.036724366 0.14741376 -0.38593423 0.23852047
0.039999999 0.058496904 0.035369422 0.14741376 -0.38593423 0.23852047
0.039999999 0.06180419 0.033995692 0.14741376 -0.38593423 0.23852047
0.039999999 0.065157995 0.032602776 0.14741376 -0.38593423 0.23852047
0.039999999 0.068559326 0.031190258 0.14741376 -0.38593423 0.23852047
0.039999999 0.072009206 0.029757712 0.14741376 -0.38593423 0.23852047
0.039999999 0.075508714 0.028304702 0.14741376 -0.38593423 0.23852047
0.03978261 0.079999998 0.026402351 0.14741376 -0.38593423 0.23852047
0.00033916289 0.029464787 0.039999999 0.14741376 -0.38593423 0.23852047
0.0010357581 0.029735399 0.039999999 0.14741376 -0.38593423 0.23852047
0.001732321 0.030006303 0.039999999 0.14741376 -0.38593423 0.23852047
0.0024288562 0.030277498 0.039999999 0.14741376 -0.38593423 0.23852047
0.0031253682 0.030548988 0.039999999 0.14741376 -0.38593423 0.23852047
0.003821861 0.030820774 0.039999999 0.14741376 -0.38593423 0.23852047
0.0045183394 0.031092856 0.039999999 0.14741376 -0.38593423 0.23852047
0.0052148076 0.031365238 0.039999999 0.14741376 -0.38593423 0.23852047
0.0059112706 0.031637922 0.039999999 0.14741376 -0.38593423 0.23852047
0.0066077318 0.031910907 0.039999999 0.14741376 -0.38593423 0.23852047
0.0073041962 0.032184198 0.039999999 0.14741376 -0.38593423 0.23852047
0.0080006691 0.032457799 0.039999999 0.14741376 -0.38593423 0.23852047
0.0086971531 0.032731704 0.039999999 0.14741376 -0.38593423 0.23852047
0.0093936538 0.033005919 0.039999999 0.14741376 -0.38593423 0.23852047
0.010090175 0.033280451 0.039999999 0.14741376 -0.38593423 0.23852047
0.010786722 0.033555292 0.039999999 0.14741376 -0.38593423 0.23852047
0.011483299 0.033830449 0.039999999 0.14741376 -0.38593423 0.23852047
0.012179909 0.034105923 0.039999999 0.14741376 -0.38593423 0.23852047
0.012876559 0.034381717 0.039999999 0.14741376 -0.38593423 0.23852047
0.013573252 0.034657836 0.039999999 0.14741376 -0.38593423 0.23852047
0.014269992 0.034934275 0.039999999 0.14741376 -0.38593423 0.23852047
0.014966784 0.035211038 0.039999999 0.14741376 -0.38593423 0.23852047
0.015663633 0.035488129 0.039999999 0.14741376 -0.38593423 0.23852047
0.016360542 0.035765547 0.039999999 0.14741376 -0.38593423 0.23852047
0.017057516 0.036043297 0.039999999 0.14741376 -0.38593423 0.23852047
0.01775456 0.036321379 0.039999999 0.14741376 -0.38593423 0.23852047
