# .PCD v0.7 - Point Cloud Data file format
VERSION 0.7
FIELDS x y z vp_x vp_y vp_z
SIZE 4 4 4 4 4 4
TYPE F F F F F F
COUNT 1 1 1 1 1 1
WIDTH 920
HEIGHT 1
VIEWPOINT 0 0 0 1 0 0 0
POINTS 920
DATA ascii
0.021297459 0.040052652 0.06342116 0 -0.47704095 0
0.022105856 0.040140595 0.063436083 0 -0.47704095 0
0.022914637 0.040228583 0.063451163 0 -0.47704095 0
0.02372632 0.040371504 0.063473143 0 -0.47704095 0
0.024540281 0.040550653 0.063499719 0 -0.47704095 0
0.025354952 0.040730465 0.063526534 0 -0.47704095 0
0.026175182 0.041006848 0.063565359 0 -0.47704095 0
0.026996419 0.04128357 0.063604377 0 -0.47704095 0
0.027821543 0.041614234 0.063650183 0 -0.47704095 0
0.028650755 0.041997872 0.063702643 0 -0.47704095 0
0.029482262 0.042398427 0.063757353 0 -0.47704095 0
0.030321239 0.042903215 0.063825011 0 -0.47704095 0
0.031161999 0.043409079 0.063892975 0 -0.47704095 0
0.032012533 0.044045877 0.063977182 0 -0.47704095 0
0.03286596 0.044694662 0.064063028 0 -0.47704095 0
0.033731636 0.045499351 0.064168185 0 -0.47704095 0
0.034602586 0.046343341 0.064278357 0 -0.47704095 0
0.035489909 0.047387939 0.064413339 0 -0.47704095 0
0.036391512 0.04858917 0.064567745 0 -0.47704095 0
0.037313394 0.050021417 0.064750724 0 -0.47704095 0
0.038272683 0.05190634 0.064989515 0 -0.47704095 0
0.03932358 0.054948445 0.065370709 0 -0.47704095 0
0.00041401904 0.056027357 0.064484768 0 -0.47704095 0
0.0012353342 0.053141154 0.064135782 0 -0.47704095 0
0.002051434 0.051219407 0.063903622 0 -0.47704095 0
0.002863694 0.049687672 0.063718788 0 -0.47704095 0
0.0036735663 0.048493203 0.063574903 0 -0.47704095 0
0.0044808025 0.04742245 0.063446142 0 -0.47704095 0
0.0052859737 0.046474531 0.063332386 0 -0.47704095 0
0.0060898773 0.045668397 0.063235931 0 -0.47704095 0
0.0068919184 0.044908687 0.063145243 0 -0.47704095 0
0.0076934095 0.044269398 0.063069269 0 -0.47704095 0
0.0084934579 0.043661192 0.062997207 0 -0.47704095 0
0.0092931269 0.043135226 0.062935241 0 -0.47704095 0
0.010092085 0.042654525 0.062878907 0 -0.47704095 0
0.01089036 0.042210177 0.06282711 0 -0.47704095 0
0.011688993 0.041840684 0.06278453 0 -0.47704095 0
0.012486546 0.041471694 0.062742151 0 -0.47704095 0
0.013285217 0.041188668 0.062710322 0 -0.47704095 0
0.014083453 0.040919699 0.062680349 0 -0.47704095 0
0.014881702 0.040677872 0.06265381 0 -0.47704095 0
0.015681267 0.040501893 0.062635385 0 -0.47704095 0
0.016480362 0.040326014 0.062617123 0 -0.47704095 0
0.017280901 0.040207312 0.062605925 0 -0.47704095 0
0.018082255 0.040120132 0.062598698 0 -0.47704095 0
0.018883428 0.040032972 0.062591627 0 -0.47704095 0
0.019687599 0.040029299 0.062594809 0 -0.47704095 0
0.020491999 0.040029299 0.062598586 0 -0.47704095 0
0.021297459 0.040052652 0.062605336 0 -0.47704095 0
0.022105856 0.040140595 0.062620066 0 -0.47704095 0
0.022914637 0.040228583 0.06263496 0 -0.47704095 0
0.02372632 0.040371504 0.062656648 0 -0.47704095 0
0.024540281 0.040550653 0.062682882 0 -0.47704095 0
0.025354952 0.040730465 0.062709354 0 -0.47704095 0
0.026175182 0.041006848 0.06274768 0 -0.47704095 0
0.026996419 0.04128357 0.062786199 0 -0.47704095 0
0.027821543 0.041614234 0.062831409 0 -0.47704095 0
0.028650755 0.041997872 0.062883206 0 -0.47704095 0
0.029482262 0.042398427 0.0629372 0 -0.47704095 0
0.030321239 0.042903215 0.063003995 0 -0.47704095 0
0.031161999 0.043409079 0.06307108 0 -0.47704095 0
0.032012533 0.044045877 0.063154206 0 -0.47704095 0
0.03286596 0.044694662 0.063238949 0 -0.47704095 0
0.033731636 0.045499351 0.063342758 0 -0.47704095 0
0.034602586 0.046343341 0.063451506 0 -0.47704095 0
0.035489909 0.047387939 0.063584752 0 -0.47704095 0
0.036391512 0.04858917 0.063737169 0 -0.47704095 0
0.037313394 0.050021417 0.063917793 0 -0.47704095 0
0.038272683 0.05190634 0.064153515 0 -0.47704095 0
0.03932358 0.054948445 0.064529806 0 -0.47704095 0
0.00041401904 0.056027357 0.063644774 0 -0.47704095 0
0.0012353342 0.053141154 0.063300334 0 -0.47704095 0
0.002051434 0.051219407 0.063071191 0 -0.47704095 0
0.002863694 0.049687672 0.062888764 0 -0.47704095 0
0.0036735663 0.048493203 0.062746756 0 -0.47704095 0
0.0044808025 0.04742245 0.062619671 0 -0.47704095 0
0.0052859737 0.046474531 0.062507398 0 -0.47704095 0
0.0060898773 0.045668397 0.062412199 0 -0.47704095 0
0.0068919184 0.044908687 0.062322691 0 -0.47704095 0
0.0076934095 0.044269398 0.062247708 0 -0.47704095 0
0.0084934579 0.043661192 0.062176585 0 -0.47704095 0
0.0092931269 0.043135226 0.062115431 0 -0.47704095 0
0.010092085 0.042654525 0.062059827 0 -0.47704095 0
0.01089036 0.042210177 0.062008709 0 -0.47704095 0
0.011688993 0.041840684 0.06196668 0 -0.47704095 0
0.012486546 0.041471694 0.061924852 0 -0.47704095 0
0.013285217 0.041188668 0.061893441 0 -0.47704095 0
0.014083453 0.040919699 0.061863858 0 -0.47704095 0
0.014881702 0.040677872 0.061837658 0 -0.47704095 0
0.015681267 0.040501893 0.061819475 0 -0.47704095 0
0.016480362 0.040326014 0.061801452 0 -0.47704095 0
0.017280901 0.040207312 0.061790403 0 -0.47704095 0
0.018082255 0.040120132 0.061783269 0 -0.47704095 0
0.018883428 0.040032972 0.061776288 0 -0.47704095 0
0.019687599 0.040029299 0.061779428 0 -0.47704095 0
0.020491999 0.040029299 0.061783154 0 -0.47704095 0
0.021297459 0.040052652 0.061789826 0 -0.47704095 0
0.022105856 0.040140595 0.061804362 0 -0.47704095 0
0.022914637 0.040228583 0.061819054 0 -0.47704095 0
0.02372632 0.040371504 0.061840467 0 -0.47704095 0
0.024540281 0.040550653 0.061866358 0 -0.47704095 0
0.025354952 0.040730465 0.061892483 0 -0.47704095 0
0.026175182 0.041006848 0.061930306 0 -0.47704095 0
0.026996419 0.04128357 0.061968327 0 -0.47704095 0
0.027821543 0.041614234 0.062012952 0 -0.47704095 0
0.028650755 0.041997872 0.062064067 0 -0.47704095 0
0.029482262 0.042398427 0.062117364 0 -0.47704095 0
0.030321239 0.042903215 0.062183287 0 -0.47704095 0
0.031161999 0.043409079 0.0622495 0 -0.47704095 0
0.032012533 0.044045877 0.062331539 0 -0.47704095 0
0.03286596 0.044694662 0.062415175 0 -0.47704095 0
0.033731636 0.045499351 0.062517636 0 -0.47704095 0
0.034602586 0.046343341 0.062624969 0 -0.47704095 0
0.035489909 0.047387939 0.062756479 0 -0.47704095 0
0.036391512 0.04858917 0.062906913 0 -0.47704095 0
0.037313394 0.050021417 0.063085184 0 -0.47704095 0
0.038272683 0.05190634 0.063317835 0 -0.47704095 0
0.03932358 0.054948445 0.063689224 0 -0.47704095 0
0.00041401904 0.056027357 0.062805086 0 -0.47704095 0
0.0012353342 0.053141154 0.062465191 0 -0.47704095 0
0.002051434 0.051219407 0.062239073 0 -0.47704095 0
0.002863694 0.049687672 0.062059056 0 -0.47704095 0
0.0036735663 0.048493203 0.061918922 0 -0.47704095 0
0.0044808025 0.04742245 0.06179351 0 -0.47704095 0
0.0052859737 0.046474531 0.061682716 0 -0.47704095 0
0.0060898773 0.045668397 0.061588775 0 -0.47704095 0
0.0068919184 0.044908687 0.061500449 0 -0.47704095 0
0.0076934095 0.044269398 0.061426457 0 -0.47704095 0
0.0084934579 0.043661192 0.061356269 0 -0.47704095 0
0.0092931269 0.043135226 0.061295919 0 -0.47704095 0
0.010092085 0.042654525 0.061241049 0 -0.47704095 0
0.01089036 0.042210177 0.061190609 0 -0.47704095 0
0.011688993 0.041840684 0.061149132 0 -0.47704095 0
0.012486546 0.041471694 0.061107859 0 -0.47704095 0
0.013285217 0.041188668 0.061076861 0 -0.47704095 0
0.014083453 0.040919699 0.061047666 0 -0.47704095 0
0.014881702 0.040677872 0.061021816 0 -0.47704095 0
0.015681267 0.040501893 0.061003871 0 -0.47704095 0
0.016480362 0.040326014 0.060986083 0 -0.47704095 0
0.017280901 0.040207312 0.060975183 0 -0.47704095 0
0.018082255 0.040120132 0.060968142 0 -0.47704095 0
0.018883428 0.040032972 0.06096125 0 -0.47704095 0
0.019687599 0.040029299 0.06096435 0 -0.47704095 0
0.020491999 0.040029299 0.06096803 0 -0.47704095 0
0.021297459 0.040052652 0.060974609 0 -0.47704095 0
0.022105856 0.040140595 0.060988955 0 -0.47704095 0
0.022914637 0.040228583 0.061003454 0 -0.47704095 0
0.02372632 0.040371504 0.061024584 0 -0.47704095 0
0.024540281 0.040550653 0.061050136 0 -0.47704095 0
0.025354952 0.040730465 0.061075915 0 -0.47704095 0
0.026175182 0.041006848 0.061113238 0 -0.47704095 0
0.026996419 0.04128357 0.061150759 0 -0.47704095 0
0.027821543 0.041614234 0.061194792 0 -0.47704095 0
0.028650755 0.041997872 0.061245237 0 -0.47704095 0
0.029482262 0.042398427 0.06129783 0 -0.47704095 0
0.030321239 0.042903215 0.061362881 0 -0.47704095 0
0.031161999 0.043409079 0.061428223 0 -0.47704095 0
0.032012533 0.044045877 0.061509177 0 -0.47704095 0
0.03286596 0.044694662 0.061591711 0 -0.47704095 0
0.033731636 0.045499351 0.061692819 0 -0.47704095 0
0.034602586 0.046343341 0.061798733 0 -0.47704095 0
0.035489909 0.047387939 0.061928511 0 -0.47704095 0
0.036391512 0.04858917 0.06207696 0 -0.47704095 0
0.037313394 0.050021417 0.062252879 0 -0.47704095 0
0.038272683 0.05190634 0.062482458 0 -0.47704095 0
0.03932358 0.054948445 0.062848948 0 -0.47704095 0
0.00041401904 0.056027357 0.061965708 0 -0.47704095 0
0.0012353342 0.053141154 0.061630353 0 -0.47704095 0
0.002051434 0.051219407 0.061407257 0 -0.47704095 0
0.002863694 0.049687672 0.061229646 0 -0.47704095 0
0.0036735663 0.048493203 0.061091386 0 -0.47704095 0
0.0044808025 0.04742245 0.06096765 0 -0.47704095 0
0.0052859737 0.046474531 0.060858335 0 -0.47704095 0
0.0060898773 0.045668397 0.06076565 0 -0.47704095 0
0.0068919184 0.044908687 0.060678504 0 -0.47704095 0
0.0076934095 0.044269398 0.0606055 0 -0.47704095 0
0.0084934579 0.043661192 0.060536254 0 -0.47704095 0
0.0092931269 0.043135226 0.060476713 0 -0.47704095 0
0.010092085 0.042654525 0.060422573 0 -0.47704095 0
0.01089036 0.042210177 0.060372807 0 -0.47704095 0
0.011688993 0.041840684 0.060331885 0 -0.47704095 0
0.012486546 0.041471694 0.060291164 0 -0.47704095 0
0.013285217 0.041188668 0.060260579 0 -0.47704095 0
0.014083453 0.040919699 0.060231775 0 -0.47704095 0
0.014881702 0.040677872 0.060206268 0 -0.47704095 0
0.015681267 0.040501893 0.060188565 0 -0.47704095 0
0.016480362 0.040326014 0.060171016 0 -0.47704095 0
0.017280901 0.040207312 0.060160257 0 -0.47704095 0
0.018082255 0.040120132 0.060153313 0 -0.47704095 0
0.018883428 0.040032972 0.060146514 0 -0.47704095 0
0.019687599 0.040029299 0.060149573 0 -0.47704095 0
0.020491999 0.040029299 0.060153201 0 -0.47704095 0
0.021297459 0.040052652 0.060159694 0 -0.47704095 0
0.022105856 0.040140595 0.060173851 0 -0.47704095 0
0.022914637 0.040228583 0.060188156 0 -0.47704095 0
0.02372632 0.040371504 0.060209002 0 -0.47704095 0
0.024540281 0.040550653 0.060234211 0 -0.47704095 0
0.025354952 0.040730465 0.060259648 0 -0.47704095 0
0.026175182 0.041006848 0.060296472 0 -0.47704095 0
0.026996419 0.04128357 0.060333487 0 -0.47704095 0
0.027821543 0.041614234 0.060376935 0 -0.47704095 0
0.028650755 0.041997872 0.060426705 0 -0.47704095 0
0.029482262 0.042398427 0.060478594 0 -0.47704095 0
0.030321239 0.042903215 0.060542777 0 -0.47704095 0
0.031161999 0.043409079 0.060607243 0 -0.47704095 0
0.032012533 0.044045877 0.060687117 0 -0.47704095 0
0.03286596 0.044694662 0.060768548 0 -0.47704095 0
0.033731636 0.045499351 0.060868304 0 -0.47704095 0
0.034602586 0.046343341 0.060972802 0 -0.47704095 0
0.035489909 0.047387939 0.061100844 0 -0.47704095 0
0.036391512 0.04858917 0.061247312 0 -0.47704095 0
0.037313394 0.050021417 0.06142088 0 -0.47704095 0
0.038272683 0.05190634 0.061647393 0 -0.47704095 0
0.03932358 0.054948445 0.062008984 0 -0.47704095 0
0.00041401904 0.056027357 0.061126631 0 -0.47704095 0
0.0012353342 0.053141154 0.060795818 0 -0.47704095 0
0.002051434 0.051219407 0.060575746 0 -0.47704095 0
0.002863694 0.049687672 0.060400538 0 -0.47704095 0
0.0036735663 0.048493203 0.060264148 0 -0.47704095 0
0.0044808025 0.04742245 0.060142089 0 -0.47704095 0
0.0052859737 0.046474531 0.060034256 0 -0.47704095 0
0.0060898773 0.045668397 0.059942823 0 -0.47704095 0
0.0068919184 0.044908687 0.059856858 0 -0.47704095 0
0.0076934095 0.044269398 0.059784845 0 -0.47704095 0
0.0084934579 0.043661192 0.059716534 0 -0.47704095 0
0.0092931269 0.043135226 0.059657797 0 -0.47704095 0
0.010092085 0.042654525 0.059604391 0 -0.47704095 0
0.01089036 0.042210177 0.0595553 0 -0.47704095 0
0.011688993 0.041840684 0.059514932 0 -0.47704095 0
0.012486546 0.041471694 0.059474763 0 -0.47704095 0
0.013285217 0.041188668 0.059444591 0 -0.47704095 0
0.014083453 0.040919699 0.059416179 0 -0.47704095 0
0.014881702 0.040677872 0.059391018 0 -0.47704095 0
0.015681267 0.040501893 0.059373554 0 -0.47704095 0
0.016480362 0.040326014 0.059356239 0 -0.47704095 0
0.017280901 0.040207312 0.059345629 0 -0.47704095 0
0.018082255 0.040120132 0.059338778 0 -0.47704095 0
0.018883428 0.040032972 0.059332073 0 -0.47704095 0
0.019687599 0.040029299 0.059335086 0 -0.47704095 0
0.020491999 0.040029299 0.05933867 0 -0.47704095 0
0.021297459 0.040052652 0.059345074 0 -0.47704095 0
0.022105856 0.040140595 0.059359036 0 -0.47704095 0
0.022914637 0.040228583 0.059373148 0 -0.47704095 0
0.02372632 0.040371504 0.059393711 0 -0.47704095 0
0.024540281 0.040550653 0.059418581 0 -0.47704095 0
0.025354952 0.040730465 0.059443671 0 -0.47704095 0
0.026175182 0.041006848 0.05948 0 -0.47704095 0
0.026996419 0.04128357 0.059516516 0 -0.47704095 0
0.027821543 0.041614234 0.059559371 0 -0.47704095 0
0.028650755 0.041997872 0.059608467 0 -0.47704095 0
0.029482262 0.042398427 0.059659656 0 -0.47704095 0
0.030321239 0.042903215 0.059722971 0 -0.47704095 0
0.031161999 0.043409079 0.059786562 0 -0.47704095 0
0.032012533 0.044045877 0.059865355 0 -0.47704095 0
0.03286596 0.044694662 0.059945684 0 -0.47704095 0
0.033731636 0.045499351 0.060044087 0 -0.47704095 0
0.034602586 0.046343341 0.060147174 0 -0.47704095 0
0.035489909 0.047387939 0.06027348 0 -0.47704095 0
0.036391512 0.04858917 0.060417965 0 -0.47704095 0
0.037313394 0.050021417 0.060589179 0 -0.47704095 0
0.038272683 0.05190634 0.060812626 0 -0.47704095 0
0.03932358 0.054948445 0.061169323 0 -0.47704095 0
0.00041401904 0.056027357 0.060287852 0 -0.47704095 0
0.0012353342 0.053141154 0.05996158 0 -0.47704095 0
0.002051434 0.051219407 0.059744526 0 -0.47704095 0
0.002863694 0.049687672 0.059571724 0 -0.47704095 0
0.0036735663 0.048493203 0.059437204 0 -0.47704095 0
0.0044808025 0.04742245 0.059316821 0 -0.47704095 0
0.0052859737 0.046474531 0.059210468 0 -0.47704095 0
0.0060898773 0.045668397 0.05912029 0 -0.47704095 0
0.0068919184 0.044908687 0.059035506 0 -0.47704095 0
0.0076934095 0.044269398 0.05896448 0 -0.47704095 0
0.0084934579 0.043661192 0.058897108 0 -0.47704095 0
0.0092931269 0.043135226 0.058839176 0 -0.47704095 0
0.010092085 0.042654525 0.058786504 0 -0.47704095 0
0.01089036 0.042210177 0.058738083 0 -0.47704095 0
0.011688993 0.041840684 0.05869827 0 -0.47704095 0
0.012486546 0.041471694 0.058658652 0 -0.47704095 0
0.013285217 0.041188668 0.058628894 0 -0.47704095 0
0.014083453 0.040919699 0.058600873 0 -0.47704095 0
0.014881702 0.040677872 0.058576055 0 -0.47704095 0
0.015681267 0.040501893 0.058558829 0 -0.47704095 0
0.016480362 0.040326014 0.058541756 0 -0.47704095 0
0.017280901 0.040207312 0.058531292 0 -0.47704095 0
0.018082255 0.040120132 0.058524534 0 -0.47704095 0
0.018883428 0.040032972 0.058517918 0 -0.47704095 0
0.019687599 0.040029299 0.058520894 0 -0.47704095 0
0.020491999 0.040029299 0.058524426 0 -0.47704095 0
0.021297459 0.040052652 0.058530744 0 -0.47704095 0
0.022105856 0.040140595 0.058544513 0 -0.47704095 0
0.022914637 0.040228583 0.058558431 0 -0.47704095 0
0.02372632 0.040371504 0.058578715 0 -0.47704095 0
0.024540281 0.040550653 0.058603242 0 -0.47704095 0
0.025354952 0.040730465 0.058627989 0 -0.47704095 0
0.026175182 0.041006848 0.058663815 0 -0.47704095 0
0.026996419 0.04128357 0.058699831 0 -0.47704095 0
0.027821543 0.041614234 0.058742102 0 -0.47704095 0
0.028650755 0.041997872 0.05879052 0 -0.47704095 0
0.029482262 0.042398427 0.058841009 0 -0.47704095 0
0.030321239 0.042903215 0.058903452 0 -0.47704095 0
0.031161999 0.043409079 0.058966175 0 -0.47704095 0
0.032012533 0.044045877 0.059043884 0 -0.47704095 0
0.03286596 0.044694662 0.05912311 0 -0.47704095 0
0.033731636 0.045499351 0.059220165 0 -0.47704095 0
0.034602586 0.046343341 0.059321836 0 -0.47704095 0
0.035489909 0.047387939 0.059446409 0 -0.47704095 0
0.036391512 0.04858917 0.059588909 0 -0.47704095 0
0.037313394 0.050021417 0.05975778 0 -0.47704095 0
0.038272683 0.05190634 0.059978157 0 -0.47704095 0
0.03932358 0.054948445 0.060329959 0 -0.47704095 0
0.00041401904 0.056027357 0.059449371 0 -0.47704095 0
0.0012353342 0.053141154 0.059127636 0 -0.47704095 0
0.002051434 0.051219407 0.0589136 0 -0.47704095 0
0.002863694 0.049687672 0.058743201 0 -0.47704095 0
0.0036735663 0.048493203 0.058610555 0 -0.47704095 0
0.0044808025 0.04742245 0.058491841 0 -0.47704095 0
0.0052859737 0.046474531 0.05838697 0 -0.47704095 0
0.0060898773 0.045668397 0.058298048 0 -0.47704095 0
0.0068919184 0.044908687 0.058214441 0 -0.47704095 0
0.0076934095 0.044269398 0.058144402 0 -0.47704095 0
0.0084934579 0.043661192 0.058077965 0 -0.47704095 0
0.0092931269 0.043135226 0.058020841 0 -0.47704095 0
0.010092085 0.042654525 0.057968903 0 -0.47704095 0
0.01089036 0.042210177 0.057921156 0 -0.47704095 0
0.011688993 0.041840684 0.057881895 0 -0.47704095 0
0.012486546 0.041471694 0.057842828 0 -0.47704095 0
0.013285217 0.041188668 0.057813488 0 -0.47704095 0
0.014083453 0.040919699 0.05778585 0 -0.47704095 0
0.014881702 0.040677872 0.057761382 0 -0.47704095 0
0.015681267 0.040501893 0.057744395 0 -0.47704095 0
0.016480362 0.040326014 0.057727557 0 -0.47704095 0
0.017280901 0.040207312 0.057717238 0 -0.47704095 0
0.018082255 0.040120132 0.057710577 0 -0.47704095 0
0.018883428 0.040032972 0.057704054 0 -0.47704095 0
0.019687599 0.040029299 0.057706986 0 -0.47704095 0
0.020491999 0.040029299 0.057710469 0 -0.47704095 0
0.021297459 0.040052652 0.057716697 0 -0.47704095 0
0.022105856 0.040140595 0.057730276 0 -0.47704095 0
0.022914637 0.040228583 0.057744004 0 -0.47704095 0
0.02372632 0.040371504 0.057764001 0 -0.47704095 0
0.024540281 0.040550653 0.05778819 0 -0.47704095 0
0.025354952 0.040730465 0.05781259 0 -0.47704095 0
0.026175182 0.041006848 0.057847921 0 -0.47704095 0
0.026996419 0.04128357 0.057883434 0 -0.47704095 0
0.027821543 0.041614234 0.057925116 0 -0.47704095 0
0.028650755 0.041997872 0.057972863 0 -0.47704095 0
0.029482262 0.042398427 0.058022648 0 -0.47704095 0
0.030321239 0.042903215 0.058084223 0 -0.47704095 0
0.031161999 0.043409079 0.058146074 0 -0.47704095 0
0.032012533 0.044045877 0.058222704 0 -0.47704095 0
0.03286596 0.044694662 0.058300827 0 -0.47704095 0
0.033731636 0.045499351 0.058396533 0 -0.47704095 0
0.034602586 0.046343341 0.058496788 0 -0.47704095 0
0.035489909 0.047387939 0.05861963 0 -0.47704095 0
0.036391512 0.04858917 0.058760148 0 -0.47704095 0
0.037313394 0.050021417 0.058926668 0 -0.47704095 0
0.038272683 0.05190634 0.059143983 0 -0.47704095 0
0.03932358 0.054948445 0.059490893 0 -0.47704095 0
0.00041401904 0.056027357 0.058611177 0 -0.47704095 0
0.0012353342 0.053141154 0.05829398 0 -0.47704095 0
0.002051434 0.051219407 0.058082961 0 -0.47704095 0
0.002863694 0.049687672 0.057914965 0 -0.47704095 0
0.0036735663 0.048493203 0.057784189 0 -0.47704095 0
0.0044808025 0.04742245 0.057667151 0 -0.47704095 0
0.0052859737 0.046474531 0.057563756 0 -0.47704095 0
0.0060898773 0.045668397 0.057476088 0 -0.47704095 0
0.0068919184 0.044908687 0.057393659 0 -0.47704095 0
0.0076934095 0.044269398 0.057324607 0 -0.47704095 0
0.0084934579 0.043661192 0.057259109 0 -0.47704095 0
0.0092931269 0.043135226 0.05720279 0 -0.47704095 0
0.010092085 0.042654525 0.057151582 0 -0.47704095 0
0.01089036 0.042210177 0.057104509 0 -0.47704095 0
0.011688993 0.041840684 0.057065804 0 -0.47704095 0
0.012486546 0.041471694 0.057027284 0 -0.47704095 0
0.013285217 0.041188668 0.056998357 0 -0.47704095 0
0.014083453 0.040919699 0.056971114 0 -0.47704095 0
0.014881702 0.040677872 0.056946989 0 -0.47704095 0
0.015681267 0.040501893 0.05693024 0 -0.47704095 0
0.016480362 0.040326014 0.056913644 0 -0.47704095 0
0.017280901 0.040207312 0.056903467 0 -0.47704095 0
0.018082255 0.040120132 0.056896899 0 -0.47704095 0
0.018883428 0.040032972 0.056890469 0 -0.47704095 0
0.019687599 0.040029299 0.05689336 0 -0.47704095 0
0.020491999 0.040029299 0.056896795 0 -0.47704095 0
0.021297459 0.040052652 0.056902934 0 -0.47704095 0
0.022105856 0.040140595 0.056916323 0 -0.47704095 0
0.022914637 0.040228583 0.056929853 0 -0.47704095 0
0.02372632 0.040371504 0.056949571 0 -0.47704095 0
0.024540281 0.040550653 0.056973416 0 -0.47704095 0
0.025354952 0.040730465 0.056997478 0 -0.47704095 0
0.026175182 0.041006848 0.057032309 0 -0.47704095 0
0.026996419 0.04128357 0.05706732 0 -0.47704095 0
0.027821543 0.041614234 0.057108417 0 -0.47704095 0
0.028650755 0.041997872 0.05715549 0 -0.47704095 0
0.029482262 0.042398427 0.057204571 0 -0.47704095 0
0.030321239 0.042903215 0.057265282 0 -0.47704095 0
0.031161999 0.043409079 0.057326257 0 -0.47704095 0
0.032012533 0.044045877 0.057401806 0 -0.47704095 0
0.03286596 0.044694662 0.05747883 0 -0.47704095 0
0.033731636 0.045499351 0.057573184 0 -0.47704095 0
0.034602586 0.046343341 0.057672027 0 -0.47704095 0
0.035489909 0.047387939 0.057793137 0 -0.47704095 0
0.036391512 0.04858917 0.057931673 0 -0.47704095 0
0.037313394 0.050021417 0.058095846 0 -0.47704095 0
0.038272683 0.05190634 0.058310095 0 -0.47704095 0
0.03932358 0.054948445 0.058652114 0 -0.47704095 0
0.00041401904 0.056027357 0.057773273 0 -0.47704095 0
0.0012353342 0.053141154 0.057460606 0 -0.47704095 0
0.002051434 0.051219407 0.057252608 0 -0.47704095 0
0.002863694 0.049687672 0.057087012 0 -0.47704095 0
0.0036735663 0.048493203 0.056958105 0 -0.47704095 0
0.0044808025 0.04742245 0.056842741 0 -0.47704095 0
0.0052859737 0.046474531 0.056740824 0 -0.47704095 0
0.0060898773 0.045668397 0.056654409 0 -0.47704095 0
0.0068919184 0.044908687 0.05657316 0 -0.47704095 0
0.0076934095 0.044269398 0.056505095 0 -0.47704095 0
0.0084934579 0.043661192 0.056440532 0 -0.47704095 0
0.0092931269 0.043135226 0.056385018 0 -0.47704095 0
0.010092085 0.042654525 0.056334544 0 -0.47704095 0
0.01089036 0.042210177 0.056288142 0 -0.47704095 0
0.011688993 0.041840684 0.056249987 0 -0.47704095 0
0.012486546 0.041471694 0.056212023 0 -0.47704095 0
0.013285217 0.041188668 0.05618351 0 -0.47704095 0
0.014083453 0.040919699 0.056156654 0 -0.47704095 0
0.014881702 0.040677872 0.056132872 0 -0.47704095 0
0.015681267 0.040501893 0.056116365 0 -0.47704095 0
0.016480362 0.040326014 0.056100003 0 -0.47704095 0
0.017280901 0.040207312 0.056089975 0 -0.47704095 0
0.018082255 0.040120132 0.0560835 0 -0.47704095 0
0.018883428 0.040032972 0.05607716 0 -0.47704095 0
0.019687599 0.040029299 0.056080014 0 -0.47704095 0
0.020491999 0.040029299 0.056083396 0 -0.47704095 0
0.021297459 0.040052652 0.05608945 0 -0.47704095 0
0.022105856 0.040140595 0.056102648 0 -0.47704095 0
0.022914637 0.040228583 0.056115985 0 -0.47704095 0
0.02372632 0.040371504 0.05613542 0 -0.47704095 0
0.024540281 0.040550653 0.056158923 0 -0.47704095 0
0.025354952 0.040730465 0.056182642 0 -0.47704095 0
0.026175182 0.041006848 0.056216974 0 -0.47704095 0
0.026996419 0.04128357 0.056251485 0 -0.47704095 0
0.027821543 0.041614234 0.056291994 0 -0.47704095 0
0.028650755 0.041997872 0.056338392 0 -0.47704095 0
0.029482262 0.042398427 0.056386773 0 -0.47704095 0
0.030321239 0.042903215 0.056446616 0 -0.47704095 0
0.031161999 0.043409079 0.056506719 0 -0.47704095 0
0.032012533 0.044045877 0.056581188 0 -0.47704095 0
0.03286596 0.044694662 0.056657113 0 -0.47704095 0
0.033731636 0.045499351 0.056750119 0 -0.47704095 0
0.034602586 0.046343341 0.056847546 0 -0.47704095 0
0.035489909 0.047387939 0.056966927 0 -0.47704095 0
0.036391512 0.04858917 0.057103481 0 -0.47704095 0
0.037313394 0.050021417 0.057265308 0 -0.47704095 0
0.038272683 0.05190634 0.057476494 0 -0.47704095 0
0.03932358 0.054948445 0.057813622 0 -0.47704095 0
0.00041401904 0.056027357 0.056935649 0 -0.47704095 0
0.0012353342 0.053141154 0.056627516 0 -0.47704095 0
0.002051434 0.051219407 0.056422532 0 -0.47704095 0
0.002863694 0.049687672 0.056259338 0 -0.47704095 0
0.0036735663 0.048493203 0.056132298 0 -0.47704095 0
0.0044808025 0.04742245 0.05601861 0 -0.47704095 0
0.0052859737 0.046474531 0.055918168 0 -0.47704095 0
0.0060898773 0.045668397 0.055833008 0 -0.47704095 0
0.0068919184 0.044908687 0.055752933 0 -0.47704095 0
0.0076934095 0.044269398 0.055685859 0 -0.47704095 0
0.0084934579 0.043661192 0.055622231 0 -0.47704095 0
0.0092931269 0.043135226 0.055567522 0 -0.47704095 0
0.010092085 0.042654525 0.055517778 0 -0.47704095 0
0.01089036 0.042210177 0.05547205 0 -0.47704095 0
0.011688993 0.041840684 0.055434451 0 -0.47704095 0
0.012486546 0.041471694 0.055397034 0 -0.47704095 0
0.013285217 0.041188668 0.055368934 0 -0.47704095 0
0.014083453 0.040919699 0.055342469 0 -0.47704095 0
0.014881702 0.040677872 0.055319034 0 -0.47704095 0
0.015681267 0.040501893 0.055302765 0 -0.47704095 0
0.016480362 0.040326014 0.055286638 0 -0.47704095 0
0.017280901 0.040207312 0.055276755 0 -0.47704095 0
0.018082255 0.040120132 0.055270374 0 -0.47704095 0
0.018883428 0.040032972 0.05526413 0 -0.47704095 0
0.019687599 0.040029299 0.055266939 0 -0.47704095 0
0.020491999 0.040029299 0.055270273 0 -0.47704095 0
0.021297459 0.040052652 0.055276237 0 -0.47704095 0
0.022105856 0.040140595 0.055289242 0 -0.47704095 0
0.022914637 0.040228583 0.055302389 0 -0.47704095 0
0.02372632 0.040371504 0.055321544 0 -0.47704095 0
0.024540281 0.040550653 0.055344705 0 -0.47704095 0
0.025354952 0.040730465 0.055368077 0 -0.47704095 0
0.026175182 0.041006848 0.055401914 0 -0.47704095 0
0.026996419 0.04128357 0.055435926 0 -0.47704095 0
0.027821543 0.041614234 0.055475846 0 -0.47704095 0
0.028650755 0.041997872 0.055521574 0 -0.47704095 0
0.029482262 0.042398427 0.055569254 0 -0.47704095 0
0.030321239 0.042903215 0.055628225 0 -0.47704095 0
0.031161999 0.043409079 0.055687457 0 -0.47704095 0
0.032012533 0.044045877 0.055760849 0 -0.47704095 0
0.03286596 0.044694662 0.055835672 0 -0.47704095 0
0.033731636 0.045499351 0.055927329 0 -0.47704095 0
0.034602586 0.046343341 0.056023344 0 -0.47704095 0
0.035489909 0.047387939 0.056140993 0 -0.47704095 0
0.036391512 0.04858917 0.056275569 0 -0.47704095 0
0.037313394 0.050021417 0.056435049 0 -0.47704095 0
0.038272683 0.05190634 0.056643173 0 -0.47704095 0
0.03932358 0.054948445 0.056975413 0 -0.47704095 0
0.00041401904 0.056027357 0.056098301 0 -0.47704095 0
0.0012353342 0.053141154 0.055794701 0 -0.47704095 0
0.002051434 0.051219407 0.055592731 0 -0.47704095 0
0.002863694 0.049687672 0.05543194 0 -0.47704095 0
0.0036735663 0.048493203 0.055306766 0 -0.47704095 0
0.0044808025 0.04742245 0.05519475 0 -0.47704095 0
0.0052859737 0.046474531 0.055095788 0 -0.47704095 0
0.0060898773 0.045668397 0.055011876 0 -0.47704095 0
0.0068919184 0.044908687 0.054932982 0 -0.47704095 0
0.0076934095 0.044269398 0.054866891 0 -0.47704095 0
0.0084934579 0.043661192 0.054804202 0 -0.47704095 0
0.0092931269 0.043135226 0.054750297 0 -0.47704095 0
0.010092085 0.042654525 0.054701284 0 -0.47704095 0
0.01089036 0.042210177 0.05465623 0 -0.47704095 0
0.011688993 0.041840684 0.054619182 0 -0.47704095 0
0.012486546 0.041471694 0.054582316 0 -0.47704095 0
0.013285217 0.041188668 0.05455463 0 -0.47704095 0
0.014083453 0.040919699 0.054528553 0 -0.47704095 0
0.014881702 0.040677872 0.054505464 0 -0.47704095 0
0.015681267 0.040501893 0.054489434 0 -0.47704095 0
0.016480362 0.040326014 0.054473545 0 -0.47704095 0
0.017280901 0.040207312 0.054463807 0 -0.47704095 0
0.018082255 0.040120132 0.054457519 0 -0.47704095 0
0.018883428 0.040032972 0.054451365 0 -0.47704095 0
0.019687599 0.040029299 0.054454133 0 -0.47704095 0
0.020491999 0.040029299 0.054457419 0 -0.47704095 0
0.021297459 0.040052652 0.054463297 0 -0.47704095 0
0.022105856 0.040140595 0.054476112 0 -0.47704095 0
0.022914637 0.040228583 0.054489061 0 -0.47704095 0
0.02372632 0.040371504 0.054507934 0 -0.47704095 0
0.024540281 0.040550653 0.054530758 0 -0.47704095 0
0.025354952 0.040730465 0.054553784 0 -0.47704095 0
0.026175182 0.041006848 0.054587126 0 -0.47704095 0
0.026996419 0.04128357 0.054620635 0 -0.47704095 0
0.027821543 0.041614234 0.05465997 0 -0.47704095 0
0.028650755 0.041997872 0.054705024 0 -0.47704095 0
0.029482262 0.042398427 0.054752 0 -0.47704095 0
0.030321239 0.042903215 0.054810107 0 -0.47704095 0
0.031161999 0.043409079 0.054868471 0 -0.47704095 0
0.032012533 0.044045877 0.054940779 0 -0.47704095 0
0.03286596 0.044694662 0.055014502 0 -0.47704095 0
0.033731636 0.045499351 0.055104811 0 -0.47704095 0
0.034602586 0.046343341 0.055199414 0 -0.47704095 0
0.035489909 0.047387939 0.055315334 0 -0.47704095 0
0.036391512 0.04858917 0.055447932 0 -0.47704095 0
0.037313394 0.050021417 0.055605065 0 -0.47704095 0
0.038272683 0.05190634 0.055810127 0 -0.47704095 0
0.03932358 0.054948445 0.056137484 0 -0.47704095 0
0.00041401904 0.056027357 0.055261232 0 -0.47704095 0
0.0012353342 0.053141154 0.054962162 0 -0.47704095 0
0.002051434 0.051219407 0.054763205 0 -0.47704095 0
0.002863694 0.049687672 0.05460481 0 -0.47704095 0
0.0036735663 0.048493203 0.054481506 0 -0.47704095 0
0.0044808025 0.04742245 0.05437116 0 -0.47704095 0
0.0052859737 0.046474531 0.054273672 0 -0.47704095 0
0.0060898773 0.045668397 0.054191016 0 -0.47704095 0
0.0068919184 0.044908687 0.054113299 0 -0.47704095 0
0.0076934095 0.044269398 0.054048195 0 -0.47704095 0
0.0084934579 0.043661192 0.053986438 0 -0.47704095 0
0.0092931269 0.043135226 0.053933337 0 -0.47704095 0
0.010092085 0.042654525 0.053885058 0 -0.47704095 0
0.01089036 0.042210177 0.053840674 0 -0.47704095 0
0.011688993 0.041840684 0.053804182 0 -0.47704095 0
0.012486546 0.041471694 0.053767867 0 -0.47704095 0
0.013285217 0.041188668 0.053740591 0 -0.47704095 0
0.014083453 0.040919699 0.053714905 0 -0.47704095 0
0.014881702 0.040677872 0.053692158 0 -0.47704095 0
0.015681267 0.040501893 0.053676367 0 -0.47704095 0
0.016480362 0.040326014 0.053660717 0 -0.47704095 0
0.017280901 0.040207312 0.053651124 0 -0.47704095 0
0.018082255 0.040120132 0.053644933 0 -0.47704095 0
0.018883428 0.040032972 0.053638868 0 -0.47704095 0
0.019687599 0.040029299 0.053641595 0 -0.47704095 0
0.020491999 0.040029299 0.053644832 0 -0.47704095 0
0.021297459 0.040052652 0.053650621 0 -0.47704095 0
0.022105856 0.040140595 0.053663246 0 -0.47704095 0
0.022914637 0.040228583 0.053676002 0 -0.47704095 0
0.02372632 0.040371504 0.053694595 0 -0.47704095 0
0.024540281 0.040550653 0.053717077 0 -0.47704095 0
0.025354952 0.040730465 0.05373976 0 -0.47704095 0
0.026175182 0.041006848 0.053772602 0 -0.47704095 0
0.026996419 0.04128357 0.053805612 0 -0.47704095 0
0.027821543 0.041614234 0.053844359 0 -0.47704095 0
0.028650755 0.041997872 0.053888742 0 -0.47704095 0
0.029482262 0.042398427 0.053935017 0 -0.47704095 0
0.030321239 0.042903215 0.053992257 0 -0.47704095 0
0.031161999 0.043409079 0.054049749 0 -0.47704095 0
0.032012533 0.044045877 0.05412098 0 -0.47704095 0
0.03286596 0.044694662 0.054193601 0 -0.47704095 0
0.033731636 0.045499351 0.054282561 0 -0.47704095 0
0.034602586 0.046343341 0.054375757 0 -0.47704095 0
0.035489909 0.047387939 0.054489944 0 -0.47704095 0
0.036391512 0.04858917 0.054620564 0 -0.47704095 0
0.037313394 0.050021417 0.05477535 0 -0.47704095 0
0.038272683 0.05190634 0.054977354 0 -0.47704095 0
0.03932358 0.054948445 0.055299826 0 -0.47704095 0
0.00041401904 0.056027357 0.054424427 0 -0.47704095 0
0.0012353342 0.053141154 0.054129887 0 -0.47704095 0
0.002051434 0.051219407 0.053933941 0 -0.47704095 0
0.002863694 0.049687672 0.053777944 0 -0.47704095 0
0.0036735663 0.048493203 0.053656511 0 -0.47704095 0
0.0044808025 0.04742245 0.053547833 0 -0.47704095 0
0.0052859737 0.046474531 0.053451825 0 -0.47704095 0
0.0060898773 0.045668397 0.05337042 0 -0.47704095 0
0.0068919184 0.044908687 0.05329388 0 -0.47704095 0
0.0076934095 0.044269398 0.05322976 0 -0.47704095 0
0.0084934579 0.043661192 0.053168941 0 -0.47704095 0
0.0092931269 0.043135226 0.053116642 0 -0.47704095 0
0.010092085 0.042654525 0.053069096 0 -0.47704095 0
0.01089036 0.042210177 0.053025384 0 -0.47704095 0
0.011688993 0.041840684 0.052989442 0 -0.47704095 0
0.012486546 0.041471694 0.052953675 0 -0.47704095 0
0.013285217 0.041188668 0.052926816 0 -0.47704095 0
0.014083453 0.040919699 0.052901518 0 -0.47704095 0
0.014881702 0.040677872 0.052879114 0 -0.47704095 0
0.015681267 0.040501893 0.052863564 0 -0.47704095 0
0.016480362 0.040326014 0.052848149 0 -0.47704095 0
0.017280901 0.040207312 0.052838702 0 -0.47704095 0
0.018082255 0.040120132 0.052832603 0 -0.47704095 0
0.018883428 0.040032972 0.052826632 0 -0.47704095 0
0.019687599 0.040029299 0.052829318 0 -0.47704095 0
0.020491999 0.040029299 0.052832507 0 -0.47704095 0
0.021297459 0.040052652 0.05283821 0 -0.47704095 0
0.022105856 0.040140595 0.052850641 0 -0.47704095 0
0.022914637 0.040228583 0.052863207 0 -0.47704095 0
0.02372632 0.040371504 0.052881513 0 -0.47704095 0
0.024540281 0.040550653 0.052903656 0 -0.47704095 0
0.025354952 0.040730465 0.052925996 0 -0.47704095 0
0.026175182 0.041006848 0.052958339 0 -0.47704095 0
0.026996419 0.04128357 0.05299085 0 -0.47704095 0
0.027821543 0.041614234 0.053029012 0 -0.47704095 0
0.028650755 0.041997872 0.053072721 0 -0.47704095 0
0.029482262 0.042398427 0.053118296 0 -0.47704095 0
0.030321239 0.042903215 0.053174671 0 -0.47704095 0
0.031161999 0.043409079 0.053231291 0 -0.47704095 0
0.032012533 0.044045877 0.053301442 0 -0.47704095 0
0.03286596 0.044694662 0.053372964 0 -0.47704095 0
0.033731636 0.045499351 0.053460579 0 -0.47704095 0
0.034602586 0.046343341 0.053552363 0 -0.47704095 0
0.035489909 0.047387939 0.053664822 0 -0.47704095 0
0.036391512 0.04858917 0.05379346 0 -0.47704095 0
0.037313394 0.050021417 0.053945906 0 -0.47704095 0
0.038272683 0.05190634 0.054144852 0 -0.47704095 0
0.03932358 0.054948445 0.05446244 0 -0.47704095 0
0.00041401904 0.056027357 0.053587891 0 -0.47704095 0
0.0012353342 0.053141154 0.053297877 0 -0.47704095 0
0.002051434 0.051219407 0.053104945 0 -0.47704095 0
0.002863694 0.049687672 0.052951347 0 -0.47704095 0
0.0036735663 0.048493203 0.052831776 0 -0.47704095 0
0.0044808025 0.04742245 0.052724771 0 -0.47704095 0
0.0052859737 0.046474531 0.052630238 0 -0.47704095 0
0.0060898773 0.045668397 0.052550081 0 -0.47704095 0
0.0068919184 0.044908687 0.052474719 0 -0.47704095 0
0.0076934095 0.044269398 0.052411586 0 -0.47704095 0
0.0084934579 0.043661192 0.052351702 0 -0.47704095 0
0.0092931269 0.043135226 0.052300207 0 -0.47704095 0
0.010092085 0.042654525 0.052253388 0 -0.47704095 0
0.01089036 0.042210177 0.05221035 0 -0.47704095 0
0.011688993 0.041840684 0.052174959 0 -0.47704095 0
0.012486546 0.041471694 0.052139744 0 -0.47704095 0
0.013285217 0.041188668 0.052113298 0 -0.47704095 0
0.014083453 0.040919699 0.052088387 0 -0.47704095 0
0.014881702 0.040677872 0.05206633 0 -0.47704095 0
0.015681267 0.040501893 0.052051019 0 -0.47704095 0
0.016480362 0.040326014 0.052035842 0 -0.47704095 0
0.017280901 0.040207312 0.05202654 0 -0.47704095 0
0.018082255 0.040120132 0.052020535 0 -0.47704095 0
0.018883428 0.040032972 0.052014653 0 -0.47704095 0
0.019687599 0.040029299 0.052017298 0 -0.47704095 0
0.020491999 0.040029299 0.052020438 0 -0.47704095 0
0.021297459 0.040052652 0.052026052 0 -0.47704095 0
0.022105856 0.040140595 0.052038293 0 -0.47704095 0
0.022914637 0.040228583 0.052050665 0 -0.47704095 0
0.02372632 0.040371504 0.052068692 0 -0.47704095 0
0.024540281 0.040550653 0.052090492 0 -0.47704095 0
0.025354952 0.040730465 0.05211249 0 -0.47704095 0
0.026175182 0.041006848 0.052144337 0 -0.47704095 0
0.026996419 0.04128357 0.052176349 0 -0.47704095 0
0.027821543 0.041614234 0.052213922 0 -0.47704095 0
0.028650755 0.041997872 0.05225696 0 -0.47704095 0
0.029482262 0.042398427 0.052301835 0 -0.47704095 0
0.030321239 0.042903215 0.052357342 0 -0.47704095 0
0.031161999 0.043409079 0.052413091 0 -0.47704095 0
0.032012533 0.044045877 0.052482169 0 -0.47704095 0
0.03286596 0.044694662 0.052552588 0 -0.47704095 0
0.033731636 0.045499351 0.052638859 0 -0.47704095 0
0.034602586 0.046343341 0.052729227 0 -0.47704095 0
0.035489909 0.047387939 0.052839957 0 -0.47704095 0
0.036391512 0.04858917 0.052966624 0 -0.47704095 0
0.037313394 0.050021417 0.053116724 0 -0.47704095 0
0.038272683 0.05190634 0.053312611 0 -0.47704095 0
0.03932358 0.054948445 0.053625315 0 -0.47704095 0
0.00041401904 0.056027357 0.052751616 0 -0.47704095 0
0.0012353342 0.053141154 0.052466124 0 -0.47704095 0
0.002051434 0.051219407 0.052276205 0 -0.47704095 0
0.002863694 0.049687672 0.052125003 0 -0.47704095 0
0.0036735663 0.048493203 0.052007299 0 -0.47704095 0
0.0044808025 0.04742245 0.051901963 0 -0.47704095 0
0.0052859737 0.046474531 0.051808905 0 -0.47704095 0
0.0060898773 0.045668397 0.051730003 0 -0.47704095 0
0.0068919184 0.044908687 0.051655814 0 -0.47704095 0
0.0076934095 0.044269398 0.051593665 0 -0.47704095 0
0.0084934579 0.043661192 0.051534716 0 -0.47704095 0
0.0092931269 0.043135226 0.051484026 0 -0.47704095 0
0.010092085 0.042654525 0.05143794 0 -0.47704095 0
0.01089036 0.042210177 0.051395573 0 -0.47704095 0
0.011688993 0.041840684 0.051360734 0 -0.47704095 0
0.012486546 0.041471694 0.05132607 0 -0.47704095 0
0.013285217 0.041188668 0.051300034 0 -0.47704095 0
0.014083453 0.040919699 0.05127551 0 -0.47704095 0
0.014881702 0.040677872 0.051253799 0 -0.47704095 0
0.015681267 0.040501893 0.051238727 0 -0.47704095 0
0.016480362 0.040326014 0.051223785 0 -0.47704095 0
0.017280901 0.040207312 0.051214628 0 -0.47704095 0
0.018082255 0.040120132 0.051208716 0 -0.47704095 0
0.018883428 0.040032972 0.051202931 0 -0.47704095 0
0.019687599 0.040029299 0.051205531 0 -0.47704095 0
0.020491999 0.040029299 0.051208623 0 -0.47704095 0
0.021297459 0.040052652 0.051214151 0 -0.47704095 0
0.022105856 0.040140595 0.051226199 0 -0.47704095 0
0.022914637 0.040228583 0.051238377 0 -0.47704095 0
0.02372632 0.040371504 0.051256124 0 -0.47704095 0
0.024540281 0.040550653 0.051277585 0 -0.47704095 0
0.025354952 0.040730465 0.05129924 0 -0.47704095 0
0.026175182 0.041006848 0.051330589 0 -0.47704095 0
0.026996419 0.04128357 0.051362101 0 -0.47704095 0
0.027821543 0.041614234 0.051399086 0 -0.47704095 0
0.028650755 0.041997872 0.051441453 0 -0.47704095 0
0.029482262 0.042398427 0.051485632 0 -0.47704095 0
0.030321239 0.042903215 0.05154027 0 -0.47704095 0
0.031161999 0.043409079 0.051595151 0 -0.47704095 0
0.032012533 0.044045877 0.051663145 0 -0.47704095 0
0.03286596 0.044694662 0.051732469 0 -0.47704095 0
0.033731636 0.045499351 0.051817391 0 -0.47704095 0
0.034602586 0.046343341 0.051906351 0 -0.47704095 0
0.035489909 0.047387939 0.052015353 0 -0.47704095 0
0.036391512 0.04858917 0.052140042 0 -0.47704095 0
0.037313394 0.050021417 0.052287802 0 -0.47704095 0
0.038272683 0.05190634 0.052480631 0 -0.47704095 0
0.03932358 0.054948445 0.052788455 0 -0.47704095 0
0.00041401904 0.056027357 0.051915593 0 -0.47704095 0
0.0012353342 0.053141154 0.051634632 0 -0.47704095 0
0.002051434 0.051219407 0.051447719 0 -0.47704095 0
0.002863694 0.049687672 0.051298913 0 -0.47704095 0
0.0036735663 0.048493203 0.051183078 0 -0.47704095 0
0.0044808025 0.04742245 0.051079411 0 -0.47704095 0
0.0052859737 0.046474531 0.050987829 0 -0.47704095 0
0.0060898773 0.045668397 0.050910175 0 -0.47704095 0
0.0068919184 0.044908687 0.050837163 0 -0.47704095 0
0.0076934095 0.044269398 0.050775997 0 -0.47704095 0
0.0084934579 0.043661192 0.050717983 0 -0.47704095 0
0.0092931269 0.043135226 0.050668098 0 -0.47704095 0
0.010092085 0.042654525 0.050622739 0 -0.47704095 0
0.01089036 0.042210177 0.050581042 0 -0.47704095 0
0.011688993 0.041840684 0.050546758 0 -0.47704095 0
0.012486546 0.041471694 0.050512642 0 -0.47704095 0
0.013285217 0.041188668 0.050487019 0 -0.47704095 0
0.014083453 0.040919699 0.050462887 0 -0.47704095 0
0.014881702 0.040677872 0.050441518 0 -0.47704095 0
0.015681267 0.040501893 0.050426684 0 -0.47704095 0
0.016480362 0.040326014 0.050411981 0 -0.47704095 0
0.017280901 0.040207312 0.050402969 0 -0.47704095 0
0.018082255 0.040120132 0.05039715 0 -0.47704095 0
0.018883428 0.040032972 0.050391454 0 -0.47704095 0
0.019687599 0.040029299 0.050394014 0 -0.47704095 0
0.020491999 0.040029299 0.050397057 0 -0.47704095 0
0.021297459 0.040052652 0.050402496 0 -0.47704095 0
0.022105856 0.040140595 0.050414354 0 -0.47704095 0
0.022914637 0.040228583 0.050426342 0 -0.47704095 0
0.02372632 0.040371504 0.050443806 0 -0.47704095 0
0.024540281 0.040550653 0.050464928 0 -0.47704095 0
0.025354952 0.040730465 0.050486237 0 -0.47704095 0
0.026175182 0.041006848 0.05051709 0 -0.47704095 0
0.026996419 0.04128357 0.050548103 0 -0.47704095 0
0.027821543 0.041614234 0.050584503 0 -0.47704095 0
0.028650755 0.041997872 0.0506262 0 -0.47704095 0
0.029482262 0.042398427 0.050669674 0 -0.47704095 0
0.030321239 0.042903215 0.050723448 0 -0.47704095 0
0.031161999 0.043409079 0.050777458 0 -0.47704095 0
0.032012533 0.044045877 0.050844379 0 -0.47704095 0
0.03286596 0.044694662 0.050912604 0 -0.47704095 0
0.033731636 0.045499351 0.050996177 0 -0.47704095 0
0.034602586 0.046343341 0.051083729 0 -0.47704095 0
0.035489909 0.047387939 0.051191002 0 -0.47704095 0
0.036391512 0.04858917 0.051313717 0 -0.47704095 0
0.037313394 0.050021417 0.051459134 0 -0.47704095 0
0.038272683 0.05190634 0.051648907 0 -0.47704095 0
0.03932358 0.054948445 0.051951855 0 -0.47704095 0
0.00041401904 0.056027357 0.051079828 0 -0.47704095 0
0.0012353342 0.053141154 0.050803389 0 -0.47704095 0
0.002051434 0.051219407 0.050619487 0 -0.47704095 0
0.002863694 0.049687672 0.050473075 0 -0.47704095 0
0.0036735663 0.048493203 0.050359104 0 -0.47704095 0
0.0044808025 0.04742245 0.050257105 0 -0.47704095 0
0.0052859737 0.046474531 0.050166998 0 -0.47704095 0
0.0060898773 0.045668397 0.050090592 0 -0.47704095 0
0.0068919184 0.044908687 0.050018758 0 -0.47704095 0
0.0076934095 0.044269398 0.049958579 0 -0.47704095 0
0.0084934579 0.043661192 0.049901497 0 -0.47704095 0
0.0092931269 0.043135226 0.049852412 0 -0.47704095 0
0.010092085 0.042654525 0.049807787 0 -0.47704095 0
0.01089036 0.042210177 0.04976676 0 -0.47704095 0
0.011688993 0.041840684 0.049733028 0 -0.47704095 0
0.012486546 0.041471694 0.049699459 0 -0.47704095 0
0.013285217 0.041188668 0.04967425 0 -0.47704095 0
0.014083453 0.040919699 0.049650505 0 -0.47704095 0
0.014881702 0.040677872 0.04962948 0 -0.47704095 0
0.015681267 0.040501893 0.049614888 0 -0.47704095 0
0.016480362 0.040326014 0.049600419 0 -0.47704095 0
0.017280901 0.040207312 0.049591552 0 -0.47704095 0
0.018082255 0.040120132 0.049585827 0 -0.47704095 0
0.018883428 0.040032972 0.049580224 0 -0.47704095 0
0.019687599 0.040029299 0.049582746 0 -0.47704095 0
0.020491999 0.040029299 0.049585737 0 -0.47704095 0
0.021297459 0.040052652 0.049591091 0 -0.47704095 0
0.022105856 0.040140595 0.049602758 0 -0.47704095 0
0.022914637 0.040228583 0.049614549 0 -0.47704095 0
0.02372632 0.040371504 0.049631733 0 -0.47704095 0
0.024540281 0.040550653 0.049652513 0 -0.47704095 0
0.025354952 0.040730465 0.049673483 0 -0.47704095 0
0.026175182 0.041006848 0.049703836 0 -0.47704095 0
0.026996419 0.04128357 0.04973435 0 -0.47704095 0
0.027821543 0.041614234 0.049770165 0 -0.47704095 0
0.028650755 0.041997872 0.049811192 0 -0.47704095 0
0.029482262 0.042398427 0.049853966 0 -0.47704095 0
0.030321239 0.042903215 0.049906872 0 -0.47704095 0
0.031161999 0.043409079 0.049960013 0 -0.47704095 0
0.032012533 0.044045877 0.050025858 0 -0.47704095 0
0.03286596 0.044694662 0.050092984 0 -0.47704095 0
0.033731636 0.045499351 0.050175212 0 -0.47704095 0
0.034602586 0.046343341 0.050261356 0 -0.47704095 0
0.035489909 0.047387939 0.050366901 0 -0.47704095 0
0.036391512 0.04858917 0.050487638 0 -0.47704095 0
0.037313394 0.050021417 0.050630715 0 -0.47704095 0
0.038272683 0.05190634 0.050817434 0 -0.47704095 0
0.03932358 0.054948445 0.051115505 0 -0.47704095 0
0.00041401904 0.056027357 0.050244313 0 -0.47704095 0
0.0012353342 0.053141154 0.049972393 0 -0.47704095 0
0.002051434 0.051219407 0.0497915 0 -0.47704095 0
0.002863694 0.049687672 0.049647484 0 -0.47704095 0
0.0036735663 0.048493203 0.049535375 0 -0.47704095 0
0.0044808025 0.04742245 0.049435046 0 -0.47704095 0
0.0052859737 0.046474531 0.04934641 0 -0.47704095 0
0.0060898773 0.045668397 0.049271256 0 -0.47704095 0
0.0068919184 0.044908687 0.049200594 0 -0.47704095 0
0.0076934095 0.044269398 0.0491414 0 -0.47704095 0
0.0084934579 0.043661192 0.049085252 0 -0.47704095 0
0.0092931269 0.043135226 0.049036972 0 -0.47704095 0
0.010092085 0.042654525 0.048993077 0 -0.47704095 0
0.01089036 0.042210177 0.048952721 0 -0.47704095 0
0.011688993 0.041840684 0.04891954 0 -0.47704095 0
0.012486546 0.041471694 0.048886523 0 -0.47704095 0
0.013285217 0.041188668 0.048861723 0 -0.47704095 0
0.014083453 0.040919699 0.04883837 0 -0.47704095 0
0.014881702 0.040677872 0.048817687 0 -0.47704095 0
0.015681267 0.040501893 0.048803333 0 -0.47704095 0
0.016480362 0.040326014 0.048789103 0 -0.47704095 0
0.017280901 0.040207312 0.048780382 0 -0.47704095 0
0.018082255 0.040120132 0.048774749 0 -0.47704095 0
0.018883428 0.040032972 0.048769236 0 -0.47704095 0
0.019687599 0.040029299 0.048771717 0 -0.47704095 0
0.020491999 0.040029299 0.04877466 0 -0.47704095 0
0.021297459 0.040052652 0.048779923 0 -0.47704095 0
0.022105856 0.040140595 0.048791401 0 -0.47704095 0
0.022914637 0.040228583 0.048802998 0 -0.47704095 0
0.02372632 0.040371504 0.048819903 0 -0.47704095 0
0.024540281 0.040550653 0.048840344 0 -0.47704095 0
0.025354952 0.040730465 0.048860967 0 -0.47704095 0
0.026175182 0.041006848 0.048890829 0 -0.47704095 0
0.026996419 0.04128357 0.04892084 0 -0.47704095 0
0.027821543 0.041614234 0.04895607 0 -0.47704095 0
0.028650755 0.041997872 0.048996422 0 -0.47704095 0
0.029482262 0.042398427 0.0490385 0 -0.47704095 0
0.030321239 0.042903215 0.049090542 0 -0.47704095 0
0.031161999 0.043409079 0.049142815 0 -0.47704095 0
0.032012533 0.044045877 0.049207579 0 -0.47704095 0
0.03286596 0.044694662 0.049273606 0 -0.47704095 0
0.033731636 0.045499351 0.049354494 0 -0.47704095 0
0.034602586 0.046343341 0.049439225 0 -0.47704095 0
0.035489909 0.047387939 0.049543045 0 -0.47704095 0
0.036391512 0.04858917 0.049661808 0 -0.47704095 0
0.037313394 0.050021417 0.049802542 0 -0.47704095 0
0.038272683 0.05190634 0.049986206 0 -0.47704095 0
0.03932358 0.054948445 0.050279401 0 -0.47704095 0
0.00041401904 0.056027357 0.049409039 0 -0.47704095 0
0.0012353342 0.053141154 0.049141642 0 -0.47704095 0
0.002051434 0.051219407 0.048963752 0 -0.47704095 0
0.002863694 0.049687672 0.048822131 0 -0.47704095 0
0.0036735663 0.048493203 0.048711888 0 -0.47704095 0
0.0044808025 0.04742245 0.048613224 0 -0.47704095 0
0.0052859737 0.046474531 0.048526064 0 -0.47704095 0
0.0060898773 0.045668397 0.048452161 0 -0.47704095 0
0.0068919184 0.044908687 0.048382673 0 -0.47704095 0
0.0076934095 0.044269398 0.048324462 0 -0.47704095 0
0.0084934579 0.043661192 0.048269249 0 -0.47704095 0
0.0092931269 0.043135226 0.048221771 0 -0.47704095 0
0.010092085 0.042654525 0.048178606 0 -0.47704095 0
0.01089036 0.042210177 0.04813892 0 -0.47704095 0
0.011688993 0.041840684 0.04810629 0 -0.47704095 0
0.012486546 0.041471694 0.048073821 0 -0.47704095 0
0.013285217 0.041188668 0.048049435 0 -0.47704095 0
0.014083453 0.040919699 0.048026469 0 -0.47704095 0
0.014881702 0.040677872 0.048006132 0 -0.47704095 0
0.015681267 0.040501893 0.047992013 0 -0.47704095 0
0.016480362 0.040326014 0.047978021 0 -0.47704095 0
0.017280901 0.040207312 0.047969446 0 -0.47704095 0
0.018082255 0.040120132 0.047963906 0 -0.47704095 0
0.018883428 0.040032972 0.047958486 0 -0.47704095 0
0.019687599 0.040029299 0.047960922 0 -0.47704095 0
0.020491999 0.040029299 0.047963817 0 -0.47704095 0
0.021297459 0.040052652 0.047968995 0 -0.47704095 0
0.022105856 0.040140595 0.047980279 0 -0.47704095 0
0.022914637 0.040228583 0.047991689 0 -0.47704095 0
0.02372632 0.040371504 0.048008308 0 -0.47704095 0
0.024540281 0.040550653 0.048028409 0 -0.47704095 0
0.025354952 0.040730465 0.048048694 0 -0.47704095 0
0.026175182 0.041006848 0.048078056 0 -0.47704095 0
0.026996419 0.04128357 0.048107572 0 -0.47704095 0
