# .PCD v0.7 - Point Cloud Data file format
VERSION 0.7
FIELDS x y z vp_x vp_y vp_z
SIZE 4 4 4 4 4 4
TYPE F F F F F F
COUNT 1 1 1 1 1 1
WIDTH 791
HEIGHT 1
VIEWPOINT 0 0 0 1 0 0 0
POINTS 791
DATA ascii
0.01480797 0.079305902 0.06940911 -0.25019264 0.4048202 0
0.01413678 0.079098269 0.069365747 -0.25019264 0.4048202 0
0.013478191 0.078876354 0.0693257 -0.25019264 0.4048202 0
0.01282036 0.078654699 0.06928587 -0.25019264 0.4048202 0
0.012195242 0.078393534 0.069254681 -0.25019264 0.4048202 0
0.011587066 0.078112155 0.069228023 -0.25019264 0.4048202 0
0.010979355 0.077831 0.069201551 -0.25019264 0.4048202 0
0.010391542 0.077525645 0.069180429 -0.25019264 0.4048202 0
0.0098300204 0.077187806 0.069166385 -0.25019264 0.4048202 0
0.0092687253 0.076850094 0.069152504 -0.25019264 0.4048202 0
0.0087130172 0.076505721 0.069140241 -0.25019264 0.4048202 0
0.0081959115 0.076112613 0.069138415 -0.25019264 0.4048202 0
0.0076788315 0.07571952 0.069136761 -0.25019264 0.4048202 0
0.0071617751 0.075326443 0.069135271 -0.25019264 0.4048202 0
0.00667889 0.074889526 0.069143146 -0.25019264 0.4048202 0
0.0062050545 0.074440695 0.069153652 -0.25019264 0.4048202 0
0.0057310741 0.073991738 0.069164336 -0.25019264 0.4048202 0
0.0052776961 0.073515721 0.069180809 -0.25019264 0.4048202 0
0.0048474115 0.073009156 0.069203779 -0.25019264 0.4048202 0
0.0044168406 0.072502248 0.069226928 -0.25019264 0.4048202 0
0.0039958307 0.071982101 0.069252945 -0.25019264 0.4048202 0
0.0036106773 0.071414046 0.069289029 -0.25019264 0.4048202 0
0.0032251216 0.070845395 0.069325313 -0.25019264 0.4048202 0
0.0028421993 0.070272133 0.06936264 -0.25019264 0.4048202 0
0.0025052938 0.069636658 0.069412924 -0.25019264 0.4048202 0
0.0021678985 0.069000266 0.069463454 -0.25019264 0.4048202 0
0.0018330084 0.068358943 0.069515049 -0.25019264 0.4048202 0
0.00154945 0.067647241 0.069581218 -0.25019264 0.4048202 0
0.0012653506 0.066934183 0.069647677 -0.25019264 0.4048202 0
0.00099531608 0.06620007 0.069718488 -0.25019264 0.4048202 0
0.0007729606 0.06539923 0.069803022 -0.25019264 0.4048202 0
0.00055006467 0.064596444 0.069887936 -0.25019264 0.4048202 0
0.00037382191 0.063727453 0.069986403 -0.25019264 0.4048202 0
0.026192011 0.078987487 0.069971167 -0.25019264 0.4048202 0
0.025021961 0.079343334 0.069802858 -0.25019264 0.4048202 0
0.023958797 0.079577327 0.06966126 -0.25019264 0.4048202 0
0.022934487 0.079769261 0.069529198 -0.25019264 0.4048202 0
0.021987954 0.079872228 0.069416657 -0.25019264 0.4048202 0
0.021047393 0.079971381 0.069305383 -0.25019264 0.4048202 0
0.020192029 0.07997147 0.069215678 -0.25019264 0.4048202 0
0.019338874 0.079971559 0.069126368 -0.25019264 0.4048202 0
0.018524067 0.079927936 0.069046743 -0.25019264 0.4048202 0
0.017745119 0.079843193 0.068976216 -0.25019264 0.4048202 0
0.016967759 0.079758622 0.068906002 -0.25019264 0.4048202 0
0.016236201 0.07962025 0.068847522 -0.25019264 0.4048202 0
0.015521524 0.079462953 0.068793364 -0.25019264 0.4048202 0
0.01480797 0.079305902 0.068739444 -0.25019264 0.4048202 0
0.01413678 0.079098269 0.068696506 -0.25019264 0.4048202 0
0.013478191 0.078876354 0.068656847 -0.25019264 0.4048202 0
0.01282036 0.078654699 0.068617396 -0.25019264 0.4048202 0
0.012195242 0.078393534 0.068586513 -0.25019264 0.4048202 0
0.011587066 0.078112155 0.068560109 -0.25019264 0.4048202 0
0.010979355 0.077831 0.06853389 -0.25019264 0.4048202 0
0.010391542 0.077525645 0.068512969 -0.25019264 0.4048202 0
0.0098300204 0.077187806 0.068499058 -0.25019264 0.4048202 0
0.0092687253 0.076850094 0.06848532 -0.25019264 0.4048202 0
0.0087130172 0.076505721 0.068473168 -0.25019264 0.4048202 0
0.0081959115 0.076112613 0.068471365 -0.25019264 0.4048202 0
0.0076788315 0.07571952 0.068469726 -0.25019264 0.4048202 0
0.0071617751 0.075326443 0.06846825 -0.25019264 0.4048202 0
0.00667889 0.074889526 0.068476044 -0.25019264 0.4048202 0
0.0062050545 0.074440695 0.06848646 -0.25019264 0.4048202 0
0.0057310741 0.073991738 0.068497032 -0.25019264 0.4048202 0
0.0052776961 0.073515721 0.068513349 -0.25019264 0.4048202 0
0.0048474115 0.073009156 0.068536095 -0.25019264 0.4048202 0
0.0044168406 0.072502248 0.068559021 -0.25019264 0.4048202 0
0.0039958307 0.071982101 0.068584792 -0.25019264 0.4048202 0
0.0036106773 0.071414046 0.068620525 -0.25019264 0.4048202 0
0.0032251216 0.070845395 0.068656459 -0.25019264 0.4048202 0
0.0028421993 0.070272133 0.068693422 -0.25019264 0.4048202 0
0.0025052938 0.069636658 0.068743229 -0.25019264 0.4048202 0
0.0021678985 0.069000266 0.068793267 -0.25019264 0.4048202 0
0.0018330084 0.068358943 0.068844363 -0.25019264 0.4048202 0
0.00154945 0.067647241 0.068909891 -0.25019264 0.4048202 0
0.0012653506 0.066934183 0.068975709 -0.25019264 0.4048202 0
0.00099531608 0.06620007 0.069045834 -0.25019264 0.4048202 0
0.0007729606 0.06539923 0.069129556 -0.25019264 0.4048202 0
0.00055006467 0.064596444 0.069213651 -0.25019264 0.4048202 0
0.00037382191 0.063727453 0.069311172 -0.25019264 0.4048202 0
0.00022475691 0.062818207 0.069416806 -0.25019264 0.4048202 0
0.0001014056 0.061870329 0.069530196 -0.25019264 0.4048202 0
4.4837678e-05 0.060826987 0.069662839 -0.25019264 0.4048202 0
1.3877658e-05 0.059744038 0.069803357 -0.25019264 0.4048202 0
8.0133126e-05 0.05852202 0.06997183 -0.25019264 0.4048202 0
0.030550247 0.076958999 0.069998667 -0.25019264 0.4048202 0
0.028861552 0.077904604 0.069704153 -0.25019264 0.4048202 0
0.027415693 0.078573532 0.069469497 -0.25019264 0.4048202 0
0.026192011 0.078987487 0.069289848 -0.25019264 0.4048202 0
0.025021961 0.079343334 0.069123179 -0.25019264 0.4048202 0
0.023958797 0.079577327 0.068982966 -0.25019264 0.4048202 0
0.022934487 0.079769261 0.068852186 -0.25019264 0.4048202 0
0.021987954 0.079872228 0.06874074 -0.25019264 0.4048202 0
0.021047154 0.079971664 0.068630494 -0.25019264 0.4048202 0
0.020191481 0.079972126 0.068541579 -0.25019264 0.4048202 0
0.019338328 0.079972215 0.068453141 -0.25019264 0.4048202 0
0.018524067 0.079927936 0.068374433 -0.25019264 0.4048202 0
0.017745119 0.079843193 0.068304591 -0.25019264 0.4048202 0
0.016967759 0.079758622 0.068235062 -0.25019264 0.4048202 0
0.016236201 0.07962025 0.068177149 -0.25019264 0.4048202 0
0.015521524 0.079462953 0.068123512 -0.25019264 0.4048202 0
0.01480797 0.079305902 0.068070129 -0.25019264 0.4048202 0
0.01413678 0.079098269 0.068027601 -0.25019264 0.4048202 0
0.013478191 0.078876354 0.067988329 -0.25019264 0.4048202 0
0.01282036 0.078654699 0.067949258 -0.25019264 0.4048202 0
0.012195242 0.078393534 0.067918673 -0.25019264 0.4048202 0
0.011587066 0.078112155 0.067892529 -0.25019264 0.4048202 0
0.010979355 0.077831 0.067866571 -0.25019264 0.4048202 0
0.010391542 0.077525645 0.067845851 -0.25019264 0.4048202 0
0.0098300204 0.077187806 0.067832075 -0.25019264 0.4048202 0
0.0092687253 0.076850094 0.06781847 -0.25019264 0.4048202 0
0.0087130172 0.076505721 0.067806438 -0.25019264 0.4048202 0
0.0081959115 0.076112613 0.067804649 -0.25019264 0.4048202 0
0.0076788315 0.07571952 0.067803033 -0.25019264 0.4048202 0
0.0071617751 0.075326443 0.067801572 -0.25019264 0.4048202 0
0.00667889 0.074889526 0.067809291 -0.25019264 0.4048202 0
0.0062050545 0.074440695 0.067819595 -0.25019264 0.4048202 0
0.0057310741 0.073991738 0.067830071 -0.25019264 0.4048202 0
0.0052776961 0.073515721 0.067846224 -0.25019264 0.4048202 0
0.0048474115 0.073009156 0.067868754 -0.25019264 0.4048202 0
0.0044168406 0.072502248 0.067891456 -0.25019264 0.4048202 0
0.0039958307 0.071982101 0.067916974 -0.25019264 0.4048202 0
0.0036106773 0.071414046 0.067952357 -0.25019264 0.4048202 0
0.0032251216 0.070845395 0.067987949 -0.25019264 0.4048202 0
0.0028421993 0.070272133 0.068024553 -0.25019264 0.4048202 0
0.0025052938 0.069636658 0.068073869 -0.25019264 0.4048202 0
0.0021678985 0.069000266 0.068123423 -0.25019264 0.4048202 0
0.0018330084 0.068358943 0.068174019 -0.25019264 0.4048202 0
0.00154945 0.067647241 0.068238907 -0.25019264 0.4048202 0
0.0012653506 0.066934183 0.068304084 -0.25019264 0.4048202 0
0.00099531608 0.06620007 0.068373531 -0.25019264 0.4048202 0
0.0007729606 0.06539923 0.068456434 -0.25019264 0.4048202 0
0.00055006467 0.064596444 0.068539709 -0.25019264 0.4048202 0
0.00037382191 0.063727453 0.068636283 -0.25019264 0.4048202 0
0.00022475691 0.062818207 0.068740889 -0.25019264 0.4048202 0
0.0001014056 0.061870329 0.068853177 -0.25019264 0.4048202 0
4.4837678e-05 0.060826987 0.068984523 -0.25019264 0.4048202 0
1.3877658e-05 0.059744038 0.069123678 -0.25019264 0.4048202 0
8.0133126e-05 0.05852202 0.069290504 -0.25019264 0.4048202 0
0.00022391905 0.057186902 0.069479734 -0.25019264 0.4048202 0
0.00046634616 0.055708181 0.069697373 -0.25019264 0.4048202 0
0.00098535349 0.053835813 0.069993198 -0.25019264 0.4048202 0
0.032833178 0.075330257 0.069747902 -0.25019264 0.4048202 0
0.030550247 0.076958999 0.069310732 -0.25019264 0.4048202 0
0.028861552 0.077904604 0.069019109 -0.25019264 0.4048202 0
0.027415693 0.078573532 0.068786755 -0.25019264 0.4048202 0
0.026192011 0.078987487 0.068608873 -0.25019264 0.4048202 0
0.025021961 0.079343334 0.06844385 -0.25019264 0.4048202 0
0.023958797 0.079577327 0.068305008 -0.25019264 0.4048202 0
0.022934487 0.079769261 0.068175517 -0.25019264 0.4048202 0
0.021987954 0.079872228 0.068065159 -0.25019264 0.4048202 0
0.021047154 0.079971664 0.067956001 -0.25019264 0.4048202 0
0.020190934 0.079972781 0.067867823 -0.25019264 0.4048202 0
0.019337783 0.079972871 0.067780249 -0.25019264 0.4048202 0
0.018524067 0.079927936 0.06770245 -0.25019264 0.4048202 0
0.017745119 0.079843193 0.067633301 -0.25019264 0.4048202 0
0.016967759 0.079758622 0.06756445 -0.25019264 0.4048202 0
0.016236201 0.07962025 0.067507111 -0.25019264 0.4048202 0
0.015521524 0.079462953 0.067454003 -0.25019264 0.4048202 0
0.01480797 0.079305902 0.067401141 -0.25019264 0.4048202 0
0.01413678 0.079098269 0.06735903 -0.25019264 0.4048202 0
0.013478191 0.078876354 0.067320146 -0.25019264 0.4048202 0
0.01282036 0.078654699 0.067281462 -0.25019264 0.4048202 0
0.012195242 0.078393534 0.067251183 -0.25019264 0.4048202 0
0.011587066 0.078112155 0.067225292 -0.25019264 0.4048202 0
0.010979355 0.077831 0.067199588 -0.25019264 0.4048202 0
0.010391542 0.077525645 0.067179076 -0.25019264 0.4048202 0
0.0098300204 0.077187806 0.067165434 -0.25019264 0.4048202 0
0.0092687253 0.076850094 0.067151956 -0.25019264 0.4048202 0
0.0087130172 0.076505721 0.067140043 -0.25019264 0.4048202 0
0.0081959115 0.076112613 0.067138277 -0.25019264 0.4048202 0
0.0076788315 0.07571952 0.067136668 -0.25019264 0.4048202 0
0.0071617751 0.075326443 0.067135222 -0.25019264 0.4048202 0
0.00667889 0.074889526 0.067142867 -0.25019264 0.4048202 0
0.0062050545 0.074440695 0.067153074 -0.25019264 0.4048202 0
0.0057310741 0.073991738 0.067163445 -0.25019264 0.4048202 0
0.0052776961 0.073515721 0.067179441 -0.25019264 0.4048202 0
0.0048474115 0.073009156 0.067201748 -0.25019264 0.4048202 0
0.0044168406 0.072502248 0.067224227 -0.25019264 0.4048202 0
0.0039958307 0.071982101 0.067249492 -0.25019264 0.4048202 0
0.0036106773 0.071414046 0.067284532 -0.25019264 0.4048202 0
0.0032251216 0.070845395 0.067319766 -0.25019264 0.4048202 0
0.0028421993 0.070272133 0.067356013 -0.25019264 0.4048202 0
0.0025052938 0.069636658 0.067404844 -0.25019264 0.4048202 0
0.0021678985 0.069000266 0.067453913 -0.25019264 0.4048202 0
0.0018330084 0.068358943 0.067504011 -0.25019264 0.4048202 0
0.00154945 0.067647241 0.067568265 -0.25019264 0.4048202 0
0.0012653506 0.066934183 0.067632802 -0.25019264 0.4048202 0
0.00099531608 0.06620007 0.067701563 -0.25019264 0.4048202 0
0.0007729606 0.06539923 0.067783654 -0.25019264 0.4048202 0
0.00055006467 0.064596444 0.067866109 -0.25019264 0.4048202 0
0.00037382191 0.063727453 0.06796173 -0.25019264 0.4048202 0
0.00022475691 0.062818207 0.068065308 -0.25019264 0.4048202 0
0.0001014056 0.061870329 0.068176493 -0.25019264 0.4048202 0
4.4837678e-05 0.060826987 0.06830655 -0.25019264 0.4048202 0
1.3877658e-05 0.059744038 0.068444334 -0.25019264 0.4048202 0
8.0133126e-05 0.05852202 0.068609528 -0.25019264 0.4048202 0
0.00022391905 0.057186902 0.068796895 -0.25019264 0.4048202 0
0.00046634616 0.055708181 0.069012396 -0.25019264 0.4048202 0
0.00098535349 0.053835813 0.069305316 -0.25019264 0.4048202 0
0.0021189516 0.051092058 0.069769621 -0.25019264 0.4048202 0
0.032833178 0.075330257 0.069055974 -0.25019264 0.4048202 0
0.030550247 0.076958999 0.068623133 -0.25019264 0.4048202 0
0.028861552 0.077904604 0.068334401 -0.25019264 0.4048202 0
0.027415693 0.078573532 0.068104357 -0.25019264 0.4048202 0
0.026192011 0.078987487 0.06792824 -0.25019264 0.4048202 0
0.025021961 0.079343334 0.067764848 -0.25019264 0.4048202 0
0.023958797 0.079577327 0.067627385 -0.25019264 0.4048202 0
0.022934487 0.079769261 0.067499183 -0.25019264 0.4048202 0
0.021987954 0.079872228 0.06738992 -0.25019264 0.4048202 0
0.021047154 0.079971664 0.067281842 -0.25019264 0.4048202 0
0.020190386 0.079973444 0.067194402 -0.25019264 0.4048202 0
0.019337239 0.079973526 0.067107707 -0.25019264 0.4048202 0
0.018524067 0.079927936 0.06703081 -0.25019264 0.4048202 0
0.017745119 0.079843193 0.066962346 -0.25019264 0.4048202 0
0.016967759 0.079758622 0.066894181 -0.25019264 0.4048202 0
0.016236201 0.07962025 0.066837408 -0.25019264 0.4048202 0
0.015521524 0.079462953 0.066784829 -0.25019264 0.4048202 0
0.01480797 0.079305902 0.066732489 -0.25019264 0.4048202 0
0.01413678 0.079098269 0.066690795 -0.25019264 0.4048202 0
0.013478191 0.078876354 0.066652298 -0.25019264 0.4048202 0
0.01282036 0.078654699 0.066614002 -0.25019264 0.4048202 0
0.012195242 0.078393534 0.066584013 -0.25019264 0.4048202 0
0.011587066 0.078112155 0.066558383 -0.25019264 0.4048202 0
0.010979355 0.077831 0.066532932 -0.25019264 0.4048202 0
0.010391542 0.077525645 0.066512622 -0.25019264 0.4048202 0
0.0098300204 0.077187806 0.066499121 -0.25019264 0.4048202 0
0.0092687253 0.076850094 0.066485777 -0.25019264 0.4048202 0
0.0087130172 0.076505721 0.066473983 -0.25019264 0.4048202 0
0.0081959115 0.076112613 0.066472232 -0.25019264 0.4048202 0
0.0076788315 0.07571952 0.066470638 -0.25019264 0.4048202 0
0.0071617751 0.075326443 0.066469207 -0.25019264 0.4048202 0
0.00667889 0.074889526 0.066476777 -0.25019264 0.4048202 0
0.0062050545 0.074440695 0.06648688 -0.25019264 0.4048202 0
0.0057310741 0.073991738 0.066497155 -0.25019264 0.4048202 0
0.0052776961 0.073515721 0.066512987 -0.25019264 0.4048202 0
0.0048474115 0.073009156 0.066535071 -0.25019264 0.4048202 0
0.0044168406 0.072502248 0.066557333 -0.25019264 0.4048202 0
0.0039958307 0.071982101 0.066582344 -0.25019264 0.4048202 0
0.0036106773 0.071414046 0.066617034 -0.25019264 0.4048202 0
0.0032251216 0.070845395 0.066651925 -0.25019264 0.4048202 0
0.0028421993 0.070272133 0.066687807 -0.25019264 0.4048202 0
0.0025052938 0.069636658 0.066736154 -0.25019264 0.4048202 0
0.0021678985 0.069000266 0.066784732 -0.25019264 0.4048202 0
0.0018330084 0.068358943 0.066834338 -0.25019264 0.4048202 0
0.00154945 0.067647241 0.066897951 -0.25019264 0.4048202 0
0.0012653506 0.066934183 0.066961855 -0.25019264 0.4048202 0
0.00099531608 0.06620007 0.067029931 -0.25019264 0.4048202 0
0.0007729606 0.06539923 0.067111209 -0.25019264 0.4048202 0
0.00055006467 0.064596444 0.067192845 -0.25019264 0.4048202 0
0.00037382191 0.063727453 0.06728752 -0.25019264 0.4048202 0
0.00022475691 0.062818207 0.067390069 -0.25019264 0.4048202 0
0.0001014056 0.061870329 0.067500152 -0.25019264 0.4048202 0
4.4837678e-05 0.060826987 0.06762892 -0.25019264 0.4048202 0
1.3877658e-05 0.059744038 0.067765333 -0.25019264 0.4048202 0
8.0133126e-05 0.05852202 0.067928888 -0.25019264 0.4048202 0
0.00022391905 0.057186902 0.068114392 -0.25019264 0.4048202 0
0.00046634616 0.055708181 0.068327762 -0.25019264 0.4048202 0
0.00098535349 0.053835813 0.068617769 -0.25019264 0.4048202 0
0.0021189516 0.051092058 0.069077469 -0.25019264 0.4048202 0
0.032833178 0.075330257 0.068364382 -0.25019264 0.4048202 0
0.030550247 0.076958999 0.067935877 -0.25019264 0.4048202 0
0.028861552 0.077904604 0.067650035 -0.25019264 0.4048202 0
0.027415693 0.078573532 0.067422301 -0.25019264 0.4048202 0
0.026192011 0.078987487 0.067247942 -0.25019264 0.4048202 0
0.025021961 0.079343334 0.06708619 -0.25019264 0.4048202 0
0.023958797 0.079577327 0.066950105 -0.25019264 0.4048202 0
0.022934487 0.079769261 0.066823184 -0.25019264 0.4048202 0
0.021987954 0.079872228 0.066715017 -0.25019264 0.4048202 0
0.021047154 0.079971664 0.066608019 -0.25019264 0.4048202 0
0.020189838 0.0799741 0.066521324 -0.25019264 0.4048202 0
0.019336695 0.079974182 0.066435494 -0.25019264 0.4048202 0
0.018524067 0.079927936 0.066359505 -0.25019264 0.4048202 0
0.017745119 0.079843193 0.06629172 -0.25019264 0.4048202 0
0.016967759 0.079758622 0.06622424 -0.25019264 0.4048202 0
0.016236201 0.07962025 0.06616804 -0.25019264 0.4048202 0
0.015521524 0.079462953 0.066115983 -0.25019264 0.4048202 0
0.01480797 0.079305902 0.066064164 -0.25019264 0.4048202 0
0.01413678 0.079098269 0.066022895 -0.25019264 0.4048202 0
0.013478191 0.078876354 0.065984778 -0.25019264 0.4048202 0
0.01282036 0.078654699 0.065946862 -0.25019264 0.4048202 0
0.012195242 0.078393534 0.065917179 -0.25019264 0.4048202 0
0.011587066 0.078112155 0.06589181 -0.25019264 0.4048202 0
0.010979355 0.077831 0.065866612 -0.25019264 0.4048202 0
0.010391542 0.077525645 0.065846503 -0.25019264 0.4048202 0
0.0098300204 0.077187806 0.065833136 -0.25019264 0.4048202 0
0.0092687253 0.076850094 0.065819927 -0.25019264 0.4048202 0
0.0087130172 0.076505721 0.065808252 -0.25019264 0.4048202 0
0.0081959115 0.076112613 0.065806516 -0.25019264 0.4048202 0
0.0076788315 0.07571952 0.065804943 -0.25019264 0.4048202 0
0.0071617751 0.075326443 0.065803528 -0.25019264 0.4048202 0
0.00667889 0.074889526 0.065811016 -0.25019264 0.4048202 0
0.0062050545 0.074440695 0.065821022 -0.25019264 0.4048202 0
0.0057310741 0.073991738 0.065831184 -0.25019264 0.4048202 0
0.0052776961 0.073515721 0.06584686 -0.25019264 0.4048202 0
0.0048474115 0.073009156 0.065868728 -0.25019264 0.4048202 0
0.0044168406 0.072502248 0.065890767 -0.25019264 0.4048202 0
0.0039958307 0.071982101 0.065915525 -0.25019264 0.4048202 0
0.0036106773 0.071414046 0.065949872 -0.25019264 0.4048202 0
0.0032251216 0.070845395 0.065984406 -0.25019264 0.4048202 0
0.0028421993 0.070272133 0.066019937 -0.25019264 0.4048202 0
0.0025052938 0.069636658 0.0660678 -0.25019264 0.4048202 0
0.0021678985 0.069000266 0.066115893 -0.25019264 0.4048202 0
0.0018330084 0.068358943 0.066165 -0.25019264 0.4048202 0
0.00154945 0.067647241 0.066227973 -0.25019264 0.4048202 0
0.0012653506 0.066934183 0.066291235 -0.25019264 0.4048202 0
0.00099531608 0.06620007 0.066358633 -0.25019264 0.4048202 0
0.0007729606 0.06539923 0.066439092 -0.25019264 0.4048202 0
0.00055006467 0.064596444 0.066519916 -0.25019264 0.4048202 0
0.00037382191 0.063727453 0.066613637 -0.25019264 0.4048202 0
0.00022475691 0.062818207 0.066715159 -0.25019264 0.4048202 0
0.0001014056 0.061870329 0.066824146 -0.25019264 0.4048202 0
4.4837678e-05 0.060826987 0.066951618 -0.25019264 0.4048202 0
1.3877658e-05 0.059744038 0.067086667 -0.25019264 0.4048202 0
8.0133126e-05 0.05852202 0.067248583 -0.25019264 0.4048202 0
0.00022391905 0.057186902 0.067432232 -0.25019264 0.4048202 0
0.00046634616 0.055708181 0.067643464 -0.25019264 0.4048202 0
0.00098535349 0.053835813 0.067930572 -0.25019264 0.4048202 0
0.0021189516 0.051092058 0.068385668 -0.25019264 0.4048202 0
0.032833178 0.075330257 0.067673124 -0.25019264 0.4048202 0
0.030550247 0.076958999 0.067248955 -0.25019264 0.4048202 0
0.028861552 0.077904604 0.066966005 -0.25019264 0.4048202 0
0.027415693 0.078573532 0.066740572 -0.25019264 0.4048202 0
0.026192011 0.078987487 0.06656798 -0.25019264 0.4048202 0
0.025021961 0.079343334 0.066407859 -0.25019264 0.4048202 0
0.023958797 0.079577327 0.066273153 -0.25019264 0.4048202 0
0.022934487 0.079769261 0.066147514 -0.25019264 0.4048202 0
0.021987954 0.079872228 0.066040441 -0.25019264 0.4048202 0
0.021047154 0.079971664 0.065934524 -0.25019264 0.4048202 0
0.020189293 0.079974756 0.065848574 -0.25019264 0.4048202 0
0.019336149 0.079974838 0.065763608 -0.25019264 0.4048202 0
0.018524067 0.079927936 0.065688521 -0.25019264 0.4048202 0
0.017745119 0.079843193 0.065621428 -0.25019264 0.4048202 0
0.016967759 0.079758622 0.065554626 -0.25019264 0.4048202 0
0.016236201 0.07962025 0.065498993 -0.25019264 0.4048202 0
0.015521524 0.079462953 0.065447465 -0.25019264 0.4048202 0
0.01480797 0.079305902 0.065396167 -0.25019264 0.4048202 0
0.01413678 0.079098269 0.065355316 -0.25019264 0.4048202 0
0.013478191 0.078876354 0.065317586 -0.25019264 0.4048202 0
0.01282036 0.078654699 0.065280057 -0.25019264 0.4048202 0
0.012195242 0.078393534 0.065250672 -0.25019264 0.4048202 0
0.011587066 0.078112155 0.065225556 -0.25019264 0.4048202 0
0.010979355 0.077831 0.065200612 -0.25019264 0.4048202 0
0.010391542 0.077525645 0.065180711 -0.25019264 0.4048202 0
0.0098300204 0.077187806 0.065167479 -0.25019264 0.4048202 0
0.0092687253 0.076850094 0.065154403 -0.25019264 0.4048202 0
0.0087130172 0.076505721 0.06514284 -0.25019264 0.4048202 0
0.0081959115 0.076112613 0.065141127 -0.25019264 0.4048202 0
0.0076788315 0.07571952 0.065139569 -0.25019264 0.4048202 0
0.0071617751 0.075326443 0.065138169 -0.25019264 0.4048202 0
0.00667889 0.074889526 0.065145582 -0.25019264 0.4048202 0
0.0062050545 0.074440695 0.065155484 -0.25019264 0.4048202 0
0.0057310741 0.073991738 0.06516555 -0.25019264 0.4048202 0
0.0052776961 0.073515721 0.065181069 -0.25019264 0.4048202 0
0.0048474115 0.073009156 0.065202706 -0.25019264 0.4048202 0
0.0044168406 0.072502248 0.065224521 -0.25019264 0.4048202 0
0.0039958307 0.071982101 0.065249033 -0.25019264 0.4048202 0
0.0036106773 0.071414046 0.06528303 -0.25019264 0.4048202 0
0.0032251216 0.070845395 0.065317221 -0.25019264 0.4048202 0
0.0028421993 0.070272133 0.065352388 -0.25019264 0.4048202 0
0.0025052938 0.069636658 0.065399766 -0.25019264 0.4048202 0
0.0021678985 0.069000266 0.065447375 -0.25019264 0.4048202 0
0.0018330084 0.068358943 0.065495983 -0.25019264 0.4048202 0
0.00154945 0.067647241 0.065558322 -0.25019264 0.4048202 0
0.0012653506 0.066934183 0.065620944 -0.25019264 0.4048202 0
0.00099531608 0.06620007 0.065687656 -0.25019264 0.4048202 0
0.0007729606 0.06539923 0.065767311 -0.25019264 0.4048202 0
0.00055006467 0.064596444 0.065847307 -0.25019264 0.4048202 0
0.00037382191 0.063727453 0.06594009 -0.25019264 0.4048202 0
0.00022475691 0.062818207 0.066040583 -0.25019264 0.4048202 0
0.0001014056 0.061870329 0.066148467 -0.25019264 0.4048202 0
4.4837678e-05 0.060826987 0.06627465 -0.25019264 0.4048202 0
1.3877658e-05 0.059744038 0.066408336 -0.25019264 0.4048202 0
8.0133126e-05 0.05852202 0.066568613 -0.25019264 0.4048202 0
0.00022391905 0.057186902 0.066750407 -0.25019264 0.4048202 0
0.00046634616 0.055708181 0.0669595 -0.25019264 0.4048202 0
0.00098535349 0.053835813 0.067243703 -0.25019264 0.4048202 0
0.0021189516 0.051092058 0.067694195 -0.25019264 0.4048202 0
0.032833178 0.075330257 0.06698221 -0.25019264 0.4048202 0
0.030550247 0.076958999 0.066562369 -0.25019264 0.4048202 0
0.028861552 0.077904604 0.06628231 -0.25019264 0.4048202 0
0.027415693 0.078573532 0.066059172 -0.25019264 0.4048202 0
0.026192011 0.078987487 0.065888345 -0.25019264 0.4048202 0
0.025021961 0.079343334 0.065729856 -0.25019264 0.4048202 0
0.023958797 0.079577327 0.065596528 -0.25019264 0.4048202 0
0.022934487 0.079769261 0.065472171 -0.25019264 0.4048202 0
0.021987954 0.079872228 0.065366194 -0.25019264 0.4048202 0
0.021047154 0.079971664 0.065261357 -0.25019264 0.4048202 0
0.020188745 0.079975411 0.065176152 -0.25019264 0.4048202 0
0.019335605 0.079975493 0.06509205 -0.25019264 0.4048202 0
0.018524067 0.079927936 0.065017864 -0.25019264 0.4048202 0
0.017745119 0.079843193 0.064951457 -0.25019264 0.4048202 0
0.016967759 0.079758622 0.064885333 -0.25019264 0.4048202 0
0.016236201 0.07962025 0.064830273 -0.25019264 0.4048202 0
0.015521524 0.079462953 0.064779267 -0.25019264 0.4048202 0
0.01480797 0.079305902 0.064728498 -0.25019264 0.4048202 0
0.01413678 0.079098269 0.064688064 -0.25019264 0.4048202 0
0.013478191 0.078876354 0.064650714 -0.25019264 0.4048202 0
0.01282036 0.078654699 0.064613566 -0.25019264 0.4048202 0
0.012195242 0.078393534 0.064584486 -0.25019264 0.4048202 0
0.011587066 0.078112155 0.064559624 -0.25019264 0.4048202 0
0.010979355 0.077831 0.06453494 -0.25019264 0.4048202 0
0.010391542 0.077525645 0.06451524 -0.25019264 0.4048202 0
0.0098300204 0.077187806 0.064502142 -0.25019264 0.4048202 0
0.0092687253 0.076850094 0.064489201 -0.25019264 0.4048202 0
0.0087130172 0.076505721 0.064477757 -0.25019264 0.4048202 0
0.0081959115 0.076112613 0.064476058 -0.25019264 0.4048202 0
0.0076788315 0.07571952 0.064474516 -0.25019264 0.4048202 0
0.0071617751 0.075326443 0.06447313 -0.25019264 0.4048202 0
0.00667889 0.074889526 0.064480469 -0.25019264 0.4048202 0
0.0062050545 0.074440695 0.064490274 -0.25019264 0.4048202 0
0.0057310741 0.073991738 0.064500228 -0.25019264 0.4048202 0
0.0052776961 0.073515721 0.064515591 -0.25019264 0.4048202 0
0.0048474115 0.073009156 0.064537011 -0.25019264 0.4048202 0
0.0044168406 0.072502248 0.064558603 -0.25019264 0.4048202 0
0.0039958307 0.071982101 0.064582869 -0.25019264 0.4048202 0
0.0036106773 0.071414046 0.064616516 -0.25019264 0.4048202 0
0.0032251216 0.070845395 0.064650357 -0.25019264 0.4048202 0
0.0028421993 0.070272133 0.064685166 -0.25019264 0.4048202 0
0.0025052938 0.069636658 0.06473206 -0.25019264 0.4048202 0
0.0021678985 0.069000266 0.064779177 -0.25019264 0.4048202 0
0.0018330084 0.068358943 0.064827293 -0.25019264 0.4048202 0
0.00154945 0.067647241 0.064888999 -0.25019264 0.4048202 0
0.0012653506 0.066934183 0.064950973 -0.25019264 0.4048202 0
0.00099531608 0.06620007 0.065017007 -0.25019264 0.4048202 0
0.0007729606 0.06539923 0.065095849 -0.25019264 0.4048202 0
0.00055006467 0.064596444 0.065175034 -0.25019264 0.4048202 0
0.00037382191 0.063727453 0.065266863 -0.25019264 0.4048202 0
0.00022475691 0.062818207 0.065366335 -0.25019264 0.4048202 0
0.0001014056 0.061870329 0.065473109 -0.25019264 0.4048202 0
4.4837678e-05 0.060826987 0.065598011 -0.25019264 0.4048202 0
1.3877658e-05 0.059744038 0.065730326 -0.25019264 0.4048202 0
8.0133126e-05 0.05852202 0.065888971 -0.25019264 0.4048202 0
0.00022391905 0.057186902 0.06606891 -0.25019264 0.4048202 0
0.00046634616 0.055708181 0.066275865 -0.25019264 0.4048202 0
0.00098535349 0.053835813 0.066557169 -0.25019264 0.4048202 0
0.0021189516 0.051092058 0.067003064 -0.25019264 0.4048202 0
0.032833178 0.075330257 0.066291623 -0.25019264 0.4048202 0
0.030550247 0.076958999 0.065876111 -0.25019264 0.4048202 0
0.028861552 0.077904604 0.065598935 -0.25019264 0.4048202 0
0.027415693 0.078573532 0.0653781 -0.25019264 0.4048202 0
0.026192011 0.078987487 0.065209039 -0.25019264 0.4048202 0
0.025021961 0.079343334 0.065052181 -0.25019264 0.4048202 0
0.023958797 0.079577327 0.064920224 -0.25019264 0.4048202 0
0.022934487 0.079769261 0.064797148 -0.25019264 0.4048202 0
0.021987954 0.079872228 0.064692266 -0.25019264 0.4048202 0
0.021047154 0.079971664 0.06458851 -0.25019264 0.4048202 0
0.020188199 0.079976067 0.06450405 -0.25019264 0.4048202 0
0.019335061 0.079976149 0.064420827 -0.25019264 0.4048202 0
0.018524067 0.079927936 0.064347528 -0.25019264 0.4048202 0
0.017745119 0.079843193 0.064281806 -0.25019264 0.4048202 0
0.016967759 0.079758622 0.064216368 -0.25019264 0.4048202 0
0.016236201 0.07962025 0.064161867 -0.25019264 0.4048202 0
0.015521524 0.079462953 0.064111389 -0.25019264 0.4048202 0
0.01480797 0.079305902 0.06406115 -0.25019264 0.4048202 0
0.01413678 0.079098269 0.064021125 -0.25019264 0.4048202 0
0.013478191 0.078876354 0.063984163 -0.25019264 0.4048202 0
0.01282036 0.078654699 0.063947402 -0.25019264 0.4048202 0
0.012195242 0.078393534 0.06391862 -0.25019264 0.4048202 0
0.011587066 0.078112155 0.063894011 -0.25019264 0.4048202 0
0.010979355 0.077831 0.063869581 -0.25019264 0.4048202 0
0.010391542 0.077525645 0.063850082 -0.25019264 0.4048202 0
0.0098300204 0.077187806 0.063837118 -0.25019264 0.4048202 0
0.0092687253 0.076850094 0.063824318 -0.25019264 0.4048202 0
0.0087130172 0.076505721 0.063812993 -0.25019264 0.4048202 0
0.0081959115 0.076112613 0.06381131 -0.25019264 0.4048202 0
0.0076788315 0.07571952 0.063809782 -0.25019264 0.4048202 0
0.0071617751 0.075326443 0.063808411 -0.25019264 0.4048202 0
0.00667889 0.074889526 0.063815676 -0.25019264 0.4048202 0
0.0062050545 0.074440695 0.063825376 -0.25019264 0.4048202 0
0.0057310741 0.073991738 0.063835233 -0.25019264 0.4048202 0
0.0052776961 0.073515721 0.063850433 -0.25019264 0.4048202 0
0.0048474115 0.073009156 0.063871637 -0.25019264 0.4048202 0
0.0044168406 0.072502248 0.063893005 -0.25019264 0.4048202 0
0.0039958307 0.071982101 0.063917018 -0.25019264 0.4048202 0
0.0036106773 0.071414046 0.063950315 -0.25019264 0.4048202 0
0.0032251216 0.070845395 0.063983805 -0.25019264 0.4048202 0
0.0028421993 0.070272133 0.064018257 -0.25019264 0.4048202 0
0.0025052938 0.069636658 0.064064667 -0.25019264 0.4048202 0
0.0021678985 0.069000266 0.0641113 -0.25019264 0.4048202 0
0.0018330084 0.068358943 0.064158924 -0.25019264 0.4048202 0
0.00154945 0.067647241 0.064219989 -0.25019264 0.4048202 0
0.0012653506 0.066934183 0.06428133 -0.25019264 0.4048202 0
0.00099531608 0.06620007 0.064346686 -0.25019264 0.4048202 0
0.0007729606 0.06539923 0.064424708 -0.25019264 0.4048202 0
0.00055006467 0.064596444 0.064503074 -0.25019264 0.4048202 0
0.00037382191 0.063727453 0.064593963 -0.25019264 0.4048202 0
0.00022475691 0.062818207 0.064692408 -0.25019264 0.4048202 0
0.0001014056 0.061870329 0.064798079 -0.25019264 0.4048202 0
4.4837678e-05 0.060826987 0.064921692 -0.25019264 0.4048202 0
1.3877658e-05 0.059744038 0.065052651 -0.25019264 0.4048202 0
8.0133126e-05 0.05852202 0.06520965 -0.25019264 0.4048202 0
0.00022391905 0.057186902 0.065387733 -0.25019264 0.4048202 0
0.00046634616 0.055708181 0.065592557 -0.25019264 0.4048202 0
0.00098535349 0.053835813 0.065870963 -0.25019264 0.4048202 0
0.0021189516 0.051092058 0.066312261 -0.25019264 0.4048202 0
0.032833178 0.075330257 0.065601364 -0.25019264 0.4048202 0
0.030550247 0.076958999 0.065190174 -0.25019264 0.4048202 0
0.028861552 0.077904604 0.064915888 -0.25019264 0.4048202 0
0.027415693 0.078573532 0.064697355 -0.25019264 0.4048202 0
0.026192011 0.078987487 0.064530045 -0.25019264 0.4048202 0
0.025021961 0.079343334 0.064374827 -0.25019264 0.4048202 0
0.023958797 0.079577327 0.064244241 -0.25019264 0.4048202 0
0.022934487 0.079769261 0.064122453 -0.25019264 0.4048202 0
0.021987954 0.079872228 0.064018659 -0.25019264 0.4048202 0
0.021047154 0.079971664 0.063915983 -0.25019264 0.4048202 0
0.020187654 0.079976723 0.063832276 -0.25019264 0.4048202 0
0.019334517 0.079976805 0.063749917 -0.25019264 0.4048202 0
0.018524067 0.079927936 0.063677512 -0.25019264 0.4048202 0
0.017745119 0.079843193 0.063612469 -0.25019264 0.4048202 0
0.016967759 0.079758622 0.063547716 -0.25019264 0.4048202 0
0.016236201 0.07962025 0.063493781 -0.25019264 0.4048202 0
0.015521524 0.079462953 0.063443832 -0.25019264 0.4048202 0
0.01480797 0.079305902 0.063394114 -0.25019264 0.4048202 0
0.01413678 0.079098269 0.063354507 -0.25019264 0.4048202 0
0.013478191 0.078876354 0.063317932 -0.25019264 0.4048202 0
0.01282036 0.078654699 0.063281551 -0.25019264 0.4048202 0
0.012195242 0.078393534 0.063253067 -0.25019264 0.4048202 0
0.011587066 0.078112155 0.063228719 -0.25019264 0.4048202 0
0.010979355 0.077831 0.063204542 -0.25019264 0.4048202 0
0.010391542 0.077525645 0.063185245 -0.25019264 0.4048202 0
0.0098300204 0.077187806 0.063172415 -0.25019264 0.4048202 0
0.0092687253 0.076850094 0.063159749 -0.25019264 0.4048202 0
0.0087130172 0.076505721 0.063148543 -0.25019264 0.4048202 0
0.0081959115 0.076112613 0.063146874 -0.25019264 0.4048202 0
0.0076788315 0.07571952 0.063145362 -0.25019264 0.4048202 0
0.0071617751 0.075326443 0.063144006 -0.25019264 0.4048202 0
0.00667889 0.074889526 0.063151196 -0.25019264 0.4048202 0
0.0062050545 0.074440695 0.063160792 -0.25019264 0.4048202 0
0.0057310741 0.073991738 0.063170552 -0.25019264 0.4048202 0
0.0052776961 0.073515721 0.063185595 -0.25019264 0.4048202 0
0.0048474115 0.073009156 0.063206568 -0.25019264 0.4048202 0
0.0044168406 0.072502248 0.063227721 -0.25019264 0.4048202 0
0.0039958307 0.071982101 0.06325148 -0.25019264 0.4048202 0
0.0036106773 0.071414046 0.063284434 -0.25019264 0.4048202 0
0.0032251216 0.070845395 0.063317575 -0.25019264 0.4048202 0
0.0028421993 0.070272133 0.063351668 -0.25019264 0.4048202 0
0.0025052938 0.069636658 0.063397594 -0.25019264 0.4048202 0
0.0021678985 0.069000266 0.063443743 -0.25019264 0.4048202 0
0.0018330084 0.068358943 0.063490868 -0.25019264 0.4048202 0
0.00154945 0.067647241 0.063551299 -0.25019264 0.4048202 0
0.0012653506 0.066934183 0.063611999 -0.25019264 0.4048202 0
0.00099531608 0.06620007 0.063676678 -0.25019264 0.4048202 0
0.0007729606 0.06539923 0.063753888 -0.25019264 0.4048202 0
0.00055006467 0.064596444 0.063831441 -0.25019264 0.4048202 0
0.00037382191 0.063727453 0.063921377 -0.25019264 0.4048202 0
0.00022475691 0.062818207 0.064018793 -0.25019264 0.4048202 0
0.0001014056 0.061870329 0.064123377 -0.25019264 0.4048202 0
4.4837678e-05 0.060826987 0.064245701 -0.25019264 0.4048202 0
1.3877658e-05 0.059744038 0.064375289 -0.25019264 0.4048202 0
8.0133126e-05 0.05852202 0.064530656 -0.25019264 0.4048202 0
0.00022391905 0.057186902 0.064706884 -0.25019264 0.4048202 0
0.00046634616 0.055708181 0.064909577 -0.25019264 0.4048202 0
0.00098535349 0.053835813 0.065185085 -0.25019264 0.4048202 0
0.0021189516 0.051092058 0.065621786 -0.25019264 0.4048202 0
0.032833178 0.075330257 0.064911425 -0.25019264 0.4048202 0
0.030550247 0.076958999 0.064504564 -0.25019264 0.4048202 0
0.028861552 0.077904604 0.064233162 -0.25019264 0.4048202 0
0.027415693 0.078573532 0.064016923 -0.25019264 0.4048202 0
0.026192011 0.078987487 0.063851379 -0.25019264 0.4048202 0
0.025021961 0.079343334 0.063697793 -0.25019264 0.4048202 0
0.023958797 0.079577327 0.063568577 -0.25019264 0.4048202 0
0.022934487 0.079769261 0.063448071 -0.25019264 0.4048202 0
0.021987954 0.079872228 0.063345365 -0.25019264 0.4048202 0
0.021047154 0.079971664 0.063243777 -0.25019264 0.4048202 0
0.020187108 0.079977378 0.063160814 -0.25019264 0.4048202 0
0.019333975 0.07997746 0.06307932 -0.25019264 0.4048202 0
0.018524067 0.079927936 0.063007809 -0.25019264 0.4048202 0
0.017745119 0.079843193 0.062943451 -0.25019264 0.4048202 0
0.016967759 0.079758622 0.062879376 -0.25019264 0.4048202 0
0.016236201 0.07962025 0.062826015 -0.25019264 0.4048202 0
0.015521524 0.079462953 0.062776588 -0.25019264 0.4048202 0
0.01480797 0.079305902 0.062727392 -0.25019264 0.4048202 0
0.01413678 0.079098269 0.062688202 -0.25019264 0.4048202 0
0.013478191 0.078876354 0.062652014 -0.25019264 0.4048202 0
0.01282036 0.078654699 0.062616013 -0.25019264 0.4048202 0
0.012195242 0.078393534 0.062587827 -0.25019264 0.4048202 0
0.011587066 0.078112155 0.062563732 -0.25019264 0.4048202 0
0.010979355 0.077831 0.062539816 -0.25019264 0.4048202 0
0.010391542 0.077525645 0.06252072 -0.25019264 0.4048202 0
0.0098300204 0.077187806 0.062508024 -0.25019264 0.4048202 0
0.0092687253 0.076850094 0.062495489 -0.25019264 0.4048202 0
0.0087130172 0.076505721 0.062484398 -0.25019264 0.4048202 0
0.0081959115 0.076112613 0.062482752 -0.25019264 0.4048202 0
0.0076788315 0.07571952 0.062481258 -0.25019264 0.4048202 0
0.0071617751 0.075326443 0.062479913 -0.25019264 0.4048202 0
0.00667889 0.074889526 0.062487025 -0.25019264 0.4048202 0
0.0062050545 0.074440695 0.062496524 -0.25019264 0.4048202 0
0.0057310741 0.073991738 0.062506177 -0.25019264 0.4048202 0
0.0052776961 0.073515721 0.062521063 -0.25019264 0.4048202 0
0.0048474115 0.073009156 0.06254182 -0.25019264 0.4048202 0
0.0044168406 0.072502248 0.062562741 -0.25019264 0.4048202 0
0.0039958307 0.071982101 0.062586263 -0.25019264 0.4048202 0
0.0036106773 0.071414046 0.062618867 -0.25019264 0.4048202 0
0.0032251216 0.070845395 0.062651664 -0.25019264 0.4048202 0
0.0028421993 0.070272133 0.062685393 -0.25019264 0.4048202 0
0.0025052938 0.069636658 0.062730834 -0.25019264 0.4048202 0
0.0021678985 0.069000266 0.062776498 -0.25019264 0.4048202 0
0.0018330084 0.068358943 0.062823132 -0.25019264 0.4048202 0
0.00154945 0.067647241 0.062882923 -0.25019264 0.4048202 0
0.0012653506 0.066934183 0.062942989 -0.25019264 0.4048202 0
0.00099531608 0.06620007 0.063006982 -0.25019264 0.4048202 0
0.0007729606 0.06539923 0.06308338 -0.25019264 0.4048202 0
0.00055006467 0.064596444 0.063160121 -0.25019264 0.4048202 0
0.00037382191 0.063727453 0.063249111 -0.25019264 0.4048202 0
0.00022475691 0.062818207 0.063345507 -0.25019264 0.4048202 0
0.0001014056 0.061870329 0.06344898 -0.25019264 0.4048202 0
4.4837678e-05 0.060826987 0.063570015 -0.25019264 0.4048202 0
1.3877658e-05 0.059744038 0.063698247 -0.25019264 0.4048202 0
8.0133126e-05 0.05852202 0.063851982 -0.25019264 0.4048202 0
0.00022391905 0.057186902 0.064026356 -0.25019264 0.4048202 0
0.00046634616 0.055708181 0.064226918 -0.25019264 0.4048202 0
0.00098535349 0.053835813 0.06449952 -0.25019264 0.4048202 0
0.0021189516 0.051092058 0.064931631 -0.25019264 0.4048202 0
0.032833178 0.075330257 0.064221807 -0.25019264 0.4048202 0
0.030550247 0.076958999 0.063819267 -0.25019264 0.4048202 0
0.028861552 0.077904604 0.063550748 -0.25019264 0.4048202 0
0.027415693 0.078573532 0.063336812 -0.25019264 0.4048202 0
0.026192011 0.078987487 0.063173026 -0.25019264 0.4048202 0
0.025021961 0.079343334 0.063021071 -0.25019264 0.4048202 0
0.023958797 0.079577327 0.062893227 -0.25019264 0.4048202 0
0.022934487 0.079769261 0.062774003 -0.25019264 0.4048202 0
0.021987954 0.079872228 0.062672392 -0.25019264 0.4048202 0
0.021047154 0.079971664 0.062571876 -0.25019264 0.4048202 0
0.020186562 0.079978034 0.062489673 -0.25019264 0.4048202 0
0.019333431 0.079978116 0.062409043 -0.25019264 0.4048202 0
0.018524067 0.079927936 0.062338416 -0.25019264 0.4048202 0
0.017745119 0.079843193 0.062274743 -0.25019264 0.4048202 0
0.016967759 0.079758622 0.06221135 -0.25019264 0.4048202 0
0.016236201 0.07962025 0.062158551 -0.25019264 0.4048202 0
0.015521524 0.079462953 0.062109653 -0.25019264 0.4048202 0
0.01480797 0.079305902 0.062060975 -0.25019264 0.4048202 0
0.01413678 0.079098269 0.062022205 -0.25019264 0.4048202 0
0.013478191 0.078876354 0.061986398 -0.25019264 0.4048202 0
0.01282036 0.078654699 0.06195078 -0.25019264 0.4048202 0
0.012195242 0.078393534 0.061922897 -0.25019264 0.4048202 0
0.011587066 0.078112155 0.061899062 -0.25019264 0.4048202 0
0.010979355 0.077831 0.061875392 -0.25019264 0.4048202 0
0.010391542 0.077525645 0.061856505 -0.25019264 0.4048202 0
0.0098300204 0.077187806 0.061843943 -0.25019264 0.4048202 0
0.0092687253 0.076850094 0.061831538 -0.25019264 0.4048202 0
0.0087130172 0.076505721 0.061820567 -0.25019264 0.4048202 0
0.0081959115 0.076112613 0.061818939 -0.25019264 0.4048202 0
0.0076788315 0.07571952 0.06181746 -0.25019264 0.4048202 0
0.0071617751 0.075326443 0.06181613 -0.25019264 0.4048202 0
0.00667889 0.074889526 0.061823167 -0.25019264 0.4048202 0
0.0062050545 0.074440695 0.061832566 -0.25019264 0.4048202 0
0.0057310741 0.073991738 0.061842114 -0.25019264 0.4048202 0
0.0052776961 0.073515721 0.06185684 -0.25019264 0.4048202 0
0.0048474115 0.073009156 0.061877381 -0.25019264 0.4048202 0
0.0044168406 0.072502248 0.061898082 -0.25019264 0.4048202 0
0.0039958307 0.071982101 0.061921347 -0.25019264 0.4048202 0
0.0036106773 0.071414046 0.061953608 -0.25019264 0.4048202 0
0.0032251216 0.070845395 0.061986051 -0.25019264 0.4048202 0
0.0028421993 0.070272133 0.062019426 -0.25019264 0.4048202 0
0.0025052938 0.069636658 0.062064387 -0.25019264 0.4048202 0
0.0021678985 0.069000266 0.062109567 -0.25019264 0.4048202 0
0.0018330084 0.068358943 0.062155697 -0.25019264 0.4048202 0
0.00154945 0.067647241 0.062214859 -0.25019264 0.4048202 0
0.0012653506 0.066934183 0.062274285 -0.25019264 0.4048202 0
0.00099531608 0.06620007 0.062337596 -0.25019264 0.4048202 0
0.0007729606 0.06539923 0.062413186 -0.25019264 0.4048202 0
0.00055006467 0.064596444 0.062489107 -0.25019264 0.4048202 0
0.00037382191 0.063727453 0.062577151 -0.25019264 0.4048202 0
0.00022475691 0.062818207 0.062672526 -0.25019264 0.4048202 0
0.0001014056 0.061870329 0.062774904 -0.25019264 0.4048202 0
4.4837678e-05 0.060826987 0.06289465 -0.25019264 0.4048202 0
1.3877658e-05 0.059744038 0.063021518 -0.25019264 0.4048202 0
8.0133126e-05 0.05852202 0.063173622 -0.25019264 0.4048202 0
0.00022391905 0.057186902 0.063346148 -0.25019264 0.4048202 0
0.00046634616 0.055708181 0.063544571 -0.25019264 0.4048202 0
0.00098535349 0.053835813 0.063814282 -0.25019264 0.4048202 0
0.0021189516 0.051092058 0.064241804 -0.25019264 0.4048202 0
0.032833178 0.075330257 0.063532509 -0.25019264 0.4048202 0
0.030550247 0.076958999 0.06313429 -0.25019264 0.4048202 0
0.028861552 0.077904604 0.062868655 -0.25019264 0.4048202 0
0.027415693 0.078573532 0.062657006 -0.25019264 0.4048202 0
0.026192011 0.078987487 0.062494982 -0.25019264 0.4048202 0
0.025021961 0.079343334 0.062344659 -0.25019264 0.4048202 0
0.023958797 0.079577327 0.062218189 -0.25019264 0.4048202 0
0.022934487 0.079769261 0.062100239 -0.25019264 0.4048202 0
0.021987954 0.079872228 0.06199972 -0.25019264 0.4048202 0
0.021047154 0.079971664 0.061900284 -0.25019264 0.4048202 0
0.020186016 0.07997869 0.061818842 -0.25019264 0.4048202 0
0.019332889 0.079978772 0.061739076 -0.25019264 0.4048202 0
0.018524067 0.079927936 0.061669331 -0.25019264 0.4048202 0
0.017745119 0.079843193 0.06160634 -0.25019264 0.4048202 0
0.016967759 0.079758622 0.061543629 -0.25019264 0.4048202 0
0.016236201 0.07962025 0.0614914 -0.25019264 0.4048202 0
0.015521524 0.079462953 0.06144302 -0.25019264 0.4048202 0
0.01480797 0.079305902 0.06139487 -0.25019264 0.4048202 0
0.01413678 0.079098269 0.061356515 -0.25019264 0.4048202 0
0.013478191 0.078876354 0.061321091 -0.25019264 0.4048202 0
0.01282036 0.078654699 0.061285857 -0.25019264 0.4048202 0
0.012195242 0.078393534 0.061258271 -0.25019264 0.4048202 0
0.011587066 0.078112155 0.06123469 -0.25019264 0.4048202 0
0.010979355 0.077831 0.061211277 -0.25019264 0.4048202 0
0.010391542 0.077525645 0.061192591 -0.25019264 0.4048202 0
0.0098300204 0.077187806 0.061180167 -0.25019264 0.4048202 0
0.0092687253 0.076850094 0.061167896 -0.25019264 0.4048202 0
0.0087130172 0.076505721 0.06115704 -0.25019264 0.4048202 0
0.0081959115 0.076112613 0.061155431 -0.25019264 0.4048202 0
0.0076788315 0.07571952 0.061153967 -0.25019264 0.4048202 0
0.0071617751 0.075326443 0.061152648 -0.25019264 0.4048202 0
0.00667889 0.074889526 0.061159611 -0.25019264 0.4048202 0
0.0062050545 0.074440695 0.061168909 -0.25019264 0.4048202 0
0.0057310741 0.073991738 0.061178356 -0.25019264 0.4048202 0
0.0052776961 0.073515721 0.061192926 -0.25019264 0.4048202 0
0.0048474115 0.073009156 0.061213244 -0.25019264 0.4048202 0
0.0044168406 0.072502248 0.061233722 -0.25019264 0.4048202 0
0.0039958307 0.071982101 0.061256737 -0.25019264 0.4048202 0
0.0036106773 0.071414046 0.061288651 -0.25019264 0.4048202 0
0.0032251216 0.070845395 0.061320748 -0.25019264 0.4048202 0
0.0028421993 0.070272133 0.061353765 -0.25019264 0.4048202 0
0.0025052938 0.069636658 0.061398245 -0.25019264 0.4048202 0
0.0021678985 0.069000266 0.061442938 -0.25019264 0.4048202 0
0.0018330084 0.068358943 0.061488576 -0.25019264 0.4048202 0
0.00154945 0.067647241 0.061547101 -0.25019264 0.4048202 0
0.0012653506 0.066934183 0.061605886 -0.25019264 0.4048202 0
0.00099531608 0.06620007 0.061668523 -0.25019264 0.4048202 0
0.0007729606 0.06539923 0.061743297 -0.25019264 0.4048202 0
0.00055006467 0.064596444 0.061818406 -0.25019264 0.4048202 0
0.00037382191 0.063727453 0.061905507 -0.25019264 0.4048202 0
0.00022475691 0.062818207 0.061999854 -0.25019264 0.4048202 0
0.0001014056 0.061870329 0.062101133 -0.25019264 0.4048202 0
4.4837678e-05 0.060826987 0.062219597 -0.25019264 0.4048202 0
1.3877658e-05 0.059744038 0.062345102 -0.25019264 0.4048202 0
8.0133126e-05 0.05852202 0.062495574 -0.25019264 0.4048202 0
0.00022391905 0.057186902 0.062666245 -0.25019264 0.4048202 0
0.00046634616 0.055708181 0.062862545 -0.25019264 0.4048202 0
0.00098535349 0.053835813 0.063129358 -0.25019264 0.4048202 0
0.0021189516 0.051092058 0.06355229 -0.25019264 0.4048202 0
0.032833178 0.075330257 0.062843524 -0.25019264 0.4048202 0
0.030550247 0.076958999 0.062449623 -0.25019264 0.4048202 0
0.028861552 0.077904604 0.062186867 -0.25019264 0.4048202 0
0.027415693 0.078573532 0.061977517 -0.25019264 0.4048202 0
0.026192011 0.078987487 0.061817247 -0.25019264 0.4048202 0
0.025021961 0.079343334 0.061668552 -0.25019264 0.4048202 0
0.023958797 0.079577327 0.061543457 -0.25019264 0.4048202 0
0.022934487 0.079769261 0.061426785 -0.25019264 0.4048202 0
0.021987954 0.079872228 0.061327357 -0.25019264 0.4048202 0
0.021047154 0.079971664 0.061228998 -0.25019264 0.4048202 0
0.020185472 0.079979345 0.061148316 -0.25019264 0.4048202 0
0.019332346 0.079979427 0.061069418 -0.25019264 0.4048202 0
0.018524067 0.079927936 0.061000552 -0.25019264 0.4048202 0
0.017745119 0.079843193 0.060938243 -0.25019264 0.4048202 0
0.016967759 0.079758622 0.060876209 -0.25019264 0.4048202 0
0.016236201 0.07962025 0.060824547 -0.25019264 0.4048202 0
0.015521524 0.079462953 0.060776696 -0.25019264 0.4048202 0
0.01480797 0.079305902 0.060729064 -0.25019264 0.4048202 0
0.01413678 0.079098269 0.060691126 -0.25019264 0.4048202 0
0.013478191 0.078876354 0.060656086 -0.25019264 0.4048202 0
0.01282036 0.078654699 0.060621236 -0.25019264 0.4048202 0
0.012195242 0.078393534 0.060593948 -0.25019264 0.4048202 0
0.011587066 0.078112155 0.060570624 -0.25019264 0.4048202 0
0.010979355 0.077831 0.060547464 -0.25019264 0.4048202 0
0.010391542 0.077525645 0.060528979 -0.25019264 0.4048202 0
0.0098300204 0.077187806 0.060516689 -0.25019264 0.4048202 0
0.0092687253 0.076850094 0.060504552 -0.25019264 0.4048202 0
0.0087130172 0.076505721 0.060493816 -0.25019264 0.4048202 0
0.0081959115 0.076112613 0.060492221 -0.25019264 0.4048202 0
0.0076788315 0.07571952 0.060490772 -0.25019264 0.4048202 0
0.0071617751 0.075326443 0.060489472 -0.25019264 0.4048202 0
0.00667889 0.074889526 0.06049636 -0.25019264 0.4048202 0
0.0062050545 0.074440695 0.060505554 -0.25019264 0.4048202 0
0.0057310741 0.073991738 0.060514901 -0.25019264 0.4048202 0
0.0052776961 0.073515721 0.06052931 -0.25019264 0.4048202 0
0.0048474115 0.073009156 0.060549408 -0.25019264 0.4048202 0
0.0044168406 0.072502248 0.060569666 -0.25019264 0.4048202 0
0.0039958307 0.071982101 0.060592432 -0.25019264 0.4048202 0
0.0036106773 0.071414046 0.060624 -0.25019264 0.4048202 0
0.0032251216 0.070845395 0.060655747 -0.25019264 0.4048202 0
0.0028421993 0.070272133 0.060688406 -0.25019264 0.4048202 0
0.0025052938 0.069636658 0.060732402 -0.25019264 0.4048202 0
0.0021678985 0.069000266 0.06077661 -0.25019264 0.4048202 0
0.0018330084 0.068358943 0.060821753 -0.25019264 0.4048202 0
0.00154945 0.067647241 0.060879644 -0.25019264 0.4048202 0
0.0012653506 0.066934183 0.060937796 -0.25019264 0.4048202 0
0.00099531608 0.06620007 0.060999751 -0.25019264 0.4048202 0
0.0007729606 0.06539923 0.061073713 -0.25019264 0.4048202 0
0.00055006467 0.064596444 0.061148006 -0.25019264 0.4048202 0
0.00037382191 0.063727453 0.061234161 -0.25019264 0.4048202 0
0.00022475691 0.062818207 0.061327487 -0.25019264 0.4048202 0
0.0001014056 0.061870329 0.061427668 -0.25019264 0.4048202 0
4.4837678e-05 0.060826987 0.06154485 -0.25019264 0.4048202 0
1.3877658e-05 0.059744038 0.061668992 -0.25019264 0.4048202 0
8.0133126e-05 0.05852202 0.061817832 -0.25019264 0.4048202 0
0.00022391905 0.057186902 0.061986651 -0.25019264 0.4048202 0
0.00046634616 0.055708181 0.062180821 -0.25019264 0.4048202 0
0.00098535349 0.053835813 0.062444743 -0.25019264 0.4048202 0
0.0021189516 0.051092058 0.062863089 -0.25019264 0.4048202 0
0.032833178 0.075330257 0.062154844 -0.25019264 0.4048202 0
