# .PCD v0.7 - Point Cloud Data file format
VERSION 0.7
FIELDS x y z vp_x vp_y vp_z
SIZE 4 4 4 4 4 4
TYPE F F F F F F
COUNT 1 1 1 1 1 1
WIDTH 722
HEIGHT 1
VIEWPOINT 0 0 0 1 0 0 0
POINTS 722
DATA ascii
0.014911399 0 0.024341309 0.14741376 -0.38593423 -0.23852047
0.015706981 0 0.024159621 0.14741376 -0.38593423 -0.23852047
0.016501535 0 0.023978235 0.14741376 -0.38593423 -0.23852047
0.0092578856 0.023838405 0.039999999 0.14741376 -0.38593423 -0.23852047
0.018087577 0 0.023616366 0.14741376 -0.38593423 -0.23852047
0.018879078 5.5511151e-17 0.023435881 0.14741376 -0.38593423 -0.23852047
0.019669576 0 0.023255693 0.14741376 -0.38593423 -0.23852047
0.012245628 0.024968354 0.039999999 0.14741376 -0.38593423 -0.23852047
0.021247579 0 0.022896199 0.14741376 -0.38593423 -0.23852047
0.022035096 0 0.022716893 0.14741376 -0.38593423 -0.23852047
0.022821631 0 0.022537876 0.14741376 -0.38593423 -0.23852047
0.023607191 0 0.022359151 0.14741376 -0.38593423 -0.23852047
0.02439178 0 0.022180714 0.14741376 -0.38593423 -0.23852047
0.025175406 0 0.022002563 0.14741376 -0.38593423 -0.23852047
0.017478967 0.026942967 0.039999999 0.14741376 -0.38593423 -0.23852047
0.026739785 5.5511151e-17 0.021647116 0.14741376 -0.38593423 -0.23852047
0.02752055 0 0.021469817 0.14741376 -0.38593423 -0.23852047
0.028300375 0 0.0212928 0.14741376 -0.38593423 -0.23852047
0.020472534 0.028069848 0.039999999 0.14741376 -0.38593423 -0.23852047
0.02122131 0.028351413 0.039999999 0.14741376 -0.38593423 -0.23852047
0.030634254 0 0.02076342 0.14741376 -0.38593423 -0.23852047
0.022719342 0.028914366 0.039999999 0.14741376 -0.38593423 -0.23852047
0.032185569 0 0.020411881 0.14741376 -0.38593423 -0.23852047
0.02421804 0.02947709 0.039999999 0.14741376 -0.38593423 -0.23852047
0.033733249 0 0.020061431 0.14741376 -0.38593423 -0.23852047
0.03450574 5.5511151e-17 0.019886615 0.14741376 -0.38593423 -0.23852047
0.035277341 0 0.019712064 0.14741376 -0.38593423 -0.23852047
0.036048055 5.5511151e-17 0.019537782 0.14741376 -0.38593423 -0.23852047
0.036817886 0 0.019363768 0.14741376 -0.38593423 -0.23852047
0.037586845 0 0.019190017 0.14741376 -0.38593423 -0.23852047
0.03835493 0 0.019016529 0.14741376 -0.38593423 -0.23852047
0.030219996 0.031725883 0.039999999 0.14741376 -0.38593423 -0.23852047
0.039888516 0 0.018670339 0.14741376 -0.38593423 -0.23852047
0.031722408 0.032287601 0.039999999 0.14741376 -0.38593423 -0.23852047
0.039999999 0.0051655015 0.021762917 0.14741376 -0.38593423 -0.23852047
0.039999999 0.0080042752 0.023476407 0.14741376 -0.38593423 -0.23852047
0.039999999 0.010881375 0.025213098 0.14741376 -0.38593423 -0.23852047
0.039999999 0.013797596 0.026973475 0.14741376 -0.38593423 -0.23852047
0.039999999 0.016753759 0.028758032 0.14741376 -0.38593423 -0.23852047
0.039999999 0.019750705 0.030567277 0.14741376 -0.38593423 -0.23852047
0.039999999 0.022789296 0.032401737 0.14741376 -0.38593423 -0.23852047
0.039999999 0.025870426 0.034261946 0.14741376 -0.38593423 -0.23852047
0.039999999 0.028995009 0.036148459 0.14741376 -0.38593423 -0.23852047
0.039999999 0.032163985 0.03806185 0.14741376 -0.38593423 -0.23852047
0.036566198 0.048846833 0.048906524 0.14741376 -0.38593423 -0.23852047
0.037182704 0.049774919 0.049328495 0.14741376 -0.38593423 -0.23852047
0.037761081 0.050865818 0.049857412 0.14741376 -0.38593423 -0.23852047
0.038323574 0.052034058 0.050436672 0.14741376 -0.38593423 -0.23852047
0.038851202 0.053358268 0.051118016 0.14741376 -0.38593423 -0.23852047
0.039320569 0.054937597 0.05196657 0.14741376 -0.38593423 -0.23852047
0.039718181 0.056833629 0.053022552 0.14741376 -0.38593423 -0.23852047
0.039966211 0.059376575 0.054502834 0.14741376 -0.38593423 -0.23852047
0.00040763093 5.5511151e-17 0.026758246 0.14741376 -0.38593423 -0.23852047
0.0012220343 5.5511151e-17 0.026571648 0.14741376 -0.38593423 -0.23852047
0.0020352986 0 0.02638538 0.14741376 -0.38593423 -0.23852047
0.0028474301 5.5511151e-17 0.026199436 0.14741376 -0.38593423 -0.23852047
0.0036584353 0 0.026013816 0.14741376 -0.38593423 -0.23852047
0.0044683209 0 0.025828518 0.14741376 -0.38593423 -0.23852047
2.7755576e-17 0.014328538 0.035451129 0.14741376 -0.38593423 -0.23852047
0.0060847574 5.5511151e-17 0.025458885 0.14741376 -0.38593423 -0.23852047
0.0068913214 5.5511151e-17 0.025274547 0.14741376 -0.38593423 -0.23852047
0.0076967911 0 0.025090525 0.14741376 -0.38593423 -0.23852047
0.0085011721 0 0.024906818 0.14741376 -0.38593423 -0.23852047
0.0093044713 0 0.024723424 0.14741376 -0.38593423 -0.23852047
0.010106695 0 0.024540341 0.14741376 -0.38593423 -0.23852047
0.010907849 0 0.024357568 0.14741376 -0.38593423 -0.23852047
0.011707939 0 0.024175104 0.14741376 -0.38593423 -0.23852047
0.012506973 0 0.023992946 0.14741376 -0.38593423 -0.23852047
0.013304955 0 0.023811096 0.14741376 -0.38593423 -0.23852047
0.014101892 5.5511151e-17 0.023629548 0.14741376 -0.38593423 -0.23852047
0.01489779 0 0.023448303 0.14741376 -0.38593423 -0.23852047
0.015692655 5.5511151e-17 0.023267359 0.14741376 -0.38593423 -0.23852047
0.016486492 0 0.023086714 0.14741376 -0.38593423 -0.23852047
0.017279308 5.5511151e-17 0.022906369 0.14741376 -0.38593423 -0.23852047
0.018071111 0 0.022726318 0.14741376 -0.38593423 -0.23852047
0.018861903 0 0.022546563 0.14741376 -0.38593423 -0.23852047
0.019651692 0 0.022367101 0.14741376 -0.38593423 -0.23852047
0.020440483 0 0.022187933 0.14741376 -0.38593423 -0.23852047
0.021228284 5.5511151e-17 0.022009054 0.14741376 -0.38593423 -0.23852047
0.022015098 0 0.021830464 0.14741376 -0.38593423 -0.23852047
0.022800934 0 0.021652164 0.14741376 -0.38593423 -0.23852047
0.023585794 0 0.021474147 0.14741376 -0.38593423 -0.23852047
0.024369685 0 0.021296417 0.14741376 -0.38593423 -0.23852047
0.025152614 0 0.021118971 0.14741376 -0.38593423 -0.23852047
0.025934586 0 0.020941807 0.14741376 -0.38593423 -0.23852047
0.026715608 0 0.020764923 0.14741376 -0.38593423 -0.23852047
0.027495684 0 0.020588318 0.14741376 -0.38593423 -0.23852047
0.028274819 0 0.020411991 0.14741376 -0.38593423 -0.23852047
0.029053019 5.5511151e-17 0.020235941 0.14741376 -0.38593423 -0.23852047
0.029830292 0 0.020060165 0.14741376 -0.38593423 -0.23852047
0.030606641 5.5511151e-17 0.019884665 0.14741376 -0.38593423 -0.23852047
0.031382073 5.5511151e-17 0.019709436 0.14741376 -0.38593423 -0.23852047
0.03215659 0 0.019534478 0.14741376 -0.38593423 -0.23852047
0.032930203 0 0.01935979 0.14741376 -0.38593423 -0.23852047
0.033702914 0 0.01918537 0.14741376 -0.38593423 -0.23852047
0.025270218 0.031453565 0.039999999 0.14741376 -0.38593423 -0.23852047
0.035245653 0 0.018837329 0.14741376 -0.38593423 -0.23852047
0.036015693 5.5511151e-17 0.018663706 0.14741376 -0.38593423 -0.23852047
0.036784854 0 0.018490346 0.14741376 -0.38593423 -0.23852047
0.037553139 0 0.018317249 0.14741376 -0.38593423 -0.23852047
0.038320556 0 0.01814441 0.14741376 -0.38593423 -0.23852047
0.039087109 0 0.01797183 0.14741376 -0.38593423 -0.23852047
0.039852805 0 0.01779951 0.14741376 -0.38593423 -0.23852047
0.039999999 0.002232027 0.019108862 0.14741376 -0.38593423 -0.23852047
0.039999999 0.0050288877 0.020791113 0.14741376 -0.38593423 -0.23852047
0.039999999 0.0078631938 0.022495953 0.14741376 -0.38593423 -0.23852047
0.039999999 0.010735717 0.024223849 0.14741376 -0.38593423 -0.23852047
0.039999999 0.013647251 0.025975276 0.14741376 -0.38593423 -0.23852047
0.039999999 0.01659861 0.027750727 0.14741376 -0.38593423 -0.23852047
0.039999999 0.019590631 0.029550707 0.14741376 -0.38593423 -0.23852047
0.039999999 0.02262418 0.031375736 0.14741376 -0.38593423 -0.23852047
0.039999999 0.025700137 0.033226348 0.14741376 -0.38593423 -0.23852047
0.039999999 0.028819418 0.035103094 0.14741376 -0.38593423 -0.23852047
0.038833003 0.036523413 0.039999999 0.14741376 -0.38593423 -0.23852047
0.039588578 0.036804739 0.039999999 0.14741376 -0.38593423 -0.23852047
0.037148893 0.049711145 0.048312481 0.14741376 -0.38593423 -0.23852047
0.0377266 0.050800785 0.048838839 0.14741376 -0.38593423 -0.23852047
0.038291778 0.051954258 0.049406487 0.14741376 -0.38593423 -0.23852047
0.038818762 0.053276848 0.050084524 0.14741376 -0.38593423 -0.23852047
0.039292168 0.054835293 0.050916553 0.14741376 -0.38593423 -0.23852047
0.039696258 0.056699913 0.051948413 0.14741376 -0.38593423 -0.23852047
0.039956033 0.059188768 0.05338829 0.14741376 -0.38593423 -0.23852047
0 0.0010691604 0.026585437 0.14741376 -0.38593423 -0.23852047
0.0012209073 0 0.025667246 0.14741376 -0.38593423 -0.23852047
0.0020334227 5.5511151e-17 0.025481779 0.14741376 -0.38593423 -0.23852047
0.0028448077 0 0.025296634 0.14741376 -0.38593423 -0.23852047
0.0036550683 0 0.025111809 0.14741376 -0.38593423 -0.23852047
0.0044642114 5.5511151e-17 0.024927305 0.14741376 -0.38593423 -0.23852047
0.0052722427 0 0.024743116 0.14741376 -0.38593423 -0.23852047
0.006079169 0 0.024559245 0.14741376 -0.38593423 -0.23852047
0.0068849963 5.5511151e-17 0.024375686 0.14741376 -0.38593423 -0.23852047
0.0076897317 0 0.024192441 0.14741376 -0.38593423 -0.23852047
0.0084933806 0 0.024009507 0.14741376 -0.38593423 -0.23852047
0.0092959488 0 0.023826884 0.14741376 -0.38593423 -0.23852047
0.010097444 0 0.023644567 0.14741376 -0.38593423 -0.23852047
0.0022804292 0.024361748 0.039999999 0.14741376 -0.38593423 -0.23852047
0.011697237 5.5511151e-17 0.023280853 0.14741376 -0.38593423 -0.23852047
0.012495548 0 0.023099452 0.14741376 -0.38593423 -0.23852047
0.013292808 5.5511151e-17 0.022918353 0.14741376 -0.38593423 -0.23852047
0.0052796858 0.025500339 0.039999999 0.14741376 -0.38593423 -0.23852047
0.014884207 0 0.022557056 0.14741376 -0.38593423 -0.23852047
0.015678355 0 0.022376854 0.14741376 -0.38593423 -0.23852047
0.016471481 0 0.022196949 0.14741376 -0.38593423 -0.23852047
0.017263586 0 0.022017337 0.14741376 -0.38593423 -0.23852047
0.018054677 5.5511151e-17 0.021838019 0.14741376 -0.38593423 -0.23852047
0.018844761 5.5511151e-17 0.021658992 0.14741376 -0.38593423 -0.23852047
0.019633844 5.5511151e-17 0.021480257 0.14741376 -0.38593423 -0.23852047
0.020421932 0 0.021301808 0.14741376 -0.38593423 -0.23852047
0.021209028 0 0.021123648 0.14741376 -0.38593423 -0.23852047
0.021995142 0 0.020945774 0.14741376 -0.38593423 -0.23852047
0.022780277 0 0.020768184 0.14741376 -0.38593423 -0.23852047
0.023564439 0 0.020590877 0.14741376 -0.38593423 -0.23852047
0.024347635 0 0.020413853 0.14741376 -0.38593423 -0.23852047
0.015790304 0.029476147 0.039999999 0.14741376 -0.38593423 -0.23852047
0.025911149 5.5511151e-17 0.020060642 0.14741376 -0.38593423 -0.23852047
0.017293846 0.030043073 0.039999999 0.14741376 -0.38593423 -0.23852047
0.027470864 0 0.01970854 0.14741376 -0.38593423 -0.23852047
0.028249312 0 0.019532902 0.14741376 -0.38593423 -0.23852047
0.029026827 5.5511151e-17 0.019357536 0.14741376 -0.38593423 -0.23852047
0.029803414 0 0.019182444 0.14741376 -0.38593423 -0.23852047
0.030579079 0 0.019007621 0.14741376 -0.38593423 -0.23852047
0.031353828 0 0.018833067 0.14741376 -0.38593423 -0.23852047
0.032127667 0 0.018658783 0.14741376 -0.38593423 -0.23852047
0.023314113 0.032308549 0.039999999 0.14741376 -0.38593423 -0.23852047
0.024067387 0.032591499 0.039999999 0.14741376 -0.38593423 -0.23852047
0.034443773 0 0.01813752 0.14741376 -0.38593423 -0.23852047
0.035214026 0 0.017964292 0.14741376 -0.38593423 -0.23852047
0.035983391 0 0.017791325 0.14741376 -0.38593423 -0.23852047
0.02708227 0.033722851 0.039999999 0.14741376 -0.38593423 -0.23852047
0.0375195 0 0.017446171 0.14741376 -0.38593423 -0.23852047
0.038286246 0 0.017273981 0.14741376 -0.38593423 -0.23852047
0.039052136 0 0.017102046 0.14741376 -0.38593423 -0.23852047
0.039817166 0 0.016930366 0.14741376 -0.38593423 -0.23852047
0.039999999 0.0021001205 0.018148081 0.14741376 -0.38593423 -0.23852047
0.039999999 0.0048926328 0.019821865 0.14741376 -0.38593423 -0.23852047
0.039999999 0.0077224858 0.021518096 0.14741376 -0.38593423 -0.23852047
0.039999999 0.010590448 0.023237234 0.14741376 -0.38593423 -0.23852047
0.039999999 0.013497308 0.024979752 0.14741376 -0.38593423 -0.23852047
0.039999999 0.016443878 0.026746139 0.14741376 -0.38593423 -0.23852047
0.039999999 0.019430995 0.028536897 0.14741376 -0.38593423 -0.23852047
0.039999999 0.022459513 0.03035254 0.14741376 -0.38593423 -0.23852047
0.039999999 0.025530316 0.032193601 0.14741376 -0.38593423 -0.23852047
0.039999999 0.028644312 0.034060623 0.14741376 -0.38593423 -0.23852047
0.039999999 0.031802434 0.03595417 0.14741376 -0.38593423 -0.23852047
0.039999999 0.035005644 0.037874818 0.14741376 -0.38593423 -0.23852047
0.039999999 0.038254928 0.03982316 0.14741376 -0.38593423 -0.23852047
0.037692197 0.050735895 0.047822531 0.14741376 -0.38593423 -0.23852047
0.038260054 0.051874641 0.048378661 0.14741376 -0.38593423 -0.23852047
0.038786393 0.053195614 0.049053397 0.14741376 -0.38593423 -0.23852047
0.039263833 0.054733235 0.049869038 0.14741376 -0.38593423 -0.23852047
0.039674386 0.05656654 0.050876986 0.14741376 -0.38593423 -0.23852047
0.039945882 0.059001479 0.052276824 0.14741376 -0.38593423 -0.23852047
0.00040687926 0 0.024949627 0.14741376 -0.38593423 -0.23852047
0.0012197825 5.5511151e-17 0.02476464 0.14741376 -0.38593423 -0.23852047
0.0020315507 0 0.024579972 0.14741376 -0.38593423 -0.23852047
0.0028421904 0 0.024395622 0.14741376 -0.38593423 -0.23852047
0.0036517081 0 0.024211591 0.14741376 -0.38593423 -0.23852047
0.0044601099 0 0.024027875 0.14741376 -0.38593423 -0.23852047
0 0.014301251 0.033566717 0.14741376 -0.38593423 -0.23852047
0 0.016584152 0.034927715 0.14741376 -0.38593423 -0.23852047
0.0068786843 5.5511151e-17 0.023478601 0.14741376 -0.38593423 -0.23852047
0.0076826862 0 0.023296131 0.14741376 -0.38593423 -0.23852047
0.0084856041 0 0.023113968 0.14741376 -0.38593423 -0.23852047
0.00027041839 0.025194174 0.039999999 0.14741376 -0.38593423 -0.23852047
0.010088211 0 0.02275056 0.14741376 -0.38593423 -0.23852047
0.010887913 0 0.02256931 0.14741376 -0.38593423 -0.23852047
0.011686556 0 0.022388363 0.14741376 -0.38593423 -0.23852047
0.012484144 0 0.022207716 0.14741376 -0.38593423 -0.23852047
0.013280686 0 0.022027368 0.14741376 -0.38593423 -0.23852047
0.014076186 0 0.021847315 0.14741376 -0.38593423 -0.23852047
0.014870651 0 0.021667559 0.14741376 -0.38593423 -0.23852047
0.015664086 0 0.021488097 0.14741376 -0.38593423 -0.23852047
0.016456498 0 0.021308927 0.14741376 -0.38593423 -0.23852047
0.0077881636 0.028047545 0.039999999 0.14741376 -0.38593423 -0.23852047
0.018038277 5.5511151e-17 0.020951461 0.14741376 -0.38593423 -0.23852047
0.018827653 0 0.020773159 0.14741376 -0.38593423 -0.23852047
0.01961603 0 0.020595146 0.14741376 -0.38593423 -0.23852047
0.020403415 0 0.020417418 0.14741376 -0.38593423 -0.23852047
0.021189811 0 0.020239973 0.14741376 -0.38593423 -0.23852047
0.01230371 0.029756149 0.039999999 0.14741376 -0.38593423 -0.23852047
0.013056723 0.030040691 0.039999999 0.14741376 -0.38593423 -0.23852047
0.023543127 5.5511151e-17 0.01970933 0.14741376 -0.38593423 -0.23852047
0.024325628 0 0.019533008 0.14741376 -0.38593423 -0.23852047
0.02510717 0 0.019356962 0.14741376 -0.38593423 -0.23852047
0.0160701 0.031178262 0.039999999 0.14741376 -0.38593423 -0.23852047
0.026667397 0 0.019005697 0.14741376 -0.38593423 -0.23852047
0.027446095 0 0.018830474 0.14741376 -0.38593423 -0.23852047
0.028223855 0 0.018655522 0.14741376 -0.38593423 -0.23852047
0.019085756 0.032314934 0.039999999 0.14741376 -0.38593423 -0.23852047
0.029776588 0 0.018306427 0.14741376 -0.38593423 -0.23852047
0.030551571 0 0.018132281 0.14741376 -0.38593423 -0.23852047
0.031325642 0 0.017958401 0.14741376 -0.38593423 -0.23852047
0.022103896 0.033450782 0.039999999 0.14741376 -0.38593423 -0.23852047
0.032871056 0 0.017611435 0.14741376 -0.38593423 -0.23852047
0.023613967 0.03401842 0.039999999 0.14741376 -0.38593423 -0.23852047
0.034412879 5.5511151e-17 0.017265515 0.14741376 -0.38593423 -0.23852047
0.025124738 0.034585886 0.039999999 0.14741376 -0.38593423 -0.23852047
0.035951156 0 0.016920634 0.14741376 -0.38593423 -0.23852047
0.036718976 0 0.016748577 0.14741376 -0.38593423 -0.23852047
0.037485924 0 0.016576778 0.14741376 -0.38593423 -0.23852047
0.038252007 5.5511151e-17 0.016405232 0.14741376 -0.38593423 -0.23852047
0.039017227 5.5511151e-17 0.01623394 0.14741376 -0.38593423 -0.23852047
0.039781593 0 0.016062897 0.14741376 -0.38593423 -0.23852047
0.039999999 0.0019685577 0.017189804 0.14741376 -0.38593423 -0.23852047
0.039999999 0.0047567356 0.01885516 0.14741376 -0.38593423 -0.23852047
0.039999999 0.0075821495 0.020542819 0.14741376 -0.38593423 -0.23852047
0.039999999 0.010445564 0.022253238 0.14741376 -0.38593423 -0.23852047
0.039999999 0.013347766 0.023986887 0.14741376 -0.38593423 -0.23852047
0.039999999 0.016289564 0.025744254 0.14741376 -0.38593423 -0.23852047
0.039999999 0.019271789 0.027525831 0.14741376 -0.38593423 -0.23852047
0.035721991 0.038554005 0.039999999 0.14741376 -0.38593423 -0.23852047
0.039999999 0.025360961 0.031163687 0.14741376 -0.38593423 -0.23852047
0.039999999 0.028469689 0.033021033 0.14741376 -0.38593423 -0.23852047
0.039999999 0.031622414 0.034904726 0.14741376 -0.38593423 -0.23852047
0.038757604 0.039686717 0.039999999 0.14741376 -0.38593423 -0.23852047
0.039999999 0.03806369 0.038753469 0.14741376 -0.38593423 -0.23852047
0.037657872 0.050671153 0.04680847 0.14741376 -0.38593423 -0.23852047
0.038228404 0.051795207 0.047353171 0.14741376 -0.38593423 -0.23852047
0.038754098 0.053114567 0.048024625 0.14741376 -0.38593423 -0.23852047
0.039235566 0.054631419 0.048824009 0.14741376 -0.38593423 -0.23852047
0.039652571 0.056433499 0.049808249 0.14741376 -0.38593423 -0.23852047
0.03993576 0.058814704 0.051168412 0.14741376 -0.38593423 -0.23852047
0.039638583 0.063651815 0.054125383 0.14741376 -0.38593423 -0.23852047
0.00040650455 0 0.024048004 0.14741376 -0.38593423 -0.23852047
0.0012186599 0 0.023863818 0.14741376 -0.38593423 -0.23852047
0 0.0053879623 0.027340483 0.14741376 -0.38593423 -0.23852047
0.0028395785 5.5511151e-17 0.023496391 0.14741376 -0.38593423 -0.23852047
0.0036483544 0 0.02331315 0.14741376 -0.38593423 -0.23852047
0.0044560167 0 0.023130219 0.14741376 -0.38593423 -0.23852047
0.0052625714 0 0.022947598 0.14741376 -0.38593423 -0.23852047
0 0.016568299 0.033982381 0.14741376 -0.38593423 -0.23852047
0.0068723843 0 0.022583283 0.14741376 -0.38593423 -0.23852047
0.0076756547 0 0.022401584 0.14741376 -0.38593423 -0.23852047
0.0084778424 0 0.022220191 0.14741376 -0.38593423 -0.23852047
0.0092789549 5.5511151e-17 0.022039099 0.14741376 -0.38593423 -0.23852047
0.00051030226 0.026889671 0.039999999 0.14741376 -0.38593423 -0.23852047
0.010877974 0 0.021677816 0.14741376 -0.38593423 -0.23852047
0.0020170559 0.027462319 0.039999999 0.14741376 -0.38593423 -0.23852047
0.012472764 0 0.021317728 0.14741376 -0.38593423 -0.23852047
0.013268587 0 0.021138126 0.14741376 -0.38593423 -0.23852047
0.014063371 0 0.020958818 0.14741376 -0.38593423 -0.23852047
0.014857121 0 0.020779803 0.14741376 -0.38593423 -0.23852047
0.015649844 0 0.020601077 0.14741376 -0.38593423 -0.23852047
0.006539409 0.029178502 0.039999999 0.14741376 -0.38593423 -0.23852047
0.01723223 0 0.020244494 0.14741376 -0.38593423 -0.23852047
0.018021906 0 0.020066632 0.14741376 -0.38593423 -0.23852047
0.018810578 0 0.019889055 0.14741376 -0.38593423 -0.23852047
0.019598251 0 0.019711763 0.14741376 -0.38593423 -0.23852047
0.020384934 0 0.019534752 0.14741376 -0.38593423 -0.23852047
0.021170629 0 0.01935802 0.14741376 -0.38593423 -0.23852047
0.0118202 0.031177653 0.039999999 0.14741376 -0.38593423 -0.23852047
0.022739084 0 0.019005395 0.14741376 -0.38593423 -0.23852047
0.023521855 5.5511151e-17 0.018829498 0.14741376 -0.38593423 -0.23852047
0.024303662 0 0.018653877 0.14741376 -0.38593423 -0.23852047
0.025084512 5.5511151e-17 0.018478528 0.14741376 -0.38593423 -0.23852047
0.025864409 0 0.018303452 0.14741376 -0.38593423 -0.23852047
0.026643362 0 0.018128647 0.14741376 -0.38593423 -0.23852047
0.027421372 0 0.017954109 0.14741376 -0.38593423 -0.23852047
0.028198447 5.5511151e-17 0.017779842 0.14741376 -0.38593423 -0.23852047
0.028974593 0 0.017605841 0.14741376 -0.38593423 -0.23852047
0.029749814 0 0.017432107 0.14741376 -0.38593423 -0.23852047
0.020131439 0.034313478 0.039999999 0.14741376 -0.38593423 -0.23852047
0.031297509 0 0.017085426 0.14741376 -0.38593423 -0.23852047
0.032069992 0 0.016912479 0.14741376 -0.38593423 -0.23852047
0.032841571 0 0.016739791 0.14741376 -0.38593423 -0.23852047
0.033612255 0 0.016567362 0.14741376 -0.38593423 -0.23852047
0.034382049 0 0.016395193 0.14741376 -0.38593423 -0.23852047
0.035150953 0 0.016223278 0.14741376 -0.38593423 -0.23852047
0.035918981 0 0.016051618 0.14741376 -0.38593423 -0.23852047
0.02618802 0.036590513 0.039999999 0.14741376 -0.38593423 -0.23852047
0.037452415 5.5511151e-17 0.015709057 0.14741376 -0.38593423 -0.23852047
0.038217831 0 0.015538155 0.14741376 -0.38593423 -0.23852047
0.038982388 0 0.015367501 0.14741376 -0.38593423 -0.23852047
0.039746091 0 0.015197097 0.14741376 -0.38593423 -0.23852047
0.039999999 0.0018373366 0.016234016 0.14741376 -0.38593423 -0.23852047
0.039999999 0.0046211937 0.017890982 0.14741376 -0.38593423 -0.23852047
0.031497359 0.038581006 0.039999999 0.14741376 -0.38593423 -0.23852047
0.032256655 0.038865246 0.039999999 0.14741376 -0.38593423 -0.23852047
0.039999999 0.013198623 0.02299667 0.14741376 -0.38593423 -0.23852047
0.039999999 0.016135663 0.024745053 0.14741376 -0.38593423 -0.23852047
0.039999999 0.019113014 0.026517494 0.14741376 -0.38593423 -0.23852047
0.039999999 0.022131523 0.028314497 0.14741376 -0.38593423 -0.23852047
0.036056437 0.04028606 0.039999999 0.14741376 -0.38593423 -0.23852047
0.039999999 0.028295549 0.031984299 0.14741376 -0.38593423 -0.23852047
0.039999999 0.031442888 0.033858191 0.14741376 -0.38593423 -0.23852047
0.03833906 0.041138299 0.039999999 0.14741376 -0.38593423 -0.23852047
0.039100416 0.041422345 0.039999999 0.14741376 -0.38593423 -0.23852047
0.039999999 0.041157741 0.039642677 0.14741376 -0.38593423 -0.23852047
0.038196824 0.051715951 0.046330012 0.14741376 -0.38593423 -0.23852047
0.038721878 0.053033702 0.046998195 0.14741376 -0.38593423 -0.23852047
0.039207365 0.054529842 0.047781453 0.14741376 -0.38593423 -0.23852047
0.039630812 0.056300789 0.04874219 0.14741376 -0.38593423 -0.23852047
0.039925665 0.058628444 0.05006304 0.14741376 -0.38593423 -0.23852047
0.039760616 0.062907569 0.05264809 0.14741376 -0.38593423 -0.23852047
0 0.001066201 0.023871059 0.14741376 -0.38593423 -0.23852047
0.0012175397 0 0.022964772 0.14741376 -0.38593423 -0.23852047
0.0020278178 5.5511151e-17 0.022781696 0.14741376 -0.38593423 -0.23852047
0.0028369715 0 0.02259893 0.14741376 -0.38593423 -0.23852047
0.0036450075 0 0.022416476 0.14741376 -0.38593423 -0.23852047
0 0.012018261 0.030354416 0.14741376 -0.38593423 -0.23852047
0.0052577499 5.5511151e-17 0.022052489 0.14741376 -0.38593423 -0.23852047
0.0060624699 0 0.021870954 0.14741376 -0.38593423 -0.23852047
0.0068660965 5.5511151e-17 0.021689722 0.14741376 -0.38593423 -0.23852047
0.0076686367 0 0.021508794 0.14741376 -0.38593423 -0.23852047
0.0084700966 0 0.021328164 0.14741376 -0.38593423 -0.23852047
0.0092704818 0 0.021147836 0.14741376 -0.38593423 -0.23852047
0.0100698 0 0.020967804 0.14741376 -0.38593423 -0.23852047
0.010868056 5.5511151e-17 0.020788068 0.14741376 -0.38593423 -0.23852047
0.011665256 0 0.020608626 0.14741376 -0.38593423 -0.23852047
0.012461405 0 0.020429479 0.14741376 -0.38593423 -0.23852047
0.013256512 0 0.020250622 0.14741376 -0.38593423 -0.23852047
0.014050581 0 0.020072056 0.14741376 -0.38593423 -0.23852047
0.014843618 0 0.019893778 0.14741376 -0.38593423 -0.23852047
0.01563563 0 0.019715788 0.14741376 -0.38593423 -0.23852047
0.016426621 0 0.019538084 0.14741376 -0.38593423 -0.23852047
0.017216599 0 0.019360663 0.14741376 -0.38593423 -0.23852047
0.018005569 0 0.019183526 0.14741376 -0.38593423 -0.23852047
0.018793536 0 0.019006671 0.14741376 -0.38593423 -0.23852047
0.0090648215 0.031747319 0.039999999 0.14741376 -0.38593423 -0.23852047
0.0098212017 0.032033645 0.039999999 0.14741376 -0.38593423 -0.23852047
0.021151485 5.5511151e-17 0.018477779 0.14741376 -0.38593423 -0.23852047
0.021935502 5.5511151e-17 0.018302036 0.14741376 -0.38593423 -0.23852047
0.022718547 0 0.018126566 0.14741376 -0.38593423 -0.23852047
0.023500625 0 0.017951371 0.14741376 -0.38593423 -0.23852047
0.02428174 5.5511151e-17 0.017776446 0.14741376 -0.38593423 -0.23852047
0.014362078 0.033750422 0.039999999 0.14741376 -0.38593423 -0.23852047
0.025841108 0 0.017427407 0.14741376 -0.38593423 -0.23852047
0.026619373 0 0.017253291 0.14741376 -0.38593423 -0.23852047
0.027396698 0 0.017079439 0.14741376 -0.38593423 -0.23852047
0.017392049 0.0348939 0.039999999 0.14741376 -0.38593423 -0.23852047
0.028948551 0 0.016732531 0.14741376 -0.38593423 -0.23852047
0.029723093 0 0.01655947 0.14741376 -0.38593423 -0.23852047
0.019666104 0.035751022 0.039999999 0.14741376 -0.38593423 -0.23852047
0.031269427 5.5511151e-17 0.016214132 0.14741376 -0.38593423 -0.23852047
0.032041237 0 0.016041851 0.14741376 -0.38593423 -0.23852047
0.032812141 0 0.015869826 0.14741376 -0.38593423 -0.23852047
0.033582151 0 0.015698059 0.14741376 -0.38593423 -0.23852047
0.034351274 0 0.015526543 0.14741376 -0.38593423 -0.23852047
0.035119511 0 0.015355282 0.14741376 -0.38593423 -0.23852047
0.035886869 5.5511151e-17 0.015184272 0.14741376 -0.38593423 -0.23852047
0.025737602 0.038034901 0.039999999 0.14741376 -0.38593423 -0.23852047
0.037418965 0 0.014843003 0.14741376 -0.38593423 -0.23852047
0.038183719 0 0.014672741 0.14741376 -0.38593423 -0.23852047
0.038947616 0 0.014502726 0.14741376 -0.38593423 -0.23852047
0.039710656 0 0.014332956 0.14741376 -0.38593423 -0.23852047
0.029538294 0.039461225 0.039999999 0.14741376 -0.38593423 -0.23852047
0.039999999 0.0044860048 0.016929315 0.14741376 -0.38593423 -0.23852047
0.039999999 0.0073025818 0.018599946 0.14741376 -0.38593423 -0.23852047
0.039999999 0.010156945 0.020293046 0.14741376 -0.38593423 -0.23852047
0.039999999 0.013049875 0.02200908 0.14741376 -0.38593423 -0.23852047
0.039999999 0.015982173 0.023748524 0.14741376 -0.38593423 -0.23852047
0.039999999 0.018954664 0.025511868 0.14741376 -0.38593423 -0.23852047
0.039999999 0.021968195 0.027299618 0.14741376 -0.38593423 -0.23852047
0.035630241 0.041742031 0.039999999 0.14741376 -0.38593423 -0.23852047
0.039999999 0.028121885 0.030950414 0.14741376 -0.38593423 -0.23852047
0.039999999 0.031263862 0.032814544 0.14741376 -0.38593423 -0.23852047
0.039999999 0.034450516 0.03470524 0.14741376 -0.38593423 -0.23852047
0.039999999 0.037682824 0.036623083 0.14741376 -0.38593423 -0.23852047
0.039999999 0.040961787 0.038568672 0.14741376 -0.38593423 -0.23852047
0.038165316 0.051636875 0.045309164 0.14741376 -0.38593423 -0.23852047
0.038689733 0.052953023 0.045974091 0.14741376 -0.38593423 -0.23852047
0.039179232 0.054428507 0.046741359 0.14741376 -0.38593423 -0.23852047
0.039609108 0.056168415 0.047678791 0.14741376 -0.38593423 -0.23852047
0.039915595 0.058442689 0.048960686 0.14741376 -0.38593423 -0.23852047
0.039882015 0.062167194 0.051178467 0.14741376 -0.38593423 -0.23852047
0.00040575737 0 0.022250086 0.14741376 -0.38593423 -0.23852047
0.0012164215 5.5511151e-17 0.022067491 0.14741376 -0.38593423 -0.23852047
0.002025957 0 0.021885207 0.14741376 -0.38593423 -0.23852047
0.0028343699 5.5511151e-17 0.02170323 0.14741376 -0.38593423 -0.23852047
0 0.009775498 0.028108278 0.14741376 -0.38593423 -0.23852047
0.0044478541 0 0.021340193 0.14741376 -0.38593423 -0.23852047
0.0052529383 5.5511151e-17 0.021159131 0.14741376 -0.38593423 -0.23852047
0.0060569253 5.5511151e-17 0.020978371 0.14741376 -0.38593423 -0.23852047
2.7755576e-17 0.018835755 0.033454102 0.14741376 -0.38593423 -0.23852047
0.0076616327 0 0.020617746 0.14741376 -0.38593423 -0.23852047
0.0084623657 0 0.020437881 0.14741376 -0.38593423 -0.23852047
0.0092620263 0 0.020258311 0.14741376 -0.38593423 -0.23852047
0.010060621 0 0.020079035 0.14741376 -0.38593423 -0.23852047
0.010858156 0 0.019900054 0.14741376 -0.38593423 -0.23852047
0.011654637 0 0.019721361 0.14741376 -0.38593423 -0.23852047
0.012450069 0 0.019542959 0.14741376 -0.38593423 -0.23852047
0.01324446 5.5511151e-17 0.019364845 0.14741376 -0.38593423 -0.23852047
0.014037816 0 0.019187018 0.14741376 -0.38593423 -0.23852047
0.014830141 5.5511151e-17 0.019009477 0.14741376 -0.38593423 -0.23852047
0.015621442 5.5511151e-17 0.018832218 0.14741376 -0.38593423 -0.23852047
0.0055389781 0.032031298 0.039999999 0.14741376 -0.38593423 -0.23852047
0.017200997 0 0.018478548 0.14741376 -0.38593423 -0.23852047
0.017989263 5.5511151e-17 0.018302133 0.14741376 -0.38593423 -0.23852047
0.018776529 0 0.018125996 0.14741376 -0.38593423 -0.23852047
0.019562798 5.5511151e-17 0.017950136 0.14741376 -0.38593423 -0.23852047
0.02034808 5.5511151e-17 0.017774552 0.14741376 -0.38593423 -0.23852047
0.021132378 0 0.01759924 0.14741376 -0.38593423 -0.23852047
0.0219157 0 0.017424203 0.14741376 -0.38593423 -0.23852047
0.02269805 0 0.017249435 0.14741376 -0.38593423 -0.23852047
0.023479436 0 0.017074939 0.14741376 -0.38593423 -0.23852047
0.02425986 0 0.016900711 0.14741376 -0.38593423 -0.23852047
0.02503933 0 0.016726749 0.14741376 -0.38593423 -0.23852047
0.014640475 0.035475962 0.039999999 0.14741376 -0.38593423 -0.23852047
0.026595429 5.5511151e-17 0.016379623 0.14741376 -0.38593423 -0.23852047
0.02737207 5.5511151e-17 0.016206454 0.14741376 -0.38593423 -0.23852047
0.028147779 0 0.016033547 0.14741376 -0.38593423 -0.23852047
0.028922562 0 0.015860902 0.14741376 -0.38593423 -0.23852047
0.029696422 0 0.015688514 0.14741376 -0.38593423 -0.23852047
0.030469367 5.5511151e-17 0.015516385 0.14741376 -0.38593423 -0.23852047
0.031241404 0 0.015344513 0.14741376 -0.38593423 -0.23852047
0.032012537 0 0.015172894 0.14741376 -0.38593423 -0.23852047
0.032782767 0 0.015001531 0.14741376 -0.38593423 -0.23852047
0.033552106 5.5511151e-17 0.014830419 0.14741376 -0.38593423 -0.23852047
0.034320559 5.5511151e-17 0.014659558 0.14741376 -0.38593423 -0.23852047
0.035088126 0 0.014488949 0.14741376 -0.38593423 -0.23852047
0.035854816 0 0.014318586 0.14741376 -0.38593423 -0.23852047
0.036620632 0 0.014148473 0.14741376 -0.38593423 -0.23852047
0.026046585 0.039772607 0.039999999 0.14741376 -0.38593423 -0.23852047
0.038149673 5.5511151e-17 0.013808981 0.14741376 -0.38593423 -0.23852047
0.027570406 0.040344927 0.039999999 0.14741376 -0.38593423 -0.23852047
0.039675288 0 0.013470463 0.14741376 -0.38593423 -0.23852047
0.039999999 0.0015759115 0.01432985 0.14741376 -0.38593423 -0.23852047
0.039999999 0.004351167 0.015970144 0.14741376 -0.38593423 -0.23852047
0.039999999 0.0071633463 0.017632319 0.14741376 -0.38593423 -0.23852047
0.039999999 0.010013206 0.019316819 0.14741376 -0.38593423 -0.23852047
0.039999999 0.012901522 0.021024104 0.14741376 -0.38593423 -0.23852047
0.039999999 0.015829094 0.022754651 0.14741376 -0.38593423 -0.23852047
0.039999999 0.01879674 0.02450894 0.14741376 -0.38593423 -0.23852047
0.039999999 0.021805309 0.026287477 0.14741376 -0.38593423 -0.23852047
0.039999999 0.024855662 0.028090773 0.14741376 -0.38593423 -0.23852047
0.039999999 0.027948696 0.029919356 0.14741376 -0.38593423 -0.23852047
0.039999999 0.031085329 0.031773772 0.14741376 -0.38593423 -0.23852047
0.037495781 0.044062953 0.039999999 0.14741376 -0.38593423 -0.23852047
0.039999999 0.037493188 0.035562355 0.14741376 -0.38593423 -0.23852047
0.039999999 0.040766388 0.037497688 0.14741376 -0.38593423 -0.23852047
0.0397918 0.044920634 0.039999999 0.14741376 -0.38593423 -0.23852047
0.038657658 0.052872524 0.044952303 0.14741376 -0.38593423 -0.23852047
0.039151162 0.05432741 0.045703709 0.14741376 -0.38593423 -0.23852047
0.039587457 0.056036368 0.046618041 0.14741376 -0.38593423 -0.23852047
0.039905556 0.058257446 0.047861338 0.14741376 -0.38593423 -0.23852047
0.039899044 0.061862737 0.049994841 0.14741376 -0.38593423 -0.23852047
0.00040538484 0 0.02135377 0.14741376 -0.38593423 -0.23852047
0.0012153055 0 0.021171968 0.14741376 -0.38593423 -0.23852047
0 0.0053729354 0.024603358 0.14741376 -0.38593423 -0.23852047
0.0028317731 0 0.020809282 0.14741376 -0.38593423 -0.23852047
0.0036383329 5.5511151e-17 0.020628393 0.14741376 -0.38593423 -0.23852047
0.0044437852 0 0.020447806 0.14741376 -0.38593423 -0.23852047
2.7755576e-17 0.01424701 0.029820843 0.14741376 -0.38593423 -0.23852047
0.0060513914 0 0.020087527 0.14741376 -0.38593423 -0.23852047
0.0068535581 5.5511151e-17 0.019907834 0.14741376 -0.38593423 -0.23852047
0.0076546422 0 0.019728435 0.14741376 -0.38593423 -0.23852047
0 0.023481285 0.035250999 0.14741376 -0.38593423 -0.23852047
0.0092535876 0 0.019370519 0.14741376 -0.38593423 -0.23852047
0.01005146 0 0.019191995 0.14741376 -0.38593423 -0.23852047
0.010848275 0 0.019013762 0.14741376 -0.38593423 -0.23852047
0.011644038 0 0.018835818 0.14741376 -0.38593423 -0.23852047
0.012438755 0 0.018658159 0.14741376 -0.38593423 -0.23852047
0.013232432 0 0.018480785 0.14741376 -0.38593423 -0.23852047
0.014025075 0 0.018303694 0.14741376 -0.38593423 -0.23852047
0.01481669 0 0.018126886 0.14741376 -0.38593423 -0.23852047
0.015607283 0 0.017950358 0.14741376 -0.38593423 -0.23852047
0.01639686 0 0.017774109 0.14741376 -0.38593423 -0.23852047
0.017185425 0 0.017598137 0.14741376 -0.38593423 -0.23852047
0.017972989 5.5511151e-17 0.017422441 0.14741376 -0.38593423 -0.23852047
0.018759552 5.5511151e-17 0.017247021 0.14741376 -0.38593423 -0.23852047
0.0080745593 0.03462055 0.039999999 0.14741376 -0.38593423 -0.23852047
0.020329706 0 0.016897 0.14741376 -0.38593423 -0.23852047
0.021113308 0 0.016722396 0.14741376 -0.38593423 -0.23852047
0.021895936 5.5511151e-17 0.016548062 0.14741376 -0.38593423 -0.23852047
0.011115877 0.035771996 0.039999999 0.14741376 -0.38593423 -0.23852047
0.023458287 0 0.016200194 0.14741376 -0.38593423 -0.23852047
0.012637286 0.036347426 0.039999999 0.14741376 -0.38593423 -0.23852047
0.025016803 5.5511151e-17 0.015853388 0.14741376 -0.38593423 -0.23852047
0.025794638 0 0.015680378 0.14741376 -0.38593423 -0.23852047
0.026571533 0 0.015507631 0.14741376 -0.38593423 -0.23852047
0.015681734 0.03749774 0.039999999 0.14741376 -0.38593423 -0.23852047
0.016443208 0.037785213 0.039999999 0.14741376 -0.38593423 -0.23852047
0.01720483 0.038072649 0.039999999 0.14741376 -0.38593423 -0.23852047
0.029669803 0 0.014819226 0.14741376 -0.38593423 -0.23852047
0.030442072 0 0.014647764 0.14741376 -0.38593423 -0.23852047
0.031213433 0 0.014476556 0.14741376 -0.38593423 -0.23852047
0.03198389 0 0.0143056 0.14741376 -0.38593423 -0.23852047
0.032753453 0 0.014134894 0.14741376 -0.38593423 -0.23852047
0.033522118 0 0.013964438 0.14741376 -0.38593423 -0.23852047
0.0342899 0 0.013794229 0.14741376 -0.38593423 -0.23852047
0.012229492 0.078409381 0.06485194 0.14741376 -0.38593423 -0.23852047
0.035822824 5.5511151e-17 0.013454553 0.14741376 -0.38593423 -0.23852047
0.01389712 0.07901752 0.06484063 0.14741376 -0.38593423 -0.23852047
0.037352268 0 0.013115852 0.14741376 -0.38593423 -0.23852047
0.038115695 5.5511151e-17 0.012946866 0.14741376 -0.38593423 -0.23852047
0.038878266 5.5511151e-17 0.012778119 0.14741376 -0.38593423 -0.23852047
0.039639991 0 0.012609612 0.14741376 -0.38593423 -0.23852047
0.039999999 0.0014457039 0.013381443 0.14741376 -0.38593423 -0.23852047
0.039999999 0.0042166784 0.015013459 0.14741376 -0.38593423 -0.23852047
0.039999999 0.0070244735 0.016667213 0.14741376 -0.38593423 -0.23852047
0.039999999 0.0098698428 0.018343151 0.14741376 -0.38593423 -0.23852047
0.039999999 0.012753559 0.020041728 0.14741376 -0.38593423 -0.23852047
0.032474138 0.04381495 0.039999999 0.14741376 -0.38593423 -0.23852047
0.039999999 0.018639239 0.023508694 0.14741376 -0.38593423 -0.23852047
0.039999999 0.02164286 0.02527806 0.14741376 -0.38593423 -0.23852047
0.039999999 0.024688143 0.027072024 0.14741376 -0.38593423 -0.23852047
0.039999999 0.027775981 0.028891109 0.14741376 -0.38593423 -0.23852047
0.039999999 0.030907284 0.030735856 0.14741376 -0.38593423 -0.23852047
0.039999999 0.034082994 0.032606822 0.14741376 -0.38593423 -0.23852047
0.039999999 0.037304081 0.034504574 0.14741376 -0.38593423 -0.23852047
0.038605206 0.046109818 0.039999999 0.14741376 -0.38593423 -0.23852047
0.039999999 0.043886386 0.038382813 0.14741376 -0.38593423 -0.23852047
0.038625658 0.05279221 0.043932818 0.14741376 -0.38593423 -0.23852047
0.039123159 0.054226547 0.044668496 0.14741376 -0.38593423 -0.23852047
0.039565857 0.055904649 0.04555992 0.14741376 -0.38593423 -0.23852047
0.039895542 0.058072701 0.046764974 0.14741376 -0.38593423 -0.23852047
0.039915338 0.061562084 0.04881686 0.14741376 -0.38593423 -0.23852047
0.00040501307 0 0.020459205 0.14741376 -0.38593423 -0.23852047
0.0012141918 5.5511151e-17 0.020278193 0.14741376 -0.38593423 -0.23852047
0.0020222459 0 0.020097483 0.14741376 -0.38593423 -0.23852047
0.0028291817 0 0.019917075 0.14741376 -0.38593423 -0.23852047
0.0036350056 0 0.019736964 0.14741376 -0.38593423 -0.23852047
0.0044397237 0 0.019557152 0.14741376 -0.38593423 -0.23852047
0.0052433424 5.5511151e-17 0.019377638 0.14741376 -0.38593423 -0.23852047
0.0060458682 0 0.019198416 0.14741376 -0.38593423 -0.23852047
0.0068473071 0 0.019019486 0.14741376 -0.38593423 -0.23852047
0.0076476652 0 0.018840851 0.14741376 -0.38593423 -0.23852047
0.0084469486 0 0.018662503 0.14741376 -0.38593423 -0.23852047
0.0092451638 0 0.018484445 0.14741376 -0.38593423 -0.23852047
0.010042317 0 0.018306674 0.14741376 -0.38593423 -0.23852047
0.010838414 0 0.01812919 0.14741376 -0.38593423 -0.23852047
0.01163346 5.5511151e-17 0.01795199 0.14741376 -0.38593423 -0.23852047
0.012427463 0 0.017775072 0.14741376 -0.38593423 -0.23852047
0.0014831417 0.033755925 0.039999999 0.14741376 -0.38593423 -0.23852047
0.014012359 5.5511151e-17 0.017422078 0.14741376 -0.38593423 -0.23852047
0.014803265 0 0.017246 0.14741376 -0.38593423 -0.23852047
0.015593151 5.5511151e-17 0.0170702 0.14741376 -0.38593423 -0.23852047
0.016382022 0 0.016894674 0.14741376 -0.38593423 -0.23852047
0.017169885 0 0.016719423 0.14741376 -0.38593423 -0.23852047
0.017956745 0 0.016544446 0.14741376 -0.38593423 -0.23852047
0.018742608 0 0.01636974 0.14741376 -0.38593423 -0.23852047
0.01952748 0 0.016195303 0.14741376 -0.38593423 -0.23852047
0.020311369 0 0.016021136 0.14741376 -0.38593423 -0.23852047
0.021094276 0 0.015847236 0.14741376 -0.38593423 -0.23852047
0.02187621 0 0.015673602 0.14741376 -0.38593423 -0.23852047
0.022657175 0 0.015500233 0.14741376 -0.38593423 -0.23852047
0.011387198 0.037511114 0.039999999 0.14741376 -0.38593423 -0.23852047
0.024216225 5.5511151e-17 0.015154283 0.14741376 -0.38593423 -0.23852047
0.024994321 0 0.014981699 0.14741376 -0.38593423 -0.23852047
0.025771471 5.5511151e-17 0.014809375 0.14741376 -0.38593423 -0.23852047
0.026547682 5.5511151e-17 0.014637308 0.14741376 -0.38593423 -0.23852047
0.027322957 0 0.014465499 0.14741376 -0.38593423 -0.23852047
0.028097304 0 0.014293944 0.14741376 -0.38593423 -0.23852047
0.028870728 0 0.014122644 0.14741376 -0.38593423 -0.23852047
0.029643234 0 0.013951598 0.14741376 -0.38593423 -0.23852047
0.0075008827 0.07558424 0.063193366 0.14741376 -0.38593423 -0.23852047
0.031185515 0 0.013610255 0.14741376 -0.38593423 -0.23852047
0.031955302 0 0.013439958 0.14741376 -0.38593423 -0.23852047
0.032724191 5.5511151e-17 0.013269909 0.14741376 -0.38593423 -0.23852047
0.033492189 0 0.013100105 0.14741376 -0.38593423 -0.23852047
0.011384578 0.078018479 0.06376259 0.14741376 -0.38593423 -0.23852047
0.035025537 5.5511151e-17 0.012761232 0.14741376 -0.38593423 -0.23852047
0.035790894 0 0.01259216 0.14741376 -0.38593423 -0.23852047
0.013861319 0.079005457 0.063794591 0.14741376 -0.38593423 -0.23852047
0.037319012 0 0.012254739 0.14741376 -0.38593423 -0.23852047
0.038081776 0 0.012086387 0.14741376 -0.38593423 -0.23852047
0.016432935 0.079663545 0.063613191 0.14741376 -0.38593423 -0.23852047
0.039604757 0 0.011750394 0.14741376 -0.38593423 -0.23852047
0.039999999 0.0013158302 0.012435469 0.14741376 -0.38593423 -0.23852047
0.039999999 0.0040825368 0.014059242 0.14741376 -0.38593423 -0.23852047
0.039999999 0.0068859616 0.015704615 0.14741376 -0.38593423 -0.23852047
0.039999999 0.009726855 0.017372029 0.14741376 -0.38593423 -0.23852047
0.021866988 0.079885393 0.062545605 0.14741376 -0.38593423 -0.23852047
0.039999999 0.01552415 0.020774804 0.14741376 -0.38593423 -0.23852047
0.039999999 0.018482158 0.022511112 0.14741376 -0.38593423 -0.23852047
0.039999999 0.021480845 0.02427135 0.14741376 -0.38593423 -0.23852047
0.039999999 0.024521077 0.026056025 0.14741376 -0.38593423 -0.23852047
0.039999999 0.027603734 0.027865658 0.14741376 -0.38593423 -0.23852047
0.039999999 0.030729728 0.029700782 0.14741376 -0.38593423 -0.23852047
0.039999999 0.033899993 0.031561952 0.14741376 -0.38593423 -0.23852047
0.039999999 0.037115496 0.033449728 0.14741376 -0.38593423 -0.23852047
0.039999999 0.040377226 0.035364702 0.14741376 -0.38593423 -0.23852047
0.039999999 0.043686204 0.037307467 0.14741376 -0.38593423 -0.23852047
0.039999999 0.047043484 0.039278645 0.14741376 -0.38593423 -0.23852047
0.039095223 0.054125924 0.043635696 0.14741376 -0.38593423 -0.23852047
0.039544314 0.055773254 0.044504419 0.14741376 -0.38593423 -0.23852047
0.039885558 0.057888456 0.045671578 0.14741376 -0.38593423 -0.23852047
0.03993158 0.061262399 0.047642667 0.14741376 -0.38593423 -0.23852047
0.00040464202 0 0.019566379 0.14741376 -0.38593423 -0.23852047
0.0012130801 0 0.019386154 0.14741376 -0.38593423 -0.23852047
0.0020203958 0 0.01920623 0.14741376 -0.38593423 -0.23852047
0.002826595 0 0.0190266 0.14741376 -0.38593423 -0.23852047
0.0036316845 0 0.018847266 0.14741376 -0.38593423 -0.23852047
0 0.011973002 0.026647102 0.14741376 -0.38593423 -0.23852047
0 0.014220054 0.027959218 0.14741376 -0.38593423 -0.23852047
0.0060403561 5.5511151e-17 0.018311026 0.14741376 -0.38593423 -0.23852047
0.0068410682 0 0.01813286 0.14741376 -0.38593423 -0.23852047
0.0076407022 0 0.017954983 0.14741376 -0.38593423 -0.23852047
0.0084392633 5.5511151e-17 0.017777391 0.14741376 -0.38593423 -0.23852047
0.0092367576 0 0.017600086 0.14741376 -0.38593423 -0.23852047
0.010033191 0 0.017423064 0.14741376 -0.38593423 -0.23852047
0.010828571 0 0.017246323 0.14741376 -0.38593423 -0.23852047
0.011622903 0 0.017069865 0.14741376 -0.38593423 -0.23852047
0.012416192 0 0.016893685 0.14741376 -0.38593423 -0.23852047
0.013208445 5.5511151e-17 0.016717784 0.14741376 -0.38593423 -0.23852047
0.0017297142 0.035493962 0.039999999 0.14741376 -0.38593423 -0.23852047
0.0024929566 0.035783883 0.039999999 0.14741376 -0.38593423 -0.23852047
0.015579046 0 0.016191732 0.14741376 -0.38593423 -0.23852047
0.0040197209 0.036363564 0.039999999 0.14741376 -0.38593423 -0.23852047
0.017154373 0 0.015842397 0.14741376 -0.38593423 -0.23852047
0.017940532 0 0.015668133 0.14741376 -0.38593423 -0.23852047
0.018725697 0 0.015494139 0.14741376 -0.38593423 -0.23852047
0.0070744636 0.037522316 0.039999999 0.14741376 -0.38593423 -0.23852047
0.0078384215 0.037811883 0.039999999 0.14741376 -0.38593423 -0.23852047
0.021075279 0 0.01497375 0.14741376 -0.38593423 -0.23852047
0.02185652 0 0.014800815 0.14741376 -0.38593423 -0.23852047
0.022636795 0 0.014628141 0.14741376 -0.38593423 -0.23852047
0.023416111 0 0.014455727 0.14741376 -0.38593423 -0.23852047
0.024194472 0 0.014283572 0.14741376 -0.38593423 -0.23852047
0.024971882 0 0.014111674 0.14741376 -0.38593423 -0.23852047
0.025748348 5.5511151e-17 0.013940033 0.14741376 -0.38593423 -0.23852047
0.013954544 0.04012689 0.039999999 0.14741376 -0.38593423 -0.23852047
0.014719668 0.040416092 0.039999999 0.14741376 -0.38593423 -0.23852047
0.028072139 0 0.013426631 0.14741376 -0.38593423 -0.23852047
0.0060266997 0.074271753 0.061709542 0.14741376 -0.38593423 -0.23852047
0.029616715 0 0.01308562 0.14741376 -0.38593423 -0.23852047
0.030387636 0 0.012915486 0.14741376 -0.38593423 -0.23852047
0.03115765 0 0.012745601 0.14741376 -0.38593423 -0.23852047
0.031926762 0 0.012575961 0.14741376 -0.38593423 -0.23852047
0.032694984 0 0.012406565 0.14741376 -0.38593423 -0.23852047
0.033462316 0 0.012237413 0.14741376 -0.38593423 -0.23852047
0.034228761 0 0.012068503 0.14741376 -0.38593423 -0.23852047
0.03499433 0 0.011899833 0.14741376 -0.38593423 -0.23852047
0.035759024 5.5511151e-17 0.011731402 0.14741376 -0.38593423 -0.23852047
0.036522854 5.5511151e-17 0.01156321 0.14741376 -0.38593423 -0.23852047
0.03728582 0 0.011395254 0.14741376 -0.38593423 -0.23852047
0.038047925 0 0.011227535 0.14741376 -0.38593423 -0.23852047
0.03880918 0 0.01106005 0.14741376 -0.38593423 -0.23852047
0.03956959 0 0.010892797 0.14741376 -0.38593423 -0.23852047
0.039999999 0.0011862884 0.011491913 0.14741376 -0.38593423 -0.23852047
0.039999999 0.0039487402 0.01310748 0.14741376 -0.38593423 -0.23852047
0.039999999 0.0067478083 0.014744508 0.14741376 -0.38593423 -0.23852047
0.039999999 0.0095842388 0.016403437 0.14741376 -0.38593423 -0.23852047
0.039999999 0.0124588 0.018084714 0.14741376 -0.38593423 -0.23852047
0.039999999 0.015372282 0.019788804 0.14741376 -0.38593423 -0.23852047
0.039999999 0.018325493 0.02151618 0.14741376 -0.38593423 -0.23852047
0.039999999 0.021319266 0.023267332 0.14741376 -0.38593423 -0.23852047
0.039999999 0.02435446 0.025042761 0.14741376 -0.38593423 -0.23852047
0.039999999 0.027431954 0.026842983 0.14741376 -0.38593423 -0.23852047
0.039999999 0.030552655 0.02866853 0.14741376 -0.38593423 -0.23852047
0.039999999 0.033717494 0.030519949 0.14741376 -0.38593423 -0.23852047
0.039999999 0.036927436 0.032397799 0.14741376 -0.38593423 -0.23852047
0.03775689 0.049082026 0.039999999 0.14741376 -0.38593423 -0.23852047
0.038528152 0.049370762 0.039999999 0.14741376 -0.38593423 -0.23852047
0.039999999 0.046837859 0.03819583 0.14741376 -0.38593423 -0.23852047
0.039067354 0.054025535 0.042605303 0.14741376 -0.38593423 -0.23852047
0.039519716 0.055654906 0.043459639 0.14741376 -0.38593423 -0.23852047
0.039866898 0.057740606 0.044604041 0.14741376 -0.38593423 -0.23852047
0.039947771 0.060963675 0.046472237 0.14741376 -0.38593423 -0.23852047
0.0004042717 0 0.018675284 0.14741376 -0.38593423 -0.23852047
0.0012119707 0 0.018495845 0.14741376 -0.38593423 -0.23852047
0.0020185492 5.5511151e-17 0.018316701 0.14741376 -0.38593423 -0.23852047
0.0028240136 0 0.018137848 0.14741376 -0.38593423 -0.23852047
0.0036283699 0 0.017959289 0.14741376 -0.38593423 -0.23852047
0.0044316249 0 0.017781021 0.14741376 -0.38593423 -0.23852047
0.0052337842 0 0.017603042 0.14741376 -0.38593423 -0.23852047
0.0060348543 0 0.017425349 0.14741376 -0.38593423 -0.23852047
0.0068348418 0 0.017247943 0.14741376 -0.38593423 -0.23852047
0.0076337522 0 0.017070822 0.14741376 -0.38593423 -0.23852047
0 0.023413362 0.032389138 0.14741376 -0.38593423 -0.23852047
0.0092283674 0 0.016717428 0.14741376 -0.38593423 -0.23852047
0 0.028158134 0.035150692 0.14741376 -0.38593423 -0.23852047
0.010818748 5.5511151e-17 0.016365154 0.14741376 -0.38593423 -0.23852047
0.011612366 0 0.016189435 0.14741376 -0.38593423 -0.23852047
0.012404943 0 0.016013991 0.14741376 -0.38593423 -0.23852047
0.013196486 0 0.015838822 0.14741376 -0.38593423 -0.23852047
0.013987001 0 0.015663927 0.14741376 -0.38593423 -0.23852047
0.014776492 0 0.015489303 0.14741376 -0.38593423 -0.23852047
0.015564968 0 0.01531495 0.14741376 -0.38593423 -0.23852047
0.0035082549 0.037822045 0.039999999 0.14741376 -0.38593423 -0.23852047
0.017138893 0 0.014967049 0.14741376 -0.38593423 -0.23852047
0.017924352 0 0.014793498 0.14741376 -0.38593423 -0.23852047
0.01870882 0 0.014620213 0.14741376 -0.38593423 -0.23852047
0.019492298 0 0.014447191 0.14741376 -0.38593423 -0.23852047
0.020274797 0 0.014274431 0.14741376 -0.38593423 -0.23852047
0.021056319 0 0.014101932 0.14741376 -0.38593423 -0.23852047
0.021836869 0 0.013929693 0.14741376 -0.38593423 -0.23852047
0.022616455 0 0.013757712 0.14741376 -0.38593423 -0.23852047
0.023395084 0 0.013585988 0.14741376 -0.38593423 -0.23852047
0.024172757 0 0.013414519 0.14741376 -0.38593423 -0.23852047
0.024949484 0 0.013243305 0.14741376 -0.38593423 -0.23852047
0.025725268 0 0.013072343 0.14741376 -0.38593423 -0.23852047
