# .PCD v0.7 - Point Cloud Data file format
VERSION 0.7
FIELDS x y z vp_x vp_y vp_z
SIZE 4 4 4 4 4 4
TYPE F F F F F F
COUNT 1 1 1 1 1 1
WIDTH 715
HEIGHT 1
VIEWPOINT 0 0 0 1 0 0 0
POINTS 715
DATA ascii
0.034949731 0 0.035858333 -0.14741376 -0.38593423 -0.23852047
0.038448695 0.0055354796 0.039999999 -0.14741376 -0.38593423 -0.23852047
0.036692839 0 0.036265381 -0.14741376 -0.38593423 -0.23852047
0.037566591 0 0.036469527 -0.14741376 -0.38593423 -0.23852047
0.038441818 0 0.036674086 -0.14741376 -0.38593423 -0.23852047
0.039318532 0 0.036879066 -0.14741376 -0.38593423 -0.23852047
0.00022267204 0.062805489 0.064614639 -0.14741376 -0.38593423 -0.23852047
2.9705354e-05 0.059452113 0.062556118 -0.14741376 -0.38593423 -0.23852047
0.0002116211 0.057261914 0.061281659 -0.14741376 -0.38593423 -0.23852047
0.00052599009 0.055490263 0.060288813 -0.14741376 -0.38593423 -0.23852047
0.00093496399 0.054017294 0.059496984 -0.14741376 -0.38593423 -0.23852047
0.0014007072 0.052726086 0.058827318 -0.14741376 -0.38593423 -0.23852047
0.0018916356 0.051520817 0.058215085 -0.14741376 -0.38593423 -0.23852047
0.0024384605 0.0504894 0.057720065 -0.14741376 -0.38593423 -0.23852047
0.0029947658 0.049494356 0.057249129 -0.14741376 -0.38593423 -0.23852047
0.0035892345 0.048617583 0.056857985 -0.14741376 -0.38593423 -0.23852047
0.0041897502 0.047765102 0.056482889 -0.14741376 -0.38593423 -0.23852047
0.0048247888 0.047017477 0.0561787 -0.14741376 -0.38593423 -0.23852047
0.0054584779 0.046271443 0.055875234 -0.14741376 -0.38593423 -0.23852047
0.0061282152 0.045632083 0.055644117 -0.14741376 -0.38593423 -0.23852047
0.006798191 0.044997469 0.055415981 -0.14741376 -0.38593423 -0.23852047
0.0074890172 0.04442478 0.055229858 -0.14741376 -0.38593423 -0.23852047
2.7755576e-17 0.021260517 0.039612446 -0.14741376 -0.38593423 -0.23852047
2.7755576e-17 0.018926492 0.038211245 -0.14741376 -0.38593423 -0.23852047
2.7755576e-17 0.016615953 0.036824211 -0.14741376 -0.38593423 -0.23852047
2.7755576e-17 0.014328538 0.035451129 -0.14741376 -0.38593423 -0.23852047
0 0.012063889 0.034091782 -0.14741376 -0.38593423 -0.23852047
0 0.0098216562 0.032745961 -0.14741376 -0.38593423 -0.23852047
0 0.0076014982 0.031413455 -0.14741376 -0.38593423 -0.23852047
0 0.0054030791 0.030094061 -0.14741376 -0.38593423 -0.23852047
2.7755576e-17 0.0032260707 0.028787587 -0.14741376 -0.38593423 -0.23852047
0 0.0010701508 0.027493833 -0.14741376 -0.38593423 -0.23852047
0.00040791815 0 0.026945174 -0.14741376 -0.38593423 -0.23852047
0.0012246195 0 0.027132431 -0.14741376 -0.38593423 -0.23852047
0.0020424796 0 0.02732002 -0.14741376 -0.38593423 -0.23852047
0.0028615049 0 0.027507944 -0.14741376 -0.38593423 -0.23852047
0.010664916 0.017836809 0.039999999 -0.14741376 -0.38593423 -0.23852047
0.0045030783 0 0.0278848 -0.14741376 -0.38593423 -0.23852047
0.0053256396 5.5511151e-17 0.028073736 -0.14741376 -0.38593423 -0.23852047
0.012905315 0.016978955 0.039999999 -0.14741376 -0.38593423 -0.23852047
0.0069743451 0 0.028452633 -0.14741376 -0.38593423 -0.23852047
0.0078005027 0 0.028642595 -0.14741376 -0.38593423 -0.23852047
0.0086278729 0 0.028832905 -0.14741376 -0.38593423 -0.23852047
0.0094564622 0 0.029023562 -0.14741376 -0.38593423 -0.23852047
0.016639061 0.015546964 0.039999999 -0.14741376 -0.38593423 -0.23852047
0.011117325 0 0.029405925 -0.14741376 -0.38593423 -0.23852047
0.011949614 0 0.029597634 -0.14741376 -0.38593423 -0.23852047
0.018879296 0.014686375 0.039999999 -0.14741376 -0.38593423 -0.23852047
0.019626059 0.014399272 0.039999999 -0.14741376 -0.38593423 -0.23852047
0.014453988 0 0.0301749 -0.14741376 -0.38593423 -0.23852047
0.015291305 0 0.030368039 -0.14741376 -0.38593423 -0.23852047
0.016129898 0 0.03056154 -0.14741376 -0.38593423 -0.23852047
0.022613276 0.013249629 0.039999999 -0.14741376 -0.38593423 -0.23852047
0.017810939 0 0.030949634 -0.14741376 -0.38593423 -0.23852047
0.0186534 0 0.03114423 -0.14741376 -0.38593423 -0.23852047
0.02485396 0.012386069 0.039999999 -0.14741376 -0.38593423 -0.23852047
0.020342242 0 0.031534534 -0.14741376 -0.38593423 -0.23852047
0.021188635 0 0.031730242 -0.14741376 -0.38593423 -0.23852047
0.022036357 0 0.031926326 -0.14741376 -0.38593423 -0.23852047
0.02288541 0 0.032122787 -0.14741376 -0.38593423 -0.23852047
0.023735804 0 0.032319624 -0.14741376 -0.38593423 -0.23852047
0.024587547 0 0.032516841 -0.14741376 -0.38593423 -0.23852047
0.025440646 5.5511151e-17 0.032714441 -0.14741376 -0.38593423 -0.23852047
0.03083094 0.010077395 0.039999999 -0.14741376 -0.38593423 -0.23852047
0.02715094 0 0.033110797 -0.14741376 -0.38593423 -0.23852047
0.028008152 0 0.033309557 -0.14741376 -0.38593423 -0.23852047
0.028866747 0 0.033508703 -0.14741376 -0.38593423 -0.23852047
0.033820815 0.0089197215 0.039999999 -0.14741376 -0.38593423 -0.23852047
0.03058813 0 0.033908177 -0.14741376 -0.38593423 -0.23852047
0.031450931 0 0.034108505 -0.14741376 -0.38593423 -0.23852047
0.03231515 0 0.034309231 -0.14741376 -0.38593423 -0.23852047
0.033180792 0 0.034510355 -0.14741376 -0.38593423 -0.23852047
0.034047868 5.5511151e-17 0.034711886 -0.14741376 -0.38593423 -0.23852047
0.034916386 0 0.034913816 -0.14741376 -0.38593423 -0.23852047
0.039056093 0.006888126 0.039999999 -0.14741376 -0.38593423 -0.23852047
0.039804351 0.0065972889 0.039999999 -0.14741376 -0.38593423 -0.23852047
0.037530657 0 0.035522051 -0.14741376 -0.38593423 -0.23852047
0.038405016 0 0.035725616 -0.14741376 -0.38593423 -0.23852047
0.039280858 0 0.035929598 -0.14741376 -0.38593423 -0.23852047
0.00020125161 0.062674835 0.063496351 -0.14741376 -0.38593423 -0.23852047
3.2603733e-05 0.059398655 0.061496641 -0.14741376 -0.38593423 -0.23852047
0.00021811355 0.057222314 0.060235698 -0.14741376 -0.38593423 -0.23852047
0.00053450611 0.055459592 0.059252102 -0.14741376 -0.38593423 -0.23852047
0.00094305776 0.053988144 0.058463842 -0.14741376 -0.38593423 -0.23852047
0.0014099225 0.052702956 0.057800367 -0.14741376 -0.38593423 -0.23852047
0.0019014949 0.05150222 0.057193127 -0.14741376 -0.38593423 -0.23852047
0.0024477823 0.05047182 0.05670033 -0.14741376 -0.38593423 -0.23852047
0.0030043817 0.049480174 0.056233138 -0.14741376 -0.38593423 -0.23852047
0.0035982765 0.048604246 0.055843748 -0.14741376 -0.38593423 -0.23852047
0.0041988459 0.047754396 0.055471551 -0.14741376 -0.38593423 -0.23852047
0.0048332801 0.047007482 0.055168726 -0.14741376 -0.38593423 -0.23852047
0.0054663667 0.046262156 0.054866612 -0.14741376 -0.38593423 -0.23852047
0.0061359527 0.045624755 0.054637454 -0.14741376 -0.38593423 -0.23852047
0.0068052979 0.044990737 0.054410335 -0.14741376 -0.38593423 -0.23852047
0.0074958391 0.044419594 0.054225732 -0.14741376 -0.38593423 -0.23852047
0 0.021239944 0.038650881 -0.14741376 -0.38593423 -0.23852047
0 0.01890827 0.037255891 -0.14741376 -0.38593423 -0.23852047
0 0.016600035 0.035874989 -0.14741376 -0.38593423 -0.23852047
0 0.014314881 0.03450796 -0.14741376 -0.38593423 -0.23852047
0 0.012052447 0.033154588 -0.14741376 -0.38593423 -0.23852047
0 0.0098123867 0.031814668 -0.14741376 -0.38593423 -0.23852047
0 0.0075943596 0.03048799 -0.14741376 -0.38593423 -0.23852047
0 0.0053980299 0.029174358 -0.14741376 -0.38593423 -0.23852047
0 0.0032230706 0.02787357 -0.14741376 -0.38593423 -0.23852047
2.7755576e-17 0.0010691604 0.026585437 -0.14741376 -0.38593423 -0.23852047
0.00040754143 5.5511151e-17 0.026039155 -0.14741376 -0.38593423 -0.23852047
0.0012234877 0 0.026225599 -0.14741376 -0.38593423 -0.23852047
0.0020405904 5.5511151e-17 0.02641237 -0.14741376 -0.38593423 -0.23852047
0.0028588565 0 0.026599474 -0.14741376 -0.38593423 -0.23852047
0.0036782923 0 0.026786909 -0.14741376 -0.38593423 -0.23852047
0.0044989046 0 0.026974676 -0.14741376 -0.38593423 -0.23852047
0.0053206999 0 0.027162781 -0.14741376 -0.38593423 -0.23852047
0.006143685 0 0.027351221 -0.14741376 -0.38593423 -0.23852047
0.0069678668 0 0.02754 -0.14741376 -0.38593423 -0.23852047
0.0077932519 0 0.02772912 -0.14741376 -0.38593423 -0.23852047
0.015695037 0.017499808 0.039999999 -0.14741376 -0.38593423 -0.23852047
0.0094476584 0 0.028108388 -0.14741376 -0.38593423 -0.23852047
0.010276695 5.5511151e-17 0.028298538 -0.14741376 -0.38593423 -0.23852047
0.01110696 0 0.028489036 -0.14741376 -0.38593423 -0.23852047
0.011938465 0 0.028679883 -0.14741376 -0.38593423 -0.23852047
0.012771213 0 0.028871082 -0.14741376 -0.38593423 -0.23852047
0.020186808 0.015774928 0.039999999 -0.14741376 -0.38593423 -0.23852047
0.020935472 0.015487039 0.039999999 -0.14741376 -0.38593423 -0.23852047
0.015276995 5.5511151e-17 0.029446797 -0.14741376 -0.38593423 -0.23852047
0.022432856 0.014910895 0.039999999 -0.14741376 -0.38593423 -0.23852047
0.016953869 0 0.029832393 -0.14741376 -0.38593423 -0.23852047
0.017794233 0 0.030025732 -0.14741376 -0.38593423 -0.23852047
0.01863589 0 0.030219434 -0.14741376 -0.38593423 -0.23852047
0.025427952 0.013757123 0.039999999 -0.14741376 -0.38593423 -0.23852047
0.020323116 0 0.030607935 -0.14741376 -0.38593423 -0.23852047
0.021168701 0 0.030802738 -0.14741376 -0.38593423 -0.23852047
0.022015607 5.5511151e-17 0.03099791 -0.14741376 -0.38593423 -0.23852047
0.022863844 0 0.031193456 -0.14741376 -0.38593423 -0.23852047
0.023713421 0 0.031389374 -0.14741376 -0.38593423 -0.23852047
0.024564343 0 0.031585671 -0.14741376 -0.38593423 -0.23852047
0.025416616 5.5511151e-17 0.031782344 -0.14741376 -0.38593423 -0.23852047
0.02627025 0 0.031979397 -0.14741376 -0.38593423 -0.23852047
0.027125252 0 0.03217683 -0.14741376 -0.38593423 -0.23852047
0.027981631 0 0.03237465 -0.14741376 -0.38593423 -0.23852047
0.028839393 5.5511151e-17 0.032572854 -0.14741376 -0.38593423 -0.23852047
0.029698545 0 0.032771446 -0.14741376 -0.38593423 -0.23852047
0.030559096 0 0.032970425 -0.14741376 -0.38593423 -0.23852047
0.031421054 0 0.033169799 -0.14741376 -0.38593423 -0.23852047
0.032284427 0 0.033369564 -0.14741376 -0.38593423 -0.23852047
0.03314922 0 0.033569723 -0.14741376 -0.38593423 -0.23852047
0.034015447 5.5511151e-17 0.033770282 -0.14741376 -0.38593423 -0.23852047
0.034883108 0 0.033971239 -0.14741376 -0.38593423 -0.23852047
0.035752214 5.5511151e-17 0.034172598 -0.14741376 -0.38593423 -0.23852047
0.036622778 0 0.03437436 -0.14741376 -0.38593423 -0.23852047
0.037494797 0 0.034576528 -0.14741376 -0.38593423 -0.23852047
0.038368292 0 0.034779102 -0.14741376 -0.38593423 -0.23852047
0.039999999 0.0015646358 0.036090907 -0.14741376 -0.38593423 -0.23852047
0.00017988549 0.06254451 0.062380899 -0.14741376 -0.38593423 -0.23852047
3.5495745e-05 0.059345312 0.060439494 -0.14741376 -0.38593423 -0.23852047
0.00022459215 0.057182796 0.059191972 -0.14741376 -0.38593423 -0.23852047
0.00054300425 0.055428986 0.058217566 -0.14741376 -0.38593423 -0.23852047
0.00095113466 0.053959057 0.05743286 -0.14741376 -0.38593423 -0.23852047
0.0014191187 0.052679874 0.05677554 -0.14741376 -0.38593423 -0.23852047
0.001911334 0.051483665 0.056173265 -0.14741376 -0.38593423 -0.23852047
0.0024570851 0.05045427 0.055682674 -0.14741376 -0.38593423 -0.23852047
0.0030139782 0.049466021 0.055219214 -0.14741376 -0.38593423 -0.23852047
0.0036073003 0.048590936 0.054831568 -0.14741376 -0.38593423 -0.23852047
0.0042079235 0.047743708 0.054462254 -0.14741376 -0.38593423 -0.23852047
0.0048417537 0.046997506 0.054160785 -0.14741376 -0.38593423 -0.23852047
0.0054742396 0.046252888 0.05386002 -0.14741376 -0.38593423 -0.23852047
0.0061436743 0.045617439 0.053632803 -0.14741376 -0.38593423 -0.23852047
0.0068123909 0.04498402 0.053406704 -0.14741376 -0.38593423 -0.23852047
0 0.023572506 0.039094359 -0.14741376 -0.38593423 -0.23852047
0 0.021219414 0.037691317 -0.14741376 -0.38593423 -0.23852047
0 0.018890085 0.036302511 -0.14741376 -0.38593423 -0.23852047
0 0.016584152 0.034927715 -0.14741376 -0.38593423 -0.23852047
2.7755576e-17 0.014301251 0.033566717 -0.14741376 -0.38593423 -0.23852047
2.7755576e-17 0.012041029 0.032219302 -0.14741376 -0.38593423 -0.23852047
2.7755576e-17 0.0098031368 0.030885262 -0.14741376 -0.38593423 -0.23852047
0 0.0075872354 0.029564396 -0.14741376 -0.38593423 -0.23852047
2.7755576e-17 0.005392991 0.0282565 -0.14741376 -0.38593423 -0.23852047
0 0.0032200767 0.026961382 -0.14741376 -0.38593423 -0.23852047
2.7755576e-17 0.0010681719 0.025678849 -0.14741376 -0.38593423 -0.23852047
0.00040716544 0 0.025134936 -0.14741376 -0.38593423 -0.23852047
0.0012223581 0 0.025320569 -0.14741376 -0.38593423 -0.23852047
0.0020387052 0 0.025506528 -0.14741376 -0.38593423 -0.23852047
0.0028562134 0 0.025692811 -0.14741376 -0.38593423 -0.23852047
0.011743949 0.020611253 0.039999999 -0.14741376 -0.38593423 -0.23852047
0.0044947392 0 0.026066368 -0.14741376 -0.38593423 -0.23852047
0.0053157704 0 0.026253643 -0.14741376 -0.38593423 -0.23852047
0.006137989 0 0.02644125 -0.14741376 -0.38593423 -0.23852047
0.0069614016 0 0.026629193 -0.14741376 -0.38593423 -0.23852047
0.0077860155 0 0.026817471 -0.14741376 -0.38593423 -0.23852047
0.0086118374 0 0.027006088 -0.14741376 -0.38593423 -0.23852047
0.0094388733 0 0.027195046 -0.14741376 -0.38593423 -0.23852047
0.010267131 0 0.027384344 -0.14741376 -0.38593423 -0.23852047
0.011096617 0 0.027573986 -0.14741376 -0.38593423 -0.23852047
0.019249216 0.017734047 0.039999999 -0.14741376 -0.38593423 -0.23852047
0.012759302 5.5511151e-17 0.027954308 -0.14741376 -0.38593423 -0.23852047
0.013592514 0 0.028144991 -0.14741376 -0.38593423 -0.23852047
0.014426983 0 0.028336024 -0.14741376 -0.38593423 -0.23852047
0.015262715 0 0.028527409 -0.14741376 -0.38593423 -0.23852047
0.016099717 0 0.028719146 -0.14741376 -0.38593423 -0.23852047
0.016937997 0 0.02891124 -0.14741376 -0.38593423 -0.23852047
0.01777756 0 0.029103693 -0.14741376 -0.38593423 -0.23852047
0.018618416 5.5511151e-17 0.029296502 -0.14741376 -0.38593423 -0.23852047
0.01946057 0 0.029489676 -0.14741376 -0.38593423 -0.23852047
0.020304032 0 0.02968321 -0.14741376 -0.38593423 -0.23852047
0.021148805 0 0.029877108 -0.14741376 -0.38593423 -0.23852047
0.0219949 0 0.030071374 -0.14741376 -0.38593423 -0.23852047
0.022842323 0 0.030266007 -0.14741376 -0.38593423 -0.23852047
0.023691082 0 0.030461011 -0.14741376 -0.38593423 -0.23852047
0.024541182 5.5511151e-17 0.030656386 -0.14741376 -0.38593423 -0.23852047
0.025392635 0 0.030852135 -0.14741376 -0.38593423 -0.23852047
0.026245443 0 0.031048261 -0.14741376 -0.38593423 -0.23852047
0.027099619 0 0.031244762 -0.14741376 -0.38593423 -0.23852047
0.027955167 0 0.031441644 -0.14741376 -0.38593423 -0.23852047
0.028812096 0 0.031638909 -0.14741376 -0.38593423 -0.23852047
0.029670412 0 0.031836554 -0.14741376 -0.38593423 -0.23852047
0.030530123 0 0.032034587 -0.14741376 -0.38593423 -0.23852047
0.031391241 0 0.032233007 -0.14741376 -0.38593423 -0.23852047
0.037272204 0.010779838 0.039999999 -0.14741376 -0.38593423 -0.23852047
0.033117715 0 0.032631014 -0.14741376 -0.38593423 -0.23852047
0.033983089 0 0.032830603 -0.14741376 -0.38593423 -0.23852047
0.039527729 0.0099050719 0.039999999 -0.14741376 -0.38593423 -0.23852047
0.03571815 0 0.033230975 -0.14741376 -0.38593423 -0.23852047
0.036587853 0 0.033431757 -0.14741376 -0.38593423 -0.23852047
0.037459012 0 0.033632942 -0.14741376 -0.38593423 -0.23852047
0.039205745 0 0.034036521 -0.14741376 -0.38593423 -0.23852047
0.00015857338 0.062414512 0.061268263 -0.14741376 -0.38593423 -0.23852047
3.8381429e-05 0.059292089 0.059384659 -0.14741376 -0.38593423 -0.23852047
0.00023105695 0.057143364 0.05815047 -0.14741376 -0.38593423 -0.23852047
0.00055148458 0.055398442 0.057185192 -0.14741376 -0.38593423 -0.23852047
0.00095919467 0.053930026 0.056404028 -0.14741376 -0.38593423 -0.23852047
0.001428296 0.052656841 0.055752821 -0.14741376 -0.38593423 -0.23852047
0.0019211529 0.051465143 0.055155482 -0.14741376 -0.38593423 -0.23852047
0.002466369 0.050436761 0.054667093 -0.14741376 -0.38593423 -0.23852047
0.0030235553 0.049451895 0.05420734 -0.14741376 -0.38593423 -0.23852047
0.0036163058 0.048577655 0.05382143 -0.14741376 -0.38593423 -0.23852047
0.004216983 0.047733042 0.053454984 -0.14741376 -0.38593423 -0.23852047
0.0048502111 0.046987548 0.053154867 -0.14741376 -0.38593423 -0.23852047
0.0054822192 0.046243984 0.052855682 -0.14741376 -0.38593423 -0.23852047
0.0061513805 0.045610141 0.052630164 -0.14741376 -0.38593423 -0.23852047
0 0.025924429 0.039541714 -0.14741376 -0.38593423 -0.23852047
0 0.023549631 0.038130533 -0.14741376 -0.38593423 -0.23852047
0 0.021198925 0.036733735 -0.14741376 -0.38593423 -0.23852047
0 0.018871939 0.03535109 -0.14741376 -0.38593423 -0.23852047
2.7755576e-17 0.016568299 0.033982381 -0.14741376 -0.38593423 -0.23852047
0 0.01428765 0.032627393 -0.14741376 -0.38593423 -0.23852047
2.7755576e-17 0.012029634 0.031285916 -0.14741376 -0.38593423 -0.23852047
0 0.0097939055 0.029957738 -0.14741376 -0.38593423 -0.23852047
0 0.0075801257 0.02864266 -0.14741376 -0.38593423 -0.23852047
2.7755576e-17 0.0053879623 0.027340483 -0.14741376 -0.38593423 -0.23852047
2.7755576e-17 0.0032170885 0.026051013 -0.14741376 -0.38593423 -0.23852047
0 0.0010671855 0.02477406 -0.14741376 -0.38593423 -0.23852047
0.0004067902 5.5511151e-17 0.02423251 -0.14741376 -0.38593423 -0.23852047
0.010029889 0.022871885 0.039999999 -0.14741376 -0.38593423 -0.23852047
0.010782424 0.02258423 0.039999999 -0.14741376 -0.38593423 -0.23852047
0.0028535756 5.5511151e-17 0.024787949 -0.14741376 -0.38593423 -0.23852047
0.0036714929 5.5511151e-17 0.024973745 -0.14741376 -0.38593423 -0.23852047
0.0044905823 5.5511151e-17 0.025159864 -0.14741376 -0.38593423 -0.23852047
0.0053108502 0 0.025346311 -0.14741376 -0.38593423 -0.23852047
0.014544753 0.021144483 0.039999999 -0.14741376 -0.38593423 -0.23852047
0.0069549493 0 0.025720198 -0.14741376 -0.38593423 -0.23852047
0.0077787936 5.5511151e-17 0.025907638 -0.14741376 -0.38593423 -0.23852047
0.0086038439 5.5511151e-17 0.026095415 -0.14741376 -0.38593423 -0.23852047
0.017554397 0.019990848 0.039999999 -0.14741376 -0.38593423 -0.23852047
0.010257587 0 0.026471976 -0.14741376 -0.38593423 -0.23852047
0.011086294 0 0.026660765 -0.14741376 -0.38593423 -0.23852047
0.011916234 0 0.026849894 -0.14741376 -0.38593423 -0.23852047
0.012747414 0 0.027039368 -0.14741376 -0.38593423 -0.23852047
0.013579841 5.5511151e-17 0.027229186 -0.14741376 -0.38593423 -0.23852047
0.014413522 0 0.027419351 -0.14741376 -0.38593423 -0.23852047
0.015248463 0 0.027609862 -0.14741376 -0.38593423 -0.23852047
0.016084673 0 0.027800724 -0.14741376 -0.38593423 -0.23852047
0.016922155 5.5511151e-17 0.027991939 -0.14741376 -0.38593423 -0.23852047
0.017760921 5.5511151e-17 0.028183507 -0.14741376 -0.38593423 -0.23852047
0.018600978 0 0.028375428 -0.14741376 -0.38593423 -0.23852047
0.019442329 0 0.028567707 -0.14741376 -0.38593423 -0.23852047
0.020284984 0 0.028760346 -0.14741376 -0.38593423 -0.23852047
0.021128951 0 0.028953344 -0.14741376 -0.38593423 -0.23852047
0.021974234 0 0.029146705 -0.14741376 -0.38593423 -0.23852047
0.022820845 0 0.029340431 -0.14741376 -0.38593423 -0.23852047
0.023668787 0 0.029534522 -0.14741376 -0.38593423 -0.23852047
0.024518071 5.5511151e-17 0.029728981 -0.14741376 -0.38593423 -0.23852047
0.025368702 0 0.02992381 -0.14741376 -0.38593423 -0.23852047
0.026220687 0 0.030119009 -0.14741376 -0.38593423 -0.23852047
0.027074035 0 0.030314583 -0.14741376 -0.38593423 -0.23852047
0.027928755 5.5511151e-17 0.030510532 -0.14741376 -0.38593423 -0.23852047
0.028784851 0 0.030706858 -0.14741376 -0.38593423 -0.23852047
0.029642334 0 0.030903563 -0.14741376 -0.38593423 -0.23852047
0.030501209 0 0.031100649 -0.14741376 -0.38593423 -0.23852047
0.031361487 5.5511151e-17 0.03129812 -0.14741376 -0.38593423 -0.23852047
0.032223169 0 0.031495973 -0.14741376 -0.38593423 -0.23852047
0.033086274 0 0.031694215 -0.14741376 -0.38593423 -0.23852047
0.039388217 0.011570544 0.039999999 -0.14741376 -0.38593423 -0.23852047
0.034816757 0 0.032091863 -0.14741376 -0.38593423 -0.23852047
0.035684153 0 0.032291275 -0.14741376 -0.38593423 -0.23852047
0.036552999 0 0.032491084 -0.14741376 -0.38593423 -0.23852047
0.037423301 0 0.032691285 -0.14741376 -0.38593423 -0.23852047
0.038295068 0 0.032891888 -0.14741376 -0.38593423 -0.23852047
0.039168306 0 0.033092894 -0.14741376 -0.38593423 -0.23852047
0.000137315 0.062284842 0.060158435 -0.14741376 -0.38593423 -0.23852047
4.1260817e-05 0.059238981 0.058332127 -0.14741376 -0.38593423 -0.23852047
0.00023750804 0.057104014 0.057111178 -0.14741376 -0.38593423 -0.23852047
0.00055994728 0.055367962 0.05615497 -0.14741376 -0.38593423 -0.23852047
0.00096723798 0.053901058 0.055377334 -0.14741376 -0.38593423 -0.23852047
0.0014374545 0.052633852 0.054732203 -0.14741376 -0.38593423 -0.23852047
0.0019309521 0.051446661 0.054139771 -0.14741376 -0.38593423 -0.23852047
0.0024756338 0.050419286 0.053653575 -0.14741376 -0.38593423 -0.23852047
0.003033113 0.049437799 0.053197507 -0.14741376 -0.38593423 -0.23852047
0.003625293 0.048564401 0.052813329 -0.14741376 -0.38593423 -0.23852047
0.0042260243 0.047722399 0.052449733 -0.14741376 -0.38593423 -0.23852047
0.0048586507 0.046977613 0.052150961 -0.14741376 -0.38593423 -0.23852047
0.0054905387 0.046236102 0.051854026 -0.14741376 -0.38593423 -0.23852047
2.7755576e-17 0.028295968 0.039992992 -0.14741376 -0.38593423 -0.23852047
2.7755576e-17 0.02589917 0.038573585 -0.14741376 -0.38593423 -0.23852047
2.7755576e-17 0.023526803 0.037168708 -0.14741376 -0.38593423 -0.23852047
0 0.02117848 0.035778128 -0.14741376 -0.38593423 -0.23852047
0 0.018853828 0.034401625 -0.14741376 -0.38593423 -0.23852047
2.7755576e-17 0.01655248 0.033038981 -0.14741376 -0.38593423 -0.23852047
0 0.014274076 0.031689983 -0.14741376 -0.38593423 -0.23852047
2.7755576e-17 0.012018261 0.030354416 -0.14741376 -0.38593423 -0.23852047
2.7755576e-17 0.0097846929 0.02903208 -0.14741376 -0.38593423 -0.23852047
0 0.0075730304 0.02772277 -0.14741376 -0.38593423 -0.23852047
2.7755576e-17 0.0053829434 0.026426293 -0.14741376 -0.38593423 -0.23852047
2.7755576e-17 0.0032141064 0.025142452 -0.14741376 -0.38593423 -0.23852047
0 0.001066201 0.023871059 -0.14741376 -0.38593423 -0.23852047
0.00040641573 0 0.023331864 -0.14741376 -0.38593423 -0.23852047
0.0012201058 0 0.023515884 -0.14741376 -0.38593423 -0.23852047
0.011324758 0.023989877 0.039999999 -0.14741376 -0.38593423 -0.23852047
0.002850943 5.5511151e-17 0.023884878 -0.14741376 -0.38593423 -0.23852047
0.0036681034 5.5511151e-17 0.024069855 -0.14741376 -0.38593423 -0.23852047
0.0044864337 0 0.024255155 -0.14741376 -0.38593423 -0.23852047
0.0053059403 0 0.024440778 -0.14741376 -0.38593423 -0.23852047
0.0061266301 5.5511151e-17 0.02462673 -0.14741376 -0.38593423 -0.23852047
0.0069485097 0 0.024813006 -0.14741376 -0.38593423 -0.23852047
0.0077715861 0 0.024999613 -0.14741376 -0.38593423 -0.23852047
0.0085958652 0 0.02518655 -0.14741376 -0.38593423 -0.23852047
0.0094213551 0 0.025373818 -0.14741376 -0.38593423 -0.23852047
0.010248061 0 0.025561422 -0.14741376 -0.38593423 -0.23852047
0.011075991 0 0.025749361 -0.14741376 -0.38593423 -0.23852047
0.011905152 5.5511151e-17 0.025937637 -0.14741376 -0.38593423 -0.23852047
0.01273555 0 0.026126252 -0.14741376 -0.38593423 -0.23852047
0.013567193 0 0.026315209 -0.14741376 -0.38593423 -0.23852047
0.014400087 0 0.026504507 -0.14741376 -0.38593423 -0.23852047
0.023394309 0.019362366 0.039999999 -0.14741376 -0.38593423 -0.23852047
0.016069656 0 0.026884139 -0.14741376 -0.38593423 -0.23852047
0.016906347 0 0.027074477 -0.14741376 -0.38593423 -0.23852047
0.017744318 5.5511151e-17 0.027265161 -0.14741376 -0.38593423 -0.23852047
0.018583573 0 0.0274562 -0.14741376 -0.38593423 -0.23852047
0.019424124 5.5511151e-17 0.02764759 -0.14741376 -0.38593423 -0.23852047
0.020265976 0 0.027839335 -0.14741376 -0.38593423 -0.23852047
0.021109136 0 0.028031437 -0.14741376 -0.38593423 -0.23852047
0.021953611 0 0.028223896 -0.14741376 -0.38593423 -0.23852047
0.02279941 0 0.028416716 -0.14741376 -0.38593423 -0.23852047
0.023646537 0 0.028609898 -0.14741376 -0.38593423 -0.23852047
0.024495004 0 0.028803444 -0.14741376 -0.38593423 -0.23852047
0.025344815 0 0.028997354 -0.14741376 -0.38593423 -0.23852047
0.026195981 0 0.029191634 -0.14741376 -0.38593423 -0.23852047
0.027048504 0 0.02938628 -0.14741376 -0.38593423 -0.23852047
0.027902396 0 0.029581301 -0.14741376 -0.38593423 -0.23852047
0.028757663 5.5511151e-17 0.029776692 -0.14741376 -0.38593423 -0.23852047
0.029614313 5.5511151e-17 0.02997246 -0.14741376 -0.38593423 -0.23852047
0.030472353 0 0.030168604 -0.14741376 -0.38593423 -0.23852047
0.03773671 0.013829032 0.039999999 -0.14741376 -0.38593423 -0.23852047
0.038492266 0.013536502 0.039999999 -0.14741376 -0.38593423 -0.23852047
0.033054892 0 0.030759314 -0.14741376 -0.38593423 -0.23852047
0.033918574 0 0.030956985 -0.14741376 -0.38593423 -0.23852047
0.03478368 0 0.031155042 -0.14741376 -0.38593423 -0.23852047
0.035650227 0 0.031353485 -0.14741376 -0.38593423 -0.23852047
0.03651822 0 0.031552322 -0.14741376 -0.38593423 -0.23852047
0.037387662 0 0.031751551 -0.14741376 -0.38593423 -0.23852047
0.038258567 0 0.03195117 -0.14741376 -0.38593423 -0.23852047
0.039130941 0 0.032151189 -0.14741376 -0.38593423 -0.23852047
0.0001170162 0.062158253 0.05905322 -0.14741376 -0.38593423 -0.23852047
4.413394e-05 0.059185989 0.057281882 -0.14741376 -0.38593423 -0.23852047
0.00024394547 0.057064749 0.056074083 -0.14741376 -0.38593423 -0.23852047
0.0005683924 0.055337545 0.055126887 -0.14741376 -0.38593423 -0.23852047
0.00097526459 0.053872149 0.054352768 -0.14741376 -0.38593423 -0.23852047
0.0014465943 0.052610915 0.053713676 -0.14741376 -0.38593423 -0.23852047
0.0019407312 0.051428214 0.053126115 -0.14741376 -0.38593423 -0.23852047
0.0024848802 0.050401844 0.052642111 -0.14741376 -0.38593423 -0.23852047
0.0030426516 0.049423728 0.0521897 -0.14741376 -0.38593423 -0.23852047
0.0036342624 0.048551172 0.051807247 -0.14741376 -0.38593423 -0.23852047
0.0042350474 0.047711775 0.05144649 -0.14741376 -0.38593423 -0.23852047
0.0048670741 0.046967696 0.051149059 -0.14741376 -0.38593423 -0.23852047
0.0054988419 0.046228237 0.050854355 -0.14741376 -0.38593423 -0.23852047
2.7755576e-17 0.028268287 0.039020516 -0.14741376 -0.38593423 -0.23852047
2.7755576e-17 0.025873963 0.037607465 -0.14741376 -0.38593423 -0.23852047
0 0.023504021 0.036208864 -0.14741376 -0.38593423 -0.23852047
0 0.021158077 0.034824483 -0.14741376 -0.38593423 -0.23852047
0 0.018835755 0.033454102 -0.14741376 -0.38593423 -0.23852047
0 0.016536694 0.0320975 -0.14741376 -0.38593423 -0.23852047
0 0.01426053 0.030754467 -0.14741376 -0.38593423 -0.23852047
0 0.012006912 0.029424796 -0.14741376 -0.38593423 -0.23852047
0 0.009775498 0.028108278 -0.14741376 -0.38593423 -0.23852047
0 0.0075659491 0.026804719 -0.14741376 -0.38593423 -0.23852047
0 0.0053779343 0.025513921 -0.14741376 -0.38593423 -0.23852047
0 0.0032111302 0.02423569 -0.14741376 -0.38593423 -0.23852047
0 0.0010652185 0.02296984 -0.14741376 -0.38593423 -0.23852047
0.00040604195 0 0.02243299 -0.14741376 -0.38593423 -0.23852047
0.011113421 0.025691528 0.039999999 -0.14741376 -0.38593423 -0.23852047
0.0020330718 5.5511151e-17 0.022799738 -0.14741376 -0.38593423 -0.23852047
0.0028483155 0 0.022983585 -0.14741376 -0.38593423 -0.23852047
0.0036647203 5.5511151e-17 0.02316775 -0.14741376 -0.38593423 -0.23852047
0.014138627 0.024534604 0.039999999 -0.14741376 -0.38593423 -0.23852047
0.014894881 0.024245141 0.039999999 -0.14741376 -0.38593423 -0.23852047
0.0061209677 0 0.023722161 -0.14741376 -0.38593423 -0.23852047
0.0069420831 0 0.023907609 -0.14741376 -0.38593423 -0.23852047
0.01716359 0.023376174 0.039999999 -0.14741376 -0.38593423 -0.23852047
0.0085879033 0 0.024279485 -0.14741376 -0.38593423 -0.23852047
0.0094126221 0 0.024465915 -0.14741376 -0.38593423 -0.23852047
0.01943228 0.022506315 0.039999999 -0.14741376 -0.38593423 -0.23852047
0.011065709 0 0.024839766 -0.14741376 -0.38593423 -0.23852047
0.011894092 0 0.025027191 -0.14741376 -0.38593423 -0.23852047
0.01272371 0 0.025214951 -0.14741376 -0.38593423 -0.23852047
0.01355457 5.5511151e-17 0.025403049 -0.14741376 -0.38593423 -0.23852047
0.023213632 0.021054475 0.039999999 -0.14741376 -0.38593423 -0.23852047
0.015220044 0 0.025780262 -0.14741376 -0.38593423 -0.23852047
0.024726322 0.020472981 0.039999999 -0.14741376 -0.38593423 -0.23852047
0.016890571 0 0.026158843 -0.14741376 -0.38593423 -0.23852047
0.017727746 0 0.02634865 -0.14741376 -0.38593423 -0.23852047
0.026995596 0.0195999 0.039999999 -0.14741376 -0.38593423 -0.23852047
0.019405955 0 0.02672931 -0.14741376 -0.38593423 -0.23852047
0.020247005 0 0.026920164 -0.14741376 -0.38593423 -0.23852047
0.02108936 0 0.027111372 -0.14741376 -0.38593423 -0.23852047
0.021933028 0 0.027302934 -0.14741376 -0.38593423 -0.23852047
0.022778017 0 0.027494851 -0.14741376 -0.38593423 -0.23852047
0.023624333 0 0.027687129 -0.14741376 -0.38593423 -0.23852047
0.032292157 0.017558595 0.039999999 -0.14741376 -0.38593423 -0.23852047
0.025320979 0 0.02807276 -0.14741376 -0.38593423 -0.23852047
0.026171323 0 0.028266121 -0.14741376 -0.38593423 -0.23852047
0.027023025 0 0.028459847 -0.14741376 -0.38593423 -0.23852047
0.02787609 0 0.028653938 -0.14741376 -0.38593423 -0.23852047
0.02873053 0 0.0288484 -0.14741376 -0.38593423 -0.23852047
0.029586349 0 0.029043233 -0.14741376 -0.38593423 -0.23852047
0.030443555 0 0.029238438 -0.14741376 -0.38593423 -0.23852047
0.031302158 0 0.029434018 -0.14741376 -0.38593423 -0.23852047
0.032162163 0 0.029629974 -0.14741376 -0.38593423 -0.23852047
0.039864406 0.014631724 0.039999999 -0.14741376 -0.38593423 -0.23852047
0.039999999 0.013014009 0.039078522 -0.14741376 -0.38593423 -0.23852047
0.034750674 0 0.030220117 -0.14741376 -0.38593423 -0.23852047
0.035616368 0 0.030417599 -0.14741376 -0.38593423 -0.23852047
0.036483508 0 0.030615466 -0.14741376 -0.38593423 -0.23852047
0.037352096 0 0.03081372 -0.14741376 -0.38593423 -0.23852047
0.038222142 0 0.031012366 -0.14741376 -0.38593423 -0.23852047
0.039093655 0 0.031211402 -0.14741376 -0.38593423 -0.23852047
0.039999999 6.8708156e-05 0.031458888 -0.14741376 -0.38593423 -0.23852047
0.00011281139 0.0620807 0.057983004 -0.14741376 -0.38593423 -0.23852047
4.7000838e-05 0.059133112 0.056233913 -0.14741376 -0.38593423 -0.23852047
0.00025036934 0.057025567 0.055039175 -0.14741376 -0.38593423 -0.23852047
0.00057682005 0.055307191 0.054100931 -0.14741376 -0.38593423 -0.23852047
0.00098327466 0.053843301 0.053330317 -0.14741376 -0.38593423 -0.23852047
0.0014557153 0.05258802 0.052697223 -0.14741376 -0.38593423 -0.23852047
0.0019504906 0.051409807 0.052114509 -0.14741376 -0.38593423 -0.23852047
0.0024941077 0.05038444 0.05163268 -0.14741376 -0.38593423 -0.23852047
0.0030521709 0.049409691 0.051183917 -0.14741376 -0.38593423 -0.23852047
0.0036432135 0.04853797 0.050803181 -0.14741376 -0.38593423 -0.23852047
0.0042440523 0.047701173 0.05044524 -0.14741376 -0.38593423 -0.23852047
0.0048754807 0.046957798 0.050149146 -0.14741376 -0.38593423 -0.23852047
0 0.030657237 0.039471366 -0.14741376 -0.38593423 -0.23852047
0 0.028240662 0.038050056 -0.14741376 -0.38593423 -0.23852047
2.7755576e-17 0.025848808 0.036643345 -0.14741376 -0.38593423 -0.23852047
0 0.023481285 0.035250999 -0.14741376 -0.38593423 -0.23852047
2.7755576e-17 0.021137714 0.033872794 -0.14741376 -0.38593423 -0.23852047
0 0.018817721 0.032508507 -0.14741376 -0.38593423 -0.23852047
2.7755576e-17 0.016520938 0.031157928 -0.14741376 -0.38593423 -0.23852047
0 0.01424701 0.029820843 -0.14741376 -0.38593423 -0.23852047
0 0.011995587 0.028497042 -0.14741376 -0.38593423 -0.23852047
0 0.0097663226 0.027186327 -0.14741376 -0.38593423 -0.23852047
2.7755576e-17 0.0075588818 0.025888497 -0.14741376 -0.38593423 -0.23852047
0 0.0053729354 0.024603358 -0.14741376 -0.38593423 -0.23852047
0 0.0032081597 0.023330716 -0.14741376 -0.38593423 -0.23852047
0 0.0010642379 0.022070389 -0.14741376 -0.38593423 -0.23852047
0.00040566892 0 0.021535879 -0.14741376 -0.38593423 -0.23852047
0.0012178622 5.5511151e-17 0.021718295 -0.14741376 -0.38593423 -0.23852047
0.0020312015 0 0.021901025 -0.14741376 -0.38593423 -0.23852047
0.0028456934 0 0.022084063 -0.14741376 -0.38593423 -0.23852047
0.0036613441 0 0.022267416 -0.14741376 -0.38593423 -0.23852047
0.0044781603 0 0.022451086 -0.14741376 -0.38593423 -0.23852047
0.0052961488 0 0.022635071 -0.14741376 -0.38593423 -0.23852047
0.0061153164 0 0.022819374 -0.14741376 -0.38593423 -0.23852047
0.0069356686 0 0.023003997 -0.14741376 -0.38593423 -0.23852047
0.0077572134 0 0.023188943 -0.14741376 -0.38593423 -0.23852047
0.0085799573 5.5511151e-17 0.023374211 -0.14741376 -0.38593423 -0.23852047
0.0094039058 0 0.023559803 -0.14741376 -0.38593423 -0.23852047
0.010229068 0 0.023745723 -0.14741376 -0.38593423 -0.23852047
0.011055448 5.5511151e-17 0.023931971 -0.14741376 -0.38593423 -0.23852047
0.011883054 0 0.024118546 -0.14741376 -0.38593423 -0.23852047
0.012711894 0 0.024305455 -0.14741376 -0.38593423 -0.23852047
0.013541972 0 0.024492698 -0.14741376 -0.38593423 -0.23852047
0.014373298 0 0.024680274 -0.14741376 -0.38593423 -0.23852047
0.024548458 0.022172118 0.039999999 -0.14741376 -0.38593423 -0.23852047
0.016039716 0 0.025056439 -0.14741376 -0.38593423 -0.23852047
0.016874824 0 0.025245029 -0.14741376 -0.38593423 -0.23852047
0.017711205 5.5511151e-17 0.025433963 -0.14741376 -0.38593423 -0.23852047
0.01854887 5.5511151e-17 0.025623238 -0.14741376 -0.38593423 -0.23852047
0.019387823 0 0.025812859 -0.14741376 -0.38593423 -0.23852047
0.020228071 0 0.026002828 -0.14741376 -0.38593423 -0.23852047
0.021069624 0 0.026193144 -0.14741376 -0.38593423 -0.23852047
0.021912487 5.5511151e-17 0.026383812 -0.14741376 -0.38593423 -0.23852047
0.022756668 0 0.02657483 -0.14741376 -0.38593423 -0.23852047
0.023602173 0 0.026766203 -0.14741376 -0.38593423 -0.23852047
0.032892056 0.01895966 0.039999999 -0.14741376 -0.38593423 -0.23852047
0.025297189 0 0.027150018 -0.14741376 -0.38593423 -0.23852047
0.026146716 0 0.027342463 -0.14741376 -0.38593423 -0.23852047
0.035168778 0.018081045 0.039999999 -0.14741376 -0.38593423 -0.23852047
0.027849838 0 0.027728438 -0.14741376 -0.38593423 -0.23852047
0.028703451 0 0.027921973 -0.14741376 -0.38593423 -0.23852047
0.029558441 0 0.028115874 -0.14741376 -0.38593423 -0.23852047
0.030414816 0 0.028310142 -0.14741376 -0.38593423 -0.23852047
0.038964882 0.01661415 0.039999999 -0.14741376 -0.38593423 -0.23852047
0.03213175 0 0.028699795 -0.14741376 -0.38593423 -0.23852047
0.032992326 0 0.028895181 -0.14741376 -0.38593423 -0.23852047
0.033854317 0 0.029090943 -0.14741376 -0.38593423 -0.23852047
0.034717735 5.5511151e-17 0.029287083 -0.14741376 -0.38593423 -0.23852047
0.03558258 0 0.029483601 -0.14741376 -0.38593423 -0.23852047
0.036448866 0 0.029680504 -0.14741376 -0.38593423 -0.23852047
0.037316598 0 0.029877789 -0.14741376 -0.38593423 -0.23852047
0.039999999 0.003772455 0.032700948 -0.14741376 -0.38593423 -0.23852047
0.039999999 0.0019528671 0.031633642 -0.14741376 -0.38593423 -0.23852047
0.039928563 0 0.030471966 -0.14741376 -0.38593423 -0.23852047
0.00010861611 0.062003322 0.056915216 -0.14741376 -0.38593423 -0.23852047
4.9861545e-05 0.059080351 0.055188209 -0.14741376 -0.38593423 -0.23852047
0.00025677972 0.056986462 0.054006442 -0.14741376 -0.38593423 -0.23852047
0.0005852303 0.055276901 0.053077091 -0.14741376 -0.38593423 -0.23852047
0.0009912682 0.053814512 0.052309971 -0.14741376 -0.38593423 -0.23852047
0.0014648179 0.052565176 0.051682834 -0.14741376 -0.38593423 -0.23852047
0.0019602303 0.051391434 0.05110494 -0.14741376 -0.38593423 -0.23852047
0.0025033168 0.050367068 0.050625283 -0.14741376 -0.38593423 -0.23852047
0.0030616715 0.049395677 0.050180137 -0.14741376 -0.38593423 -0.23852047
0.003652147 0.048524793 0.049801115 -0.14741376 -0.38593423 -0.23852047
0.0042530396 0.047690593 0.049445976 -0.14741376 -0.38593423 -0.23852047
0 0.033066288 0.039926179 -0.14741376 -0.38593423 -0.23852047
2.7755576e-17 0.030627158 0.03849652 -0.14741376 -0.38593423 -0.23852047
0 0.028213097 0.037081607 -0.14741376 -0.38593423 -0.23852047
2.7755576e-17 0.025823705 0.035681207 -0.14741376 -0.38593423 -0.23852047
2.7755576e-17 0.023458598 0.034295097 -0.14741376 -0.38593423 -0.23852047
0 0.021117395 0.032923043 -0.14741376 -0.38593423 -0.23852047
0 0.01879972 0.031564835 -0.14741376 -0.38593423 -0.23852047
0 0.016505215 0.030220257 -0.14741376 -0.38593423 -0.23852047
2.7755576e-17 0.014233518 0.028889095 -0.14741376 -0.38593423 -0.23852047
2.7755576e-17 0.011984283 0.027571149 -0.14741376 -0.38593423 -0.23852047
0 0.0097571649 0.026266214 -0.14741376 -0.38593423 -0.23852047
0 0.0075518289 0.024974093 -0.14741376 -0.38593423 -0.23852047
2.7755576e-17 0.0053679463 0.023694592 -0.14741376 -0.38593423 -0.23852047
0 0.0032051951 0.022427524 -0.14741376 -0.38593423 -0.23852047
0 0.0010632592 0.0211727 -0.14741376 -0.38593423 -0.23852047
0.00040529663 0 0.020640519 -0.14741376 -0.38593423 -0.23852047
0.012207668 0.028539052 0.039999999 -0.14741376 -0.38593423 -0.23852047
0.0020293349 0 0.021004068 -0.14741376 -0.38593423 -0.23852047
0.013727993 0.027957875 0.039999999 -0.14741376 -0.38593423 -0.23852047
0.0036579745 0 0.021368848 -0.14741376 -0.38593423 -0.23852047
0.0044740359 0 0.021551704 -0.14741376 -0.38593423 -0.23852047
0.0052912678 0 0.021734875 -0.14741376 -0.38593423 -0.23852047
0.0061096759 0 0.021918358 -0.14741376 -0.38593423 -0.23852047
0.0069292672 5.5511151e-17 0.02210216 -0.14741376 -0.38593423 -0.23852047
0.0077500488 0 0.022286279 -0.14741376 -0.38593423 -0.23852047
0.0085720262 0 0.022470716 -0.14741376 -0.38593423 -0.23852047
0.0093952073 0 0.022655476 -0.14741376 -0.38593423 -0.23852047
0.010219598 0 0.022840558 -0.14741376 -0.38593423 -0.23852047
0.011045206 0 0.023025963 -0.14741376 -0.38593423 -0.23852047
0.011872038 0 0.023211695 -0.14741376 -0.38593423 -0.23852047
0.0127001 0 0.023397755 -0.14741376 -0.38593423 -0.23852047
0.013529399 0 0.023584144 -0.14741376 -0.38593423 -0.23852047
0.014359943 5.5511151e-17 0.023770863 -0.14741376 -0.38593423 -0.23852047
0.015191738 0 0.023957917 -0.14741376 -0.38593423 -0.23852047
0.016024791 0 0.024145303 -0.14741376 -0.38593423 -0.23852047
0.016859109 0 0.024333026 -0.14741376 -0.38593423 -0.23852047
0.017694701 0 0.024521086 -0.14741376 -0.38593423 -0.23852047
0.028171008 0.022418162 0.039999999 -0.14741376 -0.38593423 -0.23852047
0.019369727 0 0.024898229 -0.14741376 -0.38593423 -0.23852047
0.020209176 0 0.025087312 -0.14741376 -0.38593423 -0.23852047
0.021049928 0 0.025276741 -0.14741376 -0.38593423 -0.23852047
0.021891987 5.5511151e-17 0.025466517 -0.14741376 -0.38593423 -0.23852047
0.022735361 0 0.025656639 -0.14741376 -0.38593423 -0.23852047
0.023580058 0 0.025847113 -0.14741376 -0.38593423 -0.23852047
0.033494927 0.020367667 0.039999999 -0.14741376 -0.38593423 -0.23852047
0.025273448 0 0.026229115 -0.14741376 -0.38593423 -0.23852047
0.026122157 0 0.026420649 -0.14741376 -0.38593423 -0.23852047
0.026972217 0 0.026612539 -0.14741376 -0.38593423 -0.23852047
0.027823638 5.5511151e-17 0.026804788 -0.14741376 -0.38593423 -0.23852047
0.028676426 0 0.026997399 -0.14741376 -0.38593423 -0.23852047
0.038060881 0.018605465 0.039999999 -0.14741376 -0.38593423 -0.23852047
0.030386133 5.5511151e-17 0.027383709 -0.14741376 -0.38593423 -0.23852047
0.031243067 0 0.027577411 -0.14741376 -0.38593423 -0.23852047
0.0321014 5.5511151e-17 0.027771482 -0.14741376 -0.38593423 -0.23852047
0.032961138 0 0.027965924 -0.14741376 -0.38593423 -0.23852047
0.033822287 5.5511151e-17 0.028160736 -0.14741376 -0.38593423 -0.23852047
0.039999999 0.011264745 0.036145579 -0.14741376 -0.38593423 -0.23852047
0.035548858 0 0.028551485 -0.14741376 -0.38593423 -0.23852047
0.036414295 0 0.028747426 -0.14741376 -0.38593423 -0.23852047
0.037281178 0 0.028943745 -0.14741376 -0.38593423 -0.23852047
0.03814951 0 0.029140444 -0.14741376 -0.38593423 -0.23852047
0.039019302 0 0.029337529 -0.14741376 -0.38593423 -0.23852047
0.039890565 0 0.029534997 -0.14741376 -0.38593423 -0.23852047
0.00010443033 0.061926119 0.055849839 -0.14741376 -0.38593423 -0.23852047
5.2716088e-05 0.059027702 0.054144755 -0.14741376 -0.38593423 -0.23852047
0.00026317665 0.056947444 0.052975871 -0.14741376 -0.38593423 -0.23852047
0.00059362326 0.055246674 0.052055359 -0.14741376 -0.38593423 -0.23852047
0.00099924533 0.053785779 0.051291715 -0.14741376 -0.38593423 -0.23852047
0.001473902 0.052542374 0.050670501 -0.14741376 -0.38593423 -0.23852047
0.0019699505 0.051373102 0.050097395 -0.14741376 -0.38593423 -0.23852047
0.0025125074 0.050349735 0.049619902 -0.14741376 -0.38593423 -0.23852047
0.0030711528 0.049381692 0.049178354 -0.14741376 -0.38593423 -0.23852047
0.0036610628 0.048511643 0.048801042 -0.14741376 -0.38593423 -0.23852047
0.0042620092 0.047680032 0.048448686 -0.14741376 -0.38593423 -0.23852047
0 0.03303371 0.038946901 -0.14741376 -0.38593423 -0.23852047
0 0.030597141 0.037523698 -0.14741376 -0.38593423 -0.23852047
0 0.028185587 0.036115158 -0.14741376 -0.38593423 -0.23852047
0 0.025798654 0.03472105 -0.14741376 -0.38593423 -0.23852047
2.7755576e-17 0.023435956 0.033341147 -0.14741376 -0.38593423 -0.23852047
2.7755576e-17 0.021097114 0.031975228 -0.14741376 -0.38593423 -0.23852047
0 0.018781759 0.030623073 -0.14741376 -0.38593423 -0.23852047
0 0.016489523 0.029284474 -0.14741376 -0.38593423 -0.23852047
0 0.014220054 0.027959218 -0.14741376 -0.38593423 -0.23852047
0 0.011973002 0.026647102 -0.14741376 -0.38593423 -0.23852047
2.7755576e-17 0.0097480249 0.025347928 -0.14741376 -0.38593423 -0.23852047
0 0.0075447895 0.024061495 -0.14741376 -0.38593423 -0.23852047
0 0.005362967 0.022787616 -0.14741376 -0.38593423 -0.23852047
0 0.0032022365 0.0215261 -0.14741376 -0.38593423 -0.23852047
2.7755576e-17 0.0010622824 0.020276763 -0.14741376 -0.38593423 -0.23852047
0.00040492506 0 0.019746903 -0.14741376 -0.38593423 -0.23852047
0.0012156275 0 0.019927729 -0.14741376 -0.38593423 -0.23852047
0.0020274718 0 0.020108858 -0.14741376 -0.38593423 -0.23852047
0.0028404642 0 0.020290293 -0.14741376 -0.38593423 -0.23852047
0.0036546113 0 0.020472033 -0.14741376 -0.38593423 -0.23852047
0.0044699199 0 0.02065408 -0.14741376 -0.38593423 -0.23852047
0.005286396 0 0.020836439 -0.14741376 -0.38593423 -0.23852047
0.0061040465 5.5511151e-17 0.021019107 -0.14741376 -0.38593423 -0.23852047
0.0069228783 0 0.021202087 -0.14741376 -0.38593423 -0.23852047
0.0077428976 0 0.021385383 -0.14741376 -0.38593423 -0.23852047
0.0085641108 0 0.021568993 -0.14741376 -0.38593423 -0.23852047
0.0093865255 0 0.021752922 -0.14741376 -0.38593423 -0.23852047
0.010210148 5.5511151e-17 0.021937169 -0.14741376 -0.38593423 -0.23852047
0.011034985 0 0.022121737 -0.14741376 -0.38593423 -0.23852047
0.022665553 0.026180096 0.039999999 -0.14741376 -0.38593423 -0.23852047
0.012688329 0 0.022491839 -0.14741376 -0.38593423 -0.23852047
0.013516851 0 0.022677379 -0.14741376 -0.38593423 -0.23852047
0.014346614 5.5511151e-17 0.022863245 -0.14741376 -0.38593423 -0.23852047
0.015177627 0 0.02304944 -0.14741376 -0.38593423 -0.23852047
0.016009895 0 0.023235966 -0.14741376 -0.38593423 -0.23852047
0.016843425 0 0.023422824 -0.14741376 -0.38593423 -0.23852047
0.017678225 0 0.023610014 -0.14741376 -0.38593423 -0.23852047
0.018514303 0 0.023797542 -0.14741376 -0.38593423 -0.23852047
0.019351665 0 0.023985406 -0.14741376 -0.38593423 -0.23852047
0.030287871 0.023251172 0.039999999 -0.14741376 -0.38593423 -0.23852047
0.02103027 0 0.024362154 -0.14741376 -0.38593423 -0.23852047
0.021871526 5.5511151e-17 0.02455104 -0.14741376 -0.38593423 -0.23852047
0.022714095 0 0.024740271 -0.14741376 -0.38593423 -0.23852047
0.023557985 0 0.024929848 -0.14741376 -0.38593423 -0.23852047
0.024403201 0 0.025119772 -0.14741376 -0.38593423 -0.23852047
0.025249753 0 0.025310045 -0.14741376 -0.38593423 -0.23852047
0.026097648 5.5511151e-17 0.02550067 -0.14741376 -0.38593423 -0.23852047
0.026946889 5.5511151e-17 0.025691647 -0.14741376 -0.38593423 -0.23852047
0.02779749 0 0.02588298 -0.14741376 -0.38593423 -0.23852047
0.037915453 0.020311262 0.039999999 -0.14741376 -0.38593423 -0.23852047
0.038678631 0.020016616 0.039999999 -0.14741376 -0.38593423 -0.23852047
0.030357508 0 0.026459124 -0.14741376 -0.38593423 -0.23852047
0.031213611 0 0.026651895 -0.14741376 -0.38593423 -0.23852047
0.03207111 0 0.026845029 -0.14741376 -0.38593423 -0.23852047
0.032930009 0 0.027038528 -0.14741376 -0.38593423 -0.23852047
0.03379032 5.5511151e-17 0.027232395 -0.14741376 -0.38593423 -0.23852047
0.034652051 0 0.027426632 -0.14741376 -0.38593423 -0.23852047
0.035515204 0 0.027621239 -0.14741376 -0.38593423 -0.23852047
0.036379796 0 0.027816221 -0.14741376 -0.38593423 -0.23852047
0.037245825 0 0.028011577 -0.14741376 -0.38593423 -0.23852047
0.038113303 5.5511151e-17 0.028207311 -0.14741376 -0.38593423 -0.23852047
0.038982242 5.5511151e-17 0.028403424 -0.14741376 -0.38593423 -0.23852047
0.039852642 0 0.028599918 -0.14741376 -0.38593423 -0.23852047
0.00010025396 0.061849087 0.054786865 -0.14741376 -0.38593423 -0.23852047
5.5564509e-05 0.058975164 0.053103544 -0.14741376 -0.38593423 -0.23852047
0.00026956026 0.056908507 0.051947448 -0.14741376 -0.38593423 -0.23852047
0.000601999 0.055216506 0.051035717 -0.14741376 -0.38593423 -0.23852047
0.0010072062 0.053757109 0.050275542 -0.14741376 -0.38593423 -0.23852047
0.0014829678 0.052519619 0.04966021 -0.14741376 -0.38593423 -0.23852047
0.0019796514 0.051354803 0.049091864 -0.14741376 -0.38593423 -0.23852047
0.0025216795 0.050332434 0.048616529 -0.14741376 -0.38593423 -0.23852047
0.0030806158 0.049367737 0.048178557 -0.14741376 -0.38593423 -0.23852047
0.0036699609 0.048498519 0.047802944 -0.14741376 -0.38593423 -0.23852047
2.7755576e-17 0.035460588 0.039401244 -0.14741376 -0.38593423 -0.23852047
0 0.033001203 0.037969656 -0.14741376 -0.38593423 -0.23852047
0 0.030567184 0.036552884 -0.14741376 -0.38593423 -0.23852047
2.7755576e-17 0.028158134 0.035150692 -0.14741376 -0.38593423 -0.23852047
2.7755576e-17 0.025773654 0.033762854 -0.14741376 -0.38593423 -0.23852047
2.7755576e-17 0.023413362 0.032389138 -0.14741376 -0.38593423 -0.23852047
0 0.021076877 0.031029331 -0.14741376 -0.38593423 -0.23852047
2.7755576e-17 0.018763833 0.029683212 -0.14741376 -0.38593423 -0.23852047
2.7755576e-17 0.016473863 0.028350569 -0.14741376 -0.38593423 -0.23852047
0 0.014206616 0.027031198 -0.14741376 -0.38593423 -0.23852047
0 0.011961743 0.025724893 -0.14741376 -0.38593423 -0.23852047
0 0.0097389035 0.02443146 -0.14741376 -0.38593423 -0.23852047
2.7755576e-17 0.0075377645 0.023150697 -0.14741376 -0.38593423 -0.23852047
2.7755576e-17 0.0053579975 0.021882419 -0.14741376 -0.38593423 -0.23852047
0 0.0031992835 0.020626437 -0.14741376 -0.38593423 -0.23852047
0 0.0010613075 0.019382566 -0.14741376 -0.38593423 -0.23852047
0.00040455422 0 0.01885502 -0.14741376 -0.38593423 -0.23852047
0.0012145133 0 0.019035056 -0.14741376 -0.38593423 -0.23852047
0.0020256122 0 0.01921539 -0.14741376 -0.38593423 -0.23852047
0.0028378572 0 0.019396026 -0.14741376 -0.38593423 -0.23852047
0.0036512548 0 0.019576963 -0.14741376 -0.38593423 -0.23852047
0.0044658114 5.5511151e-17 0.019758204 -0.14741376 -0.38593423 -0.23852047
0.005281534 0 0.019939752 -0.14741376 -0.38593423 -0.23852047
0.0060984283 0 0.020121608 -0.14741376 -0.38593423 -0.23852047
0.0069165016 0 0.020303771 -0.14741376 -0.38593423 -0.23852047
0.0077357604 5.5511151e-17 0.020486245 -0.14741376 -0.38593423 -0.23852047
0.020188821 0.028783889 0.039999999 -0.14741376 -0.38593423 -0.23852047
0.0093778614 5.5511151e-17 0.020852132 -0.14741376 -0.38593423 -0.23852047
0.010200717 0 0.021035546 -0.14741376 -0.38593423 -0.23852047
0.011024783 0 0.02121928 -0.14741376 -0.38593423 -0.23852047
0.01185007 5.5511151e-17 0.021403329 -0.14741376 -0.38593423 -0.23852047
0.012676583 0 0.0215877 -0.14741376 -0.38593423 -0.23852047
0.013504327 0 0.021772392 -0.14741376 -0.38593423 -0.23852047
0.014333312 0 0.021957407 -0.14741376 -0.38593423 -0.23852047
0.015163543 0 0.022142747 -0.14741376 -0.38593423 -0.23852047
0.015995027 5.5511151e-17 0.022328416 -0.14741376 -0.38593423 -0.23852047
0.016827773 0 0.02251441 -0.14741376 -0.38593423 -0.23852047
0.028593842 0.02555833 0.039999999 -0.14741376 -0.38593423 -0.23852047
0.018497072 0 0.022887394 -0.14741376 -0.38593423 -0.23852047
