# .PCD v0.7 - Point Cloud Data file format
VERSION 0.7
FIELDS x y z vp_x vp_y vp_z
SIZE 4 4 4 4 4 4
TYPE F F F F F F
COUNT 1 1 1 1 1 1
WIDTH 742
HEIGHT 1
VIEWPOINT 0 0 0 1 0 0 0
POINTS 742
DATA ascii
5.5511151e-17 0.024588849 0.024005547 -0.38593423 0.23852047 -0.14741376
0 0.023748757 0.02417537 -0.38593423 0.23852047 -0.14741376
0 0.022907093 0.02434558 -0.38593423 0.23852047 -0.14741376
0 0.022063851 0.02451618 -0.38593423 0.23852047 -0.14741376
0 0.021219021 0.024687171 -0.38593423 0.23852047 -0.14741376
0.033920724 0.0011990329 0.039999999 -0.38593423 0.23852047 -0.14741376
0 0.019524565 0.025030332 -0.38593423 0.23852047 -0.14741376
0 0.018674921 0.025202505 -0.38593423 0.23852047 -0.14741376
0 0.017823653 0.025375079 -0.38593423 0.23852047 -0.14741376
0 0.016116217 0.025721429 -0.38593423 0.23852047 -0.14741376
0.026378909 0 0.037741017 -0.38593423 0.23852047 -0.14741376
5.5511151e-17 0.014402181 0.026069397 -0.38593423 0.23852047 -0.14741376
0 0.013542667 0.026243994 -0.38593423 0.23852047 -0.14741376
0.02167126 2.7755576e-17 0.036180187 -0.38593423 0.23852047 -0.14741376
0 0.011818599 0.026594421 -0.38593423 0.23852047 -0.14741376
0 0.010954028 0.026770256 -0.38593423 0.23852047 -0.14741376
0 0.010087752 0.026946509 -0.38593423 0.23852047 -0.14741376
0 0.0092197619 0.027123181 -0.38593423 0.23852047 -0.14741376
5.5511151e-17 0.0083500482 0.027300274 -0.38593423 0.23852047 -0.14741376
5.5511151e-17 0.0074786027 0.02747779 -0.38593423 0.23852047 -0.14741376
5.5511151e-17 0.0066054151 0.027655732 -0.38593423 0.23852047 -0.14741376
0 0.0057304753 0.027834103 -0.38593423 0.23852047 -0.14741376
5.5511151e-17 0.0048537748 0.028012902 -0.38593423 0.23852047 -0.14741376
5.5511151e-17 0.0039753029 0.028192135 -0.38593423 0.23852047 -0.14741376
0 0.0030950501 0.028371802 -0.38593423 0.23852047 -0.14741376
0 0.0022130068 0.028551904 -0.38593423 0.23852047 -0.14741376
0 0.0013291631 0.028732445 -0.38593423 0.23852047 -0.14741376
5.5511151e-17 0.00044350902 0.028913429 -0.38593423 0.23852047 -0.14741376
0.039388631 0.079999998 0.025367089 -0.38593423 0.23852047 -0.14741376
0.037245128 0.079999998 0.024651129 -0.38593423 0.23852047 -0.14741376
0.035120364 0.079999998 0.023941495 -0.38593423 0.23852047 -0.14741376
0.033014081 0.079999998 0.023238102 -0.38593423 0.23852047 -0.14741376
0.030926028 0.079999998 0.022540865 -0.38593423 0.23852047 -0.14741376
0.028855959 0.079999998 0.021849701 -0.38593423 0.23852047 -0.14741376
0.026803633 0.079999998 0.021164529 -0.38593423 0.23852047 -0.14741376
0.024768813 0.079999998 0.020485267 -0.38593423 0.23852047 -0.14741376
0.022751266 0.079999998 0.019811839 -0.38593423 0.23852047 -0.14741376
0.020750763 0.079999998 0.019144166 -0.38593423 0.23852047 -0.14741376
0.018767079 0.079999998 0.018482175 -0.38593423 0.23852047 -0.14741376
0.016799994 0.079999998 0.017825786 -0.38593423 0.23852047 -0.14741376
0.014849289 0.079999998 0.017174929 -0.38593423 0.23852047 -0.14741376
0.012914753 0.079999998 0.016529534 -0.38593423 0.23852047 -0.14741376
0.010996175 0.079999998 0.015889527 -0.38593423 0.23852047 -0.14741376
0.0090933489 0.079999998 0.015254839 -0.38593423 0.23852047 -0.14741376
0.0072060726 0.079999998 0.014625403 -0.38593423 0.23852047 -0.14741376
0.0053341468 0.079999998 0.014001151 -0.38593423 0.23852047 -0.14741376
0.0034773757 0.079999998 0.013382017 -0.38593423 0.23852047 -0.14741376
0.0016355674 0.079999998 0.012767935 -0.38593423 0.23852047 -0.14741376
0 0.079921313 0.012238049 -0.38593423 0.23852047 -0.14741376
0 0.079172604 0.012384409 -0.38593423 0.23852047 -0.14741376
0 0.07842283 0.012531042 -0.38593423 0.23852047 -0.14741376
0 0.077671975 0.012677949 -0.38593423 0.23852047 -0.14741376
0 0.076920047 0.01282513 -0.38593423 0.23852047 -0.14741376
0 0.076167025 0.012972589 -0.38593423 0.23852047 -0.14741376
0 0.075412922 0.013120324 -0.38593423 0.23852047 -0.14741376
0 0.074657716 0.013268339 -0.38593423 0.23852047 -0.14741376
0 0.073901407 0.013416634 -0.38593423 0.23852047 -0.14741376
0 0.073143989 0.013565211 -0.38593423 0.23852047 -0.14741376
0 0.072385453 0.01371407 -0.38593423 0.23852047 -0.14741376
0 0.071625791 0.013863214 -0.38593423 0.23852047 -0.14741376
0 0.070865005 0.014012644 -0.38593423 0.23852047 -0.14741376
0 0.070103079 0.014162361 -0.38593423 0.23852047 -0.14741376
0 0.06934002 0.014312367 -0.38593423 0.23852047 -0.14741376
0 0.068575807 0.014462662 -0.38593423 0.23852047 -0.14741376
0 0.067810446 0.014613248 -0.38593423 0.23852047 -0.14741376
0 0.067043915 0.014764128 -0.38593423 0.23852047 -0.14741376
0 0.066276222 0.014915302 -0.38593423 0.23852047 -0.14741376
0 0.06550736 0.015066771 -0.38593423 0.23852047 -0.14741376
0 0.064737312 0.015218537 -0.38593423 0.23852047 -0.14741376
0 0.063966081 0.015370602 -0.38593423 0.23852047 -0.14741376
0 0.063193649 0.015522967 -0.38593423 0.23852047 -0.14741376
0 0.062420025 0.015675632 -0.38593423 0.23852047 -0.14741376
0 0.061645195 0.015828602 -0.38593423 0.23852047 -0.14741376
0 0.06086915 0.015981875 -0.38593423 0.23852047 -0.14741376
0 0.060091883 0.016135454 -0.38593423 0.23852047 -0.14741376
0 0.05931339 0.01628934 -0.38593423 0.23852047 -0.14741376
0 0.058533669 0.016443534 -0.38593423 0.23852047 -0.14741376
0 0.057752702 0.01659804 -0.38593423 0.23852047 -0.14741376
0 0.056970492 0.016752856 -0.38593423 0.23852047 -0.14741376
0 0.056187026 0.016907986 -0.38593423 0.23852047 -0.14741376
0 0.055402298 0.017063431 -0.38593423 0.23852047 -0.14741376
0 0.054616306 0.017219193 -0.38593423 0.23852047 -0.14741376
0 0.053829037 0.017375272 -0.38593423 0.23852047 -0.14741376
0 0.053040486 0.017531671 -0.38593423 0.23852047 -0.14741376
5.5511151e-17 0.05225065 0.01768839 -0.38593423 0.23852047 -0.14741376
0 0.051459514 0.017845431 -0.38593423 0.23852047 -0.14741376
5.5511151e-17 0.050667077 0.018002797 -0.38593423 0.23852047 -0.14741376
0 0.04987333 0.01816049 -0.38593423 0.23852047 -0.14741376
0 0.049078263 0.018318508 -0.38593423 0.23852047 -0.14741376
0 0.048281875 0.018476857 -0.38593423 0.23852047 -0.14741376
0 0.047484152 0.018635536 -0.38593423 0.23852047 -0.14741376
0 0.046685092 0.018794546 -0.38593423 0.23852047 -0.14741376
0 0.045884687 0.01895389 -0.38593423 0.23852047 -0.14741376
0 0.045082927 0.01911357 -0.38593423 0.23852047 -0.14741376
5.5511151e-17 0.044279806 0.019273587 -0.38593423 0.23852047 -0.14741376
0 0.043475315 0.019433942 -0.38593423 0.23852047 -0.14741376
0 0.042669449 0.019594638 -0.38593423 0.23852047 -0.14741376
0 0.041862201 0.019755676 -0.38593423 0.23852047 -0.14741376
0.039999999 0.020587178 0.037259996 -0.38593423 0.23852047 -0.14741376
5.5511151e-17 0.040243518 0.020078786 -0.38593423 0.23852047 -0.14741376
0.039999999 0.018797632 0.037617356 -0.38593423 0.23852047 -0.14741376
0 0.038619209 0.020403283 -0.38593423 0.23852047 -0.14741376
0 0.037804928 0.020566056 -0.38593423 0.23852047 -0.14741376
0 0.036989212 0.02072918 -0.38593423 0.23852047 -0.14741376
0 0.036172062 0.020892661 -0.38593423 0.23852047 -0.14741376
0 0.035353467 0.021056496 -0.38593423 0.23852047 -0.14741376
0 0.034533419 0.02122069 -0.38593423 0.23852047 -0.14741376
0.039999999 0.012484605 0.038880348 -0.38593423 0.23852047 -0.14741376
0 0.032888927 0.021550154 -0.38593423 0.23852047 -0.14741376
0.039999999 0.01066642 0.03924476 -0.38593423 0.23852047 -0.14741376
0 0.031238526 0.021881072 -0.38593423 0.23852047 -0.14741376
0 0.030411091 0.02204708 -0.38593423 0.23852047 -0.14741376
0.039999999 0.0079268226 0.0397944 -0.38593423 0.23852047 -0.14741376
0.039999999 0.007010303 0.03997843 -0.38593423 0.23852047 -0.14741376
0.039630171 0.0062939199 0.039999999 -0.38593423 0.23852047 -0.14741376
5.5511151e-17 0.027086243 0.02271481 -0.38593423 0.23852047 -0.14741376
0 0.026251215 0.022882678 -0.38593423 0.23852047 -0.14741376
0 0.025414646 0.023050923 -0.38593423 0.23852047 -0.14741376
0 0.024576522 0.023219546 -0.38593423 0.23852047 -0.14741376
0 0.023736838 0.023388552 -0.38593423 0.23852047 -0.14741376
0 0.022895588 0.02355794 -0.38593423 0.23852047 -0.14741376
0 0.022052757 0.023727715 -0.38593423 0.23852047 -0.14741376
0 0.021208344 0.023897875 -0.38593423 0.23852047 -0.14741376
0 0.020362334 0.024068424 -0.38593423 0.23852047 -0.14741376
0 0.019514721 0.024239367 -0.38593423 0.23852047 -0.14741376
5.5511151e-17 0.018665496 0.0244107 -0.38593423 0.23852047 -0.14741376
5.5511151e-17 0.017814649 0.024582429 -0.38593423 0.23852047 -0.14741376
0 0.016962174 0.024754554 -0.38593423 0.23852047 -0.14741376
0 0.016108058 0.02492708 -0.38593423 0.23852047 -0.14741376
0.026364632 2.7755576e-17 0.036885075 -0.38593423 0.23852047 -0.14741376
0 0.014394877 0.025273332 -0.38593423 0.23852047 -0.14741376
0.023219028 2.7755576e-17 0.035846923 -0.38593423 0.23852047 -0.14741376
0 0.012675033 0.025621206 -0.38593423 0.23852047 -0.14741376
0 0.011812588 0.025795756 -0.38593423 0.23852047 -0.14741376
0 0.010948451 0.025970716 -0.38593423 0.23852047 -0.14741376
5.5511151e-17 0.010082611 0.02614609 -0.38593423 0.23852047 -0.14741376
0 0.0092150588 0.026321879 -0.38593423 0.23852047 -0.14741376
0 0.0083457846 0.026498085 -0.38593423 0.23852047 -0.14741376
0 0.0074747805 0.026674712 -0.38593423 0.23852047 -0.14741376
0 0.0066020354 0.026851758 -0.38593423 0.23852047 -0.14741376
0 0.0057275407 0.027029231 -0.38593423 0.23852047 -0.14741376
0 0.0048512863 0.027207129 -0.38593423 0.23852047 -0.14741376
0 0.0039732629 0.027385453 -0.38593423 0.23852047 -0.14741376
0 0.0030934601 0.027564209 -0.38593423 0.23852047 -0.14741376
0 0.0022118688 0.027743397 -0.38593423 0.23852047 -0.14741376
5.5511151e-17 0.0013284789 0.027923021 -0.38593423 0.23852047 -0.14741376
0 0.0004432805 0.028103082 -0.38593423 0.23852047 -0.14741376
0.039258011 0.079999998 0.024515437 -0.38593423 0.23852047 -0.14741376
0.037116732 0.079999998 0.023803763 -0.38593423 0.23852047 -0.14741376
0.034994155 0.079999998 0.023098372 -0.38593423 0.23852047 -0.14741376
0.032890029 0.079999998 0.022399176 -0.38593423 0.23852047 -0.14741376
0.0308041 0.079999998 0.021706093 -0.38593423 0.23852047 -0.14741376
0.028736122 0.079999998 0.021019042 -0.38593423 0.23852047 -0.14741376
0.026685854 0.079999998 0.020337941 -0.38593423 0.23852047 -0.14741376
0.024653064 0.079999998 0.01966271 -0.38593423 0.23852047 -0.14741376
0.022637516 0.079999998 0.01899327 -0.38593423 0.23852047 -0.14741376
0.020638982 0.079999998 0.018329546 -0.38593423 0.23852047 -0.14741376
0.018657237 0.079999998 0.017671462 -0.38593423 0.23852047 -0.14741376
0.016692063 0.079999998 0.017018946 -0.38593423 0.23852047 -0.14741376
0.01474324 0.079999998 0.016371923 -0.38593423 0.23852047 -0.14741376
0.012810558 0.079999998 0.015730321 -0.38593423 0.23852047 -0.14741376
0.010893808 0.079999998 0.015094072 -0.38593423 0.23852047 -0.14741376
0.0089927828 0.079999998 0.014463105 -0.38593423 0.23852047 -0.14741376
0.0071072811 0.079999998 0.013837354 -0.38593423 0.23852047 -0.14741376
0.0052371044 0.079999998 0.013216752 -0.38593423 0.23852047 -0.14741376
0.0033820572 0.079999998 0.012601231 -0.38593423 0.23852047 -0.14741376
0.0015419477 0.079999998 0.01199073 -0.38593423 0.23852047 -0.14741376
0 0.079883501 0.011501883 -0.38593423 0.23852047 -0.14741376
0 0.07913512 0.01164765 -0.38593423 0.23852047 -0.14741376
0 0.078385673 0.011793686 -0.38593423 0.23852047 -0.14741376
0 0.077635147 0.011939993 -0.38593423 0.23852047 -0.14741376
0 0.076883547 0.012086572 -0.38593423 0.23852047 -0.14741376
0 0.07613086 0.012233425 -0.38593423 0.23852047 -0.14741376
0 0.075377084 0.012380552 -0.38593423 0.23852047 -0.14741376
0 0.074622214 0.012527957 -0.38593423 0.23852047 -0.14741376
0 0.073866241 0.012675637 -0.38593423 0.23852047 -0.14741376
0 0.07310915 0.012823598 -0.38593423 0.23852047 -0.14741376
0 0.072350956 0.012971837 -0.38593423 0.23852047 -0.14741376
0 0.071591631 0.013120359 -0.38593423 0.23852047 -0.14741376
0 0.07083118 0.013269164 -0.38593423 0.23852047 -0.14741376
0 0.070069596 0.013418253 -0.38593423 0.23852047 -0.14741376
0 0.069306873 0.013567626 -0.38593423 0.23852047 -0.14741376
0 0.068543002 0.013717288 -0.38593423 0.23852047 -0.14741376
0 0.067777984 0.013867238 -0.38593423 0.23852047 -0.14741376
0 0.067011796 0.014017478 -0.38593423 0.23852047 -0.14741376
0 0.066244446 0.014168008 -0.38593423 0.23852047 -0.14741376
0 0.065475926 0.014318832 -0.38593423 0.23852047 -0.14741376
0 0.064706221 0.01446995 -0.38593423 0.23852047 -0.14741376
0 0.063935339 0.014621362 -0.38593423 0.23852047 -0.14741376
0 0.063163258 0.014773072 -0.38593423 0.23852047 -0.14741376
0 0.062389985 0.01492508 -0.38593423 0.23852047 -0.14741376
0 0.061615501 0.015077388 -0.38593423 0.23852047 -0.14741376
0 0.060839806 0.015229997 -0.38593423 0.23852047 -0.14741376
0 0.060062893 0.015382909 -0.38593423 0.23852047 -0.14741376
0 0.059284754 0.015536126 -0.38593423 0.23852047 -0.14741376
0 0.058505382 0.015689647 -0.38593423 0.23852047 -0.14741376
0 0.057724774 0.015843477 -0.38593423 0.23852047 -0.14741376
0 0.056942917 0.015997615 -0.38593423 0.23852047 -0.14741376
0 0.056159809 0.016152062 -0.38593423 0.23852047 -0.14741376
0 0.055375442 0.016306821 -0.38593423 0.23852047 -0.14741376
0 0.054589808 0.016461894 -0.38593423 0.23852047 -0.14741376
0 0.0538029 0.016617283 -0.38593423 0.23852047 -0.14741376
0 0.053014714 0.016772985 -0.38593423 0.23852047 -0.14741376
0 0.052225236 0.016929008 -0.38593423 0.23852047 -0.14741376
5.5511151e-17 0.051434465 0.017085349 -0.38593423 0.23852047 -0.14741376
0.039999999 0.031169847 0.034307692 -0.38593423 0.23852047 -0.14741376
0 0.049849015 0.017398994 -0.38593423 0.23852047 -0.14741376
0 0.049054317 0.017556304 -0.38593423 0.23852047 -0.14741376
0 0.048258297 0.017713938 -0.38593423 0.23852047 -0.14741376
0 0.047460943 0.0178719 -0.38593423 0.23852047 -0.14741376
0 0.046662256 0.018030189 -0.38593423 0.23852047 -0.14741376
0 0.045862224 0.01818881 -0.38593423 0.23852047 -0.14741376
0 0.045060836 0.018347764 -0.38593423 0.23852047 -0.14741376
0 0.044258092 0.01850705 -0.38593423 0.23852047 -0.14741376
0.039999999 0.023236386 0.035880014 -0.38593423 0.23852047 -0.14741376
0 0.042648487 0.018826632 -0.38593423 0.23852047 -0.14741376
0 0.041841615 0.018986929 -0.38593423 0.23852047 -0.14741376
0 0.041033354 0.019147567 -0.38593423 0.23852047 -0.14741376
0.039999999 0.019671306 0.036588416 -0.38593423 0.23852047 -0.14741376
0 0.039412633 0.019469872 -0.38593423 0.23852047 -0.14741376
5.5511151e-17 0.038600154 0.019631542 -0.38593423 0.23852047 -0.14741376
0.039999999 0.01698124 0.037123695 -0.38593423 0.23852047 -0.14741376
0 0.036970932 0.019955924 -0.38593423 0.23852047 -0.14741376
0 0.03615417 0.020118641 -0.38593423 0.23852047 -0.14741376
0.039999999 0.014276985 0.037662439 -0.38593423 0.23852047 -0.14741376
0 0.034516305 0.020445131 -0.38593423 0.23852047 -0.14741376
0 0.033695184 0.020608909 -0.38593423 0.23852047 -0.14741376
0.039999999 0.011558307 0.0382047 -0.38593423 0.23852047 -0.14741376
0 0.032048535 0.020937541 -0.38593423 0.23852047 -0.14741376
0 0.03122299 0.021102397 -0.38593423 0.23852047 -0.14741376
0 0.030395951 0.021267617 -0.38593423 0.23852047 -0.14741376
5.5511151e-17 0.029567411 0.021433201 -0.38593423 0.23852047 -0.14741376
0.039999999 0.0069944779 0.039116427 -0.38593423 0.23852047 -0.14741376
0 0.027905799 0.021765471 -0.38593423 0.23852047 -0.14741376
0 0.027072711 0.02193216 -0.38593423 0.23852047 -0.14741376
0 0.026238088 0.022099221 -0.38593423 0.23852047 -0.14741376
0 0.025401924 0.022266656 -0.38593423 0.23852047 -0.14741376
0 0.024564208 0.022434467 -0.38593423 0.23852047 -0.14741376
0 0.023724936 0.022602657 -0.38593423 0.23852047 -0.14741376
0 0.022884095 0.022771226 -0.38593423 0.23852047 -0.14741376
5.5511151e-17 0.022041678 0.022940176 -0.38593423 0.23852047 -0.14741376
0 0.021197679 0.023109509 -0.38593423 0.23852047 -0.14741376
0 0.020352084 0.023279227 -0.38593423 0.23852047 -0.14741376
0 0.019504888 0.023449333 -0.38593423 0.23852047 -0.14741376
5.5511151e-17 0.018656082 0.023619829 -0.38593423 0.23852047 -0.14741376
0 0.017805656 0.023790715 -0.38593423 0.23852047 -0.14741376
0 0.016953602 0.023961995 -0.38593423 0.23852047 -0.14741376
0 0.016099911 0.024133669 -0.38593423 0.23852047 -0.14741376
5.5511151e-17 0.015244575 0.02430574 -0.38593423 0.23852047 -0.14741376
0 0.014387582 0.024478212 -0.38593423 0.23852047 -0.14741376
0 0.013528926 0.024651084 -0.38593423 0.23852047 -0.14741376
0 0.012668597 0.024824359 -0.38593423 0.23852047 -0.14741376
0 0.011806585 0.024998039 -0.38593423 0.23852047 -0.14741376
0 0.010942881 0.025172126 -0.38593423 0.23852047 -0.14741376
0 0.010077477 0.025346624 -0.38593423 0.23852047 -0.14741376
0 0.0092103612 0.025521532 -0.38593423 0.23852047 -0.14741376
0 0.0083415266 0.025696853 -0.38593423 0.23852047 -0.14741376
5.5511151e-17 0.0074709626 0.02587259 -0.38593423 0.23852047 -0.14741376
5.5511151e-17 0.0065986598 0.026048746 -0.38593423 0.23852047 -0.14741376
0 0.0057246094 0.026225321 -0.38593423 0.23852047 -0.14741376
0 0.0048488011 0.026402317 -0.38593423 0.23852047 -0.14741376
0 0.0039712251 0.026579738 -0.38593423 0.23852047 -0.14741376
0 0.0030918722 0.026757585 -0.38593423 0.23852047 -0.14741376
0 0.0022107321 0.026935861 -0.38593423 0.23852047 -0.14741376
5.5511151e-17 0.0013277956 0.027114568 -0.38593423 0.23852047 -0.14741376
0 0.00044305224 0.027293706 -0.38593423 0.23852047 -0.14741376
0.039127611 0.079999998 0.023665246 -0.38593423 0.23852047 -0.14741376
0.036988553 0.079999998 0.022957843 -0.38593423 0.23852047 -0.14741376
0.034868162 0.079999998 0.02225668 -0.38593423 0.23852047 -0.14741376
0.039999999 0.077261269 0.024481028 -0.38593423 0.23852047 -0.14741376
0.030682376 0.079999998 0.020872731 -0.38593423 0.23852047 -0.14741376
0.028616486 0.079999998 0.020189779 -0.38593423 0.23852047 -0.14741376
0.026568275 0.079999998 0.019512735 -0.38593423 0.23852047 -0.14741376
0.024537509 0.079999998 0.018841522 -0.38593423 0.23852047 -0.14741376
0.022523955 0.079999998 0.01817606 -0.38593423 0.23852047 -0.14741376
0.020527385 0.079999998 0.017516272 -0.38593423 0.23852047 -0.14741376
0.018547576 0.079999998 0.016862087 -0.38593423 0.23852047 -0.14741376
0.016584307 0.079999998 0.01621343 -0.38593423 0.23852047 -0.14741376
0.014637364 0.079999998 0.015570228 -0.38593423 0.23852047 -0.14741376
0.012706534 0.079999998 0.014932411 -0.38593423 0.23852047 -0.14741376
0.010791607 0.079999998 0.014299909 -0.38593423 0.23852047 -0.14741376
0.0088923797 0.079999998 0.013672652 -0.38593423 0.23852047 -0.14741376
0.0070086489 0.079999998 0.013050575 -0.38593423 0.23852047 -0.14741376
0.0051402175 0.079999998 0.012433611 -0.38593423 0.23852047 -0.14741376
0.0032868909 0.079999998 0.011821695 -0.38593423 0.23852047 -0.14741376
0.0014484772 0.079999998 0.011214762 -0.38593423 0.23852047 -0.14741376
0 0.079845734 0.010766537 -0.38593423 0.23852047 -0.14741376
0 0.079097673 0.010911711 -0.38593423 0.23852047 -0.14741376
0 0.078348555 0.011057151 -0.38593423 0.23852047 -0.14741376
0 0.077598363 0.01120286 -0.38593423 0.23852047 -0.14741376
0 0.076847091 0.011348837 -0.38593423 0.23852047 -0.14741376
0 0.076094739 0.011495085 -0.38593423 0.23852047 -0.14741376
0 0.075341292 0.011641607 -0.38593423 0.23852047 -0.14741376
0 0.074586749 0.0117884 -0.38593423 0.23852047 -0.14741376
0 0.073831111 0.011935469 -0.38593423 0.23852047 -0.14741376
0 0.073074363 0.012082813 -0.38593423 0.23852047 -0.14741376
0 0.072316498 0.012230435 -0.38593423 0.23852047 -0.14741376
0 0.071557507 0.012378335 -0.38593423 0.23852047 -0.14741376
0 0.070797399 0.012526516 -0.38593423 0.23852047 -0.14741376
0 0.070036151 0.012674978 -0.38593423 0.23852047 -0.14741376
0 0.06927377 0.012823722 -0.38593423 0.23852047 -0.14741376
0 0.068510234 0.012972751 -0.38593423 0.23852047 -0.14741376
0 0.067745551 0.013122065 -0.38593423 0.23852047 -0.14741376
0 0.066979714 0.013271666 -0.38593423 0.23852047 -0.14741376
0 0.066212706 0.013421555 -0.38593423 0.23852047 -0.14741376
0 0.065444529 0.013571735 -0.38593423 0.23852047 -0.14741376
0 0.064675175 0.013722205 -0.38593423 0.23852047 -0.14741376
0 0.063904636 0.013872967 -0.38593423 0.23852047 -0.14741376
0 0.063132904 0.014024023 -0.38593423 0.23852047 -0.14741376
0 0.062359974 0.014175375 -0.38593423 0.23852047 -0.14741376
0 0.06158584 0.014327023 -0.38593423 0.23852047 -0.14741376
0 0.060810495 0.01447897 -0.38593423 0.23852047 -0.14741376
0 0.060033936 0.014631216 -0.38593423 0.23852047 -0.14741376
0 0.059256148 0.014783764 -0.38593423 0.23852047 -0.14741376
0 0.058477134 0.014936615 -0.38593423 0.23852047 -0.14741376
0 0.057696875 0.015089769 -0.38593423 0.23852047 -0.14741376
0 0.056915376 0.015243229 -0.38593423 0.23852047 -0.14741376
0 0.056132626 0.015396996 -0.38593423 0.23852047 -0.14741376
0 0.055348616 0.015551072 -0.38593423 0.23852047 -0.14741376
0 0.05456334 0.015705457 -0.38593423 0.23852047 -0.14741376
0.039999999 0.03462911 0.032782614 -0.38593423 0.23852047 -0.14741376
0 0.052988969 0.016015165 -0.38593423 0.23852047 -0.14741376
0 0.052199855 0.016170491 -0.38593423 0.23852047 -0.14741376
0.039999999 0.0320164 0.033296887 -0.38593423 0.23852047 -0.14741376
0 0.05061774 0.016482091 -0.38593423 0.23852047 -0.14741376
0.039999999 0.03026743 0.033641487 -0.38593423 0.23852047 -0.14741376
0.039999999 0.029390773 0.033814318 -0.38593423 0.23852047 -0.14741376
0.039999999 0.028512657 0.033987503 -0.38593423 0.23852047 -0.14741376
0 0.047437765 0.017109137 -0.38593423 0.23852047 -0.14741376
0 0.046639446 0.017266707 -0.38593423 0.23852047 -0.14741376
0.039999999 0.02586947 0.034509216 -0.38593423 0.23852047 -0.14741376
0 0.045038771 0.017582836 -0.38593423 0.23852047 -0.14741376
0 0.044236399 0.017741393 -0.38593423 0.23852047 -0.14741376
0 0.04343266 0.017900283 -0.38593423 0.23852047 -0.14741376
0 0.042627551 0.018059507 -0.38593423 0.23852047 -0.14741376
0.039999999 0.021434225 0.035386015 -0.38593423 0.23852047 -0.14741376
5.5511151e-17 0.041013174 0.018378964 -0.38593423 0.23852047 -0.14741376
5.5511151e-17 0.040203899 0.018539198 -0.38593423 0.23852047 -0.14741376
0 0.039393216 0.018699775 -0.38593423 0.23852047 -0.14741376
5.5511151e-17 0.038581122 0.018860692 -0.38593423 0.23852047 -0.14741376
0.039999999 0.01696066 0.036272116 -0.38593423 0.23852047 -0.14741376
0 0.036952671 0.019183559 -0.38593423 0.23852047 -0.14741376
0.039999999 0.015160268 0.036629211 -0.38593423 0.23852047 -0.14741376
0 0.035318479 0.019507816 -0.38593423 0.23852047 -0.14741376
0 0.034499209 0.01967047 -0.38593423 0.23852047 -0.14741376
5.5511151e-17 0.033678483 0.019833475 -0.38593423 0.23852047 -0.14741376
0 0.032856289 0.019996837 -0.38593423 0.23852047 -0.14741376
0 0.03203262 0.020160552 -0.38593423 0.23852047 -0.14741376
0 0.03120747 0.020324627 -0.38593423 0.23852047 -0.14741376
0 0.03038083 0.020489059 -0.38593423 0.23852047 -0.14741376
0 0.029552689 0.020653853 -0.38593423 0.23852047 -0.14741376
0 0.028723042 0.02081901 -0.38593423 0.23852047 -0.14741376
0 0.02789188 0.020984532 -0.38593423 0.23852047 -0.14741376
0 0.027059194 0.021150421 -0.38593423 0.23852047 -0.14741376
5.5511151e-17 0.026224975 0.021316679 -0.38593423 0.23852047 -0.14741376
5.5511151e-17 0.024551909 0.021650307 -0.38593423 0.23852047 -0.14741376
0 0.023713045 0.02181768 -0.38593423 0.23852047 -0.14741376
0 0.022872616 0.02198543 -0.38593423 0.23852047 -0.14741376
0.039273743 0 0.039409202 -0.38593423 0.23852047 -0.14741376
0.037623283 0 0.038868979 -0.38593423 0.23852047 -0.14741376
0.035982512 2.7755576e-17 0.038331993 -0.38593423 0.23852047 -0.14741376
5.5511151e-17 0.019495066 0.022660227 -0.38593423 0.23852047 -0.14741376
5.5511151e-17 0.01864668 0.022829887 -0.38593423 0.23852047 -0.14741376
5.5511151e-17 0.017796675 0.022999933 -0.38593423 0.23852047 -0.14741376
0 0.016945042 0.023170367 -0.38593423 0.23852047 -0.14741376
5.5511151e-17 0.016091773 0.023341194 -0.38593423 0.23852047 -0.14741376
5.5511151e-17 0.015236862 0.023512414 -0.38593423 0.23852047 -0.14741376
0 0.014380297 0.023684029 -0.38593423 0.23852047 -0.14741376
5.5511151e-17 0.013522068 0.02385604 -0.38593423 0.23852047 -0.14741376
0 0.012662169 0.024028452 -0.38593423 0.23852047 -0.14741376
0 0.011800588 0.024201265 -0.38593423 0.23852047 -0.14741376
0 0.010937317 0.024374481 -0.38593423 0.23852047 -0.14741376
0 0.010072348 0.024548104 -0.38593423 0.23852047 -0.14741376
5.5511151e-17 0.0092056692 0.024722133 -0.38593423 0.23852047 -0.14741376
0 0.0083372733 0.024896571 -0.38593423 0.23852047 -0.14741376
0 0.0074671493 0.025071422 -0.38593423 0.23852047 -0.14741376
5.5511151e-17 0.0065952884 0.025246685 -0.38593423 0.23852047 -0.14741376
0 0.0057216813 0.025422366 -0.38593423 0.23852047 -0.14741376
0 0.0048463186 0.025598465 -0.38593423 0.23852047 -0.14741376
0.0065309652 0 0.028705766 -0.38593423 0.23852047 -0.14741376
0 0.0030902859 0.025951924 -0.38593423 0.23852047 -0.14741376
0 0.002209597 0.026129289 -0.38593423 0.23852047 -0.14741376
0 0.001327113 0.02630708 -0.38593423 0.23852047 -0.14741376
0.00071783742 0 0.026808752 -0.38593423 0.23852047 -0.14741376
0.038997434 0.079999998 0.022816503 -0.38593423 0.23852047 -0.14741376
0.036860593 0.079999998 0.022113362 -0.38593423 0.23852047 -0.14741376
0.032642554 0.079999998 0.020725576 -0.38593423 0.23852047 -0.14741376
0.039999999 0.076407403 0.023835834 -0.38593423 0.23852047 -0.14741376
0.02849705 0.079999998 0.019361902 -0.38593423 0.23852047 -0.14741376
0.026450891 0.079999998 0.018688906 -0.38593423 0.23852047 -0.14741376
0.024422145 0.079999998 0.018021697 -0.38593423 0.23852047 -0.14741376
0.022410581 0.079999998 0.017360201 -0.38593423 0.23852047 -0.14741376
0.020415971 0.079999998 0.01670434 -0.38593423 0.23852047 -0.14741376
0.018438095 0.079999998 0.016054042 -0.38593423 0.23852047 -0.14741376
0.01647673 0.079999998 0.015409231 -0.38593423 0.23852047 -0.14741376
0.014531661 0.079999998 0.01476984 -0.38593423 0.23852047 -0.14741376
0.012602678 0.079999998 0.014135795 -0.38593423 0.23852047 -0.14741376
0.010689571 0.079999998 0.013507028 -0.38593423 0.23852047 -0.14741376
0.0087921377 0.079999998 0.012883472 -0.38593423 0.23852047 -0.14741376
0.0069101751 0.079999998 0.012265058 -0.38593423 0.23852047 -0.14741376
0.0050434861 0.079999998 0.011651723 -0.38593423 0.23852047 -0.14741376
0.0031918765 0.079999998 0.011043401 -0.38593423 0.23852047 -0.14741376
0.001355155 0.079999998 0.010440027 -0.38593423 0.23852047 -0.14741376
0 0.079808004 0.010032004 -0.38593423 0.23852047 -0.14741376
0 0.079060271 0.010176586 -0.38593423 0.23852047 -0.14741376
0 0.078311481 0.010321432 -0.38593423 0.23852047 -0.14741376
0 0.077561617 0.010466543 -0.38593423 0.23852047 -0.14741376
0 0.076810673 0.010611921 -0.38593423 0.23852047 -0.14741376
0 0.076058649 0.010757566 -0.38593423 0.23852047 -0.14741376
0 0.075305536 0.010903481 -0.38593423 0.23852047 -0.14741376
0 0.074551329 0.011049666 -0.38593423 0.23852047 -0.14741376
0 0.073796019 0.011196123 -0.38593423 0.23852047 -0.14741376
0 0.073039606 0.011342853 -0.38593423 0.23852047 -0.14741376
0 0.072282076 0.011489858 -0.38593423 0.23852047 -0.14741376
0 0.071523428 0.011637139 -0.38593423 0.23852047 -0.14741376
0 0.070763648 0.011784696 -0.38593423 0.23852047 -0.14741376
0 0.070002742 0.011932532 -0.38593423 0.23852047 -0.14741376
0 0.069240697 0.012080648 -0.38593423 0.23852047 -0.14741376
0 0.068477504 0.012229046 -0.38593423 0.23852047 -0.14741376
0 0.067713164 0.012377725 -0.38593423 0.23852047 -0.14741376
0 0.066947669 0.012526689 -0.38593423 0.23852047 -0.14741376
0 0.066181004 0.012675938 -0.38593423 0.23852047 -0.14741376
0 0.06541317 0.012825473 -0.38593423 0.23852047 -0.14741376
0 0.064644158 0.012975297 -0.38593423 0.23852047 -0.14741376
0 0.063873962 0.01312541 -0.38593423 0.23852047 -0.14741376
0 0.063102581 0.013275815 -0.38593423 0.23852047 -0.14741376
0 0.06233 0.013426512 -0.38593423 0.23852047 -0.14741376
0 0.061556213 0.013577502 -0.38593423 0.23852047 -0.14741376
0 0.060781222 0.013728787 -0.38593423 0.23852047 -0.14741376
0 0.060005009 0.01388037 -0.38593423 0.23852047 -0.14741376
0 0.059227575 0.01403225 -0.38593423 0.23852047 -0.14741376
0 0.058448911 0.01418443 -0.38593423 0.23852047 -0.14741376
0 0.05766901 0.014336911 -0.38593423 0.23852047 -0.14741376
0 0.056887869 0.014489695 -0.38593423 0.23852047 -0.14741376
0 0.056105472 0.014642783 -0.38593423 0.23852047 -0.14741376
0 0.05532182 0.014796176 -0.38593423 0.23852047 -0.14741376
0 0.054536905 0.014949876 -0.38593423 0.23852047 -0.14741376
0 0.053750716 0.015103884 -0.38593423 0.23852047 -0.14741376
0 0.052963249 0.015258203 -0.38593423 0.23852047 -0.14741376
0 0.052174501 0.015412833 -0.38593423 0.23852047 -0.14741376
0 0.051384456 0.015567776 -0.38593423 0.23852047 -0.14741376
0 0.050593115 0.015723035 -0.38593423 0.23852047 -0.14741376
0 0.049800467 0.015878608 -0.38593423 0.23852047 -0.14741376
5.5511151e-17 0.049006503 0.016034499 -0.38593423 0.23852047 -0.14741376
0 0.048211221 0.01619071 -0.38593423 0.23852047 -0.14741376
0 0.047414608 0.016347243 -0.38593423 0.23852047 -0.14741376
5.5511151e-17 0.046616659 0.016504096 -0.38593423 0.23852047 -0.14741376
0 0.045817371 0.016661275 -0.38593423 0.23852047 -0.14741376
5.5511151e-17 0.045016728 0.016818779 -0.38593423 0.23852047 -0.14741376
5.5511151e-17 0.044214733 0.01697661 -0.38593423 0.23852047 -0.14741376
5.5511151e-17 0.04341137 0.017134769 -0.38593423 0.23852047 -0.14741376
0 0.042606637 0.01729326 -0.38593423 0.23852047 -0.14741376
0.039999999 0.020520365 0.034715187 -0.38593423 0.23852047 -0.14741376
5.5511151e-17 0.040184122 0.01777073 -0.38593423 0.23852047 -0.14741376
0 0.039373823 0.017930558 -0.38593423 0.23852047 -0.14741376
0 0.038562112 0.018090725 -0.38593423 0.23852047 -0.14741376
0.039999999 0.016940104 0.035421517 -0.38593423 0.23852047 -0.14741376
0 0.036934428 0.018412083 -0.38593423 0.23852047 -0.14741376
0 0.03611844 0.018573277 -0.38593423 0.23852047 -0.14741376
0 0.035301015 0.018734815 -0.38593423 0.23852047 -0.14741376
0 0.034482136 0.018896701 -0.38593423 0.23852047 -0.14741376
0 0.033661798 0.019058937 -0.38593423 0.23852047 -0.14741376
5.5511151e-17 0.032839999 0.019221522 -0.38593423 0.23852047 -0.14741376
0 0.032016724 0.019384461 -0.38593423 0.23852047 -0.14741376
5.5511151e-17 0.031191969 0.019547753 -0.38593423 0.23852047 -0.14741376
0 0.030365726 0.019711401 -0.38593423 0.23852047 -0.14741376
5.5511151e-17 0.029537983 0.019875407 -0.38593423 0.23852047 -0.14741376
0 0.028708735 0.020039773 -0.38593423 0.23852047 -0.14741376
0 0.027877975 0.020204501 -0.38593423 0.23852047 -0.14741376
0 0.027045691 0.020369591 -0.38593423 0.23852047 -0.14741376
0.039999999 0.0042072386 0.037942033 -0.38593423 0.23852047 -0.14741376
5.5511151e-17 0.025376525 0.020700866 -0.38593423 0.23852047 -0.14741376
0 0.024539625 0.020867057 -0.38593423 0.23852047 -0.14741376
5.5511151e-17 0.02370117 0.021033619 -0.38593423 0.23852047 -0.14741376
0 0.022861149 0.021200551 -0.38593423 0.23852047 -0.14741376
0 0.022019558 0.021367859 -0.38593423 0.23852047 -0.14741376
0 0.021176383 0.021535542 -0.38593423 0.23852047 -0.14741376
0 0.020331619 0.021703603 -0.38593423 0.23852047 -0.14741376
0.034332506 0 0.036931623 -0.38593423 0.23852047 -0.14741376
0 0.018637288 0.022040868 -0.38593423 0.23852047 -0.14741376
0.031100426 0 0.035879176 -0.38593423 0.23852047 -0.14741376
0 0.01693649 0.022379667 -0.38593423 0.23852047 -0.14741376
0 0.016083647 0.022549646 -0.38593423 0.23852047 -0.14741376
0 0.015229158 0.022720017 -0.38593423 0.23852047 -0.14741376
0 0.014373018 0.022890776 -0.38593423 0.23852047 -0.14741376
0 0.013515218 0.023061931 -0.38593423 0.23852047 -0.14741376
5.5511151e-17 0.012655748 0.023233481 -0.38593423 0.23852047 -0.14741376
5.5511151e-17 0.011794599 0.023405429 -0.38593423 0.23852047 -0.14741376
0 0.010931761 0.023577776 -0.38593423 0.23852047 -0.14741376
0 0.010067225 0.023750525 -0.38593423 0.23852047 -0.14741376
0 0.0092009827 0.023923676 -0.38593423 0.23852047 -0.14741376
0 0.0083330246 0.024097234 -0.38593423 0.23852047 -0.14741376
5.5511151e-17 0.0074633402 0.024271199 -0.38593423 0.23852047 -0.14741376
0 0.0065919212 0.024445577 -0.38593423 0.23852047 -0.14741376
0 0.0057187569 0.024620363 -0.38593423 0.23852047 -0.14741376
5.5511151e-17 0.004843839 0.024795564 -0.38593423 0.23852047 -0.14741376
0 0.0039671571 0.024971182 -0.38593423 0.23852047 -0.14741376
0 0.0030887017 0.025147218 -0.38593423 0.23852047 -0.14741376
0 0.0022084629 0.025323674 -0.38593423 0.23852047 -0.14741376
0 0.0013264313 0.025500553 -0.38593423 0.23852047 -0.14741376
0 0.00044259656 0.025677856 -0.38593423 0.23852047 -0.14741376
0.038867481 0.079999998 0.021969205 -0.38593423 0.23852047 -0.14741376
0.036732849 0.079999998 0.021270309 -0.38593423 0.23852047 -0.14741376
0.034616813 0.079999998 0.020577565 -0.38593423 0.23852047 -0.14741376
0.032519128 0.079999998 0.019890888 -0.38593423 0.23852047 -0.14741376
0.039999999 0.076360174 0.023036087 -0.38593423 0.23852047 -0.14741376
0.028377814 0.079999998 0.018535405 -0.38593423 0.23852047 -0.14741376
0.026333701 0.079999998 0.017866444 -0.38593423 0.23852047 -0.14741376
0.024306972 0.079999998 0.017203229 -0.38593423 0.23852047 -0.14741376
0.022297394 0.079999998 0.016545685 -0.38593423 0.23852047 -0.14741376
0.020304741 0.079999998 0.015893739 -0.38593423 0.23852047 -0.14741376
0.018328791 0.079999998 0.015247315 -0.38593423 0.23852047 -0.14741376
0.016369326 0.079999998 0.014606343 -0.38593423 0.23852047 -0.14741376
0.014426129 0.079999998 0.01397075 -0.38593423 0.23852047 -0.14741376
0.01249899 0.079999998 0.013340468 -0.38593423 0.23852047 -0.14741376
0.010587701 0.079999998 0.012715425 -0.38593423 0.23852047 -0.14741376
0.0086920569 0.079999998 0.012095558 -0.38593423 0.23852047 -0.14741376
0.0068118586 0.079999998 0.011480798 -0.38593423 0.23852047 -0.14741376
0.0049469084 0.079999998 0.010871081 -0.38593423 0.23852047 -0.14741376
0.0030970126 0.079999998 0.010266341 -0.38593423 0.23852047 -0.14741376
0.0012619805 0.079999998 0.0096665174 -0.38593423 0.23852047 -0.14741376
0 0.079770319 0.0092982799 -0.38593423 0.23852047 -0.14741376
0 0.079022914 0.0094422717 -0.38593423 0.23852047 -0.14741376
0 0.078274451 0.0095865242 -0.38593423 0.23852047 -0.14741376
0 0.077524908 0.0097310385 -0.38593423 0.23852047 -0.14741376
0 0.076774299 0.0098758172 -0.38593423 0.23852047 -0.14741376
0 0.076022603 0.010020861 -0.38593423 0.23852047 -0.14741376
0 0.075269826 0.010166172 -0.38593423 0.23852047 -0.14741376
0 0.074515946 0.01031175 -0.38593423 0.23852047 -0.14741376
0 0.073760971 0.010457597 -0.38593423 0.23852047 -0.14741376
0 0.073004887 0.010603714 -0.38593423 0.23852047 -0.14741376
0 0.072247691 0.010750102 -0.38593423 0.23852047 -0.14741376
0 0.071489379 0.010896764 -0.38593423 0.23852047 -0.14741376
0 0.070729941 0.0110437 -0.38593423 0.23852047 -0.14741376
0 0.069969371 0.011190912 -0.38593423 0.23852047 -0.14741376
0 0.069207661 0.0113384 -0.38593423 0.23852047 -0.14741376
0 0.068444811 0.011486167 -0.38593423 0.23852047 -0.14741376
0 0.067680813 0.011634214 -0.38593423 0.23852047 -0.14741376
0 0.066915654 0.011782541 -0.38593423 0.23852047 -0.14741376
0 0.066149332 0.011931151 -0.38593423 0.23852047 -0.14741376
0 0.06538184 0.012080044 -0.38593423 0.23852047 -0.14741376
0 0.064613178 0.012229224 -0.38593423 0.23852047 -0.14741376
0 0.063843325 0.012378689 -0.38593423 0.23852047 -0.14741376
0 0.063072287 0.012528442 -0.38593423 0.23852047 -0.14741376
0 0.062300056 0.012678485 -0.38593423 0.23852047 -0.14741376
0 0.061526623 0.012828819 -0.38593423 0.23852047 -0.14741376
0 0.060751978 0.012979444 -0.38593423 0.23852047 -0.14741376
0 0.059976116 0.013130364 -0.38593423 0.23852047 -0.14741376
0 0.059199035 0.013281578 -0.38593423 0.23852047 -0.14741376
0 0.058420725 0.013433089 -0.38593423 0.23852047 -0.14741376
0 0.057641178 0.013584899 -0.38593423 0.23852047 -0.14741376
0 0.056860387 0.013737007 -0.38593423 0.23852047 -0.14741376
0 0.056078348 0.013889416 -0.38593423 0.23852047 -0.14741376
0 0.055295054 0.014042129 -0.38593423 0.23852047 -0.14741376
0 0.054510497 0.014195144 -0.38593423 0.23852047 -0.14741376
0 0.053724669 0.014348465 -0.38593423 0.23852047 -0.14741376
0 0.052937564 0.014502093 -0.38593423 0.23852047 -0.14741376
0 0.051359493 0.014810276 -0.38593423 0.23852047 -0.14741376
0 0.050568517 0.014964834 -0.38593423 0.23852047 -0.14741376
0 0.049776234 0.015119704 -0.38593423 0.23852047 -0.14741376
5.5511151e-17 0.048982635 0.01527489 -0.38593423 0.23852047 -0.14741376
0 0.048187722 0.015430392 -0.38593423 0.23852047 -0.14741376
0.039999999 0.02758199 0.032480277 -0.38593423 0.23852047 -0.14741376
0 0.046593901 0.015742349 -0.38593423 0.23852047 -0.14741376
0.039999999 0.025820026 0.032825273 -0.38593423 0.23852047 -0.14741376
0 0.044994716 0.01605559 -0.38593423 0.23852047 -0.14741376
0 0.044193093 0.016212694 -0.38593423 0.23852047 -0.14741376
5.5511151e-17 0.043390103 0.016370125 -0.38593423 0.23852047 -0.14741376
0 0.042585745 0.016527884 -0.38593423 0.23852047 -0.14741376
0 0.04178001 0.01668597 -0.38593423 0.23852047 -0.14741376
5.5511151e-17 0.040972885 0.016844388 -0.38593423 0.23852047 -0.14741376
0 0.04016437 0.017003136 -0.38593423 0.23852047 -0.14741376
0 0.039354451 0.017162221 -0.38593423 0.23852047 -0.14741376
0 0.038543124 0.017321639 -0.38593423 0.23852047 -0.14741376
0 0.037730377 0.017481394 -0.38593423 0.23852047 -0.14741376
0 0.036916211 0.017641488 -0.38593423 0.23852047 -0.14741376
0 0.036100611 0.017801922 -0.38593423 0.23852047 -0.14741376
5.5511151e-17 0.035283569 0.0179627 -0.38593423 0.23852047 -0.14741376
0 0.034465078 0.018123819 -0.38593423 0.23852047 -0.14741376
0 0.033645134 0.018285286 -0.38593423 0.23852047 -0.14741376
0 0.032823727 0.018447099 -0.38593423 0.23852047 -0.14741376
0.039999999 0.009686403 0.035996009 -0.38593423 0.23852047 -0.14741376
0 0.030350639 0.018934639 -0.38593423 0.23852047 -0.14741376
5.5511151e-17 0.029523294 0.019097859 -0.38593423 0.23852047 -0.14741376
5.5511151e-17 0.028694447 0.019261435 -0.38593423 0.23852047 -0.14741376
0 0.027864087 0.019425368 -0.38593423 0.23852047 -0.14741376
0 0.027032206 0.019589661 -0.38593423 0.23852047 -0.14741376
0 0.026198795 0.019754315 -0.38593423 0.23852047 -0.14741376
5.5511151e-17 0.025363848 0.019919332 -0.38593423 0.23852047 -0.14741376
0 0.024527354 0.020084715 -0.38593423 0.23852047 -0.14741376
0 0.023689307 0.020250464 -0.38593423 0.23852047 -0.14741376
0 0.022849698 0.020416582 -0.38593423 0.23852047 -0.14741376
5.5511151e-17 0.022008516 0.020583069 -0.38593423 0.23852047 -0.14741376
0 0.021165755 0.02074993 -0.38593423 0.23852047 -0.14741376
0 0.020321406 0.020917166 -0.38593423 0.23852047 -0.14741376
0.034313709 0 0.036066111 -0.38593423 0.23852047 -0.14741376
0 0.018627906 0.021252766 -0.38593423 0.23852047 -0.14741376
0 0.017778739 0.021421136 -0.38593423 0.23852047 -0.14741376
0 0.01692795 0.021589888 -0.38593423 0.23852047 -0.14741376
0 0.016075527 0.021759024 -0.38593423 0.23852047 -0.14741376
0 0.015221464 0.021928543 -0.38593423 0.23852047 -0.14741376
0 0.014365749 0.022098452 -0.38593423 0.23852047 -0.14741376
0 0.013508377 0.022268752 -0.38593423 0.23852047 -0.14741376
0 0.012649335 0.022439441 -0.38593423 0.23852047 -0.14741376
0 0.011788616 0.022610525 -0.38593423 0.23852047 -0.14741376
0 0.01092621 0.022782005 -0.38593423 0.23852047 -0.14741376
0 0.010062109 0.022953883 -0.38593423 0.23852047 -0.14741376
0 0.0091963019 0.023126159 -0.38593423 0.23852047 -0.14741376
5.5511151e-17 0.0083287805 0.023298837 -0.38593423 0.23852047 -0.14741376
0 0.0074595357 0.02347192 -0.38593423 0.23852047 -0.14741376
0 0.0065885573 0.023645408 -0.38593423 0.23852047 -0.14741376
0 0.0057158363 0.023819305 -0.38593423 0.23852047 -0.14741376
0 0.0048413626 0.023993611 -0.38593423 0.23852047 -0.14741376
0 0.0039651268 0.024168329 -0.38593423 0.23852047 -0.14741376
0 0.0030871194 0.024343463 -0.38593423 0.23852047 -0.14741376
0 0.0022073304 0.024519011 -0.38593423 0.23852047 -0.14741376
0 0.0013257504 0.024694979 -0.38593423 0.23852047 -0.14741376
0 0.00044236911 0.024871368 -0.38593423 0.23852047 -0.14741376
0.038737748 0.079999998 0.02112334 -0.38593423 0.23852047 -0.14741376
0.036605317 0.079999998 0.02042868 -0.38593423 0.23852047 -0.14741376
0.034491457 0.079999998 0.019740125 -0.38593423 0.23852047 -0.14741376
0.03239591 0.079999998 0.019057594 -0.38593423 0.23852047 -0.14741376
0.03031843 0.079999998 0.018381007 -0.38593423 0.23852047 -0.14741376
0.039999999 0.075506382 0.022391092 -0.38593423 0.23852047 -0.14741376
0.026216706 0.079999998 0.017045341 -0.38593423 0.23852047 -0.14741376
0.024191989 0.079999998 0.016386108 -0.38593423 0.23852047 -0.14741376
0.022184394 0.079999998 0.015732508 -0.38593423 0.23852047 -0.14741376
0.020193694 0.079999998 0.015084463 -0.38593423 0.23852047 -0.14741376
0.018219668 0.079999998 0.014441904 -0.38593423 0.23852047 -0.14741376
0.016262097 0.079999998 0.013804757 -0.38593423 0.23852047 -0.14741376
0.014320768 0.079999998 0.013172952 -0.38593423 0.23852047 -0.14741376
0.012395469 0.079999998 0.01254642 -0.38593423 0.23852047 -0.14741376
0.010485993 0.079999998 0.011925094 -0.38593423 0.23852047 -0.14741376
0.0085921362 0.079999998 0.011308904 -0.38593423 0.23852047 -0.14741376
0.0067136986 0.079999998 0.010697787 -0.38593423 0.23852047 -0.14741376
0.004850484 0.079999998 0.010091677 -0.38593423 0.23852047 -0.14741376
0.003002299 0.079999998 0.0094905104 -0.38593423 0.23852047 -0.14741376
0.0011689528 0.079999998 0.0088942265 -0.38593423 0.23852047 -0.14741376
0 0.079732671 0.0085653607 -0.38593423 0.23852047 -0.14741376
0 0.078985594 0.008708762 -0.38593423 0.23852047 -0.14741376
0 0.078237452 0.0088524222 -0.38593423 0.23852047 -0.14741376
0 0.077488244 0.0089963423 -0.38593423 0.23852047 -0.14741376
0 0.076737963 0.0091405232 -0.38593423 0.23852047 -0.14741376
0 0.075986601 0.0092849666 -0.38593423 0.23852047 -0.14741376
0 0.075234145 0.0094296737 -0.38593423 0.23852047 -0.14741376
0 0.074480601 0.0095746452 -0.38593423 0.23852047 -0.14741376
0 0.073725961 0.0097198831 -0.38593423 0.23852047 -0.14741376
0 0.072970212 0.0098653883 -0.38593423 0.23852047 -0.14741376
0 0.072213352 0.010011162 -0.38593423 0.23852047 -0.14741376
0 0.071455374 0.010157206 -0.38593423 0.23852047 -0.14741376
0 0.070696272 0.010303522 -0.38593423 0.23852047 -0.14741376
0 0.069936037 0.01045011 -0.38593423 0.23852047 -0.14741376
0 0.06917467 0.010596973 -0.38593423 0.23852047 -0.14741376
0 0.068412155 0.01074411 -0.38593423 0.23852047 -0.14741376
0 0.067648493 0.010891525 -0.38593423 0.23852047 -0.14741376
0 0.066883676 0.011039217 -0.38593423 0.23852047 -0.14741376
0 0.066117696 0.011187189 -0.38593423 0.23852047 -0.14741376
0 0.065350555 0.011335443 -0.38593423 0.23852047 -0.14741376
0 0.064582229 0.011483978 -0.38593423 0.23852047 -0.14741376
0 0.063812725 0.011632796 -0.38593423 0.23852047 -0.14741376
0 0.063042037 0.0117819 -0.38593423 0.23852047 -0.14741376
0 0.06227015 0.011931291 -0.38593423 0.23852047 -0.14741376
0 0.061497059 0.012080968 -0.38593423 0.23852047 -0.14741376
0 0.060722765 0.012230936 -0.38593423 0.23852047 -0.14741376
0 0.059947256 0.012381193 -0.38593423 0.23852047 -0.14741376
0 0.059170526 0.012531743 -0.38593423 0.23852047 -0.14741376
0 0.058392566 0.012682587 -0.38593423 0.23852047 -0.14741376
0 0.057613373 0.012833726 -0.38593423 0.23852047 -0.14741376
0 0.056832939 0.012985161 -0.38593423 0.23852047 -0.14741376
0 0.056051258 0.013136893 -0.38593423 0.23852047 -0.14741376
0 0.055268317 0.013288925 -0.38593423 0.23852047 -0.14741376
0 0.054484118 0.013441258 -0.38593423 0.23852047 -0.14741376
0 0.053698651 0.013593893 -0.38593423 0.23852047 -0.14741376
0 0.052911907 0.013746832 -0.38593423 0.23852047 -0.14741376
0.039999999 0.032804877 0.030619385 -0.38593423 0.23852047 -0.14741376
0.039999999 0.031933751 0.03078885 -0.38593423 0.23852047 -0.14741376
5.5511151e-17 0.050543945 0.014207486 -0.38593423 0.23852047 -0.14741376
0 0.049752027 0.014361655 -0.38593423 0.23852047 -0.14741376
0 0.048958797 0.014516136 -0.38593423 0.23852047 -0.14741376
0 0.048164248 0.014670929 -0.38593423 0.23852047 -0.14741376
0 0.047368374 0.014826036 -0.38593423 0.23852047 -0.14741376
0 0.046571165 0.01498146 -0.38593423 0.23852047 -0.14741376
0 0.04577262 0.015137201 -0.38593423 0.23852047 -0.14741376
5.5511151e-17 0.044972725 0.015293262 -0.38593423 0.23852047 -0.14741376
0 0.044171475 0.015449643 -0.38593423 0.23852047 -0.14741376
0 0.043368861 0.015606347 -0.38593423 0.23852047 -0.14741376
0.039999999 0.022255139 0.032675803 -0.38593423 0.23852047 -0.14741376
0 0.041759521 0.015920727 -0.38593423 0.23852047 -0.14741376
0 0.040952776 0.016078407 -0.38593423 0.23852047 -0.14741376
0 0.040144637 0.016236415 -0.38593423 0.23852047 -0.14741376
5.5511151e-17 0.039335102 0.016394753 -0.38593423 0.23852047 -0.14741376
0 0.038524155 0.016553424 -0.38593423 0.23852047 -0.14741376
0 0.037711795 0.016712429 -0.38593423 0.23852047 -0.14741376
0 0.036898013 0.016871769 -0.38593423 0.23852047 -0.14741376
0 0.036082797 0.017031446 -0.38593423 0.23852047 -0.14741376
5.5511151e-17 0.035266142 0.017191462 -0.38593423 0.23852047 -0.14741376
0 0.034448046 0.017351819 -0.38593423 0.23852047 -0.14741376
0.039999999 0.012392543 0.034606237 -0.38593423 0.23852047 -0.14741376
5.5511151e-17 0.032807473 0.017673559 -0.38593423 0.23852047 -0.14741376
0 0.031984989 0.017834947 -0.38593423 0.23852047 -0.14741376
0.039999999 0.0096693346 0.035140581 -0.38593423 0.23852047 -0.14741376
0 0.03033557 0.018158766 -0.38593423 0.23852047 -0.14741376
0 0.029508624 0.018321199 -0.38593423 0.23852047 -0.14741376
0 0.028680174 0.018483987 -0.38593423 0.23852047 -0.14741376
0 0.027850214 0.018647129 -0.38593423 0.23852047 -0.14741376
0 0.027018735 0.018810626 -0.38593423 0.23852047 -0.14741376
0 0.026185729 0.018974481 -0.38593423 0.23852047 -0.14741376
0 0.025351185 0.019138696 -0.38593423 0.23852047 -0.14741376
0 0.024515098 0.019303272 -0.38593423 0.23852047 -0.14741376
5.5511151e-17 0.023677459 0.019468211 -0.38593423 0.23852047 -0.14741376
5.5511151e-17 0.022838257 0.019633515 -0.38593423 0.23852047 -0.14741376
5.5511151e-17 0.021997487 0.019799186 -0.38593423 0.23852047 -0.14741376
5.5511151e-17 0.021155139 0.019965228 -0.38593423 0.23852047 -0.14741376
5.5511151e-17 0.020311203 0.020131638 -0.38593423 0.23852047 -0.14741376
0 0.019465672 0.020298421 -0.38593423 0.23852047 -0.14741376
0 0.018618537 0.020465579 -0.38593423 0.23852047 -0.14741376
0 0.017769789 0.020633113 -0.38593423 0.23852047 -0.14741376
0 0.016919419 0.020801025 -0.38593423 0.23852047 -0.14741376
0 0.016067417 0.020969316 -0.38593423 0.23852047 -0.14741376
0 0.015213777 0.021137992 -0.38593423 0.23852047 -0.14741376
0 0.014358489 0.021307049 -0.38593423 0.23852047 -0.14741376
0 0.013501543 0.021476494 -0.38593423 0.23852047 -0.14741376
0 0.012642929 0.021646326 -0.38593423 0.23852047 -0.14741376
0 0.011782641 0.021816548 -0.38593423 0.23852047 -0.14741376
0 0.010920666 0.021987163 -0.38593423 0.23852047 -0.14741376
0 0.010056999 0.02215817 -0.38593423 0.23852047 -0.14741376
0 0.0091916267 0.022329573 -0.38593423 0.23852047 -0.14741376
0 0.0083245421 0.022501374 -0.38593423 0.23852047 -0.14741376
0 0.0074557359 0.022673575 -0.38593423 0.23852047 -0.14741376
0 0.006585198 0.022846179 -0.38593423 0.23852047 -0.14741376
0.0094705299 0 0.027201479 -0.38593423 0.23852047 -0.14741376
0 0.004838889 0.023192599 -0.38593423 0.23852047 -0.14741376
0 0.0039630989 0.023366421 -0.38593423 0.23852047 -0.14741376
5.5511151e-17 0.0030855387 0.023540653 -0.38593423 0.23852047 -0.14741376
0.0036030316 0 0.025312936 -0.38593423 0.23852047 -0.14741376
5.5511151e-17 0.0013250702 0.023890356 -0.38593423 0.23852047 -0.14741376
0 0.00044214193 0.024065832 -0.38593423 0.23852047 -0.14741376
0.038608231 0.079999998 0.020278903 -0.38593423 0.23852047 -0.14741376
0.036478005 0.079999998 0.019588463 -0.38593423 0.23852047 -0.14741376
0.03436631 0.079999998 0.018904088 -0.38593423 0.23852047 -0.14741376
0.039999999 0.077071056 0.021286169 -0.38593423 0.23852047 -0.14741376
0.030197518 0.079999998 0.017553197 -0.38593423 0.23852047 -0.14741376
