# .PCD v0.7 - Point Cloud Data file format
VERSION 0.7
FIELDS x y z vp_x vp_y vp_z
SIZE 4 4 4 4 4 4
TYPE F F F F F F
COUNT 1 1 1 1 1 1
WIDTH 675
HEIGHT 1
VIEWPOINT 0 0 0 1 0 0 0
POINTS 675
DATA ascii
8.8695124e-05 0.058364104 0.066114008 -0.38593423 0.23852047 0.14741376
0.00015714255 0.057594217 0.066015348 -0.38593423 0.23852047 0.14741376
0.00028843255 0.056793392 0.06590341 -0.38593423 0.23852047 0.14741376
0.00042000963 0.055990819 0.065791346 -0.38593423 0.23852047 0.14741376
0.00061920297 0.055154543 0.06566494 -0.38593423 0.23852047 0.14741376
0.00085703091 0.05429798 0.065530263 -0.38593423 0.23852047 0.14741376
0.0011216156 0.053426575 0.065389819 -0.38593423 0.23852047 0.14741376
0.0014894084 0.052503455 0.065227367 -0.38593423 0.23852047 0.14741376
0.0018628979 0.051575024 0.065063544 -0.38593423 0.23852047 0.14741376
0.0023979596 0.050565794 0.064865217 -0.38593423 0.23852047 0.14741376
0.0029654698 0.049537562 0.064659752 -0.38593423 0.23852047 0.14741376
0.0037301281 0.048409779 0.064412042 -0.38593423 0.23852047 0.14741376
0.0046811821 0.047186546 0.064124264 -0.38593423 0.23852047 0.14741376
0.0059472183 0.045803528 0.063768834 -0.38593423 0.23852047 0.14741376
0.0080389511 0.044006713 0.06323643 -0.38593423 0.23852047 0.14741376
0.022281306 0.079840317 0.064489581 -0.38593423 0.23852047 0.14741376
0.020048248 0.079975732 0.064853609 -0.38593423 0.23852047 0.14741376
0.018348914 0.079908878 0.065109983 -0.38593423 0.23852047 0.14741376
0.016894614 0.079750665 0.065317191 -0.38593423 0.23852047 0.14741376
0.015686581 0.079499282 0.065474808 -0.38593423 0.23852047 0.14741376
0.014530137 0.079230815 0.065622441 -0.38593423 0.23852047 0.14741376
0.013542689 0.078898087 0.065736048 -0.38593423 0.23852047 0.14741376
0.012564411 0.078564331 0.065848231 -0.38593423 0.23852047 0.14741376
0.011726411 0.078176625 0.065932117 -0.38593423 0.23852047 0.14741376
0.01089084 0.077790044 0.066015892 -0.38593423 0.23852047 0.14741376
0.010136816 0.077372387 0.066083297 -0.38593423 0.23852047 0.14741376
0.0094202142 0.076941237 0.066143364 -0.38593423 0.23852047 0.14741376
0.0087148761 0.076507136 0.066201441 -0.38593423 0.23852047 0.14741376
0.0080979988 0.076038174 0.066241615 -0.38593423 0.23852047 0.14741376
0.0074822283 0.075570054 0.066281848 -0.38593423 0.23852047 0.14741376
0.0068928972 0.075092234 0.06631691 -0.38593423 0.23852047 0.14741376
0.0063633439 0.074590631 0.066339888 -0.38593423 0.23852047 0.14741376
0.005834505 0.074089706 0.066362962 -0.38593423 0.23852047 0.14741376
0.0053313728 0.073578916 0.066380955 -0.38593423 0.23852047 0.14741376
0.0048797284 0.073047198 0.066388503 -0.38593423 0.23852047 0.14741376
0.0044285106 0.072515987 0.066396177 -0.38593423 0.23852047 0.14741376
0.0039934297 0.071978562 0.066400714 -0.38593423 0.23852047 0.14741376
0.0036134424 0.071418121 0.066393986 -0.38593423 0.23852047 0.14741376
0.0032336712 0.070858002 0.066387393 -0.38593423 0.23852047 0.14741376
0.0028556655 0.070297532 0.066380605 -0.38593423 0.23852047 0.14741376
0.0025435516 0.069708824 0.066360243 -0.38593423 0.23852047 0.14741376
0.0022315031 0.069120236 0.066340014 -0.38593423 0.23852047 0.14741376
0.0019195183 0.068531774 0.06631992 -0.38593423 0.23852047 0.14741376
0.0016585251 0.067921005 0.066289298 -0.38593423 0.23852047 0.14741376
0.0014125222 0.067303568 0.066255659 -0.38593423 0.23852047 0.14741376
0.0011664826 0.066686034 0.066222146 -0.38593423 0.23852047 0.14741376
0.00095453626 0.066053197 0.066181585 -0.38593423 0.23852047 0.14741376
0.0007747598 0.065405712 0.066134356 -0.38593423 0.23852047 0.14741376
0.00059489231 0.064757898 0.066087238 -0.38593423 0.23852047 0.14741376
0.00043501137 0.064100683 0.066035993 -0.38593423 0.23852047 0.14741376
0.00032359007 0.063421056 0.065974608 -0.38593423 0.23852047 0.14741376
0.0002120711 0.062740833 0.065913297 -0.38593423 0.23852047 0.14741376
0.00011141758 0.062054992 0.065849744 -0.38593423 0.23852047 0.14741376
7.2655181e-05 0.061340056 0.065773152 -0.38593423 0.23852047 0.14741376
3.3843553e-05 0.060624212 0.06569659 -0.38593423 0.23852047 0.14741376
5.2758774e-06 0.05990269 0.065617874 -0.38593423 0.23852047 0.14741376
4.6199435e-05 0.059147894 0.065524429 -0.38593423 0.23852047 0.14741376
8.7192595e-05 0.058391817 0.065430962 -0.38593423 0.23852047 0.14741376
0.00015240192 0.057623133 0.065332323 -0.38593423 0.23852047 0.14741376
0.00028374596 0.05682198 0.065219589 -0.38593423 0.23852047 0.14741376
0.00041537735 0.056019071 0.065106727 -0.38593423 0.23852047 0.14741376
0.00061096711 0.055184208 0.064980179 -0.38593423 0.23852047 0.14741376
0.00084888912 0.054327305 0.064844504 -0.38593423 0.23852047 0.14741376
0.0011092436 0.053457625 0.064703934 -0.38593423 0.23852047 0.14741376
0.0014771746 0.052534159 0.064540237 -0.38593423 0.23852047 0.14741376
0.0018463717 0.051607516 0.064376101 -0.38593423 0.23852047 0.14741376
0.0023806801 0.050598387 0.064176418 -0.38593423 0.23852047 0.14741376
0.0029412708 0.049573254 0.063970856 -0.38593423 0.23852047 0.14741376
0.0037061721 0.048445113 0.063721158 -0.38593423 0.23852047 0.14741376
0.0046471935 0.047226559 0.06343326 -0.38593423 0.23852047 0.14741376
0.0058964929 0.045851573 0.06307859 -0.38593423 0.23852047 0.14741376
0.0079530822 0.044071991 0.062549435 -0.38593423 0.23852047 0.14741376
0.022431619 0.079823963 0.063757911 -0.38593423 0.23852047 0.14741376
0.020152817 0.079976432 0.064134642 -0.38593423 0.23852047 0.14741376
0.01843085 0.079917796 0.064398088 -0.38593423 0.23852047 0.14741376
0.016975362 0.079759449 0.064607538 -0.38593423 0.23852047 0.14741376
0.015751811 0.079513639 0.064769931 -0.38593423 0.23852047 0.14741376
0.014584262 0.079249054 0.064921349 -0.38593423 0.23852047 0.14741376
0.013596137 0.078916103 0.065036304 -0.38593423 0.23852047 0.14741376
0.012611605 0.078584351 0.065150969 -0.38593423 0.23852047 0.14741376
0.01177097 0.078197241 0.065236352 -0.38593423 0.23852047 0.14741376
0.010934864 0.077810414 0.065321185 -0.38593423 0.23852047 0.14741376
0.01017432 0.077394955 0.065390751 -0.38593423 0.23852047 0.14741376
0.0094572846 0.076963544 0.065451652 -0.38593423 0.23852047 0.14741376
0.0087465513 0.076531217 0.065511569 -0.38593423 0.23852047 0.14741376
0.0081293164 0.076061986 0.065552391 -0.38593423 0.23852047 0.14741376
0.0075131906 0.075593598 0.065593265 -0.38593423 0.23852047 0.14741376
0.0069193081 0.075117253 0.065629795 -0.38593423 0.23852047 0.14741376
0.006389461 0.074615374 0.06565325 -0.38593423 0.23852047 0.14741376
0.0058603291 0.074114166 0.065676801 -0.38593423 0.23852047 0.14741376
0.0053532324 0.073604651 0.065695994 -0.38593423 0.23852047 0.14741376
0.0049013468 0.07307265 0.065703884 -0.38593423 0.23852047 0.14741376
0.0044498886 0.072541155 0.065711886 -0.38593423 0.23852047 0.14741376
0.0040112613 0.072004862 0.065717407 -0.38593423 0.23852047 0.14741376
0.0036310779 0.071444131 0.06571088 -0.38593423 0.23852047 0.14741376
0.0032511114 0.070883729 0.065704472 -0.38593423 0.23852047 0.14741376
0.0028713595 0.070323639 0.065698206 -0.38593423 0.23852047 0.14741376
0.0025575825 0.069735289 0.065678231 -0.38593423 0.23852047 0.14741376
0.0022453787 0.06914641 0.065658063 -0.38593423 0.23852047 0.14741376
0.0019332387 0.06855765 0.065638036 -0.38593423 0.23852047 0.14741376
0.0016692237 0.067947857 0.065607987 -0.38593423 0.23852047 0.14741376
0.0014231022 0.067330122 0.065574281 -0.38593423 0.23852047 0.14741376
0.0011769439 0.066712297 0.065540701 -0.38593423 0.23852047 0.14741376
0.00096208969 0.066080399 0.065500602 -0.38593423 0.23852047 0.14741376
0.00078222912 0.065432608 0.065453187 -0.38593423 0.23852047 0.14741376
0.0006022774 0.064784497 0.065405875 -0.38593423 0.23852047 0.14741376
0.00043952849 0.064128235 0.065354995 -0.38593423 0.23852047 0.14741376
0.0003280566 0.063448302 0.065293282 -0.38593423 0.23852047 0.14741376
0.00021648697 0.062767766 0.065231644 -0.38593423 0.23852047 0.14741376
0.00011293186 0.06208292 0.065168351 -0.38593423 0.23852047 0.14741376
7.4152391e-05 0.061367672 0.06509129 -0.38593423 0.23852047 0.14741376
3.532365e-05 0.060651511 0.065014258 -0.38593423 0.23852047 0.14741376
3.7375899e-06 0.059931062 0.064935699 -0.38593423 0.23852047 0.14741376
4.4678596e-05 0.059175946 0.064841643 -0.38593423 0.23852047 0.14741376
8.5689258e-05 0.058419544 0.064747542 -0.38593423 0.23852047 0.14741376
0.00014765882 0.057652064 0.064648941 -0.38593423 0.23852047 0.14741376
0.00027905696 0.056850579 0.064535409 -0.38593423 0.23852047 0.14741376
0.00041074262 0.056047343 0.064421751 -0.38593423 0.23852047 0.14741376
0.00060272712 0.055213884 0.064295076 -0.38593423 0.23852047 0.14741376
0.00084074325 0.054356642 0.064158402 -0.38593423 0.23852047 0.14741376
0.0010968656 0.053488694 0.064017713 -0.38593423 0.23852047 0.14741376
0.0014649348 0.052564882 0.063852772 -0.38593423 0.23852047 0.14741376
0.001834271 0.051637888 0.063687384 -0.38593423 0.23852047 0.14741376
0.0023633929 0.050630994 0.063487299 -0.38593423 0.23852047 0.14741376
0.0029170613 0.049608961 0.063281663 -0.38593423 0.23852047 0.14741376
0.0036822059 0.048480459 0.063029975 -0.38593423 0.23852047 0.14741376
0.0046131918 0.047266591 0.062741987 -0.38593423 0.23852047 0.14741376
0.0058457525 0.045899637 0.062388141 -0.38593423 0.23852047 0.14741376
0.0078672031 0.044137277 0.061862357 -0.38593423 0.23852047 0.14741376
0.022582121 0.079807594 0.063025318 -0.38593423 0.23852047 0.14741376
0.020257495 0.079977132 0.063414931 -0.38593423 0.23852047 0.14741376
0.018512862 0.079926714 0.063685521 -0.38593423 0.23852047 0.14741376
0.017056184 0.07976824 0.06389723 -0.38593423 0.23852047 0.14741376
0.015817096 0.079528004 0.064064458 -0.38593423 0.23852047 0.14741376
0.014638429 0.079267308 0.064219698 -0.38593423 0.23852047 0.14741376
0.013649627 0.078934126 0.064336002 -0.38593423 0.23852047 0.14741376
0.012664422 0.07860215 0.064452015 -0.38593423 0.23852047 0.14741376
0.011815564 0.078217871 0.064540066 -0.38593423 0.23852047 0.14741376
0.010978922 0.077830799 0.064625956 -0.38593423 0.23852047 0.14741376
0.010211852 0.077417538 0.064697705 -0.38593423 0.23852047 0.14741376
0.009494381 0.076985866 0.064759441 -0.38593423 0.23852047 0.14741376
0.00877856 0.076555185 0.064821154 -0.38593423 0.23852047 0.14741376
0.0081606563 0.076085806 0.064862691 -0.38593423 0.23852047 0.14741376
0.0075441743 0.075617149 0.064904206 -0.38593423 0.23852047 0.14741376
0.0069457362 0.075142287 0.064942218 -0.38593423 0.23852047 0.14741376
0.0064155953 0.074640125 0.064966157 -0.38593423 0.23852047 0.14741376
0.0058861705 0.074138641 0.064990193 -0.38593423 0.23852047 0.14741376
0.0053751059 0.0736304 0.0650106 -0.38593423 0.23852047 0.14741376
0.004922979 0.073098116 0.065018818 -0.38593423 0.23852047 0.14741376
0.0044712801 0.072566338 0.065027148 -0.38593423 0.23852047 0.14741376
0.0040291036 0.072031178 0.065033682 -0.38593423 0.23852047 0.14741376
0.0036487246 0.071470164 0.065027341 -0.38593423 0.23852047 0.14741376
0.0032685625 0.070909463 0.065021135 -0.38593423 0.23852047 0.14741376
0.0028886152 0.070349082 0.065015055 -0.38593423 0.23852047 0.14741376
0.0025716219 0.069761768 0.064995795 -0.38593423 0.23852047 0.14741376
0.0022592626 0.069172598 0.064975694 -0.38593423 0.23852047 0.14741376
0.0019469674 0.068583548 0.064955726 -0.38593423 0.23852047 0.14741376
0.0016799286 0.067974731 0.064926267 -0.38593423 0.23852047 0.14741376
0.0014336884 0.067356691 0.064892501 -0.38593423 0.23852047 0.14741376
0.0011874114 0.066738568 0.064858846 -0.38593423 0.23852047 0.14741376
0.00096964749 0.066107623 0.064819224 -0.38593423 0.23852047 0.14741376
0.00078970275 0.065459527 0.064771622 -0.38593423 0.23852047 0.14741376
0.00060966675 0.06481111 0.06472411 -0.38593423 0.23852047 0.14741376
0.00044404817 0.06415581 0.064673603 -0.38593423 0.23852047 0.14741376
0.00033252567 0.063475557 0.064611569 -0.38593423 0.23852047 0.14741376
0.00022090533 0.062794715 0.064549603 -0.38593423 0.23852047 0.14741376
0.00011444697 0.062110867 0.064486578 -0.38593423 0.23852047 0.14741376
7.5650423e-05 0.061395299 0.064409055 -0.38593423 0.23852047 0.14741376
3.6804569e-05 0.060678825 0.064331554 -0.38593423 0.23852047 0.14741376
2.1984717e-06 0.059959449 0.064253159 -0.38593423 0.23852047 0.14741376
4.3156935e-05 0.059204012 0.064158477 -0.38593423 0.23852047 0.14741376
8.4185114e-05 0.058447286 0.064063758 -0.38593423 0.23852047 0.14741376
0.00014291324 0.057681009 0.063965194 -0.38593423 0.23852047 0.14741376
0.00027436545 0.056879196 0.063850865 -0.38593423 0.23852047 0.14741376
0.00040610545 0.056075629 0.063736416 -0.38593423 0.23852047 0.14741376
0.00059448293 0.055243578 0.063609622 -0.38593423 0.23852047 0.14741376
0.00083259318 0.054385997 0.063471943 -0.38593423 0.23852047 0.14741376
0.0010844815 0.053519778 0.063331164 -0.38593423 0.23852047 0.14741376
0.0014526888 0.052595615 0.063164972 -0.38593423 0.23852047 0.14741376
0.0018221644 0.051668275 0.062998332 -0.38593423 0.23852047 0.14741376
0.0023460975 0.050663617 0.062797859 -0.38593423 0.23852047 0.14741376
0.0028928416 0.049644683 0.062592171 -0.38593423 0.23852047 0.14741376
0.0036582293 0.048515823 0.062338494 -0.38593423 0.23852047 0.14741376
0.0045791776 0.047306634 0.062050462 -0.38593423 0.23852047 0.14741376
0.0057949973 0.045947712 0.061697487 -0.38593423 0.23852047 0.14741376
0.0077813128 0.044202574 0.061175197 -0.38593423 0.23852047 0.14741376
0.022732815 0.079791196 0.062291805 -0.38593423 0.23852047 0.14741376
0.020362282 0.07997784 0.062694468 -0.38593423 0.23852047 0.14741376
0.018594952 0.079935648 0.062972292 -0.38593423 0.23852047 0.14741376
0.01713708 0.079777047 0.063186258 -0.38593423 0.23852047 0.14741376
0.015882438 0.079542384 0.063358374 -0.38593423 0.23852047 0.14741376
0.014700821 0.079282321 0.063515775 -0.38593423 0.23852047 0.14741376
0.013703159 0.078952163 0.063635148 -0.38593423 0.23852047 0.14741376
0.012717281 0.078619964 0.063752502 -0.38593423 0.23852047 0.14741376
0.011860191 0.078238517 0.06384325 -0.38593423 0.23852047 0.14741376
0.011023013 0.077851199 0.063930206 -0.38593423 0.23852047 0.14741376
0.010249411 0.077440135 0.06400416 -0.38593423 0.23852047 0.14741376
0.0095315045 0.077008203 0.06406673 -0.38593423 0.23852047 0.14741376
0.0088152504 0.076577261 0.064129278 -0.38593423 0.23852047 0.14741376
0.0081920186 0.076109648 0.064172506 -0.38593423 0.23852047 0.14741376
0.0075751799 0.075640723 0.064214669 -0.38593423 0.23852047 0.14741376
0.0069721821 0.075167336 0.064254187 -0.38593423 0.23852047 0.14741376
0.0064417473 0.074664898 0.06427861 -0.38593423 0.23852047 0.14741376
0.0059120292 0.074163139 0.064303115 -0.38593423 0.23852047 0.14741376
0.0053969934 0.073656172 0.064324751 -0.38593423 0.23852047 0.14741376
0.0049446253 0.073123604 0.064333305 -0.38593423 0.23852047 0.14741376
0.0044926861 0.072591543 0.06434197 -0.38593423 0.23852047 0.14741376
0.004046957 0.072057508 0.064349517 -0.38593423 0.23852047 0.14741376
0.0036663825 0.071496204 0.064343378 -0.38593423 0.23852047 0.14741376
0.0032860248 0.07093522 0.064337365 -0.38593423 0.23852047 0.14741376
0.0029058822 0.070374556 0.064331472 -0.38593423 0.23852047 0.14741376
0.00258567 0.069788262 0.064312942 -0.38593423 0.23852047 0.14741376
0.0022731551 0.069198802 0.064292908 -0.38593423 0.23852047 0.14741376
0.0019607046 0.068609454 0.064273 -0.38593423 0.23852047 0.14741376
0.0016906401 0.068001613 0.064244136 -0.38593423 0.23852047 0.14741376
0.0014442811 0.067383282 0.064210303 -0.38593423 0.23852047 0.14741376
0.0011978851 0.066764854 0.064176589 -0.38593423 0.23852047 0.14741376
0.00097720977 0.066134855 0.064137451 -0.38593423 0.23852047 0.14741376
0.00079718075 0.065486461 0.064089648 -0.38593423 0.23852047 0.14741376
0.00061706052 0.064837739 0.06404195 -0.38593423 0.23852047 0.14741376
0.00044857044 0.064183392 0.063991822 -0.38593423 0.23852047 0.14741376
0.0003369973 0.063502833 0.063929461 -0.38593423 0.23852047 0.14741376
0.00022532624 0.062821679 0.063867174 -0.38593423 0.23852047 0.14741376
0.00011596293 0.062138826 0.063804425 -0.38593423 0.23852047 0.14741376
7.71493e-05 0.061422944 0.06372644 -0.38593423 0.23852047 0.14741376
3.8286318e-05 0.060706154 0.06364847 -0.38593423 0.23852047 0.14741376
6.5851555e-07 0.059987854 0.063570246 -0.38593423 0.23852047 0.14741376
4.1634441e-05 0.059232093 0.063474946 -0.38593423 0.23852047 0.14741376
8.2680141e-05 0.058475044 0.063379601 -0.38593423 0.23852047 0.14741376
0.00013816514 0.057709973 0.063281089 -0.38593423 0.23852047 0.14741376
0.00026967147 0.056907829 0.06316597 -0.38593423 0.23852047 0.14741376
0.00040146583 0.05610393 0.063050717 -0.38593423 0.23852047 0.14741376
0.0005862345 0.055273283 0.062923819 -0.38593423 0.23852047 0.14741376
0.00082443893 0.054415364 0.062785134 -0.38593423 0.23852047 0.14741376
0.0010720913 0.053550873 0.062644273 -0.38593423 0.23852047 0.14741376
0.0014404369 0.052626368 0.062476829 -0.38593423 0.23852047 0.14741376
0.0018100517 0.051698677 0.062308934 -0.38593423 0.23852047 0.14741376
0.0023287938 0.050696254 0.062108096 -0.38593423 0.23852047 0.14741376
0.0028686111 0.049680419 0.061902385 -0.38593423 0.23852047 0.14741376
0.0036342421 0.048551198 0.061646707 -0.38593423 0.23852047 0.14741376
0.0045451499 0.047346696 0.06135866 -0.38593423 0.23852047 0.14741376
0.0057442263 0.045995805 0.061006624 -0.38593423 0.23852047 0.14741376
0.0076954118 0.044267874 0.060487948 -0.38593423 0.23852047 0.14741376
0.022883698 0.079774782 0.061557353 -0.38593423 0.23852047 0.14741376
0.020467181 0.079978541 0.061973248 -0.38593423 0.23852047 0.14741376
0.018677119 0.079944581 0.062258396 -0.38593423 0.23852047 0.14741376
0.017218053 0.079785854 0.062474627 -0.38593423 0.23852047 0.14741376
0.015947836 0.079556778 0.062651686 -0.38593423 0.23852047 0.14741376
0.014765345 0.079296522 0.062810808 -0.38593423 0.23852047 0.14741376
0.013756734 0.078970216 0.062933721 -0.38593423 0.23852047 0.14741376
0.012770183 0.078637786 0.063052423 -0.38593423 0.23852047 0.14741376
0.011904852 0.078259185 0.063145906 -0.38593423 0.23852047 0.14741376
0.011067137 0.077871613 0.063233927 -0.38593423 0.23852047 0.14741376
0.010286997 0.077462748 0.063310102 -0.38593423 0.23852047 0.14741376
0.0095686549 0.077030554 0.063373514 -0.38593423 0.23852047 0.14741376
0.0088519668 0.076599352 0.063436896 -0.38593423 0.23852047 0.14741376
0.0082234023 0.076133512 0.063481845 -0.38593423 0.23852047 0.14741376
0.0076062069 0.075664312 0.063524656 -0.38593423 0.23852047 0.14741376
0.0069986461 0.075192407 0.063565694 -0.38593423 0.23852047 0.14741376
0.0064679165 0.074689686 0.063590594 -0.38593423 0.23852047 0.14741376
0.0059379051 0.074187651 0.063615583 -0.38593423 0.23852047 0.14741376
0.0054188953 0.073681951 0.063638456 -0.38593423 0.23852047 0.14741376
0.004966286 0.0731491 0.063647345 -0.38593423 0.23852047 0.14741376
0.0045141056 0.072616756 0.063656338 -0.38593423 0.23852047 0.14741376
0.0040648221 0.072083861 0.063664921 -0.38593423 0.23852047 0.14741376
0.0036840513 0.071522266 0.063658975 -0.38593423 0.23852047 0.14741376
0.003303498 0.070960991 0.063653156 -0.38593423 0.23852047 0.14741376
0.0029231601 0.070400037 0.063647464 -0.38593423 0.23852047 0.14741376
0.0025997269 0.069814779 0.063629664 -0.38593423 0.23852047 0.14741376
0.0022870563 0.069225021 0.063609697 -0.38593423 0.23852047 0.14741376
0.0019744502 0.068635382 0.063589849 -0.38593423 0.23852047 0.14741376
0.001701358 0.06802851 0.063561596 -0.38593423 0.23852047 0.14741376
0.0014548801 0.06740988 0.063527696 -0.38593423 0.23852047 0.14741376
0.0012083653 0.066791162 0.063493915 -0.38593423 0.23852047 0.14741376
0.00098477642 0.066162109 0.063455276 -0.38593423 0.23852047 0.14741376
0.00080466317 0.06551341 0.06340728 -0.38593423 0.23852047 0.14741376
0.0006244586 0.064864382 0.063359387 -0.38593423 0.23852047 0.14741376
0.00045309533 0.064210989 0.063309647 -0.38593423 0.23852047 0.14741376
0.00034147149 0.063530125 0.063246965 -0.38593423 0.23852047 0.14741376
0.00022974968 0.062848665 0.063184343 -0.38593423 0.23852047 0.14741376
0.00011792924 0.062166598 0.063121796 -0.38593423 0.23852047 0.14741376
7.864902e-05 0.061450608 0.06304343 -0.38593423 0.23852047 0.14741376
3.97689e-05 0.060733497 0.062964998 -0.38593423 0.23852047 0.14741376
8.3911743e-07 0.060015477 0.062886581 -0.38593423 0.23852047 0.14741376
4.011111e-05 0.05926019 0.062791035 -0.38593423 0.23852047 0.14741376
8.1174345e-05 0.058502816 0.062695071 -0.38593423 0.23852047 0.14741376
0.00013341451 0.057738949 0.062596619 -0.38593423 0.23852047 0.14741376
0.00026497498 0.056936476 0.062480699 -0.38593423 0.23852047 0.14741376
0.00039682369 0.056132246 0.062364645 -0.38593423 0.23852047 0.14741376
0.00057798176 0.055303007 0.062237654 -0.38593423 0.23852047 0.14741376
0.00081628043 0.054444749 0.06209797 -0.38593423 0.23852047 0.14741376
0.0010596949 0.053581987 0.061957039 -0.38593423 0.23852047 0.14741376
0.0014281789 0.052657135 0.061788343 -0.38593423 0.23852047 0.14741376
0.001797933 0.051729091 0.061619189 -0.38593423 0.23852047 0.14741376
0.0023114821 0.050728906 0.061418004 -0.38593423 0.23852047 0.14741376
0.0028498 0.049713537 0.061211087 -0.38593423 0.23852047 0.14741376
0.0036102445 0.048586592 0.060954615 -0.38593423 0.23852047 0.14741376
0.0045111086 0.047386773 0.060666591 -0.38593423 0.23852047 0.14741376
0.0056934394 0.04604391 0.060315546 -0.38593423 0.23852047 0.14741376
0.0076094996 0.044333186 0.05980061 -0.38593423 0.23852047 0.14741376
0.023034776 0.079758346 0.060821965 -0.38593423 0.23852047 0.14741376
0.020572187 0.079979248 0.061251268 -0.38593423 0.23852047 0.14741376
0.018759362 0.079953529 0.061543822 -0.38593423 0.23852047 0.14741376
0.017299103 0.079794668 0.061762322 -0.38593423 0.23852047 0.14741376
0.016013289 0.079571187 0.061944388 -0.38593423 0.23852047 0.14741376
0.014829924 0.079310738 0.062105238 -0.38593423 0.23852047 0.14741376
0.013810353 0.078988284 0.062231727 -0.38593423 0.23852047 0.14741376
0.012823128 0.07865563 0.062351782 -0.38593423 0.23852047 0.14741376
0.011949547 0.07827986 0.062448021 -0.38593423 0.23852047 0.14741376
0.011111296 0.077892043 0.062537111 -0.38593423 0.23852047 0.14741376
0.01032461 0.077485375 0.062615544 -0.38593423 0.23852047 0.14741376
0.0096058324 0.077052921 0.06267979 -0.38593423 0.23852047 0.14741376
0.0088887094 0.076621458 0.062744014 -0.38593423 0.23852047 0.14741376
0.0082548084 0.076157384 0.062790692 -0.38593423 0.23852047 0.14741376
0.0076372554 0.075687915 0.062834151 -0.38593423 0.23852047 0.14741376
0.0070251278 0.075217485 0.062876724 -0.38593423 0.23852047 0.14741376
0.0064941039 0.074714489 0.062902108 -0.38593423 0.23852047 0.14741376
0.0059637986 0.074212179 0.062927581 -0.38593423 0.23852047 0.14741376
0.0054408121 0.073707759 0.062951714 -0.38593423 0.23852047 0.14741376
0.0049879611 0.073174618 0.06296093 -0.38593423 0.23852047 0.14741376
0.0045355395 0.072641991 0.062970258 -0.38593423 0.23852047 0.14741376
0.0040835445 0.072109863 0.062979698 -0.38593423 0.23852047 0.14741376
0.0037017318 0.071548343 0.062974133 -0.38593423 0.23852047 0.14741376
0.0033209827 0.070986778 0.062968507 -0.38593423 0.23852047 0.14741376
0.0029404489 0.070425533 0.062963009 -0.38593423 0.23852047 0.14741376
0.0026137924 0.06984131 0.062945962 -0.38593423 0.23852047 0.14741376
0.0023009663 0.069251254 0.062926054 -0.38593423 0.23852047 0.14741376
0.0019882044 0.068661325 0.062906273 -0.38593423 0.23852047 0.14741376
0.0017120824 0.068055429 0.062878639 -0.38593423 0.23852047 0.14741376
0.0014654855 0.067436501 0.062844671 -0.38593423 0.23852047 0.14741376
0.0012188518 0.066817477 0.062810831 -0.38593423 0.23852047 0.14741376
0.0009923476 0.066189378 0.062772691 -0.38593423 0.23852047 0.14741376
0.00081215007 0.065540373 0.062724501 -0.38593423 0.23852047 0.14741376
0.0006318611 0.06489104 0.062676415 -0.38593423 0.23852047 0.14741376
0.00045762284 0.064238608 0.062627077 -0.38593423 0.23852047 0.14741376
0.0003459483 0.063557431 0.062564068 -0.38593423 0.23852047 0.14741376
0.00023417572 0.062875658 0.062501118 -0.38593423 0.23852047 0.14741376
0.00012230442 0.062193286 0.062438238 -0.38593423 0.23852047 0.14741376
8.0149592e-05 0.061478283 0.062360041 -0.38593423 0.23852047 0.14741376
4.125233e-05 0.060760859 0.062281135 -0.38593423 0.23852047 0.14741376
2.3053606e-06 0.060042519 0.062202249 -0.38593423 0.23852047 0.14741376
3.8586935e-05 0.059288301 0.062106743 -0.38593423 0.23852047 0.14741376
7.9667712e-05 0.058530606 0.062010154 -0.38593423 0.23852047 0.14741376
0.0001286613 0.057767943 0.06191178 -0.38593423 0.23852047 0.14741376
0.00026027593 0.056965139 0.06179506 -0.38593423 0.23852047 0.14741376
0.00039217906 0.056160573 0.061678201 -0.38593423 0.23852047 0.14741376
0.00056972471 0.055332746 0.061551135 -0.38593423 0.23852047 0.14741376
0.00080811762 0.054474149 0.061410442 -0.38593423 0.23852047 0.14741376
0.0010472923 0.053613119 0.061269458 -0.38593423 0.23852047 0.14741376
0.0014159146 0.052687917 0.061099507 -0.38593423 0.23852047 0.14741376
0.0017858081 0.051759522 0.060929094 -0.38593423 0.23852047 0.14741376
0.0022941618 0.050761577 0.060727581 -0.38593423 0.23852047 0.14741376
0.0028326698 0.049745847 0.060519084 -0.38593423 0.23852047 0.14741376
0.0035862359 0.048622005 0.060262214 -0.38593423 0.23852047 0.14741376
0.0044770539 0.047426865 0.059974246 -0.38593423 0.23852047 0.14741376
0.0056426371 0.046092033 0.059624255 -0.38593423 0.23852047 0.14741376
0.0075235758 0.044398509 0.059113178 -0.38593423 0.23852047 0.14741376
0.023186047 0.079741895 0.060085632 -0.38593423 0.23852047 0.14741376
0.020677308 0.079979949 0.06052852 -0.38593423 0.23852047 0.14741376
0.018841686 0.079962485 0.06082857 -0.38593423 0.23852047 0.14741376
0.017380228 0.079803497 0.061049338 -0.38593423 0.23852047 0.14741376
0.016078802 0.079585604 0.061236475 -0.38593423 0.23852047 0.14741376
0.01489456 0.079324961 0.061399058 -0.38593423 0.23852047 0.14741376
0.013864016 0.079006366 0.061529163 -0.38593423 0.23852047 0.14741376
0.012876116 0.078673482 0.061650574 -0.38593423 0.23852047 0.14741376
0.011994277 0.078300558 0.061749604 -0.38593423 0.23852047 0.14741376
0.011155488 0.077912487 0.061839759 -0.38593423 0.23852047 0.14741376
0.010362253 0.077508025 0.061920468 -0.38593423 0.23852047 0.14741376
0.0096430369 0.077075303 0.06198556 -0.38593423 0.23852047 0.14741376
0.0089254798 0.076643579 0.062050615 -0.38593423 0.23852047 0.14741376
0.0082862359 0.076181278 0.062099054 -0.38593423 0.23852047 0.14741376
0.0076683261 0.075711533 0.062143158 -0.38593423 0.23852047 0.14741376
0.0070516281 0.075242586 0.062187284 -0.38593423 0.23852047 0.14741376
0.0065203095 0.074739315 0.062213153 -0.38593423 0.23852047 0.14741376
0.0059897099 0.074236721 0.062239103 -0.38593423 0.23852047 0.14741376
0.0054627429 0.073733576 0.062264506 -0.38593423 0.23852047 0.14741376
0.0050096503 0.073200151 0.062274057 -0.38593423 0.23852047 0.14741376
0.0045569874 0.072667241 0.062283721 -0.38593423 0.23852047 0.14741376
0.0041047516 0.07213483 0.062293492 -0.38593423 0.23852047 0.14741376
0.0037194237 0.071574435 0.062288851 -0.38593423 0.23852047 0.14741376
0.0033384785 0.071012586 0.062283419 -0.38593423 0.23852047 0.14741376
0.0029577489 0.070451051 0.062278111 -0.38593423 0.23852047 0.14741376
0.0026278668 0.069867857 0.062261831 -0.38593423 0.23852047 0.14741376
0.0023148849 0.06927751 0.062241986 -0.38593423 0.23852047 0.14741376
0.0020019673 0.068687283 0.062222265 -0.38593423 0.23852047 0.14741376
0.0017228135 0.068082362 0.062195256 -0.38593423 0.23852047 0.14741376
0.0014760975 0.067463137 0.062161233 -0.38593423 0.23852047 0.14741376
0.0012293448 0.066843815 0.062127322 -0.38593423 0.23852047 0.14741376
0.00099992345 0.066216663 0.062089693 -0.38593423 0.23852047 0.14741376
0.00081964146 0.065567359 0.062041316 -0.38593423 0.23852047 0.14741376
0.00063926808 0.064917721 0.061993033 -0.38593423 0.23852047 0.14741376
0.00046215302 0.064266242 0.061944105 -0.38593423 0.23852047 0.14741376
0.00035042776 0.063584752 0.061880767 -0.38593423 0.23852047 0.14741376
0.00023860435 0.062902674 0.061817493 -0.38593423 0.23852047 0.14741376
0.00012668216 0.062219989 0.061754283 -0.38593423 0.23852047 0.14741376
8.1651022e-05 0.061505977 0.061676256 -0.38593423 0.23852047 0.14741376
4.273661e-05 0.060788237 0.061596882 -0.38593423 0.23852047 0.14741376
3.7724469e-06 0.06006958 0.061517522 -0.38593423 0.23852047 0.14741376
3.7061905e-05 0.059316427 0.061422072 -0.38593423 0.23852047 0.14741376
7.8160228e-05 0.058558408 0.061324853 -0.38593423 0.23852047 0.14741376
0.0001239055 0.057796951 0.061226565 -0.38593423 0.23852047 0.14741376
0.00025557433 0.056993816 0.061109044 -0.38593423 0.23852047 0.14741376
0.00038753188 0.056188922 0.060991384 -0.38593423 0.23852047 0.14741376
0.0005614633 0.0553625 0.060864251 -0.38593423 0.23852047 0.14741376
0.0007999505 0.054503564 0.060722552 -0.38593423 0.23852047 0.14741376
0.0010390969 0.053642251 0.060580581 -0.38593423 0.23852047 0.14741376
0.0014036441 0.052718714 0.060410321 -0.38593423 0.23852047 0.14741376
0.0017736771 0.051789973 0.060238648 -0.38593423 0.23852047 0.14741376
0.0022768334 0.050794262 0.060036823 -0.38593423 0.23852047 0.14741376
0.0028155309 0.049778175 0.059826747 -0.38593423 0.23852047 0.14741376
0.0035622164 0.048657428 0.059569497 -0.38593423 0.23852047 0.14741376
0.0044429856 0.047466971 0.059281617 -0.38593423 0.23852047 0.14741376
0.0055918181 0.046140168 0.05893274 -0.38593423 0.23852047 0.14741376
0.0074376394 0.044463836 0.058425646 -0.38593423 0.23852047 0.14741376
0.023405071 0.079699203 0.059333816 -0.38593423 0.23852047 0.14741376
0.020787589 0.07997869 0.059803918 -0.38593423 0.23852047 0.14741376
0.018925432 0.079970926 0.060112346 -0.38593423 0.23852047 0.14741376
0.017461432 0.079812333 0.060335681 -0.38593423 0.23852047 0.14741376
0.016144369 0.079600036 0.060527939 -0.38593423 0.23852047 0.14741376
0.014959252 0.079339199 0.060692254 -0.38593423 0.23852047 0.14741376
0.013917723 0.079024456 0.060826022 -0.38593423 0.23852047 0.14741376
0.012929147 0.078691348 0.060948789 -0.38593423 0.23852047 0.14741376
0.012039041 0.078321263 0.061050639 -0.38593423 0.23852047 0.14741376
0.011199715 0.077932946 0.061141867 -0.38593423 0.23852047 0.14741376
0.010399922 0.07753069 0.061224878 -0.38593423 0.23852047 0.14741376
0.0096802693 0.077097706 0.061290808 -0.38593423 0.23852047 0.14741376
0.0089622773 0.076665722 0.061356708 -0.38593423 0.23852047 0.14741376
0.0083176866 0.076205187 0.061406918 -0.38593423 0.23852047 0.14741376
0.0076994193 0.075735167 0.061451674 -0.38593423 0.23852047 0.14741376
0.0070822625 0.075265996 0.061496466 -0.38593423 0.23852047 0.14741376
0.0065465327 0.074764155 0.061523721 -0.38593423 0.23852047 0.14741376
0.0060156393 0.074261278 0.061550155 -0.38593423 0.23852047 0.14741376
0.005485462 0.073759086 0.061576672 -0.38593423 0.23852047 0.14741376
0.0050313543 0.073225707 0.06158673 -0.38593423 0.23852047 0.14741376
0.0045784498 0.072692506 0.061596725 -0.38593423 0.23852047 0.14741376
0.0041259732 0.072159812 0.061606824 -0.38593423 0.23852047 0.14741376
0.0037371269 0.071600541 0.061603118 -0.38593423 0.23852047 0.14741376
0.0033559855 0.071038403 0.061597884 -0.38593423 0.23852047 0.14741376
0.0029750604 0.070476584 0.061592769 -0.38593423 0.23852047 0.14741376
0.00264195 0.069894418 0.06157726 -0.38593423 0.23852047 0.14741376
0.0023288124 0.069303781 0.061557479 -0.38593423 0.23852047 0.14741376
0.002015739 0.068713263 0.061537821 -0.38593423 0.23852047 0.14741376
0.0017335512 0.068109311 0.061511453 -0.38593423 0.23852047 0.14741376
0.0014867161 0.067489788 0.061477367 -0.38593423 0.23852047 0.14741376
0.0012398442 0.066870168 0.061443388 -0.38593423 0.23852047 0.14741376
0.0010075037 0.066243961 0.061406285 -0.38593423 0.23852047 0.14741376
0.00082713744 0.065594353 0.061357714 -0.38593423 0.23852047 0.14741376
0.00064667949 0.064944416 0.061309237 -0.38593423 0.23852047 0.14741376
0.00046668586 0.064293891 0.061260726 -0.38593423 0.23852047 0.14741376
0.00035490986 0.063612096 0.061197065 -0.38593423 0.23852047 0.14741376
0.00024303561 0.062929705 0.061133463 -0.38593423 0.23852047 0.14741376
0.00013106251 0.062246706 0.061069921 -0.38593423 0.23852047 0.14741376
8.3153325e-05 0.061533686 0.060992077 -0.38593423 0.23852047 0.14741376
4.422175e-05 0.060815629 0.060912229 -0.38593423 0.23852047 0.14741376
5.2403843e-06 0.060096651 0.060832396 -0.38593423 0.23852047 0.14741376
3.5536013e-05 0.059344571 0.06073701 -0.38593423 0.23852047 0.14741376
7.6651893e-05 0.058586229 0.060639165 -0.38593423 0.23852047 0.14741376
0.00011914709 0.057825975 0.060540974 -0.38593423 0.23852047 0.14741376
0.00025087013 0.057022512 0.060422651 -0.38593423 0.23852047 0.14741376
0.00038288214 0.056217283 0.060304187 -0.38593423 0.23852047 0.14741376
0.00055319746 0.055392273 0.060176998 -0.38593423 0.23852047 0.14741376
0.00079177902 0.054532994 0.060034294 -0.38593423 0.23852047 0.14741376
0.0010310202 0.053671338 0.05989131 -0.38593423 0.23852047 0.14741376
0.0013913673 0.052749526 0.059720781 -0.38593423 0.23852047 0.14741376
0.0017615397 0.051820435 0.059547842 -0.38593423 0.23852047 0.14741376
0.0022594964 0.050826963 0.059345726 -0.38593423 0.23852047 0.14741376
0.0027983838 0.049810518 0.059134062 -0.38593423 0.23852047 0.14741376
0.0035381862 0.048692871 0.058876462 -0.38593423 0.23852047 0.14741376
0.0044089034 0.047507096 0.05858871 -0.38593423 0.23852047 0.14741376
0.0055409828 0.046188321 0.058241002 -0.38593423 0.23852047 0.14741376
0.0073516909 0.044529177 0.057738014 -0.38593423 0.23852047 0.14741376
0.023657376 0.079643674 0.058573633 -0.38593423 0.23852047 0.14741376
0.020902745 0.079975575 0.059077486 -0.38593423 0.23852047 0.14741376
0.019024018 0.079973593 0.059392218 -0.38593423 0.23852047 0.14741376
0.017542712 0.079821169 0.059621338 -0.38593423 0.23852047 0.14741376
0.016209995 0.079614483 0.059818778 -0.38593423 0.23852047 0.14741376
0.015024001 0.079353452 0.059984833 -0.38593423 0.23852047 0.14741376
0.013971474 0.079042569 0.060122304 -0.38593423 0.23852047 0.14741376
0.012982221 0.078709237 0.06024643 -0.38593423 0.23852047 0.14741376
0.012083841 0.078341991 0.06035113 -0.38593423 0.23852047 0.14741376
0.011243976 0.077953428 0.060443427 -0.38593423 0.23852047 0.14741376
0.01043762 0.077553369 0.060528766 -0.38593423 0.23852047 0.14741376
0.0097175296 0.077120125 0.060595542 -0.38593423 0.23852047 0.14741376
0.0089991018 0.076687872 0.060662281 -0.38593423 0.23852047 0.14741376
0.0083491597 0.07622911 0.060714286 -0.38593423 0.23852047 0.14741376
0.0077305348 0.075758822 0.06075969 -0.38593423 0.23852047 0.14741376
0.0071130213 0.075289384 0.060805131 -0.38593423 0.23852047 0.14741376
0.0065727741 0.07478901 0.060833808 -0.38593423 0.23852047 0.14741376
0.0060415864 0.074285857 0.060860727 -0.38593423 0.23852047 0.14741376
0.0055111158 0.073783383 0.060887724 -0.38593423 0.23852047 0.14741376
0.0050530727 0.073251277 0.060898934 -0.38593423 0.23852047 0.14741376
0.0045999265 0.072717793 0.060909264 -0.38593423 0.23852047 0.14741376
0.0041472088 0.072184816 0.060919698 -0.38593423 0.23852047 0.14741376
0.0037548419 0.071626671 0.060916938 -0.38593423 0.23852047 0.14741376
0.0033735044 0.071064241 0.060911898 -0.38593423 0.23852047 0.14741376
0.0029923832 0.070502132 0.06090698 -0.38593423 0.23852047 0.14741376
0.0026560426 0.069921002 0.060892254 -0.38593423 0.23852047 0.14741376
0.0023427487 0.069330066 0.06087254 -0.38593423 0.23852047 0.14741376
0.0020295195 0.068739258 0.060852941 -0.38593423 0.23852047 0.14741376
0.0017442955 0.068136282 0.060827225 -0.38593423 0.23852047 0.14741376
0.0014973413 0.067516454 0.060793072 -0.38593423 0.23852047 0.14741376
0.0012503503 0.066896535 0.06075903 -0.38593423 0.23852047 0.14741376
0.0010150888 0.066271283 0.060722459 -0.38593423 0.23852047 0.14741376
0.0008346379 0.065621369 0.060673695 -0.38593423 0.23852047 0.14741376
0.00065409549 0.064971119 0.060625024 -0.38593423 0.23852047 0.14741376
0.00047346053 0.064320542 0.060576443 -0.38593423 0.23852047 0.14741376
0.00035939462 0.063639447 0.060512953 -0.38593423 0.23852047 0.14741376
0.00024746952 0.06295675 0.060449023 -0.38593423 0.23852047 0.14741376
0.00013544547 0.062273439 0.060385149 -0.38593423 0.23852047 0.14741376
8.4656502e-05 0.061561409 0.060307495 -0.38593423 0.23852047 0.14741376
4.5707759e-05 0.060843036 0.060227178 -0.38593423 0.23852047 0.14741376
6.709181e-06 0.060123742 0.060146872 -0.38593423 0.23852047 0.14741376
3.4009252e-05 0.059372731 0.06005156 -0.38593423 0.23852047 0.14741376
7.5142692e-05 0.058614064 0.059953086 -0.38593423 0.23852047 0.14741376
0.00011634657 0.057854097 0.05985456 -0.38593423 0.23852047 0.14741376
0.00024616331 0.057051219 0.059735879 -0.38593423 0.23852047 0.14741376
0.0003782298 0.056245659 0.059616607 -0.38593423 0.23852047 0.14741376
0.00054492714 0.055422056 0.059489377 -0.38593423 0.23852047 0.14741376
0.00078360311 0.054562438 0.059345663 -0.38593423 0.23852047 0.14741376
0.0010229392 0.053700443 0.059201665 -0.38593423 0.23852047 0.14741376
0.0013790841 0.052780356 0.059030883 -0.38593423 0.23852047 0.14741376
0.0017493961 0.051850915 0.058856677 -0.38593423 0.23852047 0.14741376
0.0022421507 0.050859679 0.058654282 -0.38593423 0.23852047 0.14741376
0.0027812282 0.049842875 0.058441039 -0.38593423 0.23852047 0.14741376
0.0035141446 0.048728332 0.058183108 -0.38593423 0.23852047 0.14741376
0.0043748072 0.047547236 0.057895519 -0.38593423 0.23852047 0.14741376
0.0054901312 0.046236489 0.057549041 -0.38593423 0.23852047 0.14741376
0.0072657289 0.044594526 0.05705028 -0.38593423 0.23852047 0.14741376
0.023910131 0.079588041 0.057812091 -0.38593423 0.23852047 0.14741376
0.02101803 0.079972453 0.058350235 -0.38593423 0.23852047 0.14741376
0.019122709 0.079976261 0.058671337 -0.38593423 0.23852047 0.14741376
0.017624071 0.079830021 0.058906309 -0.38593423 0.23852047 0.14741376
0.016275682 0.079628937 0.059108987 -0.38593423 0.23852047 0.14741376
0.015088807 0.079367712 0.059276789 -0.38593423 0.23852047 0.14741376
0.014025269 0.079060696 0.059418 -0.38593423 0.23852047 0.14741376
0.01303534 0.078727134 0.059543487 -0.38593423 0.23852047 0.14741376
0.012128675 0.078362733 0.059651069 -0.38593423 0.23852047 0.14741376
0.011288271 0.077973917 0.059744444 -0.38593423 0.23852047 0.14741376
0.010475346 0.077576071 0.05983213 -0.38593423 0.23852047 0.14741376
0.0097548179 0.077142559 0.059899751 -0.38593423 0.23852047 0.14741376
0.0090359543 0.076710045 0.059967332 -0.38593423 0.23852047 0.14741376
0.0083806561 0.076253057 0.060021151 -0.38593423 0.23852047 0.14741376
0.0077616726 0.075782493 0.060067207 -0.38593423 0.23852047 0.14741376
0.007143802 0.075312778 0.060113296 -0.38593423 0.23852047 0.14741376
0.0065990342 0.07481388 0.060143411 -0.38593423 0.23852047 0.14741376
0.0060675521 0.074310452 0.060170814 -0.38593423 0.23852047 0.14741376
0.0055367872 0.073807701 0.060198296 -0.38593423 0.23852047 0.14741376
0.0050748056 0.073276863 0.060210675 -0.38593423 0.23852047 0.14741376
0.0046214182 0.072743095 0.060221337 -0.38593423 0.23852047 0.14741376
0.0041684592 0.072209835 0.060232103 -0.38593423 0.23852047 0.14741376
0.0037725687 0.071652815 0.060230304 -0.38593423 0.23852047 0.14741376
0.0033910347 0.071090095 0.060225461 -0.38593423 0.23852047 0.14741376
0.0030097172 0.070527695 0.060220733 -0.38593423 0.23852047 0.14741376
0.002670144 0.0699476 0.060206804 -0.38593423 0.23852047 0.14741376
0.0023566941 0.069356367 0.060187154 -0.38593423 0.23852047 0.14741376
0.0020433089 0.068765268 0.060167622 -0.38593423 0.23852047 0.14741376
0.0017550467 0.068163268 0.060142566 -0.38593423 0.23852047 0.14741376
0.0015079733 0.067543142 0.060108345 -0.38593423 0.23852047 0.14741376
0.001260863 0.066922918 0.060074236 -0.38593423 0.23852047 0.14741376
0.0010226783 0.066298619 0.060038213 -0.38593423 0.23852047 0.14741376
0.00084214308 0.065648399 0.059989255 -0.38593423 0.23852047 0.14741376
0.00066151604 0.064997852 0.059940387 -0.38593423 0.23852047 0.14741376
0.00048079641 0.064346962 0.059891608 -0.38593423 0.23852047 0.14741376
0.00036388211 0.063666821 0.05982843 -0.38593423 0.23852047 0.14741376
0.00025190611 0.062983811 0.059764169 -0.38593423 0.23852047 0.14741376
0.00013983107 0.06230019 0.059699964 -0.38593423 0.23852047 0.14741376
8.6160573e-05 0.061589152 0.059622515 -0.38593423 0.23852047 0.14741376
4.7194644e-05 0.060870461 0.059541721 -0.38593423 0.23852047 0.14741376
8.1788439e-06 0.060150851 0.059460942 -0.38593423 0.23852047 0.14741376
3.248161e-05 0.059400905 0.059365716 -0.38593423 0.23852047 0.14741376
7.3632633e-05 0.058641914 0.059266612 -0.38593423 0.23852047 0.14741376
0.00011485414 0.057881624 0.059167452 -0.38593423 0.23852047 0.14741376
0.00024145388 0.057079945 0.05904872 -0.38593423 0.23852047 0.14741376
0.00037357485 0.056274053 0.058928642 -0.38593423 0.23852047 0.14741376
0.0005366524 0.055451859 0.058801383 -0.38593423 0.23852047 0.14741376
0.00077542278 0.054591902 0.058656655 -0.38593423 0.23852047 0.14741376
0.0010148538 0.053729564 0.058511641 -0.38593423 0.23852047 0.14741376
0.0013667943 0.052811202 0.05834062 -0.38593423 0.23852047 0.14741376
0.0017372461 0.05188141 0.058165148 -0.38593423 0.23852047 0.14741376
0.0022247965 0.050892413 0.057962496 -0.38593423 0.23852047 0.14741376
0.0027640639 0.049875252 0.057747662 -0.38593423 0.23852047 0.14741376
0.0034900918 0.048763804 0.057489429 -0.38593423 0.23852047 0.14741376
0.0043406966 0.047587395 0.057202034 -0.38593423 0.23852047 0.14741376
0.0054529528 0.046277948 0.056853678 -0.38593423 0.23852047 0.14741376
0.0071797539 0.044659887 0.056362435 -0.38593423 0.23852047 0.14741376
0.024163343 0.07953231 0.057049181 -0.38593423 0.23852047 0.14741376
0.021148192 0.079963587 0.057618912 -0.38593423 0.23852047 0.14741376
0.019221503 0.079978935 0.057949696 -0.38593423 0.23852047 0.14741376
0.017705509 0.079838887 0.058190588 -0.38593423 0.23852047 0.14741376
0.016341424 0.079643406 0.058398567 -0.38593423 0.23852047 0.14741376
0.015153671 0.079381987 0.058568113 -0.38593423 0.23852047 0.14741376
0.01407911 0.079078838 0.058713105 -0.38593423 0.23852047 0.14741376
0.013088503 0.078745045 0.058839958 -0.38593423 0.23852047 0.14741376
0.012173546 0.078383498 0.058950454 -0.38593423 0.23852047 0.14741376
0.011332602 0.077994429 0.059044905 -0.38593423 0.23852047 0.14741376
0.010513101 0.077598788 0.059134964 -0.38593423 0.23852047 0.14741376
0.0097921351 0.077165008 0.059203431 -0.38593423 0.23852047 0.14741376
0.0090728346 0.076732233 0.059271857 -0.38593423 0.23852047 0.14741376
0.0084121749 0.076277018 0.059327509 -0.38593423 0.23852047 0.14741376
0.0077928328 0.075806186 0.059374221 -0.38593423 0.23852047 0.14741376
0.0071746055 0.075336196 0.059420958 -0.38593423 0.23852047 0.14741376
0.0066253128 0.074838772 0.05945253 -0.38593423 0.23852047 0.14741376
0.0060935356 0.074335068 0.059480418 -0.38593423 0.23852047 0.14741376
0.0055624773 0.073832035 0.05950838 -0.38593423 0.23852047 0.14741376
0.0050965538 0.073302463 0.05952194 -0.38593423 0.23852047 0.14741376
0.0046429243 0.072768413 0.059532937 -0.38593423 0.23852047 0.14741376
0.0041897236 0.072234869 0.059544038 -0.38593423 0.23852047 0.14741376
0.0037903071 0.071678981 0.059543211 -0.38593423 0.23852047 0.14741376
0.0034085766 0.071115971 0.059538562 -0.38593423 0.23852047 0.14741376
0.0030270631 0.07055328 0.059534032 -0.38593423 0.23852047 0.14741376
0.0026842547 0.069974214 0.059520911 -0.38593423 0.23852047 0.14741376
0.0023706486 0.06938269 0.059501324 -0.38593423 0.23852047 0.14741376
0.0020571072 0.068791293 0.059481852 -0.38593423 0.23852047 0.14741376
0.0017658046 0.068190269 0.05945747 -0.38593423 0.23852047 0.14741376
0.0015186119 0.067569844 0.059423186 -0.38593423 0.23852047 0.14741376
0.0012713823 0.066949323 0.05938901 -0.38593423 0.23852047 0.14741376
0.0010302727 0.06632597 0.059353542 -0.38593423 0.23852047 0.14741376
0.00084965286 0.065675445 0.05930439 -0.38593423 0.23852047 0.14741376
0.00066894118 0.065024592 0.059255328 -0.38593423 0.23852047 0.14741376
0.00048813687 0.064373404 0.059206348 -0.38593423 0.23852047 0.14741376
0.0003683723 0.063694209 0.059143491 -0.38593423 0.23852047 0.14741376
0.00025634537 0.063010886 0.059078898 -0.38593423 0.23852047 0.14741376
0.00014421935 0.062326957 0.059014365 -0.38593423 0.23852047 0.14741376
8.7665532e-05 0.061616909 0.058937125 -0.38593423 0.23852047 0.14741376
4.8682414e-05 0.060897902 0.058855858 -0.38593423 0.23852047 0.14741376
9.6493823e-06 0.060177971 0.058774602 -0.38593423 0.23852047 0.14741376
3.0953084e-05 0.059429098 0.058679473 -0.38593423 0.23852047 0.14741376
7.2121686e-05 0.058669783 0.058579739 -0.38593423 0.23852047 0.14741376
0.00011336084 0.057909168 0.058479946 -0.38593423 0.23852047 0.14741376
0.00023674175 0.057108689 0.058361173 -0.38593423 0.23852047 0.14741376
0.00036891727 0.056302462 0.058240287 -0.38593423 0.23852047 0.14741376
0.00052837306 0.05548168 0.058113012 -0.38593423 0.23852047 0.14741376
0.00076723791 0.05462138 0.057967268 -0.38593423 0.23852047 0.14741376
0.001006764 0.053758699 0.05782124 -0.38593423 0.23852047 0.14741376
0.0013544982 0.052842066 0.057649992 -0.38593423 0.23852047 0.14741376
0.0017250895 0.05191192 0.057473253 -0.38593423 0.23852047 0.14741376
0.0022074333 0.050925162 0.057270359 -0.38593423 0.23852047 0.14741376
0.0027468908 0.049907643 0.057053939 -0.38593423 0.23852047 0.14741376
0.0034660276 0.048799299 0.056795422 -0.38593423 0.23852047 0.14741376
0.0043065716 0.047627572 0.056508258 -0.38593423 0.23852047 0.14741376
0.0054191276 0.046317771 0.056157246 -0.38593423 0.23852047 0.14741376
0.0070937644 0.044725254 0.055674482 -0.38593423 0.23852047 0.14741376
0.024417011 0.079476483 0.05628489 -0.38593423 0.23852047 0.14741376
0.021297399 0.07994736 0.056882508 -0.38593423 0.23852047 0.14741376
0.0193204 0.07998161 0.057227295 -0.38593423 0.23852047 0.14741376
0.017787026 0.079847753 0.05747417 -0.38593423 0.23852047 0.14741376
0.016407227 0.07965789 0.057687506 -0.38593423 0.23852047 0.14741376
0.015218592 0.079396278 0.057858802 -0.38593423 0.23852047 0.14741376
0.014132996 0.079096995 0.05800762 -0.38593423 0.23852047 0.14741376
0.01314171 0.078762978 0.058135841 -0.38593423 0.23852047 0.14741376
0.012218452 0.07840427 0.05824928 -0.38593423 0.23852047 0.14741376
0.011376969 0.078014955 0.058344807 -0.38593423 0.23852047 0.14741376
0.010550885 0.07762152 0.058437265 -0.38593423 0.23852047 0.14741376
0.0098294802 0.077187479 0.058506582 -0.38593423 0.23852047 0.14741376
0.0091097439 0.076754443 0.058575854 -0.38593423 0.23852047 0.14741376
0.0084437169 0.076300994 0.058633357 -0.38593423 0.23852047 0.14741376
0.0078240167 0.075829893 0.058680721 -0.38593423 0.23852047 0.14741376
0.0072054318 0.075359635 0.058728114 -0.38593423 0.23852047 0.14741376
0.0066516101 0.074863687 0.058761157 -0.38593423 0.23852047 0.14741376
0.0061195381 0.074359693 0.058789529 -0.38593423 0.23852047 0.14741376
0.005588185 0.073856391 0.058817975 -0.38593423 0.23852047 0.14741376
0.005118317 0.073328085 0.058832731 -0.38593423 0.23852047 0.14741376
0.0046644453 0.072793752 0.058844063 -0.38593423 0.23852047 0.14741376
0.004211003 0.072259918 0.0588555 -0.38593423 0.23852047 0.14741376
0.0038080576 0.071705163 0.058855657 -0.38593423 0.23852047 0.14741376
0.0034261304 0.071141861 0.058851205 -0.38593423 0.23852047 0.14741376
0.0030444204 0.070578881 0.058846869 -0.38593423 0.23852047 0.14741376
0.0026983744 0.07000085 0.058834568 -0.38593423 0.23852047 0.14741376
0.0023846121 0.069409028 0.058815043 -0.38593423 0.23852047 0.14741376
0.0020709145 0.068817332 0.058795638 -0.38593423 0.23852047 0.14741376
0.0017765695 0.068217285 0.058771934 -0.38593423 0.23852047 0.14741376
0.0015292574 0.067596562 0.058737587 -0.38593423 0.23852047 0.14741376
0.0012819084 0.066975743 0.058703348 -0.38593423 0.23852047 0.14741376
0.0010378718 0.066353336 0.058668442 -0.38593423 0.23852047 0.14741376
0.00085716735 0.065702513 0.058619097 -0.38593423 0.23852047 0.14741376
