# .PCD v0.7 - Point Cloud Data file format
VERSION 0.7
FIELDS x y z vp_x vp_y vp_z
SIZE 4 4 4 4 4 4
TYPE F F F F F F
COUNT 1 1 1 1 1 1
WIDTH 1046
HEIGHT 1
VIEWPOINT 0 0 0 1 0 0 0
POINTS 1046
DATA ascii
0 0.004816717 0.020391168 -0.47704095 0 0
0 0.0040756445 0.020390874 -0.47704095 0 0
0 0.0033345912 0.020390628 -0.47704095 0 0
5.5511151e-17 0.0025935543 0.02039043 -0.47704095 0 0
5.5511151e-17 0.0018525298 0.020390283 -0.47704095 0 0
5.5511151e-17 0.0011115143 0.020390185 -0.47704095 0 0
0.0021246953 0.079999998 0.020008493 -0.47704095 0 0
5.5511151e-17 0.078883797 0.019914631 -0.47704095 0 0
0 0.07812272 0.01990954 -0.47704095 0 0
0 0.076601729 0.019899514 -0.47704095 0 0
0.026154824 0.079999998 0.020985339 -0.47704095 0 0
0.031245278 0.079999998 0.021192424 -0.47704095 0 0
5.5511151e-17 0.074323073 0.019884849 -0.47704095 0 0
0 0.072047725 0.019870639 -0.47704095 0 0
0 0.071289986 0.019866001 -0.47704095 0 0
5.5511151e-17 0.070532605 0.019861415 -0.47704095 0 0
0 0.069018885 0.019852392 -0.47704095 0 0
0 0.068262532 0.019847956 -0.47704095 0 0
5.5511151e-17 0.067506522 0.019843569 -0.47704095 0 0
0 0.066750839 0.019839231 -0.47704095 0 0
0 0.065995485 0.019834943 -0.47704095 0 0
0 0.065240458 0.019830706 -0.47704095 0 0
0 0.063731357 0.01982238 -0.47704095 0 0
0 0.062977277 0.019818291 -0.47704095 0 0
5.5511151e-17 0.061470047 0.019810261 -0.47704095 0 0
0 0.060716886 0.019806322 -0.47704095 0 0
0 0.059211452 0.019798588 -0.47704095 0 0
0 0.05845917 0.019794796 -0.47704095 0 0
0 0.056204032 0.019783713 -0.47704095 0 0
5.5511151e-17 0.055452876 0.019780116 -0.47704095 0 0
0 0.054701991 0.01977657 -0.47704095 0 0
0 0.053951371 0.019773072 -0.47704095 0 0
5.5511151e-17 0.053201016 0.019769622 -0.47704095 0 0
0 0.052450921 0.019766223 -0.47704095 0 0
0 0.050202157 0.019756313 -0.47704095 0 0
0 0.049453065 0.019753108 -0.47704095 0 0
0 0.047955599 0.019746844 -0.47704095 0 0
0 0.046459068 0.019740775 -0.47704095 0 0
0 0.045711145 0.019737812 -0.47704095 0 0
0 0.044963442 0.019734899 -0.47704095 0 0
0 0.044215962 0.019732034 -0.47704095 0 0
0 0.043468695 0.019729218 -0.47704095 0 0
0 0.042721637 0.019726448 -0.47704095 0 0
0 0.04197479 0.019723728 -0.47704095 0 0
0 0.041228145 0.019721057 -0.47704095 0 0
0 0.040481701 0.019718433 -0.47704095 0 0
0 0.039735455 0.019715859 -0.47704095 0 0
0 0.038989402 0.019713331 -0.47704095 0 0
5.5511151e-17 0.03824354 0.019710854 -0.47704095 0 0
0 0.037497859 0.019708423 -0.47704095 0 0
5.5511151e-17 0.036007047 0.019703707 -0.47704095 0 0
5.5511151e-17 0.035261903 0.019701419 -0.47704095 0 0
0 0.033772126 0.019696992 -0.47704095 0 0
0 0.032283004 0.019692756 -0.47704095 0 0
5.5511151e-17 0.030794509 0.019688711 -0.47704095 0 0
0 0.030050486 0.01968676 -0.47704095 0 0
0 0.029306611 0.019684859 -0.47704095 0 0
0 0.028562875 0.019683003 -0.47704095 0 0
0 0.027075818 0.019679438 -0.47704095 0 0
0 0.026332488 0.019677727 -0.47704095 0 0
0 0.025589285 0.019676063 -0.47704095 0 0
0 0.024846205 0.019674448 -0.47704095 0 0
5.5511151e-17 0.024103247 0.01967288 -0.47704095 0 0
5.5511151e-17 0.023360405 0.01967136 -0.47704095 0 0
0 0.021875056 0.019668462 -0.47704095 0 0
5.5511151e-17 0.021132542 0.019667085 -0.47704095 0 0
5.5511151e-17 0.019647816 0.019664474 -0.47704095 0 0
0 0.018163471 0.019662052 -0.47704095 0 0
0 0.017421432 0.019660914 -0.47704095 0 0
5.5511151e-17 0.016679477 0.019659823 -0.47704095 0 0
0 0.015937602 0.019658778 -0.47704095 0 0
5.5511151e-17 0.014454081 0.019656833 -0.47704095 0 0
5.5511151e-17 0.013712427 0.019655932 -0.47704095 0 0
0 0.012970839 0.019655079 -0.47704095 0 0
5.5511151e-17 0.012229313 0.019654272 -0.47704095 0 0
0 0.011487847 0.019653512 -0.47704095 0 0
0 0.010746436 0.019652801 -0.47704095 0 0
0 0.010005077 0.019652138 -0.47704095 0 0
0 0.0092637669 0.019651521 -0.47704095 0 0
5.5511151e-17 0.0085225012 0.019650951 -0.47704095 0 0
0 0.007781276 0.019650429 -0.47704095 0 0
0 0.007040089 0.019649956 -0.47704095 0 0
0 0.006298936 0.01964953 -0.47704095 0 0
0 0.0033345912 0.019648297 -0.47704095 0 0
5.5511151e-17 0.0025935543 0.019648107 -0.47704095 0 0
0 0.0018525298 0.019647965 -0.47704095 0 0
0 0.079645269 0.01916728 -0.47704095 0 0
0 0.078883797 0.019162333 -0.47704095 0 0
0 0.07812272 0.019157436 -0.47704095 0 0
5.5511151e-17 0.076601729 0.019147787 -0.47704095 0 0
0 0.075841807 0.019143034 -0.47704095 0 0
0.031245278 0.079999998 0.020391855 -0.47704095 0 0
5.5511151e-17 0.074323073 0.019133676 -0.47704095 0 0
0 0.073564261 0.01912907 -0.47704095 0 0
5.5511151e-17 0.072805814 0.019124512 -0.47704095 0 0
5.5511151e-17 0.072047725 0.019120002 -0.47704095 0 0
5.5511151e-17 0.071289986 0.019115541 -0.47704095 0 0
5.5511151e-17 0.069775574 0.019106762 -0.47704095 0 0
0 0.067506522 0.019093955 -0.47704095 0 0
0 0.066750839 0.019089783 -0.47704095 0 0
0 0.065995485 0.019085657 -0.47704095 0 0
0 0.065240458 0.01908158 -0.47704095 0 0
5.5511151e-17 0.064485751 0.019077549 -0.47704095 0 0
0 0.062977277 0.019069633 -0.47704095 0 0
0 0.062223509 0.019065747 -0.47704095 0 0
0 0.061470047 0.019061906 -0.47704095 0 0
0 0.060716886 0.019058116 -0.47704095 0 0
0 0.05996402 0.019054372 -0.47704095 0 0
0 0.059211452 0.019050675 -0.47704095 0 0
5.5511151e-17 0.05845917 0.019047026 -0.47704095 0 0
0 0.057707176 0.019043423 -0.47704095 0 0
0 0.056955464 0.019039867 -0.47704095 0 0
0 0.056204032 0.01903636 -0.47704095 0 0
0 0.053951371 0.019026121 -0.47704095 0 0
0 0.053201016 0.019022802 -0.47704095 0 0
0 0.052450921 0.019019531 -0.47704095 0 0
0 0.051701084 0.019016305 -0.47704095 0 0
0 0.050202157 0.019009996 -0.47704095 0 0
0 0.049453065 0.019006914 -0.47704095 0 0
0 0.048704214 0.019003876 -0.47704095 0 0
0 0.046459068 0.018995045 -0.47704095 0 0
0 0.045711145 0.018992195 -0.47704095 0 0
0 0.043468695 0.018983923 -0.47704095 0 0
0 0.042721637 0.018981259 -0.47704095 0 0
5.5511151e-17 0.04197479 0.018978642 -0.47704095 0 0
0 0.040481701 0.018973548 -0.47704095 0 0
0 0.039735455 0.018971069 -0.47704095 0 0
0 0.038989402 0.018968638 -0.47704095 0 0
5.5511151e-17 0.036752362 0.018961621 -0.47704095 0 0
0 0.035261903 0.018957177 -0.47704095 0 0
0 0.033772126 0.018952915 -0.47704095 0 0
5.5511151e-17 0.033027485 0.018950853 -0.47704095 0 0
5.5511151e-17 0.032283004 0.01894884 -0.47704095 0 0
0 0.03153868 0.018946871 -0.47704095 0 0
0 0.029306611 0.01894124 -0.47704095 0 0
0 0.028562875 0.018939456 -0.47704095 0 0
0 0.027075818 0.018936025 -0.47704095 0 0
0 0.026332488 0.018934378 -0.47704095 0 0
0 0.025589285 0.018932778 -0.47704095 0 0
0 0.024846205 0.018931223 -0.47704095 0 0
0 0.022617675 0.018926835 -0.47704095 0 0
5.5511151e-17 0.021875056 0.018925464 -0.47704095 0 0
0 0.021132542 0.018924139 -0.47704095 0 0
0 0.019647816 0.018921627 -0.47704095 0 0
0 0.018905599 0.018920438 -0.47704095 0 0
0 0.017421432 0.018918201 -0.47704095 0 0
0 0.015937602 0.018916147 -0.47704095 0 0
5.5511151e-17 0.015195805 0.018915188 -0.47704095 0 0
5.5511151e-17 0.014454081 0.018914275 -0.47704095 0 0
0 0.013712427 0.018913407 -0.47704095 0 0
0 0.012970839 0.018912585 -0.47704095 0 0
0 0.012229313 0.018911809 -0.47704095 0 0
0 0.011487847 0.018911079 -0.47704095 0 0
0 0.0092637669 0.018909162 -0.47704095 0 0
0 0.0085225012 0.018908614 -0.47704095 0 0
5.5511151e-17 0.007781276 0.018908113 -0.47704095 0 0
0 0.007040089 0.018907657 -0.47704095 0 0
0 0.006298936 0.018907245 -0.47704095 0 0
0 0.0055578132 0.01890688 -0.47704095 0 0
0 0.004816717 0.018906562 -0.47704095 0 0
0 0.0040756445 0.018906288 -0.47704095 0 0
0 0.0033345912 0.018906061 -0.47704095 0 0
5.5511151e-17 0.0025935543 0.018905878 -0.47704095 0 0
0 0.0018525298 0.01890574 -0.47704095 0 0
0 0.0011115143 0.018905649 -0.47704095 0 0
0.0021246953 0.079999998 0.018496899 -0.47704095 0 0
5.5511151e-17 0.078883797 0.018410128 -0.47704095 0 0
5.5511151e-17 0.07812272 0.018405423 -0.47704095 0 0
0 0.077362038 0.018400764 -0.47704095 0 0
0.021162879 0.079999998 0.019212257 -0.47704095 0 0
0 0.075841807 0.018391587 -0.47704095 0 0
0 0.07508225 0.018387068 -0.47704095 0 0
5.5511151e-17 0.074323073 0.018382596 -0.47704095 0 0
0 0.073564261 0.01837817 -0.47704095 0 0
0 0.072805814 0.018373791 -0.47704095 0 0
0 0.071289986 0.018365173 -0.47704095 0 0
0 0.070532605 0.018360933 -0.47704095 0 0
0 0.069775574 0.018356739 -0.47704095 0 0
0 0.069018885 0.018352591 -0.47704095 0 0
0 0.068262532 0.018348489 -0.47704095 0 0
5.5511151e-17 0.067506522 0.018344434 -0.47704095 0 0
0 0.066750839 0.018340426 -0.47704095 0 0
0 0.065995485 0.018336462 -0.47704095 0 0
5.5511151e-17 0.064485751 0.018328672 -0.47704095 0 0
0 0.063731357 0.018324846 -0.47704095 0 0
0 0.062223509 0.018317332 -0.47704095 0 0
5.5511151e-17 0.060716886 0.018310001 -0.47704095 0 0
0 0.05996402 0.018306404 -0.47704095 0 0
0 0.059211452 0.018302852 -0.47704095 0 0
5.5511151e-17 0.05845917 0.018299347 -0.47704095 0 0
5.5511151e-17 0.057707176 0.018295886 -0.47704095 0 0
0 0.056955464 0.01829247 -0.47704095 0 0
0 0.055452876 0.018285776 -0.47704095 0 0
0 0.054701991 0.018282497 -0.47704095 0 0
0 0.053951371 0.018279264 -0.47704095 0 0
0 0.052450921 0.018272931 -0.47704095 0 0
5.5511151e-17 0.051701084 0.018269833 -0.47704095 0 0
0 0.050951496 0.01826678 -0.47704095 0 0
0 0.050202157 0.018263772 -0.47704095 0 0
5.5511151e-17 0.049453065 0.018260809 -0.47704095 0 0
0 0.048704214 0.01825789 -0.47704095 0 0
0 0.047955599 0.018255018 -0.47704095 0 0
0 0.047207218 0.01825219 -0.47704095 0 0
5.5511151e-17 0.045711145 0.018246667 -0.47704095 0 0
0 0.044963442 0.018243974 -0.47704095 0 0
5.5511151e-17 0.044215962 0.018241325 -0.47704095 0 0
5.5511151e-17 0.043468695 0.018238721 -0.47704095 0 0
5.5511151e-17 0.04197479 0.018233648 -0.47704095 0 0
0 0.041228145 0.018231178 -0.47704095 0 0
0 0.039735455 0.018226372 -0.47704095 0 0
0 0.038989402 0.018224036 -0.47704095 0 0
0 0.037497859 0.018219499 -0.47704095 0 0
5.5511151e-17 0.036752362 0.018217295 -0.47704095 0 0
0 0.036007047 0.018215138 -0.47704095 0 0
0 0.035261903 0.018213024 -0.47704095 0 0
0 0.034516931 0.018210955 -0.47704095 0 0
5.5511151e-17 0.033027485 0.01820695 -0.47704095 0 0
0 0.032283004 0.018205015 -0.47704095 0 0
0 0.03153868 0.018203123 -0.47704095 0 0
0 0.030050486 0.018199474 -0.47704095 0 0
5.5511151e-17 0.029306611 0.018197715 -0.47704095 0 0
0 0.028562875 0.018196 -0.47704095 0 0
0 0.02781928 0.018194329 -0.47704095 0 0
5.5511151e-17 0.027075818 0.018192703 -0.47704095 0 0
0 0.026332488 0.018191122 -0.47704095 0 0
5.5511151e-17 0.025589285 0.018189585 -0.47704095 0 0
5.5511151e-17 0.024103247 0.018186642 -0.47704095 0 0
5.5511151e-17 0.022617675 0.018183874 -0.47704095 0 0
0 0.021875056 0.018182557 -0.47704095 0 0
0 0.019647816 0.018178871 -0.47704095 0 0
0 0.016679477 0.01817457 -0.47704095 0 0
0 0.015937602 0.018173605 -0.47704095 0 0
5.5511151e-17 0.015195805 0.018172683 -0.47704095 0 0
0 0.014454081 0.018171806 -0.47704095 0 0
0 0.013712427 0.018170973 -0.47704095 0 0
0 0.011487847 0.018168736 -0.47704095 0 0
5.5511151e-17 0.010746436 0.018168079 -0.47704095 0 0
5.5511151e-17 0.010005077 0.018167466 -0.47704095 0 0
0 0.0092637669 0.018166896 -0.47704095 0 0
0 0.007781276 0.018165886 -0.47704095 0 0
0 0.007040089 0.018165449 -0.47704095 0 0
0 0.006298936 0.018165054 -0.47704095 0 0
5.5511151e-17 0.0055578132 0.018164704 -0.47704095 0 0
5.5511151e-17 0.004816717 0.018164396 -0.47704095 0 0
5.5511151e-17 0.0033345912 0.018163914 -0.47704095 0 0
0 0.0018525298 0.018163608 -0.47704095 0 0
0 0.0011115143 0.018163521 -0.47704095 0 0
0 0.00037050419 0.018163476 -0.47704095 0 0
5.5511151e-17 0.079645269 0.01766257 -0.47704095 0 0
5.5511151e-17 0.078883797 0.017658012 -0.47704095 0 0
0.011463206 0.079999998 0.018077709 -0.47704095 0 0
5.5511151e-17 0.077362038 0.01764903 -0.47704095 0 0
0.021162879 0.079999998 0.018427372 -0.47704095 0 0
5.5511151e-17 0.075841807 0.017640229 -0.47704095 0 0
5.5511151e-17 0.07508225 0.017635895 -0.47704095 0 0
0.036437213 0.079999998 0.018978339 -0.47704095 0 0
5.5511151e-17 0.073564261 0.01762736 -0.47704095 0 0
0 0.072805814 0.01762316 -0.47704095 0 0
0 0.072047725 0.017619004 -0.47704095 0 0
5.5511151e-17 0.069775574 0.017606804 -0.47704095 0 0
5.5511151e-17 0.069018885 0.017602826 -0.47704095 0 0
0 0.066750839 0.017591156 -0.47704095 0 0
0 0.065995485 0.017587354 -0.47704095 0 0
0 0.065240458 0.017583597 -0.47704095 0 0
5.5511151e-17 0.063731357 0.017576216 -0.47704095 0 0
0 0.062977277 0.017572589 -0.47704095 0 0
0 0.062223509 0.017569007 -0.47704095 0 0
0 0.061470047 0.01756547 -0.47704095 0 0
0 0.060716886 0.017561976 -0.47704095 0 0
0 0.05996402 0.017558526 -0.47704095 0 0
5.5511151e-17 0.05845917 0.017551756 -0.47704095 0 0
0 0.057707176 0.017548436 -0.47704095 0 0
0 0.056204032 0.01754193 -0.47704095 0 0
0 0.055452876 0.017538741 -0.47704095 0 0
5.5511151e-17 0.054701991 0.017535595 -0.47704095 0 0
5.5511151e-17 0.053951371 0.017532494 -0.47704095 0 0
0 0.053201016 0.017529435 -0.47704095 0 0
0 0.052450921 0.01752642 -0.47704095 0 0
0 0.051701084 0.017523449 -0.47704095 0 0
0 0.050951496 0.017520521 -0.47704095 0 0
5.5511151e-17 0.050202157 0.017517636 -0.47704095 0 0
5.5511151e-17 0.049453065 0.017514793 -0.47704095 0 0
5.5511151e-17 0.048704214 0.017511994 -0.47704095 0 0
0 0.047207218 0.017506527 -0.47704095 0 0
5.5511151e-17 0.044963442 0.017498646 -0.47704095 0 0
5.5511151e-17 0.044215962 0.017496105 -0.47704095 0 0
0 0.043468695 0.017493609 -0.47704095 0 0
5.5511151e-17 0.042721637 0.017491154 -0.47704095 0 0
5.5511151e-17 0.04197479 0.017488742 -0.47704095 0 0
0 0.040481701 0.017484047 -0.47704095 0 0
5.5511151e-17 0.039735455 0.017481763 -0.47704095 0 0
5.5511151e-17 0.03824354 0.017477326 -0.47704095 0 0
0 0.036752362 0.017473059 -0.47704095 0 0
5.5511151e-17 0.036007047 0.017470988 -0.47704095 0 0
0 0.035261903 0.017468961 -0.47704095 0 0
0 0.034516931 0.017466977 -0.47704095 0 0
5.5511151e-17 0.033027485 0.017463135 -0.47704095 0 0
5.5511151e-17 0.03153868 0.017459465 -0.47704095 0 0
0 0.030794509 0.017457692 -0.47704095 0 0
5.5511151e-17 0.030050486 0.017455963 -0.47704095 0 0
5.5511151e-17 0.029306611 0.017454276 -0.47704095 0 0
5.5511151e-17 0.028562875 0.017452631 -0.47704095 0 0
5.5511151e-17 0.027075818 0.01744947 -0.47704095 0 0
5.5511151e-17 0.026332488 0.017447954 -0.47704095 0 0
0 0.025589285 0.017446479 -0.47704095 0 0
0 0.024846205 0.017445046 -0.47704095 0 0
0 0.024103247 0.017443655 -0.47704095 0 0
5.5511151e-17 0.023360405 0.017442308 -0.47704095 0 0
0 0.021875056 0.017439738 -0.47704095 0 0
0 0.021132542 0.017438518 -0.47704095 0 0
5.5511151e-17 0.020390129 0.017437339 -0.47704095 0 0
0 0.019647816 0.017436203 -0.47704095 0 0
0 0.018905599 0.017435107 -0.47704095 0 0
5.5511151e-17 0.017421432 0.017433045 -0.47704095 0 0
5.5511151e-17 0.016679477 0.017432077 -0.47704095 0 0
0 0.015937602 0.017431151 -0.47704095 0 0
0 0.015195805 0.017430268 -0.47704095 0 0
5.5511151e-17 0.014454081 0.017429426 -0.47704095 0 0
0 0.013712427 0.017428627 -0.47704095 0 0
0 0.012970839 0.017427871 -0.47704095 0 0
5.5511151e-17 0.012229313 0.017427156 -0.47704095 0 0
0 0.011487847 0.017426483 -0.47704095 0 0
0 0.010005077 0.017425263 -0.47704095 0 0
5.5511151e-17 0.0085225012 0.017424211 -0.47704095 0 0
0 0.007781276 0.017423749 -0.47704095 0 0
0 0.007040089 0.017423328 -0.47704095 0 0
0 0.006298936 0.01742295 -0.47704095 0 0
0 0.004816717 0.01742232 -0.47704095 0 0
5.5511151e-17 0.0033345912 0.017421857 -0.47704095 0 0
0 0.0025935543 0.017421689 -0.47704095 0 0
0 0.0018525298 0.017421562 -0.47704095 0 0
5.5511151e-17 0.0011115143 0.017421478 -0.47704095 0 0
5.5511151e-17 0.00037050419 0.017421437 -0.47704095 0 0
0 0.079645269 0.016910346 -0.47704095 0 0
5.5511151e-17 0.07812272 0.016901661 -0.47704095 0 0
0.016266588 0.079999998 0.017473565 -0.47704095 0 0
0 0.076601729 0.016893148 -0.47704095 0 0
5.5511151e-17 0.07508225 0.016884806 -0.47704095 0 0
0.036437213 0.079999998 0.018170075 -0.47704095 0 0
5.5511151e-17 0.073564261 0.016876636 -0.47704095 0 0
0 0.072805814 0.016872615 -0.47704095 0 0
5.5511151e-17 0.072047725 0.016868636 -0.47704095 0 0
0 0.071289986 0.016864698 -0.47704095 0 0
0 0.070532605 0.016860805 -0.47704095 0 0
5.5511151e-17 0.069018885 0.016853146 -0.47704095 0 0
5.5511151e-17 0.068262532 0.01684938 -0.47704095 0 0
0 0.067506522 0.016845655 -0.47704095 0 0
0 0.066750839 0.016841974 -0.47704095 0 0
0 0.065240458 0.016834736 -0.47704095 0 0
0 0.063731357 0.016827667 -0.47704095 0 0
0 0.062977277 0.016824197 -0.47704095 0 0
0 0.061470047 0.01681738 -0.47704095 0 0
0 0.060716886 0.016814036 -0.47704095 0 0
5.5511151e-17 0.059211452 0.01680747 -0.47704095 0 0
0 0.057707176 0.016801072 -0.47704095 0 0
0 0.056955464 0.016797937 -0.47704095 0 0
5.5511151e-17 0.055452876 0.016791789 -0.47704095 0 0
5.5511151e-17 0.053951371 0.016785808 -0.47704095 0 0
5.5511151e-17 0.053201016 0.01678288 -0.47704095 0 0
5.5511151e-17 0.052450921 0.016779995 -0.47704095 0 0
0 0.051701084 0.016777148 -0.47704095 0 0
0 0.048704214 0.016766183 -0.47704095 0 0
0 0.047955599 0.016763544 -0.47704095 0 0
5.5511151e-17 0.047207218 0.016760947 -0.47704095 0 0
0 0.046459068 0.016758392 -0.47704095 0 0
0 0.044963442 0.016753403 -0.47704095 0 0
0 0.043468695 0.016748579 -0.47704095 0 0
0 0.039735455 0.016737239 -0.47704095 0 0
0 0.038989402 0.016735094 -0.47704095 0 0
0 0.03824354 0.016732991 -0.47704095 0 0
0 0.037497859 0.016730927 -0.47704095 0 0
0 0.036752362 0.016728904 -0.47704095 0 0
5.5511151e-17 0.036007047 0.016726922 -0.47704095 0 0
0 0.035261903 0.016724981 -0.47704095 0 0
0 0.033027485 0.016719405 -0.47704095 0 0
0 0.030794509 0.016714193 -0.47704095 0 0
5.5511151e-17 0.030050486 0.016712537 -0.47704095 0 0
0 0.029306611 0.016710922 -0.47704095 0 0
0 0.028562875 0.016709348 -0.47704095 0 0
0 0.02781928 0.016707815 -0.47704095 0 0
0 0.027075818 0.016706321 -0.47704095 0 0
0 0.025589285 0.016703457 -0.47704095 0 0
0 0.024103247 0.016700754 -0.47704095 0 0
5.5511151e-17 0.021132542 0.016695835 -0.47704095 0 0
0 0.020390129 0.016694706 -0.47704095 0 0
5.5511151e-17 0.019647816 0.016693618 -0.47704095 0 0
0 0.018905599 0.016692569 -0.47704095 0 0
0 0.018163471 0.016691564 -0.47704095 0 0
0 0.017421432 0.016690595 -0.47704095 0 0
0 0.016679477 0.016689669 -0.47704095 0 0
0 0.015195805 0.016687937 -0.47704095 0 0
5.5511151e-17 0.014454081 0.016687131 -0.47704095 0 0
0 0.012229313 0.016684957 -0.47704095 0 0
0 0.011487847 0.016684312 -0.47704095 0 0
0 0.010005077 0.016683144 -0.47704095 0 0
0 0.0092637669 0.016682621 -0.47704095 0 0
5.5511151e-17 0.0085225012 0.016682139 -0.47704095 0 0
0 0.007781276 0.016681695 -0.47704095 0 0
0 0.007040089 0.016681293 -0.47704095 0 0
0 0.006298936 0.01668093 -0.47704095 0 0
0 0.0055578132 0.016680609 -0.47704095 0 0
5.5511151e-17 0.004816717 0.016680326 -0.47704095 0 0
0 0.0040756445 0.016680086 -0.47704095 0 0
0 0.0033345912 0.016679885 -0.47704095 0 0
0 0.0025935543 0.016679723 -0.47704095 0 0
5.5511151e-17 0.0018525298 0.016679602 -0.47704095 0 0
0 0.0011115143 0.016679522 -0.47704095 0 0
5.5511151e-17 0.00037050419 0.016679483 -0.47704095 0 0
0 0.079645269 0.016158203 -0.47704095 0 0
0 0.078883797 0.016154032 -0.47704095 0 0
0.011463206 0.079999998 0.016537983 -0.47704095 0 0
0 0.077362038 0.016145816 -0.47704095 0 0
0 0.076601729 0.01614177 -0.47704095 0 0
5.5511151e-17 0.075841807 0.016137764 -0.47704095 0 0
5.5511151e-17 0.07508225 0.016133798 -0.47704095 0 0
5.5511151e-17 0.074323073 0.016129876 -0.47704095 0 0
0 0.073564261 0.016125992 -0.47704095 0 0
0 0.072805814 0.016122149 -0.47704095 0 0
5.5511151e-17 0.071289986 0.016114587 -0.47704095 0 0
5.5511151e-17 0.070532605 0.016110865 -0.47704095 0 0
0 0.069775574 0.016107187 -0.47704095 0 0
0 0.069018885 0.016103547 -0.47704095 0 0
0 0.068262532 0.016099948 -0.47704095 0 0
0 0.066750839 0.016092872 -0.47704095 0 0
0 0.065240458 0.016085956 -0.47704095 0 0
0 0.064485751 0.016082559 -0.47704095 0 0
5.5511151e-17 0.063731357 0.016079202 -0.47704095 0 0
0 0.062977277 0.016075885 -0.47704095 0 0
5.5511151e-17 0.061470047 0.016069373 -0.47704095 0 0
0 0.060716886 0.016066177 -0.47704095 0 0
5.5511151e-17 0.059211452 0.016059903 -0.47704095 0 0
0 0.057707176 0.01605379 -0.47704095 0 0
0 0.056955464 0.016050793 -0.47704095 0 0
0 0.056204032 0.016047837 -0.47704095 0 0
0 0.055452876 0.01604492 -0.47704095 0 0
0 0.054701991 0.016042043 -0.47704095 0 0
0 0.053951371 0.016039206 -0.47704095 0 0
0 0.053201016 0.016036406 -0.47704095 0 0
5.5511151e-17 0.052450921 0.016033649 -0.47704095 0 0
0 0.051701084 0.01603093 -0.47704095 0 0
0 0.050951496 0.016028251 -0.47704095 0 0
0 0.050202157 0.016025612 -0.47704095 0 0
0 0.049453065 0.016023012 -0.47704095 0 0
0 0.047207218 0.01601545 -0.47704095 0 0
5.5511151e-17 0.045711145 0.016010605 -0.47704095 0 0
5.5511151e-17 0.044963442 0.016008241 -0.47704095 0 0
0 0.044215962 0.016005917 -0.47704095 0 0
0 0.042721637 0.016001387 -0.47704095 0 0
0 0.041228145 0.015997013 -0.47704095 0 0
0 0.040481701 0.015994884 -0.47704095 0 0
0 0.038989402 0.015990745 -0.47704095 0 0
0 0.03824354 0.015988735 -0.47704095 0 0
0 0.037497859 0.015986765 -0.47704095 0 0
0 0.036752362 0.015984831 -0.47704095 0 0
0 0.035261903 0.015981084 -0.47704095 0 0
0 0.034516931 0.015979268 -0.47704095 0 0
5.5511151e-17 0.033772126 0.015977491 -0.47704095 0 0
0 0.033027485 0.015975755 -0.47704095 0 0
5.5511151e-17 0.032283004 0.015974056 -0.47704095 0 0
0 0.03153868 0.015972396 -0.47704095 0 0
0 0.030794509 0.015970774 -0.47704095 0 0
0 0.030050486 0.015969193 -0.47704095 0 0
0 0.029306611 0.01596765 -0.47704095 0 0
5.5511151e-17 0.028562875 0.015966145 -0.47704095 0 0
5.5511151e-17 0.026332488 0.015961865 -0.47704095 0 0
0 0.025589285 0.015960516 -0.47704095 0 0
5.5511151e-17 0.024846205 0.015959205 -0.47704095 0 0
0 0.024103247 0.015957933 -0.47704095 0 0
0 0.023360405 0.0159567 -0.47704095 0 0
0 0.022617675 0.015955506 -0.47704095 0 0
0 0.021875056 0.015954349 -0.47704095 0 0
0 0.021132542 0.015953233 -0.47704095 0 0
0 0.019647816 0.015951114 -0.47704095 0 0
0 0.018905599 0.015950114 -0.47704095 0 0
0 0.018163471 0.015949151 -0.47704095 0 0
0 0.017421432 0.015948227 -0.47704095 0 0
0 0.015937602 0.015946494 -0.47704095 0 0
0 0.015195805 0.015945686 -0.47704095 0 0
0 0.014454081 0.015944917 -0.47704095 0 0
5.5511151e-17 0.012970839 0.015943492 -0.47704095 0 0
5.5511151e-17 0.011487847 0.015942223 -0.47704095 0 0
5.5511151e-17 0.010005077 0.015941108 -0.47704095 0 0
5.5511151e-17 0.0085225012 0.015940145 -0.47704095 0 0
0 0.006298936 0.015938992 -0.47704095 0 0
0 0.004816717 0.015938414 -0.47704095 0 0
0 0.0040756445 0.015938183 -0.47704095 0 0
0 0.0033345912 0.015937991 -0.47704095 0 0
0 0.0025935543 0.015937839 -0.47704095 0 0
0 0.0018525298 0.015937723 -0.47704095 0 0
0 0.00037050419 0.015937608 -0.47704095 0 0
0 0.079645269 0.015406137 -0.47704095 0 0
5.5511151e-17 0.078883797 0.015402162 -0.47704095 0 0
0 0.07812272 0.015398226 -0.47704095 0 0
0 0.077362038 0.015394328 -0.47704095 0 0
0 0.076601729 0.01539047 -0.47704095 0 0
0 0.075841807 0.01538665 -0.47704095 0 0
0 0.07508225 0.01538287 -0.47704095 0 0
0 0.074323073 0.015379128 -0.47704095 0 0
0 0.072805814 0.015371762 -0.47704095 0 0
0 0.072047725 0.015368138 -0.47704095 0 0
5.5511151e-17 0.071289986 0.015364552 -0.47704095 0 0
0 0.070532605 0.015361005 -0.47704095 0 0
0 0.069775574 0.015357495 -0.47704095 0 0
0 0.069018885 0.015354025 -0.47704095 0 0
0 0.068262532 0.015350594 -0.47704095 0 0
0 0.067506522 0.015347201 -0.47704095 0 0
5.5511151e-17 0.066750839 0.015343847 -0.47704095 0 0
5.5511151e-17 0.065995485 0.015340531 -0.47704095 0 0
0 0.064485751 0.015334015 -0.47704095 0 0
0 0.063731357 0.015330814 -0.47704095 0 0
5.5511151e-17 0.062977277 0.015327652 -0.47704095 0 0
5.5511151e-17 0.062223509 0.015324527 -0.47704095 0 0
0 0.061470047 0.015321442 -0.47704095 0 0
0 0.060716886 0.015318395 -0.47704095 0 0
0 0.059211452 0.015312414 -0.47704095 0 0
0 0.057707176 0.015306585 -0.47704095 0 0
0 0.056955464 0.015303728 -0.47704095 0 0
0 0.056204032 0.015300909 -0.47704095 0 0
5.5511151e-17 0.055452876 0.015298127 -0.47704095 0 0
5.5511151e-17 0.054701991 0.015295384 -0.47704095 0 0
0 0.053201016 0.015290011 -0.47704095 0 0
5.5511151e-17 0.052450921 0.015287381 -0.47704095 0 0
0 0.051701084 0.015284789 -0.47704095 0 0
0 0.050951496 0.015282234 -0.47704095 0 0
5.5511151e-17 0.050202157 0.015279718 -0.47704095 0 0
0 0.049453065 0.015277239 -0.47704095 0 0
5.5511151e-17 0.047955599 0.015272394 -0.47704095 0 0
0 0.047207218 0.015270028 -0.47704095 0 0
5.5511151e-17 0.046459068 0.0152677 -0.47704095 0 0
0 0.045711145 0.015265409 -0.47704095 0 0
0 0.044963442 0.015263155 -0.47704095 0 0
0 0.044215962 0.015260939 -0.47704095 0 0
0 0.043468695 0.015258761 -0.47704095 0 0
5.5511151e-17 0.042721637 0.01525662 -0.47704095 0 0
0 0.040481701 0.015250421 -0.47704095 0 0
5.5511151e-17 0.038989402 0.015246475 -0.47704095 0 0
0 0.037497859 0.015242678 -0.47704095 0 0
0 0.036752362 0.015240836 -0.47704095 0 0
0 0.036007047 0.01523903 -0.47704095 0 0
0 0.035261903 0.015237262 -0.47704095 0 0
0 0.034516931 0.015235531 -0.47704095 0 0
5.5511151e-17 0.033772126 0.015233838 -0.47704095 0 0
0 0.032283004 0.015230562 -0.47704095 0 0
0 0.03153868 0.015228978 -0.47704095 0 0
0 0.029306611 0.015224454 -0.47704095 0 0
5.5511151e-17 0.02781928 0.015221622 -0.47704095 0 0
0 0.026332488 0.015218938 -0.47704095 0 0
0 0.025589285 0.015217652 -0.47704095 0 0
0 0.024846205 0.015216402 -0.47704095 0 0
0 0.024103247 0.015215189 -0.47704095 0 0
5.5511151e-17 0.023360405 0.015214014 -0.47704095 0 0
5.5511151e-17 0.021875056 0.015211773 -0.47704095 0 0
0 0.021132542 0.015210708 -0.47704095 0 0
0 0.020390129 0.015209679 -0.47704095 0 0
5.5511151e-17 0.018905599 0.015207734 -0.47704095 0 0
5.5511151e-17 0.018163471 0.015206816 -0.47704095 0 0
0 0.017421432 0.015205935 -0.47704095 0 0
5.5511151e-17 0.016679477 0.015205091 -0.47704095 0 0
0 0.015937602 0.015204283 -0.47704095 0 0
5.5511151e-17 0.014454081 0.015202778 -0.47704095 0 0
0 0.013712427 0.015202082 -0.47704095 0 0
0 0.011487847 0.015200211 -0.47704095 0 0
5.5511151e-17 0.010746436 0.01519966 -0.47704095 0 0
0 0.010005077 0.015199147 -0.47704095 0 0
0 0.0092637669 0.01519867 -0.47704095 0 0
5.5511151e-17 0.0085225012 0.01519823 -0.47704095 0 0
5.5511151e-17 0.007781276 0.015197827 -0.47704095 0 0
0 0.007040089 0.01519746 -0.47704095 0 0
0 0.0055578132 0.015196837 -0.47704095 0 0
0 0.004816717 0.01519658 -0.47704095 0 0
0 0.0040756445 0.01519636 -0.47704095 0 0
0 0.0033345912 0.015196176 -0.47704095 0 0
0 0.0025935543 0.015196029 -0.47704095 0 0
0 0.0018525298 0.015195919 -0.47704095 0 0
0 0.0011115143 0.015195847 -0.47704095 0 0
0 0.00037050419 0.015195809 -0.47704095 0 0
0.0021246953 0.079999998 0.014719415 -0.47704095 0 0
0 0.078883797 0.014650365 -0.47704095 0 0
0.011463206 0.079999998 0.014998577 -0.47704095 0 0
0 0.077362038 0.014642914 -0.47704095 0 0
0 0.076601729 0.014639243 -0.47704095 0 0
0 0.075841807 0.01463561 -0.47704095 0 0
0.031245278 0.079999998 0.015590385 -0.47704095 0 0
0.036437213 0.079999998 0.015745804 -0.47704095 0 0
0 0.073564261 0.014624935 -0.47704095 0 0
0 0.072805814 0.01462145 -0.47704095 0 0
5.5511151e-17 0.072047725 0.014618002 -0.47704095 0 0
0 0.070532605 0.014611216 -0.47704095 0 0
0 0.069775574 0.014607879 -0.47704095 0 0
0 0.069018885 0.014604579 -0.47704095 0 0
0 0.066750839 0.014594897 -0.47704095 0 0
0 0.065995485 0.014591743 -0.47704095 0 0
0 0.065240458 0.014588625 -0.47704095 0 0
0 0.064485751 0.014585544 -0.47704095 0 0
0 0.062977277 0.014579493 -0.47704095 0 0
0 0.062223509 0.014576521 -0.47704095 0 0
5.5511151e-17 0.061470047 0.014573585 -0.47704095 0 0
0 0.05996402 0.014567824 -0.47704095 0 0
0 0.059211452 0.014564998 -0.47704095 0 0
0 0.057707176 0.014559453 -0.47704095 0 0
0 0.056955464 0.014556736 -0.47704095 0 0
0 0.056204032 0.014554054 -0.47704095 0 0
0 0.055452876 0.014551409 -0.47704095 0 0
5.5511151e-17 0.053201016 0.014543689 -0.47704095 0 0
5.5511151e-17 0.052450921 0.014541187 -0.47704095 0 0
0 0.051701084 0.014538721 -0.47704095 0 0
5.5511151e-17 0.048704214 0.014529218 -0.47704095 0 0
0 0.047955599 0.014526932 -0.47704095 0 0
0 0.047207218 0.014524681 -0.47704095 0 0
0 0.046459068 0.014522467 -0.47704095 0 0
0 0.045711145 0.014520288 -0.47704095 0 0
5.5511151e-17 0.044215962 0.014516036 -0.47704095 0 0
0 0.043468695 0.014513964 -0.47704095 0 0
0 0.042721637 0.014511927 -0.47704095 0 0
0 0.04197479 0.014509927 -0.47704095 0 0
0 0.041228145 0.014507961 -0.47704095 0 0
0 0.039735455 0.014504137 -0.47704095 0 0
0 0.038989402 0.014502278 -0.47704095 0 0
0 0.03824354 0.014500454 -0.47704095 0 0
0 0.037497859 0.014498666 -0.47704095 0 0
0 0.036752362 0.014496914 -0.47704095 0 0
0 0.036007047 0.014495197 -0.47704095 0 0
0 0.035261903 0.014493515 -0.47704095 0 0
0 0.034516931 0.014491868 -0.47704095 0 0
0 0.032283004 0.014487141 -0.47704095 0 0
0 0.03153868 0.014485636 -0.47704095 0 0
0 0.030794509 0.014484165 -0.47704095 0 0
5.5511151e-17 0.030050486 0.014482731 -0.47704095 0 0
0 0.029306611 0.014481331 -0.47704095 0 0
0 0.028562875 0.014479967 -0.47704095 0 0
0 0.02781928 0.014478638 -0.47704095 0 0
0 0.027075818 0.014477344 -0.47704095 0 0
0 0.026332488 0.014476085 -0.47704095 0 0
0 0.025589285 0.014474861 -0.47704095 0 0
0 0.024846205 0.014473673 -0.47704095 0 0
0 0.024103247 0.014472519 -0.47704095 0 0
0 0.022617675 0.014470317 -0.47704095 0 0
5.5511151e-17 0.021875056 0.01446927 -0.47704095 0 0
0 0.020390129 0.014467278 -0.47704095 0 0
0 0.018905599 0.014465427 -0.47704095 0 0
0 0.018163471 0.014464554 -0.47704095 0 0
5.5511151e-17 0.017421432 0.014463716 -0.47704095 0 0
5.5511151e-17 0.016679477 0.014462913 -0.47704095 0 0
5.5511151e-17 0.015937602 0.014462145 -0.47704095 0 0
5.5511151e-17 0.015195805 0.014461412 -0.47704095 0 0
0 0.014454081 0.014460715 -0.47704095 0 0
0 0.013712427 0.014460051 -0.47704095 0 0
5.5511151e-17 0.012970839 0.014459423 -0.47704095 0 0
0 0.011487847 0.014458272 -0.47704095 0 0
5.5511151e-17 0.010005077 0.014457259 -0.47704095 0 0
5.5511151e-17 0.0092637669 0.014456806 -0.47704095 0 0
0 0.0085225012 0.014456388 -0.47704095 0 0
5.5511151e-17 0.007781276 0.014456004 -0.47704095 0 0
5.5511151e-17 0.007040089 0.014455655 -0.47704095 0 0
0 0.006298936 0.014455341 -0.47704095 0 0
0 0.0055578132 0.014455062 -0.47704095 0 0
0 0.004816717 0.014454817 -0.47704095 0 0
0 0.0040756445 0.014454609 -0.47704095 0 0
0 0.0033345912 0.014454434 -0.47704095 0 0
0 0.0025935543 0.014454295 -0.47704095 0 0
0 0.0018525298 0.01445419 -0.47704095 0 0
0 0.079645269 0.013902227 -0.47704095 0 0
0 0.078883797 0.01389864 -0.47704095 0 0
0 0.07812272 0.013895087 -0.47704095 0 0
0 0.077362038 0.01389157 -0.47704095 0 0
5.5511151e-17 0.076601729 0.013888089 -0.47704095 0 0
5.5511151e-17 0.075841807 0.013884642 -0.47704095 0 0
5.5511151e-17 0.07508225 0.013881231 -0.47704095 0 0
5.5511151e-17 0.074323073 0.013877855 -0.47704095 0 0
5.5511151e-17 0.073564261 0.013874513 -0.47704095 0 0
0 0.072805814 0.013871208 -0.47704095 0 0
0 0.072047725 0.013867937 -0.47704095 0 0
0 0.071289986 0.013864701 -0.47704095 0 0
0 0.069775574 0.013858333 -0.47704095 0 0
5.5511151e-17 0.069018885 0.013855202 -0.47704095 0 0
5.5511151e-17 0.068262532 0.013852105 -0.47704095 0 0
0 0.065995485 0.013843025 -0.47704095 0 0
5.5511151e-17 0.065240458 0.013840068 -0.47704095 0 0
5.5511151e-17 0.064485751 0.013837145 -0.47704095 0 0
0 0.063731357 0.013834257 -0.47704095 0 0
0 0.062977277 0.013831403 -0.47704095 0 0
0 0.062223509 0.013828584 -0.47704095 0 0
0 0.061470047 0.013825799 -0.47704095 0 0
0 0.060716886 0.013823049 -0.47704095 0 0
5.5511151e-17 0.05996402 0.013820333 -0.47704095 0 0
0 0.059211452 0.013817652 -0.47704095 0 0
0 0.05845917 0.013815005 -0.47704095 0 0
5.5511151e-17 0.057707176 0.013812393 -0.47704095 0 0
0 0.056955464 0.013809814 -0.47704095 0 0
0 0.054701991 0.013802285 -0.47704095 0 0
0 0.053951371 0.013799843 -0.47704095 0 0
0 0.053201016 0.013797437 -0.47704095 0 0
0 0.052450921 0.013795064 -0.47704095 0 0
0 0.051701084 0.013792724 -0.47704095 0 0
5.5511151e-17 0.050202157 0.013788149 -0.47704095 0 0
0 0.049453065 0.013785912 -0.47704095 0 0
0 0.047955599 0.013781539 -0.47704095 0 0
5.5511151e-17 0.047207218 0.013779405 -0.47704095 0 0
0 0.046459068 0.013777304 -0.47704095 0 0
0 0.045711145 0.013775236 -0.47704095 0 0
0 0.044963442 0.013773203 -0.47704095 0 0
0 0.044215962 0.013771203 -0.47704095 0 0
0 0.043468695 0.013769237 -0.47704095 0 0
0 0.042721637 0.013767305 -0.47704095 0 0
5.5511151e-17 0.04197479 0.013765407 -0.47704095 0 0
0 0.041228145 0.013763542 -0.47704095 0 0
5.5511151e-17 0.040481701 0.013761711 -0.47704095 0 0
0 0.039735455 0.013759914 -0.47704095 0 0
0 0.038989402 0.013758151 -0.47704095 0 0
0 0.03824354 0.01375642 -0.47704095 0 0
0 0.037497859 0.013754725 -0.47704095 0 0
0 0.036752362 0.013753062 -0.47704095 0 0
0 0.036007047 0.013751432 -0.47704095 0 0
5.5511151e-17 0.034516931 0.013748275 -0.47704095 0 0
0 0.033027485 0.013745252 -0.47704095 0 0
0 0.03153868 0.013742362 -0.47704095 0 0
0 0.030794509 0.013740968 -0.47704095 0 0
0 0.030050486 0.013739606 -0.47704095 0 0
0 0.029306611 0.013738279 -0.47704095 0 0
0 0.028562875 0.013736985 -0.47704095 0 0
0 0.02781928 0.013735724 -0.47704095 0 0
0 0.026332488 0.013733301 -0.47704095 0 0
0 0.025589285 0.013732141 -0.47704095 0 0
0 0.024846205 0.013731013 -0.47704095 0 0
5.5511151e-17 0.024103247 0.013729919 -0.47704095 0 0
0 0.023360405 0.013728858 -0.47704095 0 0
5.5511151e-17 0.022617675 0.013727831 -0.47704095 0 0
0 0.021875056 0.013726836 -0.47704095 0 0
0 0.021132542 0.013725875 -0.47704095 0 0
0 0.018905599 0.013723191 -0.47704095 0 0
0 0.018163471 0.013722363 -0.47704095 0 0
0 0.017421432 0.013721568 -0.47704095 0 0
0 0.015195805 0.013719382 -0.47704095 0 0
0 0.014454081 0.01371872 -0.47704095 0 0
0 0.011487847 0.013716402 -0.47704095 0 0
0 0.010746436 0.013715906 -0.47704095 0 0
0 0.010005077 0.013715442 -0.47704095 0 0
5.5511151e-17 0.0085225012 0.013714615 -0.47704095 0 0
5.5511151e-17 0.007040089 0.01371392 -0.47704095 0 0
0 0.0055578132 0.013713357 -0.47704095 0 0
0 0.004816717 0.013713126 -0.47704095 0 0
5.5511151e-17 0.0040756445 0.013712927 -0.47704095 0 0
0 0.0018525298 0.01371253 -0.47704095 0 0
0 0.0011115143 0.013712464 -0.47704095 0 0
0 0.00037050419 0.013712431 -0.47704095 0 0
0.0021246953 0.079999998 0.013208945 -0.47704095 0 0
5.5511151e-17 0.078883797 0.013146981 -0.47704095 0 0
0 0.07812272 0.01314362 -0.47704095 0 0
0 0.077362038 0.013140294 -0.47704095 0 0
0.021162879 0.079999998 0.013719795 -0.47704095 0 0
0 0.075841807 0.01313374 -0.47704095 0 0
5.5511151e-17 0.07508225 0.013130514 -0.47704095 0 0
0 0.074323073 0.01312732 -0.47704095 0 0
5.5511151e-17 0.073564261 0.01312416 -0.47704095 0 0
0 0.072047725 0.013117938 -0.47704095 0 0
0 0.071289986 0.013114877 -0.47704095 0 0
5.5511151e-17 0.070532605 0.013111849 -0.47704095 0 0
0 0.069775574 0.013108855 -0.47704095 0 0
0 0.069018885 0.013105893 -0.47704095 0 0
0 0.067506522 0.013100068 -0.47704095 0 0
0 0.066750839 0.013097204 -0.47704095 0 0
5.5511151e-17 0.065240458 0.013091577 -0.47704095 0 0
0 0.064485751 0.013088812 -0.47704095 0 0
0 0.062977277 0.013083381 -0.47704095 0 0
0 0.062223509 0.013080714 -0.47704095 0 0
0 0.061470047 0.01307808 -0.47704095 0 0
5.5511151e-17 0.060716886 0.013075478 -0.47704095 0 0
0 0.05996402 0.01307291 -0.47704095 0 0
0 0.059211452 0.013070374 -0.47704095 0 0
0 0.05845917 0.013067869 -0.47704095 0 0
5.5511151e-17 0.057707176 0.013065399 -0.47704095 0 0
0 0.056955464 0.01306296 -0.47704095 0 0
0 0.056204032 0.013060553 -0.47704095 0 0
5.5511151e-17 0.055452876 0.013058179 -0.47704095 0 0
0 0.053951371 0.013053528 -0.47704095 0 0
0 0.052450921 0.013049006 -0.47704095 0 0
5.5511151e-17 0.050202157 0.013042466 -0.47704095 0 0
0 0.049453065 0.01304035 -0.47704095 0 0
0 0.048704214 0.013038266 -0.47704095 0 0
5.5511151e-17 0.047955599 0.013036214 -0.47704095 0 0
0 0.047207218 0.013034195 -0.47704095 0 0
0 0.046459068 0.013032206 -0.47704095 0 0
0 0.045711145 0.013030251 -0.47704095 0 0
0 0.044963442 0.013028327 -0.47704095 0 0
0 0.044215962 0.013026436 -0.47704095 0 0
0 0.043468695 0.013024577 -0.47704095 0 0
5.5511151e-17 0.042721637 0.013022749 -0.47704095 0 0
0 0.04197479 0.013020953 -0.47704095 0 0
5.5511151e-17 0.041228145 0.01301919 -0.47704095 0 0
5.5511151e-17 0.040481701 0.013017458 -0.47704095 0 0
5.5511151e-17 0.039735455 0.013015758 -0.47704095 0 0
0 0.038989402 0.01301409 -0.47704095 0 0
5.5511151e-17 0.03824354 0.013012454 -0.47704095 0 0
0 0.037497859 0.013010849 -0.47704095 0 0
5.5511151e-17 0.036007047 0.013007735 -0.47704095 0 0
5.5511151e-17 0.035261903 0.013006226 -0.47704095 0 0
0 0.034516931 0.013004748 -0.47704095 0 0
5.5511151e-17 0.033772126 0.013003303 -0.47704095 0 0
0 0.033027485 0.013001889 -0.47704095 0 0
0 0.032283004 0.013000506 -0.47704095 0 0
0 0.030794509 0.012997836 -0.47704095 0 0
5.5511151e-17 0.029306611 0.012995292 -0.47704095 0 0
0 0.028562875 0.012994069 -0.47704095 0 0
0 0.02781928 0.012992876 -0.47704095 0 0
5.5511151e-17 0.026332488 0.012990585 -0.47704095 0 0
0 0.025589285 0.012989487 -0.47704095 0 0
0 0.024846205 0.01298842 -0.47704095 0 0
5.5511151e-17 0.023360405 0.012986382 -0.47704095 0 0
5.5511151e-17 0.022617675 0.012985409 -0.47704095 0 0
5.5511151e-17 0.021875056 0.012984469 -0.47704095 0 0
0 0.021132542 0.01298356 -0.47704095 0 0
0 0.020390129 0.012982682 -0.47704095 0 0
5.5511151e-17 0.018905599 0.012981021 -0.47704095 0 0
0 0.017421432 0.012979485 -0.47704095 0 0
5.5511151e-17 0.015937602 0.012978076 -0.47704095 0 0
5.5511151e-17 0.014454081 0.012976792 -0.47704095 0 0
0 0.012970839 0.012975632 -0.47704095 0 0
5.5511151e-17 0.011487847 0.012974599 -0.47704095 0 0
0 0.010746436 0.01297413 -0.47704095 0 0
0 0.007781276 0.012972564 -0.47704095 0 0
5.5511151e-17 0.007040089 0.012972252 -0.47704095 0 0
5.5511151e-17 0.006298936 0.012971969 -0.47704095 0 0
0 0.004816717 0.0129715 -0.47704095 0 0
0 0.0040756445 0.012971312 -0.47704095 0 0
5.5511151e-17 0.0033345912 0.012971155 -0.47704095 0 0
5.5511151e-17 0.0025935543 0.012971031 -0.47704095 0 0
5.5511151e-17 0.0018525298 0.012970936 -0.47704095 0 0
0 0.0011115143 0.012970874 -0.47704095 0 0
0 0.00037050419 0.012970842 -0.47704095 0 0
0 0.079645269 0.012398586 -0.47704095 0 0
0 0.078883797 0.012395386 -0.47704095 0 0
0.011463206 0.079999998 0.01269 -0.47704095 0 0
5.5511151e-17 0.077362038 0.012389082 -0.47704095 0 0
5.5511151e-17 0.076601729 0.012385976 -0.47704095 0 0
0.026154824 0.079999998 0.013061822 -0.47704095 0 0
0 0.07508225 0.01237986 -0.47704095 0 0
0 0.074323073 0.012376849 -0.47704095 0 0
0 0.073564261 0.012373869 -0.47704095 0 0
0 0.072805814 0.012370921 -0.47704095 0 0
0 0.071289986 0.012365118 -0.47704095 0 0
5.5511151e-17 0.070532605 0.012362263 -0.47704095 0 0
5.5511151e-17 0.069775574 0.012359439 -0.47704095 0 0
0 0.068262532 0.012353885 -0.47704095 0 0
0 0.067506522 0.012351154 -0.47704095 0 0
0 0.066750839 0.012348455 -0.47704095 0 0
0 0.065995485 0.012345786 -0.47704095 0 0
0 0.065240458 0.012343149 -0.47704095 0 0
0 0.064485751 0.012340542 -0.47704095 0 0
0 0.063731357 0.012337967 -0.47704095 0 0
0 0.062977277 0.012335422 -0.47704095 0 0
0 0.062223509 0.012332907 -0.47704095 0 0
5.5511151e-17 0.061470047 0.012330424 -0.47704095 0 0
5.5511151e-17 0.057707176 0.012318468 -0.47704095 0 0
0 0.056204032 0.012313899 -0.47704095 0 0
5.5511151e-17 0.055452876 0.012311661 -0.47704095 0 0
0 0.054701991 0.012309453 -0.47704095 0 0
0 0.053951371 0.012307276 -0.47704095 0 0
0 0.053201016 0.012305128 -0.47704095 0 0
5.5511151e-17 0.050951496 0.012298871 -0.47704095 0 0
5.5511151e-17 0.050202157 0.012296845 -0.47704095 0 0
0 0.047955599 0.012290951 -0.47704095 0 0
0 0.047207218 0.012289047 -0.47704095 0 0
0 0.046459068 0.012287173 -0.47704095 0 0
0 0.044215962 0.012281733 -0.47704095 0 0
5.5511151e-17 0.042721637 0.012278256 -0.47704095 0 0
0 0.04197479 0.012276563 -0.47704095 0 0
0 0.040481701 0.012273268 -0.47704095 0 0
0 0.039735455 0.012271665 -0.47704095 0 0
5.5511151e-17 0.038989402 0.012270092 -0.47704095 0 0
0 0.036752362 0.012265554 -0.47704095 0 0
5.5511151e-17 0.035261903 0.012262678 -0.47704095 0 0
0 0.03153868 0.012256011 -0.47704095 0 0
0 0.030050486 0.012253554 -0.47704095 0 0
0 0.029306611 0.012252369 -0.47704095 0 0
0 0.028562875 0.012251215 -0.47704095 0 0
0 0.02781928 0.012250091 -0.47704095 0 0
0 0.027075818 0.012248996 -0.47704095 0 0
5.5511151e-17 0.026332488 0.01224793 -0.47704095 0 0
0 0.025589285 0.012246896 -0.47704095 0 0
5.5511151e-17 0.024103247 0.012244914 -0.47704095 0 0
0 0.023360405 0.012243968 -0.47704095 0 0
0 0.022617675 0.012243051 -0.47704095 0 0
0 0.021132542 0.012241307 -0.47704095 0 0
5.5511151e-17 0.020390129 0.01224048 -0.47704095 0 0
5.5511151e-17 0.019647816 0.012239682 -0.47704095 0 0
0 0.018905599 0.012238913 -0.47704095 0 0
0 0.018163471 0.012238175 -0.47704095 0 0
5.5511151e-17 0.017421432 0.012237466 -0.47704095 0 0
5.5511151e-17 0.012229313 0.012233331 -0.47704095 0 0
0 0.011487847 0.012232859 -0.47704095 0 0
5.5511151e-17 0.010746436 0.012232416 -0.47704095 0 0
0 0.0085225012 0.012231265 -0.47704095 0 0
0 0.007781276 0.01223094 -0.47704095 0 0
5.5511151e-17 0.007040089 0.012230645 -0.47704095 0 0
0 0.006298936 0.01223038 -0.47704095 0 0
5.5511151e-17 0.0055578132 0.012230143 -0.47704095 0 0
5.5511151e-17 0.0040756445 0.01222976 -0.47704095 0 0
0 0.0033345912 0.012229612 -0.47704095 0 0
0 0.0025935543 0.012229494 -0.47704095 0 0
5.5511151e-17 0.0018525298 0.012229405 -0.47704095 0 0
0 0.0011115143 0.012229347 -0.47704095 0 0
0 0.00037050419 0.012229317 -0.47704095 0 0
5.5511151e-17 0.079645269 0.011646857 -0.47704095 0 0
0 0.078883797 0.01164385 -0.47704095 0 0
0.011463206 0.079999998 0.011920603 -0.47704095 0 0
0 0.077362038 0.011637928 -0.47704095 0 0
0 0.076601729 0.011635011 -0.47704095 0 0
0 0.075841807 0.011632124 -0.47704095 0 0
0 0.07508225 0.011629266 -0.47704095 0 0
5.5511151e-17 0.074323073 0.011626437 -0.47704095 0 0
5.5511151e-17 0.073564261 0.011623639 -0.47704095 0 0
0 0.072805814 0.011620869 -0.47704095 0 0
5.5511151e-17 0.072047725 0.011618129 -0.47704095 0 0
0 0.071289986 0.011615418 -0.47704095 0 0
0 0.070532605 0.011612736 -0.47704095 0 0
5.5511151e-17 0.068262532 0.011604866 -0.47704095 0 0
5.5511151e-17 0.067506522 0.011602301 -0.47704095 0 0
5.5511151e-17 0.065995485 0.011597259 -0.47704095 0 0
5.5511151e-17 0.065240458 0.011594781 -0.47704095 0 0
5.5511151e-17 0.064485751 0.011592332 -0.47704095 0 0
0 0.063731357 0.011589913 -0.47704095 0 0
0 0.062977277 0.011587522 -0.47704095 0 0
5.5511151e-17 0.062223509 0.01158516 -0.47704095 0 0
0 0.061470047 0.011582827 -0.47704095 0 0
0 0.060716886 0.011580523 -0.47704095 0 0
0 0.05996402 0.011578248 -0.47704095 0 0
5.5511151e-17 0.05845917 0.011573784 -0.47704095 0 0
0 0.057707176 0.011571595 -0.47704095 0 0
5.5511151e-17 0.056955464 0.011569436 -0.47704095 0 0
5.5511151e-17 0.056204032 0.011567304 -0.47704095 0 0
5.5511151e-17 0.053951371 0.011561083 -0.47704095 0 0
0 0.053201016 0.011559065 -0.47704095 0 0
0 0.052450921 0.011557078 -0.47704095 0 0
0 0.050951496 0.011553187 -0.47704095 0 0
0 0.049453065 0.01154941 -0.47704095 0 0
0 0.048704214 0.011547565 -0.47704095 0 0
0 0.047955599 0.011545748 -0.47704095 0 0
0 0.045711145 0.011540467 -0.47704095 0 0
0 0.044963442 0.011538764 -0.47704095 0 0
0 0.044215962 0.011537088 -0.47704095 0 0
0 0.043468695 0.011535442 -0.47704095 0 0
0 0.042721637 0.011533823 -0.47704095 0 0
5.5511151e-17 0.04197479 0.011532232 -0.47704095 0 0
0 0.041228145 0.01153067 -0.47704095 0 0
0 0.038989402 0.011526153 -0.47704095 0 0
0 0.03824354 0.011524704 -0.47704095 0 0
0 0.037497859 0.011523283 -0.47704095 0 0
0 0.036752362 0.01152189 -0.47704095 0 0
0 0.036007047 0.011520525 -0.47704095 0 0
5.5511151e-17 0.035261903 0.011519188 -0.47704095 0 0
0 0.034516931 0.01151788 -0.47704095 0 0
0 0.033772126 0.011516599 -0.47704095 0 0
0 0.033027485 0.011515347 -0.47704095 0 0
5.5511151e-17 0.032283004 0.011514123 -0.47704095 0 0
5.5511151e-17 0.03153868 0.011512926 -0.47704095 0 0
0 0.030794509 0.011511758 -0.47704095 0 0
0 0.030050486 0.011510618 -0.47704095 0 0
5.5511151e-17 0.029306611 0.011509505 -0.47704095 0 0
0 0.028562875 0.011508421 -0.47704095 0 0
0 0.02781928 0.011507365 -0.47704095 0 0
0 0.027075818 0.011506336 -0.47704095 0 0
0 0.025589285 0.011504363 -0.47704095 0 0
0 0.024846205 0.011503418 -0.47704095 0 0
0 0.022617675 0.011500752 -0.47704095 0 0
0 0.021875056 0.011499919 -0.47704095 0 0
5.5511151e-17 0.021132542 0.011499113 -0.47704095 0 0
0 0.019647816 0.011497587 -0.47704095 0 0
0 0.018905599 0.011496865 -0.47704095 0 0
5.5511151e-17 0.018163471 0.011496171 -0.47704095 0 0
0 0.017421432 0.011495505 -0.47704095 0 0
0 0.016679477 0.011494868 -0.47704095 0 0
5.5511151e-17 0.015937602 0.011494257 -0.47704095 0 0
0 0.015195805 0.011493674 -0.47704095 0 0
0 0.014454081 0.011493119 -0.47704095 0 0
0 0.013712427 0.011492592 -0.47704095 0 0
5.5511151e-17 0.012970839 0.011492093 -0.47704095 0 0
0 0.012229313 0.011491622 -0.47704095 0 0
0 0.011487847 0.011491178 -0.47704095 0 0
0 0.010746436 0.011490761 -0.47704095 0 0
5.5511151e-17 0.010005077 0.011490374 -0.47704095 0 0
0 0.0092637669 0.011490013 -0.47704095 0 0
0 0.0085225012 0.01148968 -0.47704095 0 0
5.5511151e-17 0.007040089 0.011489098 -0.47704095 0 0
0 0.0055578132 0.011488627 -0.47704095 0 0
5.5511151e-17 0.004816717 0.011488433 -0.47704095 0 0
0 0.0040756445 0.011488266 -0.47704095 0 0
5.5511151e-17 0.0033345912 0.011488128 -0.47704095 0 0
5.5511151e-17 0.0025935543 0.011488017 -0.47704095 0 0
0 0.0018525298 0.011487934 -0.47704095 0 0
0 0.0011115143 0.011487878 -0.47704095 0 0
5.5511151e-17 0.00037050419 0.011487851 -0.47704095 0 0
0 0.079645269 0.010895183 -0.47704095 0 0
0 0.078883797 0.010892372 -0.47704095 0 0
0.011463206 0.079999998 0.011151263 -0.47704095 0 0
0 0.077362038 0.010886831 -0.47704095 0 0
0 0.076601729 0.010884102 -0.47704095 0 0
0 0.075841807 0.010881402 -0.47704095 0 0
5.5511151e-17 0.074323073 0.010876082 -0.47704095 0 0
5.5511151e-17 0.073564261 0.010873464 -0.47704095 0 0
0 0.072805814 0.010870873 -0.47704095 0 0
5.5511151e-17 0.072047725 0.01086831 -0.47704095 0 0
0 0.071289986 0.010865773 -0.47704095 0 0
0 0.070532605 0.010863265 -0.47704095 0 0
0 0.069775574 0.010860784 -0.47704095 0 0
5.5511151e-17 0.069018885 0.01085833 -0.47704095 0 0
5.5511151e-17 0.067506522 0.010853504 -0.47704095 0 0
0 0.066750839 0.010851132 -0.47704095 0 0
5.5511151e-17 0.065240458 0.010846469 -0.47704095 0 0
0 0.064485751 0.010844178 -0.47704095 0 0
0 0.063731357 0.010841914 -0.47704095 0 0
0 0.062977277 0.010839678 -0.47704095 0 0
5.5511151e-17 0.061470047 0.010835286 -0.47704095 0 0
0 0.060716886 0.010833131 -0.47704095 0 0
0 0.05996402 0.010831003 -0.47704095 0 0
5.5511151e-17 0.059211452 0.010828902 -0.47704095 0 0
0 0.05845917 0.010826827 -0.47704095 0 0
0 0.057707176 0.01082478 -0.47704095 0 0
0 0.056204032 0.010820765 -0.47704095 0 0
0 0.053201016 0.010813058 -0.47704095 0 0
0 0.052450921 0.010811199 -0.47704095 0 0
0 0.051701084 0.010809366 -0.47704095 0 0
0 0.049453065 0.010804026 -0.47704095 0 0
5.5511151e-17 0.047207218 0.010798926 -0.47704095 0 0
0 0.043468695 0.010790959 -0.47704095 0 0
0 0.042721637 0.010789445 -0.47704095 0 0
0 0.040481701 0.010785061 -0.47704095 0 0
0 0.039735455 0.010783652 -0.47704095 0 0
0 0.038989402 0.01078227 -0.47704095 0 0
0 0.03824354 0.010780915 -0.47704095 0 0
0 0.037497859 0.010779585 -0.47704095 0 0
5.5511151e-17 0.036752362 0.010778282 -0.47704095 0 0
0 0.036007047 0.010777005 -0.47704095 0 0
0 0.035261903 0.010775755 -0.47704095 0 0
0 0.034516931 0.01077453 -0.47704095 0 0
0 0.033027485 0.010772161 -0.47704095 0 0
0 0.032283004 0.010771016 -0.47704095 0 0
0 0.030794509 0.010768804 -0.47704095 0 0
0 0.030050486 0.010767737 -0.47704095 0 0
0 0.028562875 0.010765682 -0.47704095 0 0
5.5511151e-17 0.02781928 0.010764694 -0.47704095 0 0
5.5511151e-17 0.025589285 0.010761886 -0.47704095 0 0
5.5511151e-17 0.022617675 0.010758508 -0.47704095 0 0
5.5511151e-17 0.021875056 0.010757729 -0.47704095 0 0
0 0.021132542 0.010756976 -0.47704095 0 0
0 0.019647816 0.010755547 -0.47704095 0 0
0 0.018163471 0.010754223 -0.47704095 0 0
