# .PCD v0.7 - Point Cloud Data file format
VERSION 0.7
FIELDS x y z vp_x vp_y vp_z
SIZE 4 4 4 4 4 4
TYPE F F F F F F
COUNT 1 1 1 1 1 1
WIDTH 733
HEIGHT 1
VIEWPOINT 0 0 0 1 0 0 0
POINTS 733
DATA ascii
0.0051338524 0.015797922 0.039999999 -0.38593423 -0.23852047 0.14741376
0.00551807 0.015164279 0.039999999 -0.38593423 -0.23852047 0.14741376
0.0059026307 0.014530935 0.039999999 -0.38593423 -0.23852047 0.14741376
0.0062875375 0.013897886 0.039999999 -0.38593423 -0.23852047 0.14741376
0.0066727931 0.013265129 0.039999999 -0.38593423 -0.23852047 0.14741376
0.0070584007 0.012632659 0.039999999 -0.38593423 -0.23852047 0.14741376
0.0074443626 0.012000469 0.039999999 -0.38593423 -0.23852047 0.14741376
0.0078306822 0.011368555 0.039999999 -0.38593423 -0.23852047 0.14741376
0.0082173618 0.010736913 0.039999999 -0.38593423 -0.23852047 0.14741376
0.0086044045 0.010105538 0.039999999 -0.38593423 -0.23852047 0.14741376
0.0089918133 0.0094744256 0.039999999 -0.38593423 -0.23852047 0.14741376
0.0093795909 0.0088435709 0.039999999 -0.38593423 -0.23852047 0.14741376
0.00976774 0.0082129687 0.039999999 -0.38593423 -0.23852047 0.14741376
0.010156265 0.0075826142 0.039999999 -0.38593423 -0.23852047 0.14741376
0.010545167 0.0069525028 0.039999999 -0.38593423 -0.23852047 0.14741376
0.01093445 0.0063226302 0.039999999 -0.38593423 -0.23852047 0.14741376
0.011324116 0.0056929914 0.039999999 -0.38593423 -0.23852047 0.14741376
0.011714169 0.0050635817 0.039999999 -0.38593423 -0.23852047 0.14741376
0.012104611 0.004434396 0.039999999 -0.38593423 -0.23852047 0.14741376
0.012495445 0.0038054301 0.039999999 -0.38593423 -0.23852047 0.14741376
0.012886675 0.0031766789 0.039999999 -0.38593423 -0.23852047 0.14741376
0.013278303 0.0025481379 0.039999999 -0.38593423 -0.23852047 0.14741376
0.013670332 0.0019198024 0.039999999 -0.38593423 -0.23852047 0.14741376
0.014062765 0.0012916677 0.039999999 -0.38593423 -0.23852047 0.14741376
0.014455605 0.00066372892 0.039999999 -0.38593423 -0.23852047 0.14741376
0.014848856 3.5981488e-05 0.039999999 -0.38593423 -0.23852047 0.14741376
0.016239993 0 0.039732929 -0.38593423 -0.23852047 0.14741376
0.039999999 0.013178182 0.033483181 -0.38593423 -0.23852047 0.14741376
0.0191666 0 0.039162125 -0.38593423 -0.23852047 0.14741376
0.039999999 0.010448423 0.033818323 -0.38593423 -0.23852047 0.14741376
0.023616135 0 0.038295083 -0.38593423 -0.23852047 0.14741376
0.026623089 2.7755576e-17 0.037709668 -0.38593423 -0.23852047 0.14741376
0.028138965 2.7755576e-17 0.037414707 -0.38593423 -0.23852047 0.14741376
0.039999999 0.0059325104 0.034374941 -0.38593423 -0.23852047 0.14741376
0.031195896 0 0.036820207 -0.38593423 -0.23852047 0.14741376
0.032737106 0 0.036520638 -0.38593423 -0.23852047 0.14741376
0.034286913 0 0.036219504 -0.38593423 -0.23852047 0.14741376
0.035845403 0 0.035916794 -0.38593423 -0.23852047 0.14741376
0.037412651 2.7755576e-17 0.035612486 -0.38593423 -0.23852047 0.14741376
0.039999999 0.00056764763 0.035039771 -0.38593423 -0.23852047 0.14741376
0 0.079574727 0.032858785 -0.38593423 -0.23852047 0.14741376
0 0.078547969 0.032974266 -0.38593423 -0.23852047 0.14741376
0 0.076502368 0.033204667 -0.38593423 -0.23852047 0.14741376
0 0.075483486 0.033319585 -0.38593423 -0.23852047 0.14741376
0 0.074467197 0.033434324 -0.38593423 -0.23852047 0.14741376
0 0.073453479 0.033548877 -0.38593423 -0.23852047 0.14741376
0 0.07244233 0.033663251 -0.38593423 -0.23852047 0.14741376
0 0.07143373 0.033777442 -0.38593423 -0.23852047 0.14741376
0 0.070427664 0.033891454 -0.38593423 -0.23852047 0.14741376
5.5511151e-17 0.069424123 0.034005292 -0.38593423 -0.23852047 0.14741376
0 0.068423085 0.03411895 -0.38593423 -0.23852047 0.14741376
0 0.067424536 0.03423243 -0.38593423 -0.23852047 0.14741376
0 0.066428468 0.034345739 -0.38593423 -0.23852047 0.14741376
0 0.065434866 0.034458876 -0.38593423 -0.23852047 0.14741376
0 0.064443715 0.034571838 -0.38593423 -0.23852047 0.14741376
0 0.062468715 0.034797251 -0.38593423 -0.23852047 0.14741376
0 0.061484836 0.034909703 -0.38593423 -0.23852047 0.14741376
0 0.060503356 0.035021991 -0.38593423 -0.23852047 0.14741376
5.5511151e-17 0.05854753 0.035246063 -0.38593423 -0.23852047 0.14741376
0 0.057573162 0.035357852 -0.38593423 -0.23852047 0.14741376
0 0.056601137 0.03546948 -0.38593423 -0.23852047 0.14741376
0 0.055631444 0.035580944 -0.38593423 -0.23852047 0.14741376
0 0.054664072 0.035692248 -0.38593423 -0.23852047 0.14741376
0 0.053699002 0.035803393 -0.38593423 -0.23852047 0.14741376
0 0.051775735 0.036025207 -0.38593423 -0.23852047 0.14741376
0 0.049861539 0.036246393 -0.38593423 -0.23852047 0.14741376
0 0.048907813 0.036356755 -0.38593423 -0.23852047 0.14741376
0 0.047956318 0.036466964 -0.38593423 -0.23852047 0.14741376
5.5511151e-17 0.047007043 0.03657702 -0.38593423 -0.23852047 0.14741376
0 0.045115098 0.036796678 -0.38593423 -0.23852047 0.14741376
0 0.044172406 0.036906283 -0.38593423 -0.23852047 0.14741376
0.039999999 0.072434001 0.025573581 -0.38593423 -0.23852047 0.14741376
0 0.042293526 0.037125051 -0.38593423 -0.23852047 0.14741376
0 0.041357312 0.037234213 -0.38593423 -0.23852047 0.14741376
0 0.040423233 0.037343234 -0.38593423 -0.23852047 0.14741376
0 0.039491277 0.037452109 -0.38593423 -0.23852047 0.14741376
0 0.038561434 0.037560839 -0.38593423 -0.23852047 0.14741376
0 0.037633695 0.037669428 -0.38593423 -0.23852047 0.14741376
0 0.036708042 0.037777875 -0.38593423 -0.23852047 0.14741376
0 0.035784468 0.037886184 -0.38593423 -0.23852047 0.14741376
5.5511151e-17 0.034862962 0.037994351 -0.38593423 -0.23852047 0.14741376
0 0.033026107 0.038210277 -0.38593423 -0.23852047 0.14741376
0 0.032110732 0.038318031 -0.38593423 -0.23852047 0.14741376
0 0.031197384 0.03842565 -0.38593423 -0.23852047 0.14741376
0 0.030286046 0.03853314 -0.38593423 -0.23852047 0.14741376
0 0.02937671 0.038640492 -0.38593423 -0.23852047 0.14741376
5.5511151e-17 0.028469363 0.038747713 -0.38593423 -0.23852047 0.14741376
0 0.027563997 0.0388548 -0.38593423 -0.23852047 0.14741376
0 0.026660597 0.038961761 -0.38593423 -0.23852047 0.14741376
0 0.025759159 0.039068587 -0.38593423 -0.23852047 0.14741376
0 0.024859665 0.039175287 -0.38593423 -0.23852047 0.14741376
0 0.02396211 0.039281856 -0.38593423 -0.23852047 0.14741376
0 0.023066483 0.039388303 -0.38593423 -0.23852047 0.14741376
5.5511151e-17 0.022172771 0.039494619 -0.38593423 -0.23852047 0.14741376
0 0.021280967 0.039600812 -0.38593423 -0.23852047 0.14741376
0 0.020391056 0.039706882 -0.38593423 -0.23852047 0.14741376
0.039999999 0.046245776 0.028660569 -0.38593423 -0.23852047 0.14741376
0 0.018616887 0.039918646 -0.38593423 -0.23852047 0.14741376
8.7504566e-05 0.017790707 0.039999999 -0.38593423 -0.23852047 0.14741376
0.00046739366 0.017159451 0.039999999 -0.38593423 -0.23852047 0.14741376
0.00084759801 0.016528517 0.039999999 -0.38593423 -0.23852047 0.14741376
0.0012281205 0.015897898 0.039999999 -0.38593423 -0.23852047 0.14741376
0.0016089638 0.01526759 0.039999999 -0.38593423 -0.23852047 0.14741376
0.0019901306 0.014637589 0.039999999 -0.38593423 -0.23852047 0.14741376
0.0023716241 0.014007891 0.039999999 -0.38593423 -0.23852047 0.14741376
0.0027534466 0.013378488 0.039999999 -0.38593423 -0.23852047 0.14741376
0.0031356013 0.012749378 0.039999999 -0.38593423 -0.23852047 0.14741376
0.0035180906 0.012120555 0.039999999 -0.38593423 -0.23852047 0.14741376
0.0039009177 0.011492016 0.039999999 -0.38593423 -0.23852047 0.14741376
0.0042840852 0.010863754 0.039999999 -0.38593423 -0.23852047 0.14741376
0.004667596 0.010235766 0.039999999 -0.38593423 -0.23852047 0.14741376
0.0050514527 0.0096080462 0.039999999 -0.38593423 -0.23852047 0.14741376
0.0054356586 0.0089805899 0.039999999 -0.38593423 -0.23852047 0.14741376
0.0058202161 0.0083533935 0.039999999 -0.38593423 -0.23852047 0.14741376
0.006205128 0.0077264518 0.039999999 -0.38593423 -0.23852047 0.14741376
0.0065903976 0.0070997602 0.039999999 -0.38593423 -0.23852047 0.14741376
0.0069760275 0.0064733136 0.039999999 -0.38593423 -0.23852047 0.14741376
0.0073620207 0.0058471072 0.039999999 -0.38593423 -0.23852047 0.14741376
0.0077483798 0.0052211368 0.039999999 -0.38593423 -0.23852047 0.14741376
0.0081351073 0.004595398 0.039999999 -0.38593423 -0.23852047 0.14741376
0.0085222078 0.0039698854 0.039999999 -0.38593423 -0.23852047 0.14741376
0.0089096818 0.003344595 0.039999999 -0.38593423 -0.23852047 0.14741376
0.0092975339 0.0027195218 0.039999999 -0.38593423 -0.23852047 0.14741376
0.009685766 0.0020946609 0.039999999 -0.38593423 -0.23852047 0.14741376
0.010074383 0.0014700082 0.039999999 -0.38593423 -0.23852047 0.14741376
0.010463384 0.00084555877 0.039999999 -0.38593423 -0.23852047 0.14741376
0.010852776 0.00022130799 0.039999999 -0.38593423 -0.23852047 0.14741376
0.039999999 0.016838077 0.032222744 -0.38593423 -0.23852047 0.14741376
0.013351303 0 0.039535683 -0.38593423 -0.23852047 0.14741376
0.014795925 0 0.039251637 -0.38593423 -0.23852047 0.14741376
0.039999999 0.014086324 0.032561578 -0.38593423 -0.23852047 0.14741376
0.017708415 2.7755576e-17 0.038679283 -0.38593423 -0.23852047 0.14741376
0.019176424 0 0.038390949 -0.38593423 -0.23852047 0.14741376
0.020652365 2.7755576e-17 0.038101159 -0.38593423 -0.23852047 0.14741376
0.022136312 2.7755576e-17 0.037809901 -0.38593423 -0.23852047 0.14741376
0.023628339 0 0.03751716 -0.38593423 -0.23852047 0.14741376
0.025128517 0 0.037222926 -0.38593423 -0.23852047 0.14741376
0.026636921 0 0.036927179 -0.38593423 -0.23852047 0.14741376
0.028153626 2.7755576e-17 0.036629908 -0.38593423 -0.23852047 0.14741376
0.029678706 0 0.036331102 -0.38593423 -0.23852047 0.14741376
0.031212239 0 0.036030743 -0.38593423 -0.23852047 0.14741376
0.032754302 2.7755576e-17 0.035728823 -0.38593423 -0.23852047 0.14741376
0.039999999 0.0032323957 0.033907667 -0.38593423 -0.23852047 0.14741376
0.039999999 0.0023386511 0.034019202 -0.38593423 -0.23852047 0.14741376
0.037432469 2.7755576e-17 0.034813512 -0.38593423 -0.23852047 0.14741376
0.039999999 0.00055599329 0.034241989 -0.38593423 -0.23852047 0.14741376
0 0.079618096 0.03203522 -0.38593423 -0.23852047 0.14741376
0 0.077566005 0.032268241 -0.38593423 -0.23852047 0.14741376
0 0.076543912 0.032384463 -0.38593423 -0.23852047 0.14741376
0 0.07552442 0.032500494 -0.38593423 -0.23852047 0.14741376
0 0.074507527 0.032616336 -0.38593423 -0.23852047 0.14741376
0 0.073493212 0.032731991 -0.38593423 -0.23852047 0.14741376
0 0.072481468 0.03284746 -0.38593423 -0.23852047 0.14741376
0 0.068459861 0.033307496 -0.38593423 -0.23852047 0.14741376
0 0.067460731 0.033422053 -0.38593423 -0.23852047 0.14741376
0 0.066464089 0.03353643 -0.38593423 -0.23852047 0.14741376
0 0.063488901 0.033878494 -0.38593423 -0.23852047 0.14741376
5.5511151e-17 0.060535558 0.034218993 -0.38593423 -0.23852047 0.14741376
5.5511151e-17 0.059555899 0.034332149 -0.38593423 -0.23852047 0.14741376
0 0.058578618 0.034445133 -0.38593423 -0.23852047 0.14741376
0 0.057603694 0.03455795 -0.38593423 -0.23852047 0.14741376
0 0.056631118 0.034670599 -0.38593423 -0.23852047 0.14741376
0 0.055660874 0.034783084 -0.38593423 -0.23852047 0.14741376
0 0.054692954 0.034895401 -0.38593423 -0.23852047 0.14741376
0 0.052764028 0.035119545 -0.38593423 -0.23852047 0.14741376
0 0.051802997 0.035231374 -0.38593423 -0.23852047 0.14741376
0 0.050844233 0.035343044 -0.38593423 -0.23852047 0.14741376
0 0.049887732 0.035454553 -0.38593423 -0.23852047 0.14741376
0 0.048933472 0.035565902 -0.38593423 -0.23852047 0.14741376
0.039999999 0.077675827 0.024096189 -0.38593423 -0.23852047 0.14741376
0 0.047031648 0.03578813 -0.38593423 -0.23852047 0.14741376
0 0.046084054 0.03589901 -0.38593423 -0.23852047 0.14741376
0 0.045138661 0.036009733 -0.38593423 -0.23852047 0.14741376
0 0.044195447 0.036120307 -0.38593423 -0.23852047 0.14741376
0.039999999 0.072458856 0.024707204 -0.38593423 -0.23852047 0.14741376
0 0.042315535 0.036340993 -0.38593423 -0.23852047 0.14741376
0 0.041378807 0.036451112 -0.38593423 -0.23852047 0.14741376
0 0.040444221 0.036561083 -0.38593423 -0.23852047 0.14741376
0 0.039511759 0.036670905 -0.38593423 -0.23852047 0.14741376
0 0.038581412 0.036780577 -0.38593423 -0.23852047 0.14741376
0 0.037653167 0.036890104 -0.38593423 -0.23852047 0.14741376
5.5511151e-17 0.036727015 0.036999486 -0.38593423 -0.23852047 0.14741376
0.039999999 0.064235084 0.025676202 -0.38593423 -0.23852047 0.14741376
0 0.03488094 0.037217818 -0.38593423 -0.23852047 0.14741376
5.5511151e-17 0.033960998 0.037326772 -0.38593423 -0.23852047 0.14741376
0 0.033043098 0.037435584 -0.38593423 -0.23852047 0.14741376
5.5511151e-17 0.032127239 0.037544254 -0.38593423 -0.23852047 0.14741376
0.039999999 0.059169862 0.026276652 -0.38593423 -0.23852047 0.14741376
0 0.030301578 0.037761178 -0.38593423 -0.23852047 0.14741376
0.039999999 0.057159416 0.026515756 -0.38593423 -0.23852047 0.14741376
0 0.028483931 0.037977554 -0.38593423 -0.23852047 0.14741376
0 0.027578086 0.038085539 -0.38593423 -0.23852047 0.14741376
0 0.026674211 0.038193386 -0.38593423 -0.23852047 0.14741376
5.5511151e-17 0.025772296 0.038301103 -0.38593423 -0.23852047 0.14741376
0 0.024872333 0.038408685 -0.38593423 -0.23852047 0.14741376
5.5511151e-17 0.023974307 0.038516138 -0.38593423 -0.23852047 0.14741376
0 0.023078211 0.038623456 -0.38593423 -0.23852047 0.14741376
0 0.022184033 0.038730647 -0.38593423 -0.23852047 0.14741376
0.039999999 0.048219897 0.027584387 -0.38593423 -0.23852047 0.14741376
0 0.02040139 0.038944643 -0.38593423 -0.23852047 0.14741376
0.039999999 0.046256673 0.02782028 -0.38593423 -0.23852047 0.14741376
0 0.018626301 0.039158128 -0.38593423 -0.23852047 0.14741376
5.5511151e-17 0.017741563 0.039264683 -0.38593423 -0.23852047 0.14741376
0 0.016858682 0.039371114 -0.38593423 -0.23852047 0.14741376
0 0.015977649 0.039477419 -0.38593423 -0.23852047 0.14741376
0 0.015098455 0.039583605 -0.38593423 -0.23852047 0.14741376
0 0.014221089 0.039689664 -0.38593423 -0.23852047 0.14741376
5.5511151e-17 0.013345541 0.039795604 -0.38593423 -0.23852047 0.14741376
5.5511151e-17 0.012471802 0.039901424 -0.38593423 -0.23852047 0.14741376
2.5611678e-05 0.01161646 0.039999999 -0.38593423 -0.23852047 0.14741376
0.00040539054 0.010991527 0.039999999 -0.38593423 -0.23852047 0.14741376
0.00078549329 0.010366872 0.039999999 -0.38593423 -0.23852047 0.14741376
0.0011659227 0.0097424928 0.039999999 -0.38593423 -0.23852047 0.14741376
0.0015466816 0.0091183847 0.039999999 -0.38593423 -0.23852047 0.14741376
0.0019277728 0.008494541 0.039999999 -0.38593423 -0.23852047 0.14741376
0.002309199 0.0078709591 0.039999999 -0.38593423 -0.23852047 0.14741376
0.002690963 0.0072476333 0.039999999 -0.38593423 -0.23852047 0.14741376
0.0030730674 0.0066245589 0.039999999 -0.38593423 -0.23852047 0.14741376
0.0034555155 0.0060017318 0.039999999 -0.38593423 -0.23852047 0.14741376
0.0038383098 0.0053791474 0.039999999 -0.38593423 -0.23852047 0.14741376
0.0042214529 0.0047568008 0.039999999 -0.38593423 -0.23852047 0.14741376
0.0046049478 0.0041346876 0.039999999 -0.38593423 -0.23852047 0.14741376
0.0049887979 0.0035128032 0.039999999 -0.38593423 -0.23852047 0.14741376
0.0053730048 0.0028911429 0.039999999 -0.38593423 -0.23852047 0.14741376
0.0057575726 0.002269702 0.039999999 -0.38593423 -0.23852047 0.14741376
0.0061425031 0.0016484762 0.039999999 -0.38593423 -0.23852047 0.14741376
0.0065278001 0.0010274607 0.039999999 -0.38593423 -0.23852047 0.14741376
0.0069134659 0.00040665088 0.039999999 -0.38593423 -0.23852047 0.14741376
0.0076525584 2.7755576e-17 0.039903559 -0.38593423 -0.23852047 0.14741376
0.0090676732 0 0.039622936 -0.38593423 -0.23852047 0.14741376
0.039999999 0.017755408 0.031296011 -0.38593423 -0.23852047 0.14741376
0.011920366 2.7755576e-17 0.03905753 -0.38593423 -0.23852047 0.14741376
0.013358075 0 0.038772725 -0.38593423 -0.23852047 0.14741376
0.039999999 0.014997074 0.031637654 -0.38593423 -0.23852047 0.14741376
0.019186255 2.7755576e-17 0.037619188 -0.38593423 -0.23852047 0.14741376
0.020662982 0 0.037327163 -0.38593423 -0.23852047 0.14741376
0.039999999 0.010434506 0.032204878 -0.38593423 -0.23852047 0.14741376
0.023640553 0 0.036738645 -0.38593423 -0.23852047 0.14741376
0.025141541 2.7755576e-17 0.036442127 -0.38593423 -0.23852047 0.14741376
0.026650764 0 0.036144085 -0.38593423 -0.23852047 0.14741376
0.028168296 2.7755576e-17 0.035844501 -0.38593423 -0.23852047 0.14741376
0.029694216 0 0.035543367 -0.38593423 -0.23852047 0.14741376
0.039999999 0.0050152102 0.032882079 -0.38593423 -0.23852047 0.14741376
0.032771517 0 0.034936387 -0.38593423 -0.23852047 0.14741376
0.034323055 0 0.034630507 -0.38593423 -0.23852047 0.14741376
0.035883289 0 0.034323018 -0.38593423 -0.23852047 0.14741376
0.039999999 0.0014352769 0.033331528 -0.38593423 -0.23852047 0.14741376
0.039030183 0 0.033703148 -0.38593423 -0.23852047 0.14741376
0 0.079661511 0.031210974 -0.38593423 -0.23852047 0.14741376
0 0.078633532 0.031328708 -0.38593423 -0.23852047 0.14741376
0 0.07760819 0.031446245 -0.38593423 -0.23852047 0.14741376
0 0.076585487 0.031563584 -0.38593423 -0.23852047 0.14741376
0 0.07556539 0.031680729 -0.38593423 -0.23852047 0.14741376
0 0.074547887 0.031797681 -0.38593423 -0.23852047 0.14741376
0.0079981321 0.079999998 0.029520821 -0.38593423 -0.23852047 0.14741376
0 0.072520636 0.032031007 -0.38593423 -0.23852047 0.14741376
0 0.0705036 0.032263573 -0.38593423 -0.23852047 0.14741376
0 0.068496667 0.032495387 -0.38593423 -0.23852047 0.14741376
0 0.067496955 0.03261102 -0.38593423 -0.23852047 0.14741376
0 0.066499732 0.032726467 -0.38593423 -0.23852047 0.14741376
0 0.065504976 0.032841727 -0.38593423 -0.23852047 0.14741376
0 0.064512677 0.032956813 -0.38593423 -0.23852047 0.14741376
0 0.063522823 0.033071712 -0.38593423 -0.23852047 0.14741376
0 0.062535398 0.033186436 -0.38593423 -0.23852047 0.14741376
0 0.06155039 0.033300981 -0.38593423 -0.23852047 0.14741376
0 0.060567785 0.033415351 -0.38593423 -0.23852047 0.14741376
0 0.059587568 0.033529546 -0.38593423 -0.23852047 0.14741376
0 0.058609728 0.033643562 -0.38593423 -0.23852047 0.14741376
0 0.057634249 0.033757411 -0.38593423 -0.23852047 0.14741376
0 0.056661122 0.033871084 -0.38593423 -0.23852047 0.14741376
5.5511151e-17 0.05569033 0.033984587 -0.38593423 -0.23852047 0.14741376
0 0.053755708 0.034211088 -0.38593423 -0.23852047 0.14741376
5.5511151e-17 0.052791849 0.034324083 -0.38593423 -0.23852047 0.14741376
0 0.049913943 0.034662087 -0.38593423 -0.23852047 0.14741376
0 0.048959155 0.034774423 -0.38593423 -0.23852047 0.14741376
0 0.048006602 0.034886602 -0.38593423 -0.23852047 0.14741376
0 0.047056273 0.034998618 -0.38593423 -0.23852047 0.14741376
0 0.046108156 0.035110477 -0.38593423 -0.23852047 0.14741376
0 0.045162238 0.035222173 -0.38593423 -0.23852047 0.14741376
0 0.044218507 0.035333715 -0.38593423 -0.23852047 0.14741376
0 0.043276954 0.035445102 -0.38593423 -0.23852047 0.14741376
0 0.042337563 0.035556328 -0.38593423 -0.23852047 0.14741376
0 0.041400325 0.035667405 -0.38593423 -0.23852047 0.14741376
0 0.040465225 0.035778325 -0.38593423 -0.23852047 0.14741376
5.5511151e-17 0.039532255 0.035889093 -0.38593423 -0.23852047 0.14741376
0 0.038601402 0.035999712 -0.38593423 -0.23852047 0.14741376
0 0.037672658 0.036110178 -0.38593423 -0.23852047 0.14741376
5.5511151e-17 0.036746003 0.036220498 -0.38593423 -0.23852047 0.14741376
0 0.035821434 0.036330666 -0.38593423 -0.23852047 0.14741376
0 0.034898933 0.036440689 -0.38593423 -0.23852047 0.14741376
0.039999999 0.062221542 0.025060194 -0.38593423 -0.23852047 0.14741376
0 0.033060107 0.036660299 -0.38593423 -0.23852047 0.14741376
0 0.032143757 0.036769886 -0.38593423 -0.23852047 0.14741376
0 0.031229431 0.036879327 -0.38593423 -0.23852047 0.14741376
0 0.030317122 0.036988631 -0.38593423 -0.23852047 0.14741376
0.039999999 0.057176039 0.025664136 -0.38593423 -0.23852047 0.14741376
5.5511151e-17 0.028498512 0.03720681 -0.38593423 -0.23852047 0.14741376
0 0.027592186 0.037315693 -0.38593423 -0.23852047 0.14741376
0 0.026687834 0.037424434 -0.38593423 -0.23852047 0.14741376
0 0.025785446 0.037533037 -0.38593423 -0.23852047 0.14741376
0 0.024885008 0.037641507 -0.38593423 -0.23852047 0.14741376
0 0.023986511 0.037749838 -0.38593423 -0.23852047 0.14741376
0 0.023089947 0.037858039 -0.38593423 -0.23852047 0.14741376
0 0.022195302 0.037966102 -0.38593423 -0.23852047 0.14741376
0 0.021302568 0.038074035 -0.38593423 -0.23852047 0.14741376
0 0.020411734 0.038181834 -0.38593423 -0.23852047 0.14741376
0 0.019522788 0.038289502 -0.38593423 -0.23852047 0.14741376
0 0.018635724 0.03839704 -0.38593423 -0.23852047 0.14741376
0 0.017750528 0.038504452 -0.38593423 -0.23852047 0.14741376
0 0.016867192 0.038611732 -0.38593423 -0.23852047 0.14741376
0 0.015985707 0.038718887 -0.38593423 -0.23852047 0.14741376
0 0.015106061 0.038825918 -0.38593423 -0.23852047 0.14741376
5.5511151e-17 0.014228245 0.038932819 -0.38593423 -0.23852047 0.14741376
5.5511151e-17 0.01335225 0.039039597 -0.38593423 -0.23852047 0.14741376
0 0.012478065 0.039146252 -0.38593423 -0.23852047 0.14741376
0.039999999 0.037529904 0.02804248 -0.38593423 -0.23852047 0.14741376
0 0.010735088 0.039359193 -0.38593423 -0.23852047 0.14741376
0.039999999 0.035610221 0.028277224 -0.38593423 -0.23852047 0.14741376
0 0.0089992387 0.03957165 -0.38593423 -0.23852047 0.14741376
0 0.0081339628 0.039677698 -0.38593423 -0.23852047 0.14741376
5.5511151e-17 0.0072704405 0.039783627 -0.38593423 -0.23852047 0.14741376
0 0.0064086625 0.03988944 -0.38593423 -0.23852047 0.14741376
0 0.0055486197 0.039995138 -0.38593423 -0.23852047 0.14741376
0.00036221143 0.0049185636 0.039999999 -0.38593423 -0.23852047 0.14741376
0.00074222725 0.0042997967 0.039999999 -0.38593423 -0.23852047 0.14741376
0.0011225784 0.0036812653 0.039999999 -0.38593423 -0.23852047 0.14741376
0.0015032674 0.0030629646 0.039999999 -0.38593423 -0.23852047 0.14741376
0.0018842974 0.0024448901 0.039999999 -0.38593423 -0.23852047 0.14741376
0.0022656708 0.0018270373 0.039999999 -0.38593423 -0.23852047 0.14741376
0.0026473906 0.0012094016 0.039999999 -0.38593423 -0.23852047 0.14741376
0.0030294596 0.00059197866 0.039999999 -0.38593423 -0.23852047 0.14741376
0.0034530787 2.7755576e-17 0.039988633 -0.38593423 -0.23852047 0.14741376
0.0048468849 2.7755576e-17 0.039709993 -0.38593423 -0.23852047 0.14741376
0.0062479707 0 0.039429992 -0.38593423 -0.23852047 0.14741376
0.0076564001 2.7755576e-17 0.039148625 -0.38593423 -0.23852047 0.14741376
0.0090722376 0 0.038865872 -0.38593423 -0.23852047 0.14741376
0.010495548 0 0.038581725 -0.38593423 -0.23852047 0.14741376
0.011926397 0 0.038296171 -0.38593423 -0.23852047 0.14741376
0.013364852 0 0.038009193 -0.38593423 -0.23852047 0.14741376
0.01481098 2.7755576e-17 0.037720788 -0.38593423 -0.23852047 0.14741376
0.017726531 2.7755576e-17 0.037139624 -0.38593423 -0.23852047 0.14741376
0.039999999 0.012248299 0.031169102 -0.38593423 -0.23852047 0.14741376
0.020673607 0 0.036552574 -0.38593423 -0.23852047 0.14741376
0.022159142 2.7755576e-17 0.036256809 -0.38593423 -0.23852047 0.14741376
0.023652773 0 0.035959531 -0.38593423 -0.23852047 0.14741376
0.025154576 0 0.035660725 -0.38593423 -0.23852047 0.14741376
0.039999999 0.0077090892 0.031738766 -0.38593423 -0.23852047 0.14741376
0.039999999 0.0068062874 0.031852376 -0.38593423 -0.23852047 0.14741376
0.039999999 0.0059051458 0.031965882 -0.38593423 -0.23852047 0.14741376
0.039999999 0.0050056549 0.032079283 -0.38593423 -0.23852047 0.14741376
0.032788742 0 0.034143325 -0.38593423 -0.23852047 0.14741376
0.034341145 0 0.033835068 -0.38593423 -0.23852047 0.14741376
0.035902258 0 0.033525184 -0.38593423 -0.23852047 0.14741376
0.039999999 0.00053266023 0.032644745 -0.38593423 -0.23852047 0.14741376
0 0.079704955 0.030386042 -0.38593423 -0.23852047 0.14741376
0 0.078676358 0.030504905 -0.38593423 -0.23852047 0.14741376
0 0.077650413 0.030623566 -0.38593423 -0.23852047 0.14741376
0 0.076627091 0.030742027 -0.38593423 -0.23852047 0.14741376
0 0.075606391 0.030860286 -0.38593423 -0.23852047 0.14741376
0 0.074588291 0.030978348 -0.38593423 -0.23852047 0.14741376
0 0.073572777 0.031096213 -0.38593423 -0.23852047 0.14741376
0 0.071549453 0.031331353 -0.38593423 -0.23852047 0.14741376
0 0.069536299 0.031565718 -0.38593423 -0.23852047 0.14741376
0 0.06853351 0.031682618 -0.38593423 -0.23852047 0.14741376
0 0.067533217 0.031799324 -0.38593423 -0.23852047 0.14741376
0 0.064547203 0.032148317 -0.38593423 -0.23852047 0.14741376
0 0.063556775 0.032264277 -0.38593423 -0.23852047 0.14741376
0 0.062568784 0.032380056 -0.38593423 -0.23852047 0.14741376
0 0.059619263 0.032726295 -0.38593423 -0.23852047 0.14741376
5.5511151e-17 0.058640864 0.032841351 -0.38593423 -0.23852047 0.14741376
5.5511151e-17 0.05766483 0.032956228 -0.38593423 -0.23852047 0.14741376
0 0.056691147 0.033070929 -0.38593423 -0.23852047 0.14741376
0 0.055719808 0.033185452 -0.38593423 -0.23852047 0.14741376
0 0.054750793 0.033299804 -0.38593423 -0.23852047 0.14741376
0 0.053784091 0.033413984 -0.38593423 -0.23852047 0.14741376
0 0.052819692 0.033527989 -0.38593423 -0.23852047 0.14741376
0 0.049940176 0.033868991 -0.38593423 -0.23852047 0.14741376
0 0.048984855 0.033982322 -0.38593423 -0.23852047 0.14741376
0 0.048031773 0.034095488 -0.38593423 -0.23852047 0.14741376
0 0.047080915 0.034208488 -0.38593423 -0.23852047 0.14741376
0 0.046132274 0.034321323 -0.38593423 -0.23852047 0.14741376
0 0.044241585 0.034546506 -0.38593423 -0.23852047 0.14741376
0 0.043299511 0.034658857 -0.38593423 -0.23852047 0.14741376
0 0.042359605 0.034771048 -0.38593423 -0.23852047 0.14741376
0.039999999 0.070436366 0.023219883 -0.38593423 -0.23852047 0.14741376
5.5511151e-17 0.040486246 0.034994956 -0.38593423 -0.23852047 0.14741376
0 0.039552771 0.035106674 -0.38593423 -0.23852047 0.14741376
0 0.038621411 0.035218239 -0.38593423 -0.23852047 0.14741376
0 0.037692159 0.035329647 -0.38593423 -0.23852047 0.14741376
0 0.036765005 0.035440903 -0.38593423 -0.23852047 0.14741376
0.039999999 0.064275913 0.023958139 -0.38593423 -0.23852047 0.14741376
0 0.034916941 0.03566296 -0.38593423 -0.23852047 0.14741376
0 0.033996008 0.035773762 -0.38593423 -0.23852047 0.14741376
5.5511151e-17 0.033077128 0.035884414 -0.38593423 -0.23852047 0.14741376
0 0.032160286 0.035994921 -0.38593423 -0.23852047 0.14741376
0 0.031245474 0.036105279 -0.38593423 -0.23852047 0.14741376
0 0.030332679 0.036215488 -0.38593423 -0.23852047 0.14741376
5.5511151e-17 0.029421892 0.036325555 -0.38593423 -0.23852047 0.14741376
0 0.028513102 0.036435477 -0.38593423 -0.23852047 0.14741376
0 0.027606299 0.036545254 -0.38593423 -0.23852047 0.14741376
0 0.026701469 0.036654893 -0.38593423 -0.23852047 0.14741376
0 0.025798604 0.036764387 -0.38593423 -0.23852047 0.14741376
0 0.024897693 0.036873743 -0.38593423 -0.23852047 0.14741376
5.5511151e-17 0.023998726 0.036982957 -0.38593423 -0.23852047 0.14741376
0.039999999 0.050217416 0.025657784 -0.38593423 -0.23852047 0.14741376
5.5511151e-17 0.02220658 0.037200976 -0.38593423 -0.23852047 0.14741376
0.039999999 0.048243757 0.025898097 -0.38593423 -0.23852047 0.14741376
5.5511151e-17 0.020422082 0.037418447 -0.38593423 -0.23852047 0.14741376
0 0.019532677 0.03752698 -0.38593423 -0.23852047 0.14741376
0 0.018645152 0.037635382 -0.38593423 -0.23852047 0.14741376
0 0.0177595 0.037743647 -0.38593423 -0.23852047 0.14741376
0.039999999 0.043346144 0.026496276 -0.38593423 -0.23852047 0.14741376
0 0.01599377 0.037959788 -0.38593423 -0.23852047 0.14741376
0.039999999 0.041401483 0.026734529 -0.38593423 -0.23852047 0.14741376
0 0.014235406 0.038175408 -0.38593423 -0.23852047 0.14741376
0 0.013358963 0.038283024 -0.38593423 -0.23852047 0.14741376
0 0.012484332 0.038390514 -0.38593423 -0.23852047 0.14741376
0.039999999 0.037536334 0.027209332 -0.38593423 -0.23852047 0.14741376
0 0.010740468 0.038605116 -0.38593423 -0.23852047 0.14741376
0 0.0090037398 0.038819216 -0.38593423 -0.23852047 0.14741376
0 0.008138027 0.038926084 -0.38593423 -0.23852047 0.14741376
0 0.0072740703 0.039032828 -0.38593423 -0.23852047 0.14741376
0 0.0064118588 0.03913945 -0.38593423 -0.23852047 0.14741376
0.039999999 0.030848114 0.028034944 -0.38593423 -0.23852047 0.14741376
0 0.0046926374 0.039352339 -0.38593423 -0.23852047 0.14741376
0.039999999 0.028954508 0.028269634 -0.38593423 -0.23852047 0.14741376
0 0.0029802888 0.039564751 -0.38593423 -0.23852047 0.14741376
0 0.0021266695 0.03967078 -0.38593423 -0.23852047 0.14741376
0.039999999 0.026128219 0.028620694 -0.38593423 -0.23852047 0.14741376
0 0.00042449503 0.039882492 -0.38593423 -0.23852047 0.14741376
0.00068739447 0 0.03979684 -0.38593423 -0.23852047 0.14741376
0.0020675161 0 0.039518818 -0.38593423 -0.23852047 0.14741376
0.039999999 0.022385783 0.029086998 -0.38593423 -0.23852047 0.14741376
0.0048493058 0 0.038958717 -0.38593423 -0.23852047 0.14741376
0.0062511 2.7755576e-17 0.038676612 -0.38593423 -0.23852047 0.14741376
0.0076602446 0 0.038393125 -0.38593423 -0.23852047 0.14741376
0.0090768049 2.7755576e-17 0.038108241 -0.38593423 -0.23852047 0.14741376
0.010500845 2.7755576e-17 0.037821949 -0.38593423 -0.23852047 0.14741376
0.011932434 0 0.037534237 -0.38593423 -0.23852047 0.14741376
0.013371634 0 0.037245087 -0.38593423 -0.23852047 0.14741376
0.039999999 0.014987543 0.030013734 -0.38593423 -0.23852047 0.14741376
0.016273148 2.7755576e-17 0.036662441 -0.38593423 -0.23852047 0.14741376
0.0177356 2.7755576e-17 0.036368914 -0.38593423 -0.23852047 0.14741376
0.019205939 0 0.036073901 -0.38593423 -0.23852047 0.14741376
0.039999999 0.011330534 0.030474279 -0.38593423 -0.23852047 0.14741376
0.02217057 0 0.035479363 -0.38593423 -0.23852047 0.14741376
0.023665005 0 0.035179809 -0.38593423 -0.23852047 0.14741376
0.025167618 0 0.034878716 -0.38593423 -0.23852047 0.14741376
0.026678484 0 0.03457607 -0.38593423 -0.23852047 0.14741376
0.028197676 2.7755576e-17 0.034271851 -0.38593423 -0.23852047 0.14741376
0.02972527 2.7755576e-17 0.03396605 -0.38593423 -0.23852047 0.14741376
0.031261347 0 0.03365865 -0.38593423 -0.23852047 0.14741376
0.039999999 0.004097817 0.03139 -0.38593423 -0.23852047 0.14741376
0.039999999 0.0032011771 0.031503975 -0.38593423 -0.23852047 0.14741376
0.035921238 0 0.032726716 -0.38593423 -0.23852047 0.14741376
0.037492026 2.7755576e-17 0.032412775 -0.38593423 -0.23852047 0.14741376
0.039999999 0.00052098138 0.031845279 -0.38593423 -0.23852047 0.14741376
0 0.079748444 0.029560419 -0.38593423 -0.23852047 0.14741376
0 0.078719229 0.029680414 -0.38593423 -0.23852047 0.14741376
0 0.077692665 0.029800203 -0.38593423 -0.23852047 0.14741376
0 0.076668732 0.029919785 -0.38593423 -0.23852047 0.14741376
0 0.075647421 0.030039161 -0.38593423 -0.23852047 0.14741376
0 0.074628718 0.030158335 -0.38593423 -0.23852047 0.14741376
0 0.073612608 0.030277306 -0.38593423 -0.23852047 0.14741376
0 0.071588084 0.030514648 -0.38593423 -0.23852047 0.14741376
0 0.070579655 0.030633021 -0.38593423 -0.23852047 0.14741376
0 0.06957376 0.030751197 -0.38593423 -0.23852047 0.14741376
0 0.068570375 0.030869175 -0.38593423 -0.23852047 0.14741376
0 0.067569502 0.030986961 -0.38593423 -0.23852047 0.14741376
0 0.066571116 0.031104553 -0.38593423 -0.23852047 0.14741376
0 0.065575205 0.031221954 -0.38593423 -0.23852047 0.14741376
5.5511151e-17 0.064581759 0.031339165 -0.38593423 -0.23852047 0.14741376
0 0.063590758 0.031456184 -0.38593423 -0.23852047 0.14741376
0 0.062602192 0.031573016 -0.38593423 -0.23852047 0.14741376
0 0.061616052 0.031689662 -0.38593423 -0.23852047 0.14741376
0 0.060632318 0.031806123 -0.38593423 -0.23852047 0.14741376
0 0.05965098 0.031922396 -0.38593423 -0.23852047 0.14741376
0 0.058672022 0.032038487 -0.38593423 -0.23852047 0.14741376
0 0.057695433 0.032154396 -0.38593423 -0.23852047 0.14741376
0 0.056721199 0.032270126 -0.38593423 -0.23852047 0.14741376
0 0.055749308 0.032385677 -0.38593423 -0.23852047 0.14741376
0 0.054779746 0.032501046 -0.38593423 -0.23852047 0.14741376
0 0.051884908 0.032846101 -0.38593423 -0.23852047 0.14741376
0 0.050924536 0.032960769 -0.38593423 -0.23852047 0.14741376
0 0.049966428 0.033075266 -0.38593423 -0.23852047 0.14741376
0 0.049010575 0.033189587 -0.38593423 -0.23852047 0.14741376
0.039999999 0.077759169 0.021476856 -0.38593423 -0.23852047 0.14741376
0 0.047105581 0.033417728 -0.38593423 -0.23852047 0.14741376
0 0.04615641 0.033531543 -0.38593423 -0.23852047 0.14741376
5.5511151e-17 0.045209449 0.033645194 -0.38593423 -0.23852047 0.14741376
0.039999999 0.073573835 0.021978941 -0.38593423 -0.23852047 0.14741376
0 0.04332209 0.033871997 -0.38593423 -0.23852047 0.14741376
0 0.042381667 0.033985149 -0.38593423 -0.23852047 0.14741376
0 0.041443404 0.034098145 -0.38593423 -0.23852047 0.14741376
0 0.040507283 0.034210972 -0.38593423 -0.23852047 0.14741376
0 0.039573297 0.034323644 -0.38593423 -0.23852047 0.14741376
0 0.038641434 0.034436155 -0.38593423 -0.23852047 0.14741376
0 0.03771168 0.034548506 -0.38593423 -0.23852047 0.14741376
0 0.036784023 0.034660701 -0.38593423 -0.23852047 0.14741376
0 0.035858456 0.034772739 -0.38593423 -0.23852047 0.14741376
0.039999999 0.06327714 0.023221586 -0.38593423 -0.23852047 0.14741376
0 0.034013536 0.034996353 -0.38593423 -0.23852047 0.14741376
0 0.03309416 0.035107929 -0.38593423 -0.23852047 0.14741376
0 0.03217683 0.035219353 -0.38593423 -0.23852047 0.14741376
0 0.031261526 0.035330627 -0.38593423 -0.23852047 0.14741376
0 0.030348247 0.035441749 -0.38593423 -0.23852047 0.14741376
0 0.029436978 0.035552725 -0.38593423 -0.23852047 0.14741376
0 0.028527705 0.035663549 -0.38593423 -0.23852047 0.14741376
0 0.027620422 0.035774227 -0.38593423 -0.23852047 0.14741376
0 0.025811773 0.035995148 -0.38593423 -0.23852047 0.14741376
0.039999999 0.052213576 0.02456888 -0.38593423 -0.23852047 0.14741376
0 0.024010951 0.036215492 -0.38593423 -0.23852047 0.14741376
0 0.023113446 0.036325451 -0.38593423 -0.23852047 0.14741376
0 0.022217866 0.036435269 -0.38593423 -0.23852047 0.14741376
0.039999999 0.048255697 0.025053989 -0.38593423 -0.23852047 0.14741376
0 0.020432441 0.036654484 -0.38593423 -0.23852047 0.14741376
0 0.019542573 0.03676388 -0.38593423 -0.23852047 0.14741376
0 0.018654589 0.036873143 -0.38593423 -0.23852047 0.14741376
0.039999999 0.044331443 0.02553664 -0.38593423 -0.23852047 0.14741376
0 0.016884232 0.037091259 -0.38593423 -0.23852047 0.14741376
0.039999999 0.0423817 0.025777064 -0.38593423 -0.23852047 0.14741376
0.039999999 0.041409887 0.025897054 -0.38593423 -0.23852047 0.14741376
0.039999999 0.040440097 0.026016898 -0.38593423 -0.23852047 0.14741376
0 0.013365681 0.037525881 -0.38593423 -0.23852047 0.14741376
0.039999999 0.038506549 0.02625615 -0.38593423 -0.23852047 0.14741376
0 0.011617332 0.037742406 -0.38593423 -0.23852047 0.14741376
0 0.010745854 0.037850473 -0.38593423 -0.23852047 0.14741376
0 0.0098761618 0.037958413 -0.38593423 -0.23852047 0.14741376
0 0.0090082446 0.038066223 -0.38593423 -0.23852047 0.14741376
0.039999999 0.033707339 0.026851788 -0.38593423 -0.23852047 0.14741376
0 0.0072777024 0.038281471 -0.38593423 -0.23852047 0.14741376
0 0.0064150575 0.038388904 -0.38593423 -0.23852047 0.14741376
0.039999999 0.030851167 0.027207499 -0.38593423 -0.23852047 0.14741376
0 0.0046949731 0.038603406 -0.38593423 -0.23852047 0.14741376
0 0.0038375161 0.038710471 -0.38593423 -0.23852047 0.14741376
0 0.0029817696 0.038817417 -0.38593423 -0.23852047 0.14741376
0 0.0021277249 0.038924243 -0.38593423 -0.23852047 0.14741376
0 0.0012753733 0.039030947 -0.38593423 -0.23852047 0.14741376
0 0.0004247053 0.039137535 -0.38593423 -0.23852047 0.14741376
0.00068773527 2.7755576e-17 0.039051246 -0.38593423 -0.23852047 0.14741376
0.0020685436 0 0.038771156 -0.38593423 -0.23852047 0.14741376
0.039999999 0.022384631 0.028267415 -0.38593423 -0.23852047 0.14741376
0.039999999 0.021453131 0.028384537 -0.38593423 -0.23852047 0.14741376
0.0062542316 0 0.037922665 -0.38593423 -0.23852047 0.14741376
0.0076640919 0 0.037637059 -0.38593423 -0.23852047 0.14741376
0.039999999 0.018669451 0.028735142 -0.38593423 -0.23852047 0.14741376
0.010506148 0 0.037061598 -0.38593423 -0.23852047 0.14741376
0.011938474 0 0.036771722 -0.38593423 -0.23852047 0.14741376
0.013378422 2.7755576e-17 0.036480401 -0.38593423 -0.23852047 0.14741376
0.014826058 2.7755576e-17 0.036187615 -0.38593423 -0.23852047 0.14741376
0.039999999 0.014065485 0.029317029 -0.38593423 -0.23852047 0.14741376
0.017744675 0 0.035597607 -0.38593423 -0.23852047 0.14741376
0.019215794 2.7755576e-17 0.035300363 -0.38593423 -0.23852047 0.14741376
0.02069488 0 0.035001602 -0.38593423 -0.23852047 0.14741376
0.039999999 0.010413592 0.029780386 -0.38593423 -0.23852047 0.14741376
0.023677247 2.7755576e-17 0.03439948 -0.38593423 -0.23852047 0.14741376
0.039999999 0.0085978704 0.030011369 -0.38593423 -0.23852047 0.14741376
0.026692359 2.7755576e-17 0.033791136 -0.38593423 -0.23852047 0.14741376
0.028212382 0 0.033484597 -0.38593423 -0.23852047 0.14741376
0.029740816 0 0.033176456 -0.38593423 -0.23852047 0.14741376
0.031277742 0 0.032866701 -0.38593423 -0.23852047 0.14741376
0.032823231 0 0.032555316 -0.38593423 -0.23852047 0.14741376
0.03437737 2.7755576e-17 0.032242291 -0.38593423 -0.23852047 0.14741376
0.035940237 0 0.031927601 -0.38593423 -0.23852047 0.14741376
0.037511911 2.7755576e-17 0.031611241 -0.38593423 -0.23852047 0.14741376
0.039999999 0.00050929416 0.031045245 -0.38593423 -0.23852047 0.14741376
0 0.079791963 0.028734101 -0.38593423 -0.23852047 0.14741376
0 0.078762129 0.028855231 -0.38593423 -0.23852047 0.14741376
0 0.077734955 0.028976148 -0.38593423 -0.23852047 0.14741376
0 0.07671041 0.029096853 -0.38593423 -0.23852047 0.14741376
0 0.075688496 0.029217349 -0.38593423 -0.23852047 0.14741376
0 0.074669182 0.029337637 -0.38593423 -0.23852047 0.14741376
5.5511151e-17 0.073652469 0.029457718 -0.38593423 -0.23852047 0.14741376
0 0.072638333 0.029577594 -0.38593423 -0.23852047 0.14741376
0 0.07162676 0.029697264 -0.38593423 -0.23852047 0.14741376
0 0.070617735 0.029816732 -0.38593423 -0.23852047 0.14741376
0 0.069611244 0.029935997 -0.38593423 -0.23852047 0.14741376
5.5511151e-17 0.068607278 0.030055063 -0.38593423 -0.23852047 0.14741376
0 0.067605816 0.030173928 -0.38593423 -0.23852047 0.14741376
0 0.066606849 0.030292597 -0.38593423 -0.23852047 0.14741376
0 0.065610357 0.030411068 -0.38593423 -0.23852047 0.14741376
0 0.064616337 0.030529344 -0.38593423 -0.23852047 0.14741376
0 0.063624769 0.030647427 -0.38593423 -0.23852047 0.14741376
0 0.06263563 0.030765317 -0.38593423 -0.23852047 0.14741376
0 0.061648924 0.030883014 -0.38593423 -0.23852047 0.14741376
0 0.060664624 0.031000523 -0.38593423 -0.23852047 0.14741376
5.5511151e-17 0.059682727 0.031117842 -0.38593423 -0.23852047 0.14741376
0 0.05870321 0.031234972 -0.38593423 -0.23852047 0.14741376
0 0.057726063 0.031351916 -0.38593423 -0.23852047 0.14741376
5.5511151e-17 0.056751277 0.031468675 -0.38593423 -0.23852047 0.14741376
0 0.055778835 0.03158525 -0.38593423 -0.23852047 0.14741376
0 0.054808725 0.031701643 -0.38593423 -0.23852047 0.14741376
0 0.053840932 0.031817853 -0.38593423 -0.23852047 0.14741376
0 0.050951343 0.032165404 -0.38593423 -0.23852047 0.14741376
0.039999999 0.079895534 0.020348001 -0.38593423 -0.23852047 0.14741376
0 0.049036317 0.03239622 -0.38593423 -0.23852047 0.14741376
0 0.048082173 0.032511365 -0.38593423 -0.23852047 0.14741376
0 0.047130261 0.032626338 -0.38593423 -0.23852047 0.14741376
0.039999999 0.075688295 0.020855937 -0.38593423 -0.23852047 0.14741376
5.5511151e-17 0.045233082 0.032855764 -0.38593423 -0.23852047 0.14741376
0 0.044287793 0.03297022 -0.38593423 -0.23852047 0.14741376
0.039999999 0.072558485 0.021234898 -0.38593423 -0.23852047 0.14741376
0 0.042403746 0.033198629 -0.38593423 -0.23852047 0.14741376
0 0.04146497 0.033312581 -0.38593423 -0.23852047 0.14741376
0 0.040528338 0.03342637 -0.38593423 -0.23852047 0.14741376
0 0.039593842 0.033539996 -0.38593423 -0.23852047 0.14741376
0 0.038661472 0.033653453 -0.38593423 -0.23852047 0.14741376
0 0.037731215 0.03376675 -0.38593423 -0.23852047 0.14741376
0 0.036803056 0.033879887 -0.38593423 -0.23852047 0.14741376
0 0.035876986 0.033992864 -0.38593423 -0.23852047 0.14741376
0 0.034952998 0.034105681 -0.38593423 -0.23852047 0.14741376
0.039999999 0.062279571 0.022486242 -0.38593423 -0.23852047 0.14741376
0 0.033111207 0.034330837 -0.38593423 -0.23852047 0.14741376
0.039999999 0.060251415 0.022734392 -0.38593423 -0.23852047 0.14741376
5.5511151e-17 0.031277593 0.034555372 -0.38593423 -0.23852047 0.14741376
0.039999999 0.058232233 0.022981858 -0.38593423 -0.23852047 0.14741376
0 0.029452072 0.034779292 -0.38593423 -0.23852047 0.14741376
0 0.028542319 0.034891024 -0.38593423 -0.23852047 0.14741376
0 0.027634554 0.035002604 -0.38593423 -0.23852047 0.14741376
0 0.02672877 0.035114035 -0.38593423 -0.23852047 0.14741376
0 0.025824953 0.035225317 -0.38593423 -0.23852047 0.14741376
0 0.024923094 0.03533645 -0.38593423 -0.23852047 0.14741376
0 0.024023183 0.035447434 -0.38593423 -0.23852047 0.14741376
0 0.023125209 0.035558276 -0.38593423 -0.23852047 0.14741376
0.039999999 0.048267651 0.024209237 -0.38593423 -0.23852047 0.14741376
5.5511151e-17 0.020442806 0.035889931 -0.38593423 -0.23852047 0.14741376
0.039999999 0.046300344 0.024452783 -0.38593423 -0.23852047 0.14741376
0.039999999 0.045319818 0.024574323 -0.38593423 -0.23852047 0.14741376
0 0.017777463 0.036220308 -0.38593423 -0.23852047 0.14741376
0 0.016892761 0.036330156 -0.38593423 -0.23852047 0.14741376
0 0.016009914 0.036439862 -0.38593423 -0.23852047 0.14741376
0 0.015128911 0.036549434 -0.38593423 -0.23852047 0.14741376
0 0.014249746 0.036658868 -0.38593423 -0.23852047 0.14741376
5.5511151e-17 0.013372405 0.036768168 -0.38593423 -0.23852047 0.14741376
5.5511151e-17 0.012496881 0.03687733 -0.38593423 -0.23852047 0.14741376
5.5511151e-17 0.011623164 0.036986362 -0.38593423 -0.23852047 0.14741376
5.5511151e-17 0.010751243 0.03709526 -0.38593423 -0.23852047 0.14741376
0 0.009881109 0.037204027 -0.38593423 -0.23852047 0.14741376
5.5511151e-17 0.0090127531 0.037312664 -0.38593423 -0.23852047 0.14741376
0 0.0081461659 0.037421171 -0.38593423 -0.23852047 0.14741376
0 0.0072813374 0.037529547 -0.38593423 -0.23852047 0.14741376
5.5511151e-17 0.006418258 0.037637796 -0.38593423 -0.23852047 0.14741376
5.5511151e-17 0.0055569191 0.037745915 -0.38593423 -0.23852047 0.14741376
0 0.0046973112 0.037853912 -0.38593423 -0.23852047 0.14741376
5.5511151e-17 0.003839425 0.037961781 -0.38593423 -0.23852047 0.14741376
0 0.0029832514 0.038069528 -0.38593423 -0.23852047 0.14741376
5.5511151e-17 0.0021287813 0.038177148 -0.38593423 -0.23852047 0.14741376
0.039999999 0.026129616 0.026974004 -0.38593423 -0.23852047 0.14741376
0 0.00042491575 0.038392026 -0.38593423 -0.23852047 0.14741376
0.00068807631 2.7755576e-17 0.0383051 -0.38593423 -0.23852047 0.14741376
0.002069572 0 0.038022935 -0.38593423 -0.23852047 0.14741376
0.0034582436 2.7755576e-17 0.0377394 -0.38593423 -0.23852047 0.14741376
0.0048541534 2.7755576e-17 0.037454475 -0.38593423 -0.23852047 0.14741376
0.006257365 2.7755576e-17 0.037168156 -0.38593423 -0.23852047 0.14741376
0.0076679424 0 0.036880422 -0.38593423 -0.23852047 0.14741376
0.0090859504 0 0.036591265 -0.38593423 -0.23852047 0.14741376
0.010511453 2.7755576e-17 0.03630067 -0.38593423 -0.23852047 0.14741376
0.011944519 0 0.03600863 -0.38593423 -0.23852047 0.14741376
0.013385214 0 0.035715126 -0.38593423 -0.23852047 0.14741376
0.039999999 0.014977998 0.028387457 -0.38593423 -0.23852047 0.14741376
0.016289765 0 0.035123676 -0.38593423 -0.23852047 0.14741376
0.017753758 0 0.034825709 -0.38593423 -0.23852047 0.14741376
0.019225655 2.7755576e-17 0.034526225 -0.38593423 -0.23852047 0.14741376
0.02070553 2.7755576e-17 0.034225211 -0.38593423 -0.23852047 0.14741376
0.022193452 0 0.033922654 -0.38593423 -0.23852047 0.14741376
0.023689497 2.7755576e-17 0.03361854 -0.38593423 -0.23852047 0.14741376
0.039999999 0.0085900184 0.029203653 -0.38593423 -0.23852047 0.14741376
0.026706247 0 0.033005584 -0.38593423 -0.23852047 0.14741376
0.039999999 0.0067801536 0.029435782 -0.38593423 -0.23852047 0.14741376
0.029756375 0 0.032386232 -0.38593423 -0.23852047 0.14741376
0.039999999 0.0049769469 0.02966745 -0.38593423 -0.23852047 0.14741376
0.032840498 0 0.031760357 -0.38593423 -0.23852047 0.14741376
0.034395505 0 0.031444937 -0.38593423 -0.23852047 0.14741376
0.039999999 0.0022844665 0.030014098 -0.38593423 -0.23852047 0.14741376
0.037531812 0 0.030809058 -0.38593423 -0.23852047 0.14741376
0.039113268 0 0.030488566 -0.38593423 -0.23852047 0.14741376
0 0.078805074 0.028029349 -0.38593423 -0.23852047 0.14741376
0 0.077777281 0.028151397 -0.38593423 -0.23852047 0.14741376
0 0.076752126 0.028273229 -0.38593423 -0.23852047 0.14741376
0 0.075729601 0.028394846 -0.38593423 -0.23852047 0.14741376
0 0.074709684 0.02851625 -0.38593423 -0.23852047 0.14741376
0 0.073692366 0.028637443 -0.38593423 -0.23852047 0.14741376
0 0.072677627 0.028758423 -0.38593423 -0.23852047 0.14741376
0 0.071665458 0.028879197 -0.38593423 -0.23852047 0.14741376
5.5511151e-17 0.069648765 0.029120119 -0.38593423 -0.23852047 0.14741376
0 0.068644203 0.029240271 -0.38593423 -0.23852047 0.14741376
0 0.066642612 0.029479966 -0.38593423 -0.23852047 0.14741376
0 0.065645546 0.029599512 -0.38593423 -0.23852047 0.14741376
0 0.064650945 0.029718855 -0.38593423 -0.23852047 0.14741376
5.5511151e-17 0.063658804 0.029838003 -0.38593423 -0.23852047 0.14741376
0 0.060696959 0.030194262 -0.38593423 -0.23852047 0.14741376
0 0.059714496 0.030312626 -0.38593423 -0.23852047 0.14741376
0 0.058734421 0.030430799 -0.38593423 -0.23852047 0.14741376
0 0.056781378 0.030666571 -0.38593423 -0.23852047 0.14741376
0 0.053869385 0.031018818 -0.38593423 -0.23852047 0.14741376
0 0.052903358 0.031135863 -0.38593423 -0.23852047 0.14741376
0 0.051939625 0.031252723 -0.38593423 -0.23852047 0.14741376
0 0.050978176 0.031369399 -0.38593423 -0.23852047 0.14741376
0 0.050018996 0.031485897 -0.38593423 -0.23852047 0.14741376
0 0.049062077 0.031602211 -0.38593423 -0.23852047 0.14741376
0 0.048107404 0.031718351 -0.38593423 -0.23852047 0.14741376
0 0.047154963 0.031834308 -0.38593423 -0.23852047 0.14741376
5.5511151e-17 0.046204746 0.031950094 -0.38593423 -0.23852047 0.14741376
0 0.045256738 0.032065701 -0.38593423 -0.23852047 0.14741376
0 0.044310924 0.032181133 -0.38593423 -0.23852047 0.14741376
0.039999999 0.072583444 0.020365098 -0.38593423 -0.23852047 0.14741376
0 0.042425845 0.032411482 -0.38593423 -0.23852047 0.14741376
0.039999999 0.070507772 0.020618942 -0.38593423 -0.23852047 0.14741376
0 0.040549409 0.032641143 -0.38593423 -0.23852047 0.14741376
0 0.039614405 0.032755721 -0.38593423 -0.23852047 0.14741376
0 0.038681526 0.032870132 -0.38593423 -0.23852047 0.14741376
0 0.037750762 0.032984376 -0.38593423 -0.23852047 0.14741376
0 0.036822103 0.033098456 -0.38593423 -0.23852047 0.14741376
0 0.035895534 0.033212367 -0.38593423 -0.23852047 0.14741376
0 0.034971047 0.033326119 -0.38593423 -0.23852047 0.14741376
0 0.034048628 0.033439707 -0.38593423 -0.23852047 0.14741376
0.039999999 0.061283194 0.021752097 -0.38593423 -0.23852047 0.14741376
5.5511151e-17 0.032209951 0.033666402 -0.38593423 -0.23852047 0.14741376
0 0.031293675 0.033779513 -0.38593423 -0.23852047 0.14741376
0 0.03037942 0.033892464 -0.38593423 -0.23852047 0.14741376
0 0.028556943 0.034117896 -0.38593423 -0.23852047 0.14741376
0 0.027648699 0.034230378 -0.38593423 -0.23852047 0.14741376
5.5511151e-17 0.026742434 0.034342706 -0.38593423 -0.23852047 0.14741376
0 0.025838142 0.034454882 -0.38593423 -0.23852047 0.14741376
5.5511151e-17 0.02493581 0.034566909 -0.38593423 -0.23852047 0.14741376
0.039999999 0.051247928 0.02299441 -0.38593423 -0.23852047 0.14741376
0 0.023136981 0.034790508 -0.38593423 -0.23852047 0.14741376
0 0.022240466 0.034902081 -0.38593423 -0.23852047 0.14741376
5.5511151e-17 0.021345869 0.035013512 -0.38593423 -0.23852047 0.14741376
0 0.020453179 0.03512479 -0.38593423 -0.23852047 0.14741376
5.5511151e-17 0.019562388 0.035235927 -0.38593423 -0.23852047 0.14741376
5.5511151e-17 0.018673483 0.035346918 -0.38593423 -0.23852047 0.14741376
0.039999999 0.044351287 0.023854129 -0.38593423 -0.23852047 0.14741376
