# .PCD v0.7 - Point Cloud Data file format
VERSION 0.7
FIELDS x y z vp_x vp_y vp_z
SIZE 4 4 4 4 4 4
TYPE F F F F F F
COUNT 1 1 1 1 1 1
WIDTH 718
HEIGHT 1
VIEWPOINT 0 0 0 1 0 0 0
POINTS 718
DATA ascii
0 0.00043654529 0.0028078039 -0.38593423 -0.23852047 -0.14741376
0.00070692372 2.7755576e-17 0.002930861 -0.38593423 -0.23852047 -0.14741376
0.0021264115 0 0.003330475 -0.38593423 -0.23852047 -0.14741376
0.0035534755 2.7755576e-17 0.0037322287 -0.38593423 -0.23852047 -0.14741376
0.0049881837 0 0.0041361409 -0.38593423 -0.23852047 -0.14741376
0.039999999 0.020406997 0.017543068 -0.38593423 -0.23852047 -0.14741376
0.0078808079 0 0.0049505197 -0.38593423 -0.23852047 -0.14741376
0.0093388632 0 0.0053610248 -0.38593423 -0.23852047 -0.14741376
0.010804841 0 0.0057737678 -0.38593423 -0.23852047 -0.14741376
0.012278816 0 0.0061887684 -0.38593423 -0.23852047 -0.14741376
0.013760857 0 0.006606048 -0.38593423 -0.23852047 -0.14741376
0.015251041 0 0.007025626 -0.38593423 -0.23852047 -0.14741376
0.016749442 0 0.0074475245 -0.38593423 -0.23852047 -0.14741376
0.018256133 0 0.0078717647 -0.38593423 -0.23852047 -0.14741376
0.019771192 0 0.0082983673 -0.38593423 -0.23852047 -0.14741376
0.039999999 0.010955993 0.015899407 -0.38593423 -0.23852047 -0.14741376
0.039999999 0.01002096 0.015736831 -0.38593423 -0.23852047 -0.14741376
0.024367359 0 0.0095925741 -0.38593423 -0.23852047 -0.14741376
0.025916673 2.7755576e-17 0.01002885 -0.38593423 -0.23852047 -0.14741376
0.027474752 0 0.010467602 -0.38593423 -0.23852047 -0.14741376
0.029041678 0 0.01090885 -0.38593423 -0.23852047 -0.14741376
0.030617531 0 0.011352622 -0.38593423 -0.23852047 -0.14741376
0.0322024 2.7755576e-17 0.011798938 -0.38593423 -0.23852047 -0.14741376
0.039999999 0.0035253398 0.014607626 -0.38593423 -0.23852047 -0.14741376
0.035399523 2.7755576e-17 0.012699302 -0.38593423 -0.23852047 -0.14741376
0.037011947 0 0.0131534 -0.38593423 -0.23852047 -0.14741376
0.038633734 0 0.013610141 -0.38593423 -0.23852047 -0.14741376
0 0.078976013 0.015637148 -0.38593423 -0.23852047 -0.14741376
0 0.077920958 0.015454094 -0.38593423 -0.23852047 -0.14741376
5.5511151e-17 0.076868691 0.015271527 -0.38593423 -0.23852047 -0.14741376
0 0.075819179 0.015089443 -0.38593423 -0.23852047 -0.14741376
0 0.074772418 0.014907841 -0.38593423 -0.23852047 -0.14741376
0 0.073728383 0.014726717 -0.38593423 -0.23852047 -0.14741376
5.5511151e-17 0.07268706 0.014546069 -0.38593423 -0.23852047 -0.14741376
0 0.071648441 0.014365896 -0.38593423 -0.23852047 -0.14741376
0 0.070612498 0.014186191 -0.38593423 -0.23852047 -0.14741376
0 0.069579229 0.014006956 -0.38593423 -0.23852047 -0.14741376
0 0.067520626 0.013649877 -0.38593423 -0.23852047 -0.14741376
0 0.066495262 0.013472029 -0.38593423 -0.23852047 -0.14741376
0 0.065472513 0.013294638 -0.38593423 -0.23852047 -0.14741376
0 0.06445235 0.013117702 -0.38593423 -0.23852047 -0.14741376
5.5511151e-17 0.063434765 0.012941217 -0.38593423 -0.23852047 -0.14741376
0 0.062419742 0.012765182 -0.38593423 -0.23852047 -0.14741376
5.5511151e-17 0.061407268 0.012589595 -0.38593423 -0.23852047 -0.14741376
0 0.060397331 0.012414452 -0.38593423 -0.23852047 -0.14741376
0 0.059389908 0.01223975 -0.38593423 -0.23852047 -0.14741376
0 0.057382569 0.011891664 -0.38593423 -0.23852047 -0.14741376
0 0.055385139 0.011545315 -0.38593423 -0.23852047 -0.14741376
0 0.054390103 0.011372787 -0.38593423 -0.23852047 -0.14741376
0 0.053397503 0.011200686 -0.38593423 -0.23852047 -0.14741376
0 0.052407321 0.01102901 -0.38593423 -0.23852047 -0.14741376
5.5511151e-17 0.051419549 0.010857756 -0.38593423 -0.23852047 -0.14741376
5.5511151e-17 0.050434172 0.010686922 -0.38593423 -0.23852047 -0.14741376
0 0.049451176 0.010516506 -0.38593423 -0.23852047 -0.14741376
5.5511151e-17 0.048470549 0.010346506 -0.38593423 -0.23852047 -0.14741376
5.5511151e-17 0.047492273 0.010176918 -0.38593423 -0.23852047 -0.14741376
0 0.045542736 0.0098389732 -0.38593423 -0.23852047 -0.14741376
5.5511151e-17 0.044571444 0.0096706115 -0.38593423 -0.23852047 -0.14741376
5.5511151e-17 0.043602455 0.009502654 -0.38593423 -0.23852047 -0.14741376
0 0.042635757 0.0093350979 -0.38593423 -0.23852047 -0.14741376
0 0.041671332 0.0091679413 -0.38593423 -0.23852047 -0.14741376
0 0.040709175 0.0090011815 -0.38593423 -0.23852047 -0.14741376
0 0.039749265 0.0088348174 -0.38593423 -0.23852047 -0.14741376
5.5511151e-17 0.038791597 0.0086688465 -0.38593423 -0.23852047 -0.14741376
5.5511151e-17 0.037836153 0.0085032657 -0.38593423 -0.23852047 -0.14741376
0 0.036882926 0.0083380733 -0.38593423 -0.23852047 -0.14741376
0.039999999 0.064377405 0.024299024 -0.38593423 -0.23852047 -0.14741376
0 0.034983058 0.008008847 -0.38593423 -0.23852047 -0.14741376
0 0.034036398 0.0078448076 -0.38593423 -0.23852047 -0.14741376
0 0.033091899 0.0076811491 -0.38593423 -0.23852047 -0.14741376
0.039999999 0.060203046 0.023575695 -0.38593423 -0.23852047 -0.14741376
0.039999999 0.059165396 0.023395907 -0.38593423 -0.23852047 -0.14741376
0.039999999 0.058130097 0.023216529 -0.38593423 -0.23852047 -0.14741376
0.039999999 0.057097137 0.023037564 -0.38593423 -0.23852047 -0.14741376
0 0.028401481 0.006868483 -0.38593423 -0.23852047 -0.14741376
0 0.027469728 0.0067070611 -0.38593423 -0.23852047 -0.14741376
0 0.026540056 0.0065460051 -0.38593423 -0.23852047 -0.14741376
0 0.025612457 0.0063853124 -0.38593423 -0.23852047 -0.14741376
5.5511151e-17 0.024686918 0.006224982 -0.38593423 -0.23852047 -0.14741376
0 0.023763428 0.006065011 -0.38593423 -0.23852047 -0.14741376
0.039999999 0.049930781 0.021796102 -0.38593423 -0.23852047 -0.14741376
0 0.021922547 0.0057461406 -0.38593423 -0.23852047 -0.14741376
0 0.021005137 0.005587237 -0.38593423 -0.23852047 -0.14741376
0 0.020089731 0.0054286858 -0.38593423 -0.23852047 -0.14741376
0 0.019176316 0.0052704844 -0.38593423 -0.23852047 -0.14741376
0 0.018264884 0.0051126312 -0.38593423 -0.23852047 -0.14741376
0 0.017355425 0.0049551241 -0.38593423 -0.23852047 -0.14741376
0 0.016447926 0.0047979616 -0.38593423 -0.23852047 -0.14741376
0 0.015542376 0.0046411417 -0.38593423 -0.23852047 -0.14741376
0 0.014638767 0.0044846623 -0.38593423 -0.23852047 -0.14741376
0 0.013737085 0.0043285214 -0.38593423 -0.23852047 -0.14741376
0 0.012837322 0.0041727177 -0.38593423 -0.23852047 -0.14741376
0 0.011939468 0.0040172492 -0.38593423 -0.23852047 -0.14741376
0 0.01104351 0.0038621142 -0.38593423 -0.23852047 -0.14741376
0 0.010149441 0.0037073107 -0.38593423 -0.23852047 -0.14741376
5.5511151e-17 0.0092572467 0.0035528366 -0.38593423 -0.23852047 -0.14741376
5.5511151e-17 0.0083669201 0.0033986906 -0.38593423 -0.23852047 -0.14741376
0 0.00747845 0.0032448708 -0.38593423 -0.23852047 -0.14741376
0 0.0065918262 0.0030913756 -0.38593423 -0.23852047 -0.14741376
0 0.0057070386 0.0029382028 -0.38593423 -0.23852047 -0.14741376
0 0.0048240777 0.0027853511 -0.38593423 -0.23852047 -0.14741376
0 0.0039429329 0.0026328184 -0.38593423 -0.23852047 -0.14741376
0 0.0030635954 0.0024806033 -0.38593423 -0.23852047 -0.14741376
0 0.0021860544 0.0023287041 -0.38593423 -0.23852047 -0.14741376
5.5511151e-17 0.0013103008 0.0021771188 -0.38593423 -0.23852047 -0.14741376
0 0.00043632457 0.0020258459 -0.38593423 -0.23852047 -0.14741376
0.00070656597 0 0.0021482005 -0.38593423 -0.23852047 -0.14741376
0.0021253326 0 0.0025455307 -0.38593423 -0.23852047 -0.14741376
0.0035516678 0 0.0029449854 -0.38593423 -0.23852047 -0.14741376
0.039999999 0.021364076 0.01685006 -0.38593423 -0.23852047 -0.14741376
0.039999999 0.020409167 0.016684804 -0.38593423 -0.23852047 -0.14741376
0.039999999 0.019456157 0.016519884 -0.38593423 -0.23852047 -0.14741376
0.0093340604 0 0.0045644306 -0.38593423 -0.23852047 -0.14741376
0.01079927 2.7755576e-17 0.0049747969 -0.38593423 -0.23852047 -0.14741376
0.012272467 2.7755576e-17 0.0053874045 -0.38593423 -0.23852047 -0.14741376
0.013753723 2.7755576e-17 0.0058022742 -0.38593423 -0.23852047 -0.14741376
0.015243113 2.7755576e-17 0.0062194266 -0.38593423 -0.23852047 -0.14741376
0.039999999 0.013777408 0.015537264 -0.38593423 -0.23852047 -0.14741376
0.018246589 2.7755576e-17 0.0070606638 -0.38593423 -0.23852047 -0.14741376
0.019760828 0 0.0074847909 -0.38593423 -0.23852047 -0.14741376
0.021283504 2.7755576e-17 0.0079112863 -0.38593423 -0.23852047 -0.14741376
0.024354476 0 0.008771468 -0.38593423 -0.23852047 -0.14741376
0.025902934 0 0.0092051988 -0.38593423 -0.23852047 -0.14741376
0.039999999 0.00723525 0.014405479 -0.38593423 -0.23852047 -0.14741376
0.029026195 0 0.010080056 -0.38593423 -0.23852047 -0.14741376
0.039999999 0.0053820512 0.014084923 -0.38593423 -0.23852047 -0.14741376
0.032185134 0 0.010964927 -0.38593423 -0.23852047 -0.14741376
0.039999999 0.0035358197 0.013765594 -0.38593423 -0.23852047 -0.14741376
0.035380431 0 0.011860004 -0.38593423 -0.23852047 -0.14741376
0.036991931 2.7755576e-17 0.012311429 -0.38593423 -0.23852047 -0.14741376
0.038612779 0 0.012765478 -0.38593423 -0.23852047 -0.14741376
0 0.079989307 0.014952651 -0.38593423 -0.23852047 -0.14741376
0 0.078932114 0.014770356 -0.38593423 -0.23852047 -0.14741376
0 0.077877708 0.014588545 -0.38593423 -0.23852047 -0.14741376
5.5511151e-17 0.076826073 0.014407217 -0.38593423 -0.23852047 -0.14741376
5.5511151e-17 0.075777203 0.014226366 -0.38593423 -0.23852047 -0.14741376
0 0.074731074 0.014045991 -0.38593423 -0.23852047 -0.14741376
5.5511151e-17 0.072646976 0.013686659 -0.38593423 -0.23852047 -0.14741376
0 0.071608976 0.013507695 -0.38593423 -0.23852047 -0.14741376
0 0.070573658 0.013329197 -0.38593423 -0.23852047 -0.14741376
5.5511151e-17 0.069541 0.013151161 -0.38593423 -0.23852047 -0.14741376
5.5511151e-17 0.068510994 0.012973585 -0.38593423 -0.23852047 -0.14741376
0 0.067483626 0.012796466 -0.38593423 -0.23852047 -0.14741376
5.5511151e-17 0.066458873 0.012619802 -0.38593423 -0.23852047 -0.14741376
0 0.065436728 0.01244359 -0.38593423 -0.23852047 -0.14741376
0 0.064417168 0.012267827 -0.38593423 -0.23852047 -0.14741376
5.5511151e-17 0.063400179 0.01209251 -0.38593423 -0.23852047 -0.14741376
5.5511151e-17 0.062385753 0.011917639 -0.38593423 -0.23852047 -0.14741376
0 0.061373875 0.011743208 -0.38593423 -0.23852047 -0.14741376
5.5511151e-17 0.060364526 0.011569218 -0.38593423 -0.23852047 -0.14741376
0 0.059357692 0.011395664 -0.38593423 -0.23852047 -0.14741376
0 0.058353361 0.011222545 -0.38593423 -0.23852047 -0.14741376
0 0.057351518 0.011049857 -0.38593423 -0.23852047 -0.14741376
0 0.05635215 0.010877599 -0.38593423 -0.23852047 -0.14741376
0 0.05535524 0.010705768 -0.38593423 -0.23852047 -0.14741376
0 0.054360777 0.010534361 -0.38593423 -0.23852047 -0.14741376
0 0.053368747 0.010363377 -0.38593423 -0.23852047 -0.14741376
0 0.052379135 0.010192812 -0.38593423 -0.23852047 -0.14741376
0 0.051391929 0.010022666 -0.38593423 -0.23852047 -0.14741376
0.039999999 0.079268634 0.02596591 -0.38593423 -0.23852047 -0.14741376
5.5511151e-17 0.048444606 0.0095147071 -0.38593423 -0.23852047 -0.14741376
5.5511151e-17 0.047466885 0.0093462076 -0.38593423 -0.23852047 -0.14741376
5.5511151e-17 0.046491504 0.0091781132 -0.38593423 -0.23852047 -0.14741376
0.039999999 0.07495755 0.025222946 -0.38593423 -0.23852047 -0.14741376
0 0.044547703 0.0088431351 -0.38593423 -0.23852047 -0.14741376
0 0.043579258 0.0086762449 -0.38593423 -0.23852047 -0.14741376
0 0.0426131 0.0085097523 -0.38593423 -0.23852047 -0.14741376
0 0.041649215 0.0083436547 -0.38593423 -0.23852047 -0.14741376
0 0.040687591 0.00817795 -0.38593423 -0.23852047 -0.14741376
5.5511151e-17 0.039728217 0.0080126356 -0.38593423 -0.23852047 -0.14741376
0 0.038771078 0.0078477086 -0.38593423 -0.23852047 -0.14741376
0 0.037816163 0.0076831686 -0.38593423 -0.23852047 -0.14741376
0 0.036863461 0.0075190128 -0.38593423 -0.23852047 -0.14741376
0 0.035912957 0.0073552383 -0.38593423 -0.23852047 -0.14741376
0 0.03496464 0.0071918438 -0.38593423 -0.23852047 -0.14741376
0 0.034018498 0.007028827 -0.38593423 -0.23852047 -0.14741376
0 0.033074517 0.0068661855 -0.38593423 -0.23852047 -0.14741376
5.5511151e-17 0.032132689 0.0067039174 -0.38593423 -0.23852047 -0.14741376
0 0.031192999 0.0065420214 -0.38593423 -0.23852047 -0.14741376
0 0.030255437 0.0063804942 -0.38593423 -0.23852047 -0.14741376
0 0.029319989 0.0062193349 -0.38593423 -0.23852047 -0.14741376
0.039999999 0.056050129 0.021965116 -0.38593423 -0.23852047 -0.14741376
5.5511151e-17 0.027455395 0.0058981096 -0.38593423 -0.23852047 -0.14741376
0.039999999 0.053996883 0.021611398 -0.38593423 -0.23852047 -0.14741376
0 0.025599124 0.0055783303 -0.38593423 -0.23852047 -0.14741376
5.5511151e-17 0.02467408 0.0054189777 -0.38593423 -0.23852047 -0.14741376
0 0.023751084 0.0052599804 -0.38593423 -0.23852047 -0.14741376
0.039999999 0.049917702 0.020908704 -0.38593423 -0.23852047 -0.14741376
5.5511151e-17 0.021911185 0.0049430444 -0.38593423 -0.23852047 -0.14741376
0 0.020994261 0.0047851023 -0.38593423 -0.23852047 -0.14741376
5.5511151e-17 0.020079341 0.0046275076 -0.38593423 -0.23852047 -0.14741376
0 0.01916641 0.0044702585 -0.38593423 -0.23852047 -0.14741376
0 0.018255459 0.0043133539 -0.38593423 -0.23852047 -0.14741376
0 0.017346479 0.0041567911 -0.38593423 -0.23852047 -0.14741376
0.039999999 0.042864677 0.019693848 -0.38593423 -0.23852047 -0.14741376
5.5511151e-17 0.015534381 0.0038446845 -0.38593423 -0.23852047 -0.14741376
0 0.014631244 0.0036891368 -0.38593423 -0.23852047 -0.14741376
5.5511151e-17 0.013730034 0.003533924 -0.38593423 -0.23852047 -0.14741376
0 0.012830741 0.0033790441 -0.38593423 -0.23852047 -0.14741376
5.5511151e-17 0.011933353 0.0032244953 -0.38593423 -0.23852047 -0.14741376
5.5511151e-17 0.01103786 0.0030702758 -0.38593423 -0.23852047 -0.14741376
0 0.010144252 0.0029163838 -0.38593423 -0.23852047 -0.14741376
0 0.0092525203 0.0027628175 -0.38593423 -0.23852047 -0.14741376
0.039999999 0.033950757 0.018158685 -0.38593423 -0.23852047 -0.14741376
0.039999999 0.032970704 0.017989915 -0.38593423 -0.23852047 -0.14741376
0.039999999 0.031992689 0.0178215 -0.38593423 -0.23852047 -0.14741376
5.5511151e-17 0.0057041366 0.0021517747 -0.38593423 -0.23852047 -0.14741376
0.039999999 0.030042723 0.017485721 -0.38593423 -0.23852047 -0.14741376
0 0.0039409325 0.0018481624 -0.38593423 -0.23852047 -0.14741376
5.5511151e-17 0.0030620424 0.0016968275 -0.38593423 -0.23852047 -0.14741376
0 0.0021849475 0.0015458046 -0.38593423 -0.23852047 -0.14741376
0 0.0013096379 0.0013950919 -0.38593423 -0.23852047 -0.14741376
0 0.00043610405 0.0012446877 -0.38593423 -0.23852047 -0.14741376
0.00070620864 0 0.0013663411 -0.38593423 -0.23852047 -0.14741376
0.0021242548 0 0.001761392 -0.38593423 -0.23852047 -0.14741376
0.003549862 0 0.0021585522 -0.38593423 -0.23852047 -0.14741376
0.0049830973 0 0.0025578402 -0.38593423 -0.23852047 -0.14741376
0.0078727286 0 0.0033628773 -0.38593423 -0.23852047 -0.14741376
0.0093292631 0 0.003768665 -0.38593423 -0.23852047 -0.14741376
0.039999999 0.017559387 0.015336433 -0.38593423 -0.23852047 -0.14741376
0.012266125 0 0.0045868778 -0.38593423 -0.23852047 -0.14741376
0.039999999 0.015667437 0.015010739 -0.38593423 -0.23852047 -0.14741376
0.015235192 0 0.0054140748 -0.38593423 -0.23852047 -0.14741376
0.016731987 2.7755576e-17 0.0058310935 -0.38593423 -0.23852047 -0.14741376
0.018237056 2.7755576e-17 0.0062504206 -0.38593423 -0.23852047 -0.14741376
0.019750476 0 0.0066720769 -0.38593423 -0.23852047 -0.14741376
0.021272322 0 0.0070960843 -0.38593423 -0.23852047 -0.14741376
0.022802673 0 0.0075224643 -0.38593423 -0.23852047 -0.14741376
0.039999999 0.0091032563 0.013880824 -0.38593423 -0.23852047 -0.14741376
0.02588921 0 0.0083824303 -0.38593423 -0.23852047 -0.14741376
0.027445557 0 0.0088160615 -0.38593423 -0.23852047 -0.14741376
0.039999999 0.0063169003 0.013401245 -0.38593423 -0.23852047 -0.14741376
0.030584812 0 0.0096907336 -0.38593423 -0.23852047 -0.14741376
0.032167889 0 0.010131822 -0.38593423 -0.23852047 -0.14741376
0.033760045 0 0.010575443 -0.38593423 -0.23852047 -0.14741376
0.035361364 2.7755576e-17 0.01102162 -0.38593423 -0.23852047 -0.14741376
0.038591851 0 0.011921741 -0.38593423 -0.23852047 -0.14741376
0 0.079944812 0.01408558 -0.38593423 -0.23852047 -0.14741376
0 0.07888826 0.013904532 -0.38593423 -0.23852047 -0.14741376
0 0.077834494 0.013723963 -0.38593423 -0.23852047 -0.14741376
0 0.076783508 0.01354387 -0.38593423 -0.23852047 -0.14741376
0 0.075735271 0.01336425 -0.38593423 -0.23852047 -0.14741376
0 0.074689776 0.013185101 -0.38593423 -0.23852047 -0.14741376
0 0.073647 0.013006418 -0.38593423 -0.23852047 -0.14741376
0 0.072606929 0.012828201 -0.38593423 -0.23852047 -0.14741376
0 0.071569555 0.012650446 -0.38593423 -0.23852047 -0.14741376
5.5511151e-17 0.070534855 0.012473151 -0.38593423 -0.23852047 -0.14741376
0 0.069502823 0.012296312 -0.38593423 -0.23852047 -0.14741376
0 0.068473428 0.012119928 -0.38593423 -0.23852047 -0.14741376
0 0.067446664 0.011943997 -0.38593423 -0.23852047 -0.14741376
0 0.066422522 0.011768513 -0.38593423 -0.23852047 -0.14741376
0 0.06540098 0.011593478 -0.38593423 -0.23852047 -0.14741376
0 0.064382017 0.011418886 -0.38593423 -0.23852047 -0.14741376
0 0.063365631 0.011244735 -0.38593423 -0.23852047 -0.14741376
0 0.062351804 0.011071024 -0.38593423 -0.23852047 -0.14741376
0 0.061340515 0.010897749 -0.38593423 -0.23852047 -0.14741376
0 0.060331754 0.010724909 -0.38593423 -0.23852047 -0.14741376
5.5511151e-17 0.059325509 0.010552499 -0.38593423 -0.23852047 -0.14741376
0 0.058321763 0.01038052 -0.38593423 -0.23852047 -0.14741376
5.5511151e-17 0.057320502 0.010208967 -0.38593423 -0.23852047 -0.14741376
0 0.05632171 0.010037838 -0.38593423 -0.23852047 -0.14741376
0 0.055325374 0.0098671317 -0.38593423 -0.23852047 -0.14741376
0 0.054331485 0.009696845 -0.38593423 -0.23852047 -0.14741376
5.5511151e-17 0.053340025 0.0095269755 -0.38593423 -0.23852047 -0.14741376
0 0.052350979 0.0093575213 -0.38593423 -0.23852047 -0.14741376
0 0.051364336 0.0091884788 -0.38593423 -0.23852047 -0.14741376
0 0.050380085 0.009019847 -0.38593423 -0.23852047 -0.14741376
0 0.049398206 0.0088516232 -0.38593423 -0.23852047 -0.14741376
0 0.04841869 0.0086838054 -0.38593423 -0.23852047 -0.14741376
0 0.047441524 0.0085163908 -0.38593423 -0.23852047 -0.14741376
0.039999999 0.076004073 0.024493387 -0.38593423 -0.23852047 -0.14741376
5.5511151e-17 0.045494184 0.0081827631 -0.38593423 -0.23852047 -0.14741376
0 0.044523984 0.0080165453 -0.38593423 -0.23852047 -0.14741376
0 0.043556083 0.0078507215 -0.38593423 -0.23852047 -0.14741376
0 0.042590465 0.0076852906 -0.38593423 -0.23852047 -0.14741376
5.5511151e-17 0.04162712 0.0075202496 -0.38593423 -0.23852047 -0.14741376
0 0.040666033 0.0073555969 -0.38593423 -0.23852047 -0.14741376
0 0.039707188 0.0071913297 -0.38593423 -0.23852047 -0.14741376
5.5511151e-17 0.038750581 0.0070274458 -0.38593423 -0.23852047 -0.14741376
5.5511151e-17 0.037796196 0.0068639442 -0.38593423 -0.23852047 -0.14741376
5.5511151e-17 0.036844015 0.0067008217 -0.38593423 -0.23852047 -0.14741376
0 0.035894036 0.0065380763 -0.38593423 -0.23852047 -0.14741376
0 0.03494624 0.0063757063 -0.38593423 -0.23852047 -0.14741376
5.5511151e-17 0.034000617 0.0062137092 -0.38593423 -0.23852047 -0.14741376
5.5511151e-17 0.033057153 0.0060520833 -0.38593423 -0.23852047 -0.14741376
0 0.032115836 0.0058908267 -0.38593423 -0.23852047 -0.14741376
0 0.031176658 0.005729937 -0.38593423 -0.23852047 -0.14741376
0 0.030239604 0.0055694124 -0.38593423 -0.23852047 -0.14741376
0 0.029304665 0.0054092505 -0.38593423 -0.23852047 -0.14741376
0 0.028371826 0.00524945 -0.38593423 -0.23852047 -0.14741376
0 0.027441077 0.005090008 -0.38593423 -0.23852047 -0.14741376
5.5511151e-17 0.026512407 0.0049309232 -0.38593423 -0.23852047 -0.14741376
0 0.025585804 0.0047721933 -0.38593423 -0.23852047 -0.14741376
0 0.024661256 0.0046138167 -0.38593423 -0.23852047 -0.14741376
5.5511151e-17 0.023738753 0.0044557913 -0.38593423 -0.23852047 -0.14741376
0 0.022818282 0.0042981151 -0.38593423 -0.23852047 -0.14741376
0 0.021899834 0.0041407864 -0.38593423 -0.23852047 -0.14741376
0 0.020983398 0.0039838031 -0.38593423 -0.23852047 -0.14741376
0 0.02006896 0.0038271633 -0.38593423 -0.23852047 -0.14741376
0 0.019156514 0.003670865 -0.38593423 -0.23852047 -0.14741376
0.039999999 0.044858508 0.019157849 -0.38593423 -0.23852047 -0.14741376
0 0.01733754 0.0033592863 -0.38593423 -0.23852047 -0.14741376
0 0.016430994 0.003204002 -0.38593423 -0.23852047 -0.14741376
5.5511151e-17 0.015526395 0.0030490521 -0.38593423 -0.23852047 -0.14741376
5.5511151e-17 0.01462373 0.0028944344 -0.38593423 -0.23852047 -0.14741376
0 0.013722991 0.0027401475 -0.38593423 -0.23852047 -0.14741376
0 0.012824166 0.0025861897 -0.38593423 -0.23852047 -0.14741376
0 0.011927243 0.0024325587 -0.38593423 -0.23852047 -0.14741376
5.5511151e-17 0.011032215 0.002279253 -0.38593423 -0.23852047 -0.14741376
0.039999999 0.035911288 0.017625289 -0.38593423 -0.23852047 -0.14741376
0 0.0092477985 0.0019736104 -0.38593423 -0.23852047 -0.14741376
0 0.0083583891 0.00182127 -0.38593423 -0.23852047 -0.14741376
0 0.0074708331 0.0016692479 -0.38593423 -0.23852047 -0.14741376
5.5511151e-17 0.0065851193 0.0015175423 -0.38593423 -0.23852047 -0.14741376
5.5511151e-17 0.0057012378 0.0013661516 -0.38593423 -0.23852047 -0.14741376
5.5511151e-17 0.0048191794 0.001215074 -0.38593423 -0.23852047 -0.14741376
0.039999999 0.029068543 0.016453259 -0.38593423 -0.23852047 -0.14741376
5.5511151e-17 0.0030604911 0.00091385155 -0.38593423 -0.23852047 -0.14741376
0.039999999 0.027131544 0.016121497 -0.38593423 -0.23852047 -0.14741376
0 0.0013089757 0.00061386137 -0.38593423 -0.23852047 -0.14741376
0 0.00043588379 0.00046432426 -0.38593423 -0.23852047 -0.14741376
0.00070585165 0 0.00058527791 -0.38593423 -0.23852047 -0.14741376
0.0021231782 0 0.00097805378 -0.38593423 -0.23852047 -0.14741376
0.0035480577 0 0.0013729238 -0.38593423 -0.23852047 -0.14741376
0.039999999 0.021367453 0.015134274 -0.38593423 -0.23852047 -0.14741376
0.0064207478 0 0.0021690214 -0.38593423 -0.23852047 -0.14741376
0.0078686951 0 0.0025702869 -0.38593423 -0.23852047 -0.14741376
0.0093244705 0 0.0029737228 -0.38593423 -0.23852047 -0.14741376
0.010788145 2.7755576e-17 0.0033793484 -0.38593423 -0.23852047 -0.14741376
0.01225979 0 0.0037871841 -0.38593423 -0.23852047 -0.14741376
0.013739477 2.7755576e-17 0.0041972497 -0.38593423 -0.23852047 -0.14741376
0.039999999 0.014729231 0.013997383 -0.38593423 -0.23852047 -0.14741376
0.039999999 0.013788332 0.013836245 -0.38593423 -0.23852047 -0.14741376
0.018227533 0 0.0054410291 -0.38593423 -0.23852047 -0.14741376
0.019740133 0 0.0058602197 -0.38593423 -0.23852047 -0.14741376
0.021261152 0 0.0062817442 -0.38593423 -0.23852047 -0.14741376
0.039999999 0.010042887 0.01319481 -0.38593423 -0.23852047 -0.14741376
0.024328757 0 0.0071318815 -0.38593423 -0.23852047 -0.14741376
0.025875501 2.7755576e-17 0.0075605386 -0.38593423 -0.23852047 -0.14741376
0.030568479 0 0.008861132 -0.38593423 -0.23852047 -0.14741376
0.03215066 0 0.0092996135 -0.38593423 -0.23852047 -0.14741376
0.03374191 2.7755576e-17 0.0097406106 -0.38593423 -0.23852047 -0.14741376
0.035342317 0 0.010184145 -0.38593423 -0.23852047 -0.14741376
0.036951963 0 0.010630242 -0.38593423 -0.23852047 -0.14741376
0.03857094 2.7755576e-17 0.011078925 -0.38593423 -0.23852047 -0.14741376
5.5511151e-17 0.079900362 0.013219475 -0.38593423 -0.23852047 -0.14741376
0 0.078844458 0.013039672 -0.38593423 -0.23852047 -0.14741376
0 0.077791341 0.012860342 -0.38593423 -0.23852047 -0.14741376
5.5511151e-17 0.076740988 0.012681482 -0.38593423 -0.23852047 -0.14741376
5.5511151e-17 0.075693384 0.01250309 -0.38593423 -0.23852047 -0.14741376
0 0.074648522 0.012325163 -0.38593423 -0.23852047 -0.14741376
0 0.073606372 0.012147698 -0.38593423 -0.23852047 -0.14741376
0 0.072566934 0.011970691 -0.38593423 -0.23852047 -0.14741376
0 0.071530178 0.011794142 -0.38593423 -0.23852047 -0.14741376
0 0.070496097 0.011618047 -0.38593423 -0.23852047 -0.14741376
0 0.069464676 0.011442404 -0.38593423 -0.23852047 -0.14741376
0 0.0684359 0.01126721 -0.38593423 -0.23852047 -0.14741376
5.5511151e-17 0.067409746 0.011092463 -0.38593423 -0.23852047 -0.14741376
0 0.066386208 0.010918158 -0.38593423 -0.23852047 -0.14741376
5.5511151e-17 0.06536527 0.010744296 -0.38593423 -0.23852047 -0.14741376
5.5511151e-17 0.06434691 0.010570873 -0.38593423 -0.23852047 -0.14741376
0 0.063331127 0.010397885 -0.38593423 -0.23852047 -0.14741376
0 0.062317889 0.010225331 -0.38593423 -0.23852047 -0.14741376
0 0.061307192 0.01005321 -0.38593423 -0.23852047 -0.14741376
0 0.06029902 0.0098815169 -0.38593423 -0.23852047 -0.14741376
0 0.05929336 0.0097102504 -0.38593423 -0.23852047 -0.14741376
0 0.058290198 0.0095394086 -0.38593423 -0.23852047 -0.14741376
5.5511151e-17 0.057289515 0.0093689878 -0.38593423 -0.23852047 -0.14741376
0 0.056291301 0.0091989869 -0.38593423 -0.23852047 -0.14741376
5.5511151e-17 0.055295542 0.0090294024 -0.38593423 -0.23852047 -0.14741376
0 0.054302223 0.0088602332 -0.38593423 -0.23852047 -0.14741376
5.5511151e-17 0.053311333 0.0086914757 -0.38593423 -0.23852047 -0.14741376
5.5511151e-17 0.052322853 0.0085231289 -0.38593423 -0.23852047 -0.14741376
0 0.051336776 0.0083551891 -0.38593423 -0.23852047 -0.14741376
0 0.050353084 0.0081876554 -0.38593423 -0.23852047 -0.14741376
5.5511151e-17 0.049371764 0.0080205239 -0.38593423 -0.23852047 -0.14741376
0 0.048392802 0.0078537939 -0.38593423 -0.23852047 -0.14741376
0 0.047416188 0.007687462 -0.38593423 -0.23852047 -0.14741376
0 0.046441909 0.0075215269 -0.38593423 -0.23852047 -0.14741376
5.5511151e-17 0.045469947 0.0073559857 -0.38593423 -0.23852047 -0.14741376
0 0.044500291 0.0071908366 -0.38593423 -0.23852047 -0.14741376
0 0.043532934 0.0070260772 -0.38593423 -0.23852047 -0.14741376
0.039999999 0.071701147 0.022851525 -0.38593423 -0.23852047 -0.14741376
0 0.041605048 0.0066977195 -0.38593423 -0.23852047 -0.14741376
0 0.040644493 0.0065341163 -0.38593423 -0.23852047 -0.14741376
0 0.039686184 0.0063708946 -0.38593423 -0.23852047 -0.14741376
0 0.038730107 0.0062080519 -0.38593423 -0.23852047 -0.14741376
5.5511151e-17 0.037776247 0.006045586 -0.38593423 -0.23852047 -0.14741376
5.5511151e-17 0.036824595 0.0058834949 -0.38593423 -0.23852047 -0.14741376
0 0.035875134 0.0057217767 -0.38593423 -0.23852047 -0.14741376
0 0.03492786 0.0055604293 -0.38593423 -0.23852047 -0.14741376
5.5511151e-17 0.033982754 0.0053994502 -0.38593423 -0.23852047 -0.14741376
0.039999999 0.061185561 0.021060456 -0.38593423 -0.23852047 -0.14741376
0 0.032099005 0.0050785905 -0.38593423 -0.23852047 -0.14741376
0 0.031160336 0.0049187052 -0.38593423 -0.23852047 -0.14741376
0.039999999 0.058077682 0.020531084 -0.38593423 -0.23852047 -0.14741376
0 0.029289357 0.0046000145 -0.38593423 -0.23852047 -0.14741376
0 0.028357022 0.0044412054 -0.38593423 -0.23852047 -0.14741376
5.5511151e-17 0.027426776 0.0042827507 -0.38593423 -0.23852047 -0.14741376
0 0.026498605 0.0041246484 -0.38593423 -0.23852047 -0.14741376
5.5511151e-17 0.025572497 0.0039668973 -0.38593423 -0.23852047 -0.14741376
5.5511151e-17 0.024648445 0.0038094947 -0.38593423 -0.23852047 -0.14741376
0 0.023726435 0.003652439 -0.38593423 -0.23852047 -0.14741376
5.5511151e-17 0.022806456 0.0034957286 -0.38593423 -0.23852047 -0.14741376
5.5511151e-17 0.021888496 0.0033393609 -0.38593423 -0.23852047 -0.14741376
0 0.020972546 0.0031833348 -0.38593423 -0.23852047 -0.14741376
0 0.020058593 0.003027648 -0.38593423 -0.23852047 -0.14741376
0 0.019146627 0.0028722985 -0.38593423 -0.23852047 -0.14741376
0 0.018236637 0.0027172847 -0.38593423 -0.23852047 -0.14741376
0 0.017328613 0.0025626048 -0.38593423 -0.23852047 -0.14741376
5.5511151e-17 0.016422544 0.002408257 -0.38593423 -0.23852047 -0.14741376
0 0.015518417 0.0022542393 -0.38593423 -0.23852047 -0.14741376
0 0.014616224 0.0021005499 -0.38593423 -0.23852047 -0.14741376
0 0.013715954 0.0019471871 -0.38593423 -0.23852047 -0.14741376
0 0.012817597 0.0017941492 -0.38593423 -0.23852047 -0.14741376
0.039999999 0.037878063 0.017090201 -0.38593423 -0.23852047 -0.14741376
0.039999999 0.036890782 0.016922012 -0.38593423 -0.23852047 -0.14741376
0 0.010133893 0.0013369665 -0.38593423 -0.23852047 -0.14741376
0 0.0092430813 0.0011852102 -0.38593423 -0.23852047 -0.14741376
5.5511151e-17 0.0083541302 0.0010337699 -0.38593423 -0.23852047 -0.14741376
5.5511151e-17 0.0074670301 0.00088264403 -0.38593423 -0.23852047 -0.14741376
0 0.0065817707 0.00073183078 -0.38593423 -0.23852047 -0.14741376
0 0.0056983419 0.00058132847 -0.38593423 -0.23852047 -0.14741376
5.5511151e-17 0.0048167342 0.00043113544 -0.38593423 -0.23852047 -0.14741376
0 0.0039369371 0.00028124996 -0.38593423 -0.23852047 -0.14741376
0 0.0030589413 0.0001316704 -0.38593423 -0.23852047 -0.14741376
4.6095756e-05 0.0022114865 0 -0.38593423 -0.23852047 -0.14741376
0.00043659919 0.0015796275 0 -0.38593423 -0.23852047 -0.14741376
0.00082710228 0.00094777474 0 -0.38593423 -0.23852047 -0.14741376
0.0012176068 0.00031592502 0 -0.38593423 -0.23852047 -0.14741376
0.039999999 0.023281811 0.014603546 -0.38593423 -0.23852047 -0.14741376
0.0035462556 2.7755576e-17 0.00058809557 -0.38593423 -0.23852047 -0.14741376
0.039999999 0.021369141 0.014277681 -0.38593423 -0.23852047 -0.14741376
0.039999999 0.020415666 0.014115234 -0.38593423 -0.23852047 -0.14741376
0.0078646662 0 0.00177851 -0.38593423 -0.23852047 -0.14741376
0.0093196835 0 0.0021795987 -0.38593423 -0.23852047 -0.14741376
0.010782591 0 0.0025828613 -0.38593423 -0.23852047 -0.14741376
0.01225346 0 0.002988318 -0.38593423 -0.23852047 -0.14741376
0.013732365 2.7755576e-17 0.0033959881 -0.38593423 -0.23852047 -0.14741376
0.015219376 0 0.0038058925 -0.38593423 -0.23852047 -0.14741376
0.016714569 0 0.0042180512 -0.38593423 -0.23852047 -0.14741376
0.039999999 0.012855175 0.01282709 -0.38593423 -0.23852047 -0.14741376
0.039999999 0.011918377 0.012667476 -0.38593423 -0.23852047 -0.14741376
0.021249995 0 0.005468261 -0.38593423 -0.23852047 -0.14741376
0.022778673 0 0.0058896462 -0.38593423 -0.23852047 -0.14741376
0.024315918 2.7755576e-17 0.0063133915 -0.38593423 -0.23852047 -0.14741376
0.025861807 2.7755576e-17 0.0067395191 -0.38593423 -0.23852047 -0.14741376
0.027416423 0 0.0071680509 -0.38593423 -0.23852047 -0.14741376
0.039999999 0.0063351234 0.011716162 -0.38593423 -0.23852047 -0.14741376
0.032133449 0 0.0084682992 -0.38593423 -0.23852047 -0.14741376
0.039999999 0.0035671962 0.011244529 -0.38593423 -0.23852047 -0.14741376
0.035323288 0 0.0093475739 -0.38593423 -0.23852047 -0.14741376
0.039999999 0.0017305175 0.010931569 -0.38593423 -0.23852047 -0.14741376
0.039999999 0.00081473205 0.010775522 -0.38593423 -0.23852047 -0.14741376
0 0.079855964 0.012354331 -0.38593423 -0.23852047 -0.14741376
5.5511151e-17 0.078800708 0.01217577 -0.38593423 -0.23852047 -0.14741376
5.5511151e-17 0.077748224 0.011997676 -0.38593423 -0.23852047 -0.14741376
0 0.076698512 0.011820047 -0.38593423 -0.23852047 -0.14741376
0 0.075651549 0.01164288 -0.38593423 -0.23852047 -0.14741376
0 0.074607313 0.011466173 -0.38593423 -0.23852047 -0.14741376
5.5511151e-17 0.073565796 0.011289922 -0.38593423 -0.23852047 -0.14741376
0 0.072526976 0.011114124 -0.38593423 -0.23852047 -0.14741376
0 0.071490847 0.010938779 -0.38593423 -0.23852047 -0.14741376
0 0.070457384 0.010763881 -0.38593423 -0.23852047 -0.14741376
5.5511151e-17 0.069426581 0.01058943 -0.38593423 -0.23852047 -0.14741376
5.5511151e-17 0.068398416 0.010415424 -0.38593423 -0.23852047 -0.14741376
0 0.066349939 0.01006873 -0.38593423 -0.23852047 -0.14741376
0 0.065329604 0.009896039 -0.38593423 -0.23852047 -0.14741376
0 0.064311847 0.0097237816 -0.38593423 -0.23852047 -0.14741376
0 0.063296653 0.0095519545 -0.38593423 -0.23852047 -0.14741376
0 0.062284011 0.0093805566 -0.38593423 -0.23852047 -0.14741376
0 0.061273906 0.0092095854 -0.38593423 -0.23852047 -0.14741376
0 0.060266323 0.0090390379 -0.38593423 -0.23852047 -0.14741376
0 0.059261248 0.0088689122 -0.38593423 -0.23852047 -0.14741376
0 0.058258668 0.0086992048 -0.38593423 -0.23852047 -0.14741376
0 0.057258565 0.0085299145 -0.38593423 -0.23852047 -0.14741376
0 0.056260929 0.0083610378 -0.38593423 -0.23852047 -0.14741376
0 0.055265743 0.0081925737 -0.38593423 -0.23852047 -0.14741376
0 0.054272994 0.0080245193 -0.38593423 -0.23852047 -0.14741376
0 0.053282671 0.0078568729 -0.38593423 -0.23852047 -0.14741376
0 0.052294761 0.0076896301 -0.38593423 -0.23852047 -0.14741376
0 0.051309243 0.0075227912 -0.38593423 -0.23852047 -0.14741376
0 0.050326113 0.0073563522 -0.38593423 -0.23852047 -0.14741376
0 0.049345348 0.0071903118 -0.38593423 -0.23852047 -0.14741376
0 0.048366942 0.0070246672 -0.38593423 -0.23852047 -0.14741376
0 0.047390882 0.0068594161 -0.38593423 -0.23852047 -0.14741376
0 0.046417151 0.0066945571 -0.38593423 -0.23852047 -0.14741376
0 0.045445736 0.0065300874 -0.38593423 -0.23852047 -0.14741376
5.5511151e-17 0.044476625 0.0063660052 -0.38593423 -0.23852047 -0.14741376
0 0.043509807 0.0062023075 -0.38593423 -0.23852047 -0.14741376
0 0.04254527 0.0060389931 -0.38593423 -0.23852047 -0.14741376
0 0.041582998 0.0058760592 -0.38593423 -0.23852047 -0.14741376
0 0.040622979 0.0057135038 -0.38593423 -0.23852047 -0.14741376
0 0.0396652 0.0055513252 -0.38593423 -0.23852047 -0.14741376
0 0.038709652 0.0053895214 -0.38593423 -0.23852047 -0.14741376
0 0.03775632 0.0052280892 -0.38593423 -0.23852047 -0.14741376
0 0.036805194 0.0050670276 -0.38593423 -0.23852047 -0.14741376
0 0.035856254 0.0049063344 -0.38593423 -0.23852047 -0.14741376
5.5511151e-17 0.034909498 0.0047460073 -0.38593423 -0.23852047 -0.14741376
0 0.03396491 0.0045860442 -0.38593423 -0.23852047 -0.14741376
0 0.033022478 0.0044264435 -0.38593423 -0.23852047 -0.14741376
5.5511151e-17 0.032082189 0.0042672027 -0.38593423 -0.23852047 -0.14741376
0 0.03114403 0.0041083205 -0.38593423 -0.23852047 -0.14741376
5.5511151e-17 0.030207993 0.003949794 -0.38593423 -0.23852047 -0.14741376
0 0.029274065 0.0037916217 -0.38593423 -0.23852047 -0.14741376
0 0.028342234 0.0036338018 -0.38593423 -0.23852047 -0.14741376
0 0.027412487 0.0034763322 -0.38593423 -0.23852047 -0.14741376
0 0.026484815 0.0033192108 -0.38593423 -0.23852047 -0.14741376
0.039999999 0.05292964 0.018768847 -0.38593423 -0.23852047 -0.14741376
0 0.024635648 0.0030060057 -0.38593423 -0.23852047 -0.14741376
0 0.023714131 0.0028499181 -0.38593423 -0.23852047 -0.14741376
5.5511151e-17 0.02279464 0.0026941712 -0.38593423 -0.23852047 -0.14741376
5.5511151e-17 0.02187717 0.0025387632 -0.38593423 -0.23852047 -0.14741376
0.039999999 0.047855631 0.017909389 -0.38593423 -0.23852047 -0.14741376
5.5511151e-17 0.020048235 0.0022289562 -0.38593423 -0.23852047 -0.14741376
5.5511151e-17 0.019136751 0.0020745539 -0.38593423 -0.23852047 -0.14741376
0 0.018227242 0.0019204828 -0.38593423 -0.23852047 -0.14741376
0.039999999 0.043836147 0.017228495 -0.38593423 -0.23852047 -0.14741376
5.5511151e-17 0.0164141 0.0016133281 -0.38593423 -0.23852047 -0.14741376
5.5511151e-17 0.015510447 0.0014602408 -0.38593423 -0.23852047 -0.14741376
0.039999999 0.040844202 0.016721632 -0.38593423 -0.23852047 -0.14741376
0 0.013708925 0.0011550374 -0.38593423 -0.23852047 -0.14741376
5.5511151e-17 0.012811035 0.0010029178 -0.38593423 -0.23852047 -0.14741376
0.039999999 0.037871335 0.016217971 -0.38593423 -0.23852047 -0.14741376
0 0.011020944 0.00069963373 -0.38593423 -0.23852047 -0.14741376
5.5511151e-17 0.010128722 0.00054846593 -0.38593423 -0.23852047 -0.14741376
0 0.0092383698 0.00039761196 -0.38593423 -0.23852047 -0.14741376
0 0.0083498759 0.00024707013 -0.38593423 -0.23852047 -0.14741376
0 0.0074632317 9.6838703e-05 -0.38593423 -0.23852047 -0.14741376
0.00013902574 0.0066667181 0 -0.38593423 -0.23852047 -0.14741376
0.00053140515 0.0060317176 0 -0.38593423 -0.23852047 -0.14741376
0.00092377968 0.0053967419 0 -0.38593423 -0.23852047 -0.14741376
0.0013161511 0.0047617881 0 -0.38593423 -0.23852047 -0.14741376
0.0017085214 0.0041268524 0 -0.38593423 -0.23852047 -0.14741376
0.0021008926 0.0034919323 0 -0.38593423 -0.23852047 -0.14741376
0.0024932662 0.0028570248 0 -0.38593423 -0.23852047 -0.14741376
0.0028856448 0.0022221263 0 -0.38593423 -0.23852047 -0.14741376
0.0032780298 0.0015872341 0 -0.38593423 -0.23852047 -0.14741376
0.0036704233 0.00095234497 0 -0.38593423 -0.23852047 -0.14741376
0.0040628267 0.00031745579 0 -0.38593423 -0.23852047 -0.14741376
0.0049754875 0 0.00019644797 -0.38593423 -0.23852047 -0.14741376
0.0064141932 0 0.00059093483 -0.38593423 -0.23852047 -0.14741376
0.039999999 0.019466721 0.013099235 -0.38593423 -0.23852047 -0.14741376
0.0093149012 2.7755576e-17 0.0013862875 -0.38593423 -0.23852047 -0.14741376
0.010777043 0 0.0017871918 -0.38593423 -0.23852047 -0.14741376
0.039999999 0.016624648 0.012617533 -0.38593423 -0.23852047 -0.14741376
0.01372526 2.7755576e-17 0.0025955541 -0.38593423 -0.23852047 -0.14741376
0.015211481 0 0.003003052 -0.38593423 -0.23852047 -0.14741376
0.016705874 2.7755576e-17 0.0034127876 -0.38593423 -0.23852047 -0.14741376
0.018208517 0 0.0038247819 -0.38593423 -0.23852047 -0.14741376
0.019719481 0 0.0042390553 -0.38593423 -0.23852047 -0.14741376
0.021238847 2.7755576e-17 0.0046556289 -0.38593423 -0.23852047 -0.14741376
0.022766691 0 0.0050745243 -0.38593423 -0.23852047 -0.14741376
0.039999999 0.0091265077 0.011346539 -0.38593423 -0.23852047 -0.14741376
0.025848128 0 0.0059193661 -0.38593423 -0.23852047 -0.14741376
0.039999999 0.0072698933 0.011031798 -0.38593423 -0.23852047 -0.14741376
0.02896443 0 0.0067737554 -0.38593423 -0.23852047 -0.14741376
0.039999999 0.0054202937 0.010718234 -0.38593423 -0.23852047 -0.14741376
0.039999999 0.0044981013 0.010561889 -0.38593423 -0.23852047 -0.14741376
0.033705704 0 0.0080736354 -0.38593423 -0.23852047 -0.14741376
0.035304282 0 0.0085119009 -0.38593423 -0.23852047 -0.14741376
0.036912084 0 0.0089526912 -0.38593423 -0.23852047 -0.14741376
0.038529195 2.7755576e-17 0.0093960296 -0.38593423 -0.23852047 -0.14741376
5.5511151e-17 0.079811618 0.011490141 -0.38593423 -0.23852047 -0.14741376
0 0.078757003 0.01131282 -0.38593423 -0.23852047 -0.14741376
0 0.07770516 0.01113596 -0.38593423 -0.23852047 -0.14741376
5.5511151e-17 0.076656088 0.010959559 -0.38593423 -0.23852047 -0.14741376
0 0.075609751 0.010783615 -0.38593423 -0.23852047 -0.14741376
0 0.074566148 0.010608124 -0.38593423 -0.23852047 -0.14741376
0 0.073525257 0.010433084 -0.38593423 -0.23852047 -0.14741376
0 0.072487064 0.010258493 -0.38593423 -0.23852047 -0.14741376
5.5511151e-17 0.071451552 0.010084348 -0.38593423 -0.23852047 -0.14741376
0 0.070418715 0.0099106468 -0.38593423 -0.23852047 -0.14741376
0 0.069388524 0.0097373854 -0.38593423 -0.23852047 -0.14741376
0 0.068360969 0.0095645636 -0.38593423 -0.23852047 -0.14741376
0 0.06733603 0.0093921768 -0.38593423 -0.23852047 -0.14741376
0 0.066313706 0.0092202239 -0.38593423 -0.23852047 -0.14741376
5.5511151e-17 0.065293968 0.0090487013 -0.38593423 -0.23852047 -0.14741376
0 0.064276814 0.0088776071 -0.38593423 -0.23852047 -0.14741376
5.5511151e-17 0.063262217 0.0087069385 -0.38593423 -0.23852047 -0.14741376
0 0.062250171 0.0085366946 -0.38593423 -0.23852047 -0.14741376
0 0.061240654 0.0083668707 -0.38593423 -0.23852047 -0.14741376
5.5511151e-17 0.06023366 0.0081974659 -0.38593423 -0.23852047 -0.14741376
0 0.059229169 0.0080284784 -0.38593423 -0.23852047 -0.14741376
5.5511151e-17 0.05822717 0.0078599034 -0.38593423 -0.23852047 -0.14741376
0 0.057227645 0.007691741 -0.38593423 -0.23852047 -0.14741376
0 0.056230586 0.0075239874 -0.38593423 -0.23852047 -0.14741376
0 0.055235974 0.0073566409 -0.38593423 -0.23852047 -0.14741376
0 0.054243799 0.007189699 -0.38593423 -0.23852047 -0.14741376
0 0.053254042 0.0070231599 -0.38593423 -0.23852047 -0.14741376
5.5511151e-17 0.052266695 0.0068570208 -0.38593423 -0.23852047 -0.14741376
0 0.051281739 0.0066912794 -0.38593423 -0.23852047 -0.14741376
0 0.050299168 0.0065259337 -0.38593423 -0.23852047 -0.14741376
5.5511151e-17 0.049318962 0.0063609811 -0.38593423 -0.23852047 -0.14741376
0 0.04834111 0.0061964202 -0.38593423 -0.23852047 -0.14741376
0 0.047365598 0.006032248 -0.38593423 -0.23852047 -0.14741376
0 0.046392418 0.0058684628 -0.38593423 -0.23852047 -0.14741376
0 0.045421552 0.0057050623 -0.38593423 -0.23852047 -0.14741376
0.039999999 0.073781654 0.021395087 -0.38593423 -0.23852047 -0.14741376
0 0.043486707 0.0053794063 -0.38593423 -0.23852047 -0.14741376
0 0.04252271 0.0052171466 -0.38593423 -0.23852047 -0.14741376
0 0.04156097 0.0050552632 -0.38593423 -0.23852047 -0.14741376
0 0.040601488 0.0048937537 -0.38593423 -0.23852047 -0.14741376
0 0.039644241 0.0047326162 -0.38593423 -0.23852047 -0.14741376
0 0.038689222 0.0045718485 -0.38593423 -0.23852047 -0.14741376
0 0.037736416 0.0044114487 -0.38593423 -0.23852047 -0.14741376
0 0.036785811 0.0042514144 -0.38593423 -0.23852047 -0.14741376
0 0.035837397 0.0040917443 -0.38593423 -0.23852047 -0.14741376
0 0.034891158 0.0039324355 -0.38593423 -0.23852047 -0.14741376
0 0.033947084 0.0037734865 -0.38593423 -0.23852047 -0.14741376
0 0.033005167 0.003614895 -0.38593423 -0.23852047 -0.14741376
0 0.032065388 0.0034566594 -0.38593423 -0.23852047 -0.14741376
0 0.031127742 0.0032987774 -0.38593423 -0.23852047 -0.14741376
0 0.030192211 0.0031412472 -0.38593423 -0.23852047 -0.14741376
5.5511151e-17 0.029258789 0.0029840667 -0.38593423 -0.23852047 -0.14741376
0.039999999 0.055984806 0.018398903 -0.38593423 -0.23852047 -0.14741376
5.5511151e-17 0.027398214 0.0026707477 -0.38593423 -0.23852047 -0.14741376
0 0.026471041 0.0025146052 -0.38593423 -0.23852047 -0.14741376
0 0.025545929 0.0023588049 -0.38593423 -0.23852047 -0.14741376
0 0.024622863 0.0022033448 -0.38593423 -0.23852047 -0.14741376
0 0.023701837 0.0020482233 -0.38593423 -0.23852047 -0.14741376
0 0.022782838 0.001893438 -0.38593423 -0.23852047 -0.14741376
5.5511151e-17 0.021865854 0.0017389876 -0.38593423 -0.23852047 -0.14741376
0 0.020950874 0.0015848699 -0.38593423 -0.23852047 -0.14741376
0 0.020037888 0.0014310833 -0.38593423 -0.23852047 -0.14741376
0 0.019126885 0.0012776259 -0.38593423 -0.23852047 -0.14741376
5.5511151e-17 0.018217854 0.0011244958 -0.38593423 -0.23852047 -0.14741376
5.5511151e-17 0.017310785 0.00097169133 -0.38593423 -0.23852047 -0.14741376
0.039999999 0.042827383 0.016182758 -0.38593423 -0.23852047 -0.14741376
0 0.015502485 0.00066705194 -0.38593423 -0.23852047 -0.14741376
0 0.014601234 0.00051521347 -0.38593423 -0.23852047 -0.14741376
0 0.013701903 0.00036369354 -0.38593423 -0.23852047 -0.14741376
0 0.012804479 0.00021249037 -0.38593423 -0.23852047 -0.14741376
0.039999999 0.036878355 0.015180447 -0.38593423 -0.23852047 -0.14741376
0.00062734581 0.010527733 0 -0.38593423 -0.23852047 -0.14741376
0.0010216079 0.0098894928 0 -0.38593423 -0.23852047 -0.14741376
0.0014158624 0.0092512947 2.7755576e-17 -0.38593423 -0.23852047 -0.14741376
0.0018101109 0.0086131329 0 -0.38593423 -0.23852047 -0.14741376
0.0022043556 0.0079750065 0 -0.38593423 -0.23852047 -0.14741376
0.0025985984 0.0073369108 0 -0.38593423 -0.23852047 -0.14741376
0.0029928412 0.0066988431 0 -0.38593423 -0.23852047 -0.14741376
0.0033870859 0.006060801 0 -0.38593423 -0.23852047 -0.14741376
0.0037813345 0.0054227803 0 -0.38593423 -0.23852047 -0.14741376
0.039999999 0.02712789 0.013537243 -0.38593423 -0.23852047 -0.14741376
0.0045698513 0.0041467929 2.7755576e-17 -0.38593423 -0.23852047 -0.14741376
0.004964123 0.0035088193 0 -0.38593423 -0.23852047 -0.14741376
0.0053584068 0.0028708552 0 -0.38593423 -0.23852047 -0.14741376
0.0057527036 0.0022328971 2.7755576e-17 -0.38593423 -0.23852047 -0.14741376
0.0065413467 0.00095698726 2.7755576e-17 -0.38593423 -0.23852047 -0.14741376
0.0069356961 0.00031902918 0 -0.38593423 -0.23852047 -0.14741376
0.0078566205 2.7755576e-17 0.00019737675 -0.38593423 -0.23852047 -0.14741376
0.0093101235 0 0.00059378456 -0.38593423 -0.23852047 -0.14741376
0.0107715 2.7755576e-17 0.00099233515 -0.38593423 -0.23852047 -0.14741376
0.012240822 0 0.0013930477 -0.38593423 -0.23852047 -0.14741376
0.013718163 0 0.0017959421 -0.38593423 -0.23852047 -0.14741376
0.039999999 0.014744185 0.011449504 -0.38593423 -0.23852047 -0.14741376
0.016697189 0 0.0026083558 -0.38593423 -0.23852047 -0.14741376
0.018199023 2.7755576e-17 0.0030179154 -0.38593423 -0.23852047 -0.14741376
0.021227712 2.7755576e-17 0.0038438437 -0.38593423 -0.23852047 -0.14741376
0.022754721 0 0.0042602541 -0.38593423 -0.23852047 -0.14741376
0.024290279 0 0.0046789902 -0.38593423 -0.23852047 -0.14741376
0.025834462 0 0.0051000742 -0.38593423 -0.23852047 -0.14741376
0.027387353 2.7755576e-17 0.0055235275 -0.38593423 -0.23852047 -0.14741376
0.039999999 0.0063533103 0.010034404 -0.38593423 -0.23852047 -0.14741376
0.03051958 0 0.0063776313 -0.38593423 -0.23852047 -0.14741376
0.032099087 0 0.006808327 -0.38593423 -0.23852047 -0.14741376
0.033687629 0 0.0072414824 -0.38593423 -0.23852047 -0.14741376
0.035285298 0 0.0076771206 -0.38593423 -0.23852047 -0.14741376
0.039999999 0.0017531533 0.0092584221 -0.38593423 -0.23852047 -0.14741376
0.038508352 0 0.0085559413 -0.38593423 -0.23852047 -0.14741376
0 0.079767317 0.010626901 -0.38593423 -0.23852047 -0.14741376
0 0.078713343 0.010450816 -0.38593423 -0.23852047 -0.14741376
5.5511151e-17 0.077662148 0.010275187 -0.38593423 -0.23852047 -0.14741376
0 0.076613702 0.010100012 -0.38593423 -0.23852047 -0.14741376
5.5511151e-17 0.075568005 0.0099252872 -0.38593423 -0.23852047 -0.14741376
5.5511151e-17 0.074525028 0.0097510107 -0.38593423 -0.23852047 -0.14741376
0 0.073484764 0.0095771803 -0.38593423 -0.23852047 -0.14741376
5.5511151e-17 0.072447196 0.0094037931 -0.38593423 -0.23852047 -0.14741376
0 0.07141231 0.0092308465 -0.38593423 -0.23852047 -0.14741376
0 0.070380084 0.0090583377 -0.38593423 -0.23852047 -0.14741376
5.5511151e-17 0.069350503 0.0088862646 -0.38593423 -0.23852047 -0.14741376
0 0.06832356 0.0087146237 -0.38593423 -0.23852047 -0.14741376
0 0.067299232 0.0085434141 -0.38593423 -0.23852047 -0.14741376
5.5511151e-17 0.066277511 0.0083726328 -0.38593423 -0.23852047 -0.14741376
0 0.065258376 0.0082022771 -0.38593423 -0.23852047 -0.14741376
0 0.064241819 0.0080323434 -0.38593423 -0.23852047 -0.14741376
5.5511151e-17 0.063227817 0.0078628315 -0.38593423 -0.23852047 -0.14741376
0 0.062216364 0.0076937382 -0.38593423 -0.23852047 -0.14741376
0 0.06120744 0.0075250603 -0.38593423 -0.23852047 -0.14741376
0 0.060201034 0.0073567959 -0.38593423 -0.23852047 -0.14741376
0 0.059197124 0.0071889432 -0.38593423 -0.23852047 -0.14741376
0 0.058195706 0.0070214993 -0.38593423 -0.23852047 -0.14741376
0 0.057196762 0.006854462 -0.38593423 -0.23852047 -0.14741376
0 0.056200277 0.0066878288 -0.38593423 -0.23852047 -0.14741376
5.5511151e-17 0.055206239 0.006521598 -0.38593423 -0.23852047 -0.14741376
5.5511151e-17 0.05421463 0.0063557667 -0.38593423 -0.23852047 -0.14741376
0 0.053225443 0.0061903326 -0.38593423 -0.23852047 -0.14741376
5.5511151e-17 0.052238658 0.0060252943 -0.38593423 -0.23852047 -0.14741376
0 0.051254265 0.0058606486 -0.38593423 -0.23852047 -0.14741376
5.5511151e-17 0.050272252 0.0056963935 -0.38593423 -0.23852047 -0.14741376
0 0.049292602 0.0055325273 -0.38593423 -0.23852047 -0.14741376
0 0.048315305 0.0053690476 -0.38593423 -0.23852047 -0.14741376
0 0.047340345 0.0052059521 -0.38593423 -0.23852047 -0.14741376
0 0.046367712 0.0050432384 -0.38593423 -0.23852047 -0.14741376
0 0.04539739 0.0048809047 -0.38593423 -0.23852047 -0.14741376
5.5511151e-17 0.044429369 0.0047189486 -0.38593423 -0.23852047 -0.14741376
0 0.043463632 0.0045573683 -0.38593423 -0.23852047 -0.14741376
5.5511151e-17 0.042500172 0.004396162 -0.38593423 -0.23852047 -0.14741376
0 0.041538969 0.0042353268 -0.38593423 -0.23852047 -0.14741376
0 0.040580016 0.0040748608 -0.38593423 -0.23852047 -0.14741376
5.5511151e-17 0.039623301 0.0039147623 -0.38593423 -0.23852047 -0.14741376
5.5511151e-17 0.038668811 0.0037550291 -0.38593423 -0.23852047 -0.14741376
0 0.03771653 0.003595659 -0.38593423 -0.23852047 -0.14741376
0 0.036766447 0.0034366501 -0.38593423 -0.23852047 -0.14741376
0 0.035818554 0.0032780005 -0.38593423 -0.23852047 -0.14741376
0 0.034872834 0.003119708 -0.38593423 -0.23852047 -0.14741376
0 0.033929281 0.0029617709 -0.38593423 -0.23852047 -0.14741376
0 0.032987874 0.0028041869 -0.38593423 -0.23852047 -0.14741376
