# .PCD v0.7 - Point Cloud Data file format
VERSION 0.7
FIELDS x y z vp_x vp_y vp_z
SIZE 4 4 4 4 4 4
TYPE F F F F F F
COUNT 1 1 1 1 1 1
WIDTH 694
HEIGHT 1
VIEWPOINT 0 0 0 1 0 0 0
POINTS 694
DATA ascii
0.015891047 0.025461342 0.039999999 0.38593423 0.23852047 0.14741376
0.015527034 0.026039166 0.039999999 0.38593423 0.23852047 0.14741376
0.015162723 0.026616916 0.039999999 0.38593423 0.23852047 0.14741376
0.014798109 0.027194595 0.039999999 0.38593423 0.23852047 0.14741376
0.014433191 0.027772209 0.039999999 0.38593423 0.23852047 0.14741376
0.014067966 0.028349759 0.039999999 0.38593423 0.23852047 0.14741376
0.01370243 0.02892725 0.039999999 0.38593423 0.23852047 0.14741376
0.013336582 0.029504687 0.039999999 0.38593423 0.23852047 0.14741376
0.01297042 0.030082073 0.039999999 0.38593423 0.23852047 0.14741376
0.01260394 0.030659411 0.039999999 0.38593423 0.23852047 0.14741376
0.012237141 0.031236704 0.039999999 0.38593423 0.23852047 0.14741376
0.011870018 0.031813961 0.039999999 0.38593423 0.23852047 0.14741376
0.011502571 0.032391179 0.039999999 0.38593423 0.23852047 0.14741376
0.03338521 0.045171212 0.046376746 0.38593423 0.23852047 0.14741376
0.034959324 0.046763312 0.046926562 0.38593423 0.23852047 0.14741376
0.036048952 0.048083898 0.047336813 0.38593423 0.23852047 0.14741376
0.036825124 0.049228743 0.047656782 0.38593423 0.23852047 0.14741376
0.037456177 0.05029073 0.047934785 0.38593423 0.23852047 0.14741376
0.037989222 0.051296119 0.04818438 0.38593423 0.23852047 0.14741376
0.038403377 0.052234344 0.048399705 0.38593423 0.23852047 0.14741376
0.038764823 0.053141482 0.048599698 0.38593423 0.23852047 0.14741376
0.039063781 0.054012671 0.048781618 0.38593423 0.23852047 0.14741376
0.039295007 0.054845519 0.048944034 0.38593423 0.23852047 0.14741376
0.039525528 0.055675838 0.049106024 0.38593423 0.23852047 0.14741376
0.039655462 0.056451123 0.04923927 0.38593423 0.23852047 0.14741376
0.03978201 0.057222907 0.049371392 0.38593423 0.23852047 0.14741376
0.039890718 0.05798367 0.049498297 0.38593423 0.23852047 0.14741376
0.039929904 0.058706678 0.049605396 0.38593423 0.23852047 0.14741376
0.039969016 0.059428308 0.049712356 0.38593423 0.23852047 0.14741376
0.039992385 0.060140491 0.049814764 0.38593423 0.23852047 0.14741376
0.03995553 0.060820479 0.049900088 0.38593423 0.23852047 0.14741376
0.039918732 0.061499484 0.04998536 0.38593423 0.23852047 0.14741376
0.039880451 0.062176727 0.050070144 0.38593423 0.23852047 0.14741376
0.039775148 0.062818952 0.050136022 0.38593423 0.23852047 0.14741376
0.03966995 0.063460514 0.050201897 0.38593423 0.23852047 0.14741376
0.039564863 0.06410142 0.050267775 0.38593423 0.23852047 0.14741376
0.039415758 0.064719528 0.050321285 0.38593423 0.23852047 0.14741376
0.039247025 0.065327309 0.050369296 0.38593423 0.23852047 0.14741376
0.039078396 0.065934688 0.050417345 0.38593423 0.23852047 0.14741376
0.038894169 0.066533893 0.050461039 0.38593423 0.23852047 0.14741376
0.038664501 0.0671103 0.050492063 0.38593423 0.23852047 0.14741376
0.0384349 0.067686535 0.050523151 0.38593423 0.23852047 0.14741376
0.038205359 0.068262622 0.050554294 0.38593423 0.23852047 0.14741376
0.037929747 0.068816051 0.05057266 0.38593423 0.23852047 0.14741376
0.037639976 0.069362603 0.050587151 0.38593423 0.23852047 0.14741376
0.037350181 0.0699092 0.050601713 0.38593423 0.23852047 0.14741376
0.037044231 0.070448078 0.050611872 0.38593423 0.23852047 0.14741376
0.036693402 0.070965551 0.050609671 0.38593423 0.23852047 0.14741376
0.036342409 0.071483254 0.05060754 0.38593423 0.23852047 0.14741376
0.035991263 0.072001196 0.050605472 0.38593423 0.23852047 0.14741376
0.03558911 0.072495282 0.050589416 0.38593423 0.23852047 0.14741376
0.03517412 0.072983824 0.050569959 0.38593423 0.23852047 0.14741376
0.034758788 0.073472768 0.05055055 0.38593423 0.23852047 0.14741376
0.034314375 0.073948674 0.050523277 0.38593423 0.23852047 0.14741376
0.033830591 0.074406914 0.050485328 0.38593423 0.23852047 0.14741376
0.033346213 0.074865721 0.050447397 0.38593423 0.23852047 0.14741376
0.032848012 0.075318985 0.050405856 0.38593423 0.23852047 0.14741376
0.032288011 0.075744696 0.050347544 0.38593423 0.23852047 0.14741376
0.031727079 0.076171122 0.050289202 0.38593423 0.23852047 0.14741376
0.031156443 0.076594263 0.050228432 0.38593423 0.23852047 0.14741376
0.030509129 0.076983735 0.050146908 0.38593423 0.23852047 0.14741376
0.029860413 0.077374049 0.050065275 0.38593423 0.23852047 0.14741376
0.029186253 0.077754378 0.049976967 0.38593423 0.23852047 0.14741376
0.028435279 0.078101821 0.049867988 0.38593423 0.23852047 0.14741376
0.027682245 0.07845021 0.049758781 0.38593423 0.23852047 0.14741376
0.026850669 0.078765541 0.049628515 0.38593423 0.23852047 0.14741376
0.025971262 0.079061866 0.049485613 0.38593423 0.23852047 0.14741376
0.025042553 0.079338804 0.049329706 0.38593423 0.23852047 0.14741376
0.023999959 0.079568267 0.049143307 0.38593423 0.23852047 0.14741376
0.022895202 0.07977353 0.048940536 0.38593423 0.23852047 0.14741376
0.021628203 0.079911366 0.048694316 0.38593423 0.23852047 0.14741376
0.020219924 0.079991788 0.04841046 0.38593423 0.23852047 0.14741376
0.018448148 0.079919674 0.048028979 0.38593423 0.23852047 0.14741376
0.016026756 0.079574153 0.047472864 0.38593423 0.23852047 0.14741376
0.034667205 0.00029160827 0.039999999 0.38593423 0.23852047 0.14741376
0.03431629 0.00087341381 0.039999999 0.38593423 0.23852047 0.14741376
0.033965193 0.0014549715 0.039999999 0.38593423 0.23852047 0.14741376
0.033613913 0.0020362851 0.039999999 0.38593423 0.23852047 0.14741376
0.03326245 0.0026173589 0.039999999 0.38593423 0.23852047 0.14741376
0.032910794 0.0031981966 0.039999999 0.38593423 0.23852047 0.14741376
0.032558952 0.003778802 0.039999999 0.38593423 0.23852047 0.14741376
0.032206915 0.0043591792 0.039999999 0.38593423 0.23852047 0.14741376
0.031854685 0.0049393321 0.039999999 0.38593423 0.23852047 0.14741376
0.031502254 0.0055192648 0.039999999 0.38593423 0.23852047 0.14741376
0.031149628 0.006098981 0.039999999 0.38593423 0.23852047 0.14741376
0.030796798 0.0066784844 0.039999999 0.38593423 0.23852047 0.14741376
0.030443765 0.0072577791 0.039999999 0.38593423 0.23852047 0.14741376
0.030090524 0.007836869 0.039999999 0.38593423 0.23852047 0.14741376
0.029737076 0.0084157586 0.039999999 0.38593423 0.23852047 0.14741376
0.029383415 0.0089944499 0.039999999 0.38593423 0.23852047 0.14741376
0.029029543 0.0095729493 0.039999999 0.38593423 0.23852047 0.14741376
0.028675452 0.010151259 0.039999999 0.38593423 0.23852047 0.14741376
0.028321145 0.010729383 0.039999999 0.38593423 0.23852047 0.14741376
0.027966617 0.011307326 0.039999999 0.38593423 0.23852047 0.14741376
0.027611867 0.011885091 0.039999999 0.38593423 0.23852047 0.14741376
0.027256891 0.012462682 0.039999999 0.38593423 0.23852047 0.14741376
0.026901687 0.013040104 0.039999999 0.38593423 0.23852047 0.14741376
0.026546253 0.013617359 0.039999999 0.38593423 0.23852047 0.14741376
0.026190588 0.014194453 0.039999999 0.38593423 0.23852047 0.14741376
0.025834687 0.014771388 0.039999999 0.38593423 0.23852047 0.14741376
0.025478549 0.015348168 0.039999999 0.38593423 0.23852047 0.14741376
0.025122173 0.015924798 0.039999999 0.38593423 0.23852047 0.14741376
0.024765555 0.016501281 0.039999999 0.38593423 0.23852047 0.14741376
0.024408691 0.017077621 0.039999999 0.38593423 0.23852047 0.14741376
0.024051582 0.017653823 0.039999999 0.38593423 0.23852047 0.14741376
0.023694223 0.018229889 0.039999999 0.38593423 0.23852047 0.14741376
0.023336614 0.018805822 0.039999999 0.38593423 0.23852047 0.14741376
0.022978751 0.019381629 0.039999999 0.38593423 0.23852047 0.14741376
0.022620631 0.019957313 0.039999999 0.38593423 0.23852047 0.14741376
0.022262253 0.020532876 0.039999999 0.38593423 0.23852047 0.14741376
0.021903614 0.021108324 0.039999999 0.38593423 0.23852047 0.14741376
0.021544712 0.021683659 0.039999999 0.38593423 0.23852047 0.14741376
0.021185543 0.022258885 0.039999999 0.38593423 0.23852047 0.14741376
0.020826107 0.022834007 0.039999999 0.38593423 0.23852047 0.14741376
0.0204664 0.023409029 0.039999999 0.38593423 0.23852047 0.14741376
0.02010642 0.023983954 0.039999999 0.38593423 0.23852047 0.14741376
0.019746166 0.024558784 0.039999999 0.38593423 0.23852047 0.14741376
0.019385632 0.025133528 0.039999999 0.38593423 0.23852047 0.14741376
0.019024817 0.025708184 0.039999999 0.38593423 0.23852047 0.14741376
0.018663721 0.026282759 0.039999999 0.38593423 0.23852047 0.14741376
0.018302338 0.026857257 0.039999999 0.38593423 0.23852047 0.14741376
0.017940668 0.02743168 0.039999999 0.38593423 0.23852047 0.14741376
0.017578708 0.028006032 0.039999999 0.38593423 0.23852047 0.14741376
0.017216455 0.028580319 0.039999999 0.38593423 0.23852047 0.14741376
0.016853908 0.029154545 0.039999999 0.38593423 0.23852047 0.14741376
0.016491063 0.029728711 0.039999999 0.38593423 0.23852047 0.14741376
0.016127916 0.030302821 0.039999999 0.38593423 0.23852047 0.14741376
0.015764467 0.030876881 0.039999999 0.38593423 0.23852047 0.14741376
0.015400714 0.031450894 0.039999999 0.38593423 0.23852047 0.14741376
0.015036654 0.032024864 0.039999999 0.38593423 0.23852047 0.14741376
0.014672282 0.032598794 0.039999999 0.38593423 0.23852047 0.14741376
0.014307598 0.033172686 0.039999999 0.38593423 0.23852047 0.14741376
0.013942598 0.033746548 0.039999999 0.38593423 0.23852047 0.14741376
0.033414833 0.045199271 0.045722533 0.38593423 0.23852047 0.14741376
0.034978505 0.046785891 0.046272922 0.38593423 0.23852047 0.14741376
0.036062278 0.048103552 0.046684153 0.38593423 0.23852047 0.14741376
0.036838748 0.049248841 0.047006279 0.38593423 0.23852047 0.14741376
0.037465852 0.050308976 0.047284942 0.38593423 0.23852047 0.14741376
0.037999112 0.051314775 0.047536209 0.38593423 0.23852047 0.14741376
0.038410291 0.0522517 0.047752064 0.38593423 0.23852047 0.14741376
0.038771894 0.053159222 0.047953378 0.38593423 0.23852047 0.14741376
0.039068434 0.054029424 0.048135769 0.38593423 0.23852047 0.14741376
0.039299756 0.054862637 0.048299242 0.38593423 0.23852047 0.14741376
0.039530378 0.055693313 0.048462287 0.38593423 0.23852047 0.14741376
0.039658196 0.056467794 0.048595764 0.38593423 0.23852047 0.14741376
0.0397848 0.057239916 0.048728723 0.38593423 0.23852047 0.14741376
0.039891604 0.057999998 0.048855878 0.38593423 0.23852047 0.14741376
0.039930806 0.058723334 0.04896364 0.38593423 0.23852047 0.14741376
0.039969936 0.059445288 0.04907126 0.38593423 0.23852047 0.14741376
0.039991498 0.060156856 0.049173776 0.38593423 0.23852047 0.14741376
0.039954625 0.060837157 0.04925961 0.38593423 0.23852047 0.14741376
0.039917808 0.061516471 0.049345382 0.38593423 0.23852047 0.14741376
0.039877761 0.062193133 0.049430169 0.38593423 0.23852047 0.14741376
0.039772406 0.062835664 0.049496409 0.38593423 0.23852047 0.14741376
0.039667163 0.063477524 0.049562648 0.38593423 0.23852047 0.14741376
0.039562024 0.064118728 0.049628884 0.38593423 0.23852047 0.14741376
0.039411116 0.064736262 0.049682178 0.38593423 0.23852047 0.14741376
0.039242297 0.065344326 0.049730416 0.38593423 0.23852047 0.14741376
0.03907359 0.065951996 0.049778692 0.38593423 0.23852047 0.14741376
0.038887508 0.066550612 0.049822085 0.38593423 0.23852047 0.14741376
0.038657732 0.067127295 0.049853217 0.38593423 0.23852047 0.14741376
0.038428016 0.067703813 0.049884405 0.38593423 0.23852047 0.14741376
0.038198367 0.068280175 0.049915649 0.38593423 0.23852047 0.14741376
0.037920773 0.068832979 0.049933504 0.38593423 0.23852047 0.14741376
0.03763086 0.069379799 0.049947981 0.38593423 0.23852047 0.14741376
0.037340917 0.069926672 0.049962521 0.38593423 0.23852047 0.14741376
0.037032846 0.070464864 0.049972072 0.38593423 0.23852047 0.14741376
0.036681838 0.070982605 0.049969729 0.38593423 0.23852047 0.14741376
0.03633067 0.07150057 0.049967449 0.38593423 0.23852047 0.14741376
0.035979342 0.07201878 0.049965233 0.38593423 0.23852047 0.14741376
0.035574827 0.07251209 0.049948327 0.38593423 0.23852047 0.14741376
0.035159621 0.073000893 0.049928594 0.38593423 0.23852047 0.14741376
0.034744073 0.073490091 0.04990891 0.38593423 0.23852047 0.14741376
0.034297012 0.073965117 0.049880628 0.38593423 0.23852047 0.14741376
0.03381297 0.074423611 0.049842265 0.38593423 0.23852047 0.14741376
0.033328328 0.074882664 0.049803916 0.38593423 0.23852047 0.14741376
0.032827087 0.075334892 0.049761161 0.38593423 0.23852047 0.14741376
0.032266777 0.075760841 0.049702283 0.38593423 0.23852047 0.14741376
0.031705532 0.076187506 0.049643371 0.38593423 0.23852047 0.14741376
0.031131309 0.076609388 0.049581107 0.38593423 0.23852047 0.14741376
0.03048362 0.076999083 0.049498837 0.38593423 0.23852047 0.14741376
0.029834529 0.077389628 0.049416456 0.38593423 0.23852047 0.14741376
0.029155992 0.077768378 0.049326256 0.38593423 0.23852047 0.14741376
0.028404566 0.07811603 0.049216326 0.38593423 0.23852047 0.14741376
0.027651075 0.078464635 0.049106162 0.38593423 0.23852047 0.14741376
0.026813949 0.078777917 0.0489734 0.38593423 0.23852047 0.14741376
0.025933981 0.079074427 0.048829287 0.38593423 0.23852047 0.14741376
0.024998011 0.079348609 0.048670251 0.38593423 0.23852047 0.14741376
0.023954712 0.079578228 0.048482314 0.38593423 0.23852047 0.14741376
0.022839863 0.07977955 0.048275325 0.38593423 0.23852047 0.14741376
0.02157193 0.07991749 0.048027113 0.38593423 0.23852047 0.14741376
0.020149836 0.079992443 0.047737494 0.38593423 0.23852047 0.14741376
0.018350597 0.079909064 0.047345899 0.38593423 0.23852047 0.14741376
0.015874086 0.079540551 0.046771005 0.38593423 0.23852047 0.14741376
0.03799805 9.4432595e-05 0.039999999 0.38593423 0.23852047 0.14741376
0.037649568 0.00067337527 0.039999999 0.38593423 0.23852047 0.14741376
0.037300918 0.0012520651 0.039999999 0.38593423 0.23852047 0.14741376
0.036952097 0.0018305059 0.039999999 0.38593423 0.23852047 0.14741376
0.036603108 0.0024087015 0.039999999 0.38593423 0.23852047 0.14741376
0.036253944 0.002986656 0.039999999 0.38593423 0.23852047 0.14741376
0.035904605 0.0035643731 0.039999999 0.38593423 0.23852047 0.14741376
0.035555087 0.0041418569 0.039999999 0.38593423 0.23852047 0.14741376
0.03520539 0.0047191111 0.039999999 0.38593423 0.23852047 0.14741376
0.034855511 0.0052961395 0.039999999 0.38593423 0.23852047 0.14741376
0.034505449 0.0058729458 0.039999999 0.38593423 0.23852047 0.14741376
0.034155197 0.0064495346 0.039999999 0.38593423 0.23852047 0.14741376
0.033804756 0.0070259091 0.039999999 0.38593423 0.23852047 0.14741376
0.033454124 0.0076020733 0.039999999 0.38593423 0.23852047 0.14741376
0.033103298 0.0081780311 0.039999999 0.38593423 0.23852047 0.14741376
0.032752275 0.0087537859 0.039999999 0.38593423 0.23852047 0.14741376
0.032401055 0.0093293423 0.039999999 0.38593423 0.23852047 0.14741376
0.032049634 0.0099047041 0.039999999 0.38593423 0.23852047 0.14741376
0.031698011 0.010479874 0.039999999 0.38593423 0.23852047 0.14741376
0.03134618 0.011054858 0.039999999 0.38593423 0.23852047 0.14741376
0.030994143 0.011629657 0.039999999 0.38593423 0.23852047 0.14741376
0.030641897 0.012204277 0.039999999 0.38593423 0.23852047 0.14741376
0.030289436 0.012778721 0.039999999 0.38593423 0.23852047 0.14741376
0.029936763 0.013352994 0.039999999 0.38593423 0.23852047 0.14741376
0.029583871 0.013927097 0.039999999 0.38593423 0.23852047 0.14741376
0.02923076 0.014501037 0.039999999 0.38593423 0.23852047 0.14741376
0.02887743 0.015074817 0.039999999 0.38593423 0.23852047 0.14741376
0.028523874 0.01564844 0.039999999 0.38593423 0.23852047 0.14741376
0.02817009 0.016221909 0.039999999 0.38593423 0.23852047 0.14741376
0.02781608 0.016795229 0.039999999 0.38593423 0.23852047 0.14741376
0.027461838 0.017368404 0.039999999 0.38593423 0.23852047 0.14741376
0.027107364 0.017941438 0.039999999 0.38593423 0.23852047 0.14741376
0.026752653 0.018514333 0.039999999 0.38593423 0.23852047 0.14741376
0.026397705 0.019087095 0.039999999 0.38593423 0.23852047 0.14741376
0.026042515 0.019659726 0.039999999 0.38593423 0.23852047 0.14741376
0.025687084 0.020232232 0.039999999 0.38593423 0.23852047 0.14741376
0.025331408 0.020804614 0.039999999 0.38593423 0.23852047 0.14741376
0.024975484 0.021376878 0.039999999 0.38593423 0.23852047 0.14741376
0.024619309 0.021949027 0.039999999 0.38593423 0.23852047 0.14741376
0.024262883 0.022521064 0.039999999 0.38593423 0.23852047 0.14741376
0.023906203 0.023092994 0.039999999 0.38593423 0.23852047 0.14741376
0.023549266 0.023664821 0.039999999 0.38593423 0.23852047 0.14741376
0.023192069 0.024236547 0.039999999 0.38593423 0.23852047 0.14741376
0.02283461 0.024808176 0.039999999 0.38593423 0.23852047 0.14741376
0.022476887 0.025379714 0.039999999 0.38593423 0.23852047 0.14741376
0.022118898 0.025951164 0.039999999 0.38593423 0.23852047 0.14741376
0.021760641 0.026522528 0.039999999 0.38593423 0.23852047 0.14741376
0.021402111 0.027093811 0.039999999 0.38593423 0.23852047 0.14741376
0.021043308 0.027665017 0.039999999 0.38593423 0.23852047 0.14741376
0.020684227 0.028236149 0.039999999 0.38593423 0.23852047 0.14741376
0.020324869 0.028807212 0.039999999 0.38593423 0.23852047 0.14741376
0.019965231 0.029378209 0.039999999 0.38593423 0.23852047 0.14741376
0.019605309 0.029949144 0.039999999 0.38593423 0.23852047 0.14741376
0.019245099 0.03052002 0.039999999 0.38593423 0.23852047 0.14741376
0.018884603 0.031090841 0.039999999 0.38593423 0.23852047 0.14741376
0.018523816 0.031661611 0.039999999 0.38593423 0.23852047 0.14741376
0.018162735 0.032232333 0.039999999 0.38593423 0.23852047 0.14741376
0.017801357 0.032803014 0.039999999 0.38593423 0.23852047 0.14741376
0.017439684 0.033373654 0.039999999 0.38593423 0.23852047 0.14741376
0.017077709 0.03394426 0.039999999 0.38593423 0.23852047 0.14741376
0.01671543 0.03451483 0.039999999 0.38593423 0.23852047 0.14741376
0.016352845 0.035085376 0.039999999 0.38593423 0.23852047 0.14741376
0.033444472 0.045227345 0.04506794 0.38593423 0.23852047 0.14741376
0.034997698 0.046808485 0.045618862 0.38593423 0.23852047 0.14741376
0.036075611 0.048123218 0.04603105 0.38593423 0.23852047 0.14741376
0.036852386 0.04926895 0.046355341 0.38593423 0.23852047 0.14741376
0.037475534 0.050327234 0.046634648 0.38593423 0.23852047 0.14741376
0.03800901 0.051333446 0.046887588 0.38593423 0.23852047 0.14741376
0.038417213 0.052269068 0.04710396 0.38593423 0.23852047 0.14741376
0.038778964 0.053176973 0.047306601 0.38593423 0.23852047 0.14741376
0.039073087 0.054046191 0.047489449 0.38593423 0.23852047 0.14741376
0.039304513 0.054879766 0.047653984 0.38593423 0.23852047 0.14741376
0.039533965 0.055710133 0.047817715 0.38593423 0.23852047 0.14741376
0.039660931 0.056484476 0.04795178 0.38593423 0.23852047 0.14741376
0.039787591 0.057256941 0.048085585 0.38593423 0.23852047 0.14741376
0.039892487 0.058016341 0.048212979 0.38593423 0.23852047 0.14741376
0.039931711 0.058740001 0.048321407 0.38593423 0.23852047 0.14741376
0.039970856 0.059462283 0.04842969 0.38593423 0.23852047 0.14741376
0.039990611 0.060173232 0.048532311 0.38593423 0.23852047 0.14741376
0.039953724 0.060853846 0.048618648 0.38593423 0.23852047 0.14741376
0.039916888 0.061533473 0.048704926 0.38593423 0.23852047 0.14741376
0.039875071 0.062209554 0.048789706 0.38593423 0.23852047 0.14741376
0.039769664 0.062852383 0.048856314 0.38593423 0.23852047 0.14741376
0.039664373 0.063494548 0.048922911 0.38593423 0.23852047 0.14741376
0.039559186 0.064136043 0.048989508 0.38593423 0.23852047 0.14741376
0.039406467 0.064752996 0.049042575 0.38593423 0.23852047 0.14741376
0.03923757 0.065361351 0.049091049 0.38593423 0.23852047 0.14741376
0.039068785 0.065969318 0.049139552 0.38593423 0.23852047 0.14741376
0.038880844 0.066567339 0.049182635 0.38593423 0.23852047 0.14741376
0.038650952 0.067144305 0.049213871 0.38593423 0.23852047 0.14741376
0.038421128 0.067721106 0.049245164 0.38593423 0.23852047 0.14741376
0.038191363 0.068297744 0.049276512 0.38593423 0.23852047 0.14741376
0.037911791 0.068849921 0.049293853 0.38593423 0.23852047 0.14741376
0.037621733 0.06939701 0.049308307 0.38593423 0.23852047 0.14741376
0.037331648 0.069944151 0.049322825 0.38593423 0.23852047 0.14741376
0.037021454 0.070481673 0.049331762 0.38593423 0.23852047 0.14741376
0.036670268 0.070999674 0.049329273 0.38593423 0.23852047 0.14741376
0.036318921 0.071517907 0.049326845 0.38593423 0.23852047 0.14741376
0.035967413 0.072036371 0.049324483 0.38593423 0.23852047 0.14741376
0.035560533 0.072528921 0.04930672 0.38593423 0.23852047 0.14741376
0.035145111 0.07301797 0.049286708 0.38593423 0.23852047 0.14741376
0.034729343 0.073507428 0.049266744 0.38593423 0.23852047 0.14741376
0.034279633 0.073981583 0.049237449 0.38593423 0.23852047 0.14741376
0.033795331 0.074440315 0.049198668 0.38593423 0.23852047 0.14741376
0.033310432 0.074899614 0.049159903 0.38593423 0.23852047 0.14741376
0.032806147 0.075350806 0.049115926 0.38593423 0.23852047 0.14741376
0.032245528 0.075776994 0.049056478 0.38593423 0.23852047 0.14741376
0.03168397 0.076203898 0.048996992 0.38593423 0.23852047 0.14741376
0.031106152 0.076624528 0.048933219 0.38593423 0.23852047 0.14741376
0.030458089 0.077014446 0.048850205 0.38593423 0.23852047 0.14741376
0.029808622 0.077405214 0.048767079 0.38593423 0.23852047 0.14741376
0.029125705 0.077782393 0.048674967 0.38593423 0.23852047 0.14741376
0.028373824 0.078130253 0.048564084 0.38593423 0.23852047 0.14741376
0.027619878 0.078479066 0.048452958 0.38593423 0.23852047 0.14741376
0.026777193 0.0787903 0.048317682 0.38593423 0.23852047 0.14741376
0.025896667 0.079087004 0.048172355 0.38593423 0.23852047 0.14741376
0.024953429 0.079358421 0.048010163 0.38593423 0.23852047 0.14741376
0.02390942 0.079588197 0.04782068 0.38593423 0.23852047 0.14741376
0.022784466 0.079785578 0.047609441 0.38593423 0.23852047 0.14741376
0.0215156 0.079923615 0.047359224 0.38593423 0.23852047 0.14741376
0.020079674 0.079993099 0.04706379 0.38593423 0.23852047 0.14741376
0.018252926 0.079898439 0.046661969 0.38593423 0.23852047 0.14741376
0.01572118 0.079506896 0.046068065 0.38593423 0.23852047 0.14741376
0.039999999 0.00063994766 0.03981461 0.38593423 0.23852047 0.14741376
0.039999999 0.0014543751 0.039922446 0.38593423 0.23852047 0.14741376
0.039902978 0.002200769 0.039999999 0.38593423 0.23852047 0.14741376
0.039556216 0.002775881 0.039999999 0.38593423 0.23852047 0.14741376
0.039209295 0.0033507503 0.039999999 0.38593423 0.23852047 0.14741376
0.03886221 0.0039253812 0.039999999 0.38593423 0.23852047 0.14741376
0.038514957 0.0044997777 0.039999999 0.38593423 0.23852047 0.14741376
0.038167536 0.0050739432 0.039999999 0.38593423 0.23852047 0.14741376
0.037819948 0.0056478819 0.039999999 0.38593423 0.23852047 0.14741376
0.037472185 0.0062215971 0.039999999 0.38593423 0.23852047 0.14741376
0.037124246 0.006795093 0.039999999 0.38593423 0.23852047 0.14741376
0.036776133 0.0073683728 0.039999999 0.38593423 0.23852047 0.14741376
0.036427841 0.0079414416 0.039999999 0.38593423 0.23852047 0.14741376
0.036079366 0.0085143019 0.039999999 0.38593423 0.23852047 0.14741376
0.035730705 0.0090869581 0.039999999 0.38593423 0.23852047 0.14741376
0.035381861 0.0096594132 0.039999999 0.38593423 0.23852047 0.14741376
0.035032827 0.010231673 0.039999999 0.38593423 0.23852047 0.14741376
0.034683604 0.010803739 0.039999999 0.38593423 0.23852047 0.14741376
0.034334186 0.011375616 0.039999999 0.38593423 0.23852047 0.14741376
0.033984572 0.011947309 0.039999999 0.38593423 0.23852047 0.14741376
0.033634763 0.012518818 0.039999999 0.38593423 0.23852047 0.14741376
0.033284754 0.013090151 0.039999999 0.38593423 0.23852047 0.14741376
0.032934543 0.01366131 0.039999999 0.38593423 0.23852047 0.14741376
0.032584127 0.014232298 0.039999999 0.38593423 0.23852047 0.14741376
0.032233506 0.014803121 0.039999999 0.38593423 0.23852047 0.14741376
0.031882674 0.01537378 0.039999999 0.38593423 0.23852047 0.14741376
0.031531632 0.01594428 0.039999999 0.38593423 0.23852047 0.14741376
0.031180376 0.016514625 0.039999999 0.38593423 0.23852047 0.14741376
0.030828906 0.01708482 0.039999999 0.38593423 0.23852047 0.14741376
0.030477216 0.017654866 0.039999999 0.38593423 0.23852047 0.14741376
0.030125307 0.018224768 0.039999999 0.38593423 0.23852047 0.14741376
0.029773174 0.018794529 0.039999999 0.38593423 0.23852047 0.14741376
0.029420817 0.019364156 0.039999999 0.38593423 0.23852047 0.14741376
0.029068233 0.019933648 0.039999999 0.38593423 0.23852047 0.14741376
0.028715419 0.020503012 0.039999999 0.38593423 0.23852047 0.14741376
0.028362373 0.02107225 0.039999999 0.38593423 0.23852047 0.14741376
0.028009092 0.021641368 0.039999999 0.38593423 0.23852047 0.14741376
0.027655575 0.022210367 0.039999999 0.38593423 0.23852047 0.14741376
0.02730182 0.022779252 0.039999999 0.38593423 0.23852047 0.14741376
0.026947822 0.023348028 0.039999999 0.38593423 0.23852047 0.14741376
0.026593583 0.023916695 0.039999999 0.38593423 0.23852047 0.14741376
0.026239095 0.024485262 0.039999999 0.38593423 0.23852047 0.14741376
0.02588436 0.025053728 0.039999999 0.38593423 0.23852047 0.14741376
0.025529375 0.0256221 0.039999999 0.38593423 0.23852047 0.14741376
0.025174137 0.026190378 0.039999999 0.38593423 0.23852047 0.14741376
0.024818642 0.02675857 0.039999999 0.38593423 0.23852047 0.14741376
0.024462892 0.027326677 0.039999999 0.38593423 0.23852047 0.14741376
0.024106879 0.027894704 0.039999999 0.38593423 0.23852047 0.14741376
0.023750605 0.028462654 0.039999999 0.38593423 0.23852047 0.14741376
0.023394067 0.02903053 0.039999999 0.38593423 0.23852047 0.14741376
0.02303726 0.029598337 0.039999999 0.38593423 0.23852047 0.14741376
0.022680184 0.030166078 0.039999999 0.38593423 0.23852047 0.14741376
0.022322835 0.030733759 0.039999999 0.38593423 0.23852047 0.14741376
0.021965213 0.031301379 0.039999999 0.38593423 0.23852047 0.14741376
0.021607315 0.031868946 0.039999999 0.38593423 0.23852047 0.14741376
0.021249136 0.032436464 0.039999999 0.38593423 0.23852047 0.14741376
0.020890675 0.033003934 0.039999999 0.38593423 0.23852047 0.14741376
0.020531932 0.033571359 0.039999999 0.38593423 0.23852047 0.14741376
0.020172901 0.034138743 0.039999999 0.38593423 0.23852047 0.14741376
0.019813582 0.034706093 0.039999999 0.38593423 0.23852047 0.14741376
0.019453971 0.035273414 0.039999999 0.38593423 0.23852047 0.14741376
0.019094067 0.035840701 0.039999999 0.38593423 0.23852047 0.14741376
0.018733865 0.036407966 0.039999999 0.38593423 0.23852047 0.14741376
0.033474129 0.045255437 0.044412956 0.38593423 0.23852047 0.14741376
0.035016902 0.046831094 0.044964373 0.38593423 0.23852047 0.14741376
0.036088955 0.048142899 0.0453775 0.38593423 0.23852047 0.14741376
0.036866028 0.049289078 0.045703955 0.38593423 0.23852047 0.14741376
0.03748522 0.050345507 0.045983896 0.38593423 0.23852047 0.14741376
0.038018916 0.051352128 0.046238512 0.38593423 0.23852047 0.14741376
0.038424138 0.05228645 0.046455391 0.38593423 0.23852047 0.14741376
0.038786042 0.053194739 0.046659358 0.38593423 0.23852047 0.14741376
0.039077748 0.054062974 0.046842657 0.38593423 0.23852047 0.14741376
0.039309271 0.054896906 0.047008254 0.38593423 0.23852047 0.14741376
0.039536644 0.055726483 0.047172412 0.38593423 0.23852047 0.14741376
0.039663669 0.056501172 0.047307327 0.38593423 0.23852047 0.14741376
0.039790384 0.057273977 0.047441974 0.38593423 0.23852047 0.14741376
0.039893374 0.058032695 0.047569603 0.38593423 0.23852047 0.14741376
0.039932612 0.058756683 0.047678694 0.38593423 0.23852047 0.14741376
0.039971776 0.059479289 0.047787644 0.38593423 0.23852047 0.14741376
0.039989721 0.060189623 0.047890361 0.38593423 0.23852047 0.14741376
0.039952818 0.060870551 0.047977205 0.38593423 0.23852047 0.14741376
0.039915964 0.061550487 0.04806399 0.38593423 0.23852047 0.14741376
0.039872374 0.062225986 0.048148759 0.38593423 0.23852047 0.14741376
0.039766923 0.062869117 0.048215728 0.38593423 0.23852047 0.14741376
0.039661579 0.06351158 0.04828269 0.38593423 0.23852047 0.14741376
0.039556343 0.064153381 0.048349649 0.38593423 0.23852047 0.14741376
0.039401818 0.064769752 0.048402485 0.38593423 0.23852047 0.14741376
0.039232839 0.065378398 0.048451185 0.38593423 0.23852047 0.14741376
0.039063971 0.065986648 0.048499919 0.38593423 0.23852047 0.14741376
0.038874172 0.06658408 0.04854269 0.38593423 0.23852047 0.14741376
0.038644172 0.067161329 0.04857403 0.38593423 0.23852047 0.14741376
0.038414232 0.067738406 0.048605423 0.38593423 0.23852047 0.14741376
0.03818436 0.068315327 0.048636872 0.38593423 0.23852047 0.14741376
0.037902802 0.068866871 0.048653692 0.38593423 0.23852047 0.14741376
0.037612598 0.069414236 0.048668124 0.38593423 0.23852047 0.14741376
0.037322368 0.069961652 0.048682623 0.38593423 0.23852047 0.14741376
0.037010051 0.070498489 0.048690941 0.38593423 0.23852047 0.14741376
0.036658686 0.071016751 0.048688304 0.38593423 0.23852047 0.14741376
0.03630716 0.071535252 0.04868573 0.38593423 0.23852047 0.14741376
0.035955474 0.072053984 0.048683219 0.38593423 0.23852047 0.14741376
0.035546225 0.072545759 0.048664588 0.38593423 0.23852047 0.14741376
0.035130586 0.073035069 0.048644301 0.38593423 0.23852047 0.14741376
0.034714602 0.073524781 0.048624057 0.38593423 0.23852047 0.14741376
0.034262244 0.073998056 0.048593733 0.38593423 0.23852047 0.14741376
0.033777677 0.074457034 0.048554536 0.38593423 0.23852047 0.14741376
0.033292517 0.074916586 0.048515353 0.38593423 0.23852047 0.14741376
0.032785192 0.075366735 0.048470143 0.38593423 0.23852047 0.14741376
0.032224257 0.075793162 0.048410121 0.38593423 0.23852047 0.14741376
0.03166239 0.076220304 0.048350062 0.38593423 0.23852047 0.14741376
0.031080974 0.076639675 0.048284769 0.38593423 0.23852047 0.14741376
0.030432537 0.077029817 0.04820101 0.38593423 0.23852047 0.14741376
0.029782694 0.077420808 0.048117131 0.38593423 0.23852047 0.14741376
0.029095391 0.077796414 0.048023093 0.38593423 0.23852047 0.14741376
0.028343055 0.078144491 0.047911253 0.38593423 0.23852047 0.14741376
0.027588652 0.078493513 0.04779917 0.38593423 0.23852047 0.14741376
0.026740404 0.078802697 0.047661357 0.38593423 0.23852047 0.14741376
0.025859315 0.079099588 0.047514815 0.38593423 0.23852047 0.14741376
0.024908802 0.079368241 0.047349431 0.38593423 0.23852047 0.14741376
0.023864083 0.079598173 0.047158405 0.38593423 0.23852047 0.14741376
0.022729013 0.079791613 0.046942871 0.38593423 0.23852047 0.14741376
0.021459213 0.079929754 0.046690647 0.38593423 0.23852047 0.14741376
0.020009432 0.079993762 0.046389345 0.38593423 0.23852047 0.14741376
0.018155133 0.0798878 0.045977183 0.38593423 0.23852047 0.14741376
0.015568038 0.07947319 0.045364037 0.38593423 0.23852047 0.14741376
0.039999999 0.00062759907 0.039117631 0.38593423 0.23852047 0.14741376
0.039999999 0.0014424572 0.039226286 0.38593423 0.23852047 0.14741376
0.039999999 0.0022555396 0.039334767 0.38593423 0.23852047 0.14741376
0.039999999 0.0030668564 0.039443079 0.38593423 0.23852047 0.14741376
0.039999999 0.0038764165 0.039551221 0.38593423 0.23852047 0.14741376
0.039999999 0.0046842298 0.039659198 0.38593423 0.23852047 0.14741376
0.039999999 0.0054903054 0.039767008 0.38593423 0.23852047 0.14741376
0.039999999 0.0062946533 0.039874651 0.38593423 0.23852047 0.14741376
0.039999999 0.007097282 0.039982129 0.38593423 0.23852047 0.14741376
0.039711688 0.0077059944 0.039999999 0.38593423 0.23852047 0.14741376
0.039365672 0.0082760016 0.039999999 0.38593423 0.23852047 0.14741376
0.039019484 0.0088457987 0.039999999 0.38593423 0.23852047 0.14741376
0.038673129 0.00941539 0.039999999 0.38593423 0.23852047 0.14741376
0.038326595 0.0099847801 0.039999999 0.38593423 0.23852047 0.14741376
0.037979886 0.010553971 0.039999999 0.38593423 0.23852047 0.14741376
0.037632998 0.011122968 0.039999999 0.38593423 0.23852047 0.14741376
0.037285931 0.011691774 0.039999999 0.38593423 0.23852047 0.14741376
0.036938682 0.012260393 0.039999999 0.38593423 0.23852047 0.14741376
0.036591247 0.012828829 0.039999999 0.38593423 0.23852047 0.14741376
0.036243621 0.013397085 0.039999999 0.38593423 0.23852047 0.14741376
0.03589581 0.013965164 0.039999999 0.38593423 0.23852047 0.14741376
0.035547804 0.014533073 0.039999999 0.38593423 0.23852047 0.14741376
0.035199605 0.015100812 0.039999999 0.38593423 0.23852047 0.14741376
0.034851208 0.015668387 0.039999999 0.38593423 0.23852047 0.14741376
0.034502614 0.0162358 0.039999999 0.38593423 0.23852047 0.14741376
0.034153819 0.016803056 0.039999999 0.38593423 0.23852047 0.14741376
0.033804823 0.017370159 0.039999999 0.38593423 0.23852047 0.14741376
0.033455618 0.017937113 0.039999999 0.38593423 0.23852047 0.14741376
0.033106208 0.018503919 0.039999999 0.38593423 0.23852047 0.14741376
0.032756586 0.019070582 0.039999999 0.38593423 0.23852047 0.14741376
0.032406751 0.019637108 0.039999999 0.38593423 0.23852047 0.14741376
0.032056704 0.020203497 0.039999999 0.38593423 0.23852047 0.14741376
0.031706437 0.020769756 0.039999999 0.38593423 0.23852047 0.14741376
0.031355955 0.021335887 0.039999999 0.38593423 0.23852047 0.14741376
0.031005248 0.021901894 0.039999999 0.38593423 0.23852047 0.14741376
0.030654319 0.022467781 0.039999999 0.38593423 0.23852047 0.14741376
0.030303163 0.02303355 0.039999999 0.38593423 0.23852047 0.14741376
0.029951779 0.023599207 0.039999999 0.38593423 0.23852047 0.14741376
0.029600166 0.024164755 0.039999999 0.38593423 0.23852047 0.14741376
0.029248318 0.024730196 0.039999999 0.38593423 0.23852047 0.14741376
0.028896237 0.025295535 0.039999999 0.38593423 0.23852047 0.14741376
0.028543917 0.025860775 0.039999999 0.38593423 0.23852047 0.14741376
0.028191358 0.026425922 0.039999999 0.38593423 0.23852047 0.14741376
0.027838554 0.026990978 0.039999999 0.38593423 0.23852047 0.14741376
0.027485508 0.027555946 0.039999999 0.38593423 0.23852047 0.14741376
0.027132215 0.028120831 0.039999999 0.38593423 0.23852047 0.14741376
0.026778674 0.028685635 0.039999999 0.38593423 0.23852047 0.14741376
0.026424879 0.029250363 0.039999999 0.38593423 0.23852047 0.14741376
0.026070833 0.02981502 0.039999999 0.38593423 0.23852047 0.14741376
0.025716528 0.030379606 0.039999999 0.38593423 0.23852047 0.14741376
0.025361966 0.030944128 0.039999999 0.38593423 0.23852047 0.14741376
0.025007144 0.031508587 0.039999999 0.38593423 0.23852047 0.14741376
0.024652058 0.032072987 0.039999999 0.38593423 0.23852047 0.14741376
0.024296707 0.032637335 0.039999999 0.38593423 0.23852047 0.14741376
0.023941087 0.033201631 0.039999999 0.38593423 0.23852047 0.14741376
0.023585197 0.033765882 0.039999999 0.38593423 0.23852047 0.14741376
0.023229035 0.034330089 0.039999999 0.38593423 0.23852047 0.14741376
0.022872597 0.034894258 0.039999999 0.38593423 0.23852047 0.14741376
0.02251588 0.035458386 0.039999999 0.38593423 0.23852047 0.14741376
0.022158885 0.036022484 0.039999999 0.38593423 0.23852047 0.14741376
0.021801608 0.036586557 0.039999999 0.38593423 0.23852047 0.14741376
0.021444047 0.037150599 0.039999999 0.38593423 0.23852047 0.14741376
0.021086197 0.037714623 0.039999999 0.38593423 0.23852047 0.14741376
0.033503804 0.045283549 0.043757576 0.38593423 0.23852047 0.14741376
0.035036121 0.046853721 0.044309452 0.38593423 0.23852047 0.14741376
0.036102306 0.048162594 0.044723496 0.38593423 0.23852047 0.14741376
0.036879681 0.049309216 0.045052119 0.38593423 0.23852047 0.14741376
0.037494916 0.050363794 0.045332681 0.38593423 0.23852047 0.14741376
0.038028829 0.051370822 0.045588974 0.38593423 0.23852047 0.14741376
0.038431067 0.052303843 0.045806352 0.38593423 0.23852047 0.14741376
0.038793128 0.053212516 0.046011649 0.38593423 0.23852047 0.14741376
0.039082408 0.054079764 0.046195392 0.38593423 0.23852047 0.14741376
0.039314035 0.054914061 0.046362054 0.38593423 0.23852047 0.14741376
0.039539326 0.055742845 0.046526629 0.38593423 0.23852047 0.14741376
0.039666407 0.05651788 0.04666239 0.38593423 0.23852047 0.14741376
0.039793182 0.057291027 0.046797886 0.38593423 0.23852047 0.14741376
0.03989426 0.05804906 0.046925742 0.38593423 0.23852047 0.14741376
0.039933518 0.058773376 0.0470355 0.38593423 0.23852047 0.14741376
0.0399727 0.05949631 0.047145113 0.38593423 0.23852047 0.14741376
0.039988834 0.060206026 0.047247924 0.38593423 0.23852047 0.14741376
0.039951909 0.060887266 0.047335278 0.38593423 0.23852047 0.14741376
0.039915044 0.061567515 0.047422566 0.38593423 0.23852047 0.14741376
0.039869677 0.06224243 0.04750732 0.38593423 0.23852047 0.14741376
0.039764177 0.062885858 0.047574654 0.38593423 0.23852047 0.14741376
0.039658785 0.063528627 0.047641978 0.38593423 0.23852047 0.14741376
0.039553501 0.064170726 0.047709297 0.38593423 0.23852047 0.14741376
0.039397161 0.064786516 0.047761895 0.38593423 0.23852047 0.14741376
0.039228104 0.065395452 0.047810826 0.38593423 0.23852047 0.14741376
0.039059155 0.066003993 0.047859792 0.38593423 0.23852047 0.14741376
0.038867496 0.066600837 0.047902238 0.38593423 0.23852047 0.14741376
0.038637381 0.067178361 0.047933687 0.38593423 0.23852047 0.14741376
0.038407333 0.067755722 0.047965184 0.38593423 0.23852047 0.14741376
0.038177345 0.068332925 0.047996733 0.38593423 0.23852047 0.14741376
0.037893806 0.068883844 0.048013024 0.38593423 0.23852047 0.14741376
0.037603457 0.069431476 0.048027437 0.38593423 0.23852047 0.14741376
0.037313085 0.069979161 0.04804191 0.38593423 0.23852047 0.14741376
0.036998641 0.07051532 0.048049599 0.38593423 0.23852047 0.14741376
0.036647096 0.07103385 0.04804682 0.38593423 0.23852047 0.14741376
0.036295392 0.071552612 0.048044097 0.38593423 0.23852047 0.14741376
0.035943527 0.072071604 0.048041437 0.38593423 0.23852047 0.14741376
0.035531908 0.07256262 0.048021931 0.38593423 0.23852047 0.14741376
0.035116054 0.073052183 0.048001364 0.38593423 0.23852047 0.14741376
0.03469985 0.073542155 0.047980841 0.38593423 0.23852047 0.14741376
0.034244835 0.074014537 0.047949482 0.38593423 0.23852047 0.14741376
0.033760011 0.074473768 0.047909867 0.38593423 0.23852047 0.14741376
0.033274587 0.074933566 0.047870263 0.38593423 0.23852047 0.14741376
0.032764215 0.075382687 0.047823805 0.38593423 0.23852047 0.14741376
0.03220297 0.075809345 0.047763214 0.38593423 0.23852047 0.14741376
0.031640787 0.076236725 0.047702581 0.38593423 0.23852047 0.14741376
0.031055773 0.076654837 0.047635756 0.38593423 0.23852047 0.14741376
0.030406961 0.07704521 0.047551244 0.38593423 0.23852047 0.14741376
0.029756742 0.077436425 0.047466617 0.38593423 0.23852047 0.14741376
0.029065048 0.077810459 0.047370631 0.38593423 0.23852047 0.14741376
0.028312258 0.078158736 0.047257833 0.38593423 0.23852047 0.14741376
0.027557399 0.078507975 0.047144789 0.38593423 0.23852047 0.14741376
0.026703581 0.07881511 0.047004417 0.38593423 0.23852047 0.14741376
0.02582193 0.079112187 0.046856657 0.38593423 0.23852047 0.14741376
0.024864132 0.079378076 0.046688057 0.38593423 0.23852047 0.14741376
0.023818703 0.079608165 0.046495479 0.38593423 0.23852047 0.14741376
0.022673503 0.079797648 0.046275616 0.38593423 0.23852047 0.14741376
0.021402765 0.079935893 0.046021376 0.38593423 0.23852047 0.14741376
0.019939113 0.079994418 0.045714151 0.38593423 0.23852047 0.14741376
0.018057218 0.079877146 0.045291536 0.38593423 0.23852047 0.14741376
0.01541466 0.079439431 0.044658918 0.38593423 0.23852047 0.14741376
0.039999999 0.00061524013 0.03842007 0.38593423 0.23852047 0.14741376
0.039999999 0.0014305293 0.038529541 0.38593423 0.23852047 0.14741376
0.039999999 0.0022440411 0.038638838 0.38593423 0.23852047 0.14741376
0.039999999 0.0030557849 0.038747959 0.38593423 0.23852047 0.14741376
0.039999999 0.0038657705 0.038856912 0.38593423 0.23852047 0.14741376
0.039999999 0.0046740072 0.038965691 0.38593423 0.23852047 0.14741376
0.039999999 0.0054805051 0.039074302 0.38593423 0.23852047 0.14741376
0.039999999 0.0062852725 0.039182741 0.38593423 0.23852047 0.14741376
0.039999999 0.0070883194 0.039291017 0.38593423 0.23852047 0.14741376
0.039999999 0.0078896545 0.039399121 0.38593423 0.23852047 0.14741376
0.039999999 0.008689288 0.039507061 0.38593423 0.23852047 0.14741376
0.039999999 0.0094872285 0.039614838 0.38593423 0.23852047 0.14741376
0.039999999 0.010283485 0.03972245 0.38593423 0.23852047 0.14741376
0.039999999 0.011078066 0.039829899 0.38593423 0.23852047 0.14741376
0.039999999 0.011870982 0.039937187 0.38593423 0.23852047 0.14741376
0.03985722 0.012569021 0.039999999 0.38593423 0.23852047 0.14741376
0.039512094 0.013134415 0.039999999 0.38593423 0.23852047 0.14741376
0.039166793 0.013699628 0.039999999 0.38593423 0.23852047 0.14741376
0.038821317 0.014264665 0.039999999 0.38593423 0.23852047 0.14741376
0.038475659 0.014829527 0.039999999 0.38593423 0.23852047 0.14741376
0.038129821 0.015394217 0.039999999 0.38593423 0.23852047 0.14741376
0.037783798 0.015958743 0.039999999 0.38593423 0.23852047 0.14741376
0.037437588 0.016523104 0.039999999 0.38593423 0.23852047 0.14741376
0.037091188 0.017087307 0.039999999 0.38593423 0.23852047 0.14741376
0.036744598 0.017651353 0.039999999 0.38593423 0.23852047 0.14741376
0.036397815 0.018215246 0.039999999 0.38593423 0.23852047 0.14741376
0.036050837 0.018778993 0.039999999 0.38593423 0.23852047 0.14741376
0.035703659 0.019342594 0.039999999 0.38593423 0.23852047 0.14741376
0.035356283 0.019906053 0.039999999 0.38593423 0.23852047 0.14741376
0.035008706 0.020469377 0.039999999 0.38593423 0.23852047 0.14741376
0.034660924 0.021032564 0.039999999 0.38593423 0.23852047 0.14741376
0.034312934 0.021595623 0.039999999 0.38593423 0.23852047 0.14741376
0.033964735 0.022158556 0.039999999 0.38593423 0.23852047 0.14741376
0.033616327 0.022721363 0.039999999 0.38593423 0.23852047 0.14741376
0.033267703 0.023284053 0.039999999 0.38593423 0.23852047 0.14741376
0.032918867 0.023846628 0.039999999 0.38593423 0.23852047 0.14741376
0.032569811 0.024409089 0.039999999 0.38593423 0.23852047 0.14741376
0.032220535 0.024971442 0.039999999 0.38593423 0.23852047 0.14741376
0.031871036 0.025533691 0.039999999 0.38593423 0.23852047 0.14741376
0.031521313 0.026095839 0.039999999 0.38593423 0.23852047 0.14741376
0.031171361 0.026657889 0.039999999 0.38593423 0.23852047 0.14741376
0.030821182 0.027219845 0.039999999 0.38593423 0.23852047 0.14741376
0.03047077 0.02778171 0.039999999 0.38593423 0.23852047 0.14741376
0.030120125 0.028343489 0.039999999 0.38593423 0.23852047 0.14741376
0.029769244 0.028905187 0.039999999 0.38593423 0.23852047 0.14741376
0.029418124 0.029466802 0.039999999 0.38593423 0.23852047 0.14741376
0.029066764 0.030028343 0.039999999 0.38593423 0.23852047 0.14741376
0.02871516 0.030589812 0.039999999 0.38593423 0.23852047 0.14741376
0.028363312 0.031151213 0.039999999 0.38593423 0.23852047 0.14741376
0.028011216 0.031712547 0.039999999 0.38593423 0.23852047 0.14741376
0.027658869 0.032273822 0.039999999 0.38593423 0.23852047 0.14741376
0.02730627 0.032835037 0.039999999 0.38593423 0.23852047 0.14741376
0.026953418 0.033396199 0.039999999 0.38593423 0.23852047 0.14741376
0.026600307 0.03395731 0.039999999 0.38593423 0.23852047 0.14741376
0.026246937 0.034518376 0.039999999 0.38593423 0.23852047 0.14741376
0.025893306 0.035079397 0.039999999 0.38593423 0.23852047 0.14741376
0.025539411 0.035640378 0.039999999 0.38593423 0.23852047 0.14741376
0.025185252 0.036201324 0.039999999 0.38593423 0.23852047 0.14741376
0.024830822 0.036762238 0.039999999 0.38593423 0.23852047 0.14741376
0.02447612 0.037323121 0.039999999 0.38593423 0.23852047 0.14741376
0.024121147 0.037883982 0.039999999 0.38593423 0.23852047 0.14741376
0.023765897 0.038444817 0.039999999 0.38593423 0.23852047 0.14741376
0.023410369 0.039005637 0.039999999 0.38593423 0.23852047 0.14741376
0.033533499 0.045311674 0.043101806 0.38593423 0.23852047 0.14741376
0.035055351 0.04687636 0.043654099 0.38593423 0.23852047 0.14741376
0.036115665 0.048182301 0.044069041 0.38593423 0.23852047 0.14741376
0.036893345 0.04932937 0.044399835 0.38593423 0.23852047 0.14741376
0.037504617 0.050382093 0.044681001 0.38593423 0.23852047 0.14741376
0.038038746 0.051389534 0.044938978 0.38593423 0.23852047 0.14741376
0.038438004 0.052321248 0.04515684 0.38593423 0.23852047 0.14741376
0.038800217 0.053230304 0.045363471 0.38593423 0.23852047 0.14741376
0.039087076 0.054096568 0.045547649 0.38593423 0.23852047 0.14741376
0.0393188 0.054931227 0.045715373 0.38593423 0.23852047 0.14741376
0.039542012 0.055759221 0.045880359 0.38593423 0.23852047 0.14741376
0.039669149 0.0565346 0.046016973 0.38593423 0.23852047 0.14741376
0.039795976 0.057308089 0.046153318 0.38593423 0.23852047 0.14741376
0.039895151 0.058065441 0.046281394 0.38593423 0.23852047 0.14741376
0.039934423 0.058790084 0.046391822 0.38593423 0.23852047 0.14741376
0.039973624 0.059513342 0.046502098 0.38593423 0.23852047 0.14741376
0.039987944 0.060222439 0.046604995 0.38593423 0.23852047 0.14741376
0.039951004 0.060903993 0.046692856 0.38593423 0.23852047 0.14741376
0.03991412 0.061584558 0.04678065 0.38593423 0.23852047 0.14741376
0.03986698 0.062258888 0.046865381 0.38593423 0.23852047 0.14741376
0.039761428 0.062902622 0.046933081 0.38593423 0.23852047 0.14741376
0.039655987 0.063545682 0.047000773 0.38593423 0.23852047 0.14741376
0.039550651 0.064188085 0.047068451 0.38593423 0.23852047 0.14741376
0.039392505 0.064803295 0.047120806 0.38593423 0.23852047 0.14741376
0.039223365 0.065412521 0.047169968 0.38593423 0.23852047 0.14741376
0.039054334 0.066021353 0.047219161 0.38593423 0.23852047 0.14741376
0.038860817 0.066617608 0.047261283 0.38593423 0.23852047 0.14741376
0.03863059 0.067195415 0.047292832 0.38593423 0.23852047 0.14741376
0.038400427 0.067773052 0.047324434 0.38593423 0.23852047 0.14741376
0.03817033 0.068350539 0.047356088 0.38593423 0.23852047 0.14741376
0.037884802 0.068900824 0.047371842 0.38593423 0.23852047 0.14741376
0.037594311 0.069448732 0.047386233 0.38593423 0.23852047 0.14741376
0.037303794 0.069996692 0.047400687 0.38593423 0.23852047 0.14741376
0.036987219 0.070532165 0.047407739 0.38593423 0.23852047 0.14741376
0.036635496 0.071050957 0.047404811 0.38593423 0.23852047 0.14741376
0.036283612 0.071569987 0.047401942 0.38593423 0.23852047 0.14741376
0.035931569 0.072089247 0.04739913 0.38593423 0.23852047 0.14741376
0.035517577 0.072579488 0.047378741 0.38593423 0.23852047 0.14741376
0.035101507 0.073069304 0.047357894 0.38593423 0.23852047 0.14741376
0.034685086 0.07355953 0.047337092 0.38593423 0.23852047 0.14741376
0.034227416 0.07403104 0.04730469 0.38593423 0.23852047 0.14741376
0.033742331 0.074490517 0.047264654 0.38593423 0.23852047 0.14741376
0.033256646 0.074950561 0.047224633 0.38593423 0.23852047 0.14741376
0.032743223 0.075398646 0.047176916 0.38593423 0.23852047 0.14741376
0.032181665 0.075825542 0.047115751 0.38593423 0.23852047 0.14741376
0.031619169 0.076253161 0.047054544 0.38593423 0.23852047 0.14741376
0.031030551 0.076670013 0.046986166 0.38593423 0.23852047 0.14741376
0.030381363 0.07706061 0.046900909 0.38593423 0.23852047 0.14741376
0.029730767 0.077452056 0.046815526 0.38593423 0.23852047 0.14741376
0.029034678 0.077824503 0.04671758 0.38593423 0.23852047 0.14741376
0.028281434 0.078172997 0.046603825 0.38593423 0.23852047 0.14741376
0.027526116 0.078522444 0.046489816 0.38593423 0.23852047 0.14741376
0.026666723 0.07882753 0.046346858 0.38593423 0.23852047 0.14741376
0.025784509 0.079124793 0.04619788 0.38593423 0.23852047 0.14741376
0.024819417 0.079387911 0.046026036 0.38593423 0.23852047 0.14741376
0.023773279 0.079618163 0.045831904 0.38593423 0.23852047 0.14741376
0.022617934 0.079803698 0.045607664 0.38593423 0.23852047 0.14741376
0.02134626 0.07994204 0.045351412 0.38593423 0.23852047 0.14741376
0.019868717 0.079995081 0.045038201 0.38593423 0.23852047 0.14741376
0.017959177 0.079866476 0.044605024 0.38593423 0.23852047 0.14741376
0.015261041 0.079405621 0.0439527 0.38593423 0.23852047 0.14741376
0.00072192948 0.073893555 0.039999999 0.38593423 0.23852047 0.14741376
0.00034384453 0.074460633 0.039999999 0.38593423 0.23852047 0.14741376
0.039999999 0.00060287083 0.037721921 0.38593423 0.23852047 0.14741376
0.039999999 0.0014185914 0.037832212 0.38593423 0.23852047 0.14741376
0.039999999 0.0022325327 0.037942324 0.38593423 0.23852047 0.14741376
