# .PCD v0.7 - Point Cloud Data file format
VERSION 0.7
FIELDS x y z vp_x vp_y vp_z
SIZE 4 4 4 4 4 4
TYPE F F F F F F
COUNT 1 1 1 1 1 1
WIDTH 681
HEIGHT 1
VIEWPOINT 0 0 0 1 0 0 0
POINTS 681
DATA ascii
0.039999999 0.075454257 0.010135991 0.38593423 0.23852047 -0.14741376
0.039999999 0.076161362 0.0099876169 0.38593423 0.23852047 -0.14741376
0.039999999 0.076867335 0.0098395655 0.38593423 0.23852047 -0.14741376
0.039999999 0.077572174 0.0096918363 0.38593423 0.23852047 -0.14741376
0.039999999 0.078275889 0.0095444266 0.38593423 0.23852047 -0.14741376
0.039999999 0.078978479 0.0093973363 0.38593423 0.23852047 -0.14741376
0.039999999 0.079679959 0.0092505626 0.38593423 0.23852047 -0.14741376
0.039168019 0.079999998 0.0094805341 0.38593423 0.23852047 -0.14741376
0.037627868 0.079999998 0.01003023 0.38593423 0.23852047 -0.14741376
0.036076423 0.079999998 0.010584041 0.38593423 0.23852047 -0.14741376
0.034513544 0.079999998 0.011142018 0.38593423 0.23852047 -0.14741376
0.032939106 0.079999998 0.011704208 0.38593423 0.23852047 -0.14741376
0.031352963 0.079999998 0.012270663 0.38593423 0.23852047 -0.14741376
0.029754983 0.079999998 0.012841431 0.38593423 0.23852047 -0.14741376
0.028145021 0.079999998 0.013416565 0.38593423 0.23852047 -0.14741376
0.026522936 0.079999998 0.013996117 0.38593423 0.23852047 -0.14741376
0.024888581 0.079999998 0.01458014 0.38593423 0.23852047 -0.14741376
0.023241807 0.079999998 0.015168687 0.38593423 0.23852047 -0.14741376
0.021582466 0.079999998 0.015761813 0.38593423 0.23852047 -0.14741376
0.019910403 0.079999998 0.016359575 0.38593423 0.23852047 -0.14741376
0.018225465 0.079999998 0.016962029 0.38593423 0.23852047 -0.14741376
0.016527491 0.079999998 0.017569233 0.38593423 0.23852047 -0.14741376
0.014816322 0.079999998 0.018181242 0.38593423 0.23852047 -0.14741376
0.013091796 0.079999998 0.018798118 0.38593423 0.23852047 -0.14741376
0.011353747 0.079999998 0.019419923 0.38593423 0.23852047 -0.14741376
0.0096020047 0.079999998 0.020046717 0.38593423 0.23852047 -0.14741376
0.0078363996 0.079999998 0.020678559 0.38593423 0.23852047 -0.14741376
0.0060567562 0.079999998 0.021315517 0.38593423 0.23852047 -0.14741376
0.0042628986 0.079999998 0.021957655 0.38593423 0.23852047 -0.14741376
0.0024546457 0.079999998 0.022605034 0.38593423 0.23852047 -0.14741376
0.00063181506 0.079999998 0.023257727 0.38593423 0.23852047 -0.14741376
0.039999999 0.00033309418 0.025574874 0.38593423 0.23852047 -0.14741376
0.039999999 0.0011861458 0.0253873 0.38593423 0.23852047 -0.14741376
0.039999999 0.0020372539 0.025200246 0.38593423 0.23852047 -0.14741376
0.039999999 0.0028864294 0.025013706 0.38593423 0.23852047 -0.14741376
0.039999999 0.0037336829 0.024827678 0.38593423 0.23852047 -0.14741376
0.039999999 0.0045790253 0.024642162 0.38593423 0.23852047 -0.14741376
0.039999999 0.0054224674 0.024457151 0.38593423 0.23852047 -0.14741376
0.039999999 0.0062640198 0.024272645 0.38593423 0.23852047 -0.14741376
0.039999999 0.0071036923 0.024088642 0.38593423 0.23852047 -0.14741376
0.039999999 0.0079414966 0.023905138 0.38593423 0.23852047 -0.14741376
0.039999999 0.0087774424 0.023722131 0.38593423 0.23852047 -0.14741376
0.039999999 0.0096115405 0.023539618 0.38593423 0.23852047 -0.14741376
0.039999999 0.0104438 0.023357596 0.38593423 0.23852047 -0.14741376
0.039999999 0.011274233 0.023176065 0.38593423 0.23852047 -0.14741376
0.039999999 0.012102848 0.022995019 0.38593423 0.23852047 -0.14741376
0.039999999 0.012929656 0.022814458 0.38593423 0.23852047 -0.14741376
0.039999999 0.013754667 0.022634378 0.38593423 0.23852047 -0.14741376
0.039999999 0.01457789 0.022454778 0.38593423 0.23852047 -0.14741376
0.039999999 0.015399336 0.022275653 0.38593423 0.23852047 -0.14741376
0.039999999 0.016219014 0.022097005 0.38593423 0.23852047 -0.14741376
0.039999999 0.017036935 0.021918826 0.38593423 0.23852047 -0.14741376
0.039999999 0.017853109 0.021741118 0.38593423 0.23852047 -0.14741376
0.039999999 0.018667543 0.021563878 0.38593423 0.23852047 -0.14741376
0.039999999 0.019480251 0.021387102 0.38593423 0.23852047 -0.14741376
0.039999999 0.020291237 0.021210788 0.38593423 0.23852047 -0.14741376
0.039999999 0.021100515 0.021034934 0.38593423 0.23852047 -0.14741376
0.039999999 0.021908091 0.020859538 0.38593423 0.23852047 -0.14741376
0.039999999 0.022713978 0.020684596 0.38593423 0.23852047 -0.14741376
0.039999999 0.023518184 0.020510109 0.38593423 0.23852047 -0.14741376
0.039999999 0.024320716 0.020336073 0.38593423 0.23852047 -0.14741376
0.039999999 0.025121586 0.020162484 0.38593423 0.23852047 -0.14741376
0.039999999 0.025920803 0.019989341 0.38593423 0.23852047 -0.14741376
0.039999999 0.026718374 0.019816644 0.38593423 0.23852047 -0.14741376
0.039999999 0.027514311 0.019644387 0.38593423 0.23852047 -0.14741376
0.039999999 0.028308621 0.019472571 0.38593423 0.23852047 -0.14741376
0.039999999 0.029101312 0.019301191 0.38593423 0.23852047 -0.14741376
0.039999999 0.029892394 0.019130247 0.38593423 0.23852047 -0.14741376
0.039999999 0.030681878 0.018959735 0.38593423 0.23852047 -0.14741376
0.039999999 0.03146977 0.018789655 0.38593423 0.23852047 -0.14741376
0.039999999 0.032256078 0.018620003 0.38593423 0.23852047 -0.14741376
0.039999999 0.033040814 0.018450778 0.38593423 0.23852047 -0.14741376
0.039999999 0.033823986 0.018281976 0.38593423 0.23852047 -0.14741376
0.039999999 0.0346056 0.018113598 0.38593423 0.23852047 -0.14741376
0.039999999 0.035385668 0.01794564 0.38593423 0.23852047 -0.14741376
0.039999999 0.036164194 0.017778099 0.38593423 0.23852047 -0.14741376
0.039999999 0.036941189 0.017610975 0.38593423 0.23852047 -0.14741376
0.039999999 0.037716664 0.017444264 0.38593423 0.23852047 -0.14741376
0.039999999 0.038490623 0.017277965 0.38593423 0.23852047 -0.14741376
0.039999999 0.039263077 0.017112076 0.38593423 0.23852047 -0.14741376
0.039999999 0.04003403 0.016946597 0.38593423 0.23852047 -0.14741376
0.039999999 0.040803496 0.016781522 0.38593423 0.23852047 -0.14741376
0.039999999 0.041571483 0.016616851 0.38593423 0.23852047 -0.14741376
0.039999999 0.042337995 0.016452581 0.38593423 0.23852047 -0.14741376
0.039999999 0.043103039 0.016288713 0.38593423 0.23852047 -0.14741376
0.039999999 0.043866631 0.016125241 0.38593423 0.23852047 -0.14741376
0.039999999 0.044628769 0.015962165 0.38593423 0.23852047 -0.14741376
0.039999999 0.04538947 0.015799483 0.38593423 0.23852047 -0.14741376
0.039999999 0.046148732 0.015637195 0.38593423 0.23852047 -0.14741376
0.039999999 0.046906576 0.015475295 0.38593423 0.23852047 -0.14741376
0.039999999 0.047662996 0.015313785 0.38593423 0.23852047 -0.14741376
0.039999999 0.048418008 0.01515266 0.38593423 0.23852047 -0.14741376
0.039999999 0.049171619 0.01499192 0.38593423 0.23852047 -0.14741376
0.039999999 0.049923833 0.014831563 0.38593423 0.23852047 -0.14741376
0.039999999 0.050674662 0.014671586 0.38593423 0.23852047 -0.14741376
0.039999999 0.051424112 0.014511988 0.38593423 0.23852047 -0.14741376
0.039999999 0.052172191 0.014352769 0.38593423 0.23852047 -0.14741376
0.039999999 0.052918904 0.014193923 0.38593423 0.23852047 -0.14741376
0.039999999 0.05366426 0.014035451 0.38593423 0.23852047 -0.14741376
0.039999999 0.054408267 0.013877351 0.38593423 0.23852047 -0.14741376
0.039999999 0.05515093 0.01371962 0.38593423 0.23852047 -0.14741376
0.039999999 0.055892263 0.013562258 0.38593423 0.23852047 -0.14741376
0.039999999 0.056632262 0.013405262 0.38593423 0.23852047 -0.14741376
0.039999999 0.057370946 0.01324863 0.38593423 0.23852047 -0.14741376
0.039999999 0.058108315 0.01309236 0.38593423 0.23852047 -0.14741376
0.039999999 0.05884438 0.012936452 0.38593423 0.23852047 -0.14741376
0.039999999 0.059579145 0.012780904 0.38593423 0.23852047 -0.14741376
0.039999999 0.060312618 0.012625713 0.38593423 0.23852047 -0.14741376
0.039999999 0.061044808 0.012470877 0.38593423 0.23852047 -0.14741376
0.039999999 0.061775718 0.012316396 0.38593423 0.23852047 -0.14741376
0.039999999 0.062505364 0.012162266 0.38593423 0.23852047 -0.14741376
0.039999999 0.063233741 0.012008488 0.38593423 0.23852047 -0.14741376
0.039999999 0.063960858 0.011855059 0.38593423 0.23852047 -0.14741376
0.039999999 0.064686731 0.011701977 0.38593423 0.23852047 -0.14741376
0.039999999 0.065411359 0.011549241 0.38593423 0.23852047 -0.14741376
0.039999999 0.066134751 0.011396849 0.38593423 0.23852047 -0.14741376
0.039999999 0.066856921 0.011244799 0.38593423 0.23852047 -0.14741376
0.039999999 0.067577861 0.011093089 0.38593423 0.23852047 -0.14741376
0.039999999 0.068297587 0.01094172 0.38593423 0.23852047 -0.14741376
0.039999999 0.069016099 0.010790687 0.38593423 0.23852047 -0.14741376
0.039999999 0.069733419 0.010639991 0.38593423 0.23852047 -0.14741376
0.039999999 0.070449531 0.010489629 0.38593423 0.23852047 -0.14741376
0.039999999 0.071164466 0.010339599 0.38593423 0.23852047 -0.14741376
0.039999999 0.07187821 0.010189901 0.38593423 0.23852047 -0.14741376
0.039999999 0.072590776 0.010040532 0.38593423 0.23852047 -0.14741376
0.039999999 0.07330218 0.0098914914 0.38593423 0.23852047 -0.14741376
0.039999999 0.074012414 0.0097427769 0.38593423 0.23852047 -0.14741376
0.039999999 0.074721493 0.0095943883 0.38593423 0.23852047 -0.14741376
0.039999999 0.075429425 0.009446322 0.38593423 0.23852047 -0.14741376
0.039999999 0.076136209 0.0092985779 0.38593423 0.23852047 -0.14741376
0.039999999 0.076841854 0.0091511542 0.38593423 0.23852047 -0.14741376
0.039999999 0.077546373 0.0090040499 0.38593423 0.23852047 -0.14741376
0.039999999 0.07824976 0.0088572623 0.38593423 0.23852047 -0.14741376
0.039999999 0.078952029 0.0087107904 0.38593423 0.23852047 -0.14741376
0.039999999 0.079653189 0.0085646333 0.38593423 0.23852047 -0.14741376
0.039227407 0.079999998 0.0087668169 0.38593423 0.23852047 -0.14741376
0.03768849 0.079999998 0.0093135461 0.38593423 0.23852047 -0.14741376
0.036138296 0.079999998 0.0098643648 0.38593423 0.23852047 -0.14741376
0.034576684 0.079999998 0.010419322 0.38593423 0.23852047 -0.14741376
0.033003528 0.079999998 0.010978467 0.38593423 0.23852047 -0.14741376
0.031418689 0.079999998 0.011541847 0.38593423 0.23852047 -0.14741376
0.029822029 0.079999998 0.012109514 0.38593423 0.23852047 -0.14741376
0.028213406 0.079999998 0.01268152 0.38593423 0.23852047 -0.14741376
0.026592676 0.079999998 0.013257913 0.38593423 0.23852047 -0.14741376
0.024959696 0.079999998 0.01383875 0.38593423 0.23852047 -0.14741376
0.023314318 0.079999998 0.014424082 0.38593423 0.23852047 -0.14741376
0.02165639 0.079999998 0.015013964 0.38593423 0.23852047 -0.14741376
0.01998576 0.079999998 0.01560845 0.38593423 0.23852047 -0.14741376
0.018302275 0.079999998 0.0162076 0.38593423 0.23852047 -0.14741376
0.016605776 0.079999998 0.016811466 0.38593423 0.23852047 -0.14741376
0.014896101 0.079999998 0.017420109 0.38593423 0.23852047 -0.14741376
0.013173091 0.079999998 0.018033588 0.38593423 0.23852047 -0.14741376
0.01143658 0.079999998 0.01865196 0.38593423 0.23852047 -0.14741376
0.0096863974 0.079999998 0.019275291 0.38593423 0.23852047 -0.14741376
0.0079223737 0.079999998 0.019903639 0.38593423 0.23852047 -0.14741376
0.006144335 0.079999998 0.020537067 0.38593423 0.23852047 -0.14741376
0.0043521049 0.079999998 0.021175642 0.38593423 0.23852047 -0.14741376
0.0025455034 0.079999998 0.021819424 0.38593423 0.23852047 -0.14741376
0.00072434812 0.079999998 0.022468485 0.38593423 0.23852047 -0.14741376
0.039999999 0.00034620013 0.024809318 0.38593423 0.23852047 -0.14741376
0.039999999 0.001198779 0.024622718 0.38593423 0.23852047 -0.14741376
0.039999999 0.0020494163 0.024436632 0.38593423 0.23852047 -0.14741376
0.039999999 0.0028981231 0.024251057 0.38593423 0.23852047 -0.14741376
0.039999999 0.0037449102 0.02406599 0.38593423 0.23852047 -0.14741376
0.039999999 0.0045897886 0.023881428 0.38593423 0.23852047 -0.14741376
0.039999999 0.0054327683 0.023697371 0.38593423 0.23852047 -0.14741376
0.039999999 0.0062738601 0.023513813 0.38593423 0.23852047 -0.14741376
0.039999999 0.0071130749 0.023330752 0.38593423 0.23852047 -0.14741376
0.039999999 0.0079504233 0.023148188 0.38593423 0.23852047 -0.14741376
0.039999999 0.0087859146 0.022966115 0.38593423 0.23852047 -0.14741376
0.039999999 0.0096195601 0.022784533 0.38593423 0.23852047 -0.14741376
0.039999999 0.01045137 0.022603437 0.38593423 0.23852047 -0.14741376
0.039999999 0.011281354 0.022422828 0.38593423 0.23852047 -0.14741376
0.039999999 0.012109524 0.022242701 0.38593423 0.23852047 -0.14741376
0.039999999 0.012935887 0.022063054 0.38593423 0.23852047 -0.14741376
0.039999999 0.013760456 0.021883884 0.38593423 0.23852047 -0.14741376
0.039999999 0.014583239 0.02170519 0.38593423 0.23852047 -0.14741376
0.039999999 0.015404247 0.021526968 0.38593423 0.23852047 -0.14741376
0.039999999 0.016223488 0.021349216 0.38593423 0.23852047 -0.14741376
0.039999999 0.017040975 0.021171933 0.38593423 0.23852047 -0.14741376
0.039999999 0.017856715 0.020995114 0.38593423 0.23852047 -0.14741376
0.039999999 0.018670719 0.020818759 0.38593423 0.23852047 -0.14741376
0.039999999 0.019482996 0.020642865 0.38593423 0.23852047 -0.14741376
0.039999999 0.020293556 0.020467428 0.38593423 0.23852047 -0.14741376
0.039999999 0.021102408 0.02029245 0.38593423 0.23852047 -0.14741376
0.039999999 0.021909561 0.020117924 0.38593423 0.23852047 -0.14741376
0.039999999 0.022715027 0.019943848 0.38593423 0.23852047 -0.14741376
0.039999999 0.02351881 0.019770224 0.38593423 0.23852047 -0.14741376
0.039999999 0.024320925 0.019597044 0.38593423 0.23852047 -0.14741376
0.039999999 0.025121378 0.019424312 0.38593423 0.23852047 -0.14741376
0.039999999 0.025920181 0.019252019 0.38593423 0.23852047 -0.14741376
0.039999999 0.026717339 0.019080168 0.38593423 0.23852047 -0.14741376
0.039999999 0.027512863 0.018908756 0.38593423 0.23852047 -0.14741376
0.039999999 0.028306762 0.018737778 0.38593423 0.23852047 -0.14741376
0.039999999 0.029099045 0.018567234 0.38593423 0.23852047 -0.14741376
0.039999999 0.029889721 0.018397123 0.38593423 0.23852047 -0.14741376
0.039999999 0.030678799 0.018227439 0.38593423 0.23852047 -0.14741376
0.039999999 0.031466287 0.018058183 0.38593423 0.23852047 -0.14741376
0.039999999 0.032252196 0.017889353 0.38593423 0.23852047 -0.14741376
0.039999999 0.03303653 0.017720943 0.38593423 0.23852047 -0.14741376
0.039999999 0.033819303 0.017552957 0.38593423 0.23852047 -0.14741376
0.039999999 0.034600522 0.017385388 0.38593423 0.23852047 -0.14741376
0.039999999 0.035380192 0.017218236 0.38593423 0.23852047 -0.14741376
0.039999999 0.036158327 0.017051497 0.38593423 0.23852047 -0.14741376
0.039999999 0.036934931 0.016885173 0.38593423 0.23852047 -0.14741376
0.039999999 0.037710011 0.016719257 0.38593423 0.23852047 -0.14741376
0.039999999 0.038483582 0.01655375 0.38593423 0.23852047 -0.14741376
0.039999999 0.039255649 0.016388651 0.38593423 0.23852047 -0.14741376
0.039999999 0.040026218 0.016223956 0.38593423 0.23852047 -0.14741376
0.039999999 0.040795296 0.016059661 0.38593423 0.23852047 -0.14741376
0.039999999 0.0415629 0.015895769 0.38593423 0.23852047 -0.14741376
0.039999999 0.042329028 0.015732273 0.38593423 0.23852047 -0.14741376
0.039999999 0.043093696 0.015569176 0.38593423 0.23852047 -0.14741376
0.039999999 0.043856904 0.015406472 0.38593423 0.23852047 -0.14741376
0.039999999 0.044618666 0.015244161 0.38593423 0.23852047 -0.14741376
0.039999999 0.04537899 0.01508224 0.38593423 0.23852047 -0.14741376
0.039999999 0.046137881 0.014920708 0.38593423 0.23852047 -0.14741376
0.039999999 0.046895348 0.014759563 0.38593423 0.23852047 -0.14741376
0.039999999 0.047651399 0.014598803 0.38593423 0.23852047 -0.14741376
0.039999999 0.048406042 0.014438425 0.38593423 0.23852047 -0.14741376
0.039999999 0.049159281 0.014278429 0.38593423 0.23852047 -0.14741376
0.039999999 0.04991113 0.014118812 0.38593423 0.23852047 -0.14741376
0.039999999 0.05066159 0.013959573 0.38593423 0.23852047 -0.14741376
0.039999999 0.051410675 0.01380071 0.38593423 0.23852047 -0.14741376
0.039999999 0.052158389 0.013642219 0.38593423 0.23852047 -0.14741376
0.039999999 0.05290474 0.013484101 0.38593423 0.23852047 -0.14741376
0.039999999 0.053649735 0.013326353 0.38593423 0.23852047 -0.14741376
0.039999999 0.054393381 0.013168974 0.38593423 0.23852047 -0.14741376
0.039999999 0.05513569 0.01301196 0.38593423 0.23852047 -0.14741376
0.039999999 0.055876661 0.012855313 0.38593423 0.23852047 -0.14741376
0.039999999 0.056616306 0.012699028 0.38593423 0.23852047 -0.14741376
0.039999999 0.057354636 0.012543104 0.38593423 0.23852047 -0.14741376
0.039999999 0.058091652 0.012387539 0.38593423 0.23852047 -0.14741376
0.039999999 0.058827363 0.012232332 0.38593423 0.23852047 -0.14741376
0.039999999 0.059561778 0.012077482 0.38593423 0.23852047 -0.14741376
0.039999999 0.0602949 0.011922986 0.38593423 0.23852047 -0.14741376
0.039999999 0.061026741 0.011768843 0.38593423 0.23852047 -0.14741376
0.039999999 0.061757307 0.011615051 0.38593423 0.23852047 -0.14741376
0.039999999 0.0624866 0.011461607 0.38593423 0.23852047 -0.14741376
0.039999999 0.063214637 0.011308512 0.38593423 0.23852047 -0.14741376
0.039999999 0.063941412 0.011155763 0.38593423 0.23852047 -0.14741376
0.039999999 0.064666942 0.011003357 0.38593423 0.23852047 -0.14741376
0.039999999 0.065391228 0.010851295 0.38593423 0.23852047 -0.14741376
0.039999999 0.066114284 0.010699573 0.38593423 0.23852047 -0.14741376
0.039999999 0.066836104 0.01054819 0.38593423 0.23852047 -0.14741376
0.039999999 0.067556709 0.010397146 0.38593423 0.23852047 -0.14741376
0.039999999 0.0682761 0.010246437 0.38593423 0.23852047 -0.14741376
0.039999999 0.068994276 0.010096064 0.38593423 0.23852047 -0.14741376
0.039999999 0.069711253 0.0099460222 0.38593423 0.23852047 -0.14741376
0.039999999 0.070427038 0.009796313 0.38593423 0.23852047 -0.14741376
0.039999999 0.071141638 0.0096469326 0.38593423 0.23852047 -0.14741376
0.039999999 0.071855053 0.0094978819 0.38593423 0.23852047 -0.14741376
0.039999999 0.072567292 0.0093491562 0.38593423 0.23852047 -0.14741376
0.039999999 0.07327836 0.0092007564 0.38593423 0.23852047 -0.14741376
0.039999999 0.073988266 0.0090526799 0.38593423 0.23852047 -0.14741376
0.039999999 0.074697025 0.0089049265 0.38593423 0.23852047 -0.14741376
0.039999999 0.075404622 0.0087574925 0.38593423 0.23852047 -0.14741376
0.039999999 0.076111086 0.0086103771 0.38593423 0.23852047 -0.14741376
0.039999999 0.07681641 0.0084635802 0.38593423 0.23852047 -0.14741376
0.039999999 0.077520601 0.008317099 0.38593423 0.23852047 -0.14741376
0.039999999 0.078223668 0.0081709325 0.38593423 0.23852047 -0.14741376
0.039999999 0.078925617 0.0080250781 0.38593423 0.23852047 -0.14741376
0.039999999 0.079626456 0.0078795366 0.38593423 0.23852047 -0.14741376
0.039286707 0.079999998 0.0080542089 0.38593423 0.23852047 -0.14741376
0.037749019 0.079999998 0.0085979793 0.38593423 0.23852047 -0.14741376
0.036200069 0.079999998 0.009145814 0.38593423 0.23852047 -0.14741376
0.034639727 0.079999998 0.0096977605 0.38593423 0.23852047 -0.14741376
0.033067852 0.079999998 0.010253866 0.38593423 0.23852047 -0.14741376
0.031484313 0.079999998 0.010814182 0.38593423 0.23852047 -0.14741376
0.029888969 0.079999998 0.011378757 0.38593423 0.23852047 -0.14741376
0.028281681 0.079999998 0.011947641 0.38593423 0.23852047 -0.14741376
0.026662307 0.079999998 0.012520886 0.38593423 0.23852047 -0.14741376
0.025030699 0.079999998 0.013098545 0.38593423 0.23852047 -0.14741376
0.023386711 0.079999998 0.01368067 0.38593423 0.23852047 -0.14741376
0.021730194 0.079999998 0.014267317 0.38593423 0.23852047 -0.14741376
0.020060996 0.079999998 0.014858538 0.38593423 0.23852047 -0.14741376
0.01837896 0.079999998 0.015454391 0.38593423 0.23852047 -0.14741376
0.016683932 0.079999998 0.01605493 0.38593423 0.23852047 -0.14741376
0.014975751 0.079999998 0.016660217 0.38593423 0.23852047 -0.14741376
0.013254254 0.079999998 0.017270306 0.38593423 0.23852047 -0.14741376
0.011519277 0.079999998 0.017885258 0.38593423 0.23852047 -0.14741376
0.0097706504 0.079999998 0.018505136 0.38593423 0.23852047 -0.14741376
0.0080082053 0.079999998 0.019129997 0.38593423 0.23852047 -0.14741376
0.0062317685 0.079999998 0.019759908 0.38593423 0.23852047 -0.14741376
0.004441163 0.079999998 0.020394929 0.38593423 0.23852047 -0.14741376
0.0026362098 0.079999998 0.021035125 0.38593423 0.23852047 -0.14741376
0.00081672624 0.079999998 0.021680564 0.38593423 0.23852047 -0.14741376
0.039999999 0.00035928891 0.024044761 0.38593423 0.23852047 -0.14741376
0.039999999 0.0012113955 0.023859134 0.38593423 0.23852047 -0.14741376
0.039999999 0.0020615628 0.023674015 0.38593423 0.23852047 -0.14741376
0.039999999 0.0029098017 0.023489403 0.38593423 0.23852047 -0.14741376
0.039999999 0.0037561231 0.023305293 0.38593423 0.23852047 -0.14741376
0.039999999 0.0046005375 0.023121687 0.38593423 0.23852047 -0.14741376
0.039999999 0.0054430556 0.022938577 0.38593423 0.23852047 -0.14741376
0.039999999 0.0062836879 0.022755966 0.38593423 0.23852047 -0.14741376
0.039999999 0.0071224454 0.022573847 0.38593423 0.23852047 -0.14741376
0.039999999 0.0079593379 0.022392219 0.38593423 0.23852047 -0.14741376
0.039999999 0.0087943757 0.022211079 0.38593423 0.23852047 -0.14741376
0.039999999 0.0096275704 0.022030426 0.38593423 0.23852047 -0.14741376
0.039999999 0.01045893 0.021850256 0.38593423 0.23852047 -0.14741376
0.039999999 0.011288468 0.021670565 0.38593423 0.23852047 -0.14741376
0.039999999 0.012116191 0.021491354 0.38593423 0.23852047 -0.14741376
0.039999999 0.012942111 0.02131262 0.38593423 0.23852047 -0.14741376
0.039999999 0.013766238 0.021134358 0.38593423 0.23852047 -0.14741376
0.039999999 0.014588581 0.020956567 0.38593423 0.23852047 -0.14741376
0.039999999 0.015409151 0.020779245 0.38593423 0.23852047 -0.14741376
0.039999999 0.016227957 0.02060239 0.38593423 0.23852047 -0.14741376
0.039999999 0.01704501 0.020425998 0.38593423 0.23852047 -0.14741376
0.039999999 0.017860318 0.020250067 0.38593423 0.23852047 -0.14741376
0.039999999 0.018673891 0.020074597 0.38593423 0.23852047 -0.14741376
0.039999999 0.019485738 0.019899582 0.38593423 0.23852047 -0.14741376
0.039999999 0.020295871 0.019725023 0.38593423 0.23852047 -0.14741376
0.039999999 0.021104299 0.019550914 0.38593423 0.23852047 -0.14741376
0.039999999 0.021911029 0.019377256 0.38593423 0.23852047 -0.14741376
0.039999999 0.022716071 0.019204047 0.38593423 0.23852047 -0.14741376
0.039999999 0.023519438 0.019031281 0.38593423 0.23852047 -0.14741376
0.039999999 0.024321133 0.01885896 0.38593423 0.23852047 -0.14741376
0.039999999 0.025121171 0.018687079 0.38593423 0.23852047 -0.14741376
0.039999999 0.025919557 0.018515635 0.38593423 0.23852047 -0.14741376
0.039999999 0.026716303 0.01834463 0.38593423 0.23852047 -0.14741376
0.039999999 0.027511416 0.018174058 0.38593423 0.23852047 -0.14741376
0.039999999 0.028304907 0.018003918 0.38593423 0.23852047 -0.14741376
0.039999999 0.029096782 0.017834209 0.38593423 0.23852047 -0.14741376
0.039999999 0.029887052 0.017664926 0.38593423 0.23852047 -0.14741376
0.039999999 0.030675726 0.01749607 0.38593423 0.23852047 -0.14741376
0.039999999 0.031462811 0.017327636 0.38593423 0.23852047 -0.14741376
0.039999999 0.032248318 0.017159624 0.38593423 0.23852047 -0.14741376
0.039999999 0.033032253 0.016992033 0.38593423 0.23852047 -0.14741376
0.039999999 0.033814628 0.016824856 0.38593423 0.23852047 -0.14741376
0.039999999 0.034595449 0.016658096 0.38593423 0.23852047 -0.14741376
0.039999999 0.035374723 0.016491748 0.38593423 0.23852047 -0.14741376
0.039999999 0.036152463 0.016325811 0.38593423 0.23852047 -0.14741376
0.039999999 0.036928676 0.016160283 0.38593423 0.23852047 -0.14741376
0.039999999 0.037703369 0.015995162 0.38593423 0.23852047 -0.14741376
0.039999999 0.038476549 0.015830446 0.38593423 0.23852047 -0.14741376
0.039999999 0.039248228 0.015666133 0.38593423 0.23852047 -0.14741376
0.039999999 0.040018413 0.01550222 0.38593423 0.23852047 -0.14741376
0.039999999 0.040787108 0.015338707 0.38593423 0.23852047 -0.14741376
0.039999999 0.041554328 0.015175589 0.38593423 0.23852047 -0.14741376
0.039999999 0.042320076 0.015012868 0.38593423 0.23852047 -0.14741376
0.039999999 0.043084361 0.014850539 0.38593423 0.23852047 -0.14741376
0.039999999 0.043847192 0.014688601 0.38593423 0.23852047 -0.14741376
0.039999999 0.044608578 0.014527052 0.38593423 0.23852047 -0.14741376
0.039999999 0.045368526 0.01436589 0.38593423 0.23852047 -0.14741376
0.039999999 0.046127044 0.014205114 0.38593423 0.23852047 -0.14741376
0.039999999 0.046884138 0.014044722 0.38593423 0.23852047 -0.14741376
0.039999999 0.047639817 0.01388471 0.38593423 0.23852047 -0.14741376
0.039999999 0.048394088 0.013725079 0.38593423 0.23852047 -0.14741376
0.039999999 0.049146958 0.013565824 0.38593423 0.23852047 -0.14741376
0.039999999 0.049898438 0.013406946 0.38593423 0.23852047 -0.14741376
0.039999999 0.050648537 0.013248443 0.38593423 0.23852047 -0.14741376
0.039999999 0.051397257 0.013090312 0.38593423 0.23852047 -0.14741376
0.039999999 0.052144606 0.01293255 0.38593423 0.23852047 -0.14741376
0.039999999 0.052890595 0.012775158 0.38593423 0.23852047 -0.14741376
0.039999999 0.053635228 0.012618133 0.38593423 0.23852047 -0.14741376
0.039999999 0.054378517 0.012461472 0.38593423 0.23852047 -0.14741376
0.039999999 0.055120464 0.012305175 0.38593423 0.23852047 -0.14741376
0.039999999 0.055861082 0.01214924 0.38593423 0.23852047 -0.14741376
0.039999999 0.05660037 0.011993664 0.38593423 0.23852047 -0.14741376
0.039999999 0.057338346 0.011838447 0.38593423 0.23852047 -0.14741376
0.039999999 0.058075007 0.011683586 0.38593423 0.23852047 -0.14741376
0.039999999 0.058810368 0.01152908 0.38593423 0.23852047 -0.14741376
0.039999999 0.059544429 0.011374926 0.38593423 0.23852047 -0.14741376
0.039999999 0.060277205 0.011221124 0.38593423 0.23852047 -0.14741376
0.039999999 0.061008696 0.011067672 0.38593423 0.23852047 -0.14741376
0.039999999 0.061738916 0.010914566 0.38593423 0.23852047 -0.14741376
0.039999999 0.062467866 0.010761808 0.38593423 0.23852047 -0.14741376
0.039999999 0.063195549 0.010609394 0.38593423 0.23852047 -0.14741376
0.039999999 0.063921988 0.010457322 0.38593423 0.23852047 -0.14741376
0.039999999 0.064647175 0.010305592 0.38593423 0.23852047 -0.14741376
0.039999999 0.065371118 0.010154202 0.38593423 0.23852047 -0.14741376
0.039999999 0.066093832 0.01000315 0.38593423 0.23852047 -0.14741376
0.039999999 0.066815317 0.0098524336 0.38593423 0.23852047 -0.14741376
0.039999999 0.067535579 0.009702052 0.38593423 0.23852047 -0.14741376
0.039999999 0.068254635 0.0095520038 0.38593423 0.23852047 -0.14741376
0.039999999 0.068972483 0.0094022863 0.38593423 0.23852047 -0.14741376
0.039999999 0.069689125 0.0092529003 0.38593423 0.23852047 -0.14741376
0.039999999 0.070404574 0.0091038411 0.38593423 0.23852047 -0.14741376
0.039999999 0.071118839 0.0089551099 0.38593423 0.23852047 -0.14741376
0.039999999 0.071831919 0.0088067036 0.38593423 0.23852047 -0.14741376
0.039999999 0.07254383 0.0086586205 0.38593423 0.23852047 -0.14741376
0.039999999 0.07325457 0.0085108606 0.38593423 0.23852047 -0.14741376
0.039999999 0.073964156 0.0083634211 0.38593423 0.23852047 -0.14741376
0.039999999 0.07467258 0.0082163 0.38593423 0.23852047 -0.14741376
0.039999999 0.075379856 0.0080694975 0.38593423 0.23852047 -0.14741376
0.039999999 0.076085992 0.0079230107 0.38593423 0.23852047 -0.14741376
0.039999999 0.076790988 0.0077768383 0.38593423 0.23852047 -0.14741376
0.039999999 0.07749486 0.0076309792 0.38593423 0.23852047 -0.14741376
0.039999999 0.078197606 0.0074854316 0.38593423 0.23852047 -0.14741376
0.039999999 0.078899235 0.0073401942 0.38593423 0.23852047 -0.14741376
0.039999999 0.079599746 0.0071952655 0.38593423 0.23852047 -0.14741376
0.039345913 0.079999998 0.0073427036 0.38593423 0.23852047 -0.14741376
0.037809454 0.079999998 0.0078835236 0.38593423 0.23852047 -0.14741376
0.036261752 0.079999998 0.0084283818 0.38593423 0.23852047 -0.14741376
0.03470267 0.079999998 0.0089773247 0.38593423 0.23852047 -0.14741376
0.033132076 0.079999998 0.0095304018 0.38593423 0.23852047 -0.14741376
0.031549834 0.079999998 0.010087661 0.38593423 0.23852047 -0.14741376
0.029955804 0.079999998 0.010649151 0.38593423 0.23852047 -0.14741376
0.028349848 0.079999998 0.011214923 0.38593423 0.23852047 -0.14741376
0.026731825 0.079999998 0.011785029 0.38593423 0.23852047 -0.14741376
0.025101587 0.079999998 0.012359519 0.38593423 0.23852047 -0.14741376
0.023458989 0.079999998 0.012938447 0.38593423 0.23852047 -0.14741376
0.02180388 0.079999998 0.013521866 0.38593423 0.23852047 -0.14741376
0.02013611 0.079999998 0.014109831 0.38593423 0.23852047 -0.14741376
0.018455524 0.079999998 0.014702397 0.38593423 0.23852047 -0.14741376
0.016761964 0.079999998 0.01529962 0.38593423 0.23852047 -0.14741376
0.015055271 0.079999998 0.015901558 0.38593423 0.23852047 -0.14741376
0.013335284 0.079999998 0.016508268 0.38593423 0.23852047 -0.14741376
0.011601838 0.079999998 0.01711981 0.38593423 0.23852047 -0.14741376
0.0098547656 0.079999998 0.017736243 0.38593423 0.23852047 -0.14741376
0.0080938963 0.079999998 0.018357631 0.38593423 0.23852047 -0.14741376
0.0063190581 0.079999998 0.018984031 0.38593423 0.23852047 -0.14741376
0.0045300736 0.079999998 0.01961551 0.38593423 0.23852047 -0.14741376
0.0027267651 0.079999998 0.020252131 0.38593423 0.23852047 -0.14741376
0.00090895023 0.079999998 0.020893957 0.38593423 0.23852047 -0.14741376
0.039999999 0.00037236066 0.023281202 0.38593423 0.23852047 -0.14741376
0.039999999 0.0012239957 0.023096543 0.38593423 0.23852047 -0.14741376
0.039999999 0.0020736936 0.022912389 0.38593423 0.23852047 -0.14741376
0.039999999 0.0029214653 0.022728737 0.38593423 0.23852047 -0.14741376
0.039999999 0.0037673214 0.022545585 0.38593423 0.23852047 -0.14741376
0.039999999 0.0046112724 0.022362931 0.38593423 0.23852047 -0.14741376
0.039999999 0.0054533295 0.02218077 0.38593423 0.23852047 -0.14741376
0.039999999 0.0062935031 0.0219991 0.38593423 0.23852047 -0.14741376
0.039999999 0.0071318033 0.021817921 0.38593423 0.23852047 -0.14741376
0.039999999 0.0079682413 0.021637227 0.38593423 0.23852047 -0.14741376
0.039999999 0.0088028265 0.021457018 0.38593423 0.23852047 -0.14741376
0.039999999 0.0096355695 0.021277292 0.38593423 0.23852047 -0.14741376
0.039999999 0.010466482 0.021098044 0.38593423 0.23852047 -0.14741376
0.039999999 0.011295571 0.020919273 0.38593423 0.23852047 -0.14741376
0.039999999 0.01212285 0.020740975 0.38593423 0.23852047 -0.14741376
0.039999999 0.012948327 0.02056315 0.38593423 0.23852047 -0.14741376
0.039999999 0.013772013 0.020385794 0.38593423 0.23852047 -0.14741376
0.039999999 0.014593916 0.020208905 0.38593423 0.23852047 -0.14741376
0.039999999 0.015414049 0.02003248 0.38593423 0.23852047 -0.14741376
0.039999999 0.01623242 0.01985652 0.38593423 0.23852047 -0.14741376
0.039999999 0.017049039 0.019681018 0.38593423 0.23852047 -0.14741376
0.039999999 0.017863914 0.019505974 0.38593423 0.23852047 -0.14741376
0.039999999 0.018677058 0.019331384 0.38593423 0.23852047 -0.14741376
0.039999999 0.019488478 0.019157248 0.38593423 0.23852047 -0.14741376
0.039999999 0.020298185 0.018983562 0.38593423 0.23852047 -0.14741376
0.039999999 0.021106187 0.018810324 0.38593423 0.23852047 -0.14741376
0.039999999 0.021912495 0.018637532 0.38593423 0.23852047 -0.14741376
0.039999999 0.022717116 0.018465184 0.38593423 0.23852047 -0.14741376
0.039999999 0.023520064 0.018293278 0.38593423 0.23852047 -0.14741376
0.039999999 0.024321342 0.018121811 0.38593423 0.23852047 -0.14741376
0.039999999 0.025120962 0.017950781 0.38593423 0.23852047 -0.14741376
0.039999999 0.025918936 0.017780185 0.38593423 0.23852047 -0.14741376
0.039999999 0.026715269 0.017610023 0.38593423 0.23852047 -0.14741376
0.039999999 0.027509971 0.017440291 0.38593423 0.23852047 -0.14741376
0.039999999 0.028303053 0.017270986 0.38593423 0.23852047 -0.14741376
0.039999999 0.029094521 0.017102109 0.38593423 0.23852047 -0.14741376
0.039999999 0.029884385 0.016933655 0.38593423 0.23852047 -0.14741376
0.039999999 0.030672655 0.016765622 0.38593423 0.23852047 -0.14741376
0.039999999 0.031459339 0.01659801 0.38593423 0.23852047 -0.14741376
0.039999999 0.032244444 0.016430816 0.38593423 0.23852047 -0.14741376
0.039999999 0.03302798 0.016264036 0.38593423 0.23852047 -0.14741376
0.039999999 0.033809956 0.01609767 0.38593423 0.23852047 -0.14741376
0.039999999 0.034590382 0.015931716 0.38593423 0.23852047 -0.14741376
0.039999999 0.035369262 0.015766172 0.38593423 0.23852047 -0.14741376
0.039999999 0.036146611 0.015601034 0.38593423 0.23852047 -0.14741376
0.039999999 0.036922432 0.015436303 0.38593423 0.23852047 -0.14741376
0.039999999 0.037696734 0.015271974 0.38593423 0.23852047 -0.14741376
0.039999999 0.038469527 0.015108046 0.38593423 0.23852047 -0.14741376
0.039999999 0.039240818 0.014944518 0.38593423 0.23852047 -0.14741376
0.039999999 0.040010616 0.014781387 0.38593423 0.23852047 -0.14741376
0.039999999 0.040778928 0.014618651 0.38593423 0.23852047 -0.14741376
0.039999999 0.041545767 0.014456308 0.38593423 0.23852047 -0.14741376
0.039999999 0.042311132 0.014294358 0.38593423 0.23852047 -0.14741376
0.039999999 0.04307504 0.014132797 0.38593423 0.23852047 -0.14741376
0.039999999 0.043837495 0.013971623 0.38593423 0.23852047 -0.14741376
0.039999999 0.044598501 0.013810835 0.38593423 0.23852047 -0.14741376
0.039999999 0.045358073 0.01365043 0.38593423 0.23852047 -0.14741376
0.039999999 0.046116218 0.013490409 0.38593423 0.23852047 -0.14741376
0.039999999 0.04687294 0.013330766 0.38593423 0.23852047 -0.14741376
0.039999999 0.047628246 0.013171502 0.38593423 0.23852047 -0.14741376
0.039999999 0.048382148 0.013012614 0.38593423 0.23852047 -0.14741376
0.039999999 0.049134653 0.012854101 0.38593423 0.23852047 -0.14741376
0.039999999 0.049885765 0.012695961 0.38593423 0.23852047 -0.14741376
0.039999999 0.050635498 0.012538191 0.38593423 0.23852047 -0.14741376
0.039999999 0.051383853 0.01238079 0.38593423 0.23852047 -0.14741376
0.039999999 0.052130841 0.012223757 0.38593423 0.23852047 -0.14741376
0.039999999 0.052876465 0.012067089 0.38593423 0.23852047 -0.14741376
0.039999999 0.053620741 0.011910784 0.38593423 0.23852047 -0.14741376
0.039999999 0.054363668 0.011754842 0.38593423 0.23852047 -0.14741376
0.039999999 0.055105258 0.011599259 0.38593423 0.23852047 -0.14741376
0.039999999 0.055845518 0.011444035 0.38593423 0.23852047 -0.14741376
0.039999999 0.056584455 0.011289168 0.38593423 0.23852047 -0.14741376
0.039999999 0.057322074 0.011134655 0.38593423 0.23852047 -0.14741376
0.039999999 0.058058385 0.010980496 0.38593423 0.23852047 -0.14741376
0.039999999 0.058793392 0.010826688 0.38593423 0.23852047 -0.14741376
0.039999999 0.059527107 0.010673231 0.38593423 0.23852047 -0.14741376
0.039999999 0.060259532 0.01052012 0.38593423 0.23852047 -0.14741376
0.039999999 0.060990676 0.010367357 0.38593423 0.23852047 -0.14741376
0.039999999 0.061720546 0.010214938 0.38593423 0.23852047 -0.14741376
0.039999999 0.06244915 0.010062862 0.38593423 0.23852047 -0.14741376
0.039999999 0.06317649 0.0099111283 0.38593423 0.23852047 -0.14741376
0.039999999 0.063902587 0.0097597344 0.38593423 0.23852047 -0.14741376
0.039999999 0.064627431 0.0096086776 0.38593423 0.23852047 -0.14741376
0.039999999 0.065351032 0.0094579579 0.38593423 0.23852047 -0.14741376
0.039999999 0.06607341 0.0093075735 0.38593423 0.23852047 -0.14741376
0.039999999 0.066794552 0.0091575217 0.38593423 0.23852047 -0.14741376
0.039999999 0.067514487 0.0090078022 0.38593423 0.23852047 -0.14741376
0.039999999 0.068233199 0.0088584125 0.38593423 0.23852047 -0.14741376
0.039999999 0.068950705 0.0087093515 0.38593423 0.23852047 -0.14741376
0.039999999 0.069667019 0.0085606175 0.38593423 0.23852047 -0.14741376
0.039999999 0.070382141 0.0084122093 0.38593423 0.23852047 -0.14741376
0.039999999 0.07109607 0.0082641244 0.38593423 0.23852047 -0.14741376
0.039999999 0.071808822 0.0081163617 0.38593423 0.23852047 -0.14741376
0.039999999 0.072520398 0.0079689203 0.38593423 0.23852047 -0.14741376
0.039999999 0.07323081 0.0078217983 0.38593423 0.23852047 -0.14741376
0.039999999 0.073940068 0.0076749935 0.38593423 0.23852047 -0.14741376
0.039999999 0.074648164 0.0075285053 0.38593423 0.23852047 -0.14741376
0.039999999 0.075355113 0.0073823319 0.38593423 0.23852047 -0.14741376
0.039999999 0.076060928 0.0072364719 0.38593423 0.23852047 -0.14741376
0.039999999 0.076765604 0.0070909234 0.38593423 0.23852047 -0.14741376
0.039999999 0.077469148 0.006945685 0.38593423 0.23852047 -0.14741376
0.039999999 0.078171574 0.0068007554 0.38593423 0.23852047 -0.14741376
0.039999999 0.078872882 0.0066561336 0.38593423 0.23852047 -0.14741376
0.039999999 0.07957308 0.0065118172 0.38593423 0.23852047 -0.14741376
0.039405026 0.079999998 0.0066322954 0.38593423 0.23852047 -0.14741376
0.037869796 0.079999998 0.0071701729 0.38593423 0.23852047 -0.14741376
0.036323335 0.079999998 0.0077120624 0.38593423 0.23852047 -0.14741376
0.034765512 0.079999998 0.0082580112 0.38593423 0.23852047 -0.14741376
0.033196196 0.079999998 0.0088080661 0.38593423 0.23852047 -0.14741376
0.03161525 0.079999998 0.0093622766 0.38593423 0.23852047 -0.14741376
0.030022534 0.079999998 0.0099206911 0.38593423 0.23852047 -0.14741376
0.02841791 0.079999998 0.010483361 0.38593423 0.23852047 -0.14741376
0.026801234 0.079999998 0.011050334 0.38593423 0.23852047 -0.14741376
0.025172364 0.079999998 0.011621665 0.38593423 0.23852047 -0.14741376
0.023531152 0.079999998 0.012197404 0.38593423 0.23852047 -0.14741376
0.021877449 0.079999998 0.012777606 0.38593423 0.23852047 -0.14741376
0.020211104 0.079999998 0.013362323 0.38593423 0.23852047 -0.14741376
0.018531963 0.079999998 0.013951612 0.38593423 0.23852047 -0.14741376
0.016839869 0.079999998 0.014545527 0.38593423 0.23852047 -0.14741376
0.015134662 0.079999998 0.015144126 0.38593423 0.23852047 -0.14741376
0.013416183 0.079999998 0.015747467 0.38593423 0.23852047 -0.14741376
0.011684266 0.079999998 0.016355608 0.38593423 0.23852047 -0.14741376
0.0099387439 0.079999998 0.016968608 0.38593423 0.23852047 -0.14741376
0.0081794476 0.079999998 0.017586529 0.38593423 0.23852047 -0.14741376
0.0064062038 0.079999998 0.018209431 0.38593423 0.23852047 -0.14741376
0.0046188375 0.079999998 0.018837377 0.38593423 0.23852047 -0.14741376
0.0028171705 0.079999998 0.019470433 0.38593423 0.23852047 -0.14741376
0.001001021 0.079999998 0.020108659 0.38593423 0.23852047 -0.14741376
0.039999999 0.00038541548 0.022518633 0.38593423 0.23852047 -0.14741376
0.039999999 0.0012365795 0.022334941 0.38593423 0.23852047 -0.14741376
0.039999999 0.0020858087 0.02215175 0.38593423 0.23852047 -0.14741376
0.039999999 0.0029331136 0.021969056 0.38593423 0.23852047 -0.14741376
0.039999999 0.0037785051 0.021786857 0.38593423 0.23852047 -0.14741376
0.039999999 0.0046219938 0.021605153 0.38593423 0.23852047 -0.14741376
0.039999999 0.0054635904 0.021423938 0.38593423 0.23852047 -0.14741376
0.039999999 0.0063033057 0.021243209 0.38593423 0.23852047 -0.14741376
0.039999999 0.0071411496 0.021062966 0.38593423 0.23852047 -0.14741376
0.039999999 0.0079771327 0.020883206 0.38593423 0.23852047 -0.14741376
0.039999999 0.0088112662 0.020703927 0.38593423 0.23852047 -0.14741376
0.039999999 0.0096435593 0.020525124 0.38593423 0.23852047 -0.14741376
0.039999999 0.010474022 0.020346796 0.38593423 0.23852047 -0.14741376
0.039999999 0.011302666 0.02016894 0.38593423 0.23852047 -0.14741376
0.039999999 0.0121295 0.019991556 0.38593423 0.23852047 -0.14741376
0.039999999 0.012954534 0.019814638 0.38593423 0.23852047 -0.14741376
0.039999999 0.013777779 0.019638186 0.38593423 0.23852047 -0.14741376
0.039999999 0.014599245 0.019462198 0.38593423 0.23852047 -0.14741376
0.039999999 0.01541894 0.01928667 0.38593423 0.23852047 -0.14741376
0.039999999 0.016236877 0.0191116 0.38593423 0.23852047 -0.14741376
0.039999999 0.017053062 0.018936986 0.38593423 0.23852047 -0.14741376
0.039999999 0.017867507 0.018762825 0.38593423 0.23852047 -0.14741376
0.039999999 0.01868022 0.018589117 0.38593423 0.23852047 -0.14741376
0.039999999 0.019491214 0.018415855 0.38593423 0.23852047 -0.14741376
0.039999999 0.020300495 0.018243041 0.38593423 0.23852047 -0.14741376
0.039999999 0.021108072 0.018070672 0.38593423 0.23852047 -0.14741376
0.039999999 0.021913959 0.017898746 0.38593423 0.23852047 -0.14741376
0.039999999 0.022718159 0.017727258 0.38593423 0.23852047 -0.14741376
0.039999999 0.023520688 0.017556207 0.38593423 0.23852047 -0.14741376
0.039999999 0.024321551 0.017385595 0.38593423 0.23852047 -0.14741376
0.039999999 0.025120756 0.017215412 0.38593423 0.23852047 -0.14741376
0.039999999 0.025918314 0.017045662 0.38593423 0.23852047 -0.14741376
0.039999999 0.026714236 0.016876342 0.38593423 0.23852047 -0.14741376
0.039999999 0.027508529 0.016707446 0.38593423 0.23852047 -0.14741376
0.039999999 0.028301202 0.016538978 0.38593423 0.23852047 -0.14741376
0.039999999 0.029092263 0.01637093 0.38593423 0.23852047 -0.14741376
0.039999999 0.029881721 0.016203301 0.38593423 0.23852047 -0.14741376
0.039999999 0.030669589 0.016036093 0.38593423 0.23852047 -0.14741376
0.039999999 0.031455871 0.015869299 0.38593423 0.23852047 -0.14741376
0.039999999 0.032240573 0.01570292 0.38593423 0.23852047 -0.14741376
0.039999999 0.033023715 0.015536954 0.38593423 0.23852047 -0.14741376
0.039999999 0.033805292 0.015371396 0.38593423 0.23852047 -0.14741376
0.039999999 0.034585323 0.015206247 0.38593423 0.23852047 -0.14741376
0.039999999 0.035363808 0.015041503 0.38593423 0.23852047 -0.14741376
0.039999999 0.036140766 0.014877163 0.38593423 0.23852047 -0.14741376
0.039999999 0.036916193 0.014713224 0.38593423 0.23852047 -0.14741376
0.039999999 0.037690107 0.014549686 0.38593423 0.23852047 -0.14741376
0.039999999 0.038462512 0.014386545 0.38593423 0.23852047 -0.14741376
0.039999999 0.039233416 0.0142238 0.38593423 0.23852047 -0.14741376
0.039999999 0.04000283 0.014061449 0.38593423 0.23852047 -0.14741376
0.039999999 0.040770762 0.01389949 0.38593423 0.23852047 -0.14741376
0.039999999 0.041537214 0.013737921 0.38593423 0.23852047 -0.14741376
0.039999999 0.042302202 0.013576739 0.38593423 0.23852047 -0.14741376
0.039999999 0.04306573 0.013415944 0.38593423 0.23852047 -0.14741376
0.039999999 0.043827806 0.013255533 0.38593423 0.23852047 -0.14741376
0.039999999 0.044588439 0.013095504 0.38593423 0.23852047 -0.14741376
0.039999999 0.045347635 0.012935855 0.38593423 0.23852047 -0.14741376
0.039999999 0.046105403 0.012776586 0.38593423 0.23852047 -0.14741376
0.039999999 0.046861753 0.012617692 0.38593423 0.23852047 -0.14741376
0.039999999 0.04761669 0.012459175 0.38593423 0.23852047 -0.14741376
0.039999999 0.048370223 0.012301029 0.38593423 0.23852047 -0.14741376
0.039999999 0.04912236 0.012143255 0.38593423 0.23852047 -0.14741376
0.039999999 0.04987311 0.01198585 0.38593423 0.23852047 -0.14741376
0.039999999 0.050622474 0.011828813 0.38593423 0.23852047 -0.14741376
0.039999999 0.051370464 0.011672141 0.38593423 0.23852047 -0.14741376
0.039999999 0.052117091 0.011515833 0.38593423 0.23852047 -0.14741376
0.039999999 0.052862357 0.011359888 0.38593423 0.23852047 -0.14741376
0.039999999 0.053606272 0.011204303 0.38593423 0.23852047 -0.14741376
0.039999999 0.054348841 0.011049077 0.38593423 0.23852047 -0.14741376
0.039999999 0.055090073 0.010894207 0.38593423 0.23852047 -0.14741376
0.039999999 0.055829976 0.010739693 0.38593423 0.23852047 -0.14741376
0.039999999 0.056568556 0.010585533 0.38593423 0.23852047 -0.14741376
0.039999999 0.057305824 0.010431724 0.38593423 0.23852047 -0.14741376
0.039999999 0.058041781 0.010278264 0.38593423 0.23852047 -0.14741376
0.039999999 0.058776438 0.010125154 0.38593423 0.23852047 -0.14741376
0.039999999 0.059509803 0.0099723898 0.38593423 0.23852047 -0.14741376
0.039999999 0.060241878 0.0098199705 0.38593423 0.23852047 -0.14741376
0.039999999 0.060972676 0.0096678948 0.38593423 0.23852047 -0.14741376
0.039999999 0.061702199 0.0095161609 0.38593423 0.23852047 -0.14741376
0.039999999 0.06243046 0.009364767 0.38593423 0.23852047 -0.14741376
0.039999999 0.063157462 0.0092137111 0.38593423 0.23852047 -0.14741376
0.039999999 0.063883208 0.0090629924 0.38593423 0.23852047 -0.14741376
0.039999999 0.06460771 0.008912608 0.38593423 0.23852047 -0.14741376
0.039999999 0.065330975 0.008762558 0.38593423 0.23852047 -0.14741376
0.039999999 0.066053011 0.0086128395 0.38593423 0.23852047 -0.14741376
0.039999999 0.066773817 0.0084634516 0.38593423 0.23852047 -0.14741376
0.039999999 0.067493409 0.0083143925 0.38593423 0.23852047 -0.14741376
0.039999999 0.068211786 0.0081656603 0.38593423 0.23852047 -0.14741376
0.039999999 0.068928964 0.0080172541 0.38593423 0.23852047 -0.14741376
0.039999999 0.069644943 0.007869171 0.38593423 0.23852047 -0.14741376
0.039999999 0.070359729 0.0077214111 0.38593423 0.23852047 -0.14741376
0.039999999 0.071073323 0.007573972 0.38593423 0.23852047 -0.14741376
0.039999999 0.071785748 0.0074268524 0.38593423 0.23852047 -0.14741376
0.039999999 0.072496995 0.0072800503 0.38593423 0.23852047 -0.14741376
0.039999999 0.07320708 0.0071335649 0.38593423 0.23852047 -0.14741376
0.039999999 0.073916011 0.0069873943 0.38593423 0.23852047 -0.14741376
0.039999999 0.074623778 0.0068415371 0.38593423 0.23852047 -0.14741376
0.039999999 0.075330406 0.0066959918 0.38593423 0.23852047 -0.14741376
0.039999999 0.076035894 0.0065507567 0.38593423 0.23852047 -0.14741376
0.039999999 0.076740243 0.0064058308 0.38593423 0.23852047 -0.14741376
0.039999999 0.077443466 0.0062612123 0.38593423 0.23852047 -0.14741376
0.039999999 0.078145571 0.0061168997 0.38593423 0.23852047 -0.14741376
0.039999999 0.078846559 0.0059728916 0.38593423 0.23852047 -0.14741376
0.039999999 0.079546437 0.0058291866 0.38593423 0.23852047 -0.14741376
0.039464049 0.079999998 0.0059229783 0.38593423 0.23852047 -0.14741376
0.037930042 0.079999998 0.0064579211 0.38593423 0.23852047 -0.14741376
0.036384825 0.079999998 0.00699685 0.38593423 0.23852047 -0.14741376
0.034828261 0.079999998 0.007539812 0.38593423 0.23852047 -0.14741376
0.033260219 0.079999998 0.0080868546 0.38593423 0.23852047 -0.14741376
0.031680565 0.079999998 0.0086380243 0.38593423 0.23852047 -0.14741376
0.030089159 0.079999998 0.009193372 0.38593423 0.23852047 -0.14741376
0.028485863 0.079999998 0.009752946 0.38593423 0.23852047 -0.14741376
0.026870534 0.079999998 0.010316798 0.38593423 0.23852047 -0.14741376
0.025243029 0.079999998 0.010884977 0.38593423 0.23852047 -0.14741376
0.023603201 0.079999998 0.011457536 0.38593423 0.23852047 -0.14741376
0.021950901 0.079999998 0.012034529 0.38593423 0.23852047 -0.14741376
0.020285979 0.079999998 0.012616009 0.38593423 0.23852047 -0.14741376
0.01860828 0.079999998 0.013202028 0.38593423 0.23852047 -0.14741376
0.016917648 0.079999998 0.013792646 0.38593423 0.23852047 -0.14741376
0.015213926 0.079999998 0.014387916 0.38593423 0.23852047 -0.14741376
0.013496951 0.079999998 0.014987896 0.38593423 0.23852047 -0.14741376
0.011766559 0.079999998 0.015592646 0.38593423 0.23852047 -0.14741376
0.010022585 0.079999998 0.016202223 0.38593423 0.23852047 -0.14741376
0.0082648583 0.079999998 0.016816687 0.38593423 0.23852047 -0.14741376
0.0064932066 0.079999998 0.0174361 0.38593423 0.23852047 -0.14741376
0.0047074556 0.079999998 0.018060524 0.38593423 0.23852047 -0.14741376
0.0029074266 0.079999998 0.018690024 0.38593423 0.23852047 -0.14741376
0.0010929392 0.079999998 0.019324662 0.38593423 0.23852047 -0.14741376
0.039999999 0.00039845341 0.021757049 0.38593423 0.23852047 -0.14741376
0.039999999 0.0012491471 0.021574322 0.38593423 0.23852047 -0.14741376
0.039999999 0.0020979079 0.02139209 0.38593423 0.23852047 -0.14741376
0.039999999 0.002944747 0.021210354 0.38593423 0.23852047 -0.14741376
0.039999999 0.0037896745 0.021029107 0.38593423 0.23852047 -0.14741376
0.039999999 0.0046327012 0.020848349 0.38593423 0.23852047 -0.14741376
0.039999999 0.0054738382 0.020668076 0.38593423 0.23852047 -0.14741376
0.039999999 0.0063130953 0.020488288 0.38593423 0.23852047 -0.14741376
0.039999999 0.0071504838 0.020308981 0.38593423 0.23852047 -0.14741376
0.039999999 0.0079860138 0.02013015 0.38593423 0.23852047 -0.14741376
