# .PCD v0.7 - Point Cloud Data file format
VERSION 0.7
FIELDS x y z vp_x vp_y vp_z
SIZE 4 4 4 4 4 4
TYPE F F F F F F
COUNT 1 1 1 1 1 1
WIDTH 937
HEIGHT 1
VIEWPOINT 0 0 0 1 0 0 0
POINTS 937
DATA ascii
0.039999999 0.068091065 0.024415541 0.47704095 0 0
0.039999999 0.068786584 0.024421481 0.47704095 0 0
0.039999999 0.069482453 0.024427483 0.47704095 0 0
0.039999999 0.070178658 0.024433548 0.47704095 0 0
0.039999999 0.070875213 0.024439672 0.47704095 0 0
0.039999999 0.071572118 0.02444586 0.47704095 0 0
0.039999999 0.072269373 0.024452109 0.47704095 0 0
0.039999999 0.072966993 0.024458421 0.47704095 0 0
0.039999999 0.073664971 0.024464795 0.47704095 0 0
0.039999999 0.074363314 0.024471233 0.47704095 0 0
0.039999999 0.075062029 0.024477731 0.47704095 0 0
0.039999999 0.075761117 0.024484294 0.47704095 0 0
0.039999999 0.076460578 0.024490917 0.47704095 0 0
0.039999999 0.077160425 0.024497604 0.47704095 0 0
0.039999999 0.077860653 0.024504354 0.47704095 0 0
0.039999999 0.078561269 0.024511168 0.47704095 0 0
0.039999999 0.079262272 0.024518043 0.47704095 0 0
0.039999999 0.079963677 0.024524981 0.47704095 0 0
0.039999999 0.00033943731 0.023443624 0.47704095 0 0
0.039999999 0.0010183136 0.02344368 0.47704095 0 0
0.039999999 0.0016971948 0.023443794 0.47704095 0 0
0.039999999 0.0023760842 0.023443963 0.47704095 0 0
0.039999999 0.0030549851 0.023444191 0.47704095 0 0
0.039999999 0.0037339006 0.023444472 0.47704095 0 0
0.039999999 0.0044128341 0.023444813 0.47704095 0 0
0.039999999 0.0050917892 0.023445208 0.47704095 0 0
0.039999999 0.0057707685 0.02344566 0.47704095 0 0
0.039999999 0.0064497758 0.023446171 0.47704095 0 0
0.039999999 0.0071288142 0.023446735 0.47704095 0 0
0.039999999 0.0078078872 0.023447357 0.47704095 0 0
0.039999999 0.0084869973 0.023448037 0.47704095 0 0
0.039999999 0.0091661494 0.023448773 0.47704095 0 0
0.039999999 0.0098453453 0.023449564 0.47704095 0 0
0.039999999 0.010524589 0.023450414 0.47704095 0 0
0.039999999 0.011203882 0.023451319 0.47704095 0 0
0.039999999 0.011883231 0.023452282 0.47704095 0 0
0.039999999 0.012562636 0.023453301 0.47704095 0 0
0.039999999 0.013242103 0.023454376 0.47704095 0 0
0.039999999 0.013921633 0.023455508 0.47704095 0 0
0.039999999 0.014601231 0.023456696 0.47704095 0 0
0.039999999 0.015280899 0.023457943 0.47704095 0 0
0.039999999 0.015960641 0.023459245 0.47704095 0 0
0.039999999 0.01664046 0.023460604 0.47704095 0 0
0.039999999 0.017320359 0.02346202 0.47704095 0 0
0.039999999 0.018000342 0.023463493 0.47704095 0 0
0.039999999 0.018680412 0.023465022 0.47704095 0 0
0.039999999 0.019360572 0.023466609 0.47704095 0 0
0.039999999 0.020040827 0.023468252 0.47704095 0 0
0.039999999 0.020721179 0.023469953 0.47704095 0 0
0.039999999 0.021401629 0.023471709 0.47704095 0 0
0.039999999 0.022082184 0.023473524 0.47704095 0 0
0.039999999 0.022762846 0.023475394 0.47704095 0 0
0.039999999 0.023443617 0.023477321 0.47704095 0 0
0.039999999 0.024124503 0.023479307 0.47704095 0 0
0.039999999 0.024805505 0.023481349 0.47704095 0 0
0.039999999 0.025486626 0.023483446 0.47704095 0 0
0.039999999 0.026167871 0.023485603 0.47704095 0 0
0.039999999 0.026849244 0.023487816 0.47704095 0 0
0.039999999 0.027530747 0.023490086 0.47704095 0 0
0.039999999 0.028212382 0.023492413 0.47704095 0 0
0.039999999 0.028894154 0.023494797 0.47704095 0 0
0.039999999 0.029576067 0.023497239 0.47704095 0 0
0.039999999 0.030258123 0.023499737 0.47704095 0 0
0.039999999 0.030940324 0.023502292 0.47704095 0 0
0.039999999 0.031622678 0.023504905 0.47704095 0 0
0.039999999 0.032305185 0.023507576 0.47704095 0 0
0.039999999 0.032987844 0.023510303 0.47704095 0 0
0.039999999 0.033670668 0.02351309 0.47704095 0 0
0.039999999 0.034353655 0.023515932 0.47704095 0 0
0.039999999 0.03503681 0.023518832 0.47704095 0 0
0.039999999 0.035720132 0.02352179 0.47704095 0 0
0.039999999 0.03640363 0.023524804 0.47704095 0 0
0.039999999 0.037087303 0.023527877 0.47704095 0 0
0.039999999 0.037771154 0.023531007 0.47704095 0 0
0.039999999 0.038455192 0.023534195 0.47704095 0 0
0.039999999 0.039139416 0.02353744 0.47704095 0 0
0.039999999 0.039823834 0.023540743 0.47704095 0 0
0.039999999 0.040508442 0.023544105 0.47704095 0 0
0.039999999 0.041193247 0.023547523 0.47704095 0 0
0.039999999 0.041878253 0.023551 0.47704095 0 0
0.039999999 0.042563464 0.023554534 0.47704095 0 0
0.039999999 0.043248881 0.023558127 0.47704095 0 0
0.039999999 0.043934509 0.023561778 0.47704095 0 0
0.039999999 0.044620354 0.023565484 0.47704095 0 0
0.039999999 0.045306414 0.02356925 0.47704095 0 0
0.039999999 0.045992695 0.023573076 0.47704095 0 0
0.039999999 0.046679199 0.023576958 0.47704095 0 0
0.039999999 0.047365934 0.023580899 0.47704095 0 0
0.039999999 0.0480529 0.023584899 0.47704095 0 0
0.039999999 0.048740096 0.023588955 0.47704095 0 0
0.039999999 0.049427535 0.02359307 0.47704095 0 0
0.039999999 0.050115213 0.023597244 0.47704095 0 0
0.039999999 0.05080314 0.023601476 0.47704095 0 0
0.039999999 0.051491313 0.023605768 0.47704095 0 0
0.039999999 0.052179735 0.023610117 0.47704095 0 0
0.039999999 0.052868415 0.023614526 0.47704095 0 0
0.039999999 0.053557355 0.023618992 0.47704095 0 0
0.039999999 0.054246556 0.023623517 0.47704095 0 0
0.039999999 0.054936022 0.023628101 0.47704095 0 0
0.039999999 0.055625759 0.023632744 0.47704095 0 0
0.039999999 0.056315769 0.023637446 0.47704095 0 0
0.039999999 0.057006054 0.023642207 0.47704095 0 0
0.039999999 0.057696618 0.023647027 0.47704095 0 0
0.039999999 0.058387466 0.023651905 0.47704095 0 0
0.039999999 0.0590786 0.023656843 0.47704095 0 0
0.039999999 0.059770029 0.023661841 0.47704095 0 0
0.039999999 0.060461748 0.023666896 0.47704095 0 0
0.039999999 0.061153762 0.023672013 0.47704095 0 0
0.039999999 0.061846081 0.023677187 0.47704095 0 0
0.039999999 0.062538706 0.023682421 0.47704095 0 0
0.039999999 0.063231632 0.023687715 0.47704095 0 0
0.039999999 0.063924871 0.023693068 0.47704095 0 0
0.039999999 0.064618431 0.023698481 0.47704095 0 0
0.039999999 0.065312304 0.023703953 0.47704095 0 0
0.039999999 0.066006504 0.023709487 0.47704095 0 0
0.039999999 0.066701025 0.023715079 0.47704095 0 0
0.039999999 0.067395881 0.02372073 0.47704095 0 0
0.039999999 0.068091065 0.023726443 0.47704095 0 0
0.039999999 0.068786584 0.023732215 0.47704095 0 0
0.039999999 0.069482453 0.023738047 0.47704095 0 0
0.039999999 0.070178658 0.023743939 0.47704095 0 0
0.039999999 0.070875213 0.023749892 0.47704095 0 0
0.039999999 0.071572118 0.023755904 0.47704095 0 0
0.039999999 0.072269373 0.023761978 0.47704095 0 0
0.039999999 0.072966993 0.023768112 0.47704095 0 0
0.039999999 0.073664971 0.023774307 0.47704095 0 0
0.039999999 0.074363314 0.023780562 0.47704095 0 0
0.039999999 0.075062029 0.023786876 0.47704095 0 0
0.039999999 0.075761117 0.023793254 0.47704095 0 0
0.039999999 0.076460578 0.023799691 0.47704095 0 0
0.039999999 0.077160425 0.023806188 0.47704095 0 0
0.039999999 0.077860653 0.023812748 0.47704095 0 0
0.039999999 0.078561269 0.023819368 0.47704095 0 0
0.039999999 0.079262272 0.02382605 0.47704095 0 0
0.039999999 0.079963677 0.023832792 0.47704095 0 0
0.039999999 0.00033943731 0.022762852 0.47704095 0 0
0.039999999 0.0010183136 0.022762908 0.47704095 0 0
0.039999999 0.0016971948 0.022763018 0.47704095 0 0
0.039999999 0.0023760842 0.022763181 0.47704095 0 0
0.039999999 0.0030549851 0.022763401 0.47704095 0 0
0.039999999 0.0037339006 0.022763677 0.47704095 0 0
0.039999999 0.0044128341 0.022764005 0.47704095 0 0
0.039999999 0.0050917892 0.02276439 0.47704095 0 0
0.039999999 0.0057707685 0.02276483 0.47704095 0 0
0.039999999 0.0064497758 0.022765324 0.47704095 0 0
0.039999999 0.0071288142 0.022765873 0.47704095 0 0
0.039999999 0.0078078872 0.022766478 0.47704095 0 0
0.039999999 0.0084869973 0.022767138 0.47704095 0 0
0.039999999 0.0091661494 0.022767851 0.47704095 0 0
0.039999999 0.0098453453 0.02276862 0.47704095 0 0
0.039999999 0.010524589 0.022769446 0.47704095 0 0
0.039999999 0.011203882 0.022770325 0.47704095 0 0
0.039999999 0.011883231 0.022771258 0.47704095 0 0
0.039999999 0.012562636 0.022772247 0.47704095 0 0
0.039999999 0.013242103 0.022773292 0.47704095 0 0
0.039999999 0.013921633 0.022774391 0.47704095 0 0
0.039999999 0.014601231 0.022775546 0.47704095 0 0
0.039999999 0.015280899 0.022776755 0.47704095 0 0
0.039999999 0.015960641 0.022778019 0.47704095 0 0
0.039999999 0.01664046 0.02277934 0.47704095 0 0
0.039999999 0.017320359 0.022780715 0.47704095 0 0
0.039999999 0.018000342 0.022782143 0.47704095 0 0
0.039999999 0.018680412 0.02278363 0.47704095 0 0
0.039999999 0.019360572 0.02278517 0.47704095 0 0
0.039999999 0.020040827 0.022786764 0.47704095 0 0
0.039999999 0.020721179 0.022788417 0.47704095 0 0
0.039999999 0.021401629 0.022790121 0.47704095 0 0
0.039999999 0.022082184 0.022791883 0.47704095 0 0
0.039999999 0.022762846 0.022793699 0.47704095 0 0
0.039999999 0.023443617 0.022795571 0.47704095 0 0
0.039999999 0.024124503 0.022797499 0.47704095 0 0
0.039999999 0.024805505 0.022799481 0.47704095 0 0
0.039999999 0.025486626 0.022801518 0.47704095 0 0
0.039999999 0.026167871 0.022803612 0.47704095 0 0
0.039999999 0.026849244 0.02280576 0.47704095 0 0
0.039999999 0.027530747 0.022807965 0.47704095 0 0
0.039999999 0.028212382 0.022810224 0.47704095 0 0
0.039999999 0.028894154 0.022812538 0.47704095 0 0
0.039999999 0.029576067 0.022814909 0.47704095 0 0
0.039999999 0.030258123 0.022817336 0.47704095 0 0
0.039999999 0.030940324 0.022819817 0.47704095 0 0
0.039999999 0.031622678 0.022822354 0.47704095 0 0
0.039999999 0.032305185 0.022824947 0.47704095 0 0
0.039999999 0.032987844 0.022827595 0.47704095 0 0
0.039999999 0.033670668 0.0228303 0.47704095 0 0
0.039999999 0.034353655 0.02283306 0.47704095 0 0
0.039999999 0.03503681 0.022835877 0.47704095 0 0
0.039999999 0.035720132 0.022838747 0.47704095 0 0
0.039999999 0.03640363 0.022841675 0.47704095 0 0
0.039999999 0.037087303 0.022844659 0.47704095 0 0
0.039999999 0.037771154 0.022847697 0.47704095 0 0
0.039999999 0.038455192 0.022850793 0.47704095 0 0
0.039999999 0.039139416 0.022853944 0.47704095 0 0
0.039999999 0.039823834 0.022857152 0.47704095 0 0
0.039999999 0.040508442 0.022860415 0.47704095 0 0
0.039999999 0.041193247 0.022863735 0.47704095 0 0
0.039999999 0.041878253 0.02286711 0.47704095 0 0
0.039999999 0.042563464 0.022870541 0.47704095 0 0
0.039999999 0.043248881 0.022874029 0.47704095 0 0
0.039999999 0.043934509 0.022877574 0.47704095 0 0
0.039999999 0.044620354 0.022881174 0.47704095 0 0
0.039999999 0.045306414 0.022884831 0.47704095 0 0
0.039999999 0.045992695 0.022888545 0.47704095 0 0
0.039999999 0.046679199 0.022892315 0.47704095 0 0
0.039999999 0.047365934 0.022896141 0.47704095 0 0
0.039999999 0.0480529 0.022900023 0.47704095 0 0
0.039999999 0.048740096 0.022903962 0.47704095 0 0
0.039999999 0.049427535 0.022907959 0.47704095 0 0
0.039999999 0.050115213 0.022912012 0.47704095 0 0
0.039999999 0.05080314 0.022916121 0.47704095 0 0
0.039999999 0.051491313 0.022920288 0.47704095 0 0
0.039999999 0.052179735 0.022924511 0.47704095 0 0
0.039999999 0.052868415 0.022928791 0.47704095 0 0
0.039999999 0.053557355 0.022933127 0.47704095 0 0
0.039999999 0.054246556 0.022937521 0.47704095 0 0
0.039999999 0.054936022 0.022941973 0.47704095 0 0
0.039999999 0.055625759 0.022946481 0.47704095 0 0
0.039999999 0.056315769 0.022951046 0.47704095 0 0
0.039999999 0.057006054 0.022955669 0.47704095 0 0
0.039999999 0.057696618 0.022960348 0.47704095 0 0
0.039999999 0.058387466 0.022965085 0.47704095 0 0
0.039999999 0.0590786 0.022969879 0.47704095 0 0
0.039999999 0.059770029 0.022974731 0.47704095 0 0
0.039999999 0.060461748 0.022979641 0.47704095 0 0
0.039999999 0.061153762 0.022984607 0.47704095 0 0
0.039999999 0.061846081 0.022989633 0.47704095 0 0
0.039999999 0.062538706 0.022994716 0.47704095 0 0
0.039999999 0.063231632 0.022999855 0.47704095 0 0
0.039999999 0.063924871 0.023005053 0.47704095 0 0
0.039999999 0.064618431 0.023010308 0.47704095 0 0
0.039999999 0.065312304 0.023015622 0.47704095 0 0
0.039999999 0.066006504 0.023020994 0.47704095 0 0
0.039999999 0.066701025 0.023026424 0.47704095 0 0
0.039999999 0.067395881 0.023031913 0.47704095 0 0
0.039999999 0.068091065 0.023037458 0.47704095 0 0
0.039999999 0.068786584 0.023043063 0.47704095 0 0
0.039999999 0.069482453 0.023048725 0.47704095 0 0
0.039999999 0.070178658 0.023054447 0.47704095 0 0
0.039999999 0.070875213 0.023060227 0.47704095 0 0
0.039999999 0.071572118 0.023066064 0.47704095 0 0
0.039999999 0.072269373 0.023071961 0.47704095 0 0
0.039999999 0.072966993 0.023077918 0.47704095 0 0
0.039999999 0.073664971 0.023083933 0.47704095 0 0
0.039999999 0.074363314 0.023090005 0.47704095 0 0
0.039999999 0.075062029 0.023096137 0.47704095 0 0
0.039999999 0.075761117 0.023102328 0.47704095 0 0
0.039999999 0.076460578 0.023108579 0.47704095 0 0
0.039999999 0.077160425 0.023114888 0.47704095 0 0
0.039999999 0.077860653 0.023121258 0.47704095 0 0
0.039999999 0.078561269 0.023127686 0.47704095 0 0
0.039999999 0.079262272 0.023134174 0.47704095 0 0
0.039999999 0.079963677 0.023140721 0.47704095 0 0
0.039999999 0.00033943731 0.022082191 0.47704095 0 0
0.039999999 0.0010183136 0.022082243 0.47704095 0 0
0.039999999 0.0016971948 0.022082351 0.47704095 0 0
0.039999999 0.0023760842 0.022082509 0.47704095 0 0
0.039999999 0.0030549851 0.022082724 0.47704095 0 0
0.039999999 0.0037339006 0.02208299 0.47704095 0 0
0.039999999 0.0044128341 0.022083309 0.47704095 0 0
0.039999999 0.0050917892 0.022083683 0.47704095 0 0
0.039999999 0.0057707685 0.022084109 0.47704095 0 0
0.039999999 0.0064497758 0.022084588 0.47704095 0 0
0.039999999 0.0071288142 0.022085121 0.47704095 0 0
0.039999999 0.0078078872 0.022085708 0.47704095 0 0
0.039999999 0.0084869973 0.022086347 0.47704095 0 0
0.039999999 0.0091661494 0.022087039 0.47704095 0 0
0.039999999 0.0098453453 0.022087786 0.47704095 0 0
0.039999999 0.010524589 0.022088585 0.47704095 0 0
0.039999999 0.011203882 0.022089439 0.47704095 0 0
0.039999999 0.011883231 0.022090346 0.47704095 0 0
0.039999999 0.012562636 0.022091305 0.47704095 0 0
0.039999999 0.013242103 0.022092318 0.47704095 0 0
0.039999999 0.013921633 0.022093384 0.47704095 0 0
0.039999999 0.014601231 0.022094505 0.47704095 0 0
0.039999999 0.015280899 0.022095678 0.47704095 0 0
0.039999999 0.015960641 0.022096904 0.47704095 0 0
0.039999999 0.01664046 0.022098184 0.47704095 0 0
0.039999999 0.017320359 0.022099519 0.47704095 0 0
0.039999999 0.018000342 0.022100905 0.47704095 0 0
0.039999999 0.018680412 0.022102347 0.47704095 0 0
0.039999999 0.019360572 0.02210384 0.47704095 0 0
0.039999999 0.020040827 0.022105388 0.47704095 0 0
0.039999999 0.020721179 0.02210699 0.47704095 0 0
0.039999999 0.021401629 0.022108644 0.47704095 0 0
0.039999999 0.022082184 0.022110352 0.47704095 0 0
0.039999999 0.022762846 0.022112114 0.47704095 0 0
0.039999999 0.023443617 0.02211393 0.47704095 0 0
0.039999999 0.024124503 0.022115801 0.47704095 0 0
0.039999999 0.024805505 0.022117723 0.47704095 0 0
0.039999999 0.025486626 0.022119701 0.47704095 0 0
0.039999999 0.026167871 0.022121731 0.47704095 0 0
0.039999999 0.026849244 0.022123815 0.47704095 0 0
0.039999999 0.027530747 0.022125954 0.47704095 0 0
0.039999999 0.028212382 0.022128146 0.47704095 0 0
0.039999999 0.028894154 0.022130391 0.47704095 0 0
0.039999999 0.029576067 0.022132691 0.47704095 0 0
0.039999999 0.030258123 0.022135044 0.47704095 0 0
0.039999999 0.030940324 0.022137452 0.47704095 0 0
0.039999999 0.031622678 0.022139912 0.47704095 0 0
0.039999999 0.032305185 0.022142429 0.47704095 0 0
0.039999999 0.032987844 0.022144997 0.47704095 0 0
0.039999999 0.033670668 0.022147622 0.47704095 0 0
0.039999999 0.034353655 0.022150299 0.47704095 0 0
0.039999999 0.03503681 0.022153031 0.47704095 0 0
0.039999999 0.035720132 0.022155816 0.47704095 0 0
0.039999999 0.03640363 0.022158656 0.47704095 0 0
0.039999999 0.037087303 0.022161551 0.47704095 0 0
0.039999999 0.037771154 0.022164499 0.47704095 0 0
0.039999999 0.038455192 0.022167502 0.47704095 0 0
0.039999999 0.039139416 0.022170559 0.47704095 0 0
0.039999999 0.039823834 0.022173669 0.47704095 0 0
0.039999999 0.040508442 0.022176836 0.47704095 0 0
0.039999999 0.041193247 0.022180056 0.47704095 0 0
0.039999999 0.041878253 0.022183331 0.47704095 0 0
0.039999999 0.042563464 0.022186659 0.47704095 0 0
0.039999999 0.043248881 0.022190044 0.47704095 0 0
0.039999999 0.043934509 0.022193482 0.47704095 0 0
0.039999999 0.044620354 0.022196975 0.47704095 0 0
0.039999999 0.045306414 0.022200521 0.47704095 0 0
0.039999999 0.045992695 0.022204123 0.47704095 0 0
0.039999999 0.046679199 0.022207782 0.47704095 0 0
0.039999999 0.047365934 0.022211494 0.47704095 0 0
0.039999999 0.0480529 0.02221526 0.47704095 0 0
0.039999999 0.048740096 0.022219082 0.47704095 0 0
0.039999999 0.049427535 0.022222959 0.47704095 0 0
0.039999999 0.050115213 0.022226891 0.47704095 0 0
0.039999999 0.05080314 0.022230877 0.47704095 0 0
0.039999999 0.051491313 0.022234919 0.47704095 0 0
0.039999999 0.052179735 0.022239015 0.47704095 0 0
0.039999999 0.052868415 0.022243166 0.47704095 0 0
0.039999999 0.053557355 0.022247374 0.47704095 0 0
0.039999999 0.054246556 0.022251636 0.47704095 0 0
0.039999999 0.054936022 0.022255955 0.47704095 0 0
0.039999999 0.055625759 0.022260329 0.47704095 0 0
0.039999999 0.056315769 0.022264756 0.47704095 0 0
0.039999999 0.057006054 0.022269242 0.47704095 0 0
0.039999999 0.057696618 0.022273781 0.47704095 0 0
0.039999999 0.058387466 0.022278376 0.47704095 0 0
0.039999999 0.0590786 0.022283027 0.47704095 0 0
0.039999999 0.059770029 0.022287734 0.47704095 0 0
0.039999999 0.060461748 0.022292497 0.47704095 0 0
0.039999999 0.061153762 0.022297315 0.47704095 0 0
0.039999999 0.061846081 0.02230219 0.47704095 0 0
0.039999999 0.062538706 0.02230712 0.47704095 0 0
0.039999999 0.063231632 0.022312107 0.47704095 0 0
0.039999999 0.063924871 0.022317149 0.47704095 0 0
0.039999999 0.064618431 0.022322247 0.47704095 0 0
0.039999999 0.065312304 0.022327403 0.47704095 0 0
0.039999999 0.066006504 0.022332612 0.47704095 0 0
0.039999999 0.066701025 0.02233788 0.47704095 0 0
0.039999999 0.067395881 0.022343205 0.47704095 0 0
0.039999999 0.068091065 0.022348585 0.47704095 0 0
0.039999999 0.068786584 0.022354022 0.47704095 0 0
0.039999999 0.069482453 0.022359515 0.47704095 0 0
0.039999999 0.070178658 0.022365065 0.47704095 0 0
0.039999999 0.070875213 0.022370672 0.47704095 0 0
0.039999999 0.071572118 0.022376336 0.47704095 0 0
0.039999999 0.072269373 0.022382056 0.47704095 0 0
0.039999999 0.072966993 0.022387834 0.47704095 0 0
0.039999999 0.073664971 0.02239367 0.47704095 0 0
0.039999999 0.074363314 0.022399561 0.47704095 0 0
0.039999999 0.075062029 0.022405509 0.47704095 0 0
0.039999999 0.075761117 0.022411516 0.47704095 0 0
0.039999999 0.076460578 0.022417579 0.47704095 0 0
0.039999999 0.077160425 0.022423699 0.47704095 0 0
0.039999999 0.077860653 0.022429878 0.47704095 0 0
0.039999999 0.078561269 0.022436114 0.47704095 0 0
0.039999999 0.079262272 0.022442408 0.47704095 0 0
0.039999999 0.079963677 0.02244876 0.47704095 0 0
0.039999999 0.00033943731 0.021401636 0.47704095 0 0
0.039999999 0.0010183136 0.021401687 0.47704095 0 0
0.039999999 0.0016971948 0.021401791 0.47704095 0 0
0.039999999 0.0023760842 0.021401946 0.47704095 0 0
0.039999999 0.0030549851 0.021402152 0.47704095 0 0
0.039999999 0.0037339006 0.021402409 0.47704095 0 0
0.039999999 0.0044128341 0.02140272 0.47704095 0 0
0.039999999 0.0050917892 0.021403082 0.47704095 0 0
0.039999999 0.0057707685 0.021403495 0.47704095 0 0
0.039999999 0.0064497758 0.021403959 0.47704095 0 0
0.039999999 0.0071288142 0.021404477 0.47704095 0 0
0.039999999 0.0078078872 0.021405045 0.47704095 0 0
0.039999999 0.0084869973 0.021405663 0.47704095 0 0
0.039999999 0.0091661494 0.021406336 0.47704095 0 0
0.039999999 0.0098453453 0.021407058 0.47704095 0 0
0.039999999 0.010524589 0.021407833 0.47704095 0 0
0.039999999 0.011203882 0.02140866 0.47704095 0 0
0.039999999 0.011883231 0.02140954 0.47704095 0 0
0.039999999 0.012562636 0.021410469 0.47704095 0 0
0.039999999 0.013242103 0.021411451 0.47704095 0 0
0.039999999 0.013921633 0.021412484 0.47704095 0 0
0.039999999 0.014601231 0.02141357 0.47704095 0 0
0.039999999 0.015280899 0.021414706 0.47704095 0 0
0.039999999 0.015960641 0.021415897 0.47704095 0 0
0.039999999 0.01664046 0.021417137 0.47704095 0 0
0.039999999 0.017320359 0.02141843 0.47704095 0 0
0.039999999 0.018000342 0.021419773 0.47704095 0 0
0.039999999 0.018680412 0.02142117 0.47704095 0 0
0.039999999 0.019360572 0.021422619 0.47704095 0 0
0.039999999 0.020040827 0.021424118 0.47704095 0 0
0.039999999 0.020721179 0.02142567 0.47704095 0 0
0.039999999 0.021401629 0.021427274 0.47704095 0 0
0.039999999 0.022082184 0.02142893 0.47704095 0 0
0.039999999 0.022762846 0.021430638 0.47704095 0 0
0.039999999 0.023443617 0.021432398 0.47704095 0 0
0.039999999 0.024124503 0.02143421 0.47704095 0 0
0.039999999 0.024805505 0.021436073 0.47704095 0 0
0.039999999 0.025486626 0.02143799 0.47704095 0 0
0.039999999 0.026167871 0.021439957 0.47704095 0 0
0.039999999 0.026849244 0.021441977 0.47704095 0 0
0.039999999 0.027530747 0.021444051 0.47704095 0 0
0.039999999 0.028212382 0.021446174 0.47704095 0 0
0.039999999 0.028894154 0.021448351 0.47704095 0 0
0.039999999 0.029576067 0.021450579 0.47704095 0 0
0.039999999 0.030258123 0.021452861 0.47704095 0 0
0.039999999 0.030940324 0.021455193 0.47704095 0 0
0.039999999 0.031622678 0.021457579 0.47704095 0 0
0.039999999 0.032305185 0.021460017 0.47704095 0 0
0.039999999 0.032987844 0.021462508 0.47704095 0 0
0.039999999 0.033670668 0.02146505 0.47704095 0 0
0.039999999 0.034353655 0.021467645 0.47704095 0 0
0.039999999 0.03503681 0.021470292 0.47704095 0 0
0.039999999 0.035720132 0.021472992 0.47704095 0 0
0.039999999 0.03640363 0.021475745 0.47704095 0 0
0.039999999 0.037087303 0.021478551 0.47704095 0 0
0.039999999 0.037771154 0.021481408 0.47704095 0 0
0.039999999 0.038455192 0.021484317 0.47704095 0 0
0.039999999 0.039139416 0.021487281 0.47704095 0 0
0.039999999 0.039823834 0.021490296 0.47704095 0 0
0.039999999 0.040508442 0.021493364 0.47704095 0 0
0.039999999 0.041193247 0.021496484 0.47704095 0 0
0.039999999 0.041878253 0.021499658 0.47704095 0 0
0.039999999 0.042563464 0.021502884 0.47704095 0 0
0.039999999 0.043248881 0.021506164 0.47704095 0 0
0.039999999 0.043934509 0.021509496 0.47704095 0 0
0.039999999 0.044620354 0.021512883 0.47704095 0 0
0.039999999 0.045306414 0.021516319 0.47704095 0 0
0.039999999 0.045992695 0.021519812 0.47704095 0 0
0.039999999 0.046679199 0.021523356 0.47704095 0 0
0.039999999 0.047365934 0.021526953 0.47704095 0 0
0.039999999 0.0480529 0.021530604 0.47704095 0 0
0.039999999 0.048740096 0.021534307 0.47704095 0 0
0.039999999 0.049427535 0.021538064 0.47704095 0 0
0.039999999 0.050115213 0.021541875 0.47704095 0 0
0.039999999 0.05080314 0.02154574 0.47704095 0 0
0.039999999 0.051491313 0.021549657 0.47704095 0 0
0.039999999 0.052179735 0.021553626 0.47704095 0 0
0.039999999 0.052868415 0.021557651 0.47704095 0 0
0.039999999 0.053557355 0.021561729 0.47704095 0 0
0.039999999 0.054246556 0.02156586 0.47704095 0 0
0.039999999 0.054936022 0.021570044 0.47704095 0 0
0.039999999 0.055625759 0.021574283 0.47704095 0 0
0.039999999 0.056315769 0.021578575 0.47704095 0 0
0.039999999 0.057006054 0.021582922 0.47704095 0 0
0.039999999 0.057696618 0.021587322 0.47704095 0 0
0.039999999 0.058387466 0.021591775 0.47704095 0 0
0.039999999 0.0590786 0.021596283 0.47704095 0 0
0.039999999 0.059770029 0.021600844 0.47704095 0 0
0.039999999 0.060461748 0.02160546 0.47704095 0 0
0.039999999 0.061153762 0.02161013 0.47704095 0 0
0.039999999 0.061846081 0.021614855 0.47704095 0 0
0.039999999 0.062538706 0.021619633 0.47704095 0 0
0.039999999 0.063231632 0.021624466 0.47704095 0 0
0.039999999 0.063924871 0.021629352 0.47704095 0 0
0.039999999 0.064618431 0.021634294 0.47704095 0 0
0.039999999 0.065312304 0.021639289 0.47704095 0 0
0.039999999 0.066006504 0.021644341 0.47704095 0 0
0.039999999 0.066701025 0.021649446 0.47704095 0 0
0.039999999 0.067395881 0.021654606 0.47704095 0 0
0.039999999 0.068091065 0.021659819 0.47704095 0 0
0.039999999 0.068786584 0.021665089 0.47704095 0 0
0.039999999 0.069482453 0.021670414 0.47704095 0 0
0.039999999 0.070178658 0.021675793 0.47704095 0 0
0.039999999 0.070875213 0.021681227 0.47704095 0 0
0.039999999 0.071572118 0.021686716 0.47704095 0 0
0.039999999 0.072269373 0.021692261 0.47704095 0 0
0.039999999 0.072966993 0.02169786 0.47704095 0 0
0.039999999 0.073664971 0.021703515 0.47704095 0 0
0.039999999 0.074363314 0.021709224 0.47704095 0 0
0.039999999 0.075062029 0.021714991 0.47704095 0 0
0.039999999 0.075761117 0.021720812 0.47704095 0 0
0.039999999 0.076460578 0.021726688 0.47704095 0 0
0.039999999 0.077160425 0.021732621 0.47704095 0 0
0.039999999 0.077860653 0.021738607 0.47704095 0 0
0.039999999 0.078561269 0.021744652 0.47704095 0 0
0.039999999 0.079262272 0.021750752 0.47704095 0 0
0.039999999 0.079963677 0.021756906 0.47704095 0 0
0.039999999 0.00033943731 0.020721184 0.47704095 0 0
0.039999999 0.0010183136 0.020721234 0.47704095 0 0
0.039999999 0.0016971948 0.020721333 0.47704095 0 0
0.039999999 0.0023760842 0.020721484 0.47704095 0 0
0.039999999 0.0030549851 0.020721683 0.47704095 0 0
0.039999999 0.0037339006 0.020721935 0.47704095 0 0
0.039999999 0.0044128341 0.020722235 0.47704095 0 0
0.039999999 0.0050917892 0.020722585 0.47704095 0 0
0.039999999 0.0057707685 0.020722983 0.47704095 0 0
0.039999999 0.0064497758 0.020723434 0.47704095 0 0
0.039999999 0.0071288142 0.020723933 0.47704095 0 0
0.039999999 0.0078078872 0.020724485 0.47704095 0 0
0.039999999 0.0084869973 0.020725084 0.47704095 0 0
0.039999999 0.0091661494 0.020725735 0.47704095 0 0
0.039999999 0.0098453453 0.020726435 0.47704095 0 0
0.039999999 0.010524589 0.020727186 0.47704095 0 0
0.039999999 0.011203882 0.020727986 0.47704095 0 0
0.039999999 0.011883231 0.020728836 0.47704095 0 0
0.039999999 0.012562636 0.020729737 0.47704095 0 0
0.039999999 0.013242103 0.020730687 0.47704095 0 0
0.039999999 0.013921633 0.020731688 0.47704095 0 0
0.039999999 0.014601231 0.020732738 0.47704095 0 0
0.039999999 0.015280899 0.020733841 0.47704095 0 0
0.039999999 0.015960641 0.020734992 0.47704095 0 0
0.039999999 0.01664046 0.020736193 0.47704095 0 0
0.039999999 0.017320359 0.020737443 0.47704095 0 0
0.039999999 0.018000342 0.020738745 0.47704095 0 0
0.039999999 0.018680412 0.020740097 0.47704095 0 0
0.039999999 0.019360572 0.0207415 0.47704095 0 0
0.039999999 0.020040827 0.020742953 0.47704095 0 0
0.039999999 0.020721179 0.020744454 0.47704095 0 0
0.039999999 0.021401629 0.020746008 0.47704095 0 0
0.039999999 0.022082184 0.020747611 0.47704095 0 0
0.039999999 0.022762846 0.020749263 0.47704095 0 0
0.039999999 0.023443617 0.020750968 0.47704095 0 0
0.039999999 0.024124503 0.020752722 0.47704095 0 0
0.039999999 0.024805505 0.020754527 0.47704095 0 0
0.039999999 0.025486626 0.020756382 0.47704095 0 0
0.039999999 0.026167871 0.020758288 0.47704095 0 0
0.039999999 0.026849244 0.020760244 0.47704095 0 0
0.039999999 0.027530747 0.02076225 0.47704095 0 0
0.039999999 0.028212382 0.020764306 0.47704095 0 0
0.039999999 0.028894154 0.020766415 0.47704095 0 0
0.039999999 0.029576067 0.020768572 0.47704095 0 0
0.039999999 0.030258123 0.020770781 0.47704095 0 0
0.039999999 0.030940324 0.02077304 0.47704095 0 0
0.039999999 0.031622678 0.02077535 0.47704095 0 0
0.039999999 0.032305185 0.02077771 0.47704095 0 0
0.039999999 0.032987844 0.02078012 0.47704095 0 0
0.039999999 0.033670668 0.020782582 0.47704095 0 0
0.039999999 0.034353655 0.020785095 0.47704095 0 0
0.039999999 0.03503681 0.020787658 0.47704095 0 0
0.039999999 0.035720132 0.020790271 0.47704095 0 0
0.039999999 0.03640363 0.020792937 0.47704095 0 0
0.039999999 0.037087303 0.020795653 0.47704095 0 0
0.039999999 0.037771154 0.020798419 0.47704095 0 0
0.039999999 0.038455192 0.020801237 0.47704095 0 0
0.039999999 0.039139416 0.020804105 0.47704095 0 0
0.039999999 0.039823834 0.020807026 0.47704095 0 0
0.039999999 0.040508442 0.020809995 0.47704095 0 0
0.039999999 0.041193247 0.020813018 0.47704095 0 0
0.039999999 0.041878253 0.02081609 0.47704095 0 0
0.039999999 0.042563464 0.020819215 0.47704095 0 0
0.039999999 0.043248881 0.020822389 0.47704095 0 0
0.039999999 0.043934509 0.020825615 0.47704095 0 0
0.039999999 0.044620354 0.020828893 0.47704095 0 0
0.039999999 0.045306414 0.020832222 0.47704095 0 0
0.039999999 0.045992695 0.020835603 0.47704095 0 0
0.039999999 0.046679199 0.020839034 0.47704095 0 0
0.039999999 0.047365934 0.020842517 0.47704095 0 0
0.039999999 0.0480529 0.020846052 0.47704095 0 0
0.039999999 0.048740096 0.020849638 0.47704095 0 0
0.039999999 0.049427535 0.020853275 0.47704095 0 0
0.039999999 0.050115213 0.020856965 0.47704095 0 0
0.039999999 0.05080314 0.020860706 0.47704095 0 0
0.039999999 0.051491313 0.020864498 0.47704095 0 0
0.039999999 0.052179735 0.020868342 0.47704095 0 0
0.039999999 0.052868415 0.020872239 0.47704095 0 0
0.039999999 0.053557355 0.020876186 0.47704095 0 0
0.039999999 0.054246556 0.020880187 0.47704095 0 0
0.039999999 0.054936022 0.020884238 0.47704095 0 0
0.039999999 0.055625759 0.020888342 0.47704095 0 0
0.039999999 0.056315769 0.020892497 0.47704095 0 0
0.039999999 0.057006054 0.020896707 0.47704095 0 0
0.039999999 0.057696618 0.020900967 0.47704095 0 0
0.039999999 0.058387466 0.020905279 0.47704095 0 0
0.039999999 0.0590786 0.020909643 0.47704095 0 0
0.039999999 0.059770029 0.020914059 0.47704095 0 0
0.039999999 0.060461748 0.020918528 0.47704095 0 0
0.039999999 0.061153762 0.02092305 0.47704095 0 0
0.039999999 0.061846081 0.020927623 0.47704095 0 0
0.039999999 0.062538706 0.02093225 0.47704095 0 0
0.039999999 0.063231632 0.020936929 0.47704095 0 0
0.039999999 0.063924871 0.020941662 0.47704095 0 0
0.039999999 0.064618431 0.020946445 0.47704095 0 0
0.039999999 0.065312304 0.020951282 0.47704095 0 0
0.039999999 0.066006504 0.020956172 0.47704095 0 0
0.039999999 0.066701025 0.020961115 0.47704095 0 0
0.039999999 0.067395881 0.020966111 0.47704095 0 0
0.039999999 0.068091065 0.02097116 0.47704095 0 0
0.039999999 0.068786584 0.020976262 0.47704095 0 0
0.039999999 0.069482453 0.020981416 0.47704095 0 0
0.039999999 0.070178658 0.020986624 0.47704095 0 0
0.039999999 0.070875213 0.020991886 0.47704095 0 0
0.039999999 0.071572118 0.0209972 0.47704095 0 0
0.039999999 0.072269373 0.021002568 0.47704095 0 0
0.039999999 0.072966993 0.02100799 0.47704095 0 0
0.039999999 0.073664971 0.021013465 0.47704095 0 0
0.039999999 0.074363314 0.021018993 0.47704095 0 0
0.039999999 0.075062029 0.021024575 0.47704095 0 0
0.039999999 0.075761117 0.021030212 0.47704095 0 0
0.039999999 0.076460578 0.021035902 0.47704095 0 0
0.039999999 0.077160425 0.021041645 0.47704095 0 0
0.039999999 0.077860653 0.021047443 0.47704095 0 0
0.039999999 0.078561269 0.021053294 0.47704095 0 0
0.039999999 0.079262272 0.0210592 0.47704095 0 0
0.039999999 0.079963677 0.021065161 0.47704095 0 0
0.039999999 0.00033943731 0.020040832 0.47704095 0 0
0.039999999 0.0010183136 0.020040881 0.47704095 0 0
0.039999999 0.0016971948 0.020040978 0.47704095 0 0
0.039999999 0.0023760842 0.020041123 0.47704095 0 0
0.039999999 0.0030549851 0.020041317 0.47704095 0 0
0.039999999 0.0037339006 0.020041559 0.47704095 0 0
0.039999999 0.0044128341 0.020041848 0.47704095 0 0
0.039999999 0.0050917892 0.020042187 0.47704095 0 0
0.039999999 0.0057707685 0.020042574 0.47704095 0 0
0.039999999 0.0064497758 0.02004301 0.47704095 0 0
0.039999999 0.0071288142 0.020043492 0.47704095 0 0
0.039999999 0.0078078872 0.020044025 0.47704095 0 0
0.039999999 0.0084869973 0.020044604 0.47704095 0 0
0.039999999 0.0091661494 0.020045234 0.47704095 0 0
0.039999999 0.0098453453 0.020045912 0.47704095 0 0
0.039999999 0.010524589 0.020046636 0.47704095 0 0
0.039999999 0.011203882 0.020047411 0.47704095 0 0
0.039999999 0.011883231 0.020048233 0.47704095 0 0
0.039999999 0.012562636 0.020049104 0.47704095 0 0
0.039999999 0.013242103 0.020050025 0.47704095 0 0
0.039999999 0.013921633 0.020050991 0.47704095 0 0
0.039999999 0.014601231 0.020052008 0.47704095 0 0
0.039999999 0.015280899 0.020053074 0.47704095 0 0
0.039999999 0.015960641 0.020054186 0.47704095 0 0
0.039999999 0.01664046 0.020055348 0.47704095 0 0
0.039999999 0.017320359 0.020056559 0.47704095 0 0
0.039999999 0.018000342 0.020057818 0.47704095 0 0
0.039999999 0.018680412 0.020059125 0.47704095 0 0
0.039999999 0.019360572 0.020060482 0.47704095 0 0
0.039999999 0.020040827 0.020061886 0.47704095 0 0
0.039999999 0.020721179 0.020063339 0.47704095 0 0
0.039999999 0.021401629 0.020064842 0.47704095 0 0
0.039999999 0.022082184 0.020066392 0.47704095 0 0
0.039999999 0.022762846 0.020067992 0.47704095 0 0
0.039999999 0.023443617 0.020069638 0.47704095 0 0
0.039999999 0.024124503 0.020071335 0.47704095 0 0
0.039999999 0.024805505 0.02007308 0.47704095 0 0
0.039999999 0.025486626 0.020074876 0.47704095 0 0
0.039999999 0.026167871 0.020076718 0.47704095 0 0
0.039999999 0.026849244 0.020078611 0.47704095 0 0
0.039999999 0.027530747 0.02008055 0.47704095 0 0
0.039999999 0.028212382 0.020082539 0.47704095 0 0
0.039999999 0.028894154 0.020084579 0.47704095 0 0
0.039999999 0.029576067 0.020086665 0.47704095 0 0
0.039999999 0.030258123 0.020088801 0.47704095 0 0
0.039999999 0.030940324 0.020090986 0.47704095 0 0
0.039999999 0.031622678 0.020093219 0.47704095 0 0
0.039999999 0.032305185 0.020095503 0.47704095 0 0
0.039999999 0.032987844 0.020097835 0.47704095 0 0
0.039999999 0.033670668 0.020100215 0.47704095 0 0
0.039999999 0.034353655 0.020102644 0.47704095 0 0
0.039999999 0.03503681 0.020105124 0.47704095 0 0
0.039999999 0.035720132 0.020107653 0.47704095 0 0
0.039999999 0.03640363 0.020110229 0.47704095 0 0
0.039999999 0.037087303 0.020112857 0.47704095 0 0
0.039999999 0.037771154 0.020115532 0.47704095 0 0
0.039999999 0.038455192 0.020118257 0.47704095 0 0
0.039999999 0.039139416 0.020121032 0.47704095 0 0
0.039999999 0.039823834 0.020123856 0.47704095 0 0
0.039999999 0.040508442 0.020126728 0.47704095 0 0
0.039999999 0.041193247 0.020129651 0.47704095 0 0
0.039999999 0.041878253 0.020132624 0.47704095 0 0
0.039999999 0.042563464 0.020135645 0.47704095 0 0
0.039999999 0.043248881 0.020138714 0.47704095 0 0
0.039999999 0.043934509 0.020141836 0.47704095 0 0
0.039999999 0.044620354 0.020145006 0.47704095 0 0
0.039999999 0.045306414 0.020148225 0.47704095 0 0
0.039999999 0.045992695 0.020151494 0.47704095 0 0
0.039999999 0.046679199 0.020154813 0.47704095 0 0
0.039999999 0.047365934 0.020158183 0.47704095 0 0
0.039999999 0.0480529 0.020161601 0.47704095 0 0
0.039999999 0.048740096 0.020165069 0.47704095 0 0
0.039999999 0.049427535 0.020168588 0.47704095 0 0
0.039999999 0.050115213 0.020172156 0.47704095 0 0
0.039999999 0.05080314 0.020175774 0.47704095 0 0
0.039999999 0.051491313 0.020179441 0.47704095 0 0
0.039999999 0.052179735 0.020183159 0.47704095 0 0
0.039999999 0.052868415 0.020186927 0.47704095 0 0
0.039999999 0.053557355 0.020190746 0.47704095 0 0
0.039999999 0.054246556 0.020194614 0.47704095 0 0
0.039999999 0.054936022 0.020198533 0.47704095 0 0
0.039999999 0.055625759 0.020202503 0.47704095 0 0
0.039999999 0.056315769 0.020206522 0.47704095 0 0
0.039999999 0.057006054 0.020210592 0.47704095 0 0
0.039999999 0.057696618 0.020214712 0.47704095 0 0
0.039999999 0.058387466 0.020218883 0.47704095 0 0
0.039999999 0.0590786 0.020223103 0.47704095 0 0
0.039999999 0.059770029 0.020227375 0.47704095 0 0
0.039999999 0.060461748 0.020231698 0.47704095 0 0
0.039999999 0.061153762 0.020236071 0.47704095 0 0
0.039999999 0.061846081 0.020240495 0.47704095 0 0
0.039999999 0.062538706 0.020244969 0.47704095 0 0
0.039999999 0.063231632 0.020249495 0.47704095 0 0
0.039999999 0.063924871 0.02025407 0.47704095 0 0
0.039999999 0.064618431 0.020258699 0.47704095 0 0
0.039999999 0.065312304 0.020263376 0.47704095 0 0
0.039999999 0.066006504 0.020268105 0.47704095 0 0
0.039999999 0.066701025 0.020272886 0.47704095 0 0
0.039999999 0.067395881 0.020277718 0.47704095 0 0
0.039999999 0.068091065 0.0202826 0.47704095 0 0
0.039999999 0.068786584 0.020287536 0.47704095 0 0
0.039999999 0.069482453 0.020292521 0.47704095 0 0
0.039999999 0.070178658 0.020297557 0.47704095 0 0
0.039999999 0.070875213 0.020302646 0.47704095 0 0
0.039999999 0.071572118 0.020307787 0.47704095 0 0
0.039999999 0.072269373 0.020312978 0.47704095 0 0
0.039999999 0.072966993 0.020318221 0.47704095 0 0
0.039999999 0.073664971 0.020323517 0.47704095 0 0
0.039999999 0.074363314 0.020328864 0.47704095 0 0
0.039999999 0.075062029 0.020334262 0.47704095 0 0
0.039999999 0.075761117 0.020339714 0.47704095 0 0
0.039999999 0.076460578 0.020345217 0.47704095 0 0
0.039999999 0.077160425 0.020350773 0.47704095 0 0
0.039999999 0.077860653 0.020356379 0.47704095 0 0
0.039999999 0.078561269 0.020362038 0.47704095 0 0
0.039999999 0.079262272 0.020367751 0.47704095 0 0
0.039999999 0.079963677 0.020373514 0.47704095 0 0
0.039999999 0.00033943731 0.019360578 0.47704095 0 0
0.039999999 0.0010183136 0.019360626 0.47704095 0 0
0.039999999 0.0016971948 0.019360719 0.47704095 0 0
0.039999999 0.0023760842 0.019360859 0.47704095 0 0
0.039999999 0.0030549851 0.019361045 0.47704095 0 0
0.039999999 0.0037339006 0.01936128 0.47704095 0 0
0.039999999 0.0044128341 0.019361559 0.47704095 0 0
0.039999999 0.0050917892 0.019361887 0.47704095 0 0
0.039999999 0.0057707685 0.01936226 0.47704095 0 0
0.039999999 0.0064497758 0.019362681 0.47704095 0 0
0.039999999 0.0071288142 0.019363148 0.47704095 0 0
0.039999999 0.0078078872 0.019363662 0.47704095 0 0
0.039999999 0.0084869973 0.019364223 0.47704095 0 0
0.039999999 0.0091661494 0.01936483 0.47704095 0 0
0.039999999 0.0098453453 0.019365484 0.47704095 0 0
0.039999999 0.010524589 0.019366186 0.47704095 0 0
0.039999999 0.011203882 0.019366933 0.47704095 0 0
0.039999999 0.011883231 0.019367728 0.47704095 0 0
0.039999999 0.012562636 0.01936857 0.47704095 0 0
0.039999999 0.013242103 0.019369457 0.47704095 0 0
0.039999999 0.013921633 0.019370392 0.47704095 0 0
0.039999999 0.014601231 0.019371375 0.47704095 0 0
0.039999999 0.015280899 0.019372404 0.47704095 0 0
0.039999999 0.015960641 0.019373478 0.47704095 0 0
0.039999999 0.01664046 0.019374602 0.47704095 0 0
0.039999999 0.017320359 0.019375771 0.47704095 0 0
0.039999999 0.018000342 0.019376988 0.47704095 0 0
0.039999999 0.018680412 0.01937825 0.47704095 0 0
0.039999999 0.019360572 0.01937956 0.47704095 0 0
0.039999999 0.020040827 0.019380918 0.47704095 0 0
0.039999999 0.020721179 0.01938232 0.47704095 0 0
0.039999999 0.021401629 0.019383771 0.47704095 0 0
0.039999999 0.022082184 0.019385271 0.47704095 0 0
0.039999999 0.022762846 0.019386815 0.47704095 0 0
0.039999999 0.023443617 0.019388407 0.47704095 0 0
0.039999999 0.024124503 0.019390047 0.47704095 0 0
0.039999999 0.024805505 0.019391732 0.47704095 0 0
0.039999999 0.025486626 0.019393465 0.47704095 0 0
0.039999999 0.026167871 0.019395245 0.47704095 0 0
0.039999999 0.026849244 0.019397072 0.47704095 0 0
0.039999999 0.027530747 0.019398948 0.47704095 0 0
0.039999999 0.028212382 0.01940087 0.47704095 0 0
0.039999999 0.028894154 0.019402839 0.47704095 0 0
0.039999999 0.029576067 0.019404855 0.47704095 0 0
0.039999999 0.030258123 0.019406918 0.47704095 0 0
0.039999999 0.030940324 0.019409029 0.47704095 0 0
0.039999999 0.031622678 0.019411188 0.47704095 0 0
0.039999999 0.032305185 0.019413393 0.47704095 0 0
0.039999999 0.032987844 0.019415645 0.47704095 0 0
0.039999999 0.033670668 0.019417945 0.47704095 0 0
0.039999999 0.034353655 0.019420292 0.47704095 0 0
0.039999999 0.03503681 0.019422688 0.47704095 0 0
0.039999999 0.035720132 0.01942513 0.47704095 0 0
0.039999999 0.03640363 0.01942762 0.47704095 0 0
0.039999999 0.037087303 0.019430157 0.47704095 0 0
0.039999999 0.037771154 0.019432742 0.47704095 0 0
0.039999999 0.038455192 0.019435376 0.47704095 0 0
0.039999999 0.039139416 0.019438054 0.47704095 0 0
0.039999999 0.039823834 0.019440783 0.47704095 0 0
0.039999999 0.040508442 0.019443559 0.47704095 0 0
0.039999999 0.041193247 0.019446382 0.47704095 0 0
0.039999999 0.041878253 0.019449253 0.47704095 0 0
0.039999999 0.042563464 0.019452171 0.47704095 0 0
0.039999999 0.043248881 0.019455139 0.47704095 0 0
0.039999999 0.043934509 0.019458152 0.47704095 0 0
0.039999999 0.044620354 0.019461215 0.47704095 0 0
0.039999999 0.045306414 0.019464325 0.47704095 0 0
0.039999999 0.045992695 0.019467484 0.47704095 0 0
0.039999999 0.046679199 0.01947069 0.47704095 0 0
0.039999999 0.047365934 0.019473946 0.47704095 0 0
0.039999999 0.0480529 0.019477248 0.47704095 0 0
0.039999999 0.048740096 0.019480597 0.47704095 0 0
0.039999999 0.049427535 0.019483997 0.47704095 0 0
0.039999999 0.050115213 0.019487444 0.47704095 0 0
0.039999999 0.05080314 0.019490939 0.47704095 0 0
0.039999999 0.051491313 0.019494483 0.47704095 0 0
0.039999999 0.052179735 0.019498074 0.47704095 0 0
0.039999999 0.052868415 0.019501714 0.47704095 0 0
0.039999999 0.053557355 0.019505404 0.47704095 0 0
0.039999999 0.054246556 0.01950914 0.47704095 0 0
0.039999999 0.054936022 0.019512927 0.47704095 0 0
0.039999999 0.055625759 0.01951676 0.47704095 0 0
0.039999999 0.056315769 0.019520644 0.47704095 0 0
0.039999999 0.057006054 0.019524574 0.47704095 0 0
0.039999999 0.057696618 0.019528555 0.47704095 0 0
0.039999999 0.058387466 0.019532584 0.47704095 0 0
0.039999999 0.0590786 0.019536663 0.47704095 0 0
0.039999999 0.059770029 0.019540789 0.47704095 0 0
0.039999999 0.060461748 0.019544965 0.47704095 0 0
0.039999999 0.061153762 0.019549189 0.47704095 0 0
0.039999999 0.061846081 0.019553462 0.47704095 0 0
0.039999999 0.062538706 0.019557785 0.47704095 0 0
0.039999999 0.063231632 0.019562157 0.47704095 0 0
0.039999999 0.063924871 0.019566579 0.47704095 0 0
0.039999999 0.064618431 0.019571049 0.47704095 0 0
0.039999999 0.065312304 0.019575568 0.47704095 0 0
0.039999999 0.066006504 0.019580137 0.47704095 0 0
0.039999999 0.066701025 0.019584754 0.47704095 0 0
0.039999999 0.067395881 0.019589422 0.47704095 0 0
0.039999999 0.068091065 0.01959414 0.47704095 0 0
0.039999999 0.068786584 0.019598907 0.47704095 0 0
0.039999999 0.069482453 0.019603724 0.47704095 0 0
0.039999999 0.070178658 0.019608589 0.47704095 0 0
0.039999999 0.070875213 0.019613506 0.47704095 0 0
0.039999999 0.071572118 0.01961847 0.47704095 0 0
0.039999999 0.072269373 0.019623486 0.47704095 0 0
0.039999999 0.072966993 0.019628553 0.47704095 0 0
0.039999999 0.073664971 0.019633668 0.47704095 0 0
0.039999999 0.074363314 0.019638833 0.47704095 0 0
0.039999999 0.075062029 0.019644048 0.47704095 0 0
0.039999999 0.075761117 0.019649316 0.47704095 0 0
0.039999999 0.076460578 0.019654632 0.47704095 0 0
0.039999999 0.077160425 0.019659998 0.47704095 0 0
0.039999999 0.077860653 0.019665414 0.47704095 0 0
0.039999999 0.078561269 0.019670881 0.47704095 0 0
0.039999999 0.079262272 0.0196764 0.47704095 0 0
0.039999999 0.079963677 0.019681968 0.47704095 0 0
0.039999999 0.00033943731 0.018680418 0.47704095 0 0
0.039999999 0.0010183136 0.018680463 0.47704095 0 0
0.039999999 0.0016971948 0.018680554 0.47704095 0 0
0.039999999 0.0023760842 0.018680688 0.47704095 0 0
0.039999999 0.0030549851 0.018680869 0.47704095 0 0
0.039999999 0.0037339006 0.018681094 0.47704095 0 0
0.039999999 0.0044128341 0.018681364 0.47704095 0 0
0.039999999 0.0050917892 0.018681681 0.47704095 0 0
0.039999999 0.0057707685 0.01868204 0.47704095 0 0
0.039999999 0.0064497758 0.018682446 0.47704095 0 0
0.039999999 0.0071288142 0.018682897 0.47704095 0 0
0.039999999 0.0078078872 0.018683393 0.47704095 0 0
0.039999999 0.0084869973 0.018683935 0.47704095 0 0
0.039999999 0.0091661494 0.018684519 0.47704095 0 0
0.039999999 0.0098453453 0.018685151 0.47704095 0 0
0.039999999 0.010524589 0.018685829 0.47704095 0 0
0.039999999 0.011203882 0.01868655 0.47704095 0 0
0.039999999 0.011883231 0.018687315 0.47704095 0 0
0.039999999 0.012562636 0.018688127 0.47704095 0 0
0.039999999 0.013242103 0.018688984 0.47704095 0 0
0.039999999 0.013921633 0.018689888 0.47704095 0 0
0.039999999 0.014601231 0.018690834 0.47704095 0 0
0.039999999 0.015280899 0.018691827 0.47704095 0 0
0.039999999 0.015960641 0.018692866 0.47704095 0 0
0.039999999 0.01664046 0.018693948 0.47704095 0 0
0.039999999 0.017320359 0.018695077 0.47704095 0 0
0.039999999 0.018000342 0.01869625 0.47704095 0 0
0.039999999 0.018680412 0.018697469 0.47704095 0 0
0.039999999 0.019360572 0.018698733 0.47704095 0 0
0.039999999 0.020040827 0.018700043 0.47704095 0 0
0.039999999 0.020721179 0.018701397 0.47704095 0 0
0.039999999 0.021401629 0.018702796 0.47704095 0 0
0.039999999 0.022082184 0.018704241 0.47704095 0 0
0.039999999 0.022762846 0.018705733 0.47704095 0 0
0.039999999 0.023443617 0.018707268 0.47704095 0 0
0.039999999 0.024124503 0.018708849 0.47704095 0 0
0.039999999 0.024805505 0.018710477 0.47704095 0 0
0.039999999 0.025486626 0.01871215 0.47704095 0 0
0.039999999 0.026167871 0.018713867 0.47704095 0 0
0.039999999 0.026849244 0.018715631 0.47704095 0 0
0.039999999 0.027530747 0.01871744 0.47704095 0 0
0.039999999 0.028212382 0.018719293 0.47704095 0 0
0.039999999 0.028894154 0.018721193 0.47704095 0 0
0.039999999 0.029576067 0.01872314 0.47704095 0 0
0.039999999 0.030258123 0.018725129 0.47704095 0 0
0.039999999 0.030940324 0.018727167 0.47704095 0 0
0.039999999 0.031622678 0.018729249 0.47704095 0 0
0.039999999 0.032305185 0.018731376 0.47704095 0 0
0.039999999 0.032987844 0.01873355 0.47704095 0 0
0.039999999 0.033670668 0.01873577 0.47704095 0 0
0.039999999 0.034353655 0.018738035 0.47704095 0 0
0.039999999 0.03503681 0.018740345 0.47704095 0 0
0.039999999 0.035720132 0.018742701 0.47704095 0 0
0.039999999 0.03640363 0.018745104 0.47704095 0 0
0.039999999 0.037087303 0.018747553 0.47704095 0 0
0.039999999 0.037771154 0.018750047 0.47704095 0 0
0.039999999 0.038455192 0.018752586 0.47704095 0 0
0.039999999 0.039139416 0.018755173 0.47704095 0 0
0.039999999 0.039823834 0.018757805 0.47704095 0 0
0.039999999 0.040508442 0.018760484 0.47704095 0 0
0.039999999 0.041193247 0.018763207 0.47704095 0 0
0.039999999 0.041878253 0.018765977 0.47704095 0 0
0.039999999 0.042563464 0.018768793 0.47704095 0 0
0.039999999 0.043248881 0.018771656 0.47704095 0 0
0.039999999 0.043934509 0.018774565 0.47704095 0 0
0.039999999 0.044620354 0.018777519 0.47704095 0 0
0.039999999 0.045306414 0.01878052 0.47704095 0 0
0.039999999 0.045992695 0.018783567 0.47704095 0 0
0.039999999 0.046679199 0.018786661 0.47704095 0 0
0.039999999 0.047365934 0.018789802 0.47704095 0 0
0.039999999 0.0480529 0.018792989 0.47704095 0 0
0.039999999 0.048740096 0.01879622 0.47704095 0 0
0.039999999 0.049427535 0.018799501 0.47704095 0 0
0.039999999 0.050115213 0.018802825 0.47704095 0 0
0.039999999 0.05080314 0.018806199 0.47704095 0 0
0.039999999 0.051491313 0.018809618 0.47704095 0 0
0.039999999 0.052179735 0.018813083 0.47704095 0 0
0.039999999 0.052868415 0.018816596 0.47704095 0 0
0.039999999 0.053557355 0.018820155 0.47704095 0 0
0.039999999 0.054246556 0.018823761 0.47704095 0 0
0.039999999 0.054936022 0.018827414 0.47704095 0 0
0.039999999 0.055625759 0.018831113 0.47704095 0 0
0.039999999 0.056315769 0.018834859 0.47704095 0 0
0.039999999 0.057006054 0.018838653 0.47704095 0 0
0.039999999 0.057696618 0.018842494 0.47704095 0 0
0.039999999 0.058387466 0.018846381 0.47704095 0 0
0.039999999 0.0590786 0.018850315 0.47704095 0 0
0.039999999 0.059770029 0.018854298 0.47704095 0 0
0.039999999 0.060461748 0.018858327 0.47704095 0 0
0.039999999 0.061153762 0.018862402 0.47704095 0 0
0.039999999 0.061846081 0.018866526 0.47704095 0 0
0.039999999 0.062538706 0.018870696 0.47704095 0 0
0.039999999 0.063231632 0.018874915 0.47704095 0 0
0.039999999 0.063924871 0.018879181 0.47704095 0 0
0.039999999 0.064618431 0.018883495 0.47704095 0 0
0.039999999 0.065312304 0.018887855 0.47704095 0 0
0.039999999 0.066006504 0.018892262 0.47704095 0 0
0.039999999 0.066701025 0.018896719 0.47704095 0 0
0.039999999 0.067395881 0.018901223 0.47704095 0 0
0.039999999 0.068091065 0.018905774 0.47704095 0 0
