# .PCD v0.7 - Point Cloud Data file format
VERSION 0.7
FIELDS x y z vp_x vp_y vp_z
SIZE 4 4 4 4 4 4
TYPE F F F F F F
COUNT 1 1 1 1 1 1
WIDTH 890
HEIGHT 1
VIEWPOINT 0 0 0 1 0 0 0
POINTS 890
DATA ascii
0.039999999 0.055873524 0.011419336 -0.25019264 -0.4048202 0
0.0056842561 5.5511151e-17 0.010044225 -0.25019264 -0.4048202 0
0.0065651741 0 0.010054109 -0.25019264 -0.4048202 0
0.0074478295 0 0.010064036 -0.25019264 -0.4048202 0
0.008332232 0 0.010074007 -0.25019264 -0.4048202 0
0.039999999 0.048035804 0.011280589 -0.25019264 -0.4048202 0
0.010106315 5.5511151e-17 0.010094082 -0.25019264 -0.4048202 0
0.010996015 0 0.010104187 -0.25019264 -0.4048202 0
0.0118875 0 0.010114335 -0.25019264 -0.4048202 0
0.01278078 0 0.010124529 -0.25019264 -0.4048202 0
0.013675865 0 0.010134768 -0.25019264 -0.4048202 0
0.039999999 0.038877659 0.011119351 -0.25019264 -0.4048202 0
0.015471486 0 0.010155382 -0.25019264 -0.4048202 0
0.016372044 0 0.010165757 -0.25019264 -0.4048202 0
0.017274445 5.5511151e-17 0.010176177 -0.25019264 -0.4048202 0
0.018178701 5.5511151e-17 0.010186644 -0.25019264 -0.4048202 0
0.019084821 0 0.010197157 -0.25019264 -0.4048202 0
0.019992815 0 0.010207716 -0.25019264 -0.4048202 0
0.020902693 0 0.010218322 -0.25019264 -0.4048202 0
0.039999999 0.027064994 0.010912852 -0.25019264 -0.4048202 0
0.022728147 5.5511151e-17 0.010239676 -0.25019264 -0.4048202 0
0.023643741 5.5511151e-17 0.010250422 -0.25019264 -0.4048202 0
0.039999999 0.022747312 0.010837805 -0.25019264 -0.4048202 0
0.025480721 0 0.010272059 -0.25019264 -0.4048202 0
0.026402125 0 0.010282948 -0.25019264 -0.4048202 0
0.027325489 5.5511151e-17 0.010293885 -0.25019264 -0.4048202 0
0.039999999 0.017081764 0.010739695 -0.25019264 -0.4048202 0
0.029178131 0 0.010315905 -0.25019264 -0.4048202 0
0.039999999 0.014287229 0.010691456 -0.25019264 -0.4048202 0
0.031038733 0 0.01033812 -0.25019264 -0.4048202 0
0.031972047 5.5511151e-17 0.010349301 -0.25019264 -0.4048202 0
0.032907385 0 0.010360531 -0.25019264 -0.4048202 0
0.033844758 0 0.01037181 -0.25019264 -0.4048202 0
0.039999999 0.0074092732 0.010573177 -0.25019264 -0.4048202 0
0.035725649 0 0.010394517 -0.25019264 -0.4048202 0
0.036669191 0 0.010405947 -0.25019264 -0.4048202 0
0.037614811 0 0.010417425 -0.25019264 -0.4048202 0
0.038562525 0 0.010428955 -0.25019264 -0.4048202 0
0.03951234 0 0.010440536 -0.25019264 -0.4048202 0
0 0.079670697 0.010588872 -0.25019264 -0.4048202 0
0 0.077830248 0.010557129 -0.25019264 -0.4048202 0
0 0.076000795 0.010525601 -0.25019264 -0.4048202 0
0 0.074182235 0.010494286 -0.25019264 -0.4048202 0
0 0.072374456 0.010463182 -0.25019264 -0.4048202 0
0 0.070577353 0.010432287 -0.25019264 -0.4048202 0
0 0.068790831 0.010401598 -0.25019264 -0.4048202 0
0 0.067014784 0.010371115 -0.25019264 -0.4048202 0
0 0.065249115 0.010340835 -0.25019264 -0.4048202 0
0 0.063493721 0.010310756 -0.25019264 -0.4048202 0
0 0.061748501 0.010280875 -0.25019264 -0.4048202 0
0 0.060013365 0.010251193 -0.25019264 -0.4048202 0
0 0.058288217 0.010221707 -0.25019264 -0.4048202 0
0 0.056572963 0.010192413 -0.25019264 -0.4048202 0
0 0.054867502 0.010163311 -0.25019264 -0.4048202 0
0 0.053171754 0.0101344 -0.25019264 -0.4048202 0
0 0.051485617 0.010105677 -0.25019264 -0.4048202 0
0 0.049809009 0.01007714 -0.25019264 -0.4048202 0
0 0.048141841 0.010048789 -0.25019264 -0.4048202 0
0 0.046484023 0.01002062 -0.25019264 -0.4048202 0
0 0.044835467 0.009992633 -0.25019264 -0.4048202 0
0 0.043196093 0.0099648265 -0.25019264 -0.4048202 0
0 0.041565813 0.009937197 -0.25019264 -0.4048202 0
0 0.039944541 0.0099097453 -0.25019264 -0.4048202 0
0 0.038332202 0.0098824678 -0.25019264 -0.4048202 0
0 0.03672871 0.0098553644 -0.25019264 -0.4048202 0
0 0.035133984 0.0098284325 -0.25019264 -0.4048202 0
0 0.033547949 0.0098016709 -0.25019264 -0.4048202 0
0 0.031970523 0.0097750789 -0.25019264 -0.4048202 0
0 0.030401628 0.0097486535 -0.25019264 -0.4048202 0
0 0.02884119 0.0097223939 -0.25019264 -0.4048202 0
0 0.027289132 0.0096962992 -0.25019264 -0.4048202 0
0 0.025745379 0.0096703675 -0.25019264 -0.4048202 0
0 0.024209857 0.0096445968 -0.25019264 -0.4048202 0
0 0.022682495 0.0096189873 -0.25019264 -0.4048202 0
0 0.021163218 0.0095935352 -0.25019264 -0.4048202 0
0 0.019651957 0.0095682414 -0.25019264 -0.4048202 0
0 0.01814864 0.0095431032 -0.25019264 -0.4048202 0
0 0.016653199 0.0095181195 -0.25019264 -0.4048202 0
0 0.015165563 0.0094932895 -0.25019264 -0.4048202 0
0 0.013685664 0.0094686113 -0.25019264 -0.4048202 0
0 0.012213437 0.009444084 -0.25019264 -0.4048202 0
0 0.010748814 0.0094197057 -0.25019264 -0.4048202 0
0 0.009291729 0.0093954764 -0.25019264 -0.4048202 0
0 0.007842117 0.0093713934 -0.25019264 -0.4048202 0
0 0.0063999142 0.0093474556 -0.25019264 -0.4048202 0
0 0.0049650567 0.0093236631 -0.25019264 -0.4048202 0
0 0.0035374819 0.0093000131 -0.25019264 -0.4048202 0
0 0.0021171274 0.0092765056 -0.25019264 -0.4048202 0
0 0.00070393208 0.0092531387 -0.25019264 -0.4048202 0
0.00043471588 0 0.0092459479 -0.25019264 -0.4048202 0
0.0013054035 0 0.0092548598 -0.25019264 -0.4048202 0
0.039999999 0.06066956 0.010652158 -0.25019264 -0.4048202 0
0.0030518344 0 0.0092728017 -0.25019264 -0.4048202 0
0.0039275954 0 0.0092818318 -0.25019264 -0.4048202 0
0.0048050666 5.5511151e-17 0.0092909029 -0.25019264 -0.4048202 0
0.0056842561 0 0.009300014 -0.25019264 -0.4048202 0
0.0065651741 0 0.0093091652 -0.25019264 -0.4048202 0
0.0074478295 0 0.0093183564 -0.25019264 -0.4048202 0
0.008332232 0 0.0093275895 -0.25019264 -0.4048202 0
0.039999999 0.048035804 0.010444771 -0.25019264 -0.4048202 0
0.010106315 0 0.0093461769 -0.25019264 -0.4048202 0
0.010996015 5.5511151e-17 0.0093555329 -0.25019264 -0.4048202 0
0.039999999 0.043423772 0.010369476 -0.25019264 -0.4048202 0
0.01278078 0 0.009374368 -0.25019264 -0.4048202 0
0.039999999 0.040385805 0.010320002 -0.25019264 -0.4048202 0
0.014572763 0 0.0093933698 -0.25019264 -0.4048202 0
0.015471486 0 0.0094029345 -0.25019264 -0.4048202 0
0.016372044 0 0.0094125411 -0.25019264 -0.4048202 0
0.039999999 0.034395874 0.010222754 -0.25019264 -0.4048202 0
0.018178701 0 0.0094318809 -0.25019264 -0.4048202 0
0.019084821 0 0.0094416151 -0.25019264 -0.4048202 0
0.019992815 0 0.0094513921 -0.25019264 -0.4048202 0
0.020902693 0 0.009461212 -0.25019264 -0.4048202 0
0.021814467 0 0.0094710756 -0.25019264 -0.4048202 0
0.022728147 0 0.0094809821 -0.25019264 -0.4048202 0
0.023643741 0 0.0094909333 -0.25019264 -0.4048202 0
0.024561264 0 0.0095009273 -0.25019264 -0.4048202 0
0.025480721 0 0.009510966 -0.25019264 -0.4048202 0
0.026402125 0 0.0095210485 -0.25019264 -0.4048202 0
0.027325489 0 0.0095311757 -0.25019264 -0.4048202 0
0.028250819 5.5511151e-17 0.0095413476 -0.25019264 -0.4048202 0
0.029178131 0 0.0095515642 -0.25019264 -0.4048202 0
0.030107431 0 0.0095618265 -0.25019264 -0.4048202 0
0.031038733 0 0.0095721325 -0.25019264 -0.4048202 0
0.031972047 5.5511151e-17 0.0095824851 -0.25019264 -0.4048202 0
0.032907385 5.5511151e-17 0.0095928833 -0.25019264 -0.4048202 0
0.033844758 0 0.0096033262 -0.25019264 -0.4048202 0
0.039999999 0.0074092732 0.0097897742 -0.25019264 -0.4048202 0
0.035725649 0 0.0096243517 -0.25019264 -0.4048202 0
0.036669191 0 0.0096349334 -0.25019264 -0.4048202 0
0.037614811 0 0.0096455626 -0.25019264 -0.4048202 0
0.038562525 5.5511151e-17 0.0096562384 -0.25019264 -0.4048202 0
0.03951234 0 0.0096669607 -0.25019264 -0.4048202 0
0 0.079670697 0.0097415745 -0.25019264 -0.4048202 0
0 0.077830248 0.009712371 -0.25019264 -0.4048202 0
0 0.076000795 0.0096833659 -0.25019264 -0.4048202 0
0 0.074182235 0.0096545564 -0.25019264 -0.4048202 0
0 0.072374456 0.0096259415 -0.25019264 -0.4048202 0
0 0.070577353 0.0095975185 -0.25019264 -0.4048202 0
0 0.068790831 0.0095692864 -0.25019264 -0.4048202 0
0 0.067014784 0.0095412415 -0.25019264 -0.4048202 0
0 0.065249115 0.0095133847 -0.25019264 -0.4048202 0
0 0.063493721 0.0094857123 -0.25019264 -0.4048202 0
0 0.061748501 0.0094582234 -0.25019264 -0.4048202 0
0 0.060013365 0.009430916 -0.25019264 -0.4048202 0
0 0.058288217 0.0094037885 -0.25019264 -0.4048202 0
0 0.056572963 0.0093768388 -0.25019264 -0.4048202 0
0 0.054867502 0.0093500661 -0.25019264 -0.4048202 0
0 0.053171754 0.0093234675 -0.25019264 -0.4048202 0
0 0.051485617 0.0092970431 -0.25019264 -0.4048202 0
0 0.049809009 0.00927079 -0.25019264 -0.4048202 0
0 0.048141841 0.0092447074 -0.25019264 -0.4048202 0
0 0.046484023 0.0092187924 -0.25019264 -0.4048202 0
0 0.044835467 0.0091930451 -0.25019264 -0.4048202 0
0 0.043196093 0.0091674635 -0.25019264 -0.4048202 0
0 0.041565813 0.0091420449 -0.25019264 -0.4048202 0
0 0.039944541 0.0091167893 -0.25019264 -0.4048202 0
0 0.038332202 0.0090916948 -0.25019264 -0.4048202 0
0 0.03672871 0.0090667605 -0.25019264 -0.4048202 0
0 0.035133984 0.0090419836 -0.25019264 -0.4048202 0
0 0.033547949 0.0090173632 -0.25019264 -0.4048202 0
0 0.031970523 0.0089928992 -0.25019264 -0.4048202 0
0 0.030401628 0.008968588 -0.25019264 -0.4048202 0
0 0.02884119 0.0089444304 -0.25019264 -0.4048202 0
0 0.027289132 0.0089204237 -0.25019264 -0.4048202 0
0 0.025745379 0.008896566 -0.25019264 -0.4048202 0
0 0.024209857 0.0088728582 -0.25019264 -0.4048202 0
0 0.022682495 0.0088492977 -0.25019264 -0.4048202 0
0 0.021163218 0.0088258823 -0.25019264 -0.4048202 0
0 0.019651957 0.0088026123 -0.25019264 -0.4048202 0
0 0.01814864 0.0087794857 -0.25019264 -0.4048202 0
0 0.016653199 0.0087565016 -0.25019264 -0.4048202 0
0 0.015165563 0.0087336581 -0.25019264 -0.4048202 0
0 0.013685664 0.0087109543 -0.25019264 -0.4048202 0
0 0.012213437 0.0086883893 -0.25019264 -0.4048202 0
0 0.010748814 0.0086659621 -0.25019264 -0.4048202 0
0 0.009291729 0.0086436709 -0.25019264 -0.4048202 0
0 0.007842117 0.0086215157 -0.25019264 -0.4048202 0
0 0.0063999142 0.0085994937 -0.25019264 -0.4048202 0
0 0.0049650567 0.0085776038 -0.25019264 -0.4048202 0
0 0.0035374819 0.0085558472 -0.25019264 -0.4048202 0
0 0.0021171274 0.00853422 -0.25019264 -0.4048202 0
0 0.00070393208 0.0085127233 -0.25019264 -0.4048202 0
0.00043471588 0 0.0085061081 -0.25019264 -0.4048202 0
0.0013054035 5.5511151e-17 0.0085143065 -0.25019264 -0.4048202 0
0.0021777733 5.5511151e-17 0.0085225413 -0.25019264 -0.4048202 0
0.0030518344 5.5511151e-17 0.0085308123 -0.25019264 -0.4048202 0
0.0039275954 0 0.0085391207 -0.25019264 -0.4048202 0
0.0048050666 5.5511151e-17 0.0085474653 -0.25019264 -0.4048202 0
0.0056842561 5.5511151e-17 0.0085558472 -0.25019264 -0.4048202 0
0.0065651741 0 0.0085642664 -0.25019264 -0.4048202 0
0.039999999 0.05114793 0.009655863 -0.25019264 -0.4048202 0
0.039999999 0.04958808 0.0096323648 -0.25019264 -0.4048202 0
0.0092183901 5.5511151e-17 0.0085897474 -0.25019264 -0.4048202 0
0.010106315 0 0.0085983165 -0.25019264 -0.4048202 0
0.010996015 0 0.0086069237 -0.25019264 -0.4048202 0
0.0118875 5.5511151e-17 0.0086155683 -0.25019264 -0.4048202 0
0.01278078 0 0.0086242519 -0.25019264 -0.4048202 0
0.039999999 0.040385805 0.009494219 -0.25019264 -0.4048202 0
0.039999999 0.038877659 0.0094716586 -0.25019264 -0.4048202 0
0.039999999 0.037376661 0.0094492277 -0.25019264 -0.4048202 0
0.039999999 0.035882749 0.0094269263 -0.25019264 -0.4048202 0
0.039999999 0.034395874 0.0094047515 -0.25019264 -0.4048202 0
0.018178701 0 0.0086771632 -0.25019264 -0.4048202 0
0.019084821 5.5511151e-17 0.0086861178 -0.25019264 -0.4048202 0
0.019992815 0 0.0086951125 -0.25019264 -0.4048202 0
0.020902693 0 0.0087041473 -0.25019264 -0.4048202 0
0.021814467 0 0.0087132212 -0.25019264 -0.4048202 0
0.039999999 0.025619136 0.00927433 -0.25019264 -0.4048202 0
0.023643741 0 0.00873149 -0.25019264 -0.4048202 0
0.039999999 0.022747312 0.0092318337 -0.25019264 -0.4048202 0
0.025480721 0 0.0087499199 -0.25019264 -0.4048202 0
0.026402125 0 0.0087591959 -0.25019264 -0.4048202 0
0.039999999 0.018488515 0.0091689788 -0.25019264 -0.4048202 0
0.028250819 0 0.0087778708 -0.25019264 -0.4048202 0
0.039999999 0.015681351 0.0091276588 -0.25019264 -0.4048202 0
0.030107431 0 0.0087967105 -0.25019264 -0.4048202 0
0.039999999 0.012899348 0.0090867961 -0.25019264 -0.4048202 0
0.039999999 0.01151766 0.0090665342 -0.25019264 -0.4048202 0
0.032907385 0 0.0088252816 -0.25019264 -0.4048202 0
0.033844758 0 0.0088348901 -0.25019264 -0.4048202 0
0.039999999 0.0074092732 0.0090064183 -0.25019264 -0.4048202 0
0.035725649 0 0.0088542327 -0.25019264 -0.4048202 0
0.039999999 0.0047004451 0.0089668892 -0.25019264 -0.4048202 0
0.037614811 0 0.0088737458 -0.25019264 -0.4048202 0
0.038562525 0 0.0088835675 -0.25019264 -0.4048202 0
0.039999999 0.00068143167 0.0089084022 -0.25019264 -0.4048202 0
0 0.079670697 0.0088943234 -0.25019264 -0.4048202 0
0 0.077830248 0.0088676605 -0.25019264 -0.4048202 0
0 0.076000795 0.0088411774 -0.25019264 -0.4048202 0
0 0.074182235 0.0088148741 -0.25019264 -0.4048202 0
0 0.072374456 0.0087887477 -0.25019264 -0.4048202 0
0 0.070577353 0.0087627964 -0.25019264 -0.4048202 0
0 0.068790831 0.0087370193 -0.25019264 -0.4048202 0
0 0.067014784 0.0087114144 -0.25019264 -0.4048202 0
0 0.065249115 0.00868598 -0.25019264 -0.4048202 0
0 0.063493721 0.0086607141 -0.25019264 -0.4048202 0
0 0.061748501 0.0086356159 -0.25019264 -0.4048202 0
0 0.060013365 0.0086106835 -0.25019264 -0.4048202 0
0 0.058288217 0.0085859159 -0.25019264 -0.4048202 0
0 0.056572963 0.0085613104 -0.25019264 -0.4048202 0
0 0.054867502 0.0085368659 -0.25019264 -0.4048202 0
0 0.053171754 0.0085125808 -0.25019264 -0.4048202 0
0 0.051485617 0.0084884539 -0.25019264 -0.4048202 0
0 0.049809009 0.0084644845 -0.25019264 -0.4048202 0
0 0.048141841 0.0084406696 -0.25019264 -0.4048202 0
0 0.046484023 0.0084170094 -0.25019264 -0.4048202 0
0 0.044835467 0.0083935009 -0.25019264 -0.4048202 0
0 0.043196093 0.0083701443 -0.25019264 -0.4048202 0
0 0.041565813 0.0083469367 -0.25019264 -0.4048202 0
0 0.039944541 0.008323878 -0.25019264 -0.4048202 0
0 0.038332202 0.0083009657 -0.25019264 -0.4048202 0
0 0.03672871 0.0082781995 -0.25019264 -0.4048202 0
0 0.035133984 0.0082555776 -0.25019264 -0.4048202 0
0 0.033547949 0.0082330992 -0.25019264 -0.4048202 0
0 0.031970523 0.0082107624 -0.25019264 -0.4048202 0
0 0.030401628 0.0081885662 -0.25019264 -0.4048202 0
0 0.02884119 0.0081665087 -0.25019264 -0.4048202 0
0 0.027289132 0.0081445901 -0.25019264 -0.4048202 0
0 0.025745379 0.0081228083 -0.25019264 -0.4048202 0
0 0.024209857 0.0081011616 -0.25019264 -0.4048202 0
0 0.022682495 0.0080796499 -0.25019264 -0.4048202 0
0 0.021163218 0.0080582714 -0.25019264 -0.4048202 0
0 0.019651957 0.0080370251 -0.25019264 -0.4048202 0
0 0.01814864 0.0080159102 -0.25019264 -0.4048202 0
0 0.016653199 0.0079949247 -0.25019264 -0.4048202 0
0 0.015165563 0.0079740686 -0.25019264 -0.4048202 0
0 0.013685664 0.0079533393 -0.25019264 -0.4048202 0
0 0.012213437 0.0079327375 -0.25019264 -0.4048202 0
0 0.010748814 0.0079122605 -0.25019264 -0.4048202 0
0 0.009291729 0.0078919083 -0.25019264 -0.4048202 0
0 0.007842117 0.007871679 -0.25019264 -0.4048202 0
0 0.0063999142 0.0078515727 -0.25019264 -0.4048202 0
0 0.0049650567 0.0078315875 -0.25019264 -0.4048202 0
0 0.0035374819 0.0078117219 -0.25019264 -0.4048202 0
0 0.0021171274 0.0077919764 -0.25019264 -0.4048202 0
0 0.00070393208 0.0077723488 -0.25019264 -0.4048202 0
0.00043471588 0 0.0077663092 -0.25019264 -0.4048202 0
0.0013054035 5.5511151e-17 0.0077737947 -0.25019264 -0.4048202 0
0.039999999 0.06066956 0.0089474823 -0.25019264 -0.4048202 0
0.0030518344 0 0.0077888649 -0.25019264 -0.4048202 0
0.0039275954 0 0.0077964505 -0.25019264 -0.4048202 0
0.039999999 0.055873524 0.0088811917 -0.25019264 -0.4048202 0
0.0056842561 0 0.0078117223 -0.25019264 -0.4048202 0
0.0065651741 0 0.0078194095 -0.25019264 -0.4048202 0
0.0074478295 0 0.0078271301 -0.25019264 -0.4048202 0
0.008332232 5.5511151e-17 0.0078348853 -0.25019264 -0.4048202 0
0.039999999 0.048035804 0.0087732831 -0.25019264 -0.4048202 0
0.010106315 0 0.007850498 -0.25019264 -0.4048202 0
0.010996015 0 0.0078583565 -0.25019264 -0.4048202 0
0.0118875 0 0.0078662494 -0.25019264 -0.4048202 0
0.01278078 0 0.0078741778 -0.25019264 -0.4048202 0
0.013675865 0 0.0078821406 -0.25019264 -0.4048202 0
0.014572763 0 0.0078901388 -0.25019264 -0.4048202 0
0.015471486 0 0.0078981724 -0.25019264 -0.4048202 0
0.016372044 0 0.0079062413 -0.25019264 -0.4048202 0
0.017274445 0 0.0079143466 -0.25019264 -0.4048202 0
0.018178701 0 0.0079224864 -0.25019264 -0.4048202 0
0.019084821 0 0.0079306634 -0.25019264 -0.4048202 0
0.019992815 5.5511151e-17 0.0079388758 -0.25019264 -0.4048202 0
0.020902693 0 0.0079471236 -0.25019264 -0.4048202 0
0.021814467 0 0.0079554087 -0.25019264 -0.4048202 0
0.022728147 0 0.007963731 -0.25019264 -0.4048202 0
0.023643741 0 0.0079720886 -0.25019264 -0.4048202 0
0.024561264 0 0.0079804836 -0.25019264 -0.4048202 0
0.025480721 0 0.0079889158 -0.25019264 -0.4048202 0
0.026402125 0 0.0079973852 -0.25019264 -0.4048202 0
0.039999999 0.018488515 0.0083715282 -0.25019264 -0.4048202 0
0.028250819 0 0.0080144359 -0.25019264 -0.4048202 0
0.029178131 0 0.0080230171 -0.25019264 -0.4048202 0
0.030107431 0 0.0080316365 -0.25019264 -0.4048202 0
0.031038733 0 0.0080402941 -0.25019264 -0.4048202 0
0.031972047 0 0.0080489898 -0.25019264 -0.4048202 0
0.032907385 0 0.0080577238 -0.25019264 -0.4048202 0
0.039999999 0.0087726694 0.0082413014 -0.25019264 -0.4048202 0
0.034784175 0 0.0080753062 -0.25019264 -0.4048202 0
0.035725649 0 0.0080841566 -0.25019264 -0.4048202 0
0.036669191 0 0.0080930451 -0.25019264 -0.4048202 0
0.037614811 0 0.0081019728 -0.25019264 -0.4048202 0
0.038562525 0 0.0081109395 -0.25019264 -0.4048202 0
0.03951234 0 0.0081199463 -0.25019264 -0.4048202 0
0 0.079670697 0.008047116 -0.25019264 -0.4048202 0
0 0.077830248 0.0080229919 -0.25019264 -0.4048202 0
0 0.076000795 0.0079990318 -0.25019264 -0.4048202 0
0 0.074182235 0.0079752337 -0.25019264 -0.4048202 0
0 0.072374456 0.0079515958 -0.25019264 -0.4048202 0
0 0.070577353 0.0079281172 -0.25019264 -0.4048202 0
0 0.068790831 0.007904795 -0.25019264 -0.4048202 0
0 0.067014784 0.0078816293 -0.25019264 -0.4048202 0
0 0.065249115 0.0078586172 -0.25019264 -0.4048202 0
0 0.063493721 0.0078357588 -0.25019264 -0.4048202 0
0 0.061748501 0.0078130513 -0.25019264 -0.4048202 0
0 0.060013365 0.0077904933 -0.25019264 -0.4048202 0
0 0.058288217 0.0077680843 -0.25019264 -0.4048202 0
0 0.056572963 0.0077458224 -0.25019264 -0.4048202 0
0 0.054867502 0.0077237063 -0.25019264 -0.4048202 0
0 0.053171754 0.007701735 -0.25019264 -0.4048202 0
0 0.051485617 0.0076799067 -0.25019264 -0.4048202 0
0 0.049809009 0.0076582199 -0.25019264 -0.4048202 0
0 0.048141841 0.0076366737 -0.25019264 -0.4048202 0
0 0.046484023 0.0076152668 -0.25019264 -0.4048202 0
0 0.044835467 0.0075939982 -0.25019264 -0.4048202 0
0 0.043196093 0.007572866 -0.25019264 -0.4048202 0
0 0.041565813 0.0075518689 -0.25019264 -0.4048202 0
0 0.039944541 0.0075310064 -0.25019264 -0.4048202 0
0 0.038332202 0.007510277 -0.25019264 -0.4048202 0
0 0.03672871 0.0074896794 -0.25019264 -0.4048202 0
0 0.035133984 0.0074692122 -0.25019264 -0.4048202 0
0 0.033547949 0.0074488749 -0.25019264 -0.4048202 0
0 0.031970523 0.0074286656 -0.25019264 -0.4048202 0
0 0.030401628 0.0074085835 -0.25019264 -0.4048202 0
0 0.02884119 0.0073886276 -0.25019264 -0.4048202 0
0 0.027289132 0.0073687965 -0.25019264 -0.4048202 0
0 0.025745379 0.0073490893 -0.25019264 -0.4048202 0
0 0.024209857 0.0073295049 -0.25019264 -0.4048202 0
0 0.022682495 0.0073100422 -0.25019264 -0.4048202 0
0 0.021163218 0.0072907 -0.25019264 -0.4048202 0
0 0.019651957 0.0072714775 -0.25019264 -0.4048202 0
0 0.01814864 0.0072523737 -0.25019264 -0.4048202 0
0 0.016653199 0.0072333873 -0.25019264 -0.4048202 0
0 0.015165563 0.0072145173 -0.25019264 -0.4048202 0
0 0.013685664 0.0071957628 -0.25019264 -0.4048202 0
0 0.012213437 0.0071771229 -0.25019264 -0.4048202 0
0 0.010748814 0.0071585965 -0.25019264 -0.4048202 0
0 0.009291729 0.0071401829 -0.25019264 -0.4048202 0
0 0.007842117 0.0071218805 -0.25019264 -0.4048202 0
0 0.0063999142 0.0071036895 -0.25019264 -0.4048202 0
0 0.0049650567 0.0070856079 -0.25019264 -0.4048202 0
0 0.0035374819 0.0070676347 -0.25019264 -0.4048202 0
0 0.0021171274 0.0070497696 -0.25019264 -0.4048202 0
0 0.00070393208 0.0070320121 -0.25019264 -0.4048202 0
0.00043471588 0 0.0070265476 -0.25019264 -0.4048202 0
0.0013054035 5.5511151e-17 0.0070333201 -0.25019264 -0.4048202 0
0.0021777733 0 0.0070401225 -0.25019264 -0.4048202 0
0.0030518344 5.5511151e-17 0.0070469552 -0.25019264 -0.4048202 0
0.0039275954 5.5511151e-17 0.0070538181 -0.25019264 -0.4048202 0
0.0048050666 0 0.0070607113 -0.25019264 -0.4048202 0
0.0056842561 0 0.0070676352 -0.25019264 -0.4048202 0
0.0065651741 0 0.0070745898 -0.25019264 -0.4048202 0
0.0074478295 0 0.0070815752 -0.25019264 -0.4048202 0
0.008332232 0 0.0070885913 -0.25019264 -0.4048202 0
0.0092183901 5.5511151e-17 0.0070956387 -0.25019264 -0.4048202 0
0.039999999 0.046491034 0.0079184193 -0.25019264 -0.4048202 0
0.010996015 0 0.0071098274 -0.25019264 -0.4048202 0
0.0118875 0 0.0071169687 -0.25019264 -0.4048202 0
0.01278078 5.5511151e-17 0.0071241413 -0.25019264 -0.4048202 0
0.013675865 0 0.007131346 -0.25019264 -0.4048202 0
0.014572763 5.5511151e-17 0.0071385824 -0.25019264 -0.4048202 0
0.015471486 5.5511151e-17 0.0071458505 -0.25019264 -0.4048202 0
0.016372044 0 0.0071531511 -0.25019264 -0.4048202 0
0.017274445 0 0.0071604839 -0.25019264 -0.4048202 0
0.018178701 0 0.0071678488 -0.25019264 -0.4048202 0
0.019084821 0 0.0071752463 -0.25019264 -0.4048202 0
0.039999999 0.029976863 0.0077145523 -0.25019264 -0.4048202 0
0.020902693 5.5511151e-17 0.0071901395 -0.25019264 -0.4048202 0
0.021814467 0 0.0071976352 -0.25019264 -0.4048202 0
0.022728147 0 0.0072051641 -0.25019264 -0.4048202 0
0.023643741 0 0.0072127264 -0.25019264 -0.4048202 0
0.024561264 5.5511151e-17 0.0072203218 -0.25019264 -0.4048202 0
0.025480721 0 0.0072279507 -0.25019264 -0.4048202 0
0.026402125 0 0.0072356132 -0.25019264 -0.4048202 0
0.027325489 0 0.0072433092 -0.25019264 -0.4048202 0
0.039999999 0.017081764 0.0075570038 -0.25019264 -0.4048202 0
0.039999999 0.015681351 0.0075399848 -0.25019264 -0.4048202 0
0.030107431 5.5511151e-17 0.007266602 -0.25019264 -0.4048202 0
0.031038733 5.5511151e-17 0.0072744349 -0.25019264 -0.4048202 0
0.031972047 0 0.0072823022 -0.25019264 -0.4048202 0
0.032907385 0 0.0072902041 -0.25019264 -0.4048202 0
0.033844758 0 0.0072981408 -0.25019264 -0.4048202 0
0.034784175 0 0.0073061124 -0.25019264 -0.4048202 0
0.035725649 0 0.007314119 -0.25019264 -0.4048202 0
0.039999999 0.0047004451 0.00740718 -0.25019264 -0.4048202 0
0.037614811 0 0.0073302384 -0.25019264 -0.4048202 0
0.038562525 0 0.0073383511 -0.25019264 -0.4048202 0
0.03951234 0 0.0073465002 -0.25019264 -0.4048202 0
0 0.079670697 0.0071999468 -0.25019264 -0.4048202 0
0 0.077830248 0.0071783629 -0.25019264 -0.4048202 0
0 0.076000795 0.0071569253 -0.25019264 -0.4048202 0
0 0.074182235 0.0071356324 -0.25019264 -0.4048202 0
0 0.072374456 0.007114483 -0.25019264 -0.4048202 0
0 0.070577353 0.0070934757 -0.25019264 -0.4048202 0
0 0.068790831 0.0070726089 -0.25019264 -0.4048202 0
0 0.067014784 0.0070518819 -0.25019264 -0.4048202 0
0 0.065249115 0.0070312927 -0.25019264 -0.4048202 0
0 0.063493721 0.0070108403 -0.25019264 -0.4048202 0
0 0.061748501 0.0069905231 -0.25019264 -0.4048202 0
0 0.060013365 0.0069703404 -0.25019264 -0.4048202 0
0 0.058288217 0.0069502904 -0.25019264 -0.4048202 0
0 0.056572963 0.0069303722 -0.25019264 -0.4048202 0
0 0.054867502 0.0069105849 -0.25019264 -0.4048202 0
0 0.053171754 0.006890926 -0.25019264 -0.4048202 0
0 0.051485617 0.0068713957 -0.25019264 -0.4048202 0
0 0.049809009 0.0068519921 -0.25019264 -0.4048202 0
0 0.048141841 0.0068327147 -0.25019264 -0.4048202 0
0 0.046484023 0.0068135611 -0.25019264 -0.4048202 0
0 0.044835467 0.0067945314 -0.25019264 -0.4048202 0
0 0.043196093 0.0067756241 -0.25019264 -0.4048202 0
0 0.041565813 0.0067568375 -0.25019264 -0.4048202 0
0 0.039944541 0.0067381714 -0.25019264 -0.4048202 0
0 0.038332202 0.0067196242 -0.25019264 -0.4048202 0
0 0.03672871 0.0067011951 -0.25019264 -0.4048202 0
0 0.035133984 0.0066828826 -0.25019264 -0.4048202 0
0 0.033547949 0.0066646859 -0.25019264 -0.4048202 0
0 0.031970523 0.0066466043 -0.25019264 -0.4048202 0
0 0.030401628 0.0066286367 -0.25019264 -0.4048202 0
0 0.02884119 0.0066107814 -0.25019264 -0.4048202 0
0 0.027289132 0.0065930383 -0.25019264 -0.4048202 0
0 0.025745379 0.0065754056 -0.25019264 -0.4048202 0
0 0.024209857 0.0065578832 -0.25019264 -0.4048202 0
0 0.022682495 0.0065404694 -0.25019264 -0.4048202 0
0 0.021163218 0.0065231635 -0.25019264 -0.4048202 0
0 0.019651957 0.0065059648 -0.25019264 -0.4048202 0
0 0.01814864 0.0064888718 -0.25019264 -0.4048202 0
0 0.016653199 0.0064718844 -0.25019264 -0.4048202 0
0 0.015165563 0.006455001 -0.25019264 -0.4048202 0
0 0.013685664 0.0064382209 -0.25019264 -0.4048202 0
0 0.012213437 0.0064215432 -0.25019264 -0.4048202 0
0 0.010748814 0.0064049675 -0.25019264 -0.4048202 0
0 0.009291729 0.006388492 -0.25019264 -0.4048202 0
0 0.007842117 0.006372117 -0.25019264 -0.4048202 0
0 0.0063999142 0.0063558407 -0.25019264 -0.4048202 0
0 0.0049650567 0.0063396622 -0.25019264 -0.4048202 0
0 0.0035374819 0.0063235816 -0.25019264 -0.4048202 0
0 0.0021171274 0.0063075973 -0.25019264 -0.4048202 0
0 0.00070393208 0.0062917089 -0.25019264 -0.4048202 0
0.00043471588 0 0.0062868199 -0.25019264 -0.4048202 0
0.0013054035 0 0.0062928796 -0.25019264 -0.4048202 0
0.0021777733 0 0.0062989658 -0.25019264 -0.4048202 0
0.039999999 0.059062943 0.0072249849 -0.25019264 -0.4048202 0
0.0039275954 0 0.0063112197 -0.25019264 -0.4048202 0
0.0048050666 5.5511151e-17 0.0063173869 -0.25019264 -0.4048202 0
0.0056842561 0 0.006323582 -0.25019264 -0.4048202 0
0.0065651741 0 0.0063298047 -0.25019264 -0.4048202 0
0.039999999 0.05114793 0.0071365978 -0.25019264 -0.4048202 0
0.008332232 0 0.0063423319 -0.25019264 -0.4048202 0
0.0092183901 0 0.0063486374 -0.25019264 -0.4048202 0
0.010106315 0 0.0063549709 -0.25019264 -0.4048202 0
0.010996015 5.5511151e-17 0.0063613323 -0.25019264 -0.4048202 0
0.0118875 0 0.0063677216 -0.25019264 -0.4048202 0
0.01278078 0 0.0063741393 -0.25019264 -0.4048202 0
0.039999999 0.040385805 0.0070171277 -0.25019264 -0.4048202 0
0.039999999 0.038877659 0.0070004533 -0.25019264 -0.4048202 0
0.015471486 0 0.0063935635 -0.25019264 -0.4048202 0
0.016372044 0 0.0064000953 -0.25019264 -0.4048202 0
0.039999999 0.034395874 0.0069510024 -0.25019264 -0.4048202 0
0.018178701 0 0.0064132456 -0.25019264 -0.4048202 0
0.019084821 0 0.0064198645 -0.25019264 -0.4048202 0
0.019992815 5.5511151e-17 0.0064265123 -0.25019264 -0.4048202 0
0.020902693 5.5511151e-17 0.0064331894 -0.25019264 -0.4048202 0
0.021814467 0 0.0064398963 -0.25019264 -0.4048202 0
0.022728147 0 0.0064466326 -0.25019264 -0.4048202 0
0.023643741 0 0.0064533986 -0.25019264 -0.4048202 0
0.024561264 0 0.006460194 -0.25019264 -0.4048202 0
0.025480721 0 0.0064670201 -0.25019264 -0.4048202 0
0.026402125 0 0.0064738756 -0.25019264 -0.4048202 0
0.039999999 0.018488515 0.006776744 -0.25019264 -0.4048202 0
0.028250819 0 0.0064876783 -0.25019264 -0.4048202 0
0.029178131 0 0.006494625 -0.25019264 -0.4048202 0
0.030107431 0 0.0065016025 -0.25019264 -0.4048202 0
0.031038733 0 0.0065086107 -0.25019264 -0.4048202 0
0.031972047 0 0.0065156496 -0.25019264 -0.4048202 0
0.032907385 0 0.0065227197 -0.25019264 -0.4048202 0
0.033844758 5.5511151e-17 0.0065298206 -0.25019264 -0.4048202 0
0.034784175 0 0.0065369532 -0.25019264 -0.4048202 0
0.035725649 0 0.0065441169 -0.25019264 -0.4048202 0
0.036669191 5.5511151e-17 0.0065513123 -0.25019264 -0.4048202 0
0.039999999 0.0033549222 0.0066128927 -0.25019264 -0.4048202 0
0.038562525 0 0.0065657981 -0.25019264 -0.4048202 0
0.03951234 0 0.0065730889 -0.25019264 -0.4048202 0
0 0.079670697 0.0063528125 -0.25019264 -0.4048202 0
0 0.077830248 0.0063337679 -0.25019264 -0.4048202 0
0 0.076000795 0.0063148527 -0.25019264 -0.4048202 0
0 0.074182235 0.0062960652 -0.25019264 -0.4048202 0
0 0.072374456 0.0062774043 -0.25019264 -0.4048202 0
0 0.070577353 0.0062588686 -0.25019264 -0.4048202 0
0 0.068790831 0.0062404573 -0.25019264 -0.4048202 0
0 0.067014784 0.0062221684 -0.25019264 -0.4048202 0
0 0.065249115 0.0062040021 -0.25019264 -0.4048202 0
0 0.063493721 0.0061859558 -0.25019264 -0.4048202 0
0 0.061748501 0.0061680293 -0.25019264 -0.4048202 0
0 0.060013365 0.0061502215 -0.25019264 -0.4048202 0
0 0.058288217 0.0061325305 -0.25019264 -0.4048202 0
0 0.056572963 0.006114956 -0.25019264 -0.4048202 0
0 0.054867502 0.0060974965 -0.25019264 -0.4048202 0
0 0.053171754 0.0060801506 -0.25019264 -0.4048202 0
0 0.051485617 0.0060629183 -0.25019264 -0.4048202 0
0 0.049809009 0.0060457978 -0.25019264 -0.4048202 0
0 0.048141841 0.0060287882 -0.25019264 -0.4048202 0
0 0.046484023 0.0060118884 -0.25019264 -0.4048202 0
0 0.044835467 0.0059950976 -0.25019264 -0.4048202 0
0 0.043196093 0.0059784148 -0.25019264 -0.4048202 0
0 0.041565813 0.0059618386 -0.25019264 -0.4048202 0
0 0.039944541 0.0059453687 -0.25019264 -0.4048202 0
0 0.038332202 0.0059290039 -0.25019264 -0.4048202 0
0 0.03672871 0.005912743 -0.25019264 -0.4048202 0
0 0.035133984 0.0058965851 -0.25019264 -0.4048202 0
0 0.033547949 0.0058805295 -0.25019264 -0.4048202 0
0 0.031970523 0.0058645755 -0.25019264 -0.4048202 0
0 0.030401628 0.0058487216 -0.25019264 -0.4048202 0
0 0.02884119 0.0058329673 -0.25019264 -0.4048202 0
0 0.027289132 0.0058173118 -0.25019264 -0.4048202 0
0 0.025745379 0.0058017541 -0.25019264 -0.4048202 0
0 0.024209857 0.0057862927 -0.25019264 -0.4048202 0
0 0.022682495 0.0057709282 -0.25019264 -0.4048202 0
0 0.021163218 0.0057556583 -0.25019264 -0.4048202 0
0 0.019651957 0.0057404833 -0.25019264 -0.4048202 0
0 0.01814864 0.0057254015 -0.25019264 -0.4048202 0
0 0.016653199 0.0057104127 -0.25019264 -0.4048202 0
0 0.015165563 0.0056955158 -0.25019264 -0.4048202 0
0 0.013685664 0.0056807101 -0.25019264 -0.4048202 0
0 0.012213437 0.0056659947 -0.25019264 -0.4048202 0
0 0.010748814 0.0056513692 -0.25019264 -0.4048202 0
0 0.009291729 0.0056368322 -0.25019264 -0.4048202 0
0 0.007842117 0.0056223837 -0.25019264 -0.4048202 0
0 0.0063999142 0.0056080222 -0.25019264 -0.4048202 0
0 0.0049650567 0.0055937478 -0.25019264 -0.4048202 0
0 0.0035374819 0.0055795591 -0.25019264 -0.4048202 0
0 0.0021171274 0.0055654556 -0.25019264 -0.4048202 0
0 0.00070393208 0.0055514365 -0.25019264 -0.4048202 0
0.00043471588 5.5511151e-17 0.005547123 -0.25019264 -0.4048202 0
0.0013054035 0 0.0055524693 -0.25019264 -0.4048202 0
0.0021777733 0 0.0055578393 -0.25019264 -0.4048202 0
0.0030518344 0 0.0055632335 -0.25019264 -0.4048202 0
0.0039275954 0 0.0055686515 -0.25019264 -0.4048202 0
0.0048050666 0 0.0055740932 -0.25019264 -0.4048202 0
0.0056842561 0 0.0055795596 -0.25019264 -0.4048202 0
0.0065651741 0 0.0055850497 -0.25019264 -0.4048202 0
0.0074478295 0 0.0055905641 -0.25019264 -0.4048202 0
0.008332232 0 0.0055961031 -0.25019264 -0.4048202 0
0.039999999 0.048035804 0.0062663583 -0.25019264 -0.4048202 0
0.010106315 5.5511151e-17 0.0056072553 -0.25019264 -0.4048202 0
0.010996015 0 0.0056128679 -0.25019264 -0.4048202 0
0.0118875 5.5511151e-17 0.0056185056 -0.25019264 -0.4048202 0
0.01278078 0 0.0056241686 -0.25019264 -0.4048202 0
0.013675865 0 0.0056298561 -0.25019264 -0.4048202 0
0.014572763 0 0.0056355689 -0.25019264 -0.4048202 0
0.015471486 0 0.0056413068 -0.25019264 -0.4048202 0
0.016372044 0 0.0056470702 -0.25019264 -0.4048202 0
0.017274445 0 0.0056528589 -0.25019264 -0.4048202 0
0.018178701 0 0.0056586731 -0.25019264 -0.4048202 0
0.019084821 0 0.0056645134 -0.25019264 -0.4048202 0
0.019992815 0 0.0056703789 -0.25019264 -0.4048202 0
0.020902693 0 0.0056762705 -0.25019264 -0.4048202 0
0.021814467 0 0.0056821881 -0.25019264 -0.4048202 0
0.022728147 0 0.0056881318 -0.25019264 -0.4048202 0
0.023643741 5.5511151e-17 0.005694102 -0.25019264 -0.4048202 0
0.024561264 0 0.0057000979 -0.25019264 -0.4048202 0
0.025480721 0 0.0057061207 -0.25019264 -0.4048202 0
0.026402125 0 0.0057121697 -0.25019264 -0.4048202 0
0.027325489 0 0.0057182456 -0.25019264 -0.4048202 0
0.028250819 0 0.0057243481 -0.25019264 -0.4048202 0
0.029178131 0 0.0057304776 -0.25019264 -0.4048202 0
0.030107431 5.5511151e-17 0.0057366341 -0.25019264 -0.4048202 0
0.039999999 0.012899348 0.005925809 -0.25019264 -0.4048202 0
0.039999999 0.01151766 0.0059125959 -0.25019264 -0.4048202 0
0.032907385 0 0.0057552666 -0.25019264 -0.4048202 0
0.033844758 0 0.0057615326 -0.25019264 -0.4048202 0
0.034784175 0 0.0057678255 -0.25019264 -0.4048202 0
0.035725649 5.5511151e-17 0.0057741464 -0.25019264 -0.4048202 0
0.036669191 5.5511151e-17 0.0057804952 -0.25019264 -0.4048202 0
0.039999999 0.0033549222 0.0058348305 -0.25019264 -0.4048202 0
0.038562525 0 0.0057932767 -0.25019264 -0.4048202 0
0.039999999 0.00068143167 0.0058094724 -0.25019264 -0.4048202 0
0 0.079670697 0.005505709 -0.25019264 -0.4048202 0
0 0.077830248 0.0054892036 -0.25019264 -0.4048202 0
0 0.076000795 0.0054728109 -0.25019264 -0.4048202 0
0 0.074182235 0.0054565286 -0.25019264 -0.4048202 0
0 0.072374456 0.0054403557 -0.25019264 -0.4048202 0
0 0.070577353 0.0054242918 -0.25019264 -0.4048202 0
0 0.068790831 0.0054083355 -0.25019264 -0.4048202 0
0 0.067014784 0.0053924853 -0.25019264 -0.4048202 0
0 0.065249115 0.0053767413 -0.25019264 -0.4048202 0
0 0.063493721 0.0053611016 -0.25019264 -0.4048202 0
0 0.061748501 0.0053455653 -0.25019264 -0.4048202 0
0 0.060013365 0.0053301319 -0.25019264 -0.4048202 0
0 0.058288217 0.0053148 -0.25019264 -0.4048202 0
0 0.056572963 0.0052995686 -0.25019264 -0.4048202 0
0 0.054867502 0.0052844374 -0.25019264 -0.4048202 0
0 0.053171754 0.0052694045 -0.25019264 -0.4048202 0
0 0.051485617 0.0052544698 -0.25019264 -0.4048202 0
0 0.049809009 0.0052396324 -0.25019264 -0.4048202 0
0 0.048141841 0.005224891 -0.25019264 -0.4048202 0
0 0.046484023 0.0052102446 -0.25019264 -0.4048202 0
0 0.044835467 0.0051956926 -0.25019264 -0.4048202 0
0 0.043196093 0.0051812343 -0.25019264 -0.4048202 0
0 0.041565813 0.0051668687 -0.25019264 -0.4048202 0
0 0.039944541 0.0051525948 -0.25019264 -0.4048202 0
0 0.038332202 0.0051384121 -0.25019264 -0.4048202 0
0 0.03672871 0.0051243193 -0.25019264 -0.4048202 0
0 0.035133984 0.0051103164 -0.25019264 -0.4048202 0
0 0.033547949 0.0050964016 -0.25019264 -0.4048202 0
0 0.031970523 0.0050825747 -0.25019264 -0.4048202 0
0 0.030401628 0.0050688349 -0.25019264 -0.4048202 0
0 0.02884119 0.0050551817 -0.25019264 -0.4048202 0
0 0.027289132 0.0050416132 -0.25019264 -0.4048202 0
0 0.025745379 0.00502813 -0.25019264 -0.4048202 0
0 0.024209857 0.0050147306 -0.25019264 -0.4048202 0
0 0.022682495 0.0050014146 -0.25019264 -0.4048202 0
0 0.021163218 0.0049881809 -0.25019264 -0.4048202 0
0 0.019651957 0.0049750293 -0.25019264 -0.4048202 0
0 0.01814864 0.0049619586 -0.25019264 -0.4048202 0
0 0.016653199 0.0049489685 -0.25019264 -0.4048202 0
0 0.015165563 0.0049360581 -0.25019264 -0.4048202 0
0 0.013685664 0.0049232268 -0.25019264 -0.4048202 0
0 0.012213437 0.0049104732 -0.25019264 -0.4048202 0
0 0.010748814 0.0048977979 -0.25019264 -0.4048202 0
0 0.009291729 0.0048851995 -0.25019264 -0.4048202 0
0 0.007842117 0.0048726778 -0.25019264 -0.4048202 0
0 0.0063999142 0.0048602312 -0.25019264 -0.4048202 0
0 0.0049650567 0.00484786 -0.25019264 -0.4048202 0
0 0.0035374819 0.0048355632 -0.25019264 -0.4048202 0
0 0.0021171274 0.0048233406 -0.25019264 -0.4048202 0
0 0.00070393208 0.004811191 -0.25019264 -0.4048202 0
0.00043471588 0 0.0048074522 -0.25019264 -0.4048202 0
0.0013054035 0 0.004812086 -0.25019264 -0.4048202 0
0.039999999 0.06066956 0.0055386145 -0.25019264 -0.4048202 0
0.039999999 0.059062943 0.0055248551 -0.25019264 -0.4048202 0
0.0039275954 0 0.0048261103 -0.25019264 -0.4048202 0
0.0048050666 5.5511151e-17 0.0048308265 -0.25019264 -0.4048202 0
0.0056842561 0 0.0048355637 -0.25019264 -0.4048202 0
0.0065651741 0 0.0048403218 -0.25019264 -0.4048202 0
0.0074478295 0 0.0048451014 -0.25019264 -0.4048202 0
0.008332232 5.5511151e-17 0.0048499014 -0.25019264 -0.4048202 0
0.0092183901 0 0.0048547233 -0.25019264 -0.4048202 0
0.010106315 0 0.0048595662 -0.25019264 -0.4048202 0
0.010996015 0 0.004864431 -0.25019264 -0.4048202 0
0.0118875 0 0.0048693167 -0.25019264 -0.4048202 0
0.039999999 0.041901156 0.0053787339 -0.25019264 -0.4048202 0
0.039999999 0.040385805 0.0053659091 -0.25019264 -0.4048202 0
0.014572763 0 0.0048841047 -0.25019264 -0.4048202 0
0.015471486 0 0.0048890775 -0.25019264 -0.4048202 0
0.016372044 0 0.0048940722 -0.25019264 -0.4048202 0
0.039999999 0.034395874 0.0053153443 -0.25019264 -0.4048202 0
0.018178701 0 0.0049041281 -0.25019264 -0.4048202 0
0.039999999 0.031442985 0.0052904934 -0.25019264 -0.4048202 0
0.039999999 0.029976863 0.0052781743 -0.25019264 -0.4048202 0
0.020902693 0 0.004919379 -0.25019264 -0.4048202 0
0.021814467 5.5511151e-17 0.0049245078 -0.25019264 -0.4048202 0
0.039999999 0.025619136 0.0052416334 -0.25019264 -0.4048202 0
0.023643741 0 0.0049348325 -0.25019264 -0.4048202 0
0.024561264 0 0.0049400292 -0.25019264 -0.4048202 0
0.025480721 0 0.0049452488 -0.25019264 -0.4048202 0
0.026402125 0 0.0049504912 -0.25019264 -0.4048202 0
0.027325489 0 0.0049557569 -0.25019264 -0.4048202 0
0.028250819 0 0.0049610459 -0.25019264 -0.4048202 0
0.029178131 0 0.0049663582 -0.25019264 -0.4048202 0
0.030107431 0 0.0049716937 -0.25019264 -0.4048202 0
0.031038733 0 0.0049770526 -0.25019264 -0.4048202 0
0.039999999 0.01151766 0.0051241922 -0.25019264 -0.4048202 0
0.032907385 5.5511151e-17 0.0049878415 -0.25019264 -0.4048202 0
0.033844758 0 0.004993272 -0.25019264 -0.4048202 0
0.034784175 0 0.0049987258 -0.25019264 -0.4048202 0
0.035725649 0 0.0050042039 -0.25019264 -0.4048202 0
0.036669191 5.5511151e-17 0.0050097061 -0.25019264 -0.4048202 0
0.037614811 5.5511151e-17 0.0050152326 -0.25019264 -0.4048202 0
0.038562525 0 0.0050207833 -0.25019264 -0.4048202 0
0.03951234 0 0.0050263586 -0.25019264 -0.4048202 0
0 0.079670697 0.0046586315 -0.25019264 -0.4048202 0
0 0.077830248 0.0046446663 -0.25019264 -0.4048202 0
0 0.076000795 0.0046307952 -0.25019264 -0.4048202 0
0 0.074182235 0.0046170182 -0.25019264 -0.4048202 0
0 0.072374456 0.0046033333 -0.25019264 -0.4048202 0
0 0.070577353 0.0045897411 -0.25019264 -0.4048202 0
0 0.068790831 0.0045762397 -0.25019264 -0.4048202 0
0 0.067014784 0.0045628282 -0.25019264 -0.4048202 0
0 0.065249115 0.0045495061 -0.25019264 -0.4048202 0
0 0.063493721 0.004536273 -0.25019264 -0.4048202 0
0 0.061748501 0.0045231269 -0.25019264 -0.4048202 0
0 0.060013365 0.0045100679 -0.25019264 -0.4048202 0
0 0.058288217 0.004497095 -0.25019264 -0.4048202 0
0 0.056572963 0.0044842074 -0.25019264 -0.4048202 0
0 0.054867502 0.0044714035 -0.25019264 -0.4048202 0
0 0.053171754 0.004458684 -0.25019264 -0.4048202 0
0 0.051485617 0.0044460469 -0.25019264 -0.4048202 0
0 0.049809009 0.0044334922 -0.25019264 -0.4048202 0
0 0.048141841 0.004421019 -0.25019264 -0.4048202 0
0 0.046484023 0.0044086259 -0.25019264 -0.4048202 0
0 0.044835467 0.0043963129 -0.25019264 -0.4048202 0
0 0.043196093 0.004384079 -0.25019264 -0.4048202 0
0 0.041565813 0.0043719239 -0.25019264 -0.4048202 0
0 0.039944541 0.004359846 -0.25019264 -0.4048202 0
0 0.038332202 0.0043478454 -0.25019264 -0.4048202 0
0 0.03672871 0.0043359208 -0.25019264 -0.4048202 0
0 0.035133984 0.004324072 -0.25019264 -0.4048202 0
0 0.033547949 0.0043122983 -0.25019264 -0.4048202 0
0 0.031970523 0.004300599 -0.25019264 -0.4048202 0
0 0.030401628 0.0042889728 -0.25019264 -0.4048202 0
0 0.02884119 0.0042774198 -0.25019264 -0.4048202 0
0 0.027289132 0.0042659394 -0.25019264 -0.4048202 0
0 0.025745379 0.0042545306 -0.25019264 -0.4048202 0
0 0.024209857 0.0042431927 -0.25019264 -0.4048202 0
0 0.022682495 0.0042319256 -0.25019264 -0.4048202 0
0 0.021163218 0.0042207278 -0.25019264 -0.4048202 0
0 0.019651957 0.0042095995 -0.25019264 -0.4048202 0
0 0.01814864 0.00419854 -0.25019264 -0.4048202 0
0 0.016653199 0.0041875485 -0.25019264 -0.4048202 0
0 0.015165563 0.0041766241 -0.25019264 -0.4048202 0
0 0.013685664 0.0041657668 -0.25019264 -0.4048202 0
0 0.012213437 0.004154976 -0.25019264 -0.4048202 0
0 0.010748814 0.0041442509 -0.25019264 -0.4048202 0
0 0.009291729 0.0041335905 -0.25019264 -0.4048202 0
0 0.007842117 0.0041229953 -0.25019264 -0.4048202 0
0 0.0063999142 0.0041124639 -0.25019264 -0.4048202 0
0 0.0049650567 0.0041019958 -0.25019264 -0.4048202 0
0 0.0035374819 0.0040915911 -0.25019264 -0.4048202 0
0 0.0021171274 0.0040812488 -0.25019264 -0.4048202 0
0 0.00070393208 0.0040709684 -0.25019264 -0.4048202 0
0.00043471588 0 0.0040678051 -0.25019264 -0.4048202 0
0.0013054035 0 0.0040717255 -0.25019264 -0.4048202 0
0.0021777733 0 0.0040756636 -0.25019264 -0.4048202 0
0.0030518344 5.5511151e-17 0.004079619 -0.25019264 -0.4048202 0
0.0039275954 5.5511151e-17 0.0040835924 -0.25019264 -0.4048202 0
0.0048050666 5.5511151e-17 0.0040875832 -0.25019264 -0.4048202 0
0.0056842561 0 0.0040915911 -0.25019264 -0.4048202 0
0.0065651741 0 0.0040956177 -0.25019264 -0.4048202 0
0.0074478295 5.5511151e-17 0.0040996615 -0.25019264 -0.4048202 0
0.039999999 0.04958808 0.0046064053 -0.25019264 -0.4048202 0
0.039999999 0.048035804 0.0045952336 -0.25019264 -0.4048202 0
0.010106315 0 0.0041119009 -0.25019264 -0.4048202 0
0.010996015 0 0.0041160169 -0.25019264 -0.4048202 0
0.0118875 0 0.0041201515 -0.25019264 -0.4048202 0
0.039999999 0.041901156 0.0045511923 -0.25019264 -0.4048202 0
0.013675865 0 0.0041284747 -0.25019264 -0.4048202 0
0.014572763 0 0.0041326638 -0.25019264 -0.4048202 0
0.039999999 0.037376661 0.0045188251 -0.25019264 -0.4048202 0
0.016372044 0 0.0041410984 -0.25019264 -0.4048202 0
0.017274445 5.5511151e-17 0.0041453433 -0.25019264 -0.4048202 0
0.018178701 0 0.0041496069 -0.25019264 -0.4048202 0
0.019084821 0 0.0041538896 -0.25019264 -0.4048202 0
0.039999999 0.029976863 0.0044661043 -0.25019264 -0.4048202 0
0.020902693 0 0.0041625113 -0.25019264 -0.4048202 0
0.021814467 0 0.0041668508 -0.25019264 -0.4048202 0
0.022728147 5.5511151e-17 0.0041712094 -0.25019264 -0.4048202 0
0.023643741 0 0.0041755876 -0.25019264 -0.4048202 0
0.024561264 0 0.0041799843 -0.25019264 -0.4048202 0
0.025480721 0 0.0041844011 -0.25019264 -0.4048202 0
0.026402125 0 0.004188837 -0.25019264 -0.4048202 0
0.027325489 0 0.0041932925 -0.25019264 -0.4048202 0
0.028250819 0 0.0041977675 -0.25019264 -0.4048202 0
0.039999999 0.015681351 0.0043650437 -0.25019264 -0.4048202 0
0.030107431 0 0.0042067771 -0.25019264 -0.4048202 0
0.031038733 0 0.0042113117 -0.25019264 -0.4048202 0
0.031972047 0 0.0042158663 -0.25019264 -0.4048202 0
0.032907385 0 0.0042204405 -0.25019264 -0.4048202 0
0.039999999 0.0087726694 0.004316594 -0.25019264 -0.4048202 0
0.039999999 0.0074092732 0.0043070642 -0.25019264 -0.4048202 0
0.035725649 0 0.0042342856 -0.25019264 -0.4048202 0
0.036669191 0 0.0042389412 -0.25019264 -0.4048202 0
0.037614811 0 0.0042436174 -0.25019264 -0.4048202 0
0.039999999 0.0020152659 0.004269463 -0.25019264 -0.4048202 0
0.03951234 0 0.0042530317 -0.25019264 -0.4048202 0
0 0.079670697 0.0038115771 -0.25019264 -0.4048202 0
0 0.077830248 0.0038001507 -0.25019264 -0.4048202 0
0 0.076000795 0.0037888018 -0.25019264 -0.4048202 0
0 0.074182235 0.0037775298 -0.25019264 -0.4048202 0
0 0.072374456 0.0037663335 -0.25019264 -0.4048202 0
0 0.070577353 0.0037552125 -0.25019264 -0.4048202 0
0 0.068790831 0.0037441659 -0.25019264 -0.4048202 0
0 0.067014784 0.003733193 -0.25019264 -0.4048202 0
0 0.065249115 0.0037222933 -0.25019264 -0.4048202 0
0 0.063493721 0.003711466 -0.25019264 -0.4048202 0
0 0.061748501 0.0037007104 -0.25019264 -0.4048202 0
0 0.060013365 0.003690026 -0.25019264 -0.4048202 0
0 0.058288217 0.0036794117 -0.25019264 -0.4048202 0
0 0.056572963 0.0036688673 -0.25019264 -0.4048202 0
0 0.054867502 0.0036583918 -0.25019264 -0.4048202 0
0 0.053171754 0.0036479849 -0.25019264 -0.4048202 0
0 0.051485617 0.0036376456 -0.25019264 -0.4048202 0
0 0.049809009 0.0036273736 -0.25019264 -0.4048202 0
0 0.048141841 0.0036171682 -0.25019264 -0.4048202 0
0 0.046484023 0.0036070286 -0.25019264 -0.4048202 0
0 0.044835467 0.0035969545 -0.25019264 -0.4048202 0
0 0.043196093 0.0035869449 -0.25019264 -0.4048202 0
0 0.041565813 0.0035769998 -0.25019264 -0.4048202 0
0 0.039944541 0.003567118 -0.25019264 -0.4048202 0
0 0.038332202 0.0035572993 -0.25019264 -0.4048202 0
0 0.03672871 0.0035475432 -0.25019264 -0.4048202 0
0 0.035133984 0.0035378488 -0.25019264 -0.4048202 0
0 0.033547949 0.0035282157 -0.25019264 -0.4048202 0
0 0.031970523 0.0035186433 -0.25019264 -0.4048202 0
0 0.030401628 0.0035091315 -0.25019264 -0.4048202 0
0 0.02884119 0.003499679 -0.25019264 -0.4048202 0
0 0.027289132 0.0034902859 -0.25019264 -0.4048202 0
0 0.025745379 0.0034809515 -0.25019264 -0.4048202 0
0 0.024209857 0.0034716753 -0.25019264 -0.4048202 0
0 0.022682495 0.0034624566 -0.25019264 -0.4048202 0
0 0.021163218 0.003453295 -0.25019264 -0.4048202 0
0 0.019651957 0.0034441901 -0.25019264 -0.4048202 0
0 0.01814864 0.0034351414 -0.25019264 -0.4048202 0
0 0.016653199 0.0034261483 -0.25019264 -0.4048202 0
0 0.015165563 0.0034172104 -0.25019264 -0.4048202 0
0 0.013685664 0.0034083272 -0.25019264 -0.4048202 0
0 0.012213437 0.0033994983 -0.25019264 -0.4048202 0
0 0.010748814 0.0033907234 -0.25019264 -0.4048202 0
0 0.009291729 0.0033820015 -0.25019264 -0.4048202 0
0 0.007842117 0.0033733326 -0.25019264 -0.4048202 0
0 0.0063999142 0.003364716 -0.25019264 -0.4048202 0
0 0.0049650567 0.0033561515 -0.25019264 -0.4048202 0
0 0.0035374819 0.0033476385 -0.25019264 -0.4048202 0
0 0.0021171274 0.0033391765 -0.25019264 -0.4048202 0
0 0.00070393208 0.0033307655 -0.25019264 -0.4048202 0
0.00043471588 0 0.0033281774 -0.25019264 -0.4048202 0
0.039999999 0.062284201 0.0038439401 -0.25019264 -0.4048202 0
0.0021777733 0 0.003334607 -0.25019264 -0.4048202 0
0.0030518344 0 0.0033378433 -0.25019264 -0.4048202 0
0.0039275954 0 0.0033410941 -0.25019264 -0.4048202 0
0.0048050666 0 0.0033443591 -0.25019264 -0.4048202 0
0.0056842561 5.5511151e-17 0.0033476388 -0.25019264 -0.4048202 0
0.0065651741 0 0.0033509328 -0.25019264 -0.4048202 0
0.0074478295 0 0.0033542414 -0.25019264 -0.4048202 0
0.008332232 0 0.0033575648 -0.25019264 -0.4048202 0
0.0092183901 0 0.0033609029 -0.25019264 -0.4048202 0
0.010106315 0 0.0033642557 -0.25019264 -0.4048202 0
0.010996015 0 0.0033676233 -0.25019264 -0.4048202 0
0.0118875 0 0.0033710059 -0.25019264 -0.4048202 0
0.01278078 5.5511151e-17 0.0033744033 -0.25019264 -0.4048202 0
0.013675865 0 0.0033778157 -0.25019264 -0.4048202 0
0.014572763 0 0.0033812434 -0.25019264 -0.4048202 0
0.015471486 0 0.0033846861 -0.25019264 -0.4048202 0
0.016372044 0 0.0033881441 -0.25019264 -0.4048202 0
0.017274445 0 0.0033916172 -0.25019264 -0.4048202 0
0.039999999 0.032915968 0.0036711621 -0.25019264 -0.4048202 0
0.019084821 0 0.0033986096 -0.25019264 -0.4048202 0
0.019992815 0 0.0034021288 -0.25019264 -0.4048202 0
0.039999999 0.028517552 0.0036455756 -0.25019264 -0.4048202 0
0.021814467 0 0.0034092143 -0.25019264 -0.4048202 0
0.022728147 0 0.0034127804 -0.25019264 -0.4048202 0
0.023643741 0 0.0034163622 -0.25019264 -0.4048202 0
0.024561264 0 0.0034199597 -0.25019264 -0.4048202 0
0.025480721 0 0.0034235732 -0.25019264 -0.4048202 0
0.026402125 0 0.0034272026 -0.25019264 -0.4048202 0
0.039999999 0.018488515 0.0035875381 -0.25019264 -0.4048202 0
0.028250819 0 0.0034345095 -0.25019264 -0.4048202 0
0.029178131 0 0.0034381871 -0.25019264 -0.4048202 0
0.030107431 0 0.0034418809 -0.25019264 -0.4048202 0
0.031038733 0 0.0034455908 -0.25019264 -0.4048202 0
0.031972047 5.5511151e-17 0.0034493173 -0.25019264 -0.4048202 0
0.032907385 0 0.0034530601 -0.25019264 -0.4048202 0
0.033844758 0 0.0034568193 -0.25019264 -0.4048202 0
0.034784175 5.5511151e-17 0.0034605952 -0.25019264 -0.4048202 0
0.036669191 5.5511151e-17 0.0034681968 -0.25019264 -0.4048202 0
0.037614811 5.5511151e-17 0.0034720227 -0.25019264 -0.4048202 0
0.038562525 0 0.0034758653 -0.25019264 -0.4048202 0
0.03951234 0 0.0034797252 -0.25019264 -0.4048202 0
0 0.079670697 0.0029645409 -0.25019264 -0.4048202 0
0 0.077830248 0.0029556539 -0.25019264 -0.4048202 0
0 0.076000795 0.0029468271 -0.25019264 -0.4048202 0
0 0.074182235 0.0029380599 -0.25019264 -0.4048202 0
0 0.072374456 0.0029293515 -0.25019264 -0.4048202 0
0 0.070577353 0.0029207021 -0.25019264 -0.4048202 0
