# .PCD v0.7 - Point Cloud Data file format
VERSION 0.7
FIELDS x y z vp_x vp_y vp_z
SIZE 4 4 4 4 4 4
TYPE F F F F F F
COUNT 1 1 1 1 1 1
WIDTH 676
HEIGHT 1
VIEWPOINT 0 0 0 1 0 0 0
POINTS 676
DATA ascii
0.039910063 0.058340602 0.063163452 0.38593423 -0.23852047 -0.14741376
0.039962906 0.059315577 0.06339705 0.38593423 -0.23852047 -0.14741376
0.039982557 0.06032183 0.063651741 0.38593423 -0.23852047 -0.14741376
0.039924201 0.061398525 0.063954979 0.38593423 -0.23852047 -0.14741376
0.039825164 0.06251391 0.064284123 0.38593423 -0.23852047 -0.14741376
0.039627589 0.063718855 0.064674713 0.38593423 -0.23852047 -0.14741376
0.039334714 0.065011442 0.065124989 0.38593423 -0.23852047 -0.14741376
0.038952619 0.066387206 0.065631464 0.38593423 -0.23852047 -0.14741376
0.038311217 0.067996949 0.066298909 0.38593423 -0.23852047 -0.14741376
0.037362929 0.06988515 0.067157246 0.38593423 -0.23852047 -0.14741376
0.035520706 0.072575808 0.068569049 0.38593423 -0.23852047 -0.14741376
0.011390971 0.041978568 0.06913045 0.38593423 -0.23852047 -0.14741376
0.014154709 0.040895689 0.067782283 0.38593423 -0.23852047 -0.14741376
0.0161153 0.040406365 0.06689661 0.38593423 -0.23852047 -0.14741376
0.017749175 0.040156368 0.06619864 0.38593423 -0.23852047 -0.14741376
0.019213002 0.040029299 0.065598018 0.38593423 -0.23852047 -0.14741376
0.020503117 0.040029299 0.065097228 0.38593423 -0.23852047 -0.14741376
0.02169971 0.040096413 0.064649917 0.38593423 -0.23852047 -0.14741376
0.02281986 0.040218271 0.064246334 0.38593423 -0.23852047 -0.14741376
0.023857286 0.04040033 0.063890293 0.38593423 -0.23852047 -0.14741376
0.024845006 0.040617723 0.063562661 0.38593423 -0.23852047 -0.14741376
0.025779551 0.040873539 0.063265577 0.38593423 -0.23852047 -0.14741376
0.026658848 0.041169822 0.063000366 0.38593423 -0.23852047 -0.14741376
0.027522661 0.041475955 0.062743813 0.38593423 -0.23852047 -0.14741376
0.028309723 0.041840091 0.062531933 0.38593423 -0.23852047 -0.14741376
0.029095387 0.042203583 0.062320583 0.38593423 -0.23852047 -0.14741376
0.029828548 0.042606778 0.062139843 0.38593423 -0.23852047 -0.14741376
0.030533457 0.043030903 0.061975535 0.38593423 -0.23852047 -0.14741376
0.031236038 0.043455582 0.061812431 0.38593423 -0.23852047 -0.14741376
0.031867553 0.043935664 0.061691124 0.38593423 -0.23852047 -0.14741376
0.032498498 0.044415314 0.061570082 0.38593423 -0.23852047 -0.14741376
0.033109523 0.044910081 0.061460767 0.38593423 -0.23852047 -0.14741376
0.033672199 0.045443051 0.06138007 0.38593423 -0.23852047 -0.14741376
0.034234591 0.045975752 0.06129957 0.38593423 -0.23852047 -0.14741376
0.034764685 0.046534173 0.061238293 0.38593423 -0.23852047 -0.14741376
0.035261672 0.047119249 0.061196785 0.38593423 -0.23852047 -0.14741376
0.035758603 0.047704257 0.061155442 0.38593423 -0.23852047 -0.14741376
0.036212202 0.048324689 0.061140068 0.38593423 -0.23852047 -0.14741376
0.036644705 0.048962627 0.061137483 0.38593423 -0.23852047 -0.14741376
0.037077319 0.049600728 0.061135054 0.38593423 -0.23852047 -0.14741376
0.037453573 0.050285812 0.061166588 0.38593423 -0.23852047 -0.14741376
0.037820999 0.050978832 0.061203726 0.38593423 -0.23852047 -0.14741376
0.038181737 0.051678091 0.061245203 0.38593423 -0.23852047 -0.14741376
0.038481113 0.052429438 0.061323885 0.38593423 -0.23852047 -0.14741376
0.038780805 0.053181585 0.061402809 0.38593423 -0.23852047 -0.14741376
0.039049435 0.05396099 0.061500873 0.38593423 -0.23852047 -0.14741376
0.039276041 0.054777216 0.061624762 0.38593423 -0.23852047 -0.14741376
0.03950299 0.055594668 0.061749 0.38593423 -0.23852047 -0.14741376
0.039659198 0.056473915 0.061916552 0.38593423 -0.23852047 -0.14741376
0.039805129 0.057363901 0.062090993 0.38593423 -0.23852047 -0.14741376
0.0399075 0.058293283 0.062292516 0.38593423 -0.23852047 -0.14741376
0.039960306 0.059267621 0.06252487 0.38593423 -0.23852047 -0.14741376
0.039985448 0.060268458 0.062774867 0.38593423 -0.23852047 -0.14741376
0.039927136 0.061344415 0.063076518 0.38593423 -0.23852047 -0.14741376
0.039835162 0.062452938 0.063399687 0.38593423 -0.23852047 -0.14741376
0.039637733 0.063657008 0.063788243 0.38593423 -0.23852047 -0.14741376
0.039354429 0.064940438 0.064230487 0.38593423 -0.23852047 -0.14741376
0.038972829 0.066314943 0.064734228 0.38593423 -0.23852047 -0.14741376
0.038345195 0.06791167 0.06539014 0.38593423 -0.23852047 -0.14741376
0.037419036 0.069779322 0.06623099 0.38593423 -0.23852047 -0.14741376
0.035718258 0.072343238 0.067549735 0.38593423 -0.23852047 -0.14741376
0.011294062 0.042023402 0.068297043 0.38593423 -0.23852047 -0.14741376
0.014086868 0.040918548 0.066937491 0.38593423 -0.23852047 -0.14741376
0.016061807 0.040418137 0.066046998 0.38593423 -0.23852047 -0.14741376
0.01770437 0.040161241 0.065346681 0.38593423 -0.23852047 -0.14741376
0.019174142 0.040029299 0.064744897 0.38593423 -0.23852047 -0.14741376
0.020463748 0.040029299 0.064246252 0.38593423 -0.23852047 -0.14741376
0.021664795 0.040092614 0.063798003 0.38593423 -0.23852047 -0.14741376
0.022784477 0.040214423 0.063396141 0.38593423 -0.23852047 -0.14741376
0.023825461 0.040393326 0.06303928 0.38593423 -0.23852047 -0.14741376
0.024812749 0.040610623 0.062713042 0.38593423 -0.23852047 -0.14741376
0.025750294 0.040863682 0.062415216 0.38593423 -0.23852047 -0.14741376
0.026629193 0.041159831 0.062151108 0.38593423 -0.23852047 -0.14741376
0.027495647 0.041463457 0.061893858 0.38593423 -0.23852047 -0.14741376
0.028282341 0.041827422 0.061682839 0.38593423 -0.23852047 -0.14741376
0.029067637 0.042190742 0.061472349 0.38593423 -0.23852047 -0.14741376
0.029803239 0.042591549 0.0612907 0.38593423 -0.23852047 -0.14741376
0.030507809 0.043015469 0.061127037 0.38593423 -0.23852047 -0.14741376
0.031211449 0.043438829 0.06096375 0.38593423 -0.23852047 -0.14741376
0.031843901 0.043917682 0.060842156 0.38593423 -0.23852047 -0.14741376
0.032474536 0.044397097 0.060721565 0.38593423 -0.23852047 -0.14741376
0.033087842 0.044889543 0.060611118 0.38593423 -0.23852047 -0.14741376
0.033650231 0.045422241 0.060530681 0.38593423 -0.23852047 -0.14741376
0.034212332 0.045954671 0.060450442 0.38593423 -0.23852047 -0.14741376
0.034744747 0.0465107 0.060387798 0.38593423 -0.23852047 -0.14741376
0.035241477 0.047095474 0.060346369 0.38593423 -0.23852047 -0.14741376
0.035738144 0.047680173 0.0603051 0.38593423 -0.23852047 -0.14741376
0.036194172 0.048298094 0.060288094 0.38593423 -0.23852047 -0.14741376
0.03662644 0.048935685 0.060285404 0.38593423 -0.23852047 -0.14741376
0.037058823 0.049573444 0.060282867 0.38593423 -0.23852047 -0.14741376
0.037437674 0.050255828 0.060312461 0.38593423 -0.23852047 -0.14741376
0.037804898 0.050948463 0.060349301 0.38593423 -0.23852047 -0.14741376
0.038168471 0.051644798 0.060388647 0.38593423 -0.23852047 -0.14741376
0.038467672 0.052395713 0.060466837 0.38593423 -0.23852047 -0.14741376
0.038767193 0.053147424 0.060545262 0.38593423 -0.23852047 -0.14741376
0.039039034 0.05392354 0.060640723 0.38593423 -0.23852047 -0.14741376
0.03926551 0.054739278 0.060763899 0.38593423 -0.23852047 -0.14741376
0.039492324 0.055556241 0.060887422 0.38593423 -0.23852047 -0.14741376
0.039652277 0.056431681 0.061051741 0.38593423 -0.23852047 -0.14741376
0.039798114 0.057321116 0.061225224 0.38593423 -0.23852047 -0.14741376
0.039904937 0.058246035 0.061422933 0.38593423 -0.23852047 -0.14741376
0.03995771 0.05921974 0.061654042 0.38593423 -0.23852047 -0.14741376
0.039988339 0.060215171 0.061899383 0.38593423 -0.23852047 -0.14741376
0.039930064 0.061290387 0.062199451 0.38593423 -0.23852047 -0.14741376
0.039845143 0.062392067 0.062516689 0.38593423 -0.23852047 -0.14741376
0.039647859 0.063595258 0.062903225 0.38593423 -0.23852047 -0.14741376
0.039374109 0.064869545 0.063337497 0.38593423 -0.23852047 -0.14741376
0.038992811 0.066242963 0.063838623 0.38593423 -0.23852047 -0.14741376
0.038379114 0.067826547 0.064482972 0.38593423 -0.23852047 -0.14741376
0.037475035 0.069673702 0.0653065 0.38593423 -0.23852047 -0.14741376
0.035915274 0.072111301 0.066533178 0.38593423 -0.23852047 -0.14741376
0.011197248 0.042068195 0.067464449 0.38593423 -0.23852047 -0.14741376
0.014019103 0.040941384 0.066093661 0.38593423 -0.23852047 -0.14741376
0.016008379 0.040429898 0.065198414 0.38593423 -0.23852047 -0.14741376
0.017659621 0.04016611 0.064495802 0.38593423 -0.23852047 -0.14741376
0.01913533 0.040029299 0.063892879 0.38593423 -0.23852047 -0.14741376
0.020424429 0.040029299 0.063396379 0.38593423 -0.23852047 -0.14741376
0.021629924 0.040088821 0.062947206 0.38593423 -0.23852047 -0.14741376
0.022749141 0.040210579 0.062547065 0.38593423 -0.23852047 -0.14741376
0.023793677 0.04038633 0.062189415 0.38593423 -0.23852047 -0.14741376
0.024780536 0.040603533 0.061864555 0.38593423 -0.23852047 -0.14741376
0.025721079 0.040853836 0.061566006 0.38593423 -0.23852047 -0.14741376
0.026599579 0.041149851 0.061303005 0.38593423 -0.23852047 -0.14741376
0.027468668 0.041450974 0.061045062 0.38593423 -0.23852047 -0.14741376
0.028254993 0.041814771 0.060834903 0.38593423 -0.23852047 -0.14741376
0.029039923 0.042177923 0.060625274 0.38593423 -0.23852047 -0.14741376
0.029777963 0.042576343 0.060442727 0.38593423 -0.23852047 -0.14741376
0.030482193 0.043000057 0.060279712 0.38593423 -0.23852047 -0.14741376
0.031185497 0.043423217 0.060117066 0.38593423 -0.23852047 -0.14741376
0.031820282 0.04389973 0.059994377 0.38593423 -0.23852047 -0.14741376
0.032450605 0.044378903 0.059874229 0.38593423 -0.23852047 -0.14741376
0.033066187 0.044869032 0.059762664 0.38593423 -0.23852047 -0.14741376
0.033628289 0.045401458 0.059682488 0.38593423 -0.23852047 -0.14741376
0.034190107 0.045933619 0.059602506 0.38593423 -0.23852047 -0.14741376
0.034724839 0.046487264 0.059538513 0.38593423 -0.23852047 -0.14741376
0.035221308 0.047071729 0.059497163 0.38593423 -0.23852047 -0.14741376
0.035717718 0.047656126 0.059455968 0.38593423 -0.23852047 -0.14741376
0.036176164 0.048271537 0.059437349 0.38593423 -0.23852047 -0.14741376
0.036608201 0.048908781 0.059434552 0.38593423 -0.23852047 -0.14741376
0.037040349 0.049546197 0.059431907 0.38593423 -0.23852047 -0.14741376
0.0374218 0.050225887 0.059459578 0.38593423 -0.23852047 -0.14741376
0.03778882 0.050918136 0.059496123 0.38593423 -0.23852047 -0.14741376
0.038155224 0.05161155 0.059533354 0.38593423 -0.23852047 -0.14741376
0.038454253 0.052362036 0.059611049 0.38593423 -0.23852047 -0.14741376
0.038753603 0.053113315 0.059688982 0.38593423 -0.23852047 -0.14741376
0.039028652 0.053886142 0.059781853 0.38593423 -0.23852047 -0.14741376
0.039254993 0.054701395 0.059904322 0.38593423 -0.23852047 -0.14741376
0.03948167 0.055517871 0.06002713 0.38593423 -0.23852047 -0.14741376
0.039645363 0.056389514 0.060188245 0.38593423 -0.23852047 -0.14741376
0.039791111 0.057278395 0.060360771 0.38593423 -0.23852047 -0.14741376
0.039902382 0.058198862 0.060554691 0.38593423 -0.23852047 -0.14741376
0.039955121 0.059171934 0.060784563 0.38593423 -0.23852047 -0.14741376
0.039991222 0.060161971 0.061025288 0.38593423 -0.23852047 -0.14741376
0.039932985 0.061236449 0.061323773 0.38593423 -0.23852047 -0.14741376
0.039855108 0.062331297 0.061635125 0.38593423 -0.23852047 -0.14741376
0.039657965 0.063533604 0.06201965 0.38593423 -0.23852047 -0.14741376
0.039393757 0.06479878 0.062446017 0.38593423 -0.23852047 -0.14741376
0.03901276 0.06617111 0.062944539 0.38593423 -0.23852047 -0.14741376
0.038412973 0.067741565 0.063577421 0.38593423 -0.23852047 -0.14741376
0.037530929 0.069568284 0.06438376 0.38593423 -0.23852047 -0.14741376
0.03601557 0.071965337 0.065577924 0.38593423 -0.23852047 -0.14741376
0.011100529 0.042112939 0.066632673 0.38593423 -0.23852047 -0.14741376
0.013951414 0.04096419 0.065250792 0.38593423 -0.23852047 -0.14741376
0.015955018 0.04044164 0.064350858 0.38593423 -0.23852047 -0.14741376
0.017614927 0.040170971 0.063645996 0.38593423 -0.23852047 -0.14741376
0.01909657 0.040029299 0.063041963 0.38593423 -0.23852047 -0.14741376
0.020385161 0.040029299 0.062547602 0.38593423 -0.23852047 -0.14741376
0.0215951 0.040085033 0.062097527 0.38593423 -0.23852047 -0.14741376
0.022713849 0.040206738 0.0616991 0.38593423 -0.23852047 -0.14741376
0.023761937 0.040379345 0.061340675 0.38593423 -0.23852047 -0.14741376
0.024748364 0.040596452 0.061017197 0.38593423 -0.23852047 -0.14741376
0.0256919 0.040844005 0.06071794 0.38593423 -0.23852047 -0.14741376
0.026570003 0.041139886 0.060456038 0.38593423 -0.23852047 -0.14741376
0.027441727 0.041438509 0.06019742 0.38593423 -0.23852047 -0.14741376
0.028227685 0.041802138 0.059988126 0.38593423 -0.23852047 -0.14741376
0.029012248 0.042165119 0.059779353 0.38593423 -0.23852047 -0.14741376
0.029752722 0.042561155 0.05959592 0.38593423 -0.23852047 -0.14741376
0.030456614 0.042984668 0.05943355 0.38593423 -0.23852047 -0.14741376
0.03115958 0.043407623 0.059271544 0.38593423 -0.23852047 -0.14741376
0.031796698 0.0438818 0.059147775 0.38593423 -0.23852047 -0.14741376
0.032426707 0.044360738 0.05902807 0.38593423 -0.23852047 -0.14741376
0.033044565 0.04484855 0.058915403 0.38593423 -0.23852047 -0.14741376
0.03360638 0.045380708 0.058835488 0.38593423 -0.23852047 -0.14741376
0.034167916 0.045912597 0.058755759 0.38593423 -0.23852047 -0.14741376
0.034704957 0.046463858 0.058690432 0.38593423 -0.23852047 -0.14741376
0.03520117 0.047048021 0.058649156 0.38593423 -0.23852047 -0.14741376
0.035697319 0.047632109 0.058608036 0.38593423 -0.23852047 -0.14741376
0.036158185 0.048245013 0.058587819 0.38593423 -0.23852047 -0.14741376
0.036589988 0.048881918 0.058584917 0.38593423 -0.23852047 -0.14741376
0.037021905 0.049518991 0.058582164 0.38593423 -0.23852047 -0.14741376
0.037405949 0.050195988 0.058607928 0.38593423 -0.23852047 -0.14741376
0.037772764 0.050887853 0.058644179 0.38593423 -0.23852047 -0.14741376
0.03813982 0.051580172 0.058680605 0.38593423 -0.23852047 -0.14741376
0.038440857 0.052328408 0.058756519 0.38593423 -0.23852047 -0.14741376
0.038740031 0.053079255 0.058833957 0.38593423 -0.23852047 -0.14741376
0.039018288 0.053848803 0.058924265 0.38593423 -0.23852047 -0.14741376
0.039244492 0.054663569 0.059046026 0.38593423 -0.23852047 -0.14741376
0.039471034 0.05547956 0.059168123 0.38593423 -0.23852047 -0.14741376
0.039638456 0.056347411 0.059326053 0.38593423 -0.23852047 -0.14741376
0.039784115 0.05723574 0.059497625 0.38593423 -0.23852047 -0.14741376
0.03989983 0.058151763 0.05968779 0.38593423 -0.23852047 -0.14741376
0.039952531 0.059124202 0.059916429 0.38593423 -0.23852047 -0.14741376
0.039994098 0.060108852 0.060152568 0.38593423 -0.23852047 -0.14741376
0.039935905 0.061182596 0.060449477 0.38593423 -0.23852047 -0.14741376
0.039865054 0.062270626 0.060754992 0.38593423 -0.23852047 -0.14741376
0.039668057 0.063472055 0.061137509 0.38593423 -0.23852047 -0.14741376
0.039413374 0.064728126 0.06155603 0.38593423 -0.23852047 -0.14741376
0.039032675 0.066099375 0.062051956 0.38593423 -0.23852047 -0.14741376
0.038446773 0.067656741 0.062673457 0.38593423 -0.23852047 -0.14741376
0.037586715 0.069463059 0.063462771 0.38593423 -0.23852047 -0.14741376
0.036112301 0.071822666 0.064626738 0.38593423 -0.23852047 -0.14741376
0.011003904 0.042157643 0.065801702 0.38593423 -0.23852047 -0.14741376
0.013883803 0.040986974 0.064408861 0.38593423 -0.23852047 -0.14741376
0.015901718 0.040453371 0.063504331 0.38593423 -0.23852047 -0.14741376
0.017570291 0.040175829 0.062797248 0.38593423 -0.23852047 -0.14741376
0.019057859 0.040029299 0.062192135 0.38593423 -0.23852047 -0.14741376
0.020345945 0.040029299 0.061699916 0.38593423 -0.23852047 -0.14741376
0.021560321 0.040081248 0.061248962 0.38593423 -0.23852047 -0.14741376
0.022678606 0.040202904 0.060852244 0.38593423 -0.23852047 -0.14741376
0.023730239 0.040372368 0.060493063 0.38593423 -0.23852047 -0.14741376
0.024716238 0.040589381 0.06017096 0.38593423 -0.23852047 -0.14741376
0.025662763 0.040834185 0.059871014 0.38593423 -0.23852047 -0.14741376
0.026540469 0.041129936 0.05961021 0.38593423 -0.23852047 -0.14741376
0.027414821 0.041426063 0.05935093 0.38593423 -0.23852047 -0.14741376
0.028200412 0.041789521 0.059142493 0.38593423 -0.23852047 -0.14741376
0.028984612 0.04215233 0.058934577 0.38593423 -0.23852047 -0.14741376
0.029727517 0.042545989 0.058750276 0.38593423 -0.23852047 -0.14741376
0.030431071 0.042969298 0.058588546 0.38593423 -0.23852047 -0.14741376
0.031133698 0.043392051 0.058427181 0.38593423 -0.23852047 -0.14741376
0.031773143 0.043863893 0.058302343 0.38593423 -0.23852047 -0.14741376
0.032402843 0.044342596 0.058183081 0.38593423 -0.23852047 -0.14741376
0.03302297 0.044828098 0.058069322 0.38593423 -0.23852047 -0.14741376
0.033584502 0.045359984 0.057989664 0.38593423 -0.23852047 -0.14741376
0.03414575 0.045891602 0.057910196 0.38593423 -0.23852047 -0.14741376
0.034685105 0.04644049 0.057843547 0.38593423 -0.23852047 -0.14741376
0.035181057 0.047024343 0.057802349 0.38593423 -0.23852047 -0.14741376
0.035676949 0.04760813 0.057761304 0.38593423 -0.23852047 -0.14741376
0.03614023 0.04821853 0.057739504 0.38593423 -0.23852047 -0.14741376
0.036571801 0.048855092 0.057736494 0.38593423 -0.23852047 -0.14741376
0.037003484 0.049491823 0.057733633 0.38593423 -0.23852047 -0.14741376
0.03739012 0.050166134 0.057757504 0.38593423 -0.23852047 -0.14741376
0.03775673 0.050857615 0.057793461 0.38593423 -0.23852047 -0.14741376
0.038123585 0.051549546 0.057829592 0.38593423 -0.23852047 -0.14741376
0.038427476 0.052294828 0.057903238 0.38593423 -0.23852047 -0.14741376
0.038726479 0.053045247 0.057980184 0.38593423 -0.23852047 -0.14741376
0.039007936 0.053811517 0.058067944 0.38593423 -0.23852047 -0.14741376
0.039234005 0.054625798 0.058189001 0.38593423 -0.23852047 -0.14741376
0.039460413 0.055441301 0.058310386 0.38593423 -0.23852047 -0.14741376
0.039631564 0.056305371 0.058465157 0.38593423 -0.23852047 -0.14741376
0.03977713 0.057193149 0.058635782 0.38593423 -0.23852047 -0.14741376
0.039897278 0.058104735 0.058822218 0.38593423 -0.23852047 -0.14741376
0.03994995 0.059076544 0.059049625 0.38593423 -0.23852047 -0.14741376
0.039996974 0.060055818 0.059281215 0.38593423 -0.23852047 -0.14741376
0.039938819 0.061128825 0.059576552 0.38593423 -0.23852047 -0.14741376
0.03987499 0.062210049 0.059876282 0.38593423 -0.23852047 -0.14741376
0.039678134 0.063410603 0.06025679 0.38593423 -0.23852047 -0.14741376
0.039432954 0.064657599 0.06066753 0.38593423 -0.23852047 -0.14741376
0.039052557 0.066027761 0.061160866 0.38593423 -0.23852047 -0.14741376
0.038480513 0.067572057 0.061771087 0.38593423 -0.23852047 -0.14741376
0.037642397 0.069358036 0.062543511 0.38593423 -0.23852047 -0.14741376
0.036208827 0.071680292 0.063677579 0.38593423 -0.23852047 -0.14741376
0.010907373 0.042202305 0.064971544 0.38593423 -0.23852047 -0.14741376
0.013816267 0.041009728 0.063567884 0.38593423 -0.23852047 -0.14741376
0.015848484 0.04046509 0.062658809 0.38593423 -0.23852047 -0.14741376
0.017525708 0.040180679 0.061949559 0.38593423 -0.23852047 -0.14741376
0.019019198 0.040029299 0.061343394 0.38593423 -0.23852047 -0.14741376
0.020306777 0.040029299 0.06085331 0.38593423 -0.23852047 -0.14741376
0.021525588 0.04007747 0.060401499 0.38593423 -0.23852047 -0.14741376
0.022643408 0.040199075 0.060006492 0.38593423 -0.23852047 -0.14741376
0.023698581 0.040365402 0.059646569 0.38593423 -0.23852047 -0.14741376
0.024684152 0.040582318 0.05932584 0.38593423 -0.23852047 -0.14741376
0.025633663 0.04082438 0.059025221 0.38593423 -0.23852047 -0.14741376
0.026510973 0.041119996 0.058765512 0.38593423 -0.23852047 -0.14741376
0.027386284 0.041414935 0.058506541 0.38593423 -0.23852047 -0.14741376
0.028173178 0.041776918 0.058298007 0.38593423 -0.23852047 -0.14741376
0.028957011 0.04213956 0.05809094 0.38593423 -0.23852047 -0.14741376
0.029702345 0.042530846 0.057905782 0.38593423 -0.23852047 -0.14741376
0.030405561 0.042953949 0.057744697 0.38593423 -0.23852047 -0.14741376
0.031107852 0.043376502 0.057583969 0.38593423 -0.23852047 -0.14741376
0.031749621 0.043846011 0.057458073 0.38593423 -0.23852047 -0.14741376
0.032379009 0.044324476 0.057339258 0.38593423 -0.23852047 -0.14741376
0.033001408 0.044807673 0.057224423 0.38593423 -0.23852047 -0.14741376
0.033562656 0.04533929 0.057145022 0.38593423 -0.23852047 -0.14741376
0.034123618 0.045870639 0.057065807 0.38593423 -0.23852047 -0.14741376
0.034665283 0.046417151 0.056997851 0.38593423 -0.23852047 -0.14741376
0.035160974 0.047000702 0.056956727 0.38593423 -0.23852047 -0.14741376
0.035656605 0.04758418 0.056915756 0.38593423 -0.23852047 -0.14741376
0.0361223 0.048192084 0.056892391 0.38593423 -0.23852047 -0.14741376
0.03655364 0.048828308 0.056889273 0.38593423 -0.23852047 -0.14741376
0.036985092 0.049464691 0.056886304 0.38593423 -0.23852047 -0.14741376
0.037374314 0.05013632 0.056908306 0.38593423 -0.23852047 -0.14741376
0.037740722 0.050827418 0.056943968 0.38593423 -0.23852047 -0.14741376
0.038107373 0.051518969 0.056979805 0.38593423 -0.23852047 -0.14741376
0.038414117 0.0522613 0.057051197 0.38593423 -0.23852047 -0.14741376
0.038712949 0.053011287 0.057127651 0.38593423 -0.23852047 -0.14741376
0.038997598 0.053774286 0.057212889 0.38593423 -0.23852047 -0.14741376
0.039223533 0.054588083 0.057333238 0.38593423 -0.23852047 -0.14741376
0.039449807 0.055403102 0.057453919 0.38593423 -0.23852047 -0.14741376
0.03962468 0.056263395 0.057605557 0.38593423 -0.23852047 -0.14741376
0.03977016 0.057150621 0.057775229 0.38593423 -0.23852047 -0.14741376
0.039894734 0.058057778 0.05795797 0.38593423 -0.23852047 -0.14741376
0.039947372 0.059028957 0.058184147 0.38593423 -0.23852047 -0.14741376
0.039999843 0.060002863 0.058411226 0.38593423 -0.23852047 -0.14741376
0.039941728 0.06107514 0.058704998 0.38593423 -0.23852047 -0.14741376
0.039883427 0.062150858 0.058999859 0.38593423 -0.23852047 -0.14741376
0.039688196 0.063349254 0.059377488 0.38593423 -0.23852047 -0.14741376
0.039452504 0.064587183 0.059780512 0.38593423 -0.23852047 -0.14741376
0.039072406 0.065956272 0.060271267 0.38593423 -0.23852047 -0.14741376
0.038514197 0.06748753 0.060870294 0.38593423 -0.23852047 -0.14741376
0.037697975 0.069253214 0.06162598 0.38593423 -0.23852047 -0.14741376
0.036305148 0.071538217 0.062730417 0.38593423 -0.23852047 -0.14741376
0.010810935 0.042246923 0.064142182 0.38593423 -0.23852047 -0.14741376
0.013748807 0.04103246 0.062727846 0.38593423 -0.23852047 -0.14741376
0.015795313 0.040476792 0.061814297 0.38593423 -0.23852047 -0.14741376
0.017481182 0.040185522 0.061102919 0.38593423 -0.23852047 -0.14741376
0.018980585 0.040029299 0.060495734 0.38593423 -0.23852047 -0.14741376
0.02026766 0.040029299 0.060007777 0.38593423 -0.23852047 -0.14741376
0.0214909 0.040073697 0.059555132 0.38593423 -0.23852047 -0.14741376
0.022608254 0.040195253 0.059161831 0.38593423 -0.23852047 -0.14741376
0.023666967 0.040358443 0.058801189 0.38593423 -0.23852047 -0.14741376
0.024652109 0.040575266 0.058481831 0.38593423 -0.23852047 -0.14741376
0.025604604 0.04081459 0.058180548 0.38593423 -0.23852047 -0.14741376
0.026481517 0.041110069 0.057921935 0.38593423 -0.23852047 -0.14741376
0.027356433 0.041404877 0.057664055 0.38593423 -0.23852047 -0.14741376
0.02814598 0.041764334 0.057454649 0.38593423 -0.23852047 -0.14741376
0.028929448 0.042126808 0.05724844 0.38593423 -0.23852047 -0.14741376
0.029677207 0.042515721 0.05706244 0.38593423 -0.23852047 -0.14741376
0.030380087 0.042938624 0.056901991 0.38593423 -0.23852047 -0.14741376
0.031082042 0.043360971 0.056741897 0.38593423 -0.23852047 -0.14741376
0.031726133 0.043828156 0.056614961 0.38593423 -0.23852047 -0.14741376
0.032355212 0.044306386 0.05649659 0.38593423 -0.23852047 -0.14741376
0.032979876 0.044787277 0.056380689 0.38593423 -0.23852047 -0.14741376
0.033540837 0.045318626 0.056301545 0.38593423 -0.23852047 -0.14741376
0.034101516 0.045849703 0.056222592 0.38593423 -0.23852047 -0.14741376
0.034645487 0.046393845 0.056153338 0.38593423 -0.23852047 -0.14741376
0.035140917 0.046977092 0.056112293 0.38593423 -0.23852047 -0.14741376
0.035636291 0.047560267 0.056071397 0.38593423 -0.23852047 -0.14741376
0.036104396 0.048165679 0.056046475 0.38593423 -0.23852047 -0.14741376
0.036535505 0.048801556 0.056043252 0.38593423 -0.23852047 -0.14741376
0.036966726 0.049437601 0.056040175 0.38593423 -0.23852047 -0.14741376
0.03735853 0.050106551 0.056060318 0.38593423 -0.23852047 -0.14741376
0.037724737 0.050797265 0.05609569 0.38593423 -0.23852047 -0.14741376
0.038091183 0.051488433 0.056131233 0.38593423 -0.23852047 -0.14741376
0.038400777 0.052227817 0.056200389 0.38593423 -0.23852047 -0.14741376
0.038699437 0.052977376 0.056276355 0.38593423 -0.23852047 -0.14741376
0.038987279 0.053737111 0.05635909 0.38593423 -0.23852047 -0.14741376
0.03921308 0.054550428 0.056478735 0.38593423 -0.23852047 -0.14741376
0.039439216 0.055364959 0.056598708 0.38593423 -0.23852047 -0.14741376
0.039617807 0.056221478 0.056747239 0.38593423 -0.23852047 -0.14741376
0.039763197 0.057108156 0.056915969 0.38593423 -0.23852047 -0.14741376
0.039892193 0.058010895 0.057095036 0.38593423 -0.23852047 -0.14741376
0.039944794 0.058981441 0.057319988 0.38593423 -0.23852047 -0.14741376
0.039997533 0.059954464 0.057545662 0.38593423 -0.23852047 -0.14741376
0.039944634 0.06102154 0.0578348 0.38593423 -0.23852047 -0.14741376
0.03988637 0.062096518 0.058128092 0.38593423 -0.23852047 -0.14741376
0.039698239 0.063288003 0.058499601 0.38593423 -0.23852047 -0.14741376
0.039472021 0.06451688 0.058894966 0.38593423 -0.23852047 -0.14741376
0.03909222 0.065884896 0.059383146 0.38593423 -0.23852047 -0.14741376
0.038547818 0.067403145 0.059971076 0.38593423 -0.23852047 -0.14741376
0.037753444 0.069148585 0.060710166 0.38593423 -0.23852047 -0.14741376
0.036401268 0.07139644 0.061785243 0.38593423 -0.23852047 -0.14741376
0.010714589 0.042291496 0.063313611 0.38593423 -0.23852047 -0.14741376
0.013681422 0.041055165 0.061888739 0.38593423 -0.23852047 -0.14741376
0.015742205 0.040488482 0.060970791 0.38593423 -0.23852047 -0.14741376
0.017436711 0.040190361 0.060257327 0.38593423 -0.23852047 -0.14741376
0.018942023 0.040029299 0.059649151 0.38593423 -0.23852047 -0.14741376
0.020228591 0.040029299 0.059163317 0.38593423 -0.23852047 -0.14741376
0.021456257 0.040069927 0.05870986 0.38593423 -0.23852047 -0.14741376
0.022573147 0.040191431 0.058318257 0.38593423 -0.23852047 -0.14741376
0.023635393 0.040351491 0.057956915 0.38593423 -0.23852047 -0.14741376
0.024620106 0.040568221 0.057638925 0.38593423 -0.23852047 -0.14741376
0.025575582 0.040804811 0.057336997 0.38593423 -0.23852047 -0.14741376
0.0264521 0.041100156 0.057079475 0.38593423 -0.23852047 -0.14741376
0.027326621 0.041394833 0.056822684 0.38593423 -0.23852047 -0.14741376
0.028118817 0.041751768 0.056612425 0.38593423 -0.23852047 -0.14741376
0.028901922 0.042114075 0.056407064 0.38593423 -0.23852047 -0.14741376
0.029652104 0.042500615 0.056220233 0.38593423 -0.23852047 -0.14741376
0.030354647 0.042923316 0.056060422 0.38593423 -0.23852047 -0.14741376
0.031056264 0.043345463 0.055900969 0.38593423 -0.23852047 -0.14741376
0.031702675 0.043810323 0.055773001 0.38593423 -0.23852047 -0.14741376
0.032331444 0.044288319 0.05565507 0.38593423 -0.23852047 -0.14741376
0.032958373 0.04476691 0.055538122 0.38593423 -0.23852047 -0.14741376
0.033519052 0.045297988 0.055459235 0.38593423 -0.23852047 -0.14741376
0.034079447 0.045828797 0.055380534 0.38593423 -0.23852047 -0.14741376
0.034625717 0.046370573 0.055310003 0.38593423 -0.23852047 -0.14741376
0.03512089 0.046953514 0.055269033 0.38593423 -0.23852047 -0.14741376
0.035616007 0.047536388 0.055228211 0.38593423 -0.23852047 -0.14741376
0.036086518 0.048139308 0.05520175 0.38593423 -0.23852047 -0.14741376
0.036517393 0.048774846 0.055198424 0.38593423 -0.23852047 -0.14741376
0.036948383 0.049410548 0.055195238 0.38593423 -0.23852047 -0.14741376
0.037342768 0.050076824 0.055213541 0.38593423 -0.23852047 -0.14741376
0.03770877 0.050767157 0.055248622 0.38593423 -0.23852047 -0.14741376
0.038075015 0.051457942 0.055283867 0.38593423 -0.23852047 -0.14741376
0.038387455 0.052194387 0.05535081 0.38593423 -0.23852047 -0.14741376
0.038685944 0.052943517 0.055426288 0.38593423 -0.23852047 -0.14741376
0.038976971 0.053699993 0.055506539 0.38593423 -0.23852047 -0.14741376
0.039202638 0.054512825 0.055625487 0.38593423 -0.23852047 -0.14741376
0.039428644 0.055326875 0.055744756 0.38593423 -0.23852047 -0.14741376
0.039610945 0.056179628 0.055890199 0.38593423 -0.23852047 -0.14741376
0.039756242 0.057065755 0.056057986 0.38593423 -0.23852047 -0.14741376
0.039889656 0.057964079 0.05623341 0.38593423 -0.23852047 -0.14741376
0.039942224 0.058933999 0.056457143 0.38593423 -0.23852047 -0.14741376
0.039994925 0.05990639 0.056681588 0.38593423 -0.23852047 -0.14741376
0.039947536 0.060968019 0.056965955 0.38593423 -0.23852047 -0.14741376
0.039889313 0.062042266 0.057257678 0.38593423 -0.23852047 -0.14741376
0.039708264 0.063226849 0.057623114 0.38593423 -0.23852047 -0.14741376
0.039491504 0.064446703 0.058010884 0.38593423 -0.23852047 -0.14741376
0.039112005 0.065813638 0.058496498 0.38593423 -0.23852047 -0.14741376
0.038581382 0.067318909 0.059073418 0.38593423 -0.23852047 -0.14741376
0.037808817 0.06904415 0.059796061 0.38593423 -0.23852047 -0.14741376
0.036497183 0.071254969 0.06084206 0.38593423 -0.23852047 -0.14741376
0.010605573 0.04234558 0.062492974 0.38593423 -0.23852047 -0.14741376
0.013614111 0.041077849 0.06105056 0.38593423 -0.23852047 -0.14741376
0.015689159 0.040500157 0.060128279 0.38593423 -0.23852047 -0.14741376
0.017392294 0.040195193 0.059412774 0.38593423 -0.23852047 -0.14741376
0.018901218 0.040031038 0.058804922 0.38593423 -0.23852047 -0.14741376
0.020189572 0.040029299 0.058319919 0.38593423 -0.23852047 -0.14741376
0.021421658 0.040066164 0.057865672 0.38593423 -0.23852047 -0.14741376
0.022538085 0.04018762 0.057475768 0.38593423 -0.23852047 -0.14741376
0.02360386 0.040344551 0.057113741 0.38593423 -0.23852047 -0.14741376
0.024588147 0.040561188 0.056797113 0.38593423 -0.23852047 -0.14741376
0.025546597 0.040795043 0.05649456 0.38593423 -0.23852047 -0.14741376
0.02642272 0.041090257 0.056238126 0.38593423 -0.23852047 -0.14741376
0.02729685 0.041384801 0.055982418 0.38593423 -0.23852047 -0.14741376
0.028091691 0.041739218 0.055771325 0.38593423 -0.23852047 -0.14741376
0.028874431 0.042101357 0.05556681 0.38593423 -0.23852047 -0.14741376
0.029627034 0.042485531 0.055379163 0.38593423 -0.23852047 -0.14741376
0.03032924 0.042908031 0.055219989 0.38593423 -0.23852047 -0.14741376
0.031030525 0.043329973 0.055061169 0.38593423 -0.23852047 -0.14741376
0.03167925 0.043792516 0.054932188 0.38593423 -0.23852047 -0.14741376
0.03230771 0.044270273 0.054814696 0.38593423 -0.23852047 -0.14741376
0.032935608 0.044747606 0.05469745 0.38593423 -0.23852047 -0.14741376
0.033497293 0.045277379 0.054618079 0.38593423 -0.23852047 -0.14741376
0.034057405 0.04580792 0.054539632 0.38593423 -0.23852047 -0.14741376
0.034605972 0.046347331 0.054467835 0.38593423 -0.23852047 -0.14741376
0.035100892 0.04692997 0.054426942 0.38593423 -0.23852047 -0.14741376
0.035595749 0.047512539 0.054386191 0.38593423 -0.23852047 -0.14741376
0.036068663 0.048112974 0.05435821 0.38593423 -0.23852047 -0.14741376
0.03649931 0.048748169 0.054354779 0.38593423 -0.23852047 -0.14741376
0.036930069 0.049383532 0.054351486 0.38593423 -0.23852047 -0.14741376
0.037327029 0.050047137 0.054367963 0.38593423 -0.23852047 -0.14741376
0.03769283 0.05073709 0.054402754 0.38593423 -0.23852047 -0.14741376
0.038058873 0.051427491 0.054437708 0.38593423 -0.23852047 -0.14741376
0.038374152 0.052161001 0.054502454 0.38593423 -0.23852047 -0.14741376
0.038672473 0.052909702 0.054577444 0.38593423 -0.23852047 -0.14741376
0.038966682 0.053662926 0.054655232 0.38593423 -0.23852047 -0.14741376
0.039192215 0.054475274 0.05477348 0.38593423 -0.23852047 -0.14741376
0.039418083 0.05528884 0.054892045 0.38593423 -0.23852047 -0.14741376
0.039604094 0.056137837 0.055034433 0.38593423 -0.23852047 -0.14741376
0.039749302 0.057023417 0.055201273 0.38593423 -0.23852047 -0.14741376
0.039887123 0.057917338 0.055373088 0.38593423 -0.23852047 -0.14741376
0.039939657 0.058886632 0.055595603 0.38593423 -0.23852047 -0.14741376
0.039992325 0.059858389 0.055818822 0.38593423 -0.23852047 -0.14741376
0.03995043 0.060914584 0.056098454 0.38593423 -0.23852047 -0.14741376
0.039892249 0.061988093 0.056388617 0.38593423 -0.23852047 -0.14741376
0.039718278 0.063165791 0.056748021 0.38593423 -0.23852047 -0.14741376
0.039510958 0.064376637 0.057128262 0.38593423 -0.23852047 -0.14741376
0.039131753 0.0657425 0.057611313 0.38593423 -0.23852047 -0.14741376
0.038614888 0.067234822 0.058177315 0.38593423 -0.23852047 -0.14741376
0.037864082 0.068939909 0.058883652 0.38593423 -0.23852047 -0.14741376
0.036592901 0.071113788 0.059900843 0.38593423 -0.23852047 -0.14741376
0.010418215 0.042458303 0.061716739 0.38593423 -0.23852047 -0.14741376
0.013546874 0.041100502 0.060213305 0.38593423 -0.23852047 -0.14741376
0.015636176 0.040511817 0.059286758 0.38593423 -0.23852047 -0.14741376
0.017347932 0.040200017 0.058569252 0.38593423 -0.23852047 -0.14741376
0.018856313 0.040035922 0.05796406 0.38593423 -0.23852047 -0.14741376
0.020150604 0.040029299 0.057477579 0.38593423 -0.23852047 -0.14741376
0.021387102 0.040062405 0.057022564 0.38593423 -0.23852047 -0.14741376
0.022503067 0.040183809 0.056634355 0.38593423 -0.23852047 -0.14741376
0.02357237 0.040337622 0.056271661 0.38593423 -0.23852047 -0.14741376
0.024556229 0.040554162 0.055956397 0.38593423 -0.23852047 -0.14741376
0.025517652 0.04078529 0.055653229 0.38593423 -0.23852047 -0.14741376
0.02639338 0.041080371 0.055397879 0.38593423 -0.23852047 -0.14741376
0.027267117 0.04137478 0.055143252 0.38593423 -0.23852047 -0.14741376
0.028064601 0.041726686 0.054931335 0.38593423 -0.23852047 -0.14741376
0.028846977 0.042088654 0.05472767 0.38593423 -0.23852047 -0.14741376
0.029601999 0.04247047 0.054539222 0.38593423 -0.23852047 -0.14741376
0.030303868 0.042892765 0.054380685 0.38593423 -0.23852047 -0.14741376
0.031004816 0.043314505 0.054222494 0.38593423 -0.23852047 -0.14741376
0.031655859 0.043774731 0.054092512 0.38593423 -0.23852047 -0.14741376
0.032284006 0.044252258 0.053975459 0.38593423 -0.23852047 -0.14741376
0.032911595 0.044729352 0.053858649 0.38593423 -0.23852047 -0.14741376
0.033475567 0.045256797 0.053778075 0.38593423 -0.23852047 -0.14741376
0.034035396 0.045787074 0.053699881 0.38593423 -0.23852047 -0.14741376
0.034586258 0.046324123 0.053626832 0.38593423 -0.23852047 -0.14741376
0.035080921 0.04690646 0.053586014 0.38593423 -0.23852047 -0.14741376
0.03557552 0.047488723 0.053545341 0.38593423 -0.23852047 -0.14741376
0.036050834 0.048086677 0.053515848 0.38593423 -0.23852047 -0.14741376
0.03648125 0.048721533 0.053512312 0.38593423 -0.23852047 -0.14741376
0.036911778 0.049356557 0.053508915 0.38593423 -0.23852047 -0.14741376
0.037311312 0.050017495 0.053523581 0.38593423 -0.23852047 -0.14741376
0.037676912 0.050707065 0.053558085 0.38593423 -0.23852047 -0.14741376
0.03804275 0.051397085 0.053592745 0.38593423 -0.23852047 -0.14741376
0.038360871 0.052127663 0.053655311 0.38593423 -0.23852047 -0.14741376
0.038659018 0.052875936 0.053729817 0.38593423 -0.23852047 -0.14741376
0.038956407 0.053625911 0.053805161 0.38593423 -0.23852047 -0.14741376
0.039181806 0.054437783 0.053922713 0.38593423 -0.23852047 -0.14741376
0.03940754 0.055250864 0.054040577 0.38593423 -0.23852047 -0.14741376
0.039597251 0.056096107 0.054179925 0.38593423 -0.23852047 -0.14741376
0.039742369 0.056981143 0.054345831 0.38593423 -0.23852047 -0.14741376
0.039884593 0.057870664 0.054514062 0.38593423 -0.23852047 -0.14741376
0.039937094 0.058839332 0.054735359 0.38593423 -0.23852047 -0.14741376
0.039989728 0.059810463 0.054957356 0.38593423 -0.23852047 -0.14741376
0.039953321 0.06086123 0.05523229 0.38593423 -0.23852047 -0.14741376
0.039895181 0.061934009 0.055520892 0.38593423 -0.23852047 -0.14741376
0.039728273 0.063104831 0.055874318 0.38593423 -0.23852047 -0.14741376
0.039530378 0.064306684 0.056247085 0.38593423 -0.23852047 -0.14741376
0.039151471 0.065671474 0.056727584 0.38593423 -0.23852047 -0.14741376
0.038648337 0.067150876 0.057282761 0.38593423 -0.23852047 -0.14741376
0.037919246 0.068835855 0.057972934 0.38593423 -0.23852047 -0.14741376
0.036688417 0.070972897 0.058961585 0.38593423 -0.23852047 -0.14741376
0.039863408 2.7755576e-17 0.039606567 0.38593423 -0.23852047 -0.14741376
0.039999999 0.00076952722 0.039738841 0.38593423 -0.23852047 -0.14741376
0.039999999 0.0016352023 0.039945539 0.38593423 -0.23852047 -0.14741376
0.010230942 0.042570978 0.060940858 0.38593423 -0.23852047 -0.14741376
0.013479711 0.041123133 0.059376966 0.38593423 -0.23852047 -0.14741376
0.015583255 0.040523466 0.058446225 0.38593423 -0.23852047 -0.14741376
0.017303623 0.040204838 0.057726759 0.38593423 -0.23852047 -0.14741376
0.018811464 0.040040802 0.057124224 0.38593423 -0.23852047 -0.14741376
0.020111682 0.040029299 0.056636289 0.38593423 -0.23852047 -0.14741376
0.021352593 0.04005865 0.056180529 0.38593423 -0.23852047 -0.14741376
0.022468092 0.040180005 0.055794012 0.38593423 -0.23852047 -0.14741376
0.02354092 0.040330701 0.055430669 0.38593423 -0.23852047 -0.14741376
0.024524352 0.040547147 0.055116761 0.38593423 -0.23852047 -0.14741376
0.025488744 0.040775549 0.054812998 0.38593423 -0.23852047 -0.14741376
0.026364079 0.041070499 0.054558735 0.38593423 -0.23852047 -0.14741376
0.027237423 0.041364778 0.054305185 0.38593423 -0.23852047 -0.14741376
0.028037546 0.041714169 0.054092459 0.38593423 -0.23852047 -0.14741376
0.028819561 0.042075969 0.053889636 0.38593423 -0.23852047 -0.14741376
0.029576996 0.042455427 0.053700399 0.38593423 -0.23852047 -0.14741376
0.03027853 0.042877521 0.053542495 0.38593423 -0.23852047 -0.14741376
0.030979143 0.04329906 0.053384937 0.38593423 -0.23852047 -0.14741376
0.031632498 0.043756973 0.053253967 0.38593423 -0.23852047 -0.14741376
0.032260336 0.044234261 0.053137351 0.38593423 -0.23852047 -0.14741376
0.032887619 0.044711124 0.053020976 0.38593423 -0.23852047 -0.14741376
0.033453867 0.045236245 0.052939214 0.38593423 -0.23852047 -0.14741376
0.034013413 0.045766253 0.052861273 0.38593423 -0.23852047 -0.14741376
0.034566574 0.046300944 0.052786987 0.38593423 -0.23852047 -0.14741376
0.035060976 0.04688298 0.052746244 0.38593423 -0.23852047 -0.14741376
0.035555318 0.047464944 0.052705642 0.38593423 -0.23852047 -0.14741376
0.036033031 0.048060413 0.052674659 0.38593423 -0.23852047 -0.14741376
0.036463216 0.048694931 0.052671019 0.38593423 -0.23852047 -0.14741376
0.036893513 0.049329616 0.052667513 0.38593423 -0.23852047 -0.14741376
0.037295621 0.049987894 0.052680388 0.38593423 -0.23852047 -0.14741376
0.037661016 0.050677083 0.052714601 0.38593423 -0.23852047 -0.14741376
0.038026653 0.051366724 0.052748971 0.38593423 -0.23852047 -0.14741376
0.038347606 0.052094374 0.052809376 0.38593423 -0.23852047 -0.14741376
0.038645584 0.052842222 0.052883394 0.38593423 -0.23852047 -0.14741376
0.038943879 0.05359086 0.052957628 0.38593423 -0.23852047 -0.14741376
0.039171409 0.05440034 0.053073175 0.38593423 -0.23852047 -0.14741376
0.039397012 0.055212945 0.053190339 0.38593423 -0.23852047 -0.14741376
0.039590418 0.056054439 0.053326678 0.38593423 -0.23852047 -0.14741376
0.039735448 0.056938931 0.053491645 0.38593423 -0.23852047 -0.14741376
0.039880764 0.057825178 0.053657077 0.38593423 -0.23852047 -0.14741376
0.039934535 0.058792107 0.053876404 0.38593423 -0.23852047 -0.14741376
0.039987132 0.059762608 0.054097187 0.38593423 -0.23852047 -0.14741376
0.039956208 0.060807958 0.054367457 0.38593423 -0.23852047 -0.14741376
0.039898105 0.061880004 0.054654505 0.38593423 -0.23852047 -0.14741376
0.039738253 0.063043959 0.055001993 0.38593423 -0.23852047 -0.14741376
0.039541468 0.064244099 0.055372208 0.38593423 -0.23852047 -0.14741376
0.039171156 0.065600574 0.055845305 0.38593423 -0.23852047 -0.14741376
0.038681727 0.067067072 0.056389742 0.38593423 -0.23852047 -0.14741376
0.037974309 0.068732001 0.057063892 0.38593423 -0.23852047 -0.14741376
0.036783736 0.070832305 0.05802428 0.38593423 -0.23852047 -0.14741376
0.037328351 2.7755576e-17 0.039774396 0.38593423 -0.23852047 -0.14741376
0.038589239 0 0.039302059 0.38593423 -0.23852047 -0.14741376
0.037673801 0.0014956079 0.039999999 0.38593423 -0.23852047 -0.14741376
0.039999999 0.00075560849 0.038953245 0.38593423 -0.23852047 -0.14741376
0.039999999 0.0016207942 0.039158914 0.38593423 -0.23852047 -0.14741376
0.039999999 0.0024879947 0.039365191 0.38593423 -0.23852047 -0.14741376
0.039999999 0.0033572211 0.039572071 0.38593423 -0.23852047 -0.14741376
0.039999999 0.0042284853 0.039779563 0.38593423 -0.23852047 -0.14741376
0.039977238 0.0051178299 0.039999999 0.38593423 -0.23852047 -0.14741376
0.010043754 0.042683601 0.060165331 0.38593423 -0.23852047 -0.14741376
0.013412621 0.041145742 0.058541536 0.38593423 -0.23852047 -0.14741376
0.015530396 0.0405351 0.057606671 0.38593423 -0.23852047 -0.14741376
0.017259369 0.040209651 0.056885291 0.38593423 -0.23852047 -0.14741376
0.01876667 0.040045675 0.056285404 0.38593423 -0.23852047 -0.14741376
0.020072808 0.040029299 0.055796046 0.38593423 -0.23852047 -0.14741376
0.021318125 0.040054899 0.05533956 0.38593423 -0.23852047 -0.14741376
0.022433164 0.040176205 0.05495473 0.38593423 -0.23852047 -0.14741376
0.023509508 0.040323786 0.054590758 0.38593423 -0.23852047 -0.14741376
0.024492515 0.04054014 0.05427821 0.38593423 -0.23852047 -0.14741376
0.025459874 0.040765822 0.053973857 0.38593423 -0.23852047 -0.14741376
0.026334815 0.041060638 0.053720679 0.38593423 -0.23852047 -0.14741376
0.027207768 0.041354783 0.053468209 0.38593423 -0.23852047 -0.14741376
0.028010529 0.041701667 0.053254686 0.38593423 -0.23852047 -0.14741376
0.02879218 0.042063303 0.053052705 0.38593423 -0.23852047 -0.14741376
0.029552026 0.042440403 0.052862693 0.38593423 -0.23852047 -0.14741376
0.030253226 0.042862296 0.052705422 0.38593423 -0.23852047 -0.14741376
0.030953506 0.043283634 0.052548494 0.38593423 -0.23852047 -0.14741376
0.031609166 0.043739237 0.052416548 0.38593423 -0.23852047 -0.14741376
0.032236699 0.04421629 0.052300371 0.38593423 -0.23852047 -0.14741376
0.032863673 0.044692922 0.052184429 0.38593423 -0.23852047 -0.14741376
0.033432201 0.045215722 0.052101493 0.38593423 -0.23852047 -0.14741376
0.033991463 0.045745458 0.052023802 0.38593423 -0.23852047 -0.14741376
0.034546912 0.046277799 0.051948294 0.38593423 -0.23852047 -0.14741376
0.035041057 0.046859533 0.051907625 0.38593423 -0.23852047 -0.14741376
0.035535146 0.047441192 0.051867098 0.38593423 -0.23852047 -0.14741376
0.03601525 0.048034191 0.051834635 0.38593423 -0.23852047 -0.14741376
0.036445208 0.04866837 0.051830892 0.38593423 -0.23852047 -0.14741376
0.036875274 0.049302712 0.051827278 0.38593423 -0.23852047 -0.14741376
0.037279949 0.049958333 0.051838379 0.38593423 -0.23852047 -0.14741376
0.037645143 0.050647143 0.051872302 0.38593423 -0.23852047 -0.14741376
0.038010579 0.051336404 0.051906381 0.38593423 -0.23852047 -0.14741376
0.038334362 0.052061133 0.051964644 0.38593423 -0.23852047 -0.14741376
0.038632169 0.052808553 0.052038178 0.38593423 -0.23852047 -0.14741376
0.038930293 0.053556763 0.052111924 0.38593423 -0.23852047 -0.14741376
0.03916103 0.054362956 0.052224863 0.38593423 -0.23852047 -0.14741376
0.0393865 0.055175077 0.052341331 0.38593423 -0.23852047 -0.14741376
0.039583597 0.056012835 0.052474678 0.38593423 -0.23852047 -0.14741376
0.039728537 0.05689678 0.052638713 0.38593423 -0.23852047 -0.14741376
0.039873764 0.057782479 0.052803207 0.38593423 -0.23852047 -0.14741376
0.039931979 0.058744948 0.053018738 0.38593423 -0.23852047 -0.14741376
0.039984543 0.059714824 0.053238302 0.38593423 -0.23852047 -0.14741376
0.039959092 0.060754769 0.053503945 0.38593423 -0.23852047 -0.14741376
0.039901029 0.061826084 0.053789441 0.38593423 -0.23852047 -0.14741376
0.039748218 0.062983193 0.054131042 0.38593423 -0.23852047 -0.14741376
0.039551575 0.06418246 0.05449928 0.38593423 -0.23852047 -0.14741376
0.03919081 0.065529779 0.054964464 0.38593423 -0.23852047 -0.14741376
0.038715061 0.066983417 0.055498254 0.38593423 -0.23852047 -0.14741376
0.038029272 0.068628341 0.056156527 0.38593423 -0.23852047 -0.14741376
0.036878861 0.070691995 0.057088915 0.38593423 -0.23852047 -0.14741376
0.033047803 0.075148381 0.059596434 0.38593423 -0.23852047 -0.14741376
0.03477056 2.7755576e-17 0.039944477 0.38593423 -0.23852047 -0.14741376
0.036043447 0 0.039469354 0.38593423 -0.23852047 -0.14741376
0.037310019 0 0.038996711 0.38593423 -0.23852047 -0.14741376
0.038570333 0 0.038526528 0.38593423 -0.23852047 -0.14741376
0.039824437 0 0.03805878 0.38593423 -0.23852047 -0.14741376
0.039999999 0.00074170943 0.038168754 0.38593423 -0.23852047 -0.14741376
0.039999999 0.0016064065 0.038373403 0.38593423 -0.23852047 -0.14741376
0.039999999 0.0024731159 0.038578652 0.38593423 -0.23852047 -0.14741376
0.037741747 0.0049207211 0.039999999 0.38593423 -0.23852047 -0.14741376
0.039999999 0.0042126179 0.038990956 0.38593423 -0.23852047 -0.14741376
0.039999999 0.0050854338 0.039198022 0.38593423 -0.23852047 -0.14741376
0.039999999 0.005960308 0.039405696 0.38593423 -0.23852047 -0.14741376
0.039999999 0.006837253 0.039613988 0.38593423 -0.23852047 -0.14741376
0.039672788 0.0079491893 0.039999999 0.38593423 -0.23852047 -0.14741376
0.0098566506 0.042796176 0.059390146 0.38593423 -0.23852047 -0.14741376
0.013345603 0.041168321 0.057707012 0.38593423 -0.23852047 -0.14741376
0.015477599 0.040546719 0.056768093 0.38593423 -0.23852047 -0.14741376
0.017215168 0.04021446 0.056044832 0.38593423 -0.23852047 -0.14741376
0.018721929 0.04005054 0.055447593 0.38593423 -0.23852047 -0.14741376
0.020033984 0.040029299 0.054956842 0.38593423 -0.23852047 -0.14741376
0.021283701 0.040051155 0.054499656 0.38593423 -0.23852047 -0.14741376
0.022398278 0.040172409 0.054116506 0.38593423 -0.23852047 -0.14741376
0.023478139 0.04031688 0.053751923 0.38593423 -0.23852047 -0.14741376
0.024460718 0.040533144 0.053440727 0.38593423 -0.23852047 -0.14741376
0.025431041 0.040756106 0.053135809 0.38593423 -0.23852047 -0.14741376
0.02630559 0.041050792 0.052883711 0.38593423 -0.23852047 -0.14741376
0.027178152 0.041344803 0.052632313 0.38593423 -0.23852047 -0.14741376
0.027983546 0.041689184 0.052418012 0.38593423 -0.23852047 -0.14741376
0.028764835 0.042050652 0.052216873 0.38593423 -0.23852047 -0.14741376
0.02952709 0.042425398 0.052026097 0.38593423 -0.23852047 -0.14741376
0.030227955 0.042847089 0.051869459 0.38593423 -0.23852047 -0.14741376
0.0309279 0.04326823 0.051713157 0.38593423 -0.23852047 -0.14741376
0.031585868 0.043721523 0.05158025 0.38593423 -0.23852047 -0.14741376
0.032213092 0.044198345 0.051464509 0.38593423 -0.23852047 -0.14741376
0.032839756 0.044674739 0.051349003 0.38593423 -0.23852047 -0.14741376
0.03341056 0.045195226 0.051264897 0.38593423 -0.23852047 -0.14741376
0.03396954 0.045724697 0.051187463 0.38593423 -0.23852047 -0.14741376
0.034527279 0.046254687 0.051110741 0.38593423 -0.23852047 -0.14741376
0.035021167 0.046836115 0.05107015 0.38593423 -0.23852047 -0.14741376
0.035514999 0.047417477 0.051029693 0.38593423 -0.23852047 -0.14741376
0.035997495 0.048008002 0.050995767 0.38593423 -0.23852047 -0.14741376
0.036427222 0.048641842 0.050991919 0.38593423 -0.23852047 -0.14741376
0.036857061 0.049275849 0.050988201 0.38593423 -0.23852047 -0.14741376
0.037264295 0.049928814 0.05099754 0.38593423 -0.23852047 -0.14741376
0.037629291 0.050617244 0.051031176 0.38593423 -0.23852047 -0.14741376
0.037994526 0.051306125 0.051064964 0.38593423 -0.23852047 -0.14741376
0.038321134 0.052027937 0.051121105 0.38593423 -0.23852047 -0.14741376
0.038618773 0.052774932 0.051194157 0.38593423 -0.23852047 -0.14741376
0.038916726 0.053522717 0.051267419 0.38593423 -0.23852047 -0.14741376
0.039150666 0.054325625 0.051377766 0.38593423 -0.23852047 -0.14741376
0.039376002 0.055137265 0.05149354 0.38593423 -0.23852047 -0.14741376
0.039576784 0.055971287 0.051623922 0.38593423 -0.23852047 -0.14741376
