# .PCD v0.7 - Point Cloud Data file format
VERSION 0.7
FIELDS x y z vp_x vp_y vp_z
SIZE 4 4 4 4 4 4
TYPE F F F F F F
COUNT 1 1 1 1 1 1
WIDTH 703
HEIGHT 1
VIEWPOINT 0 0 0 1 0 0 0
POINTS 703
DATA ascii
0.039999999 0.047884684 0.037952717 0.38593423 -0.23852047 0.14741376
0.039999999 0.048814815 0.037839636 0.38593423 -0.23852047 0.14741376
0.039999999 0.049747374 0.037726343 0.38593423 -0.23852047 0.14741376
0.039999999 0.051619843 0.037499111 0.38593423 -0.23852047 0.14741376
0.039999999 0.052559778 0.037385173 0.38593423 -0.23852047 0.14741376
0.039999999 0.053502202 0.037271015 0.38593423 -0.23852047 0.14741376
0.039999999 0.054447122 0.037156638 0.38593423 -0.23852047 0.14741376
0.039999999 0.056344524 0.036927219 0.38593423 -0.23852047 0.14741376
0.039999999 0.057297036 0.036812175 0.38593423 -0.23852047 0.14741376
0.039999999 0.058252104 0.036696907 0.38593423 -0.23852047 0.14741376
0.039999999 0.060169976 0.03646569 0.38593423 -0.23852047 0.14741376
0.039999999 0.061132811 0.036349736 0.38593423 -0.23852047 0.14741376
0.039999999 0.062098261 0.036233552 0.38593423 -0.23852047 0.14741376
0.039999999 0.063066348 0.036117136 0.38593423 -0.23852047 0.14741376
0.039999999 0.064037085 0.036000486 0.38593423 -0.23852047 0.14741376
0.039999999 0.065010481 0.035883598 0.38593423 -0.23852047 0.14741376
0.039999999 0.065986559 0.035766475 0.38593423 -0.23852047 0.14741376
0.039999999 0.066965334 0.035649117 0.38593423 -0.23852047 0.14741376
0.039999999 0.067946821 0.035531513 0.38593423 -0.23852047 0.14741376
0.039999999 0.068931036 0.035413671 0.38593423 -0.23852047 0.14741376
0.039999999 0.069917992 0.035295587 0.38593423 -0.23852047 0.14741376
0.039999999 0.070907712 0.035177257 0.38593423 -0.23852047 0.14741376
0.039999999 0.071900204 0.035058677 0.38593423 -0.23852047 0.14741376
0.039999999 0.07289549 0.034939855 0.38593423 -0.23852047 0.14741376
0.039999999 0.073893577 0.03482078 0.38593423 -0.23852047 0.14741376
0.039999999 0.074894495 0.034701455 0.38593423 -0.23852047 0.14741376
0.039999999 0.075898252 0.034581877 0.38593423 -0.23852047 0.14741376
0.039999999 0.076904871 0.034462046 0.38593423 -0.23852047 0.14741376
0.039999999 0.077914365 0.034341957 0.38593423 -0.23852047 0.14741376
0.039999999 0.07892675 0.034221612 0.38593423 -0.23852047 0.14741376
0.039999999 0.07994204 0.034101006 0.38593423 -0.23852047 0.14741376
0 0.0004259703 0.034656033 0.38593423 -0.23852047 0.14741376
0.002058709 0 0.035146773 0.38593423 -0.23852047 0.14741376
0.0034223855 0 0.035435095 0.38593423 -0.23852047 0.14741376
0.0047790953 2.7755576e-17 0.035722025 0.38593423 -0.23852047 0.14741376
0.0061288979 0 0.036007576 0.38593423 -0.23852047 0.14741376
0.007471852 0 0.036291756 0.38593423 -0.23852047 0.14741376
0.0088080158 0 0.036574584 0.38593423 -0.23852047 0.14741376
0.010137448 0 0.036856063 0.38593423 -0.23852047 0.14741376
0.011460204 0 0.037136212 0.38593423 -0.23852047 0.14741376
0.01277634 0 0.037415035 0.38593423 -0.23852047 0.14741376
0.014085913 0 0.037692551 0.38593423 -0.23852047 0.14741376
0.015388978 0 0.037968766 0.38593423 -0.23852047 0.14741376
0.016685588 0 0.038243692 0.38593423 -0.23852047 0.14741376
0.017975798 0 0.038517341 0.38593423 -0.23852047 0.14741376
0.01925966 0 0.038789723 0.38593423 -0.23852047 0.14741376
0.020537227 0 0.039060846 0.38593423 -0.23852047 0.14741376
0.021808553 0 0.039330725 0.38593423 -0.23852047 0.14741376
0.023073688 0 0.039599366 0.38593423 -0.23852047 0.14741376
0.024332684 0 0.039866783 0.38593423 -0.23852047 0.14741376
0.025138898 0.0002956721 0.039999999 0.38593423 -0.23852047 0.14741376
0.025496988 0.00088703627 0.039999999 0.38593423 -0.23852047 0.14741376
0.02585486 0.0014786486 0.039999999 0.38593423 -0.23852047 0.14741376
0.026212519 0.0020705133 0.039999999 0.38593423 -0.23852047 0.14741376
0.026569964 0.0026626345 0.039999999 0.38593423 -0.23852047 0.14741376
0.026927199 0.0032550162 0.039999999 0.38593423 -0.23852047 0.14741376
0.027284229 0.0038476624 0.039999999 0.38593423 -0.23852047 0.14741376
0.027641052 0.0044405777 0.039999999 0.38593423 -0.23852047 0.14741376
0.027997673 0.0050337655 0.039999999 0.38593423 -0.23852047 0.14741376
0.028354093 0.0056272303 0.039999999 0.38593423 -0.23852047 0.14741376
0.028710315 0.0062209764 0.039999999 0.38593423 -0.23852047 0.14741376
0.029066341 0.0068150079 0.039999999 0.38593423 -0.23852047 0.14741376
0.029422175 0.0074093286 0.039999999 0.38593423 -0.23852047 0.14741376
0.029777817 0.0080039436 0.039999999 0.38593423 -0.23852047 0.14741376
0.030133273 0.0085988557 0.039999999 0.38593423 -0.23852047 0.14741376
0.030488541 0.0091940695 0.039999999 0.38593423 -0.23852047 0.14741376
0.030843627 0.0097895898 0.039999999 0.38593423 -0.23852047 0.14741376
0.03119853 0.01038542 0.039999999 0.38593423 -0.23852047 0.14741376
0.031553254 0.010981565 0.039999999 0.38593423 -0.23852047 0.14741376
0.031907801 0.011578028 0.039999999 0.38593423 -0.23852047 0.14741376
0.032262176 0.012174815 0.039999999 0.38593423 -0.23852047 0.14741376
0.032616377 0.012771928 0.039999999 0.38593423 -0.23852047 0.14741376
0.03297041 0.013369373 0.039999999 0.38593423 -0.23852047 0.14741376
0.033324275 0.013967153 0.039999999 0.38593423 -0.23852047 0.14741376
0.033677977 0.014565272 0.039999999 0.38593423 -0.23852047 0.14741376
0.034031514 0.015163736 0.039999999 0.38593423 -0.23852047 0.14741376
0.034384895 0.015762549 0.039999999 0.38593423 -0.23852047 0.14741376
0.034738116 0.016361712 0.039999999 0.38593423 -0.23852047 0.14741376
0.03509118 0.016961234 0.039999999 0.38593423 -0.23852047 0.14741376
0.035444092 0.017561115 0.039999999 0.38593423 -0.23852047 0.14741376
0.035796855 0.018161362 0.039999999 0.38593423 -0.23852047 0.14741376
0.036149468 0.018761979 0.039999999 0.38593423 -0.23852047 0.14741376
0.036501937 0.019362969 0.039999999 0.38593423 -0.23852047 0.14741376
0.03685426 0.019964337 0.039999999 0.38593423 -0.23852047 0.14741376
0.037206441 0.020566087 0.039999999 0.38593423 -0.23852047 0.14741376
0.037558489 0.021168225 0.039999999 0.38593423 -0.23852047 0.14741376
0.037910394 0.021770753 0.039999999 0.38593423 -0.23852047 0.14741376
0.038262166 0.022373676 0.039999999 0.38593423 -0.23852047 0.14741376
0.038613807 0.022977 0.039999999 0.38593423 -0.23852047 0.14741376
0.038965322 0.023580728 0.039999999 0.38593423 -0.23852047 0.14741376
0.039316706 0.024184864 0.039999999 0.38593423 -0.23852047 0.14741376
0.039667964 0.024789412 0.039999999 0.38593423 -0.23852047 0.14741376
0.039999999 0.025408952 0.039994068 0.38593423 -0.23852047 0.14741376
0.039999999 0.026283082 0.039884951 0.38593423 -0.23852047 0.14741376
0.039999999 0.027159326 0.039775651 0.38593423 -0.23852047 0.14741376
0.039999999 0.028037695 0.039666165 0.38593423 -0.23852047 0.14741376
0.039999999 0.028918201 0.039556492 0.38593423 -0.23852047 0.14741376
0.039999999 0.029800856 0.03944663 0.38593423 -0.23852047 0.14741376
0.039999999 0.030685674 0.039336577 0.38593423 -0.23852047 0.14741376
0.039999999 0.031572662 0.039226335 0.38593423 -0.23852047 0.14741376
0.039999999 0.032461841 0.039115898 0.38593423 -0.23852047 0.14741376
0.039999999 0.033353213 0.039005268 0.38593423 -0.23852047 0.14741376
0.039999999 0.034246799 0.038894441 0.38593423 -0.23852047 0.14741376
0.039999999 0.035142604 0.038783424 0.38593423 -0.23852047 0.14741376
0.039999999 0.036040645 0.038672205 0.38593423 -0.23852047 0.14741376
0.039999999 0.036940936 0.038560789 0.38593423 -0.23852047 0.14741376
0.039999999 0.037843484 0.038449172 0.38593423 -0.23852047 0.14741376
0.039999999 0.038748309 0.038337354 0.38593423 -0.23852047 0.14741376
0.039999999 0.039655417 0.038225334 0.38593423 -0.23852047 0.14741376
0.039999999 0.040564824 0.03811311 0.38593423 -0.23852047 0.14741376
0.039999999 0.041476544 0.038000681 0.38593423 -0.23852047 0.14741376
0.039999999 0.042390585 0.037888046 0.38593423 -0.23852047 0.14741376
0.039999999 0.043306969 0.037775204 0.38593423 -0.23852047 0.14741376
0.039999999 0.044225704 0.037662152 0.38593423 -0.23852047 0.14741376
0.039999999 0.045146801 0.037548892 0.38593423 -0.23852047 0.14741376
0.039999999 0.046070278 0.037435416 0.38593423 -0.23852047 0.14741376
0.039999999 0.046996146 0.037321731 0.38593423 -0.23852047 0.14741376
0.039999999 0.047924418 0.037207831 0.38593423 -0.23852047 0.14741376
0.039999999 0.048855111 0.037093714 0.38593423 -0.23852047 0.14741376
0.039999999 0.049788237 0.036979381 0.38593423 -0.23852047 0.14741376
0.039999999 0.05072381 0.036864828 0.38593423 -0.23852047 0.14741376
0.039999999 0.051661845 0.036750056 0.38593423 -0.23852047 0.14741376
0.039999999 0.052602351 0.036635064 0.38593423 -0.23852047 0.14741376
0.039999999 0.053545348 0.036519848 0.38593423 -0.23852047 0.14741376
0.039999999 0.054490849 0.036404405 0.38593423 -0.23852047 0.14741376
0.039999999 0.055438869 0.036288742 0.38593423 -0.23852047 0.14741376
0.039999999 0.056389421 0.036172848 0.38593423 -0.23852047 0.14741376
0.039999999 0.057342522 0.036056727 0.38593423 -0.23852047 0.14741376
0.039999999 0.058298182 0.035940375 0.38593423 -0.23852047 0.14741376
0.039999999 0.05925642 0.035823792 0.38593423 -0.23852047 0.14741376
0.039999999 0.060217246 0.035706978 0.38593423 -0.23852047 0.14741376
0.039999999 0.061180681 0.03558993 0.38593423 -0.23852047 0.14741376
0.039999999 0.062146738 0.035472643 0.38593423 -0.23852047 0.14741376
0.039999999 0.063115433 0.035355121 0.38593423 -0.23852047 0.14741376
0.039999999 0.06408678 0.035237357 0.38593423 -0.23852047 0.14741376
0.039999999 0.065060794 0.035119358 0.38593423 -0.23852047 0.14741376
0.039999999 0.066037491 0.035001114 0.38593423 -0.23852047 0.14741376
0.039999999 0.067016885 0.034882624 0.38593423 -0.23852047 0.14741376
0.039999999 0.067998998 0.034763891 0.38593423 -0.23852047 0.14741376
0.039999999 0.068983838 0.034644913 0.38593423 -0.23852047 0.14741376
0.039999999 0.069971427 0.034525685 0.38593423 -0.23852047 0.14741376
0.039999999 0.070961773 0.034406208 0.38593423 -0.23852047 0.14741376
0.039999999 0.071954906 0.034286477 0.38593423 -0.23852047 0.14741376
0.039999999 0.072950833 0.034166496 0.38593423 -0.23852047 0.14741376
0.039999999 0.073949568 0.034046259 0.38593423 -0.23852047 0.14741376
0.039999999 0.074951135 0.033925768 0.38593423 -0.23852047 0.14741376
0.039999999 0.07595554 0.033805016 0.38593423 -0.23852047 0.14741376
0.039999999 0.076962814 0.033684004 0.38593423 -0.23852047 0.14741376
0.039999999 0.077972971 0.033562731 0.38593423 -0.23852047 0.14741376
0.039999999 0.078986019 0.033441197 0.38593423 -0.23852047 0.14741376
0.00068834657 0 0.034109566 0.38593423 -0.23852047 0.14741376
0.0020597263 0 0.034401357 0.38593423 -0.23852047 0.14741376
0 0.0021351362 0.033682693 0.38593423 -0.23852047 0.14741376
0.0047814446 0 0.034980703 0.38593423 -0.23852047 0.14741376
0.0061319028 2.7755576e-17 0.035268281 0.38593423 -0.23852047 0.14741376
0.0074755065 0 0.035554476 0.38593423 -0.23852047 0.14741376
0.008812313 0 0.035839304 0.38593423 -0.23852047 0.14741376
0.010142381 0 0.036122773 0.38593423 -0.23852047 0.14741376
0.011465766 0 0.036404897 0.38593423 -0.23852047 0.14741376
0.012782527 0 0.03668569 0.38593423 -0.23852047 0.14741376
0.014092716 0 0.036965158 0.38593423 -0.23852047 0.14741376
0.015396392 0 0.03724331 0.38593423 -0.23852047 0.14741376
0.016693607 0 0.037520166 0.38593423 -0.23852047 0.14741376
0.017984414 0 0.03779573 0.38593423 -0.23852047 0.14741376
0.01926887 0 0.038070019 0.38593423 -0.23852047 0.14741376
0.020547025 0 0.038343035 0.38593423 -0.23852047 0.14741376
0.021818932 0 0.038614795 0.38593423 -0.23852047 0.14741376
0.023084642 0 0.038885307 0.38593423 -0.23852047 0.14741376
0.024344208 0 0.039154585 0.38593423 -0.23852047 0.14741376
0.025597677 0 0.039422635 0.38593423 -0.23852047 0.14741376
0.026845101 0 0.039689466 0.38593423 -0.23852047 0.14741376
0.02808653 0 0.039955091 0.38593423 -0.23852047 0.14741376
0.028591709 0.00048846327 0.039999999 0.38593423 -0.23852047 0.14741376
0.028947139 0.0010768548 0.039999999 0.38593423 -0.23852047 0.14741376
0.029302366 0.0016654999 0.039999999 0.38593423 -0.23852047 0.14741376
0.029657396 0.0022544025 0.039999999 0.38593423 -0.23852047 0.14741376
0.030012228 0.0028435669 0.039999999 0.38593423 -0.23852047 0.14741376
0.030366864 0.0034329968 0.039999999 0.38593423 -0.23852047 0.14741376
0.030721311 0.0040226965 0.039999999 0.38593423 -0.23852047 0.14741376
0.031075565 0.0046126703 0.039999999 0.38593423 -0.23852047 0.14741376
0.031429633 0.005202922 0.039999999 0.38593423 -0.23852047 0.14741376
0.031783517 0.0057934555 0.039999999 0.38593423 -0.23852047 0.14741376
0.032137215 0.0063842749 0.039999999 0.38593423 -0.23852047 0.14741376
0.032490738 0.0069753849 0.039999999 0.38593423 -0.23852047 0.14741376
0.032844078 0.0075667892 0.039999999 0.38593423 -0.23852047 0.14741376
0.033197243 0.0081584919 0.039999999 0.38593423 -0.23852047 0.14741376
0.033550236 0.0087504974 0.039999999 0.38593423 -0.23852047 0.14741376
0.033903059 0.0093428083 0.039999999 0.38593423 -0.23852047 0.14741376
0.034255709 0.0099354312 0.039999999 0.38593423 -0.23852047 0.14741376
0.034608196 0.010528369 0.039999999 0.38593423 -0.23852047 0.14741376
0.03496052 0.011121625 0.039999999 0.38593423 -0.23852047 0.14741376
0.035312682 0.011715204 0.039999999 0.38593423 -0.23852047 0.14741376
0.035664681 0.012309112 0.039999999 0.38593423 -0.23852047 0.14741376
0.036016528 0.01290335 0.039999999 0.38593423 -0.23852047 0.14741376
0.036368217 0.013497924 0.039999999 0.38593423 -0.23852047 0.14741376
0.036719754 0.014092838 0.039999999 0.38593423 -0.23852047 0.14741376
0.037071142 0.014688097 0.039999999 0.38593423 -0.23852047 0.14741376
0.037422381 0.015283703 0.039999999 0.38593423 -0.23852047 0.14741376
0.037773475 0.015879663 0.039999999 0.38593423 -0.23852047 0.14741376
0.038124427 0.016475977 0.039999999 0.38593423 -0.23852047 0.14741376
0.038475238 0.017072653 0.039999999 0.38593423 -0.23852047 0.14741376
0.038825907 0.017669694 0.039999999 0.38593423 -0.23852047 0.14741376
0.039176445 0.018267104 0.039999999 0.38593423 -0.23852047 0.14741376
0.039526846 0.018864889 0.039999999 0.38593423 -0.23852047 0.14741376
0.039877117 0.019463051 0.039999999 0.38593423 -0.23852047 0.14741376
0.039999999 0.02023158 0.03992939 0.38593423 -0.23852047 0.14741376
0.039999999 0.021093752 0.039820455 0.38593423 -0.23852047 0.14741376
0.039999999 0.021957973 0.039711338 0.38593423 -0.23852047 0.14741376
0.039999999 0.02282425 0.039602038 0.38593423 -0.23852047 0.14741376
0.039999999 0.023692599 0.039492555 0.38593423 -0.23852047 0.14741376
0.039999999 0.024563028 0.039382886 0.38593423 -0.23852047 0.14741376
0.039999999 0.02543555 0.039273027 0.38593423 -0.23852047 0.14741376
0.039999999 0.026310176 0.039162986 0.38593423 -0.23852047 0.14741376
0.039999999 0.027186917 0.039052751 0.38593423 -0.23852047 0.14741376
0.039999999 0.028065788 0.038942326 0.38593423 -0.23852047 0.14741376
0.039999999 0.028946798 0.038831711 0.38593423 -0.23852047 0.14741376
0.039999999 0.02982996 0.038720902 0.38593423 -0.23852047 0.14741376
0.039999999 0.030715285 0.0386099 0.38593423 -0.23852047 0.14741376
0.039999999 0.031602789 0.038498703 0.38593423 -0.23852047 0.14741376
0.039999999 0.032492477 0.03838731 0.38593423 -0.23852047 0.14741376
0.039999999 0.033384368 0.038275715 0.38593423 -0.23852047 0.14741376
0.039999999 0.034278471 0.038163926 0.38593423 -0.23852047 0.14741376
0.039999999 0.035174798 0.038051933 0.38593423 -0.23852047 0.14741376
0.039999999 0.036073364 0.037939738 0.38593423 -0.23852047 0.14741376
0.039999999 0.036974177 0.037827343 0.38593423 -0.23852047 0.14741376
0.039999999 0.037877258 0.037714746 0.38593423 -0.23852047 0.14741376
0.039999999 0.038782611 0.03760194 0.38593423 -0.23852047 0.14741376
0.039999999 0.039690256 0.037488926 0.38593423 -0.23852047 0.14741376
0.039999999 0.040600199 0.037375707 0.38593423 -0.23852047 0.14741376
0.039999999 0.04151246 0.037262276 0.38593423 -0.23852047 0.14741376
0.039999999 0.042427044 0.037148636 0.38593423 -0.23852047 0.14741376
0 0.075935654 0.024271781 0.38593423 -0.23852047 0.14741376
0.039999999 0.044263255 0.036920715 0.38593423 -0.23852047 0.14741376
0.039999999 0.045184903 0.036806434 0.38593423 -0.23852047 0.14741376
0 0.079020321 0.023889294 0.38593423 -0.23852047 0.14741376
0.039999999 0.047035359 0.036577225 0.38593423 -0.23852047 0.14741376
0.039999999 0.047964189 0.036462292 0.38593423 -0.23852047 0.14741376
0.039999999 0.048895445 0.036347136 0.38593423 -0.23852047 0.14741376
0.039999999 0.049829137 0.03623176 0.38593423 -0.23852047 0.14741376
0.039999999 0.050765276 0.036116164 0.38593423 -0.23852047 0.14741376
0.039999999 0.051703881 0.036000341 0.38593423 -0.23852047 0.14741376
0.039999999 0.052644964 0.035884291 0.38593423 -0.23852047 0.14741376
0.039999999 0.053588539 0.035768013 0.38593423 -0.23852047 0.14741376
0.039999999 0.054534618 0.035651509 0.38593423 -0.23852047 0.14741376
0.039999999 0.055483222 0.035534773 0.38593423 -0.23852047 0.14741376
0.039999999 0.056434359 0.035417806 0.38593423 -0.23852047 0.14741376
0.039999999 0.057388045 0.035300605 0.38593423 -0.23852047 0.14741376
0.039999999 0.058344301 0.035183173 0.38593423 -0.23852047 0.14741376
0.039999999 0.059303131 0.035065498 0.38593423 -0.23852047 0.14741376
0.039999999 0.060264558 0.034947589 0.38593423 -0.23852047 0.14741376
0.039999999 0.061228596 0.034829441 0.38593423 -0.23852047 0.14741376
0.039999999 0.062195256 0.034711052 0.38593423 -0.23852047 0.14741376
0.039999999 0.063164562 0.03459242 0.38593423 -0.23852047 0.14741376
0.039999999 0.065111145 0.034354426 0.38593423 -0.23852047 0.14741376
0.039999999 0.06706848 0.034115441 0.38593423 -0.23852047 0.14741376
0.039999999 0.068051212 0.033995572 0.38593423 -0.23852047 0.14741376
0.039999999 0.069036685 0.033875454 0.38593423 -0.23852047 0.14741376
0.039999999 0.0700249 0.033755083 0.38593423 -0.23852047 0.14741376
0.039999999 0.071015887 0.033634458 0.38593423 -0.23852047 0.14741376
0.039999999 0.072009653 0.033513572 0.38593423 -0.23852047 0.14741376
0.039999999 0.07300622 0.033392433 0.38593423 -0.23852047 0.14741376
0.039999999 0.074005604 0.03327103 0.38593423 -0.23852047 0.14741376
0.039999999 0.076012887 0.03302744 0.38593423 -0.23852047 0.14741376
0.039999999 0.077020817 0.032905247 0.38593423 -0.23852047 0.14741376
0.039999999 0.078031629 0.032782789 0.38593423 -0.23852047 0.14741376
0 0.00042639326 0.033157621 0.38593423 -0.23852047 0.14741376
0.0020607442 0 0.033655368 0.38593423 -0.23852047 0.14741376
0.0034257602 0 0.033947799 0.38593423 -0.23852047 0.14741376
0.0047837957 2.7755576e-17 0.034238812 0.38593423 -0.23852047 0.14741376
0.0061349105 0 0.034528419 0.38593423 -0.23852047 0.14741376
0.0074791638 0 0.034816634 0.38593423 -0.23852047 0.14741376
0.0088166138 0 0.035103466 0.38593423 -0.23852047 0.14741376
0.010147318 2.7755576e-17 0.035388928 0.38593423 -0.23852047 0.14741376
0 0.0073068598 0.032249957 0.38593423 -0.23852047 0.14741376
0.012788718 0 0.03595579 0.38593423 -0.23852047 0.14741376
0.014099525 0 0.036237214 0.38593423 -0.23852047 0.14741376
0.015403812 0 0.036517315 0.38593423 -0.23852047 0.14741376
0.016701631 0 0.0367961 0.38593423 -0.23852047 0.14741376
0.017993039 0 0.037073586 0.38593423 -0.23852047 0.14741376
0.019278089 0 0.037349779 0.38593423 -0.23852047 0.14741376
0.02055683 0 0.037624694 0.38593423 -0.23852047 0.14741376
0.021829318 0 0.037898339 0.38593423 -0.23852047 0.14741376
0.023095604 0 0.038170725 0.38593423 -0.23852047 0.14741376
0.024355739 0 0.038441863 0.38593423 -0.23852047 0.14741376
0.025609773 0 0.038711764 0.38593423 -0.23852047 0.14741376
0.026857756 0 0.038980436 0.38593423 -0.23852047 0.14741376
0.028099738 0 0.039247889 0.38593423 -0.23852047 0.14741376
0.029335767 0 0.039514136 0.38593423 -0.23852047 0.14741376
0.030565893 0 0.039779186 0.38593423 -0.23852047 0.14741376
0.031648181 9.5627118e-05 0.039999999 0.38593423 -0.23852047 0.14741376
0.032001231 0.00068083388 0.039999999 0.38593423 -0.23852047 0.14741376
0.032354094 0.0012662953 0.039999999 0.38593423 -0.23852047 0.14741376
0.032706771 0.0018520154 0.039999999 0.38593423 -0.23852047 0.14741376
0.033059265 0.0024379983 0.039999999 0.38593423 -0.23852047 0.14741376
0.033411574 0.0030242477 0.039999999 0.38593423 -0.23852047 0.14741376
0.033763703 0.0036107681 0.039999999 0.38593423 -0.23852047 0.14741376
0.034115657 0.004197563 0.039999999 0.38593423 -0.23852047 0.14741376
0.034467436 0.0047846367 0.039999999 0.38593423 -0.23852047 0.14741376
0.034819044 0.0053719934 0.039999999 0.38593423 -0.23852047 0.14741376
0.035170477 0.005959637 0.039999999 0.38593423 -0.23852047 0.14741376
0.035521746 0.0065475712 0.039999999 0.38593423 -0.23852047 0.14741376
0.035872847 0.0071358006 0.039999999 0.38593423 -0.23852047 0.14741376
0.036223788 0.0077243289 0.039999999 0.38593423 -0.23852047 0.14741376
0.036574565 0.0083131604 0.039999999 0.38593423 -0.23852047 0.14741376
0.036925185 0.0089022992 0.039999999 0.38593423 -0.23852047 0.14741376
0.037275646 0.0094917491 0.039999999 0.38593423 -0.23852047 0.14741376
0.037625957 0.010081514 0.039999999 0.38593423 -0.23852047 0.14741376
0.037976112 0.010671599 0.039999999 0.38593423 -0.23852047 0.14741376
0.038326118 0.011262006 0.039999999 0.38593423 -0.23852047 0.14741376
0.038675979 0.011852742 0.039999999 0.38593423 -0.23852047 0.14741376
0.039025694 0.01244381 0.039999999 0.38593423 -0.23852047 0.14741376
0.039375268 0.013035213 0.039999999 0.38593423 -0.23852047 0.14741376
0.0397247 0.013626955 0.039999999 0.38593423 -0.23852047 0.14741376
0.039999999 0.014273115 0.039977018 0.38593423 -0.23852047 0.14741376
0.039999999 0.015121738 0.039868448 0.38593423 -0.23852047 0.14741376
0.039999999 0.015972333 0.039759699 0.38593423 -0.23852047 0.14741376
0.039999999 0.016824912 0.039650772 0.38593423 -0.23852047 0.14741376
0.039999999 0.017679483 0.039541662 0.38593423 -0.23852047 0.14741376
0.039999999 0.018536057 0.039432373 0.38593423 -0.23852047 0.14741376
0.039999999 0.019394649 0.039322898 0.38593423 -0.23852047 0.14741376
0.039999999 0.020255268 0.039213244 0.38593423 -0.23852047 0.14741376
0.039999999 0.021117924 0.039103404 0.38593423 -0.23852047 0.14741376
0.039999999 0.021982629 0.038993374 0.38593423 -0.23852047 0.14741376
0.039999999 0.022849394 0.038883161 0.38593423 -0.23852047 0.14741376
0.039999999 0.02371823 0.038772758 0.38593423 -0.23852047 0.14741376
0.039999999 0.024589153 0.038662165 0.38593423 -0.23852047 0.14741376
0.039999999 0.025462169 0.038551383 0.38593423 -0.23852047 0.14741376
0.039999999 0.026337292 0.038440406 0.38593423 -0.23852047 0.14741376
0.039999999 0.027214535 0.038329236 0.38593423 -0.23852047 0.14741376
0.039999999 0.028093906 0.038217872 0.38593423 -0.23852047 0.14741376
0.039999999 0.02897542 0.038106315 0.38593423 -0.23852047 0.14741376
0.039999999 0.029859088 0.03799456 0.38593423 -0.23852047 0.14741376
0.039999999 0.030744923 0.037882604 0.38593423 -0.23852047 0.14741376
0.039999999 0.031632937 0.03777045 0.38593423 -0.23852047 0.14741376
0.039999999 0.03252314 0.037658095 0.38593423 -0.23852047 0.14741376
0.039999999 0.033415545 0.037545539 0.38593423 -0.23852047 0.14741376
0.039999999 0.03431017 0.037432779 0.38593423 -0.23852047 0.14741376
0.039999999 0.035207018 0.037319817 0.38593423 -0.23852047 0.14741376
0.039999999 0.036106106 0.037206646 0.38593423 -0.23852047 0.14741376
0.039999999 0.037007451 0.037093267 0.38593423 -0.23852047 0.14741376
0.039999999 0.037911057 0.036979683 0.38593423 -0.23852047 0.14741376
0.039999999 0.038816944 0.036865886 0.38593423 -0.23852047 0.14741376
0.039999999 0.039725121 0.036751878 0.38593423 -0.23852047 0.14741376
0.039999999 0.040635604 0.03663766 0.38593423 -0.23852047 0.14741376
0.039999999 0.041548405 0.036523227 0.38593423 -0.23852047 0.14741376
0.039999999 0.042463534 0.036408581 0.38593423 -0.23852047 0.14741376
0.039999999 0.043381006 0.036293715 0.38593423 -0.23852047 0.14741376
0.039999999 0.044300836 0.036178634 0.38593423 -0.23852047 0.14741376
0.039999999 0.045223039 0.036063328 0.38593423 -0.23852047 0.14741376
0.039999999 0.046147622 0.035947807 0.38593423 -0.23852047 0.14741376
0.039999999 0.047074605 0.035832062 0.38593423 -0.23852047 0.14741376
0.039999999 0.048003998 0.035716094 0.38593423 -0.23852047 0.14741376
0.039999999 0.048935812 0.035599902 0.38593423 -0.23852047 0.14741376
0.039999999 0.04987007 0.035483483 0.38593423 -0.23852047 0.14741376
0.039999999 0.050806779 0.035366837 0.38593423 -0.23852047 0.14741376
0.039999999 0.051745955 0.03524996 0.38593423 -0.23852047 0.14741376
0.039999999 0.052687611 0.035132855 0.38593423 -0.23852047 0.14741376
0.039999999 0.053631764 0.035015516 0.38593423 -0.23852047 0.14741376
0.039999999 0.054578427 0.034897942 0.38593423 -0.23852047 0.14741376
0.039999999 0.055527613 0.034780134 0.38593423 -0.23852047 0.14741376
0.039999999 0.056479335 0.03466209 0.38593423 -0.23852047 0.14741376
0.039999999 0.057433613 0.034543809 0.38593423 -0.23852047 0.14741376
0.039999999 0.058390457 0.034425288 0.38593423 -0.23852047 0.14741376
0.039999999 0.060311913 0.034187518 0.38593423 -0.23852047 0.14741376
0.039999999 0.062243819 0.033948775 0.38593423 -0.23852047 0.14741376
0.039999999 0.063213728 0.033829033 0.38593423 -0.23852047 0.14741376
0.039999999 0.066139475 0.033468306 0.38593423 -0.23852047 0.14741376
0.039999999 0.06712012 0.033347558 0.38593423 -0.23852047 0.14741376
0.039999999 0.068103477 0.033226557 0.38593423 -0.23852047 0.14741376
0.039999999 0.069089577 0.033105295 0.38593423 -0.23852047 0.14741376
0.039999999 0.070078433 0.032983776 0.38593423 -0.23852047 0.14741376
0.039999999 0.071070053 0.032862 0.38593423 -0.23852047 0.14741376
0.039999999 0.072064459 0.03273996 0.38593423 -0.23852047 0.14741376
0.039999999 0.075064562 0.032372251 0.38593423 -0.23852047 0.14741376
0.035678752 0.079999998 0.030810565 0.38593423 -0.23852047 0.14741376
0.039999999 0.077078864 0.032125771 0.38593423 -0.23852047 0.14741376
0.039999999 0.07809034 0.032002125 0.38593423 -0.23852047 0.14741376
0.039999999 0.079104714 0.031878203 0.38593423 -0.23852047 0.14741376
0.000689029 2.7755576e-17 0.03261286 0.38593423 -0.23852047 0.14741376
0.0020617631 0 0.032908794 0.38593423 -0.23852047 0.14741376
0.0034274496 0 0.033203285 0.38593423 -0.23852047 0.14741376
0.0047861487 0 0.033496346 0.38593423 -0.23852047 0.14741376
0 0.0038547495 0.031951673 0.38593423 -0.23852047 0.14741376
0.0074828239 0 0.034078222 0.38593423 -0.23852047 0.14741376
0.0088209175 0 0.034367062 0.38593423 -0.23852047 0.14741376
0.010152259 0 0.034654524 0.38593423 -0.23852047 0.14741376
0.011476905 2.7755576e-17 0.034940612 0.38593423 -0.23852047 0.14741376
0.012794913 0 0.035225339 0.38593423 -0.23852047 0.14741376
0.014106339 0 0.035508722 0.38593423 -0.23852047 0.14741376
0.015411237 0 0.035790768 0.38593423 -0.23852047 0.14741376
0.016709663 0 0.03607149 0.38593423 -0.23852047 0.14741376
0.01800167 0 0.036350898 0.38593423 -0.23852047 0.14741376
0.019287312 0 0.036629003 0.38593423 -0.23852047 0.14741376
0.020566642 0 0.036905818 0.38593423 -0.23852047 0.14741376
0.021839712 0 0.037181351 0.38593423 -0.23852047 0.14741376
0.023106575 0 0.037455615 0.38593423 -0.23852047 0.14741376
0.024367278 0 0.037728615 0.38593423 -0.23852047 0.14741376
0.025621878 0 0.038000368 0.38593423 -0.23852047 0.14741376
0.02687042 0 0.038270883 0.38593423 -0.23852047 0.14741376
0.028112955 0 0.03854017 0.38593423 -0.23852047 0.14741376
0.029349534 0 0.038808238 0.38593423 -0.23852047 0.14741376
0.030580204 0 0.039075095 0.38593423 -0.23852047 0.14741376
0.031805012 0 0.039340757 0.38593423 -0.23852047 0.14741376
0.033024006 0 0.039605226 0.38593423 -0.23852047 0.14741376
0.034237232 0 0.039868519 0.38593423 -0.23852047 0.14741376
0.035017945 0.0002904491 0.039999999 0.38593423 -0.23852047 0.14741376
0.035368502 0.00087276223 0.039999999 0.38593423 -0.23852047 0.14741376
0.035718892 0.0014553351 0.039999999 0.38593423 -0.23852047 0.14741376
0.036069106 0.0020381715 0.039999999 0.38593423 -0.23852047 0.14741376
0.036419149 0.0026212758 0.039999999 0.38593423 -0.23852047 0.14741376
0.036769029 0.0032046516 0.039999999 0.38593423 -0.23852047 0.14741376
0.03711874 0.0037883029 0.039999999 0.38593423 -0.23852047 0.14741376
0.037468292 0.004372234 0.039999999 0.38593423 -0.23852047 0.14741376
0.037817683 0.0049564485 0.039999999 0.38593423 -0.23852047 0.14741376
0.038166914 0.0055409507 0.039999999 0.38593423 -0.23852047 0.14741376
0.038515989 0.006125744 0.039999999 0.38593423 -0.23852047 0.14741376
0.038864911 0.0067108334 0.039999999 0.38593423 -0.23852047 0.14741376
0.039213683 0.0072962218 0.039999999 0.38593423 -0.23852047 0.14741376
0.039562307 0.0078819143 0.039999999 0.38593423 -0.23852047 0.14741376
0.039910782 0.0084679145 0.039999999 0.38593423 -0.23852047 0.14741376
0.039999999 0.0092398049 0.039919484 0.38593423 -0.23852047 0.14741376
0.039999999 0.010077277 0.039811097 0.38593423 -0.23852047 0.14741376
0.039999999 0.010916661 0.039702538 0.38593423 -0.23852047 0.14741376
0.039999999 0.011757963 0.039593801 0.38593423 -0.23852047 0.14741376
0.039999999 0.012601198 0.039484888 0.38593423 -0.23852047 0.14741376
0.039999999 0.013446374 0.039375793 0.38593423 -0.23852047 0.14741376
0.039999999 0.014293501 0.039266523 0.38593423 -0.23852047 0.14741376
0.039999999 0.015142593 0.03915707 0.38593423 -0.23852047 0.14741376
0.039999999 0.015993658 0.039047435 0.38593423 -0.23852047 0.14741376
0.039999999 0.016846707 0.038937617 0.38593423 -0.23852047 0.14741376
0.039999999 0.017701752 0.038827617 0.38593423 -0.23852047 0.14741376
0.039999999 0.018558806 0.03871743 0.38593423 -0.23852047 0.14741376
0.039999999 0.019417875 0.038607057 0.38593423 -0.23852047 0.14741376
0.039999999 0.020278974 0.038496494 0.38593423 -0.23852047 0.14741376
0.039999999 0.021142114 0.038385745 0.38593423 -0.23852047 0.14741376
0.039999999 0.022007303 0.038274802 0.38593423 -0.23852047 0.14741376
0.039999999 0.022874558 0.038163673 0.38593423 -0.23852047 0.14741376
0.039999999 0.023743887 0.03805235 0.38593423 -0.23852047 0.14741376
0.039999999 0.024615299 0.03794083 0.38593423 -0.23852047 0.14741376
0.039999999 0.025488811 0.03782912 0.38593423 -0.23852047 0.14741376
0.039999999 0.026364431 0.037717212 0.38593423 -0.23852047 0.14741376
0.039999999 0.027242173 0.037605103 0.38593423 -0.23852047 0.14741376
0.039999999 0.028122047 0.037492801 0.38593423 -0.23852047 0.14741376
0.039999999 0.029004065 0.037380297 0.38593423 -0.23852047 0.14741376
0.039999999 0.029888242 0.037267592 0.38593423 -0.23852047 0.14741376
0.039999999 0.030774586 0.037154682 0.38593423 -0.23852047 0.14741376
0.039999999 0.031663112 0.037041571 0.38593423 -0.23852047 0.14741376
0.039999999 0.032553829 0.036928255 0.38593423 -0.23852047 0.14741376
0.039999999 0.033446752 0.036814731 0.38593423 -0.23852047 0.14741376
0.039999999 0.034341894 0.036701001 0.38593423 -0.23852047 0.14741376
0.039999999 0.035239268 0.036587063 0.38593423 -0.23852047 0.14741376
0.039999999 0.036138881 0.036472913 0.38593423 -0.23852047 0.14741376
0.039999999 0.037040751 0.036358554 0.38593423 -0.23852047 0.14741376
0.039999999 0.037944891 0.036243979 0.38593423 -0.23852047 0.14741376
0.039999999 0.03885131 0.036129192 0.38593423 -0.23852047 0.14741376
0.039999999 0.039760023 0.036014188 0.38593423 -0.23852047 0.14741376
0.039999999 0.040671043 0.035898969 0.38593423 -0.23852047 0.14741376
0.039999999 0.04158438 0.035783533 0.38593423 -0.23852047 0.14741376
0.039999999 0.042500056 0.035667874 0.38593423 -0.23852047 0.14741376
0.039999999 0.043418076 0.035551995 0.38593423 -0.23852047 0.14741376
0.039999999 0.044338454 0.035435893 0.38593423 -0.23852047 0.14741376
0.039999999 0.045261204 0.03531957 0.38593423 -0.23852047 0.14741376
0.039999999 0.046186347 0.035203021 0.38593423 -0.23852047 0.14741376
0.039999999 0.048976216 0.034852006 0.38593423 -0.23852047 0.14741376
0.039999999 0.049911041 0.03473454 0.38593423 -0.23852047 0.14741376
0.039999999 0.05084832 0.034616843 0.38593423 -0.23852047 0.14741376
0.039999999 0.051788066 0.034498911 0.38593423 -0.23852047 0.14741376
0.039999999 0.0527303 0.034380745 0.38593423 -0.23852047 0.14741376
0.039999999 0.054622274 0.034143701 0.38593423 -0.23852047 0.14741376
0.039999999 0.05557204 0.03402482 0.38593423 -0.23852047 0.14741376
0.039999999 0.056524355 0.033905696 0.38593423 -0.23852047 0.14741376
0.039999999 0.057479221 0.03378633 0.38593423 -0.23852047 0.14741376
0.039999999 0.058436662 0.033666719 0.38593423 -0.23852047 0.14741376
0.039999999 0.059396684 0.033546865 0.38593423 -0.23852047 0.14741376
0.039999999 0.06035931 0.033426762 0.38593423 -0.23852047 0.14741376
0.039999999 0.061324555 0.033306409 0.38593423 -0.23852047 0.14741376
0.039999999 0.062292427 0.033185806 0.38593423 -0.23852047 0.14741376
0.039999999 0.063262947 0.03306495 0.38593423 -0.23852047 0.14741376
0.039999999 0.064236127 0.032943841 0.38593423 -0.23852047 0.14741376
0.039999999 0.065211989 0.032822475 0.38593423 -0.23852047 0.14741376
0.039999999 0.066190541 0.032700855 0.38593423 -0.23852047 0.14741376
0.039999999 0.067171805 0.032578971 0.38593423 -0.23852047 0.14741376
0.039999999 0.068155795 0.03245683 0.38593423 -0.23852047 0.14741376
0.039999999 0.06914252 0.032334428 0.38593423 -0.23852047 0.14741376
0.039999999 0.070132002 0.032211762 0.38593423 -0.23852047 0.14741376
0.039999999 0.071124263 0.032088831 0.38593423 -0.23852047 0.14741376
0.039999999 0.07211931 0.031965632 0.38593423 -0.23852047 0.14741376
0.039999999 0.073117167 0.031842161 0.38593423 -0.23852047 0.14741376
0.039999999 0.074117839 0.031718425 0.38593423 -0.23852047 0.14741376
0.039999999 0.075121358 0.031594414 0.38593423 -0.23852047 0.14741376
0.039999999 0.07612773 0.031470127 0.38593423 -0.23852047 0.14741376
0.039999999 0.07814911 0.03122073 0.38593423 -0.23852047 0.14741376
0 0.0004268169 0.031656858 0.38593423 -0.23852047 0.14741376
0.0020627826 2.7755576e-17 0.032161638 0.38593423 -0.23852047 0.14741376
0.0034291402 0 0.032458194 0.38593423 -0.23852047 0.14741376
0.0047885035 0 0.032753304 0.38593423 -0.23852047 0.14741376
5.5511151e-17 0.003856672 0.03119777 0.38593423 -0.23852047 0.14741376
0.0074864868 2.7755576e-17 0.033339243 0.38593423 -0.23852047 0.14741376
0.0088252239 0 0.033630095 0.38593423 -0.23852047 0.14741376
0.010157203 2.7755576e-17 0.033919554 0.38593423 -0.23852047 0.14741376
0.011482481 0 0.034207627 0.38593423 -0.23852047 0.14741376
0.012801114 0 0.034494333 0.38593423 -0.23852047 0.14741376
0.014113157 0 0.034779675 0.38593423 -0.23852047 0.14741376
0.015418668 0 0.035063673 0.38593423 -0.23852047 0.14741376
0.0167177 0 0.035346333 0.38593423 -0.23852047 0.14741376
0.018010307 0 0.035627667 0.38593423 -0.23852047 0.14741376
0.019296544 0 0.035907686 0.38593423 -0.23852047 0.14741376
0.020576462 0 0.036186405 0.38593423 -0.23852047 0.14741376
0.021850113 0 0.036463827 0.38593423 -0.23852047 0.14741376
0.023117552 0 0.036739968 0.38593423 -0.23852047 0.14741376
0.024378829 0 0.037014838 0.38593423 -0.23852047 0.14741376
0.025633993 0 0.03728845 0.38593423 -0.23852047 0.14741376
0.026883094 0 0.037560809 0.38593423 -0.23852047 0.14741376
0.028126184 0 0.037831929 0.38593423 -0.23852047 0.14741376
0.029363312 0 0.038101822 0.38593423 -0.23852047 0.14741376
0.030594524 0 0.03837049 0.38593423 -0.23852047 0.14741376
0.031819869 0 0.038637951 0.38593423 -0.23852047 0.14741376
0.033039395 0 0.038904212 0.38593423 -0.23852047 0.14741376
0.03425315 0 0.039169285 0.38593423 -0.23852047 0.14741376
0.03546118 0 0.039433178 0.38593423 -0.23852047 0.14741376
0.036663529 0 0.039695896 0.38593423 -0.23852047 0.14741376
0.037860245 0 0.039957456 0.38593423 -0.23852047 0.14741376
0.038346373 0.00048476685 0.039999999 0.38593423 -0.23852047 0.14741376
0.038694527 0.001064227 0.039999999 0.38593423 -0.23852047 0.14741376
0.039042525 0.0016439517 0.039999999 0.38593423 -0.23852047 0.14741376
0.039390367 0.002223945 0.039999999 0.38593423 -0.23852047 0.14741376
0.039738052 0.0028042106 0.039999999 0.38593423 -0.23852047 0.14741376
0.039999999 0.0034446158 0.039973419 0.38593423 -0.23852047 0.14741376
0.039999999 0.0042694476 0.039865393 0.38593423 -0.23852047 0.14741376
0.039999999 0.0050961203 0.039757196 0.38593423 -0.23852047 0.14741376
0.039999999 0.0059246435 0.039648827 0.38593423 -0.23852047 0.14741376
0.039999999 0.006755027 0.039540287 0.38593423 -0.23852047 0.14741376
0.039999999 0.0075872815 0.039431572 0.38593423 -0.23852047 0.14741376
0.039999999 0.0084214164 0.039322678 0.38593423 -0.23852047 0.14741376
0.039999999 0.0092574432 0.039213609 0.38593423 -0.23852047 0.14741376
0.039999999 0.010095372 0.039104365 0.38593423 -0.23852047 0.14741376
0.039999999 0.010935212 0.038994938 0.38593423 -0.23852047 0.14741376
0.039999999 0.011776974 0.038885336 0.38593423 -0.23852047 0.14741376
0.039999999 0.012620671 0.038775548 0.38593423 -0.23852047 0.14741376
0.039999999 0.013466311 0.038665581 0.38593423 -0.23852047 0.14741376
0.039999999 0.014313905 0.038555428 0.38593423 -0.23852047 0.14741376
0.039999999 0.015163464 0.038445093 0.38593423 -0.23852047 0.14741376
0.039999999 0.016014999 0.038334571 0.38593423 -0.23852047 0.14741376
0.039999999 0.016868522 0.038223863 0.38593423 -0.23852047 0.14741376
0.039999999 0.017724043 0.038112968 0.38593423 -0.23852047 0.14741376
0.039999999 0.018581571 0.03800188 0.38593423 -0.23852047 0.14741376
0.039999999 0.01944112 0.037890606 0.38593423 -0.23852047 0.14741376
0.039999999 0.020302702 0.037779137 0.38593423 -0.23852047 0.14741376
0.039999999 0.021166325 0.037667476 0.38593423 -0.23852047 0.14741376
0.039999999 0.022032002 0.03755562 0.38593423 -0.23852047 0.14741376
0.039999999 0.022899743 0.037443571 0.38593423 -0.23852047 0.14741376
0.039999999 0.023769561 0.037331324 0.38593423 -0.23852047 0.14741376
0.039999999 0.024641469 0.03721888 0.38593423 -0.23852047 0.14741376
0.039999999 0.025515476 0.037106238 0.38593423 -0.23852047 0.14741376
0.039999999 0.026391594 0.036993396 0.38593423 -0.23852047 0.14741376
0.039999999 0.027269837 0.036880352 0.38593423 -0.23852047 0.14741376
0.039999999 0.028150214 0.036767103 0.38593423 -0.23852047 0.14741376
0.039999999 0.029032737 0.036653653 0.38593423 -0.23852047 0.14741376
0.039999999 0.029917421 0.036539994 0.38593423 -0.23852047 0.14741376
0.039999999 0.030804275 0.036426131 0.38593423 -0.23852047 0.14741376
0.039999999 0.031693313 0.036312062 0.38593423 -0.23852047 0.14741376
0.039999999 0.032584544 0.036197782 0.38593423 -0.23852047 0.14741376
0.039999999 0.033477988 0.036083288 0.38593423 -0.23852047 0.14741376
0.039999999 0.034373648 0.035968587 0.38593423 -0.23852047 0.14741376
0.039999999 0.035271544 0.035853673 0.38593423 -0.23852047 0.14741376
0.039999999 0.036171682 0.035738543 0.38593423 -0.23852047 0.14741376
0.039999999 0.037074082 0.035623197 0.38593423 -0.23852047 0.14741376
0.039999999 0.03797875 0.035507634 0.38593423 -0.23852047 0.14741376
0.039999999 0.038885701 0.035391852 0.38593423 -0.23852047 0.14741376
0.039999999 0.039794952 0.03527585 0.38593423 -0.23852047 0.14741376
0 0.072993219 0.022179807 0.38593423 -0.23852047 0.14741376
0.039999999 0.041620392 0.035043184 0.38593423 -0.23852047 0.14741376
0.039999999 0.042536609 0.034926515 0.38593423 -0.23852047 0.14741376
0.039999999 0.043455176 0.034809623 0.38593423 -0.23852047 0.14741376
0.039999999 0.044376105 0.0346925 0.38593423 -0.23852047 0.14741376
0.039999999 0.045299407 0.034575149 0.38593423 -0.23852047 0.14741376
0.039999999 0.046225101 0.034457572 0.38593423 -0.23852047 0.14741376
0.039999999 0.047153201 0.034339759 0.38593423 -0.23852047 0.14741376
0.039999999 0.048083715 0.034221716 0.38593423 -0.23852047 0.14741376
0.039999999 0.049016658 0.034103442 0.38593423 -0.23852047 0.14741376
0.039999999 0.049952049 0.033984929 0.38593423 -0.23852047 0.14741376
0.039999999 0.050889894 0.033866178 0.38593423 -0.23852047 0.14741376
0.039999999 0.052773025 0.033627961 0.38593423 -0.23852047 0.14741376
0.039999999 0.053718332 0.033508491 0.38593423 -0.23852047 0.14741376
0.039999999 0.054666158 0.033388779 0.38593423 -0.23852047 0.14741376
0.039999999 0.055616513 0.03326882 0.38593423 -0.23852047 0.14741376
0.039999999 0.059443526 0.032786515 0.38593423 -0.23852047 0.14741376
0.039999999 0.060406752 0.032665312 0.38593423 -0.23852047 0.14741376
0.039999999 0.061372597 0.032543853 0.38593423 -0.23852047 0.14741376
0.039999999 0.062341079 0.03242214 0.38593423 -0.23852047 0.14741376
0.039999999 0.06331221 0.032300167 0.38593423 -0.23852047 0.14741376
0.039999999 0.064286001 0.03217794 0.38593423 -0.23852047 0.14741376
0.039999999 0.065262482 0.032055449 0.38593423 -0.23852047 0.14741376
0.039999999 0.066241652 0.031932697 0.38593423 -0.23852047 0.14741376
0.039999999 0.067223541 0.03180968 0.38593423 -0.23852047 0.14741376
0.039999999 0.068208151 0.031686399 0.38593423 -0.23852047 0.14741376
0.039999999 0.069195509 0.03156285 0.38593423 -0.23852047 0.14741376
0.039999999 0.070185632 0.031439032 0.38593423 -0.23852047 0.14741376
0.039999999 0.071178526 0.031314943 0.38593423 -0.23852047 0.14741376
0.039999999 0.072174214 0.031190583 0.38593423 -0.23852047 0.14741376
0.039999999 0.073172711 0.031065948 0.38593423 -0.23852047 0.14741376
0.039999999 0.074174039 0.030941037 0.38593423 -0.23852047 0.14741376
0.039999999 0.075178206 0.030815851 0.38593423 -0.23852047 0.14741376
0.039999999 0.076185234 0.030690383 0.38593423 -0.23852047 0.14741376
0.039999999 0.07922364 0.030312287 0.38593423 -0.23852047 0.14741376
0.00068971253 0 0.031113802 0.38593423 -0.23852047 0.14741376
0.0020638031 0 0.031413894 0.38593423 -0.23852047 0.14741376
0.0034308322 2.7755576e-17 0.031712513 0.38593423 -0.23852047 0.14741376
0.0047908602 2.7755576e-17 0.032009676 0.38593423 -0.23852047 0.14741376
0.0074901525 0 0.032599684 0.38593423 -0.23852047 0.14741376
0.0088295341 0 0.032892555 0.38593423 -0.23852047 0.14741376
0.010162151 0 0.033184014 0.38593423 -0.23852047 0.14741376
0.01148806 0 0.03347408 0.38593423 -0.23852047 0.14741376
0.012807319 0 0.03376276 0.38593423 -0.23852047 0.14741376
0.014119982 0 0.03405007 0.38593423 -0.23852047 0.14741376
0.015426105 0 0.034336023 0.38593423 -0.23852047 0.14741376
0.016725743 0 0.034620624 0.38593423 -0.23852047 0.14741376
0.01801895 0 0.034903884 0.38593423 -0.23852047 0.14741376
0.019305781 0 0.035185821 0.38593423 -0.23852047 0.14741376
0.020586288 0 0.035466444 0.38593423 -0.23852047 0.14741376
0.021860523 0 0.035745762 0.38593423 -0.23852047 0.14741376
0.023128539 0 0.036023788 0.38593423 -0.23852047 0.14741376
0.024390386 0 0.036300529 0.38593423 -0.23852047 0.14741376
0.025646115 0 0.036575999 0.38593423 -0.23852047 0.14741376
0.026895778 0 0.036850207 0.38593423 -0.23852047 0.14741376
0.028139422 0 0.037123166 0.38593423 -0.23852047 0.14741376
0.029377097 0 0.037394881 0.38593423 -0.23852047 0.14741376
0.030608853 0 0.037665367 0.38593423 -0.23852047 0.14741376
0.031834736 0 0.037934635 0.38593423 -0.23852047 0.14741376
0.033054799 0 0.038202688 0.38593423 -0.23852047 0.14741376
0.03426908 0 0.038469546 0.38593423 -0.23852047 0.14741376
0.035477635 0 0.038735207 0.38593423 -0.23852047 0.14741376
0.036680501 0 0.038999688 0.38593423 -0.23852047 0.14741376
0.037877731 0 0.039262999 0.38593423 -0.23852047 0.14741376
0.039069366 0 0.039525148 0.38593423 -0.23852047 0.14741376
0.039999999 0.00017626309 0.039706606 0.38593423 -0.23852047 0.14741376
0.039999999 0.00099426683 0.039598435 0.38593423 -0.23852047 0.14741376
0.039999999 0.0018140734 0.039490089 0.38593423 -0.23852047 0.14741376
0.039999999 0.0026356925 0.039381575 0.38593423 -0.23852047 0.14741376
0.039999999 0.0034591341 0.039272886 0.38593423 -0.23852047 0.14741376
0.039999999 0.0042844079 0.039164025 0.38593423 -0.23852047 0.14741376
0.039999999 0.0051115244 0.03905499 0.38593423 -0.23852047 0.14741376
0.039999999 0.0059404932 0.038945775 0.38593423 -0.23852047 0.14741376
0.039999999 0.0067713247 0.038836386 0.38593423 -0.23852047 0.14741376
0.039999999 0.0076040286 0.038726822 0.38593423 -0.23852047 0.14741376
0.039999999 0.0084386161 0.038617074 0.38593423 -0.23852047 0.14741376
0.039999999 0.0092750965 0.038507145 0.38593423 -0.23852047 0.14741376
0.039999999 0.010113481 0.038397036 0.38593423 -0.23852047 0.14741376
0.039999999 0.010953779 0.038286746 0.38593423 -0.23852047 0.14741376
0.039999999 0.011796002 0.038176272 0.38593423 -0.23852047 0.14741376
0.039999999 0.012640161 0.038065612 0.38593423 -0.23852047 0.14741376
0.039999999 0.013486264 0.037954766 0.38593423 -0.23852047 0.14741376
0.039999999 0.014334325 0.037843734 0.38593423 -0.23852047 0.14741376
0.039999999 0.015184353 0.037732515 0.38593423 -0.23852047 0.14741376
0.039999999 0.01603636 0.037621103 0.38593423 -0.23852047 0.14741376
0.039999999 0.016890354 0.037509501 0.38593423 -0.23852047 0.14741376
0.039999999 0.01774635 0.037397709 0.38593423 -0.23852047 0.14741376
0.039999999 0.018604357 0.037285723 0.38593423 -0.23852047 0.14741376
0.039999999 0.019464387 0.037173543 0.38593423 -0.23852047 0.14741376
0.039999999 0.020326449 0.037061166 0.38593423 -0.23852047 0.14741376
0.039999999 0.021190556 0.036948591 0.38593423 -0.23852047 0.14741376
0.039999999 0.022056719 0.036835823 0.38593423 -0.23852047 0.14741376
0.039999999 0.02292495 0.03672285 0.38593423 -0.23852047 0.14741376
0.039999999 0.02379526 0.036609679 0.38593423 -0.23852047 0.14741376
0.039999999 0.024667662 0.036496308 0.38593423 -0.23852047 0.14741376
0.039999999 0.025542164 0.036382735 0.38593423 -0.23852047 0.14741376
0.039999999 0.026418781 0.036268953 0.38593423 -0.23852047 0.14741376
0.039999999 0.027297523 0.036154967 0.38593423 -0.23852047 0.14741376
0.039999999 0.028178403 0.036040775 0.38593423 -0.23852047 0.14741376
0.039999999 0.029061433 0.035926376 0.38593423 -0.23852047 0.14741376
0.039999999 0.029946623 0.035811767 0.38593423 -0.23852047 0.14741376
0.039999999 0.030833989 0.035696946 0.38593423 -0.23852047 0.14741376
0.039999999 0.03172354 0.035581917 0.38593423 -0.23852047 0.14741376
0.039999999 0.032615289 0.035466671 0.38593423 -0.23852047 0.14741376
0.039999999 0.033509247 0.035351209 0.38593423 -0.23852047 0.14741376
0.039999999 0.034405429 0.035235532 0.38593423 -0.23852047 0.14741376
0.039999999 0.035303846 0.035119638 0.38593423 -0.23852047 0.14741376
0.039999999 0.036204513 0.035003528 0.38593423 -0.23852047 0.14741376
0.039999999 0.037107442 0.034887195 0.38593423 -0.23852047 0.14741376
0.039999999 0.038012639 0.034770641 0.38593423 -0.23852047 0.14741376
0.039999999 0.038920127 0.034653865 0.38593423 -0.23852047 0.14741376
0.039999999 0.03982991 0.034536861 0.38593423 -0.23852047 0.14741376
0.039999999 0.04074201 0.034419637 0.38593423 -0.23852047 0.14741376
0.039999999 0.041656431 0.034302182 0.38593423 -0.23852047 0.14741376
0.039999999 0.042573195 0.034184501 0.38593423 -0.23852047 0.14741376
0.039999999 0.04349231 0.034066588 0.38593423 -0.23852047 0.14741376
0.039999999 0.044413786 0.033948444 0.38593423 -0.23852047 0.14741376
0.039999999 0.045337643 0.033830069 0.38593423 -0.23852047 0.14741376
0.039999999 0.046263896 0.033711456 0.38593423 -0.23852047 0.14741376
0.039999999 0.047192551 0.033592612 0.38593423 -0.23852047 0.14741376
0.039999999 0.048123628 0.033473525 0.38593423 -0.23852047 0.14741376
0.039999999 0.04999309 0.033234641 0.38593423 -0.23852047 0.14741376
0.039999999 0.05093151 0.033114839 0.38593423 -0.23852047 0.14741376
0.039999999 0.051872406 0.032994792 0.38593423 -0.23852047 0.14741376
0.039999999 0.052815787 0.032874499 0.38593423 -0.23852047 0.14741376
0.039999999 0.053761676 0.032753959 0.38593423 -0.23852047 0.14741376
0.039999999 0.054710083 0.032633174 0.38593423 -0.23852047 0.14741376
0.039999999 0.055661023 0.03251214 0.38593423 -0.23852047 0.14741376
0.039999999 0.056614511 0.032390852 0.38593423 -0.23852047 0.14741376
0.039999999 0.058529191 0.032147519 0.38593423 -0.23852047 0.14741376
0.039999999 0.059490409 0.032025471 0.38593423 -0.23852047 0.14741376
0.039999999 0.060454238 0.031903163 0.38593423 -0.23852047 0.14741376
0.039999999 0.061420687 0.031780597 0.38593423 -0.23852047 0.14741376
