# .PCD v0.7 - Point Cloud Data file format
VERSION 0.7
FIELDS x y z vp_x vp_y vp_z
SIZE 4 4 4 4 4 4
TYPE F F F F F F
COUNT 1 1 1 1 1 1
WIDTH 796
HEIGHT 1
VIEWPOINT 0 0 0 1 0 0 0
POINTS 796
DATA ascii
0.039999999 0.039180249 0.0062241228 0.25019264 0.4048202 0
0.039999999 0.040491208 0.0062073572 0.25019264 0.4048202 0
0.039999999 0.041795131 0.0061906967 0.25019264 0.4048202 0
0.039999999 0.043092072 0.0061741401 0.25019264 0.4048202 0
0.039999999 0.044382099 0.0061576869 0.25019264 0.4048202 0
0.039999999 0.045665272 0.0061413357 0.25019264 0.4048202 0
0.039999999 0.046941649 0.006125086 0.25019264 0.4048202 0
0.039999999 0.048211295 0.0061089369 0.25019264 0.4048202 0
0.039999999 0.049474269 0.0060928874 0.25019264 0.4048202 0
0.039999999 0.050730623 0.0060769361 0.25019264 0.4048202 0
0.039999999 0.051980421 0.0060610832 0.25019264 0.4048202 0
0.039999999 0.053223718 0.0060453271 0.25019264 0.4048202 0
0.039999999 0.05446057 0.0060296673 0.25019264 0.4048202 0
0.039999999 0.055691034 0.0060141031 0.25019264 0.4048202 0
0.039999999 0.056915164 0.0059986333 0.25019264 0.4048202 0
0.039999999 0.058133017 0.0059832572 0.25019264 0.4048202 0
0.039999999 0.059344646 0.0059679742 0.25019264 0.4048202 0
0.039999999 0.060550101 0.0059527834 0.25019264 0.4048202 0
0.039999999 0.06174944 0.0059376839 0.25019264 0.4048202 0
0.039999999 0.062942713 0.0059226751 0.25019264 0.4048202 0
0.039999999 0.064129971 0.0059077563 0.25019264 0.4048202 0
0.039999999 0.065311268 0.0058929264 0.25019264 0.4048202 0
0.039999999 0.066486649 0.0058781854 0.25019264 0.4048202 0
0.039999999 0.067656167 0.0058635315 0.25019264 0.4048202 0
0.039999999 0.068819873 0.0058489651 0.25019264 0.4048202 0
0.039999999 0.069977812 0.0058344845 0.25019264 0.4048202 0
0.039999999 0.071130037 0.00582009 0.25019264 0.4048202 0
0.039999999 0.072276592 0.0058057797 0.25019264 0.4048202 0
0.039999999 0.073417522 0.0057915538 0.25019264 0.4048202 0
0.039999999 0.074552886 0.0057774112 0.25019264 0.4048202 0
0.039999999 0.075682715 0.0057633515 0.25019264 0.4048202 0
0.039999999 0.076807059 0.0057493742 0.25019264 0.4048202 0
0.039999999 0.077925973 0.0057354779 0.25019264 0.4048202 0
0.039999999 0.079039484 0.0057216627 0.25019264 0.4048202 0
0.039904408 0.079999998 0.0057105231 0.25019264 0.4048202 0
0.039187655 0.079999998 0.0057162787 0.25019264 0.4048202 0
0.038469456 0.079999998 0.0057220594 0.25019264 0.4048202 0
0.037749801 0.079999998 0.0057278657 0.25019264 0.4048202 0
0.037028681 0.079999998 0.0057336977 0.25019264 0.4048202 0
0.036306091 0.079999998 0.0057395552 0.25019264 0.4048202 0
0.035582021 0.079999998 0.0057454389 0.25019264 0.4048202 0
0.034856465 0.079999998 0.0057513486 0.25019264 0.4048202 0
0.034129411 0.079999998 0.0057572844 0.25019264 0.4048202 0
0.033400852 0.079999998 0.0057632462 0.25019264 0.4048202 0
0.032670781 0.079999998 0.0057692342 0.25019264 0.4048202 0
0.031939194 0.079999998 0.0057752486 0.25019264 0.4048202 0
0.031206073 0.079999998 0.0057812897 0.25019264 0.4048202 0
0.030471416 0.079999998 0.0057873572 0.25019264 0.4048202 0
0.029735215 0.079999998 0.0057934518 0.25019264 0.4048202 0
0.028997459 0.079999998 0.0057995729 0.25019264 0.4048202 0
0.028258141 0.079999998 0.0058057215 0.25019264 0.4048202 0
0.027517252 0.079999998 0.0058118966 0.25019264 0.4048202 0
0.026774783 0.079999998 0.0058180992 0.25019264 0.4048202 0
0.026030727 0.079999998 0.0058243289 0.25019264 0.4048202 0
0.025285073 0.079999998 0.0058305864 0.25019264 0.4048202 0
0.024537813 0.079999998 0.005836871 0.25019264 0.4048202 0
0.023788938 0.079999998 0.005843184 0.25019264 0.4048202 0
0.023038441 0.079999998 0.0058495239 0.25019264 0.4048202 0
0.022286311 0.079999998 0.0058558923 0.25019264 0.4048202 0
0.021532541 0.079999998 0.0058622886 0.25019264 0.4048202 0
0.020777119 0.079999998 0.0058687129 0.25019264 0.4048202 0
0.020020038 0.079999998 0.0058751656 0.25019264 0.4048202 0
0.019261289 0.079999998 0.0058816471 0.25019264 0.4048202 0
0.018500863 0.079999998 0.0058881566 0.25019264 0.4048202 0
0.017738748 0.079999998 0.0058946949 0.25019264 0.4048202 0
0.016974939 0.079999998 0.0059012622 0.25019264 0.4048202 0
0.016209422 0.079999998 0.0059078583 0.25019264 0.4048202 0
0.015442192 0.079999998 0.0059144832 0.25019264 0.4048202 0
0.014673237 0.079999998 0.0059211375 0.25019264 0.4048202 0
0.013902547 0.079999998 0.0059278212 0.25019264 0.4048202 0
0.013130113 0.079999998 0.0059345341 0.25019264 0.4048202 0
0.012355927 0.079999998 0.0059412769 0.25019264 0.4048202 0
0.011579977 0.079999998 0.0059480495 0.25019264 0.4048202 0
0.010802255 0.079999998 0.0059548514 0.25019264 0.4048202 0
0.01002275 0.079999998 0.0059616836 0.25019264 0.4048202 0
0.0092414524 0.079999998 0.005968546 0.25019264 0.4048202 0
0.0084583517 0.079999998 0.0059754383 0.25019264 0.4048202 0
0.0076734386 0.079999998 0.0059823613 0.25019264 0.4048202 0
0.006886703 0.079999998 0.0059893145 0.25019264 0.4048202 0
0.006098134 0.079999998 0.005996299 0.25019264 0.4048202 0
0.0053077224 0.079999998 0.0060033137 0.25019264 0.4048202 0
0.004515457 0.079999998 0.0060103596 0.25019264 0.4048202 0
0.0037213278 0.079999998 0.0060174363 0.25019264 0.4048202 0
0.0029253243 0.079999998 0.0060245446 0.25019264 0.4048202 0
0.0021274362 0.079999998 0.0060316841 0.25019264 0.4048202 0
0.0013276528 0.079999998 0.0060388553 0.25019264 0.4048202 0
0.00052596355 0.079999998 0.0060460581 0.25019264 0.4048202 0
0.039999999 0.00087133062 0.0060126986 0.25019264 0.4048202 0
0.039999999 0.0023991482 0.0059948103 0.25019264 0.4048202 0
0.039999999 0.0039179055 0.005977042 0.25019264 0.4048202 0
0.039999999 0.0054276902 0.0059593935 0.25019264 0.4048202 0
0.039999999 0.0069285887 0.0059418632 0.25019264 0.4048202 0
0.039999999 0.0084206862 0.0059244493 0.25019264 0.4048202 0
0.039999999 0.009904068 0.0059071518 0.25019264 0.4048202 0
0.039999999 0.011378816 0.0058899694 0.25019264 0.4048202 0
0.039999999 0.012845013 0.0058729006 0.25019264 0.4048202 0
0.039999999 0.01430274 0.0058559445 0.25019264 0.4048202 0
0.039999999 0.015752077 0.0058391001 0.25019264 0.4048202 0
0.039999999 0.017193105 0.0058223666 0.25019264 0.4048202 0
0.039999999 0.0186259 0.0058057425 0.25019264 0.4048202 0
0.039999999 0.020050539 0.0057892269 0.25019264 0.4048202 0
0.039999999 0.021467099 0.0057728188 0.25019264 0.4048202 0
0.039999999 0.022875657 0.0057565179 0.25019264 0.4048202 0
0.039999999 0.024276285 0.0057403217 0.25019264 0.4048202 0
0.039999999 0.025669057 0.0057242308 0.25019264 0.4048202 0
0.039999999 0.027054045 0.0057082432 0.25019264 0.4048202 0
0.039999999 0.028431322 0.0056923586 0.25019264 0.4048202 0
0.039999999 0.029800959 0.0056765759 0.25019264 0.4048202 0
0.039999999 0.031163026 0.0056608939 0.25019264 0.4048202 0
0.039999999 0.03251759 0.0056453124 0.25019264 0.4048202 0
0.039999999 0.033864722 0.0056298291 0.25019264 0.4048202 0
0.039999999 0.035204485 0.0056144446 0.25019264 0.4048202 0
0.039999999 0.036536951 0.0055991574 0.25019264 0.4048202 0
0.039999999 0.037862185 0.0055839666 0.25019264 0.4048202 0
0.039999999 0.039180249 0.0055688713 0.25019264 0.4048202 0
0.039999999 0.040491208 0.0055538709 0.25019264 0.4048202 0
0.039999999 0.041795131 0.0055389642 0.25019264 0.4048202 0
0.039999999 0.043092072 0.0055241506 0.25019264 0.4048202 0
0.039999999 0.044382099 0.0055094296 0.25019264 0.4048202 0
0.039999999 0.045665272 0.0054947999 0.25019264 0.4048202 0
0.039999999 0.046941649 0.0054802611 0.25019264 0.4048202 0
0.039999999 0.048211295 0.0054658116 0.25019264 0.4048202 0
0.039999999 0.049474269 0.0054514515 0.25019264 0.4048202 0
0.039999999 0.050730623 0.0054371799 0.25019264 0.4048202 0
0.039999999 0.051980421 0.0054229959 0.25019264 0.4048202 0
0.039999999 0.053223718 0.0054088985 0.25019264 0.4048202 0
0.039999999 0.05446057 0.0053948876 0.25019264 0.4048202 0
0.039999999 0.055691034 0.0053809616 0.25019264 0.4048202 0
0.039999999 0.056915164 0.0053671203 0.25019264 0.4048202 0
0.039999999 0.058133017 0.0053533632 0.25019264 0.4048202 0
0.039999999 0.059344646 0.0053396891 0.25019264 0.4048202 0
0.039999999 0.060550101 0.0053260974 0.25019264 0.4048202 0
0.039999999 0.06174944 0.0053125876 0.25019264 0.4048202 0
0.039999999 0.062942713 0.0052991589 0.25019264 0.4048202 0
0.039999999 0.064129971 0.0052858107 0.25019264 0.4048202 0
0.039999999 0.065311268 0.0052725421 0.25019264 0.4048202 0
0.039999999 0.066486649 0.0052593527 0.25019264 0.4048202 0
0.039999999 0.067656167 0.005246242 0.25019264 0.4048202 0
0.039999999 0.068819873 0.0052332086 0.25019264 0.4048202 0
0.039999999 0.069977812 0.0052202526 0.25019264 0.4048202 0
0.039999999 0.071130037 0.0052073733 0.25019264 0.4048202 0
0.039999999 0.072276592 0.0051945699 0.25019264 0.4048202 0
0.039999999 0.073417522 0.0051818416 0.25019264 0.4048202 0
0.039999999 0.074552886 0.0051691881 0.25019264 0.4048202 0
0.039999999 0.075682715 0.0051566083 0.25019264 0.4048202 0
0.039999999 0.076807059 0.0051441025 0.25019264 0.4048202 0
0.039999999 0.077925973 0.0051316689 0.25019264 0.4048202 0
0.039999999 0.079039484 0.0051193084 0.25019264 0.4048202 0
0.039904408 0.079999998 0.0051093413 0.25019264 0.4048202 0
0.039187655 0.079999998 0.0051144911 0.25019264 0.4048202 0
0.038469456 0.079999998 0.0051196632 0.25019264 0.4048202 0
0.037749801 0.079999998 0.0051248581 0.25019264 0.4048202 0
0.037028681 0.079999998 0.0051300763 0.25019264 0.4048202 0
0.036306091 0.079999998 0.0051353173 0.25019264 0.4048202 0
0.035582021 0.079999998 0.0051405816 0.25019264 0.4048202 0
0.034856465 0.079999998 0.0051458688 0.25019264 0.4048202 0
0.034129411 0.079999998 0.0051511796 0.25019264 0.4048202 0
0.033400852 0.079999998 0.0051565138 0.25019264 0.4048202 0
0.032670781 0.079999998 0.0051618717 0.25019264 0.4048202 0
0.031939194 0.079999998 0.0051672528 0.25019264 0.4048202 0
0.031206073 0.079999998 0.0051726582 0.25019264 0.4048202 0
0.030471416 0.079999998 0.0051780869 0.25019264 0.4048202 0
0.029735215 0.079999998 0.0051835398 0.25019264 0.4048202 0
0.028997459 0.079999998 0.0051890165 0.25019264 0.4048202 0
0.028258141 0.079999998 0.0051945178 0.25019264 0.4048202 0
0.027517252 0.079999998 0.0052000429 0.25019264 0.4048202 0
0.026774783 0.079999998 0.0052055921 0.25019264 0.4048202 0
0.026030727 0.079999998 0.0052111661 0.25019264 0.4048202 0
0.025285073 0.079999998 0.0052167648 0.25019264 0.4048202 0
0.024537813 0.079999998 0.0052223881 0.25019264 0.4048202 0
0.023788938 0.079999998 0.0052280361 0.25019264 0.4048202 0
0.023038441 0.079999998 0.0052337088 0.25019264 0.4048202 0
0.022286311 0.079999998 0.0052394066 0.25019264 0.4048202 0
0.021532541 0.079999998 0.0052451296 0.25019264 0.4048202 0
0.020777119 0.079999998 0.0052508777 0.25019264 0.4048202 0
0.020020038 0.079999998 0.005256651 0.25019264 0.4048202 0
0.019261289 0.079999998 0.0052624498 0.25019264 0.4048202 0
0.018500863 0.079999998 0.0052682743 0.25019264 0.4048202 0
0.017738748 0.079999998 0.0052741244 0.25019264 0.4048202 0
0.016974939 0.079999998 0.0052800002 0.25019264 0.4048202 0
0.016209422 0.079999998 0.0052859019 0.25019264 0.4048202 0
0.015442192 0.079999998 0.0052918294 0.25019264 0.4048202 0
0.014673237 0.079999998 0.0052977833 0.25019264 0.4048202 0
0.013902547 0.079999998 0.0053037633 0.25019264 0.4048202 0
0.013130113 0.079999998 0.0053097694 0.25019264 0.4048202 0
0.012355927 0.079999998 0.0053158025 0.25019264 0.4048202 0
0.011579977 0.079999998 0.0053218617 0.25019264 0.4048202 0
0.010802255 0.079999998 0.0053279479 0.25019264 0.4048202 0
0.01002275 0.079999998 0.0053340606 0.25019264 0.4048202 0
0.0092414524 0.079999998 0.0053402004 0.25019264 0.4048202 0
0.0084583517 0.079999998 0.0053463676 0.25019264 0.4048202 0
0.0076734386 0.079999998 0.0053525614 0.25019264 0.4048202 0
0.006886703 0.079999998 0.0053587831 0.25019264 0.4048202 0
0.006098134 0.079999998 0.0053650318 0.25019264 0.4048202 0
0.0053077224 0.079999998 0.005371308 0.25019264 0.4048202 0
0.004515457 0.079999998 0.0053776121 0.25019264 0.4048202 0
0.0037213278 0.079999998 0.0053839441 0.25019264 0.4048202 0
0.0029253243 0.079999998 0.0053903041 0.25019264 0.4048202 0
0.0021274362 0.079999998 0.0053966921 0.25019264 0.4048202 0
0.0013276528 0.079999998 0.005403108 0.25019264 0.4048202 0
0.00052596355 0.079999998 0.0054095527 0.25019264 0.4048202 0
0.039999999 0.00087133062 0.0053052544 0.25019264 0.4048202 0
0.039999999 0.0023991482 0.0052894703 0.25019264 0.4048202 0
0.039999999 0.0039179055 0.0052737929 0.25019264 0.4048202 0
0.039999999 0.0054276902 0.0052582207 0.25019264 0.4048202 0
0.039999999 0.0069285887 0.0052427528 0.25019264 0.4048202 0
0.039999999 0.0084206862 0.0052273883 0.25019264 0.4048202 0
0.039999999 0.009904068 0.0052121258 0.25019264 0.4048202 0
0.039999999 0.011378816 0.0051969648 0.25019264 0.4048202 0
0.039999999 0.012845013 0.0051819044 0.25019264 0.4048202 0
0.039999999 0.01430274 0.0051669437 0.25019264 0.4048202 0
0.039999999 0.015752077 0.0051520811 0.25019264 0.4048202 0
0.039999999 0.017193105 0.005137316 0.25019264 0.4048202 0
0.039999999 0.0186259 0.0051226481 0.25019264 0.4048202 0
0.039999999 0.020050539 0.0051080757 0.25019264 0.4048202 0
0.039999999 0.021467099 0.0050935983 0.25019264 0.4048202 0
0.039999999 0.022875657 0.0050792149 0.25019264 0.4048202 0
0.039999999 0.024276285 0.0050649247 0.25019264 0.4048202 0
0.039999999 0.025669057 0.0050507267 0.25019264 0.4048202 0
0.039999999 0.027054045 0.0050366204 0.25019264 0.4048202 0
0.039999999 0.028431322 0.0050226049 0.25019264 0.4048202 0
0.039999999 0.029800959 0.0050086789 0.25019264 0.4048202 0
0.039999999 0.031163026 0.0049948422 0.25019264 0.4048202 0
0.039999999 0.03251759 0.0049810936 0.25019264 0.4048202 0
0.039999999 0.033864722 0.0049674325 0.25019264 0.4048202 0
0.039999999 0.035204485 0.004953858 0.25019264 0.4048202 0
0.039999999 0.036536951 0.0049403692 0.25019264 0.4048202 0
0.039999999 0.037862185 0.004926966 0.25019264 0.4048202 0
0.039999999 0.039180249 0.0049136467 0.25019264 0.4048202 0
0.039999999 0.040491208 0.0049004112 0.25019264 0.4048202 0
0.039999999 0.041795131 0.0048872586 0.25019264 0.4048202 0
0.039999999 0.043092072 0.004874188 0.25019264 0.4048202 0
0.039999999 0.044382099 0.0048611988 0.25019264 0.4048202 0
0.039999999 0.045665272 0.0048482902 0.25019264 0.4048202 0
0.039999999 0.046941649 0.0048354622 0.25019264 0.4048202 0
0.039999999 0.048211295 0.0048227129 0.25019264 0.4048202 0
0.039999999 0.049474269 0.0048100427 0.25019264 0.4048202 0
0.039999999 0.050730623 0.0047974503 0.25019264 0.4048202 0
0.039999999 0.051980421 0.0047849347 0.25019264 0.4048202 0
0.039999999 0.053223718 0.0047724964 0.25019264 0.4048202 0
0.039999999 0.05446057 0.0047601336 0.25019264 0.4048202 0
0.039999999 0.055691034 0.0047478462 0.25019264 0.4048202 0
0.039999999 0.056915164 0.0047356337 0.25019264 0.4048202 0
0.039999999 0.058133017 0.0047234949 0.25019264 0.4048202 0
0.039999999 0.059344646 0.0047114296 0.25019264 0.4048202 0
0.039999999 0.060550101 0.0046994374 0.25019264 0.4048202 0
0.039999999 0.06174944 0.004687517 0.25019264 0.4048202 0
0.039999999 0.062942713 0.0046756682 0.25019264 0.4048202 0
0.039999999 0.064129971 0.0046638907 0.25019264 0.4048202 0
0.039999999 0.065311268 0.004652183 0.25019264 0.4048202 0
0.039999999 0.066486649 0.0046405457 0.25019264 0.4048202 0
0.039999999 0.067656167 0.0046289773 0.25019264 0.4048202 0
0.039999999 0.068819873 0.0046174778 0.25019264 0.4048202 0
0.039999999 0.069977812 0.0046060462 0.25019264 0.4048202 0
0.039999999 0.071130037 0.0045946823 0.25019264 0.4048202 0
0.039999999 0.072276592 0.0045833848 0.25019264 0.4048202 0
0.039999999 0.073417522 0.0045721545 0.25019264 0.4048202 0
0.039999999 0.074552886 0.0045609893 0.25019264 0.4048202 0
0.039999999 0.075682715 0.0045498898 0.25019264 0.4048202 0
0.039999999 0.076807059 0.0045388555 0.25019264 0.4048202 0
0.039999999 0.077925973 0.004527885 0.25019264 0.4048202 0
0.039999999 0.079039484 0.0045169783 0.25019264 0.4048202 0
0.039904408 0.079999998 0.0045081843 0.25019264 0.4048202 0
0.039187655 0.079999998 0.0045127282 0.25019264 0.4048202 0
0.038469456 0.079999998 0.0045172917 0.25019264 0.4048202 0
0.037749801 0.079999998 0.0045218756 0.25019264 0.4048202 0
0.037028681 0.079999998 0.0045264796 0.25019264 0.4048202 0
0.036306091 0.079999998 0.0045311041 0.25019264 0.4048202 0
0.035582021 0.079999998 0.0045357491 0.25019264 0.4048202 0
0.034856465 0.079999998 0.0045404141 0.25019264 0.4048202 0
0.034129411 0.079999998 0.0045451 0.25019264 0.4048202 0
0.033400852 0.079999998 0.0045498065 0.25019264 0.4048202 0
0.032670781 0.079999998 0.0045545339 0.25019264 0.4048202 0
0.031939194 0.079999998 0.0045592822 0.25019264 0.4048202 0
0.031206073 0.079999998 0.0045640515 0.25019264 0.4048202 0
0.030471416 0.079999998 0.0045688413 0.25019264 0.4048202 0
0.029735215 0.079999998 0.0045736525 0.25019264 0.4048202 0
0.028997459 0.079999998 0.0045784852 0.25019264 0.4048202 0
0.028258141 0.079999998 0.0045833387 0.25019264 0.4048202 0
0.027517252 0.079999998 0.0045882142 0.25019264 0.4048202 0
0.026774783 0.079999998 0.0045931106 0.25019264 0.4048202 0
0.026030727 0.079999998 0.004598029 0.25019264 0.4048202 0
0.025285073 0.079999998 0.0046029687 0.25019264 0.4048202 0
0.024537813 0.079999998 0.0046079303 0.25019264 0.4048202 0
0.023788938 0.079999998 0.0046129138 0.25019264 0.4048202 0
0.023038441 0.079999998 0.0046179192 0.25019264 0.4048202 0
0.022286311 0.079999998 0.0046229465 0.25019264 0.4048202 0
0.021532541 0.079999998 0.0046279961 0.25019264 0.4048202 0
0.020777119 0.079999998 0.0046330676 0.25019264 0.4048202 0
0.020020038 0.079999998 0.004638162 0.25019264 0.4048202 0
0.019261289 0.079999998 0.0046432787 0.25019264 0.4048202 0
0.018500863 0.079999998 0.0046484177 0.25019264 0.4048202 0
0.017738748 0.079999998 0.0046535791 0.25019264 0.4048202 0
0.016974939 0.079999998 0.0046587638 0.25019264 0.4048202 0
0.016209422 0.079999998 0.0046639713 0.25019264 0.4048202 0
0.015442192 0.079999998 0.0046692011 0.25019264 0.4048202 0
0.014673237 0.079999998 0.0046744547 0.25019264 0.4048202 0
0.013902547 0.079999998 0.0046797311 0.25019264 0.4048202 0
0.013130113 0.079999998 0.0046850303 0.25019264 0.4048202 0
0.012355927 0.079999998 0.0046903533 0.25019264 0.4048202 0
0.011579977 0.079999998 0.0046957 0.25019264 0.4048202 0
0.010802255 0.079999998 0.00470107 0.25019264 0.4048202 0
0.01002275 0.079999998 0.0047064638 0.25019264 0.4048202 0
0.0092414524 0.079999998 0.0047118808 0.25019264 0.4048202 0
0.0084583517 0.079999998 0.0047173225 0.25019264 0.4048202 0
0.0076734386 0.079999998 0.0047227875 0.25019264 0.4048202 0
0.006886703 0.079999998 0.0047282772 0.25019264 0.4048202 0
0.006098134 0.079999998 0.0047337906 0.25019264 0.4048202 0
0.0053077224 0.079999998 0.0047393288 0.25019264 0.4048202 0
0.004515457 0.079999998 0.0047448911 0.25019264 0.4048202 0
0.0037213278 0.079999998 0.0047504776 0.25019264 0.4048202 0
0.0029253243 0.079999998 0.0047560893 0.25019264 0.4048202 0
0.0021274362 0.079999998 0.0047617257 0.25019264 0.4048202 0
0.0013276528 0.079999998 0.0047673872 0.25019264 0.4048202 0
0.00052596355 0.079999998 0.0047730734 0.25019264 0.4048202 0
0.039999999 0.00087133062 0.0045978352 0.25019264 0.4048202 0
0.039999999 0.0023991482 0.004584156 0.25019264 0.4048202 0
0.039999999 0.0039179055 0.0045705689 0.25019264 0.4048202 0
0.039999999 0.0054276902 0.0045570731 0.25019264 0.4048202 0
0.039999999 0.0069285887 0.0045436681 0.25019264 0.4048202 0
0.039999999 0.0084206862 0.0045303521 0.25019264 0.4048202 0
0.039999999 0.009904068 0.004517125 0.25019264 0.4048202 0
0.039999999 0.011378816 0.0045039859 0.25019264 0.4048202 0
0.039999999 0.012845013 0.0044909334 0.25019264 0.4048202 0
0.039999999 0.01430274 0.0044779675 0.25019264 0.4048202 0
0.039999999 0.015752077 0.0044650869 0.25019264 0.4048202 0
0.039999999 0.017193105 0.0044522905 0.25019264 0.4048202 0
0.039999999 0.0186259 0.0044395784 0.25019264 0.4048202 0
0.039999999 0.020050539 0.0044269492 0.25019264 0.4048202 0
0.039999999 0.021467099 0.0044144019 0.25019264 0.4048202 0
0.039999999 0.022875657 0.0044019367 0.25019264 0.4048202 0
0.039999999 0.024276285 0.0043895519 0.25019264 0.4048202 0
0.039999999 0.025669057 0.0043772473 0.25019264 0.4048202 0
0.039999999 0.027054045 0.0043650218 0.25019264 0.4048202 0
0.039999999 0.028431322 0.0043528751 0.25019264 0.4048202 0
0.039999999 0.029800959 0.0043408065 0.25019264 0.4048202 0
0.039999999 0.031163026 0.0043288143 0.25019264 0.4048202 0
0.039999999 0.03251759 0.0043168995 0.25019264 0.4048202 0
0.039999999 0.033864722 0.0043050596 0.25019264 0.4048202 0
0.039999999 0.035204485 0.0042932951 0.25019264 0.4048202 0
0.039999999 0.036536951 0.0042816051 0.25019264 0.4048202 0
0.039999999 0.037862185 0.0042699892 0.25019264 0.4048202 0
0.039999999 0.039180249 0.0042584459 0.25019264 0.4048202 0
0.039999999 0.040491208 0.0042469753 0.25019264 0.4048202 0
0.039999999 0.041795131 0.0042355764 0.25019264 0.4048202 0
0.039999999 0.043092072 0.0042242487 0.25019264 0.4048202 0
0.039999999 0.044382099 0.0042129918 0.25019264 0.4048202 0
0.039999999 0.045665272 0.0042018043 0.25019264 0.4048202 0
0.039999999 0.046941649 0.0041906866 0.25019264 0.4048202 0
0.039999999 0.048211295 0.0041796374 0.25019264 0.4048202 0
0.039999999 0.049474269 0.0041686567 0.25019264 0.4048202 0
0.039999999 0.050730623 0.0041577434 0.25019264 0.4048202 0
0.039999999 0.051980421 0.0041468968 0.25019264 0.4048202 0
0.039999999 0.053223718 0.0041361167 0.25019264 0.4048202 0
0.039999999 0.05446057 0.0041254028 0.25019264 0.4048202 0
0.039999999 0.055691034 0.0041147536 0.25019264 0.4048202 0
0.039999999 0.056915164 0.0041041696 0.25019264 0.4048202 0
0.039999999 0.058133017 0.0040936493 0.25019264 0.4048202 0
0.039999999 0.059344646 0.0040831929 0.25019264 0.4048202 0
0.039999999 0.060550101 0.0040727998 0.25019264 0.4048202 0
0.039999999 0.06174944 0.0040624691 0.25019264 0.4048202 0
0.039999999 0.062942713 0.0040522004 0.25019264 0.4048202 0
0.039999999 0.064129971 0.0040419931 0.25019264 0.4048202 0
0.039999999 0.065311268 0.0040318468 0.25019264 0.4048202 0
0.039999999 0.066486649 0.004021761 0.25019264 0.4048202 0
0.039999999 0.067656167 0.0040117353 0.25019264 0.4048202 0
0.039999999 0.068819873 0.0040017688 0.25019264 0.4048202 0
0.039999999 0.069977812 0.0039918618 0.25019264 0.4048202 0
0.039999999 0.071130037 0.0039820131 0.25019264 0.4048202 0
0.039999999 0.072276592 0.0039722221 0.25019264 0.4048202 0
0.039999999 0.073417522 0.0039624893 0.25019264 0.4048202 0
0.039999999 0.074552886 0.0039528129 0.25019264 0.4048202 0
0.039999999 0.075682715 0.0039431937 0.25019264 0.4048202 0
0.039999999 0.076807059 0.0039336304 0.25019264 0.4048202 0
0.039999999 0.077925973 0.003924123 0.25019264 0.4048202 0
0.039999999 0.079039484 0.0039146706 0.25019264 0.4048202 0
0.039904408 0.079999998 0.0039070491 0.25019264 0.4048202 0
0.039187655 0.079999998 0.0039109872 0.25019264 0.4048202 0
0.038469456 0.079999998 0.003914942 0.25019264 0.4048202 0
0.037749801 0.079999998 0.0039189146 0.25019264 0.4048202 0
0.037028681 0.079999998 0.0039229048 0.25019264 0.4048202 0
0.036306091 0.079999998 0.0039269128 0.25019264 0.4048202 0
0.035582021 0.079999998 0.003930938 0.25019264 0.4048202 0
0.034856465 0.079999998 0.0039349813 0.25019264 0.4048202 0
0.034129411 0.079999998 0.0039390423 0.25019264 0.4048202 0
0.033400852 0.079999998 0.0039431215 0.25019264 0.4048202 0
0.032670781 0.079999998 0.0039472184 0.25019264 0.4048202 0
0.031939194 0.079999998 0.0039513335 0.25019264 0.4048202 0
0.031206073 0.079999998 0.0039554667 0.25019264 0.4048202 0
0.030471416 0.079999998 0.003959618 0.25019264 0.4048202 0
0.029735215 0.079999998 0.0039637876 0.25019264 0.4048202 0
0.028997459 0.079999998 0.0039679757 0.25019264 0.4048202 0
0.028258141 0.079999998 0.0039721821 0.25019264 0.4048202 0
0.027517252 0.079999998 0.0039764075 0.25019264 0.4048202 0
0.026774783 0.079999998 0.003980651 0.25019264 0.4048202 0
0.026030727 0.079999998 0.0039849132 0.25019264 0.4048202 0
0.025285073 0.079999998 0.0039891945 0.25019264 0.4048202 0
0.024537813 0.079999998 0.0039934944 0.25019264 0.4048202 0
0.023788938 0.079999998 0.0039978134 0.25019264 0.4048202 0
0.023038441 0.079999998 0.0040021515 0.25019264 0.4048202 0
0.022286311 0.079999998 0.0040065083 0.25019264 0.4048202 0
0.021532541 0.079999998 0.0040108846 0.25019264 0.4048202 0
0.020777119 0.079999998 0.0040152804 0.25019264 0.4048202 0
0.020020038 0.079999998 0.0040196949 0.25019264 0.4048202 0
0.019261289 0.079999998 0.0040241294 0.25019264 0.4048202 0
0.018500863 0.079999998 0.0040285834 0.25019264 0.4048202 0
0.017738748 0.079999998 0.0040330566 0.25019264 0.4048202 0
0.016974939 0.079999998 0.0040375497 0.25019264 0.4048202 0
0.016209422 0.079999998 0.0040420629 0.25019264 0.4048202 0
0.015442192 0.079999998 0.0040465957 0.25019264 0.4048202 0
0.014673237 0.079999998 0.0040511484 0.25019264 0.4048202 0
0.013902547 0.079999998 0.0040557212 0.25019264 0.4048202 0
0.013130113 0.079999998 0.004060314 0.25019264 0.4048202 0
0.012355927 0.079999998 0.0040649273 0.25019264 0.4048202 0
0.011579977 0.079999998 0.0040695607 0.25019264 0.4048202 0
0.010802255 0.079999998 0.0040742145 0.25019264 0.4048202 0
0.01002275 0.079999998 0.0040788893 0.25019264 0.4048202 0
0.0092414524 0.079999998 0.0040835841 0.25019264 0.4048202 0
0.0084583517 0.079999998 0.0040882998 0.25019264 0.4048202 0
0.0076734386 0.079999998 0.0040930365 0.25019264 0.4048202 0
0.006886703 0.079999998 0.0040977937 0.25019264 0.4048202 0
0.006098134 0.079999998 0.0041025723 0.25019264 0.4048202 0
0.0053077224 0.079999998 0.0041073719 0.25019264 0.4048202 0
0.004515457 0.079999998 0.0041121924 0.25019264 0.4048202 0
0.0037213278 0.079999998 0.0041170344 0.25019264 0.4048202 0
0.0029253243 0.079999998 0.0041218977 0.25019264 0.4048202 0
0.0021274362 0.079999998 0.0041267825 0.25019264 0.4048202 0
0.0013276528 0.079999998 0.0041316887 0.25019264 0.4048202 0
0.00052596355 0.079999998 0.0041366168 0.25019264 0.4048202 0
0.039999999 0.00087133062 0.0038904385 0.25019264 0.4048202 0
0.039999999 0.0023991482 0.0038788638 0.25019264 0.4048202 0
0.039999999 0.0039179055 0.0038673673 0.25019264 0.4048202 0
0.039999999 0.0054276902 0.0038559479 0.25019264 0.4048202 0
0.039999999 0.0069285887 0.0038446051 0.25019264 0.4048202 0
0.039999999 0.0084206862 0.0038333379 0.25019264 0.4048202 0
0.039999999 0.009904068 0.0038221458 0.25019264 0.4048202 0
0.039999999 0.011378816 0.0038110281 0.25019264 0.4048202 0
0.039999999 0.012845013 0.0037999838 0.25019264 0.4048202 0
0.039999999 0.01430274 0.0037890128 0.25019264 0.4048202 0
0.039999999 0.015752077 0.0037781138 0.25019264 0.4048202 0
0.039999999 0.017193105 0.0037672864 0.25019264 0.4048202 0
0.039999999 0.0186259 0.0037565299 0.25019264 0.4048202 0
0.039999999 0.020050539 0.0037458439 0.25019264 0.4048202 0
0.039999999 0.021467099 0.0037352273 0.25019264 0.4048202 0
0.039999999 0.022875657 0.0037246798 0.25019264 0.4048202 0
0.039999999 0.024276285 0.0037142006 0.25019264 0.4048202 0
0.039999999 0.025669057 0.0037037889 0.25019264 0.4048202 0
0.039999999 0.027054045 0.0036934444 0.25019264 0.4048202 0
0.039999999 0.028431322 0.0036831666 0.25019264 0.4048202 0
0.039999999 0.029800959 0.0036729544 0.25019264 0.4048202 0
0.039999999 0.031163026 0.0036628076 0.25019264 0.4048202 0
0.039999999 0.03251759 0.0036527256 0.25019264 0.4048202 0
0.039999999 0.033864722 0.0036427076 0.25019264 0.4048202 0
0.039999999 0.035204485 0.0036327532 0.25019264 0.4048202 0
0.039999999 0.036536951 0.0036228618 0.25019264 0.4048202 0
0.039999999 0.037862185 0.0036130329 0.25019264 0.4048202 0
0.039999999 0.039180249 0.0036032656 0.25019264 0.4048202 0
0.039999999 0.040491208 0.0035935596 0.25019264 0.4048202 0
0.039999999 0.041795131 0.0035839146 0.25019264 0.4048202 0
0.039999999 0.043092072 0.0035743297 0.25019264 0.4048202 0
0.039999999 0.044382099 0.0035648046 0.25019264 0.4048202 0
0.039999999 0.045665272 0.0035553386 0.25019264 0.4048202 0
0.039999999 0.046941649 0.0035459313 0.25019264 0.4048202 0
0.039999999 0.048211295 0.0035365822 0.25019264 0.4048202 0
0.039999999 0.049474269 0.0035272909 0.25019264 0.4048202 0
0.039999999 0.050730623 0.0035180564 0.25019264 0.4048202 0
0.039999999 0.051980421 0.0035088789 0.25019264 0.4048202 0
0.039999999 0.053223718 0.0034997573 0.25019264 0.4048202 0
0.039999999 0.05446057 0.0034906915 0.25019264 0.4048202 0
0.039999999 0.055691034 0.003481681 0.25019264 0.4048202 0
0.039999999 0.056915164 0.0034727254 0.25019264 0.4048202 0
0.039999999 0.058133017 0.0034638238 0.25019264 0.4048202 0
0.039999999 0.059344646 0.0034549762 0.25019264 0.4048202 0
0.039999999 0.060550101 0.003446182 0.25019264 0.4048202 0
0.039999999 0.06174944 0.0034374406 0.25019264 0.4048202 0
0.039999999 0.062942713 0.0034287516 0.25019264 0.4048202 0
0.039999999 0.064129971 0.003420115 0.25019264 0.4048202 0
0.039999999 0.065311268 0.0034115296 0.25019264 0.4048202 0
0.039999999 0.066486649 0.0034029956 0.25019264 0.4048202 0
0.039999999 0.067656167 0.0033945125 0.25019264 0.4048202 0
0.039999999 0.068819873 0.0033860796 0.25019264 0.4048202 0
0.039999999 0.069977812 0.0033776965 0.25019264 0.4048202 0
0.039999999 0.071130037 0.003369363 0.25019264 0.4048202 0
0.039999999 0.072276592 0.0033610787 0.25019264 0.4048202 0
0.039999999 0.073417522 0.003352843 0.25019264 0.4048202 0
0.039999999 0.074552886 0.0033446557 0.25019264 0.4048202 0
0.039999999 0.075682715 0.0033365162 0.25019264 0.4048202 0
0.039999999 0.076807059 0.0033284244 0.25019264 0.4048202 0
0.039999999 0.077925973 0.0033203796 0.25019264 0.4048202 0
0.039999999 0.079039484 0.0033123817 0.25019264 0.4048202 0
0.039904408 0.079999998 0.0033059327 0.25019264 0.4048202 0
0.039187655 0.079999998 0.0033092648 0.25019264 0.4048202 0
0.038469456 0.079999998 0.0033126113 0.25019264 0.4048202 0
0.037749801 0.079999998 0.0033159729 0.25019264 0.4048202 0
0.037028681 0.079999998 0.0033193489 0.25019264 0.4048202 0
0.036306091 0.079999998 0.0033227401 0.25019264 0.4048202 0
0.035582021 0.079999998 0.0033261464 0.25019264 0.4048202 0
0.034856465 0.079999998 0.0033295674 0.25019264 0.4048202 0
0.034129411 0.079999998 0.0033330037 0.25019264 0.4048202 0
0.033400852 0.079999998 0.0033364552 0.25019264 0.4048202 0
0.032670781 0.079999998 0.0033399218 0.25019264 0.4048202 0
0.031939194 0.079999998 0.0033434036 0.25019264 0.4048202 0
0.031206073 0.079999998 0.0033469009 0.25019264 0.4048202 0
0.030471416 0.079999998 0.0033504136 0.25019264 0.4048202 0
0.029735215 0.079999998 0.0033539417 0.25019264 0.4048202 0
0.028997459 0.079999998 0.0033574856 0.25019264 0.4048202 0
0.028258141 0.079999998 0.0033610449 0.25019264 0.4048202 0
0.027517252 0.079999998 0.0033646198 0.25019264 0.4048202 0
0.026774783 0.079999998 0.0033682107 0.25019264 0.4048202 0
0.026030727 0.079999998 0.0033718173 0.25019264 0.4048202 0
0.025285073 0.079999998 0.0033754397 0.25019264 0.4048202 0
0.024537813 0.079999998 0.0033790781 0.25019264 0.4048202 0
0.023788938 0.079999998 0.0033827326 0.25019264 0.4048202 0
0.023038441 0.079999998 0.0033864032 0.25019264 0.4048202 0
0.022286311 0.079999998 0.0033900898 0.25019264 0.4048202 0
0.021532541 0.079999998 0.0033937928 0.25019264 0.4048202 0
0.020777119 0.079999998 0.003397512 0.25019264 0.4048202 0
0.020020038 0.079999998 0.0034012476 0.25019264 0.4048202 0
0.019261289 0.079999998 0.0034049996 0.25019264 0.4048202 0
0.018500863 0.079999998 0.0034087682 0.25019264 0.4048202 0
0.017738748 0.079999998 0.0034125536 0.25019264 0.4048202 0
0.016974939 0.079999998 0.0034163552 0.25019264 0.4048202 0
0.016209422 0.079999998 0.0034201739 0.25019264 0.4048202 0
0.015442192 0.079999998 0.0034240093 0.25019264 0.4048202 0
0.014673237 0.079999998 0.0034278617 0.25019264 0.4048202 0
0.013902547 0.079999998 0.0034317309 0.25019264 0.4048202 0
0.013130113 0.079999998 0.0034356173 0.25019264 0.4048202 0
0.012355927 0.079999998 0.0034395207 0.25019264 0.4048202 0
0.011579977 0.079999998 0.0034434414 0.25019264 0.4048202 0
0.010802255 0.079999998 0.0034473792 0.25019264 0.4048202 0
0.01002275 0.079999998 0.0034513345 0.25019264 0.4048202 0
0.0092414524 0.079999998 0.0034553071 0.25019264 0.4048202 0
0.0084583517 0.079999998 0.0034592974 0.25019264 0.4048202 0
0.0076734386 0.079999998 0.0034633051 0.25019264 0.4048202 0
0.006886703 0.079999998 0.0034673307 0.25019264 0.4048202 0
0.006098134 0.079999998 0.0034713738 0.25019264 0.4048202 0
0.0053077224 0.079999998 0.0034754348 0.25019264 0.4048202 0
0.004515457 0.079999998 0.0034795138 0.25019264 0.4048202 0
0.0037213278 0.079999998 0.0034836109 0.25019264 0.4048202 0
0.0029253243 0.079999998 0.003487726 0.25019264 0.4048202 0
0.0021274362 0.079999998 0.0034918592 0.25019264 0.4048202 0
0.0013276528 0.079999998 0.0034960108 0.25019264 0.4048202 0
0.00052596355 0.079999998 0.0035001806 0.25019264 0.4048202 0
0.039999999 0.00087133062 0.0031830603 0.25019264 0.4048202 0
0.039999999 0.0023991482 0.0031735904 0.25019264 0.4048202 0
0.039999999 0.0039179055 0.003164184 0.25019264 0.4048202 0
0.039999999 0.0054276902 0.003154841 0.25019264 0.4048202 0
0.039999999 0.0069285887 0.0031455606 0.25019264 0.4048202 0
0.039999999 0.0084206862 0.0031363422 0.25019264 0.4048202 0
0.039999999 0.009904068 0.0031271849 0.25019264 0.4048202 0
0.039999999 0.011378816 0.0031180887 0.25019264 0.4048202 0
0.039999999 0.012845013 0.0031090528 0.25019264 0.4048202 0
0.039999999 0.01430274 0.0031000765 0.25019264 0.4048202 0
0.039999999 0.015752077 0.003091159 0.25019264 0.4048202 0
0.039999999 0.017193105 0.0030823005 0.25019264 0.4048202 0
0.039999999 0.0186259 0.0030734998 0.25019264 0.4048202 0
0.039999999 0.020050539 0.0030647567 0.25019264 0.4048202 0
0.039999999 0.021467099 0.0030560705 0.25019264 0.4048202 0
0.039999999 0.022875657 0.0030474407 0.25019264 0.4048202 0
0.039999999 0.024276285 0.0030388669 0.25019264 0.4048202 0
0.039999999 0.025669057 0.0030303483 0.25019264 0.4048202 0
0.039999999 0.027054045 0.0030218849 0.25019264 0.4048202 0
0.039999999 0.028431322 0.0030134758 0.25019264 0.4048202 0
0.039999999 0.029800959 0.0030051204 0.25019264 0.4048202 0
0.039999999 0.031163026 0.0029968186 0.25019264 0.4048202 0
0.039999999 0.03251759 0.0029885697 0.25019264 0.4048202 0
0.039999999 0.033864722 0.0029803731 0.25019264 0.4048202 0
0.039999999 0.035204485 0.0029722287 0.25019264 0.4048202 0
0.039999999 0.036536951 0.0029641357 0.25019264 0.4048202 0
0.039999999 0.037862185 0.002956094 0.25019264 0.4048202 0
0.039999999 0.039180249 0.0029481028 0.25019264 0.4048202 0
0.039999999 0.040491208 0.0029401616 0.25019264 0.4048202 0
0.039999999 0.041795131 0.0029322703 0.25019264 0.4048202 0
0.039999999 0.043092072 0.0029244281 0.25019264 0.4048202 0
0.039999999 0.044382099 0.0029166348 0.25019264 0.4048202 0
0.039999999 0.045665272 0.0029088901 0.25019264 0.4048202 0
0.039999999 0.046941649 0.0029011932 0.25019264 0.4048202 0
0.039999999 0.048211295 0.002893544 0.25019264 0.4048202 0
0.039999999 0.049474269 0.0028859419 0.25019264 0.4048202 0
0.039999999 0.050730623 0.0028783868 0.25019264 0.4048202 0
0.039999999 0.051980421 0.0028708777 0.25019264 0.4048202 0
0.039999999 0.053223718 0.0028634148 0.25019264 0.4048202 0
0.039999999 0.05446057 0.0028559975 0.25019264 0.4048202 0
0.039999999 0.055691034 0.0028486252 0.25019264 0.4048202 0
0.039999999 0.056915164 0.0028412978 0.25019264 0.4048202 0
0.039999999 0.058133017 0.0028340148 0.25019264 0.4048202 0
0.039999999 0.059344646 0.0028267759 0.25019264 0.4048202 0
0.039999999 0.060550101 0.0028195807 0.25019264 0.4048202 0
0.039999999 0.06174944 0.0028124286 0.25019264 0.4048202 0
0.039999999 0.062942713 0.0028053198 0.25019264 0.4048202 0
0.039999999 0.064129971 0.0027982532 0.25019264 0.4048202 0
0.039999999 0.065311268 0.0027912292 0.25019264 0.4048202 0
0.039999999 0.066486649 0.0027842468 0.25019264 0.4048202 0
0.039999999 0.067656167 0.0027773059 0.25019264 0.4048202 0
0.039999999 0.068819873 0.0027704064 0.25019264 0.4048202 0
0.039999999 0.069977812 0.0027635477 0.25019264 0.4048202 0
0.039999999 0.071130037 0.0027567295 0.25019264 0.4048202 0
0.039999999 0.072276592 0.0027499513 0.25019264 0.4048202 0
0.039999999 0.073417522 0.0027432132 0.25019264 0.4048202 0
0.039999999 0.074552886 0.0027365144 0.25019264 0.4048202 0
0.039999999 0.075682715 0.002729855 0.25019264 0.4048202 0
0.039999999 0.076807059 0.0027232345 0.25019264 0.4048202 0
0.039999999 0.077925973 0.0027166524 0.25019264 0.4048202 0
0.039999999 0.079039484 0.0027101086 0.25019264 0.4048202 0
0.039904408 0.079999998 0.0027048325 0.25019264 0.4048202 0
0.039187655 0.079999998 0.0027075585 0.25019264 0.4048202 0
0.038469456 0.079999998 0.0027102965 0.25019264 0.4048202 0
0.037749801 0.079999998 0.0027130467 0.25019264 0.4048202 0
0.037028681 0.079999998 0.002715809 0.25019264 0.4048202 0
0.036306091 0.079999998 0.0027185837 0.25019264 0.4048202 0
0.035582021 0.079999998 0.0027213704 0.25019264 0.4048202 0
0.034856465 0.079999998 0.0027241695 0.25019264 0.4048202 0
0.034129411 0.079999998 0.0027269812 0.25019264 0.4048202 0
0.033400852 0.079999998 0.002729805 0.25019264 0.4048202 0
0.032670781 0.079999998 0.0027326413 0.25019264 0.4048202 0
0.031939194 0.079999998 0.00273549 0.25019264 0.4048202 0
0.031206073 0.079999998 0.0027383515 0.25019264 0.4048202 0
0.030471416 0.079999998 0.0027412255 0.25019264 0.4048202 0
0.029735215 0.079999998 0.0027441122 0.25019264 0.4048202 0
0.028997459 0.079999998 0.0027470116 0.25019264 0.4048202 0
0.028258141 0.079999998 0.0027499236 0.25019264 0.4048202 0
0.027517252 0.079999998 0.0027528487 0.25019264 0.4048202 0
0.026774783 0.079999998 0.0027557865 0.25019264 0.4048202 0
0.026030727 0.079999998 0.0027587374 0.25019264 0.4048202 0
0.025285073 0.079999998 0.0027617011 0.25019264 0.4048202 0
0.024537813 0.079999998 0.0027646781 0.25019264 0.4048202 0
0.023788938 0.079999998 0.0027676681 0.25019264 0.4048202 0
0.023038441 0.079999998 0.0027706712 0.25019264 0.4048202 0
0.022286311 0.079999998 0.0027736875 0.25019264 0.4048202 0
0.021532541 0.079999998 0.0027767173 0.25019264 0.4048202 0
0.020777119 0.079999998 0.0027797602 0.25019264 0.4048202 0
0.020020038 0.079999998 0.0027828165 0.25019264 0.4048202 0
0.019261289 0.079999998 0.0027858864 0.25019264 0.4048202 0
0.018500863 0.079999998 0.0027889698 0.25019264 0.4048202 0
0.017738748 0.079999998 0.0027920667 0.25019264 0.4048202 0
0.016974939 0.079999998 0.0027951773 0.25019264 0.4048202 0
0.016209422 0.079999998 0.0027983016 0.25019264 0.4048202 0
0.015442192 0.079999998 0.0028014397 0.25019264 0.4048202 0
0.014673237 0.079999998 0.0028045916 0.25019264 0.4048202 0
0.013902547 0.079999998 0.0028077574 0.25019264 0.4048202 0
0.013130113 0.079999998 0.0028109369 0.25019264 0.4048202 0
0.012355927 0.079999998 0.0028141306 0.25019264 0.4048202 0
0.011579977 0.079999998 0.0028173383 0.25019264 0.4048202 0
0.010802255 0.079999998 0.0028205602 0.25019264 0.4048202 0
0.01002275 0.079999998 0.0028237964 0.25019264 0.4048202 0
0.0092414524 0.079999998 0.0028270467 0.25019264 0.4048202 0
0.0084583517 0.079999998 0.0028303114 0.25019264 0.4048202 0
0.0076734386 0.079999998 0.0028335906 0.25019264 0.4048202 0
0.006886703 0.079999998 0.002836884 0.25019264 0.4048202 0
0.006098134 0.079999998 0.0028401921 0.25019264 0.4048202 0
0.0053077224 0.079999998 0.0028435148 0.25019264 0.4048202 0
0.004515457 0.079999998 0.0028468522 0.25019264 0.4048202 0
0.0037213278 0.079999998 0.0028502042 0.25019264 0.4048202 0
0.0029253243 0.079999998 0.002853571 0.25019264 0.4048202 0
0.0021274362 0.079999998 0.0028569528 0.25019264 0.4048202 0
0.0013276528 0.079999998 0.0028603494 0.25019264 0.4048202 0
0.00052596355 0.079999998 0.002863761 0.25019264 0.4048202 0
0.039999999 0.00087133062 0.0024756978 0.25019264 0.4048202 0
0.039999999 0.0023991482 0.0024683322 0.25019264 0.4048202 0
0.039999999 0.0039179055 0.0024610162 0.25019264 0.4048202 0
0.039999999 0.0054276902 0.0024537495 0.25019264 0.4048202 0
0.039999999 0.0069285887 0.0024465313 0.25019264 0.4048202 0
0.039999999 0.0084206862 0.0024393615 0.25019264 0.4048202 0
0.039999999 0.009904068 0.0024322392 0.25019264 0.4048202 0
0.039999999 0.011378816 0.0024251644 0.25019264 0.4048202 0
0.039999999 0.012845013 0.0024181365 0.25019264 0.4048202 0
0.039999999 0.01430274 0.002411155 0.25019264 0.4048202 0
0.039999999 0.015752077 0.0024042195 0.25019264 0.4048202 0
0.039999999 0.017193105 0.0023973293 0.25019264 0.4048202 0
0.039999999 0.0186259 0.0023904846 0.25019264 0.4048202 0
0.039999999 0.020050539 0.0023836843 0.25019264 0.4048202 0
0.039999999 0.021467099 0.0023769285 0.25019264 0.4048202 0
0.039999999 0.022875657 0.0023702164 0.25019264 0.4048202 0
0.039999999 0.024276285 0.0023635479 0.25019264 0.4048202 0
0.039999999 0.025669057 0.0023569225 0.25019264 0.4048202 0
0.039999999 0.027054045 0.0023503397 0.25019264 0.4048202 0
0.039999999 0.028431322 0.0023437995 0.25019264 0.4048202 0
0.039999999 0.029800959 0.0023373009 0.25019264 0.4048202 0
0.039999999 0.031163026 0.0023308438 0.25019264 0.4048202 0
0.039999999 0.03251759 0.0023244282 0.25019264 0.4048202 0
0.039999999 0.033864722 0.002318053 0.25019264 0.4048202 0
0.039999999 0.035204485 0.0023117187 0.25019264 0.4048202 0
0.039999999 0.036536951 0.0023054241 0.25019264 0.4048202 0
0.039999999 0.037862185 0.0022991693 0.25019264 0.4048202 0
0.039999999 0.039180249 0.0022929539 0.25019264 0.4048202 0
0.039999999 0.040491208 0.0022867776 0.25019264 0.4048202 0
0.039999999 0.041795131 0.00228064 0.25019264 0.4048202 0
0.039999999 0.043092072 0.0022745405 0.25019264 0.4048202 0
0.039999999 0.044382099 0.0022684792 0.25019264 0.4048202 0
0.039999999 0.045665272 0.0022624554 0.25019264 0.4048202 0
0.039999999 0.046941649 0.0022564691 0.25019264 0.4048202 0
0.039999999 0.048211295 0.0022505198 0.25019264 0.4048202 0
0.039999999 0.049474269 0.0022446071 0.25019264 0.4048202 0
0.039999999 0.050730623 0.0022387309 0.25019264 0.4048202 0
0.039999999 0.051980421 0.0022328906 0.25019264 0.4048202 0
0.039999999 0.053223718 0.0022270861 0.25019264 0.4048202 0
0.039999999 0.05446057 0.002221317 0.25019264 0.4048202 0
0.039999999 0.055691034 0.0022155831 0.25019264 0.4048202 0
0.039999999 0.056915164 0.0022098841 0.25019264 0.4048202 0
0.039999999 0.058133017 0.0022042196 0.25019264 0.4048202 0
0.039999999 0.059344646 0.0021985893 0.25019264 0.4048202 0
0.039999999 0.060550101 0.0021929932 0.25019264 0.4048202 0
0.039999999 0.06174944 0.0021874304 0.25019264 0.4048202 0
0.039999999 0.062942713 0.0021819014 0.25019264 0.4048202 0
0.039999999 0.064129971 0.0021764052 0.25019264 0.4048202 0
0.039999999 0.065311268 0.002170942 0.25019264 0.4048202 0
0.039999999 0.066486649 0.0021655113 0.25019264 0.4048202 0
0.039999999 0.067656167 0.0021601131 0.25019264 0.4048202 0
0.039999999 0.068819873 0.0021547466 0.25019264 0.4048202 0
0.039999999 0.069977812 0.0021494122 0.25019264 0.4048202 0
0.039999999 0.071130037 0.002144109 0.25019264 0.4048202 0
0.039999999 0.072276592 0.0021388372 0.25019264 0.4048202 0
0.039999999 0.073417522 0.0021335965 0.25019264 0.4048202 0
0.039999999 0.074552886 0.0021283864 0.25019264 0.4048202 0
0.039999999 0.075682715 0.0021232069 0.25019264 0.4048202 0
0.039999999 0.076807059 0.0021180576 0.25019264 0.4048202 0
0.039999999 0.077925973 0.0021129383 0.25019264 0.4048202 0
0.039999999 0.079039484 0.0021078486 0.25019264 0.4048202 0
0.039904408 0.079999998 0.002103745 0.25019264 0.4048202 0
0.039187655 0.079999998 0.0021058652 0.25019264 0.4048202 0
0.038469456 0.079999998 0.0021079949 0.25019264 0.4048202 0
0.037749801 0.079999998 0.0021101339 0.25019264 0.4048202 0
0.037028681 0.079999998 0.0021122824 0.25019264 0.4048202 0
0.036306091 0.079999998 0.0021144403 0.25019264 0.4048202 0
0.035582021 0.079999998 0.002116608 0.25019264 0.4048202 0
0.034856465 0.079999998 0.0021187849 0.25019264 0.4048202 0
0.034129411 0.079999998 0.0021209717 0.25019264 0.4048202 0
0.033400852 0.079999998 0.002123168 0.25019264 0.4048202 0
0.032670781 0.079999998 0.002125374 0.25019264 0.4048202 0
0.031939194 0.079999998 0.0021275897 0.25019264 0.4048202 0
0.031206073 0.079999998 0.0021298153 0.25019264 0.4048202 0
0.030471416 0.079999998 0.0021320505 0.25019264 0.4048202 0
0.029735215 0.079999998 0.0021342956 0.25019264 0.4048202 0
0.028997459 0.079999998 0.0021365508 0.25019264 0.4048202 0
0.028258141 0.079999998 0.0021388158 0.25019264 0.4048202 0
0.027517252 0.079999998 0.0021410908 0.25019264 0.4048202 0
0.026774783 0.079999998 0.0021433758 0.25019264 0.4048202 0
0.026030727 0.079999998 0.0021456708 0.25019264 0.4048202 0
0.025285073 0.079999998 0.0021479761 0.25019264 0.4048202 0
0.024537813 0.079999998 0.0021502913 0.25019264 0.4048202 0
0.023788938 0.079999998 0.0021526169 0.25019264 0.4048202 0
0.023038441 0.079999998 0.0021549526 0.25019264 0.4048202 0
0.022286311 0.079999998 0.0021572986 0.25019264 0.4048202 0
0.021532541 0.079999998 0.0021596551 0.25019264 0.4048202 0
0.020777119 0.079999998 0.0021620218 0.25019264 0.4048202 0
0.020020038 0.079999998 0.002164399 0.25019264 0.4048202 0
0.019261289 0.079999998 0.0021667867 0.25019264 0.4048202 0
0.018500863 0.079999998 0.0021691849 0.25019264 0.4048202 0
0.017738748 0.079999998 0.0021715935 0.25019264 0.4048202 0
0.016974939 0.079999998 0.0021740128 0.25019264 0.4048202 0
0.016209422 0.079999998 0.0021764429 0.25019264 0.4048202 0
0.015442192 0.079999998 0.0021788834 0.25019264 0.4048202 0
0.014673237 0.079999998 0.0021813349 0.25019264 0.4048202 0
0.013902547 0.079999998 0.0021837971 0.25019264 0.4048202 0
0.013130113 0.079999998 0.0021862702 0.25019264 0.4048202 0
0.012355927 0.079999998 0.0021887543 0.25019264 0.4048202 0
0.011579977 0.079999998 0.002191249 0.25019264 0.4048202 0
0.010802255 0.079999998 0.002193755 0.25019264 0.4048202 0
0.01002275 0.079999998 0.0021962719 0.25019264 0.4048202 0
0.0092414524 0.079999998 0.0021988 0.25019264 0.4048202 0
0.0084583517 0.079999998 0.0022013392 0.25019264 0.4048202 0
0.0076734386 0.079999998 0.0022038897 0.25019264 0.4048202 0
0.006886703 0.079999998 0.0022064513 0.25019264 0.4048202 0
0.006098134 0.079999998 0.002209024 0.25019264 0.4048202 0
0.0053077224 0.079999998 0.0022116085 0.25019264 0.4048202 0
0.004515457 0.079999998 0.0022142041 0.25019264 0.4048202 0
0.0037213278 0.079999998 0.0022168113 0.25019264 0.4048202 0
0.0029253243 0.079999998 0.0022194299 0.25019264 0.4048202 0
0.0021274362 0.079999998 0.00222206 0.25019264 0.4048202 0
0.0013276528 0.079999998 0.0022247019 0.25019264 0.4048202 0
0.00052596355 0.079999998 0.0022273553 0.25019264 0.4048202 0
0.039999999 0.00087133062 0.001768347 0.25019264 0.4048202 0
0.039999999 0.0023991482 0.001763086 0.25019264 0.4048202 0
0.039999999 0.0039179055 0.0017578603 0.25019264 0.4048202 0
0.039999999 0.0054276902 0.0017526697 0.25019264 0.4048202 0
0.039999999 0.0069285887 0.001747514 0.25019264 0.4048202 0
0.039999999 0.0084206862 0.0017423927 0.25019264 0.4048202 0
0.039999999 0.009904068 0.0017373054 0.25019264 0.4048202 0
0.039999999 0.011378816 0.001732252 0.25019264 0.4048202 0
0.039999999 0.012845013 0.001727232 0.25019264 0.4048202 0
0.039999999 0.01430274 0.0017222452 0.25019264 0.4048202 0
0.039999999 0.015752077 0.0017172913 0.25019264 0.4048202 0
0.039999999 0.017193105 0.0017123698 0.25019264 0.4048202 0
0.039999999 0.0186259 0.0017074806 0.25019264 0.4048202 0
0.039999999 0.020050539 0.0017026234 0.25019264 0.4048202 0
0.039999999 0.021467099 0.0016977978 0.25019264 0.4048202 0
0.039999999 0.022875657 0.0016930036 0.25019264 0.4048202 0
0.039999999 0.024276285 0.0016882403 0.25019264 0.4048202 0
0.039999999 0.025669057 0.0016835079 0.25019264 0.4048202 0
0.039999999 0.027054045 0.001678806 0.25019264 0.4048202 0
0.039999999 0.028431322 0.0016741343 0.25019264 0.4048202 0
0.039999999 0.029800959 0.0016694926 0.25019264 0.4048202 0
0.039999999 0.031163026 0.0016648804 0.25019264 0.4048202 0
0.039999999 0.03251759 0.0016602977 0.25019264 0.4048202 0
0.039999999 0.033864722 0.0016557443 0.25019264 0.4048202 0
0.039999999 0.035204485 0.0016512196 0.25019264 0.4048202 0
