# .PCD v0.7 - Point Cloud Data file format
VERSION 0.7
FIELDS x y z vp_x vp_y vp_z
SIZE 4 4 4 4 4 4
TYPE F F F F F F
COUNT 1 1 1 1 1 1
WIDTH 800
HEIGHT 1
VIEWPOINT 0 0 0 1 0 0 0
POINTS 800
DATA ascii
0.012701373 0.041385401 0.058757752 0.25019264 -0.4048202 0
0.013783431 0.041020796 0.058661312 0.25019264 -0.4048202 0
0.014847098 0.04068549 0.058569025 0.25019264 -0.4048202 0
0.015847381 0.040465333 0.058492154 0.25019264 -0.4048202 0
0.016840052 0.040255271 0.058416877 0.25019264 -0.4048202 0
0.017773794 0.04015369 0.058356088 0.25019264 -0.4048202 0
0.018705597 0.040052317 0.058295567 0.25019264 -0.4048202 0
0.019594966 0.040029299 0.05824554 0.25019264 -0.4048202 0
0.020470945 0.040029299 0.05819875 0.25019264 -0.4048202 0
0.021331595 0.040056366 0.058155712 0.25019264 -0.4048202 0
0.022158714 0.040146347 0.0581211 0.25019264 -0.4048202 0
0.022984849 0.04023622 0.058086667 0.25019264 -0.4048202 0
0.023780767 0.040383488 0.05805992 0.25019264 -0.4048202 0
0.024563245 0.040555708 0.058036599 0.25019264 -0.4048202 0
0.025345096 0.04072779 0.058013443 0.25019264 -0.4048202 0
0.026087357 0.040977255 0.058000527 0.25019264 -0.4048202 0
0.026829012 0.041227162 0.057987832 0.25019264 -0.4048202 0
0.02756181 0.041494068 0.057977501 0.25019264 -0.4048202 0
0.028265219 0.041819502 0.057974923 0.25019264 -0.4048202 0
0.028968569 0.04214491 0.057972487 0.25019264 -0.4048202 0
0.029655809 0.042502847 0.057974413 0.25019264 -0.4048202 0
0.030322036 0.042903695 0.057982028 0.25019264 -0.4048202 0
0.030988438 0.043304652 0.057989787 0.25019264 -0.4048202 0
0.03163071 0.043755613 0.058004141 0.25019264 -0.4048202 0
0.032260071 0.04423406 0.058022164 0.25019264 -0.4048202 0
0.032889824 0.044712804 0.058040339 0.25019264 -0.4048202 0
0.033484589 0.045265343 0.058068145 0.25019264 -0.4048202 0
0.034076352 0.045825865 0.058097083 0.25019264 -0.4048202 0
0.034658238 0.046408858 0.058129009 0.25019264 -0.4048202 0
0.035209619 0.047057968 0.05816954 0.25019264 -0.4048202 0
0.03576177 0.047707986 0.058210269 0.25019264 -0.4048202 0
0.036282152 0.048427865 0.058260057 0.25019264 -0.4048202 0
0.03679017 0.049177185 0.058313694 0.25019264 -0.4048202 0
0.037282564 0.049963266 0.05837211 0.25019264 -0.4048202 0
0.037740488 0.050826974 0.05844054 0.25019264 -0.4048202 0
0.038193069 0.05170653 0.058511045 0.25019264 -0.4048202 0
0.038591754 0.052707121 0.058597088 0.25019264 -0.4048202 0
0.038984325 0.053726476 0.058685552 0.25019264 -0.4048202 0
0.039309621 0.054898169 0.058793511 0.25019264 -0.4048202 0
0.039604872 0.056142583 0.058910754 0.25019264 -0.4048202 0
0.039833989 0.057539918 0.059047502 0.25019264 -0.4048202 0
0.039955724 0.059183113 0.059215575 0.25019264 -0.4048202 0
0.039937854 0.061146636 0.059424408 0.25019264 -0.4048202 0
0.039613232 0.063806415 0.05972182 0.25019264 -0.4048202 0
0.0057263114 0.046012774 0.058808085 0.25019264 -0.4048202 0
0.0074901283 0.044423934 0.058551583 0.25019264 -0.4048202 0
0.0089846011 0.04332085 0.058358911 0.25019264 -0.4048202 0
0.010308899 0.042524077 0.058206558 0.25019264 -0.4048202 0
0.011528201 0.041915078 0.058079008 0.25019264 -0.4048202 0
0.012701373 0.041385401 0.057962116 0.25019264 -0.4048202 0
0.013783431 0.041020796 0.057866983 0.25019264 -0.4048202 0
0.014847098 0.04068549 0.057775941 0.25019264 -0.4048202 0
0.015847381 0.040465333 0.057700112 0.25019264 -0.4048202 0
0.016840052 0.040255271 0.057625853 0.25019264 -0.4048202 0
0.017773794 0.04015369 0.05756589 0.25019264 -0.4048202 0
0.018705597 0.040052317 0.057506189 0.25019264 -0.4048202 0
0.019594966 0.040029299 0.05745684 0.25019264 -0.4048202 0
0.020470945 0.040029299 0.05741068 0.25019264 -0.4048202 0
0.021331595 0.040056366 0.057368226 0.25019264 -0.4048202 0
0.022158714 0.040146347 0.057334084 0.25019264 -0.4048202 0
0.022984849 0.04023622 0.057300121 0.25019264 -0.4048202 0
0.023780767 0.040383488 0.057273731 0.25019264 -0.4048202 0
0.024563245 0.040555708 0.057250727 0.25019264 -0.4048202 0
0.025345096 0.04072779 0.057227883 0.25019264 -0.4048202 0
0.026087357 0.040977255 0.057215143 0.25019264 -0.4048202 0
0.026829012 0.041227162 0.057202619 0.25019264 -0.4048202 0
0.02756181 0.041494068 0.05719243 0.25019264 -0.4048202 0
0.028265219 0.041819502 0.057189886 0.25019264 -0.4048202 0
0.028968569 0.04214491 0.057187483 0.25019264 -0.4048202 0
0.029655809 0.042502847 0.057189383 0.25019264 -0.4048202 0
0.030322036 0.042903695 0.057196897 0.25019264 -0.4048202 0
0.030988438 0.043304652 0.057204548 0.25019264 -0.4048202 0
0.03163071 0.043755613 0.057218708 0.25019264 -0.4048202 0
0.032260071 0.04423406 0.057236489 0.25019264 -0.4048202 0
0.032889824 0.044712804 0.057254415 0.25019264 -0.4048202 0
0.033484589 0.045265343 0.057281848 0.25019264 -0.4048202 0
0.034076352 0.045825865 0.057310391 0.25019264 -0.4048202 0
0.034658238 0.046408858 0.057341885 0.25019264 -0.4048202 0
0.035209619 0.047057968 0.057381868 0.25019264 -0.4048202 0
0.03576177 0.047707986 0.057422042 0.25019264 -0.4048202 0
0.036282152 0.048427865 0.057471156 0.25019264 -0.4048202 0
0.03679017 0.049177185 0.05752407 0.25019264 -0.4048202 0
0.037282564 0.049963266 0.057581697 0.25019264 -0.4048202 0
0.037740488 0.050826974 0.057649199 0.25019264 -0.4048202 0
0.038193069 0.05170653 0.057718746 0.25019264 -0.4048202 0
0.038591754 0.052707121 0.057803627 0.25019264 -0.4048202 0
0.038984325 0.053726476 0.057890892 0.25019264 -0.4048202 0
0.039309621 0.054898169 0.057997391 0.25019264 -0.4048202 0
0.039604872 0.056142583 0.058113046 0.25019264 -0.4048202 0
0.039833989 0.057539918 0.058247942 0.25019264 -0.4048202 0
0.039955724 0.059183113 0.05841374 0.25019264 -0.4048202 0
0.039937854 0.061146636 0.058619741 0.25019264 -0.4048202 0
0.039613232 0.063806415 0.058913127 0.25019264 -0.4048202 0
0.0057263114 0.046012774 0.058001123 0.25019264 -0.4048202 0
0.0074901283 0.044423934 0.057748139 0.25019264 -0.4048202 0
0.0089846011 0.04332085 0.057558112 0.25019264 -0.4048202 0
0.010308899 0.042524077 0.057407849 0.25019264 -0.4048202 0
0.011528201 0.041915078 0.057282049 0.25019264 -0.4048202 0
0.012701373 0.041385401 0.057166763 0.25019264 -0.4048202 0
0.013783431 0.041020796 0.057072934 0.25019264 -0.4048202 0
0.014847098 0.04068549 0.056983143 0.25019264 -0.4048202 0
0.015847381 0.040465333 0.056908354 0.25019264 -0.4048202 0
0.016840052 0.040255271 0.056835115 0.25019264 -0.4048202 0
0.017773794 0.04015369 0.056775972 0.25019264 -0.4048202 0
0.018705597 0.040052317 0.05671709 0.25019264 -0.4048202 0
0.019594966 0.040029299 0.056668419 0.25019264 -0.4048202 0
0.020470945 0.040029299 0.056622893 0.25019264 -0.4048202 0
0.021331595 0.040056366 0.05658102 0.25019264 -0.4048202 0
0.022158714 0.040146347 0.056547347 0.25019264 -0.4048202 0
0.022984849 0.04023622 0.05651385 0.25019264 -0.4048202 0
0.023780767 0.040383488 0.056487821 0.25019264 -0.4048202 0
0.024563245 0.040555708 0.056465138 0.25019264 -0.4048202 0
0.025345096 0.04072779 0.056442603 0.25019264 -0.4048202 0
0.026087357 0.040977255 0.056430038 0.25019264 -0.4048202 0
0.026829012 0.041227162 0.056417685 0.25019264 -0.4048202 0
0.02756181 0.041494068 0.056407638 0.25019264 -0.4048202 0
0.028265219 0.041819502 0.056405131 0.25019264 -0.4048202 0
0.028968569 0.04214491 0.056402758 0.25019264 -0.4048202 0
0.029655809 0.042502847 0.056404632 0.25019264 -0.4048202 0
0.030322036 0.042903695 0.056412041 0.25019264 -0.4048202 0
0.030988438 0.043304652 0.056419592 0.25019264 -0.4048202 0
0.03163071 0.043755613 0.056433555 0.25019264 -0.4048202 0
0.032260071 0.04423406 0.05645109 0.25019264 -0.4048202 0
0.032889824 0.044712804 0.056468774 0.25019264 -0.4048202 0
0.033484589 0.045265343 0.056495827 0.25019264 -0.4048202 0
0.034076352 0.045825865 0.056523979 0.25019264 -0.4048202 0
0.034658238 0.046408858 0.05655504 0.25019264 -0.4048202 0
0.035209619 0.047057968 0.056594476 0.25019264 -0.4048202 0
0.03576177 0.047707986 0.056634098 0.25019264 -0.4048202 0
0.036282152 0.048427865 0.056682542 0.25019264 -0.4048202 0
0.03679017 0.049177185 0.056734726 0.25019264 -0.4048202 0
0.037282564 0.049963266 0.056791563 0.25019264 -0.4048202 0
0.037740488 0.050826974 0.056858141 0.25019264 -0.4048202 0
0.038193069 0.05170653 0.056926735 0.25019264 -0.4048202 0
0.038591754 0.052707121 0.057010446 0.25019264 -0.4048202 0
0.038984325 0.053726476 0.057096515 0.25019264 -0.4048202 0
0.039309621 0.054898169 0.057201553 0.25019264 -0.4048202 0
0.039604872 0.056142583 0.057315622 0.25019264 -0.4048202 0
0.039833989 0.057539918 0.057448667 0.25019264 -0.4048202 0
0.039955724 0.059183113 0.057612188 0.25019264 -0.4048202 0
0.039937854 0.061146636 0.057815365 0.25019264 -0.4048202 0
0.039613232 0.063806415 0.058104724 0.25019264 -0.4048202 0
0.0057263114 0.046012774 0.057194442 0.25019264 -0.4048202 0
0.0074901283 0.044423934 0.056944981 0.25019264 -0.4048202 0
0.0089846011 0.04332085 0.056757595 0.25019264 -0.4048202 0
0.010308899 0.042524077 0.056609422 0.25019264 -0.4048202 0
0.011528201 0.041915078 0.056485374 0.25019264 -0.4048202 0
0.012701373 0.041385401 0.056371689 0.25019264 -0.4048202 0
0.013783431 0.041020796 0.056279164 0.25019264 -0.4048202 0
0.014847098 0.04068549 0.056190621 0.25019264 -0.4048202 0
0.015847381 0.040465333 0.056116875 0.25019264 -0.4048202 0
0.016840052 0.040255271 0.056044653 0.25019264 -0.4048202 0
0.017773794 0.04015369 0.055986334 0.25019264 -0.4048202 0
0.018705597 0.040052317 0.055928268 0.25019264 -0.4048202 0
0.019594966 0.040029299 0.055880275 0.25019264 -0.4048202 0
0.020470945 0.040029299 0.055835385 0.25019264 -0.4048202 0
0.021331595 0.040056366 0.055794094 0.25019264 -0.4048202 0
0.022158714 0.040146347 0.055760887 0.25019264 -0.4048202 0
0.022984849 0.04023622 0.055727854 0.25019264 -0.4048202 0
0.023780767 0.040383488 0.055702191 0.25019264 -0.4048202 0
0.024563245 0.040555708 0.05567982 0.25019264 -0.4048202 0
0.025345096 0.04072779 0.055657603 0.25019264 -0.4048202 0
0.026087357 0.040977255 0.055645213 0.25019264 -0.4048202 0
0.026829012 0.041227162 0.055633031 0.25019264 -0.4048202 0
0.02756181 0.041494068 0.055623122 0.25019264 -0.4048202 0
0.028265219 0.041819502 0.055620648 0.25019264 -0.4048202 0
0.028968569 0.04214491 0.055618312 0.25019264 -0.4048202 0
0.029655809 0.042502847 0.055620156 0.25019264 -0.4048202 0
0.030322036 0.042903695 0.055627465 0.25019264 -0.4048202 0
0.030988438 0.043304652 0.055634908 0.25019264 -0.4048202 0
0.03163071 0.043755613 0.055648677 0.25019264 -0.4048202 0
0.032260071 0.04423406 0.05566597 0.25019264 -0.4048202 0
0.032889824 0.044712804 0.055683404 0.25019264 -0.4048202 0
0.033484589 0.045265343 0.055710085 0.25019264 -0.4048202 0
0.034076352 0.045825865 0.055737846 0.25019264 -0.4048202 0
0.034658238 0.046408858 0.055768475 0.25019264 -0.4048202 0
0.035209619 0.047057968 0.05580736 0.25019264 -0.4048202 0
0.03576177 0.047707986 0.055846434 0.25019264 -0.4048202 0
0.036282152 0.048427865 0.0558942 0.25019264 -0.4048202 0
0.03679017 0.049177185 0.055945661 0.25019264 -0.4048202 0
0.037282564 0.049963266 0.056001704 0.25019264 -0.4048202 0
0.037740488 0.050826974 0.056067359 0.25019264 -0.4048202 0
0.038193069 0.05170653 0.056134999 0.25019264 -0.4048202 0
0.038591754 0.052707121 0.056217548 0.25019264 -0.4048202 0
0.038984325 0.053726476 0.056302417 0.25019264 -0.4048202 0
0.039309621 0.054898169 0.056405995 0.25019264 -0.4048202 0
0.039604872 0.056142583 0.056518476 0.25019264 -0.4048202 0
0.039833989 0.057539918 0.05664967 0.25019264 -0.4048202 0
0.039955724 0.059183113 0.056810919 0.25019264 -0.4048202 0
0.039937854 0.061146636 0.057011269 0.25019264 -0.4048202 0
0.039613232 0.063806415 0.057296604 0.25019264 -0.4048202 0
0.0057263114 0.046012774 0.056388043 0.25019264 -0.4048202 0
0.0074901283 0.044423934 0.056142099 0.25019264 -0.4048202 0
0.0089846011 0.04332085 0.055957355 0.25019264 -0.4048202 0
0.010308899 0.042524077 0.055811271 0.25019264 -0.4048202 0
0.011528201 0.041915078 0.05568897 0.25019264 -0.4048202 0
0.012701373 0.041385401 0.055576887 0.25019264 -0.4048202 0
0.013783431 0.041020796 0.05548567 0.25019264 -0.4048202 0
0.014847098 0.04068549 0.055398375 0.25019264 -0.4048202 0
0.015847381 0.040465333 0.055325668 0.25019264 -0.4048202 0
0.016840052 0.040255271 0.055254463 0.25019264 -0.4048202 0
0.017773794 0.04015369 0.055196967 0.25019264 -0.4048202 0
0.018705597 0.040052317 0.05513972 0.25019264 -0.4048202 0
0.019594966 0.040029299 0.055092406 0.25019264 -0.4048202 0
0.020470945 0.040029299 0.055048145 0.25019264 -0.4048202 0
0.021331595 0.040056366 0.055007439 0.25019264 -0.4048202 0
0.022158714 0.040146347 0.054974701 0.25019264 -0.4048202 0
0.022984849 0.04023622 0.054942135 0.25019264 -0.4048202 0
0.023780767 0.040383488 0.054916829 0.25019264 -0.4048202 0
0.024563245 0.040555708 0.054894775 0.25019264 -0.4048202 0
0.025345096 0.04072779 0.05487287 0.25019264 -0.4048202 0
0.026087357 0.040977255 0.054860655 0.25019264 -0.4048202 0
0.026829012 0.041227162 0.054848645 0.25019264 -0.4048202 0
0.02756181 0.041494068 0.054838873 0.25019264 -0.4048202 0
0.028265219 0.041819502 0.054836437 0.25019264 -0.4048202 0
0.028968569 0.04214491 0.054834135 0.25019264 -0.4048202 0
0.029655809 0.042502847 0.054835953 0.25019264 -0.4048202 0
0.030322036 0.042903695 0.054843158 0.25019264 -0.4048202 0
0.030988438 0.043304652 0.054850496 0.25019264 -0.4048202 0
0.03163071 0.043755613 0.054864075 0.25019264 -0.4048202 0
0.032260071 0.04423406 0.054881122 0.25019264 -0.4048202 0
0.032889824 0.044712804 0.05489831 0.25019264 -0.4048202 0
0.033484589 0.045265343 0.054924615 0.25019264 -0.4048202 0
0.034076352 0.045825865 0.054951981 0.25019264 -0.4048202 0
0.034658238 0.046408858 0.054982182 0.25019264 -0.4048202 0
0.035209619 0.047057968 0.055020519 0.25019264 -0.4048202 0
0.03576177 0.047707986 0.055059042 0.25019264 -0.4048202 0
0.036282152 0.048427865 0.055106133 0.25019264 -0.4048202 0
0.03679017 0.049177185 0.055156868 0.25019264 -0.4048202 0
0.037282564 0.049963266 0.055212121 0.25019264 -0.4048202 0
0.037740488 0.050826974 0.055276848 0.25019264 -0.4048202 0
0.038193069 0.05170653 0.055343535 0.25019264 -0.4048202 0
0.038591754 0.052707121 0.055424921 0.25019264 -0.4048202 0
0.038984325 0.053726476 0.055508595 0.25019264 -0.4048202 0
0.039309621 0.054898169 0.055610713 0.25019264 -0.4048202 0
0.039604872 0.056142583 0.055721607 0.25019264 -0.4048202 0
0.039833989 0.057539918 0.055850953 0.25019264 -0.4048202 0
0.039955724 0.059183113 0.056009926 0.25019264 -0.4048202 0
0.039937854 0.061146636 0.056207452 0.25019264 -0.4048202 0
0.039613232 0.063806415 0.056488764 0.25019264 -0.4048202 0
0.0057263114 0.046012774 0.05558192 0.25019264 -0.4048202 0
0.0074901283 0.044423934 0.055339489 0.25019264 -0.4048202 0
0.0089846011 0.04332085 0.055157386 0.25019264 -0.4048202 0
0.010308899 0.042524077 0.055013392 0.25019264 -0.4048202 0
0.011528201 0.041915078 0.054892842 0.25019264 -0.4048202 0
0.012701373 0.041385401 0.054782361 0.25019264 -0.4048202 0
0.013783431 0.041020796 0.054692443 0.25019264 -0.4048202 0
0.014847098 0.04068549 0.0546064 0.25019264 -0.4048202 0
0.015847381 0.040465333 0.05453473 0.25019264 -0.4048202 0
0.016840052 0.040255271 0.054464545 0.25019264 -0.4048202 0
0.017773794 0.04015369 0.054407869 0.25019264 -0.4048202 0
0.018705597 0.040052317 0.054351442 0.25019264 -0.4048202 0
0.019594966 0.040029299 0.054304805 0.25019264 -0.4048202 0
0.020470945 0.040029299 0.054261178 0.25019264 -0.4048202 0
0.021331595 0.040056366 0.054221049 0.25019264 -0.4048202 0
0.022158714 0.040146347 0.05418878 0.25019264 -0.4048202 0
0.022984849 0.04023622 0.05415668 0.25019264 -0.4048202 0
0.023780767 0.040383488 0.054131739 0.25019264 -0.4048202 0
0.024563245 0.040555708 0.054109998 0.25019264 -0.4048202 0
0.025345096 0.04072779 0.054088406 0.25019264 -0.4048202 0
0.026087357 0.040977255 0.054076366 0.25019264 -0.4048202 0
0.026829012 0.041227162 0.054064527 0.25019264 -0.4048202 0
0.02756181 0.041494068 0.054054897 0.25019264 -0.4048202 0
0.028265219 0.041819502 0.054052494 0.25019264 -0.4048202 0
0.028968569 0.04214491 0.054050226 0.25019264 -0.4048202 0
0.029655809 0.042502847 0.054052018 0.25019264 -0.4048202 0
0.030322036 0.042903695 0.054059118 0.25019264 -0.4048202 0
0.030988438 0.043304652 0.054066353 0.25019264 -0.4048202 0
0.03163071 0.043755613 0.054079738 0.25019264 -0.4048202 0
0.032260071 0.04423406 0.054096539 0.25019264 -0.4048202 0
0.032889824 0.044712804 0.054113485 0.25019264 -0.4048202 0
0.033484589 0.045265343 0.054139409 0.25019264 -0.4048202 0
0.034076352 0.045825865 0.054166388 0.25019264 -0.4048202 0
0.034658238 0.046408858 0.054196153 0.25019264 -0.4048202 0
0.035209619 0.047057968 0.054233942 0.25019264 -0.4048202 0
0.03576177 0.047707986 0.054271914 0.25019264 -0.4048202 0
0.036282152 0.048427865 0.054318335 0.25019264 -0.4048202 0
0.03679017 0.049177185 0.054368343 0.25019264 -0.4048202 0
0.037282564 0.049963266 0.054422811 0.25019264 -0.4048202 0
0.037740488 0.050826974 0.05448661 0.25019264 -0.4048202 0
0.038193069 0.05170653 0.054552343 0.25019264 -0.4048202 0
0.038591754 0.052707121 0.054632567 0.25019264 -0.4048202 0
0.038984325 0.053726476 0.054715045 0.25019264 -0.4048202 0
0.039309621 0.054898169 0.054815702 0.25019264 -0.4048202 0
0.039604872 0.056142583 0.05492501 0.25019264 -0.4048202 0
0.039833989 0.057539918 0.055052508 0.25019264 -0.4048202 0
0.039955724 0.059183113 0.055209208 0.25019264 -0.4048202 0
0.039937854 0.061146636 0.055403911 0.25019264 -0.4048202 0
0.039613232 0.063806415 0.055681203 0.25019264 -0.4048202 0
0.0057263114 0.046012774 0.054776069 0.25019264 -0.4048202 0
0.0074901283 0.044423934 0.054537151 0.25019264 -0.4048202 0
0.0089846011 0.04332085 0.054357689 0.25019264 -0.4048202 0
0.010308899 0.042524077 0.054215781 0.25019264 -0.4048202 0
0.011528201 0.041915078 0.054096978 0.25019264 -0.4048202 0
0.012701373 0.041385401 0.053988099 0.25019264 -0.4048202 0
0.013783431 0.041020796 0.053899489 0.25019264 -0.4048202 0
0.014847098 0.04068549 0.053814691 0.25019264 -0.4048202 0
0.015847381 0.040465333 0.053744063 0.25019264 -0.4048202 0
0.016840052 0.040255271 0.053674892 0.25019264 -0.4048202 0
0.017773794 0.04015369 0.053619038 0.25019264 -0.4048202 0
0.018705597 0.040052317 0.053563431 0.25019264 -0.4048202 0
0.019594966 0.040029299 0.053517468 0.25019264 -0.4048202 0
0.020470945 0.040029299 0.053474475 0.25019264 -0.4048202 0
0.021331595 0.040056366 0.053434927 0.25019264 -0.4048202 0
0.022158714 0.040146347 0.053403128 0.25019264 -0.4048202 0
0.022984849 0.04023622 0.053371493 0.25019264 -0.4048202 0
0.023780767 0.040383488 0.053346913 0.25019264 -0.4048202 0
0.024563245 0.040555708 0.053325485 0.25019264 -0.4048202 0
0.025345096 0.04072779 0.053304207 0.25019264 -0.4048202 0
0.026087357 0.040977255 0.053292342 0.25019264 -0.4048202 0
0.026829012 0.041227162 0.053280674 0.25019264 -0.4048202 0
0.02756181 0.041494068 0.053271186 0.25019264 -0.4048202 0
0.028265219 0.041819502 0.053268816 0.25019264 -0.4048202 0
0.028968569 0.04214491 0.053266577 0.25019264 -0.4048202 0
0.029655809 0.042502847 0.053268347 0.25019264 -0.4048202 0
0.030322036 0.042903695 0.053275347 0.25019264 -0.4048202 0
0.030988438 0.043304652 0.053282473 0.25019264 -0.4048202 0
0.03163071 0.043755613 0.053295664 0.25019264 -0.4048202 0
0.032260071 0.04423406 0.053312223 0.25019264 -0.4048202 0
0.032889824 0.044712804 0.05332892 0.25019264 -0.4048202 0
0.033484589 0.045265343 0.053354472 0.25019264 -0.4048202 0
0.034076352 0.045825865 0.053381059 0.25019264 -0.4048202 0
0.034658238 0.046408858 0.053410392 0.25019264 -0.4048202 0
0.035209619 0.047057968 0.053447634 0.25019264 -0.4048202 0
0.03576177 0.047707986 0.053485055 0.25019264 -0.4048202 0
0.036282152 0.048427865 0.053530805 0.25019264 -0.4048202 0
0.03679017 0.049177185 0.053580087 0.25019264 -0.4048202 0
0.037282564 0.049963266 0.053633764 0.25019264 -0.4048202 0
0.037740488 0.050826974 0.053696636 0.25019264 -0.4048202 0
0.038193069 0.05170653 0.053761419 0.25019264 -0.4048202 0
0.038591754 0.052707121 0.053840477 0.25019264 -0.4048202 0
0.038984325 0.053726476 0.053921759 0.25019264 -0.4048202 0
0.039309621 0.054898169 0.054020956 0.25019264 -0.4048202 0
0.039604872 0.056142583 0.05412868 0.25019264 -0.4048202 0
0.039833989 0.057539918 0.054254331 0.25019264 -0.4048202 0
0.039955724 0.059183113 0.054408759 0.25019264 -0.4048202 0
0.039937854 0.061146636 0.054600637 0.25019264 -0.4048202 0
0.039613232 0.063806415 0.05487391 0.25019264 -0.4048202 0
0.0057263114 0.046012774 0.053970482 0.25019264 -0.4048202 0
0.0074901283 0.044423934 0.053735081 0.25019264 -0.4048202 0
0.0089846011 0.04332085 0.053558256 0.25019264 -0.4048202 0
0.010308899 0.042524077 0.053418435 0.25019264 -0.4048202 0
0.011528201 0.041915078 0.053301379 0.25019264 -0.4048202 0
0.012701373 0.041385401 0.053194102 0.25019264 -0.4048202 0
0.013783431 0.041020796 0.053106796 0.25019264 -0.4048202 0
0.014847098 0.04068549 0.053023245 0.25019264 -0.4048202 0
0.015847381 0.040465333 0.052953653 0.25019264 -0.4048202 0
0.016840052 0.040255271 0.052885503 0.25019264 -0.4048202 0
0.017773794 0.04015369 0.052830469 0.25019264 -0.4048202 0
0.018705597 0.040052317 0.052775681 0.25019264 -0.4048202 0
0.019594966 0.040029299 0.052730393 0.25019264 -0.4048202 0
0.020470945 0.040029299 0.052688029 0.25019264 -0.4048202 0
0.021331595 0.040056366 0.052649066 0.25019264 -0.4048202 0
0.022158714 0.040146347 0.052617732 0.25019264 -0.4048202 0
0.022984849 0.04023622 0.052586563 0.25019264 -0.4048202 0
0.023780767 0.040383488 0.052562345 0.25019264 -0.4048202 0
0.024563245 0.040555708 0.052541234 0.25019264 -0.4048202 0
0.025345096 0.04072779 0.052520268 0.25019264 -0.4048202 0
0.026087357 0.040977255 0.052508578 0.25019264 -0.4048202 0
0.026829012 0.041227162 0.052497081 0.25019264 -0.4048202 0
0.02756181 0.041494068 0.052487731 0.25019264 -0.4048202 0
0.028265219 0.041819502 0.052485399 0.25019264 -0.4048202 0
0.028968569 0.04214491 0.052483194 0.25019264 -0.4048202 0
0.029655809 0.042502847 0.052484933 0.25019264 -0.4048202 0
0.030322036 0.042903695 0.052491829 0.25019264 -0.4048202 0
0.030988438 0.043304652 0.052498855 0.25019264 -0.4048202 0
0.03163071 0.043755613 0.052511849 0.25019264 -0.4048202 0
0.032260071 0.04423406 0.052528165 0.25019264 -0.4048202 0
0.032889824 0.044712804 0.05254462 0.25019264 -0.4048202 0
0.033484589 0.045265343 0.052569795 0.25019264 -0.4048202 0
0.034076352 0.045825865 0.052595988 0.25019264 -0.4048202 0
0.034658238 0.046408858 0.052624892 0.25019264 -0.4048202 0
0.035209619 0.047057968 0.052661587 0.25019264 -0.4048202 0
0.03576177 0.047707986 0.052698456 0.25019264 -0.4048202 0
0.036282152 0.048427865 0.052743532 0.25019264 -0.4048202 0
0.03679017 0.049177185 0.052792091 0.25019264 -0.4048202 0
0.037282564 0.049963266 0.052844975 0.25019264 -0.4048202 0
0.037740488 0.050826974 0.052906927 0.25019264 -0.4048202 0
0.038193069 0.05170653 0.052970756 0.25019264 -0.4048202 0
0.038591754 0.052707121 0.053048652 0.25019264 -0.4048202 0
0.038984325 0.053726476 0.053128738 0.25019264 -0.4048202 0
0.039309621 0.054898169 0.053226478 0.25019264 -0.4048202 0
0.039604872 0.056142583 0.053332619 0.25019264 -0.4048202 0
0.039833989 0.057539918 0.053456418 0.25019264 -0.4048202 0
0.039955724 0.059183113 0.053608578 0.25019264 -0.4048202 0
0.039937854 0.061146636 0.053797632 0.25019264 -0.4048202 0
0.039613232 0.063806415 0.054066885 0.25019264 -0.4048202 0
0.0057263114 0.046012774 0.05316516 0.25019264 -0.4048202 0
0.0074901283 0.044423934 0.052933272 0.25019264 -0.4048202 0
0.0089846011 0.04332085 0.052759085 0.25019264 -0.4048202 0
0.010308899 0.042524077 0.05262135 0.25019264 -0.4048202 0
0.011528201 0.041915078 0.052506041 0.25019264 -0.4048202 0
0.012701373 0.041385401 0.052400365 0.25019264 -0.4048202 0
0.013783431 0.041020796 0.05231436 0.25019264 -0.4048202 0
0.014847098 0.04068549 0.052232057 0.25019264 -0.4048202 0
0.015847381 0.040465333 0.052163504 0.25019264 -0.4048202 0
0.016840052 0.040255271 0.052096371 0.25019264 -0.4048202 0
0.017773794 0.04015369 0.05204216 0.25019264 -0.4048202 0
0.018705597 0.040052317 0.051988184 0.25019264 -0.4048202 0
0.019594966 0.040029299 0.051943574 0.25019264 -0.4048202 0
0.020470945 0.040029299 0.051901843 0.25019264 -0.4048202 0
0.021331595 0.040056366 0.051863462 0.25019264 -0.4048202 0
0.022158714 0.040146347 0.051832598 0.25019264 -0.4048202 0
0.022984849 0.04023622 0.05180189 0.25019264 -0.4048202 0
0.023780767 0.040383488 0.051778033 0.25019264 -0.4048202 0
0.024563245 0.040555708 0.051757239 0.25019264 -0.4048202 0
0.025345096 0.04072779 0.051736586 0.25019264 -0.4048202 0
0.026087357 0.040977255 0.051725071 0.25019264 -0.4048202 0
0.026829012 0.041227162 0.051713746 0.25019264 -0.4048202 0
0.02756181 0.041494068 0.051704533 0.25019264 -0.4048202 0
0.028265219 0.041819502 0.051702235 0.25019264 -0.4048202 0
0.028968569 0.04214491 0.051700063 0.25019264 -0.4048202 0
0.029655809 0.042502847 0.05170178 0.25019264 -0.4048202 0
0.030322036 0.042903695 0.051708572 0.25019264 -0.4048202 0
0.030988438 0.043304652 0.051715493 0.25019264 -0.4048202 0
0.03163071 0.043755613 0.051728293 0.25019264 -0.4048202 0
0.032260071 0.04423406 0.051744364 0.25019264 -0.4048202 0
0.032889824 0.044712804 0.051760573 0.25019264 -0.4048202 0
0.033484589 0.045265343 0.051785372 0.25019264 -0.4048202 0
0.034076352 0.045825865 0.051811177 0.25019264 -0.4048202 0
0.034658238 0.046408858 0.05183965 0.25019264 -0.4048202 0
0.035209619 0.047057968 0.051875796 0.25019264 -0.4048202 0
0.03576177 0.047707986 0.051912118 0.25019264 -0.4048202 0
0.036282152 0.048427865 0.051956519 0.25019264 -0.4048202 0
0.03679017 0.049177185 0.052004352 0.25019264 -0.4048202 0
0.037282564 0.049963266 0.05205645 0.25019264 -0.4048202 0
0.037740488 0.050826974 0.052117474 0.25019264 -0.4048202 0
0.038193069 0.05170653 0.05218035 0.25019264 -0.4048202 0
0.038591754 0.052707121 0.052257083 0.25019264 -0.4048202 0
0.038984325 0.053726476 0.052335978 0.25019264 -0.4048202 0
0.039309621 0.054898169 0.052432258 0.25019264 -0.4048202 0
0.039604872 0.056142583 0.052536815 0.25019264 -0.4048202 0
0.039833989 0.057539918 0.052658767 0.25019264 -0.4048202 0
0.039955724 0.059183113 0.052808654 0.25019264 -0.4048202 0
0.039937854 0.061146636 0.052994888 0.25019264 -0.4048202 0
0.039613232 0.063806415 0.053260125 0.25019264 -0.4048202 0
0.0057263114 0.046012774 0.052360099 0.25019264 -0.4048202 0
0.0074901283 0.044423934 0.05213172 0.25019264 -0.4048202 0
0.0089846011 0.04332085 0.051960174 0.25019264 -0.4048202 0
0.010308899 0.042524077 0.051824525 0.25019264 -0.4048202 0
0.011528201 0.041915078 0.05171096 0.25019264 -0.4048202 0
0.012701373 0.041385401 0.051606886 0.25019264 -0.4048202 0
0.013783431 0.041020796 0.05152218 0.25019264 -0.4048202 0
0.014847098 0.04068549 0.051441126 0.25019264 -0.4048202 0
0.015847381 0.040465333 0.051373608 0.25019264 -0.4048202 0
0.016840052 0.040255271 0.051307492 0.25019264 -0.4048202 0
0.017773794 0.04015369 0.051254101 0.25019264 -0.4048202 0
0.018705597 0.040052317 0.051200945 0.25019264 -0.4048202 0
0.019594966 0.040029299 0.051157009 0.25019264 -0.4048202 0
0.020470945 0.040029299 0.051115911 0.25019264 -0.4048202 0
0.021331595 0.040056366 0.051078111 0.25019264 -0.4048202 0
0.022158714 0.040146347 0.051047713 0.25019264 -0.4048202 0
0.022984849 0.04023622 0.051017471 0.25019264 -0.4048202 0
0.023780767 0.040383488 0.050993975 0.25019264 -0.4048202 0
0.024563245 0.040555708 0.050973497 0.25019264 -0.4048202 0
0.025345096 0.04072779 0.050953157 0.25019264 -0.4048202 0
0.026087357 0.040977255 0.050941814 0.25019264 -0.4048202 0
0.026829012 0.041227162 0.05093066 0.25019264 -0.4048202 0
0.02756181 0.041494068 0.050921589 0.25019264 -0.4048202 0
0.028265219 0.041819502 0.050919328 0.25019264 -0.4048202 0
0.028968569 0.04214491 0.050917186 0.25019264 -0.4048202 0
0.029655809 0.042502847 0.050918877 0.25019264 -0.4048202 0
0.030322036 0.042903695 0.050925568 0.25019264 -0.4048202 0
0.030988438 0.043304652 0.050932381 0.25019264 -0.4048202 0
0.03163071 0.043755613 0.050944988 0.25019264 -0.4048202 0
0.032260071 0.04423406 0.050960816 0.25019264 -0.4048202 0
0.032889824 0.044712804 0.050976779 0.25019264 -0.4048202 0
0.033484589 0.045265343 0.051001202 0.25019264 -0.4048202 0
0.034076352 0.045825865 0.051026616 0.25019264 -0.4048202 0
0.034658238 0.046408858 0.051054657 0.25019264 -0.4048202 0
0.035209619 0.047057968 0.051090255 0.25019264 -0.4048202 0
0.03576177 0.047707986 0.051126029 0.25019264 -0.4048202 0
0.036282152 0.048427865 0.051169757 0.25019264 -0.4048202 0
0.03679017 0.049177185 0.051216867 0.25019264 -0.4048202 0
0.037282564 0.049963266 0.051268175 0.25019264 -0.4048202 0
0.037740488 0.050826974 0.051328279 0.25019264 -0.4048202 0
0.038193069 0.05170653 0.051390201 0.25019264 -0.4048202 0
0.038591754 0.052707121 0.051465772 0.25019264 -0.4048202 0
0.038984325 0.053726476 0.05154347 0.25019264 -0.4048202 0
0.039309621 0.054898169 0.05163829 0.25019264 -0.4048202 0
0.039604872 0.056142583 0.051741265 0.25019264 -0.4048202 0
0.039833989 0.057539918 0.051861372 0.25019264 -0.4048202 0
0.039955724 0.059183113 0.05200899 0.25019264 -0.4048202 0
0.039937854 0.061146636 0.052192405 0.25019264 -0.4048202 0
0.039613232 0.063806415 0.052453622 0.25019264 -0.4048202 0
0.0057263114 0.046012774 0.051555291 0.25019264 -0.4048202 0
0.0074901283 0.044423934 0.051330421 0.25019264 -0.4048202 0
0.0089846011 0.04332085 0.051161513 0.25019264 -0.4048202 0
0.010308899 0.042524077 0.05102795 0.25019264 -0.4048202 0
0.011528201 0.041915078 0.050916132 0.25019264 -0.4048202 0
0.012701373 0.041385401 0.050813653 0.25019264 -0.4048202 0
0.013783431 0.041020796 0.050730255 0.25019264 -0.4048202 0
0.014847098 0.04068549 0.05065044 0.25019264 -0.4048202 0
0.015847381 0.040465333 0.050583966 0.25019264 -0.4048202 0
0.016840052 0.040255271 0.050518863 0.25019264 -0.4048202 0
0.017773794 0.04015369 0.050466295 0.25019264 -0.4048202 0
0.018705597 0.040052317 0.050413955 0.25019264 -0.4048202 0
0.019594966 0.040029299 0.050370693 0.25019264 -0.4048202 0
0.020470945 0.040029299 0.050330229 0.25019264 -0.4048202 0
0.021331595 0.040056366 0.05029301 0.25019264 -0.4048202 0
0.022158714 0.040146347 0.050263077 0.25019264 -0.4048202 0
0.022984849 0.04023622 0.050233301 0.25019264 -0.4048202 0
0.023780767 0.040383488 0.050210167 0.25019264 -0.4048202 0
0.024563245 0.040555708 0.050190002 0.25019264 -0.4048202 0
0.025345096 0.04072779 0.050169975 0.25019264 -0.4048202 0
0.026087357 0.040977255 0.050158806 0.25019264 -0.4048202 0
0.026829012 0.041227162 0.050147824 0.25019264 -0.4048202 0
0.02756181 0.041494068 0.050138894 0.25019264 -0.4048202 0
0.028265219 0.041819502 0.050136663 0.25019264 -0.4048202 0
0.028968569 0.04214491 0.050134558 0.25019264 -0.4048202 0
0.029655809 0.042502847 0.05013622 0.25019264 -0.4048202 0
0.030322036 0.042903695 0.05014281 0.25019264 -0.4048202 0
0.030988438 0.043304652 0.050149519 0.25019264 -0.4048202 0
0.03163071 0.043755613 0.050161932 0.25019264 -0.4048202 0
0.032260071 0.04423406 0.050177518 0.25019264 -0.4048202 0
0.032889824 0.044712804 0.050193235 0.25019264 -0.4048202 0
0.033484589 0.045265343 0.050217282 0.25019264 -0.4048202 0
0.034076352 0.045825865 0.050242305 0.25019264 -0.4048202 0
0.034658238 0.046408858 0.050269917 0.25019264 -0.4048202 0
0.035209619 0.047057968 0.050304968 0.25019264 -0.4048202 0
0.03576177 0.047707986 0.050340191 0.25019264 -0.4048202 0
0.036282152 0.048427865 0.050383247 0.25019264 -0.4048202 0
0.03679017 0.049177185 0.050429631 0.25019264 -0.4048202 0
0.037282564 0.049963266 0.050480153 0.25019264 -0.4048202 0
0.037740488 0.050826974 0.05053933 0.25019264 -0.4048202 0
0.038193069 0.05170653 0.050600301 0.25019264 -0.4048202 0
0.038591754 0.052707121 0.05067471 0.25019264 -0.4048202 0
0.038984325 0.053726476 0.050751213 0.25019264 -0.4048202 0
0.039309621 0.054898169 0.05084458 0.25019264 -0.4048202 0
0.039604872 0.056142583 0.050945971 0.25019264 -0.4048202 0
0.039833989 0.057539918 0.051064231 0.25019264 -0.4048202 0
0.039955724 0.059183113 0.05120958 0.25019264 -0.4048202 0
0.039937854 0.061146636 0.051390175 0.25019264 -0.4048202 0
0.039613232 0.063806415 0.05164738 0.25019264 -0.4048202 0
0.0057263114 0.046012774 0.050750732 0.25019264 -0.4048202 0
0.0074901283 0.044423934 0.050529376 0.25019264 -0.4048202 0
0.0089846011 0.04332085 0.050363101 0.25019264 -0.4048202 0
0.010308899 0.042524077 0.050231621 0.25019264 -0.4048202 0
0.011528201 0.041915078 0.05012155 0.25019264 -0.4048202 0
0.012701373 0.041385401 0.050020672 0.25019264 -0.4048202 0
0.013783431 0.041020796 0.049938571 0.25019264 -0.4048202 0
0.014847098 0.04068549 0.049860008 0.25019264 -0.4048202 0
0.015847381 0.040465333 0.049794566 0.25019264 -0.4048202 0
0.016840052 0.040255271 0.049730483 0.25019264 -0.4048202 0
0.017773794 0.04015369 0.049678732 0.25019264 -0.4048202 0
0.018705597 0.040052317 0.049627211 0.25019264 -0.4048202 0
0.019594966 0.040029299 0.049584623 0.25019264 -0.4048202 0
0.020470945 0.040029299 0.049544789 0.25019264 -0.4048202 0
0.021331595 0.040056366 0.049508151 0.25019264 -0.4048202 0
0.022158714 0.040146347 0.049478687 0.25019264 -0.4048202 0
0.022984849 0.04023622 0.049449377 0.25019264 -0.4048202 0
0.023780767 0.040383488 0.049426604 0.25019264 -0.4048202 0
0.024563245 0.040555708 0.049406752 0.25019264 -0.4048202 0
0.025345096 0.04072779 0.049387038 0.25019264 -0.4048202 0
0.026087357 0.040977255 0.049376044 0.25019264 -0.4048202 0
0.026829012 0.041227162 0.049365234 0.25019264 -0.4048202 0
0.02756181 0.041494068 0.049356442 0.25019264 -0.4048202 0
0.028265219 0.041819502 0.049354248 0.25019264 -0.4048202 0
0.028968569 0.04214491 0.049352173 0.25019264 -0.4048202 0
0.029655809 0.042502847 0.049353812 0.25019264 -0.4048202 0
0.030322036 0.042903695 0.049360294 0.25019264 -0.4048202 0
0.030988438 0.043304652 0.049366903 0.25019264 -0.4048202 0
0.03163071 0.043755613 0.049379122 0.25019264 -0.4048202 0
0.032260071 0.04423406 0.049394462 0.25019264 -0.4048202 0
0.032889824 0.044712804 0.049409933 0.25019264 -0.4048202 0
0.033484589 0.045265343 0.049433608 0.25019264 -0.4048202 0
0.034076352 0.045825865 0.049458239 0.25019264 -0.4048202 0
0.034658238 0.046408858 0.049485419 0.25019264 -0.4048202 0
0.035209619 0.047057968 0.049519923 0.25019264 -0.4048202 0
0.03576177 0.047707986 0.049554594 0.25019264 -0.4048202 0
0.036282152 0.048427865 0.04959698 0.25019264 -0.4048202 0
0.03679017 0.049177185 0.049642641 0.25019264 -0.4048202 0
0.037282564 0.049963266 0.049692374 0.25019264 -0.4048202 0
0.037740488 0.050826974 0.04975063 0.25019264 -0.4048202 0
0.038193069 0.05170653 0.049810648 0.25019264 -0.4048202 0
0.038591754 0.052707121 0.049883898 0.25019264 -0.4048202 0
0.038984325 0.053726476 0.049959205 0.25019264 -0.4048202 0
0.039309621 0.054898169 0.050051115 0.25019264 -0.4048202 0
0.039604872 0.056142583 0.050150923 0.25019264 -0.4048202 0
0.039833989 0.057539918 0.050267335 0.25019264 -0.4048202 0
0.039955724 0.059183113 0.05041042 0.25019264 -0.4048202 0
0.039937854 0.061146636 0.050588198 0.25019264 -0.4048202 0
0.039613232 0.063806415 0.050841384 0.25019264 -0.4048202 0
0.0057263114 0.046012774 0.049946424 0.25019264 -0.4048202 0
0.0074901283 0.044423934 0.049728576 0.25019264 -0.4048202 0
0.0089846011 0.04332085 0.049564935 0.25019264 -0.4048202 0
0.010308899 0.042524077 0.049435541 0.25019264 -0.4048202 0
0.011528201 0.041915078 0.049327213 0.25019264 -0.4048202 0
0.012701373 0.041385401 0.049227934 0.25019264 -0.4048202 0
0.013783431 0.041020796 0.049147133 0.25019264 -0.4048202 0
0.014847098 0.04068549 0.049069814 0.25019264 -0.4048202 0
0.015847381 0.040465333 0.049005412 0.25019264 -0.4048202 0
0.016840052 0.040255271 0.048942342 0.25019264 -0.4048202 0
0.017773794 0.04015369 0.048891414 0.25019264 -0.4048202 0
0.018705597 0.040052317 0.048840709 0.25019264 -0.4048202 0
0.019594966 0.040029299 0.048798796 0.25019264 -0.4048202 0
0.020470945 0.040029299 0.048759595 0.25019264 -0.4048202 0
0.021331595 0.040056366 0.048723534 0.25019264 -0.4048202 0
0.022158714 0.040146347 0.048694536 0.25019264 -0.4048202 0
0.022984849 0.04023622 0.048665691 0.25019264 -0.4048202 0
0.023780767 0.040383488 0.04864328 0.25019264 -0.4048202 0
0.024563245 0.040555708 0.048623744 0.25019264 -0.4048202 0
0.025345096 0.04072779 0.048604339 0.25019264 -0.4048202 0
0.026087357 0.040977255 0.048593521 0.25019264 -0.4048202 0
0.026829012 0.041227162 0.048582882 0.25019264 -0.4048202 0
0.02756181 0.041494068 0.048574228 0.25019264 -0.4048202 0
0.028265219 0.041819502 0.048572071 0.25019264 -0.4048202 0
0.028968569 0.04214491 0.048570029 0.25019264 -0.4048202 0
0.029655809 0.042502847 0.048571639 0.25019264 -0.4048202 0
0.030322036 0.042903695 0.048578024 0.25019264 -0.4048202 0
0.030988438 0.043304652 0.048584525 0.25019264 -0.4048202 0
0.03163071 0.043755613 0.04859655 0.25019264 -0.4048202 0
0.032260071 0.04423406 0.048611648 0.25019264 -0.4048202 0
0.032889824 0.044712804 0.048626874 0.25019264 -0.4048202 0
0.033484589 0.045265343 0.048650172 0.25019264 -0.4048202 0
0.034076352 0.045825865 0.048674416 0.25019264 -0.4048202 0
0.034658238 0.046408858 0.048701163 0.25019264 -0.4048202 0
0.035209619 0.047057968 0.048735119 0.25019264 -0.4048202 0
0.03576177 0.047707986 0.048769243 0.25019264 -0.4048202 0
0.036282152 0.048427865 0.048810955 0.25019264 -0.4048202 0
0.03679017 0.049177185 0.048855893 0.25019264 -0.4048202 0
0.037282564 0.049963266 0.04890484 0.25019264 -0.4048202 0
0.037740488 0.050826974 0.048962168 0.25019264 -0.4048202 0
0.038193069 0.05170653 0.049021237 0.25019264 -0.4048202 0
0.038591754 0.052707121 0.049093328 0.25019264 -0.4048202 0
0.038984325 0.053726476 0.049167443 0.25019264 -0.4048202 0
0.039309621 0.054898169 0.049257893 0.25019264 -0.4048202 0
0.039604872 0.056142583 0.049356122 0.25019264 -0.4048202 0
0.039833989 0.057539918 0.049470689 0.25019264 -0.4048202 0
0.039955724 0.059183113 0.049611501 0.25019264 -0.4048202 0
0.039937854 0.061146636 0.049786463 0.25019264 -0.4048202 0
0.039613232 0.063806415 0.050035641 0.25019264 -0.4048202 0
0.0057263114 0.046012774 0.049142361 0.25019264 -0.4048202 0
0.0074901283 0.044423934 0.048928019 0.25019264 -0.4048202 0
0.0089846011 0.04332085 0.048767012 0.25019264 -0.4048202 0
0.010308899 0.042524077 0.0486397 0.25019264 -0.4048202 0
0.011528201 0.041915078 0.048533116 0.25019264 -0.4048202 0
0.012701373 0.041385401 0.048435435 0.25019264 -0.4048202 0
0.013783431 0.041020796 0.048355937 0.25019264 -0.4048202 0
0.014847098 0.04068549 0.048279863 0.25019264 -0.4048202 0
0.015847381 0.040465333 0.048216496 0.25019264 -0.4048202 0
0.016840052 0.040255271 0.04815444 0.25019264 -0.4048202 0
0.017773794 0.04015369 0.048104331 0.25019264 -0.4048202 0
0.018705597 0.040052317 0.048054442 0.25019264 -0.4048202 0
0.019594966 0.040029299 0.048013207 0.25019264 -0.4048202 0
0.020470945 0.040029299 0.047974635 0.25019264 -0.4048202 0
0.021331595 0.040056366 0.047939155 0.25019264 -0.4048202 0
0.022158714 0.040146347 0.047910627 0.25019264 -0.4048202 0
0.022984849 0.04023622 0.047882244 0.25019264 -0.4048202 0
0.023780767 0.040383488 0.047860194 0.25019264 -0.4048202 0
0.024563245 0.040555708 0.047840971 0.25019264 -0.4048202 0
0.025345096 0.04072779 0.047821879 0.25019264 -0.4048202 0
0.026087357 0.040977255 0.047811236 0.25019264 -0.4048202 0
0.026829012 0.041227162 0.047800768 0.25019264 -0.4048202 0
0.02756181 0.041494068 0.047792252 0.25019264 -0.4048202 0
0.028265219 0.041819502 0.047790129 0.25019264 -0.4048202 0
0.028968569 0.04214491 0.047788121 0.25019264 -0.4048202 0
0.029655809 0.042502847 0.047789708 0.25019264 -0.4048202 0
0.030322036 0.042903695 0.047795985 0.25019264 -0.4048202 0
0.030988438 0.043304652 0.047802381 0.25019264 -0.4048202 0
0.03163071 0.043755613 0.047814216 0.25019264 -0.4048202 0
0.032260071 0.04423406 0.047829073 0.25019264 -0.4048202 0
0.032889824 0.044712804 0.047844052 0.25019264 -0.4048202 0
0.033484589 0.045265343 0.047866974 0.25019264 -0.4048202 0
0.034076352 0.045825865 0.047890827 0.25019264 -0.4048202 0
0.034658238 0.046408858 0.047917146 0.25019264 -0.4048202 0
0.035209619 0.047057968 0.047950555 0.25019264 -0.4048202 0
0.03576177 0.047707986 0.047984127 0.25019264 -0.4048202 0
0.036282152 0.048427865 0.048025172 0.25019264 -0.4048202 0
0.03679017 0.049177185 0.048069384 0.25019264 -0.4048202 0
0.037282564 0.049963266 0.048117541 0.25019264 -0.4048202 0
0.037740488 0.050826974 0.048173949 0.25019264 -0.4048202 0
0.038193069 0.05170653 0.048232067 0.25019264 -0.4048202 0
0.038591754 0.052707121 0.048302993 0.25019264 -0.4048202 0
0.038984325 0.053726476 0.048375916 0.25019264 -0.4048202 0
0.039309621 0.054898169 0.048464913 0.25019264 -0.4048202 0
0.039604872 0.056142583 0.048561558 0.25019264 -0.4048202 0
0.039833989 0.057539918 0.048674282 0.25019264 -0.4048202 0
0.039955724 0.059183113 0.048812829 0.25019264 -0.4048202 0
0.039937854 0.061146636 0.048984975 0.25019264 -0.4048202 0
0.039613232 0.063806415 0.04923014 0.25019264 -0.4048202 0
0.0057263114 0.046012774 0.048338532 0.25019264 -0.4048202 0
0.0074901283 0.044423934 0.048127696 0.25019264 -0.4048202 0
0.0089846011 0.04332085 0.047969326 0.25019264 -0.4048202 0
0.010308899 0.042524077 0.047844093 0.25019264 -0.4048202 0
0.011528201 0.041915078 0.047739252 0.25019264 -0.4048202 0
0.012701373 0.041385401 0.047643173 0.25019264 -0.4048202 0
0.013783431 0.041020796 0.047564972 0.25019264 -0.4048202 0
0.014847098 0.04068549 0.047490142 0.25019264 -0.4048202 0
0.015847381 0.040465333 0.047427814 0.25019264 -0.4048202 0
0.016840052 0.040255271 0.047366776 0.25019264 -0.4048202 0
0.017773794 0.04015369 0.047317486 0.25019264 -0.4048202 0
0.018705597 0.040052317 0.047268413 0.25019264 -0.4048202 0
0.019594966 0.040029299 0.047227848 0.25019264 -0.4048202 0
0.020470945 0.040029299 0.04718991 0.25019264 -0.4048202 0
0.021331595 0.040056366 0.047155011 0.25019264 -0.4048202 0
0.022158714 0.040146347 0.047126949 0.25019264 -0.4048202 0
0.022984849 0.04023622 0.047099028 0.25019264 -0.4048202 0
0.023780767 0.040383488 0.047077339 0.25019264 -0.4048202 0
0.024563245 0.040555708 0.047058433 0.25019264 -0.4048202 0
0.025345096 0.04072779 0.047039654 0.25019264 -0.4048202 0
0.026087357 0.040977255 0.047029182 0.25019264 -0.4048202 0
0.026829012 0.041227162 0.047018886 0.25019264 -0.4048202 0
0.02756181 0.041494068 0.047010511 0.25019264 -0.4048202 0
0.028265219 0.041819502 0.047008421 0.25019264 -0.4048202 0
0.028968569 0.04214491 0.047006447 0.25019264 -0.4048202 0
0.029655809 0.042502847 0.047008008 0.25019264 -0.4048202 0
0.030322036 0.042903695 0.047014184 0.25019264 -0.4048202 0
0.030988438 0.043304652 0.047020476 0.25019264 -0.4048202 0
0.03163071 0.043755613 0.047032114 0.25019264 -0.4048202 0
0.032260071 0.04423406 0.047046728 0.25019264 -0.4048202 0
0.032889824 0.044712804 0.047061462 0.25019264 -0.4048202 0
0.033484589 0.045265343 0.047084011 0.25019264 -0.4048202 0
0.034076352 0.045825865 0.047107473 0.25019264 -0.4048202 0
0.034658238 0.046408858 0.04713336 0.25019264 -0.4048202 0
0.035209619 0.047057968 0.047166225 0.25019264 -0.4048202 0
0.03576177 0.047707986 0.047199249 0.25019264 -0.4048202 0
0.036282152 0.048427865 0.04723962 0.25019264 -0.4048202 0
0.03679017 0.049177185 0.047283109 0.25019264 -0.4048202 0
0.037282564 0.049963266 0.047330476 0.25019264 -0.4048202 0
0.037740488 0.050826974 0.047385965 0.25019264 -0.4048202 0
0.038193069 0.05170653 0.047443129 0.25019264 -0.4048202 0
0.038591754 0.052707121 0.0475129 0.25019264 -0.4048202 0
0.038984325 0.053726476 0.047584627 0.25019264 -0.4048202 0
0.039309621 0.054898169 0.047672167 0.25019264 -0.4048202 0
0.039604872 0.056142583 0.047767233 0.25019264 -0.4048202 0
0.039833989 0.057539918 0.047878113 0.25019264 -0.4048202 0
0.039955724 0.059183113 0.048014395 0.25019264 -0.4048202 0
0.039937854 0.061146636 0.048183721 0.25019264 -0.4048202 0
0.039613232 0.063806415 0.048424877 0.25019264 -0.4048202 0
0.0057263114 0.046012774 0.047534943 0.25019264 -0.4048202 0
0.0074901283 0.044423934 0.047327612 0.25019264 -0.4048202 0
0.0089846011 0.04332085 0.047171872 0.25019264 -0.4048202 0
0.010308899 0.042524077 0.047048725 0.25019264 -0.4048202 0
0.011528201 0.041915078 0.046945628 0.25019264 -0.4048202 0
0.012701373 0.041385401 0.04685114 0.25019264 -0.4048202 0
0.013783431 0.041020796 0.046774242 0.25019264 -0.4048202 0
0.014847098 0.04068549 0.046700656 0.25019264 -0.4048202 0
0.015847381 0.040465333 0.046639364 0.25019264 -0.4048202 0
0.016840052 0.040255271 0.046579339 0.25019264 -0.4048202 0
0.017773794 0.04015369 0.046530869 0.25019264 -0.4048202 0
0.018705597 0.040052317 0.046482611 0.25019264 -0.4048202 0
0.019594966 0.040029299 0.046442725 0.25019264 -0.4048202 0
0.020470945 0.040029299 0.046405412 0.25019264 -0.4048202 0
0.021331595 0.040056366 0.046371095 0.25019264 -0.4048202 0
0.022158714 0.040146347 0.046343498 0.25019264 -0.4048202 0
0.022984849 0.04023622 0.046316046 0.25019264 -0.4048202 0
0.023780767 0.040383488 0.046294715 0.25019264 -0.4048202 0
0.024563245 0.040555708 0.046276122 0.25019264 -0.4048202 0
0.025345096 0.04072779 0.046257656 0.25019264 -0.4048202 0
0.026087357 0.040977255 0.046247359 0.25019264 -0.4048202 0
0.026829012 0.041227162 0.046237234 0.25019264 -0.4048202 0
0.02756181 0.041494068 0.046228997 0.25019264 -0.4048202 0
0.028265219 0.041819502 0.046226945 0.25019264 -0.4048202 0
0.028968569 0.04214491 0.046225 0.25019264 -0.4048202 0
0.029655809 0.042502847 0.046226535 0.25019264 -0.4048202 0
0.030322036 0.042903695 0.046232607 0.25019264 -0.4048202 0
0.030988438 0.043304652 0.046238795 0.25019264 -0.4048202 0
0.03163071 0.043755613 0.046250239 0.25019264 -0.4048202 0
0.032260071 0.04423406 0.046264611 0.25019264 -0.4048202 0
0.032889824 0.044712804 0.046279103 0.25019264 -0.4048202 0
0.033484589 0.045265343 0.046301275 0.25019264 -0.4048202 0
0.034076352 0.045825865 0.046324346 0.25019264 -0.4048202 0
0.034658238 0.046408858 0.046349805 0.25019264 -0.4048202 0
0.035209619 0.047057968 0.046382122 0.25019264 -0.4048202 0
0.03576177 0.047707986 0.046414595 0.25019264 -0.4048202 0
0.036282152 0.048427865 0.046454296 0.25019264 -0.4048202 0
0.03679017 0.049177185 0.046497066 0.25019264 -0.4048202 0
0.037282564 0.049963266 0.046543647 0.25019264 -0.4048202 0
0.037740488 0.050826974 0.046598207 0.25019264 -0.4048202 0
0.038193069 0.05170653 0.046654426 0.25019264 -0.4048202 0
0.038591754 0.052707121 0.046723034 0.25019264 -0.4048202 0
0.038984325 0.053726476 0.046793569 0.25019264 -0.4048202 0
0.039309621 0.054898169 0.046879653 0.25019264 -0.4048202 0
0.039604872 0.056142583 0.046973139 0.25019264 -0.4048202 0
0.039833989 0.057539918 0.047082175 0.25019264 -0.4048202 0
0.039955724 0.059183113 0.047216192 0.25019264 -0.4048202 0
0.039937854 0.061146636 0.047382705 0.25019264 -0.4048202 0
0.039613232 0.063806415 0.047619849 0.25019264 -0.4048202 0
0.0057263114 0.046012774 0.046731584 0.25019264 -0.4048202 0
0.0074901283 0.044423934 0.046527755 0.25019264 -0.4048202 0
0.0089846011 0.04332085 0.046374649 0.25019264 -0.4048202 0
0.010308899 0.042524077 0.046253581 0.25019264 -0.4048202 0
0.011528201 0.041915078 0.046152227 0.25019264 -0.4048202 0
0.012701373 0.041385401 0.046059337 0.25019264 -0.4048202 0
0.013783431 0.041020796 0.045983739 0.25019264 -0.4048202 0
0.014847098 0.04068549 0.045911398 0.25019264 -0.4048202 0
0.015847381 0.040465333 0.045851137 0.25019264 -0.4048202 0
0.016840052 0.040255271 0.045792129 0.25019264 -0.4048202 0
0.017773794 0.04015369 0.045744479 0.25019264 -0.4048202 0
0.018705597 0.040052317 0.045697037 0.25019264 -0.4048202 0
0.019594966 0.040029299 0.045657821 0.25019264 -0.4048202 0
0.020470945 0.040029299 0.045621142 0.25019264 -0.4048202 0
0.021331595 0.040056366 0.045587406 0.25019264 -0.4048202 0
0.022158714 0.040146347 0.045560274 0.25019264 -0.4048202 0
0.022984849 0.04023622 0.045533285 0.25019264 -0.4048202 0
0.023780767 0.040383488 0.045512315 0.25019264 -0.4048202 0
0.024563245 0.040555708 0.045494039 0.25019264 -0.4048202 0
0.025345096 0.04072779 0.045475885 0.25019264 -0.4048202 0
0.026087357 0.040977255 0.04546576 0.25019264 -0.4048202 0
