# .PCD v0.7 - Point Cloud Data file format
VERSION 0.7
FIELDS x y z vp_x vp_y vp_z
SIZE 4 4 4 4 4 4
TYPE F F F F F F
COUNT 1 1 1 1 1 1
WIDTH 879
HEIGHT 1
VIEWPOINT 0 0 0 1 0 0 0
POINTS 879
DATA ascii
0.0011311119 0.018178752 0 0 -0.25019264 -0.4048202
0.0018851926 0.018178841 0 0 -0.25019264 -0.4048202
0.0026392827 0.018178975 0 0 -0.25019264 -0.4048202
0.003393386 0.018179154 0 0 -0.25019264 -0.4048202
0.0041475063 0.018179378 0 0 -0.25019264 -0.4048202
0.0049016471 0.018179646 5.5511151e-17 0 -0.25019264 -0.4048202
0.0056558121 0.018179959 0 0 -0.25019264 -0.4048202
0.0070433738 0.04469806 0.039999999 0 -0.25019264 -0.4048202
0.0071642306 0.018180721 5.5511151e-17 0 -0.25019264 -0.4048202
0.007918491 0.018181168 0 0 -0.25019264 -0.4048202
0.0086727915 0.018181659 5.5511151e-17 0 -0.25019264 -0.4048202
0.0094271349 0.018182198 0 0 -0.25019264 -0.4048202
0.011942076 0.064589255 0.07 0 -0.25019264 -0.4048202
0.010935966 0.018183405 0 0 -0.25019264 -0.4048202
0.011690461 0.018184077 0 0 -0.25019264 -0.4048202
0.01459696 0.064591616 0.07 0 -0.25019264 -0.4048202
0.013199629 0.018185554 0 0 -0.25019264 -0.4048202
0.013954311 0.018186361 0 0 -0.25019264 -0.4048202
0.014709061 0.018187212 0 0 -0.25019264 -0.4048202
0.015463884 0.018188106 5.5511151e-17 0 -0.25019264 -0.4048202
0.016218785 0.018189047 0 0 -0.25019264 -0.4048202
0.016973766 0.018190032 0 0 -0.25019264 -0.4048202
0.017728832 0.018191062 0 0 -0.25019264 -0.4048202
0.018483985 0.018192139 0 0 -0.25019264 -0.4048202
0.019239232 0.018193258 0 0 -0.25019264 -0.4048202
0.02345196 0.064602911 0.07 0 -0.25019264 -0.4048202
0.020750014 0.018195633 0 0 -0.25019264 -0.4048202
0.021505559 0.018196888 0 0 -0.25019264 -0.4048202
0.022261212 0.018198187 0 0 -0.25019264 -0.4048202
0.023016974 0.018199531 0 0 -0.25019264 -0.4048202
0.023772851 0.018200923 5.5511151e-17 0 -0.25019264 -0.4048202
0.024528846 0.018202357 5.5511151e-17 0 -0.25019264 -0.4048202
0.025284965 0.018203836 0 0 -0.25019264 -0.4048202
0.02604121 0.018205361 5.5511151e-17 0 -0.25019264 -0.4048202
0.026797583 0.018206932 5.5511151e-17 0 -0.25019264 -0.4048202
0.027554091 0.018208547 0 0 -0.25019264 -0.4048202
0.028310735 0.018210206 0 0 -0.25019264 -0.4048202
0.029067522 0.018211912 0 0 -0.25019264 -0.4048202
0.029824452 0.018213663 0 0 -0.25019264 -0.4048202
0.030581534 0.018215459 0 0 -0.25019264 -0.4048202
0.031338766 0.018217299 5.5511151e-17 0 -0.25019264 -0.4048202
0.032096155 0.018219186 0 0 -0.25019264 -0.4048202
0.032853704 0.018221118 0 0 -0.25019264 -0.4048202
0.033611417 0.018223094 0 0 -0.25019264 -0.4048202
0.034369301 0.018225115 0 0 -0.25019264 -0.4048202
0.035127353 0.018227182 5.5511151e-17 0 -0.25019264 -0.4048202
0.035885584 0.018229295 0 0 -0.25019264 -0.4048202
0.036643989 0.018231453 0 0 -0.25019264 -0.4048202
0.039999999 0.036874488 0.028112691 0 -0.25019264 -0.4048202
0.03816136 0.018235905 5.5511151e-17 0 -0.25019264 -0.4048202
0.038920328 0.0182382 0 0 -0.25019264 -0.4048202
0.039679494 0.018240539 0 0 -0.25019264 -0.4048202
0.00041469792 0.045691941 0.039999999 0 -0.25019264 -0.4048202
0.0011322218 0.019084873 0 0 -0.25019264 -0.4048202
0.0018870425 0.019084968 5.5511151e-17 0 -0.25019264 -0.4048202
0.0026418727 0.019085109 0 0 -0.25019264 -0.4048202
0.0033967162 0.019085297 5.5511151e-17 0 -0.25019264 -0.4048202
0.0041515762 0.019085532 0 0 -0.25019264 -0.4048202
0.0049064574 0.019085813 0 0 -0.25019264 -0.4048202
0.0056613628 0.019086143 0 0 -0.25019264 -0.4048202
0.0064162961 0.019086519 0 0 -0.25019264 -0.4048202
0.0071712616 0.019086942 5.5511151e-17 0 -0.25019264 -0.4048202
0.0079262629 0.019087413 0 0 -0.25019264 -0.4048202
0.010182442 0.065650925 0.07 0 -0.25019264 -0.4048202
0.0094363876 0.019088496 0 0 -0.25019264 -0.4048202
0.010191519 0.019089106 0 0 -0.25019264 -0.4048202
0.0109467 0.019089764 0 0 -0.25019264 -0.4048202
0.011701936 0.01909047 0 0 -0.25019264 -0.4048202
0.014611289 0.065654784 0.07 0 -0.25019264 -0.4048202
0.013212587 0.019092023 0 0 -0.25019264 -0.4048202
0.01396801 0.019092869 0 0 -0.25019264 -0.4048202
0.014723501 0.019093763 5.5511151e-17 0 -0.25019264 -0.4048202
0.015479066 0.019094706 5.5511151e-17 0 -0.25019264 -0.4048202
0.016234709 0.019095693 0 0 -0.25019264 -0.4048202
0.019928355 0.065661244 0.07 0 -0.25019264 -0.4048202
0.020814855 0.065662511 0.07 0 -0.25019264 -0.4048202
0.018502137 0.019098941 0 0 -0.25019264 -0.4048202
0.019258127 0.019100118 0 0 -0.25019264 -0.4048202
0.020014212 0.019101342 5.5511151e-17 0 -0.25019264 -0.4048202
0.020770395 0.019102614 0 0 -0.25019264 -0.4048202
0.025248997 0.065669693 0.07 0 -0.25019264 -0.4048202
0.022283079 0.019105298 0 0 -0.25019264 -0.4048202
0.023039587 0.019106712 0 0 -0.25019264 -0.4048202
0.023796208 0.019108173 5.5511151e-17 0 -0.25019264 -0.4048202
0.024552949 0.019109679 0 0 -0.25019264 -0.4048202
0.025309812 0.019111235 0 0 -0.25019264 -0.4048202
0.026066801 0.019112838 0 0 -0.25019264 -0.4048202
0.031462211 0.065682068 0.07 0 -0.25019264 -0.4048202
0.027581174 0.019116186 0 0 -0.25019264 -0.4048202
0.028338565 0.019117929 0 0 -0.25019264 -0.4048202
0.029096099 0.019119721 0 0 -0.25019264 -0.4048202
0.029853776 0.019121561 0 0 -0.25019264 -0.4048202
0.035904847 0.065692581 0.07 0 -0.25019264 -0.4048202
0.031369586 0.019125383 0 0 -0.25019264 -0.4048202
0.032127723 0.019127365 0 0 -0.25019264 -0.4048202
0.032886021 0.019129395 0 0 -0.25019264 -0.4048202
0.036968868 0.045743197 0.039999999 0 -0.25019264 -0.4048202
0.037802462 0.045745533 0.039999999 0 -0.25019264 -0.4048202
0.035161916 0.019135769 0 0 -0.25019264 -0.4048202
0.035920896 0.01913799 5.5511151e-17 0 -0.25019264 -0.4048202
0.039999999 0.043517828 0.036640655 0 -0.25019264 -0.4048202
0.037439395 0.019142572 0 0 -0.25019264 -0.4048202
0.038198926 0.019144936 0 0 -0.25019264 -0.4048202
0.038958646 0.019147346 0 0 -0.25019264 -0.4048202
0.039718565 0.019149804 5.5511151e-17 0 -0.25019264 -0.4048202
0.00037777738 0.019992821 0 0 -0.25019264 -0.4048202
0.001133334 0.019992871 5.5511151e-17 0 -0.25019264 -0.4048202
0.0018888963 0.01999297 0 0 -0.25019264 -0.4048202
0.0026444681 0.019993117 5.5511151e-17 0 -0.25019264 -0.4048202
0.0034000531 0.019993315 0 0 -0.25019264 -0.4048202
0.0041556549 0.01999356 0 0 -0.25019264 -0.4048202
0.0057605174 0.066713497 0.07 0 -0.25019264 -0.4048202
0.0056669246 0.019994201 0 0 -0.25019264 -0.4048202
0.0064225998 0.019994596 5.5511151e-17 0 -0.25019264 -0.4048202
0.0084195537 0.066714883 0.07 0 -0.25019264 -0.4048202
0.0079340506 0.019995533 0 0 -0.25019264 -0.4048202
0.0086898329 0.019996075 0 0 -0.25019264 -0.4048202
0.0094456589 0.019996667 0 0 -0.25019264 -0.4048202
0.010201532 0.019997308 0 0 -0.25019264 -0.4048202
0.010957456 0.019997999 5.5511151e-17 0 -0.25019264 -0.4048202
0.011713435 0.019998739 5.5511151e-17 0 -0.25019264 -0.4048202
0.012469472 0.019999528 0 0 -0.25019264 -0.4048202
0.013225572 0.020000366 0 0 -0.25019264 -0.4048202
0.016399408 0.066722177 0.07 0 -0.25019264 -0.4048202
0.014737972 0.020002194 5.5511151e-17 0 -0.25019264 -0.4048202
0.01549428 0.020003179 0 0 -0.25019264 -0.4048202
0.016250666 0.020004217 0 0 -0.25019264 -0.4048202
0.017007135 0.020005303 0 0 -0.25019264 -0.4048202
0.017763685 0.020006437 0 0 -0.25019264 -0.4048202
0.018520327 0.020007621 0 0 -0.25019264 -0.4048202
0.01927706 0.020008856 0 0 -0.25019264 -0.4048202
0.020033889 0.02001014 5.5511151e-17 0 -0.25019264 -0.4048202
0.020790819 0.020011473 0 0 -0.25019264 -0.4048202
0.021547852 0.020012856 0 0 -0.25019264 -0.4048202
0.022304993 0.020014288 0 0 -0.25019264 -0.4048202
0.023062246 0.020015771 0 0 -0.25019264 -0.4048202
0.023819612 0.020017302 0 0 -0.25019264 -0.4048202
0.0245771 0.020018883 5.5511151e-17 0 -0.25019264 -0.4048202
0.02533471 0.020020513 0 0 -0.25019264 -0.4048202
0.026092445 0.020022195 5.5511151e-17 0 -0.25019264 -0.4048202
0.026850313 0.020023923 5.5511151e-17 0 -0.25019264 -0.4048202
0.032382239 0.066750854 0.07 0 -0.25019264 -0.4048202
0.028366452 0.020027533 5.5511151e-17 0 -0.25019264 -0.4048202
0.029124733 0.020029413 0 0 -0.25019264 -0.4048202
0.029883161 0.020031342 0 0 -0.25019264 -0.4048202
0.030641736 0.02003332 0 0 -0.25019264 -0.4048202
0.03683012 0.066762164 0.07 0 -0.25019264 -0.4048202
0.035336997 0.046738669 0.039999999 0 -0.25019264 -0.4048202
0.032918401 0.020039555 0 0 -0.25019264 -0.4048202
0.033677615 0.020041734 0 0 -0.25019264 -0.4048202
0.034436997 0.020043962 5.5511151e-17 0 -0.25019264 -0.4048202
0.03519655 0.02004624 0 0 -0.25019264 -0.4048202
0.039509095 0.046750911 0.039999999 0 -0.25019264 -0.4048202
0.036716193 0.020050945 0 0 -0.25019264 -0.4048202
0.039999999 0.038252167 0.027261237 0 -0.25019264 -0.4048202
0.039999999 0.032519422 0.018669875 0 -0.25019264 -0.4048202
0.038997043 0.02005838 0 0 -0.25019264 -0.4048202
0.039999999 0.021707889 0.0024669829 0 -0.25019264 -0.4048202
0.00041551355 0.047689438 0.039999999 0 -0.25019264 -0.4048202
0.0011344487 0.020902753 0 0 -0.25019264 -0.4048202
0.001890754 0.020902855 0 0 -0.25019264 -0.4048202
0.0026470688 0.02090301 0 0 -0.25019264 -0.4048202
0.0034033968 0.020903217 5.5511151e-17 0 -0.25019264 -0.4048202
0.004159742 0.020903474 0 0 -0.25019264 -0.4048202
0.0057661827 0.067780763 0.07 0 -0.25019264 -0.4048202
0.0056724981 0.020904146 5.5511151e-17 0 -0.25019264 -0.4048202
0.0064289169 0.020904558 5.5511151e-17 0 -0.25019264 -0.4048202
0.0071853674 0.020905023 0 0 -0.25019264 -0.4048202
0.0079418542 0.020905539 5.5511151e-17 0 -0.25019264 -0.4048202
0.0086983806 0.020906106 0 0 -0.25019264 -0.4048202
0.0094549507 0.020906726 0 0 -0.25019264 -0.4048202
0.010211567 0.020907396 0 0 -0.25019264 -0.4048202
0.010968235 0.020908119 0 0 -0.25019264 -0.4048202
0.011724958 0.020908894 5.5511151e-17 0 -0.25019264 -0.4048202
0.01248174 0.020909719 0 0 -0.25019264 -0.4048202
0.013238584 0.020910598 0 0 -0.25019264 -0.4048202
0.013995493 0.020911528 0 0 -0.25019264 -0.4048202
0.014752473 0.020912508 0 0 -0.25019264 -0.4048202
0.015509526 0.020913541 0 0 -0.25019264 -0.4048202
0.019967575 0.067794815 0.07 0 -0.25019264 -0.4048202
0.017781168 0.02091695 0 0 -0.25019264 -0.4048202
0.018538553 0.02091819 5.5511151e-17 0 -0.25019264 -0.4048202
0.019296033 0.020919481 0 0 -0.25019264 -0.4048202
0.020053608 0.020920826 0 0 -0.25019264 -0.4048202
0.020811284 0.020922221 0 0 -0.25019264 -0.4048202
0.021569064 0.020923669 5.5511151e-17 0 -0.25019264 -0.4048202
0.022326952 0.020925166 0 0 -0.25019264 -0.4048202
0.023084952 0.020926718 0 0 -0.25019264 -0.4048202
0.023843067 0.02092832 0 0 -0.25019264 -0.4048202
0.024601301 0.020929975 0 0 -0.25019264 -0.4048202
0.025359659 0.020931682 5.5511151e-17 0 -0.25019264 -0.4048202
0.026118144 0.02093344 0 0 -0.25019264 -0.4048202
0.026876759 0.02093525 0 0 -0.25019264 -0.4048202
0.032414138 0.067819856 0.07 0 -0.25019264 -0.4048202
0.028394397 0.020939028 0 0 -0.25019264 -0.4048202
0.029912606 0.020943014 0 0 -0.25019264 -0.4048202
0.030671932 0.020945085 0 0 -0.25019264 -0.4048202
0.031431414 0.020947207 0 0 -0.25019264 -0.4048202
0.032191049 0.020949382 0 0 -0.25019264 -0.4048202
0.032950852 0.02095161 0 0 -0.25019264 -0.4048202
0.033710815 0.02095389 0 0 -0.25019264 -0.4048202
0.037877001 0.047748249 0.039999999 0 -0.25019264 -0.4048202
0.035231255 0.020958604 5.5511151e-17 0 -0.25019264 -0.4048202
0.035991739 0.020961041 0 0 -0.25019264 -0.4048202
0.036752407 0.020963531 0 0 -0.25019264 -0.4048202
0.037513252 0.020966072 0 0 -0.25019264 -0.4048202
0.038274292 0.020968664 0 0 -0.25019264 -0.4048202
0.039035521 0.020971311 0 0 -0.25019264 -0.4048202
0.039796948 0.020974008 0 0 -0.25019264 -0.4048202
0.00037852122 0.021814475 5.5511151e-17 0 -0.25019264 -0.4048202
0.0011355656 0.021814529 0 0 -0.25019264 -0.4048202
0.0020796235 0.048691481 0.039999999 0 -0.25019264 -0.4048202
0.0026496749 0.021814799 0 0 -0.25019264 -0.4048202
0.0039958297 0.068849564 0.07 0 -0.25019264 -0.4048202
0.0048838328 0.068849877 0.07 0 -0.25019264 -0.4048202
0.0049209478 0.021815607 0 0 -0.25019264 -0.4048202
0.0056780833 0.021815984 0 0 -0.25019264 -0.4048202
0.0064352467 0.021816416 0 0 -0.25019264 -0.4048202
0.0071924427 0.0218169 0 0 -0.25019264 -0.4048202
0.0079496745 0.02181744 0 0 -0.25019264 -0.4048202
0.0087069459 0.021818032 0 0 -0.25019264 -0.4048202
0.0094642611 0.021818681 0 0 -0.25019264 -0.4048202
0.010221623 0.021819381 0 0 -0.25019264 -0.4048202
0.010979037 0.021820135 5.5511151e-17 0 -0.25019264 -0.4048202
0.011736505 0.021820944 0 0 -0.25019264 -0.4048202
0.012494032 0.021821808 0 0 -0.25019264 -0.4048202
0.013251622 0.021822724 0 0 -0.25019264 -0.4048202
0.014009278 0.021823695 0 0 -0.25019264 -0.4048202
0.014767004 0.021824721 5.5511151e-17 0 -0.25019264 -0.4048202
0.015524804 0.0218258 0 0 -0.25019264 -0.4048202
0.016282681 0.021826932 0 0 -0.25019264 -0.4048202
0.01704064 0.021828119 0 0 -0.25019264 -0.4048202
0.017798685 0.021829361 0 0 -0.25019264 -0.4048202
0.018556818 0.021830656 0 0 -0.25019264 -0.4048202
0.019315045 0.021832006 5.5511151e-17 0 -0.25019264 -0.4048202
0.020073369 0.021833409 0 0 -0.25019264 -0.4048202
0.020831794 0.021834867 0 0 -0.25019264 -0.4048202
0.02159032 0.021836378 0 0 -0.25019264 -0.4048202
0.022348957 0.021837944 0 0 -0.25019264 -0.4048202
0.023107706 0.021839565 0 0 -0.25019264 -0.4048202
0.02386657 0.021841239 5.5511151e-17 0 -0.25019264 -0.4048202
0.024625555 0.021842968 0 0 -0.25019264 -0.4048202
0.025384661 0.02184475 0 0 -0.25019264 -0.4048202
0.026143895 0.021846587 5.5511151e-17 0 -0.25019264 -0.4048202
0.02690326 0.021848479 0 0 -0.25019264 -0.4048202
0.027662762 0.021850424 0 0 -0.25019264 -0.4048202
0.028422402 0.021852424 5.5511151e-17 0 -0.25019264 -0.4048202
0.029182183 0.021854479 5.5511151e-17 0 -0.25019264 -0.4048202
0.035119589 0.068898328 0.07 0 -0.25019264 -0.4048202
0.03070219 0.021858752 0 0 -0.25019264 -0.4048202
0.031462424 0.021860968 0 0 -0.25019264 -0.4048202
0.037794665 0.068906128 0.07 0 -0.25019264 -0.4048202
0.038514361 0.067487113 0.06788446 0 -0.25019264 -0.4048202
0.033744086 0.02186795 0 0 -0.25019264 -0.4048202
0.034504972 0.021870386 5.5511151e-17 0 -0.25019264 -0.4048202
0.035266034 0.021872876 0 0 -0.25019264 -0.4048202
0.036027275 0.021875421 5.5511151e-17 0 -0.25019264 -0.4048202
0.039999999 0.045627218 0.035336979 0 -0.25019264 -0.4048202
0.039999999 0.039630152 0.026409596 0 -0.25019264 -0.4048202
0.038312092 0.021883383 0 0 -0.25019264 -0.4048202
0.039999999 0.023007289 0.00166391 0 -0.25019264 -0.4048202
0.0003788943 0.022728154 0 0 -0.25019264 -0.4048202
0.0012489997 0.049695328 0.039999999 0 -0.25019264 -0.4048202
0.0018944809 0.022728322 0 0 -0.25019264 -0.4048202
0.0026522866 0.022728492 0 0 -0.25019264 -0.4048202
0.0034101056 0.022728717 0 0 -0.25019264 -0.4048202
0.0041679414 0.022728998 0 0 -0.25019264 -0.4048202
0.0049257982 0.022729335 0 0 -0.25019264 -0.4048202
0.0056836801 0.022729728 0 0 -0.25019264 -0.4048202
0.0064415899 0.022730177 5.5511151e-17 0 -0.25019264 -0.4048202
0.0071995324 0.022730684 0 0 -0.25019264 -0.4048202
0.0093334932 0.069924228 0.07 0 -0.25019264 -0.4048202
0.008715529 0.022731865 0 0 -0.25019264 -0.4048202
0.0094735902 0.022732539 5.5511151e-17 0 -0.25019264 -0.4048202
0.0102317 0.022733271 0 0 -0.25019264 -0.4048202
0.012890186 0.069927521 0.07 0 -0.25019264 -0.4048202
0.011748076 0.022734901 0 0 -0.25019264 -0.4048202
0.012506351 0.022735802 0 0 -0.25019264 -0.4048202
0.013264688 0.022736758 5.5511151e-17 0 -0.25019264 -0.4048202
0.016447913 0.06993188 0.07 0 -0.25019264 -0.4048202
0.014781565 0.02273884 0 0 -0.25019264 -0.4048202
0.019117057 0.069935836 0.07 0 -0.25019264 -0.4048202
0.017057447 0.022742385 0 0 -0.25019264 -0.4048202
0.01781624 0.02274368 0 0 -0.25019264 -0.4048202
0.018575123 0.02274503 0 0 -0.25019264 -0.4048202
0.019334098 0.022746436 0 0 -0.25019264 -0.4048202
0.023567608 0.069943763 0.07 0 -0.25019264 -0.4048202
0.020852344 0.02274942 0 0 -0.25019264 -0.4048202
0.022371009 0.022752631 5.5511151e-17 0 -0.25019264 -0.4048202
0.023130506 0.022754321 0 0 -0.25019264 -0.4048202
0.023890123 0.022756066 5.5511151e-17 0 -0.25019264 -0.4048202
0.024649857 0.022757869 0 0 -0.25019264 -0.4048202
0.025409715 0.022759728 0 0 -0.25019264 -0.4048202
0.030694868 0.069959879 0.07 0 -0.25019264 -0.4048202
0.026929818 0.022763617 5.5511151e-17 0 -0.25019264 -0.4048202
0.027690072 0.022765646 0 0 -0.25019264 -0.4048202
0.028450463 0.022767732 0 0 -0.25019264 -0.4048202
0.029210998 0.022769876 0 0 -0.25019264 -0.4048202
0.02997168 0.022772074 0 0 -0.25019264 -0.4048202
0.030732512 0.022774331 0 0 -0.25019264 -0.4048202
0.0314935 0.022776643 0 0 -0.25019264 -0.4048202
0.032254644 0.022779014 0 0 -0.25019264 -0.4048202
0.033015952 0.022781439 0 0 -0.25019264 -0.4048202
0.033777427 0.022783924 0 0 -0.25019264 -0.4048202
0.03453907 0.022786465 0 0 -0.25019264 -0.4048202
0.038788941 0.049762189 0.039999999 0 -0.25019264 -0.4048202
0.036062881 0.022791715 5.5511151e-17 0 -0.25019264 -0.4048202
0.036825057 0.022794427 0 0 -0.25019264 -0.4048202
0.039999999 0.04031926 0.025983702 0 -0.25019264 -0.4048202
0.038349971 0.022800021 0 0 -0.25019264 -0.4048202
0.039112717 0.022802904 0 0 -0.25019264 -0.4048202
0.039999999 0.023657102 0.0012623033 0 -0.25019264 -0.4048202
0.00041674337 0.050701328 0.039999999 0 -0.25019264 -0.4048202
0.0011378063 0.023643808 0 0 -0.25019264 -0.4048202
0.0020837272 0.050701521 0.039999999 0 -0.25019264 -0.4048202
0.0026549036 0.023644101 0 0 -0.25019264 -0.4048202
0.0034134702 0.023644336 5.5511151e-17 0 -0.25019264 -0.4048202
0.0041720541 0.023644628 0 0 -0.25019264 -0.4048202
0.0049306587 0.023644978 0 0 -0.25019264 -0.4048202
0.006673059 0.070996441 0.07 0 -0.25019264 -0.4048202
0.0064479467 0.023645857 0 0 -0.25019264 -0.4048202
0.0072066369 0.023646384 0 0 -0.25019264 -0.4048202
0.009342704 0.070998289 0.07 0 -0.25019264 -0.4048202
0.010232674 0.070999049 0.07 0 -0.25019264 -0.4048202
0.0094829397 0.023648316 0 0 -0.25019264 -0.4048202
0.010241798 0.023649078 0 0 -0.25019264 -0.4048202
0.011000707 0.023649897 0 0 -0.25019264 -0.4048202
0.011759671 0.023650777 0 0 -0.25019264 -0.4048202
0.014683381 0.071003854 0.07 0 -0.25019264 -0.4048202
0.013277781 0.023652708 0 0 -0.25019264 -0.4048202
0.014036934 0.023653762 0 0 -0.25019264 -0.4048202
0.014796157 0.023654876 0 0 -0.25019264 -0.4048202
0.015555454 0.023656048 0 0 -0.25019264 -0.4048202
0.01913593 0.071010381 0.07 0 -0.25019264 -0.4048202
0.017074289 0.023658568 0 0 -0.25019264 -0.4048202
0.017833831 0.023659915 0 0 -0.25019264 -0.4048202
0.018593464 0.023661323 0 0 -0.25019264 -0.4048202
0.01935319 0.023662787 0 0 -0.25019264 -0.4048202
0.020113014 0.023664312 5.5511151e-17 0 -0.25019264 -0.4048202
0.020872938 0.023665894 0 0 -0.25019264 -0.4048202
0.021632968 0.023667537 5.5511151e-17 0 -0.25019264 -0.4048202
0.026265237 0.07102441 0.07 0 -0.25019264 -0.4048202
0.023153357 0.023670996 0 0 -0.25019264 -0.4048202
0.023913722 0.023672815 0 0 -0.25019264 -0.4048202
0.024674211 0.023674691 5.5511151e-17 0 -0.25019264 -0.4048202
0.025434822 0.023676628 0 0 -0.25019264 -0.4048202
0.026195562 0.023678623 0 0 -0.25019264 -0.4048202
0.026956432 0.023680678 0 0 -0.25019264 -0.4048202
0.027717439 0.02368279 0 0 -0.25019264 -0.4048202
0.033402994 0.071042858 0.07 0 -0.25019264 -0.4048202
0.029239874 0.023687193 5.5511151e-17 0 -0.25019264 -0.4048202
0.030001311 0.023689484 0 0 -0.25019264 -0.4048202
0.030762898 0.023691833 0 0 -0.25019264 -0.4048202
0.03152464 0.023694241 0 0 -0.25019264 -0.4048202
0.032286543 0.023696709 0 0 -0.25019264 -0.4048202
0.033048604 0.023699237 0 0 -0.25019264 -0.4048202
0.039040923 0.066069663 0.062620319 0 -0.25019264 -0.4048202
0.034573238 0.023704467 0 0 -0.25019264 -0.4048202
0.035335813 0.023707172 0 0 -0.25019264 -0.4048202
0.036098566 0.023709936 0 0 -0.25019264 -0.4048202
0.039999999 0.047033887 0.034467608 0 -0.25019264 -0.4048202
0.03762462 0.023715643 0 0 -0.25019264 -0.4048202
0.038387932 0.023718584 0 0 -0.25019264 -0.4048202
0.039151438 0.023721587 0 0 -0.25019264 -0.4048202
0.039915141 0.023724647 0 0 -0.25019264 -0.4048202
0.00041715501 0.05170951 0.039999999 0 -0.25019264 -0.4048202
0.0011389302 0.024561331 0 0 -0.25019264 -0.4048202
0.0018982234 0.024561454 0 0 -0.25019264 -0.4048202
0.0026575262 0.024561636 0 0 -0.25019264 -0.4048202
0.0034168423 0.02456188 0 0 -0.25019264 -0.4048202
0.0041761757 0.024562184 0 0 -0.25019264 -0.4048202
0.0049355295 0.024562549 0 0 -0.25019264 -0.4048202
0.0056949086 0.024562975 5.5511151e-17 0 -0.25019264 -0.4048202
0.0064543164 0.024563462 0 0 -0.25019264 -0.4048202
0.0072137564 0.024564009 0 0 -0.25019264 -0.4048202
0.0079732323 0.024564618 0 0 -0.25019264 -0.4048202
0.0087327491 0.024565289 0 0 -0.25019264 -0.4048202
0.011133684 0.072076261 0.07 0 -0.25019264 -0.4048202
0.010251917 0.024566811 0 0 -0.25019264 -0.4048202
0.012915657 0.072078191 0.07 0 -0.25019264 -0.4048202
0.011771291 0.024568576 0 0 -0.25019264 -0.4048202
0.012531065 0.024569551 0 0 -0.25019264 -0.4048202
0.015589115 0.072081618 0.07 0 -0.25019264 -0.4048202
0.014050806 0.024571683 0 0 -0.25019264 -0.4048202
0.01481078 0.02457284 0 0 -0.25019264 -0.4048202
0.015570829 0.02457406 0 0 -0.25019264 -0.4048202
0.016330956 0.024575338 0 0 -0.25019264 -0.4048202
0.017091164 0.024576679 0 0 -0.25019264 -0.4048202
0.017851459 0.024578081 0 0 -0.25019264 -0.4048202
0.018611845 0.024579544 0 0 -0.25019264 -0.4048202
0.019372324 0.024581067 0 0 -0.25019264 -0.4048202
0.020132899 0.024582652 0 0 -0.25019264 -0.4048202
0.020893576 0.024584297 0 0 -0.25019264 -0.4048202
0.021654358 0.024586005 0 0 -0.25019264 -0.4048202
0.022415251 0.024587773 0 0 -0.25019264 -0.4048202
0.023176255 0.024589604 0 0 -0.25019264 -0.4048202
0.023937374 0.024591494 0 0 -0.25019264 -0.4048202
0.024698615 0.024593446 5.5511151e-17 0 -0.25019264 -0.4048202
0.025459981 0.02459546 0 0 -0.25019264 -0.4048202
0.026221475 0.024597533 5.5511151e-17 0 -0.25019264 -0.4048202
0.026983101 0.02459967 5.5511151e-17 0 -0.25019264 -0.4048202
0.027744863 0.024601867 5.5511151e-17 0 -0.25019264 -0.4048202
0.028506765 0.024604125 0 0 -0.25019264 -0.4048202
0.034329865 0.072123677 0.07 0 -0.25019264 -0.4048202
0.030031003 0.024608826 0 0 -0.25019264 -0.4048202
0.030793348 0.02461127 0 0 -0.25019264 -0.4048202
0.031555846 0.024613775 0 0 -0.25019264 -0.4048202
0.037591562 0.069453917 0.066050082 0 -0.25019264 -0.4048202
0.033081327 0.024618968 5.5511151e-17 0 -0.25019264 -0.4048202
0.033844318 0.024621658 5.5511151e-17 0 -0.25019264 -0.4048202
0.039572734 0.064053401 0.05808102 0 -0.25019264 -0.4048202
0.035370812 0.02462722 0 0 -0.25019264 -0.4048202
0.036134325 0.024630094 0 0 -0.25019264 -0.4048202
0.036898017 0.024633029 5.5511151e-17 0 -0.25019264 -0.4048202
0.037661899 0.024636028 0 0 -0.25019264 -0.4048202
0.038425971 0.024639087 0 0 -0.25019264 -0.4048202
0.03919024 0.024642209 0 0 -0.25019264 -0.4048202
0.039954703 0.024645392 0 0 -0.25019264 -0.4048202
0.00038001823 0.025480729 0 0 -0.25019264 -0.4048202
0.0011400565 0.025480792 0 0 -0.25019264 -0.4048202
0.0019001006 0.025480919 0 0 -0.25019264 -0.4048202
0.0026601544 0.025481109 0 0 -0.25019264 -0.4048202
0.0034202214 0.02548136 5.5511151e-17 0 -0.25019264 -0.4048202
0.0049019828 0.073073402 0.069887146 0 -0.25019264 -0.4048202
0.0049404106 0.025482057 0 0 -0.25019264 -0.4048202
0.0057005407 0.025482498 0 0 -0.25019264 -0.4048202
0.0064606997 0.025483005 5.5511151e-17 0 -0.25019264 -0.4048202
0.0072208908 0.025483573 0 0 -0.25019264 -0.4048202
0.0079811187 0.025484206 0 0 -0.25019264 -0.4048202
0.0087413862 0.025484901 0 0 -0.25019264 -0.4048202
0.0095016984 0.025485659 0 0 -0.25019264 -0.4048202
0.010262057 0.025486482 5.5511151e-17 0 -0.25019264 -0.4048202
0.011022469 0.025487367 5.5511151e-17 0 -0.25019264 -0.4048202
0.011782935 0.025488315 0 0 -0.25019264 -0.4048202
0.01471243 0.073159225 0.07 0 -0.25019264 -0.4048202
0.01330405 0.025490403 5.5511151e-17 0 -0.25019264 -0.4048202
0.016496724 0.073161818 0.07 0 -0.25019264 -0.4048202
0.014825433 0.025492743 0 0 -0.25019264 -0.4048202
0.015586235 0.025494009 0 0 -0.25019264 -0.4048202
0.016347114 0.025495337 0 0 -0.25019264 -0.4048202
0.017108077 0.025496729 5.5511151e-17 0 -0.25019264 -0.4048202
0.017869126 0.025498185 5.5511151e-17 0 -0.25019264 -0.4048202
0.018630264 0.025499703 0 0 -0.25019264 -0.4048202
0.019391496 0.025501287 0 0 -0.25019264 -0.4048202
0.020152826 0.025502931 0 0 -0.25019264 -0.4048202
0.020914257 0.025504641 0 0 -0.25019264 -0.4048202
0.021675793 0.025506414 0 0 -0.25019264 -0.4048202
0.02243744 0.025508251 5.5511151e-17 0 -0.25019264 -0.4048202
0.023199199 0.025510151 0 0 -0.25019264 -0.4048202
0.023961077 0.025512114 5.5511151e-17 0 -0.25019264 -0.4048202
0.024723073 0.025514141 0 0 -0.25019264 -0.4048202
0.025485193 0.025516232 0 0 -0.25019264 -0.4048202
0.026247444 0.025518386 0 0 -0.25019264 -0.4048202
0.027009826 0.025520604 0 0 -0.25019264 -0.4048202
0.027772347 0.025522886 0 0 -0.25019264 -0.4048202
0.028535005 0.025525233 0 0 -0.25019264 -0.4048202
0.029297808 0.025527641 0 0 -0.25019264 -0.4048202
0.030060759 0.025530115 5.5511151e-17 0 -0.25019264 -0.4048202
0.036014792 0.071966492 0.068174221 0 -0.25019264 -0.4048202
0.03158712 0.025535252 0 0 -0.25019264 -0.4048202
0.037519094 0.069590606 0.064676978 0 -0.25019264 -0.4048202
0.03311412 0.025540646 0 0 -0.25019264 -0.4048202
0.033877868 0.025543438 0 0 -0.25019264 -0.4048202
0.03951728 0.064353853 0.056974489 0 -0.25019264 -0.4048202
0.035405882 0.025549214 0 0 -0.25019264 -0.4048202
0.036170159 0.0255522 0 0 -0.25019264 -0.4048202
0.036934614 0.025555249 0 0 -0.25019264 -0.4048202
0.03769926 0.025558362 0 0 -0.25019264 -0.4048202
0.038464092 0.025561538 0 0 -0.25019264 -0.4048202
0.039229121 0.02556478 0 0 -0.25019264 -0.4048202
0.039994352 0.025568085 5.5511151e-17 0 -0.25019264 -0.4048202
0.00038039446 0.026402134 0 0 -0.25019264 -0.4048202
0.0013088642 0.067043401 0.059481874 0 -0.25019264 -0.4048202
0.0019019818 0.02640233 0 0 -0.25019264 -0.4048202
0.0026627879 0.026402527 0 0 -0.25019264 -0.4048202
0.0039876234 0.071970001 0.066691369 0 -0.25019264 -0.4048202
0.0048902812 0.073059626 0.068285562 0 -0.25019264 -0.4048202
0.0049453024 0.026403511 0 0 -0.25019264 -0.4048202
0.005706185 0.026403969 0 0 -0.25019264 -0.4048202
0.0064670965 0.026404494 0 0 -0.25019264 -0.4048202
0.0072280406 0.026405085 0 0 -0.25019264 -0.4048202
0.0093704527 0.074234098 0.07 0 -0.25019264 -0.4048202
0.0087500419 0.026406461 5.5511151e-17 0 -0.25019264 -0.4048202
0.0095111066 0.026407249 0 0 -0.25019264 -0.4048202
0.01027222 0.026408101 0 0 -0.25019264 -0.4048202
0.011033384 0.026409019 0 0 -0.25019264 -0.4048202
0.011794604 0.026410002 0 0 -0.25019264 -0.4048202
0.012555884 0.026411053 0 0 -0.25019264 -0.4048202
0.015619992 0.074241638 0.07 0 -0.25019264 -0.4048202
0.014840118 0.026414596 0 0 -0.25019264 -0.4048202
0.015601673 0.026415909 0 0 -0.25019264 -0.4048202
0.016363308 0.026417285 0 0 -0.25019264 -0.4048202
0.017125025 0.026418731 0 0 -0.25019264 -0.4048202
0.017886829 0.026420239 0 0 -0.25019264 -0.4048202
0.018648721 0.026421815 0 0 -0.25019264 -0.4048202
0.019410709 0.026423456 0 0 -0.25019264 -0.4048202
0.020172795 0.026425162 0 0 -0.25019264 -0.4048202
0.024554981 0.074258961 0.07 0 -0.25019264 -0.4048202
0.022459678 0.026430679 0 0 -0.25019264 -0.4048202
0.023222193 0.02643265 0 0 -0.25019264 -0.4048202
0.023984827 0.026434686 5.5511151e-17 0 -0.25019264 -0.4048202
0.024747582 0.026436789 0 0 -0.25019264 -0.4048202
0.029921634 0.074273057 0.07 0 -0.25019264 -0.4048202
0.026273469 0.026441192 0 0 -0.25019264 -0.4048202
0.031711679 0.074278377 0.07 0 -0.25019264 -0.4048202
0.027799888 0.02644586 0 0 -0.25019264 -0.4048202
0.028563304 0.026448293 0 0 -0.25019264 -0.4048202
0.029326867 0.02645079 0 0 -0.25019264 -0.4048202
0.030090578 0.026453355 0 0 -0.25019264 -0.4048202
0.030854439 0.026455987 0 0 -0.25019264 -0.4048202
0.031618457 0.026458684 5.5511151e-17 0 -0.25019264 -0.4048202
0.032382637 0.026461449 0 0 -0.25019264 -0.4048202
0.038166601 0.068359889 0.061304055 0 -0.25019264 -0.4048202
0.033911489 0.026467174 0 0 -0.25019264 -0.4048202
0.034676172 0.026470138 0 0 -0.25019264 -0.4048202
0.03544103 0.026473166 5.5511151e-17 0 -0.25019264 -0.4048202
0.039783563 0.053813722 0.039999999 0 -0.25019264 -0.4048202
0.036971286 0.026479425 0 0 -0.25019264 -0.4048202
0.037736695 0.026482653 5.5511151e-17 0 -0.25019264 -0.4048202
0.038502295 0.02648595 0 0 -0.25019264 -0.4048202
0.039268088 0.026489312 0 0 -0.25019264 -0.4048202
0.00038077147 0.027325496 0 0 -0.25019264 -0.4048202
0.0011423164 0.027325565 5.5511151e-17 0 -0.25019264 -0.4048202
0.001903867 0.027325701 0 0 -0.25019264 -0.4048202
0.0026654273 0.027325904 0 0 -0.25019264 -0.4048202
0.0034270009 0.027326176 0 0 -0.25019264 -0.4048202
0.0048786341 0.073045909 0.066691384 0 -0.25019264 -0.4048202
0.0057834643 0.074041359 0.068142757 0 -0.25019264 -0.4048202
0.0057118409 0.027327398 0 0 -0.25019264 -0.4048202
0.0064735068 0.027327942 0 0 -0.25019264 -0.4048202
0.0072352053 0.027328553 0 0 -0.25019264 -0.4048202
0.007996941 0.027329233 5.5511151e-17 0 -0.25019264 -0.4048202
0.0087587163 0.027329979 0 0 -0.25019264 -0.4048202
0.0095205354 0.027330795 0 0 -0.25019264 -0.4048202
0.012060398 0.075320147 0.07 0 -0.25019264 -0.4048202
0.011044323 0.02733263 5.5511151e-17 0 -0.25019264 -0.4048202
0.013847799 0.075322457 0.07 0 -0.25019264 -0.4048202
0.012568333 0.027334737 0 0 -0.25019264 -0.4048202
0.013330431 0.027335892 5.5511151e-17 0 -0.25019264 -0.4048202
0.014092597 0.027337115 0 0 -0.25019264 -0.4048202
0.014854833 0.027338408 0 0 -0.25019264 -0.4048202
0.015617145 0.027339768 5.5511151e-17 0 -0.25019264 -0.4048202
0.019211825 0.075331308 0.07 0 -0.25019264 -0.4048202
0.017142009 0.02734269 0 0 -0.25019264 -0.4048202
0.02100056 0.075334899 0.07 0 -0.25019264 -0.4048202
0.018667219 0.027345886 0 0 -0.25019264 -0.4048202
0.019429965 0.027347587 0 0 -0.25019264 -0.4048202
0.020192808 0.027349355 5.5511151e-17 0 -0.25019264 -0.4048202
0.020955753 0.027351191 0 0 -0.25019264 -0.4048202
0.022481963 0.027355069 0 0 -0.25019264 -0.4048202
0.023245238 0.027357113 0 0 -0.25019264 -0.4048202
0.02400863 0.027359221 0 0 -0.25019264 -0.4048202
0.029055649 0.075355008 0.07 0 -0.25019264 -0.4048202
0.025535781 0.027363647 5.5511151e-17 0 -0.25019264 -0.4048202
0.026299547 0.027365962 5.5511151e-17 0 -0.25019264 -0.4048202
0.027063448 0.027368344 0 0 -0.25019264 -0.4048202
0.027827486 0.027370797 0 0 -0.25019264 -0.4048202
0.028591665 0.027373318 0 0 -0.25019264 -0.4048202
0.029355988 0.027375905 0 0 -0.25019264 -0.4048202
0.035081159 0.073093258 0.06667202 0 -0.25019264 -0.4048202
0.030885084 0.02738129 0 0 -0.25019264 -0.4048202
0.031649865 0.027384084 5.5511151e-17 0 -0.25019264 -0.4048202
0.032414805 0.027386947 5.5511151e-17 0 -0.25019264 -0.4048202
0.033179913 0.027389878 5.5511151e-17 0 -0.25019264 -0.4048202
0.033945184 0.027392879 0 0 -0.25019264 -0.4048202
0.034710631 0.027395949 0 0 -0.25019264 -0.4048202
0.035476252 0.027399087 0 0 -0.25019264 -0.4048202
0.036242053 0.027402295 0 0 -0.25019264 -0.4048202
0.039999999 0.049848337 0.032728184 0 -0.25019264 -0.4048202
0.039999999 0.043766156 0.023853404 0 -0.25019264 -0.4048202
0.038540576 0.027412329 0 0 -0.25019264 -0.4048202
0.039307136 0.027415812 0 0 -0.25019264 -0.4048202
0.00038114929 0.028250828 5.5511151e-17 0 -0.25019264 -0.4048202
0.0011434498 0.028250899 5.5511151e-17 0 -0.25019264 -0.4048202
0.0019057562 0.028251039 0 0 -0.25019264 -0.4048202
0.0030740781 0.070622623 0.061602313 0 -0.25019264 -0.4048202
0.0039686635 0.071942039 0.063520089 0 -0.25019264 -0.4048202
0.0048670401 0.07303226 0.065104537 0 -0.25019264 -0.4048202
0.0049551162 0.028252305 0 0 -0.25019264 -0.4048202
0.005717509 0.028252797 0 0 -0.25019264 -0.4048202
0.0064799311 0.02825336 0 0 -0.25019264 -0.4048202
0.0072423858 0.028253991 0 0 -0.25019264 -0.4048202
0.0080048768 0.028254695 0 0 -0.25019264 -0.4048202
0.0087674083 0.028255468 0 0 -0.25019264 -0.4048202
0.010292608 0.028257227 5.5511151e-17 0 -0.25019264 -0.4048202
0.011055284 0.02825821 0 0 -0.25019264 -0.4048202
0.011818017 0.028259266 0 0 -0.25019264 -0.4048202
0.014756235 0.076409452 0.07 0 -0.25019264 -0.4048202
0.013343664 0.028261587 5.5511151e-17 0 -0.25019264 -0.4048202
0.014869581 0.028264189 0 0 -0.25019264 -0.4048202
0.01563265 0.028265597 0 0 -0.25019264 -0.4048202
0.019230898 0.07641729 0.07 0 -0.25019264 -0.4048202
0.01715903 0.028268622 0 0 -0.25019264 -0.4048202
0.017922347 0.028270241 0 0 -0.25019264 -0.4048202
0.018685756 0.02827193 0 0 -0.25019264 -0.4048202
0.01944926 0.028273689 0 0 -0.25019264 -0.4048202
0.023707993 0.076427191 0.07 0 -0.25019264 -0.4048202
0.020976566 0.02827742 5.5511151e-17 0 -0.25019264 -0.4048202
0.021740375 0.028279392 0 0 -0.25019264 -0.4048202
0.022504296 0.028281434 0 0 -0.25019264 -0.4048202
0.023268329 0.028283546 0 0 -0.25019264 -0.4048202
0.028188089 0.076439172 0.07 0 -0.25019264 -0.4048202
0.024796756 0.028287984 0 0 -0.25019264 -0.4048202
0.025561154 0.028290309 0 0 -0.25019264 -0.4048202
0.026325684 0.028292704 0 0 -0.25019264 -0.4048202
0.027090345 0.028295171 5.5511151e-17 0 -0.25019264 -0.4048202
0.032578778 0.07552366 0.068648763 0 -0.25019264 -0.4048202
0.028620085 0.028300317 0 0 -0.25019264 -0.4048202
0.034211688 0.074045934 0.066491768 0 -0.25019264 -0.4048202
0.030150406 0.028305747 5.5511151e-17 0 -0.25019264 -0.4048202
0.035794076 0.07225398 0.063877612 0 -0.25019264 -0.4048202
0.036556449 0.071167551 0.062293559 0 -0.25019264 -0.4048202
0.032447044 0.028314423 0 0 -0.25019264 -0.4048202
0.038021758 0.068642505 0.058613293 0 -0.25019264 -0.4048202
0.03397895 0.028320562 5.5511151e-17 0 -0.25019264 -0.4048202
0.03474516 0.02832374 0 0 -0.25019264 -0.4048202
0.03551155 0.028326986 0 0 -0.25019264 -0.4048202
0.039862733 0.05585096 0.039999999 0 -0.25019264 -0.4048202
0.037044868 0.028333696 0 0 -0.25019264 -0.4048202
0.037811808 0.028337158 0 0 -0.25019264 -0.4048202
0.038578942 0.028340692 0 0 -0.25019264 -0.4048202
0.039999999 0.03297212 0.0067259907 0 -0.25019264 -0.4048202
0.00038152793 0.029178139 0 0 -0.25019264 -0.4048202
0.0011445858 0.029178211 0 0 -0.25019264 -0.4048202
0.0019076493 0.029178357 0 0 -0.25019264 -0.4048202
0.0026707225 0.029178577 0 0 -0.25019264 -0.4048202
0.0034338094 0.029178867 0 0 -0.25019264 -0.4048202
0.0041969134 0.02917923 5.5511151e-17 0 -0.25019264 -0.4048202
0.0049600392 0.029179666 0 0 -0.25019264 -0.4048202
0.0057231896 0.029180175 0 0 -0.25019264 -0.4048202
0.0064863688 0.029180756 0 0 -0.25019264 -0.4048202
0.0072495812 0.02918141 0 0 -0.25019264 -0.4048202
0.0080128303 0.029182138 0 0 -0.25019264 -0.4048202
0.0087761199 0.029182937 0 0 -0.25019264 -0.4048202
0.0095394533 0.029183809 0 0 -0.25019264 -0.4048202
0.010302836 0.029184755 0 0 -0.25019264 -0.4048202
0.01106627 0.029185772 0 0 -0.25019264 -0.4048202
0.01182976 0.029186862 0 0 -0.25019264 -0.4048202
0.01259331 0.029188026 5.5511151e-17 0 -0.25019264 -0.4048202
0.013356925 0.029189263 0 0 -0.25019264 -0.4048202
0.014120606 0.02919057 5.5511151e-17 0 -0.25019264 -0.4048202
0.014884359 0.029191952 0 0 -0.25019264 -0.4048202
0.015648188 0.029193407 0 0 -0.25019264 -0.4048202
0.016412096 0.029194934 5.5511151e-17 0 -0.25019264 -0.4048202
0.017176086 0.029196536 0 0 -0.25019264 -0.4048202
0.017940164 0.029198209 0 0 -0.25019264 -0.4048202
0.018704332 0.029199954 0 0 -0.25019264 -0.4048202
0.022835033 0.077513613 0.07 0 -0.25019264 -0.4048202
0.020232959 0.029203666 5.5511151e-17 0 -0.25019264 -0.4048202
0.020997424 0.029205631 0 0 -0.25019264 -0.4048202
0.021761995 0.029207669 0 0 -0.25019264 -0.4048202
0.022526676 0.029209781 5.5511151e-17 0 -0.25019264 -0.4048202
0.023291472 0.029211964 0 0 -0.25019264 -0.4048202
0.024056386 0.029214222 5.5511151e-17 0 -0.25019264 -0.4048202
0.024821421 0.029216552 0 0 -0.25019264 -0.4048202
0.025586583 0.029218957 0 0 -0.25019264 -0.4048202
0.026351875 0.029221434 5.5511151e-17 0 -0.25019264 -0.4048202
0.027117299 0.029223984 0 0 -0.25019264 -0.4048202
0.027882863 0.029226607 0 0 -0.25019264 -0.4048202
0.028648566 0.029229304 5.5511151e-17 0 -0.25019264 -0.4048202
0.029414417 0.029232074 0 0 -0.25019264 -0.4048202
0.030180415 0.029234916 0 0 -0.25019264 -0.4048202
0.030946568 0.029237833 5.5511151e-17 0 -0.25019264 -0.4048202
0.031712878 0.029240824 0 0 -0.25019264 -0.4048202
0.03247935 0.029243886 0 0 -0.25019264 -0.4048202
0.037949279 0.068779215 0.057269715 0 -0.25019264 -0.4048202
0.034012791 0.029250234 0 0 -0.25019264 -0.4048202
0.034779768 0.029253518 0 0 -0.25019264 -0.4048202
0.035546921 0.029256877 5.5511151e-17 0 -0.25019264 -0.4048202
0.036314256 0.029260308 0 0 -0.25019264 -0.4048202
0.037081778 0.029263813 0 0 -0.25019264 -0.4048202
0.037849486 0.029267391 0 0 -0.25019264 -0.4048202
0.038617387 0.029271044 0 0 -0.25019264 -0.4048202
0.039385486 0.029274771 0 0 -0.25019264 -0.4048202
0.00038190739 0.03010744 0 0 -0.25019264 -0.4048202
0.0011457241 0.030107517 0 0 -0.25019264 -0.4048202
0.0019095467 0.030107666 0 0 -0.25019264 -0.4048202
0.0026733789 0.030107891 0 0 -0.25019264 -0.4048202
0.0034372245 0.030108191 0 0 -0.25019264 -0.4048202
0.0042010876 0.030108567 0 0 -0.25019264 -0.4048202
0.0049649724 0.030109018 0 0 -0.25019264 -0.4048202
0.0057288818 0.030109543 0 0 -0.25019264 -0.4048202
0.0075469757 0.07561928 0.065725423 0 -0.25019264 -0.4048202
0.0072567919 0.030110819 0 0 -0.25019264 -0.4048202
0.0080208005 0.03011157 0 0 -0.25019264 -0.4048202
0.010268475 0.077451602 0.068367906 0 -0.25019264 -0.4048202
0.0095489426 0.030113297 5.5511151e-17 0 -0.25019264 -0.4048202
0.010313084 0.030114273 0 0 -0.25019264 -0.4048202
0.012992721 0.078585133 0.07 0 -0.25019264 -0.4048202
0.011841529 0.03011645 0 0 -0.25019264 -0.4048202
0.014785594 0.07858786 0.07 0 -0.25019264 -0.4048202
0.013370214 0.030118929 5.5511151e-17 0 -0.25019264 -0.4048202
0.014134656 0.030120282 0 0 -0.25019264 -0.4048202
0.017475478 0.078592621 0.07 0 -0.25019264 -0.4048202
0.01566376 0.030123211 0 0 -0.25019264 -0.4048202
0.016428428 0.030124789 0 0 -0.25019264 -0.4048202
0.01719318 0.030126441 0 0 -0.25019264 -0.4048202
0.021063253 0.078600198 0.07 0 -0.25019264 -0.4048202
0.01872295 0.030129973 0 0 -0.25019264 -0.4048202
0.022857763 0.078604519 0.07 0 -0.25019264 -0.4048202
0.0202531 0.030133806 0 0 -0.25019264 -0.4048202
0.021018326 0.030135836 0 0 -0.25019264 -0.4048202
0.021783659 0.030137941 0 0 -0.25019264 -0.4048202
0.022549104 0.030140122 0 0 -0.25019264 -0.4048202
0.023314664 0.030142378 0 0 -0.25019264 -0.4048202
0.028208749 0.078206621 0.069403648 0 -0.25019264 -0.4048202
0.029070266 0.077808045 0.068824008 0 -0.25019264 -0.4048202
0.025612066 0.0301496 0 0 -0.25019264 -0.4048202
0.026378121 0.030152159 5.5511151e-17 0 -0.25019264 -0.4048202
0.027144313 0.030154793 0 0 -0.25019264 -0.4048202
0.02791064 0.030157501 0 0 -0.25019264 -0.4048202
0.02867711 0.030160287 0 0 -0.25019264 -0.4048202
0.029443726 0.030163148 0 0 -0.25019264 -0.4048202
0.034863755 0.0733492 0.062353674 0 -0.25019264 -0.4048202
0.030977409 0.030169098 0 0 -0.25019264 -0.4048202
0.036410574 0.071382716 0.059504092 0 -0.25019264 -0.4048202
0.032511726 0.030175351 0 0 -0.25019264 -0.4048202
0.033279128 0.03017859 5.5511151e-17 0 -0.25019264 -0.4048202
0.034046702 0.030181905 0 0 -0.25019264 -0.4048202
0.034814447 0.030185299 0 0 -0.25019264 -0.4048202
0.035582371 0.030188767 0 0 -0.25019264 -0.4048202
0.036350477 0.03019231 0 0 -0.25019264 -0.4048202
0.037118766 0.030195931 0 0 -0.25019264 -0.4048202
0.037887245 0.030199628 5.5511151e-17 0 -0.25019264 -0.4048202
0.039999999 0.039952874 0.01407575 0 -0.25019264 -0.4048202
0.039424788 0.03020725 0 0 -0.25019264 -0.4048202
0.00042716486 0.064052828 0.047522318 0 -0.25019264 -0.4048202
0.001146865 0.031038821 0 0 -0.25019264 -0.4048202
0.0019114481 0.031038975 0 0 -0.25019264 -0.4048202
0.0030523895 0.070590638 0.056932446 0 -0.25019264 -0.4048202
0.0034406472 0.031039517 0 0 -0.25019264 -0.4048202
0.0042052711 0.031039905 5.5511151e-17 0 -0.25019264 -0.4048202
0.0049699163 0.03104037 0 0 -0.25019264 -0.4048202
0.0057345866 0.031040912 5.5511151e-17 0 -0.25019264 -0.4048202
0.0075291591 0.075605735 0.064147577 0 -0.25019264 -0.4048202
0.0072640185 0.031042229 0 0 -0.25019264 -0.4048202
0.0080287876 0.031043004 0 0 -0.25019264 -0.4048202
0.010244202 0.077436998 0.066779673 0 -0.25019264 -0.4048202
0.0095584523 0.031044787 0 0 -0.25019264 -0.4048202
0.010323356 0.031045794 0 0 -0.25019264 -0.4048202
0.011088312 0.031046879 0 0 -0.25019264 -0.4048202
0.013874753 0.07900998 0.069036819 0 -0.25019264 -0.4048202
0.014783267 0.079300471 0.069452859 0 -0.25019264 -0.4048202
0.013383532 0.031050598 5.5511151e-17 0 -0.25019264 -0.4048202
0.014148736 0.031051993 0 0 -0.25019264 -0.4048202
0.014914012 0.031053467 0 0 -0.25019264 -0.4048202
0.015679363 0.031055016 0 0 -0.25019264 -0.4048202
0.016444795 0.031056646 0 0 -0.25019264 -0.4048202
0.01721031 0.031058351 0 0 -0.25019264 -0.4048202
0.017975913 0.031060135 0 0 -0.25019264 -0.4048202
0.018741606 0.031061996 0 0 -0.25019264 -0.4048202
0.019507395 0.031063935 0 0 -0.25019264 -0.4048202
0.020273283 0.031065952 0 0 -0.25019264 -0.4048202
0.021039274 0.031068048 0 0 -0.25019264 -0.4048202
0.021805372 0.031070219 5.5511151e-17 0 -0.25019264 -0.4048202
0.02257158 0.031072469 0 0 -0.25019264 -0.4048202
0.027282916 0.078619897 0.068430305 0 -0.25019264 -0.4048202
0.024104347 0.031077204 0 0 -0.25019264 -0.4048202
0.024870912 0.031079687 0 0 -0.25019264 -0.4048202
0.025637604 0.03108225 0 0 -0.25019264 -0.4048202
0.026404426 0.03108489 5.5511151e-17 0 -0.25019264 -0.4048202
0.031540133 0.076313242 0.065089002 0 -0.25019264 -0.4048202
0.027938478 0.031090405 0 0 -0.25019264 -0.4048202
0.033188056 0.07501553 0.063211896 0 -0.25019264 -0.4048202
0.029473098 0.031096231 0 0 -0.25019264 -0.4048202
0.030240631 0.031099262 0 0 -0.25019264 -0.4048202
0.031008318 0.03110237 5.5511151e-17 0 -0.25019264 -0.4048202
0.031776164 0.031105557 0 0 -0.25019264 -0.4048202
0.03254417 0.031108823 0 0 -0.25019264 -0.4048202
0.033312343 0.031112166 0 0 -0.25019264 -0.4048202
0.038493473 0.067539535 0.052416351 0 -0.25019264 -0.4048202
0.034849204 0.03111909 0 0 -0.25019264 -0.4048202
0.035617895 0.031122668 0 0 -0.25019264 -0.4048202
0.039982125 0.058923256 0.039999999 0 -0.25019264 -0.4048202
0.037155833 0.031130062 5.5511151e-17 0 -0.25019264 -0.4048202
0.039999999 0.046525482 0.022148047 0 -0.25019264 -0.4048202
0.039999999 0.040629234 0.013657737 0 -0.25019264 -0.4048202
0.039464176 0.031141743 5.5511151e-17 0 -0.25019264 -0.4048202
0.00038266875 0.031972058 0 0 -0.25019264 -0.4048202
0.0012905109 0.066997334 0.050250452 0 -0.25019264 -0.4048202
0.0019133536 0.031972297 5.5511151e-17 0 -0.25019264 -0.4048202
0.0026787086 0.031972539 0 0 -0.25019264 -0.4048202
0.0034440772 0.031972855 0 0 -0.25019264 -0.4048202
0.0042094635 0.031973258 0 0 -0.25019264 -0.4048202
0.0049748709 0.031973734 5.5511151e-17 0 -0.25019264 -0.4048202
0.0057403035 0.031974293 5.5511151e-17 0 -0.25019264 -0.4048202
0.0065057655 0.031974934 0 0 -0.25019264 -0.4048202
0.0072712605 0.031975653 0 0 -0.25019264 -0.4048202
0.0080367923 0.03197645 0 0 -0.25019264 -0.4048202
0.0088023655 0.031977329 0 0 -0.25019264 -0.4048202
0.0095679834 0.031978291 0 0 -0.25019264 -0.4048202
0.012030633 0.078317374 0.066479243 0 -0.25019264 -0.4048202
0.012936858 0.078693949 0.06701763 0 -0.25019264 -0.4048202
0.011865144 0.031981643 0 0 -0.25019264 -0.4048202
0.012630979 0.031982925 0 0 -0.25019264 -0.4048202
0.013396879 0.031984281 0 0 -0.25019264 -0.4048202
0.014162847 0.031985722 5.5511151e-17 0 -0.25019264 -0.4048202
0.017459087 0.079812072 0.068610348 0 -0.25019264 -0.4048202
0.015695002 0.031988837 5.5511151e-17 0 -0.25019264 -0.4048202
0.016461197 0.031990517 5.5511151e-17 0 -0.25019264 -0.4048202
0.017227476 0.031992275 0 0 -0.25019264 -0.4048202
0.021053158 0.079971507 0.068827532 0 -0.25019264 -0.4048202
0.018760303 0.031996034 0 0 -0.25019264 -0.4048202
0.019526858 0.031998035 5.5511151e-17 0 -0.25019264 -0.4048202
0.020293511 0.032000113 0 0 -0.25019264 -0.4048202
0.021060267 0.032002274 0 0 -0.25019264 -0.4048202
0.021827132 0.032004513 0 0 -0.25019264 -0.4048202
0.022594107 0.032006834 0 0 -0.25019264 -0.4048202
0.023361197 0.032009233 0 0 -0.25019264 -0.4048202
0.024128405 0.032011714 0 0 -0.25019264 -0.4048202
0.024895739 0.032014277 0 0 -0.25019264 -0.4048202
0.02979159 0.077415459 0.065122694 0 -0.25019264 -0.4048202
0.026430788 0.032019641 5.5511151e-17 0 -0.25019264 -0.4048202
0.027198512 0.032022443 0 0 -0.25019264 -0.4048202
0.027966375 0.032025326 0 0 -0.25019264 -0.4048202
0.033117902 0.075081982 0.0617566 0 -0.25019264 -0.4048202
0.029502533 0.032031335 0 0 -0.25019264 -0.4048202
0.030270835 0.032034457 0 0 -0.25019264 -0.4048202
0.031039292 0.032037664 0 0 -0.25019264 -0.4048202
0.031807907 0.03204095 0 0 -0.25019264 -0.4048202
0.032576684 0.032044318 5.5511151e-17 0 -0.25019264 -0.4048202
0.033345629 0.032047763 5.5511151e-17 0 -0.25019264 -0.4048202
0.034114745 0.032051295 0 0 -0.25019264 -0.4048202
0.034884032 0.032054901 0 0 -0.25019264 -0.4048202
0.035653498 0.032058593 0 0 -0.25019264 -0.4048202
0.036423147 0.032062363 0 0 -0.25019264 -0.4048202
0.037192982 0.032066215 0 0 -0.25019264 -0.4048202
0.039999999 0.047215592 0.021721536 0 -0.25019264 -0.4048202
0.038733229 0.032074165 0 0 -0.25019264 -0.4048202
0.039503645 0.032078259 5.5511151e-17 0 -0.25019264 -0.4048202
0.00038305068 0.032907397 0 0 -0.25019264 -0.4048202
0.001149154 0.032907479 0 0 -0.25019264 -0.4048202
0.0021593319 0.068984106 0.051587664 0 -0.25019264 -0.4048202
0.002681382 0.032907888 5.5511151e-17 0 -0.25019264 -0.4048202
0.0034475145 0.03290822 5.5511151e-17 0 -0.25019264 -0.4048202
0.0042136647 0.03290863 5.5511151e-17 0 -0.25019264 -0.4048202
0.0049798363 0.032909125 0 0 -0.25019264 -0.4048202
0.005746033 0.032909699 0 0 -0.25019264 -0.4048202
0.0065122591 0.032910358 0 0 -0.25019264 -0.4048202
0.0072785183 0.032911099 0 0 -0.25019264 -0.4048202
0.0080448147 0.032911923 0 0 -0.25019264 -0.4048202
0.0088111525 0.032912828 0 0 -0.25019264 -0.4048202
0.0095775342 0.032913815 0 0 -0.25019264 -0.4048202
0.010343965 0.032914884 0 0 -0.25019264 -0.4048202
0.011110448 0.032916039 0 0 -0.25019264 -0.4048202
0.011876989 0.032917272 5.5511151e-17 0 -0.25019264 -0.4048202
0.01264359 0.032918591 0 0 -0.25019264 -0.4048202
0.013410254 0.032919992 0 0 -0.25019264 -0.4048202
0.014176988 0.032921471 0 0 -0.25019264 -0.4048202
0.014943793 0.032923035 0 0 -0.25019264 -0.4048202
0.018317722 0.079905488 0.067176312 0 -0.25019264 -0.4048202
0.016477637 0.032926414 5.5511151e-17 0 -0.25019264 -0.4048202
0.017244682 0.032928225 0 0 -0.25019264 -0.4048202
0.018011816 0.032930121 0 0 -0.25019264 -0.4048202
0.018779041 0.032932099 0 0 -0.25019264 -0.4048202
0.019546362 0.032934159 0 0 -0.25019264 -0.4048202
0.020313783 0.032936301 0 0 -0.25019264 -0.4048202
0.021081306 0.032938525 0 0 -0.25019264 -0.4048202
0.021848937 0.032940835 0 0 -0.25019264 -0.4048202
0.022616681 0.032943223 0 0 -0.25019264 -0.4048202
0.027160211 0.078661241 0.065362312 0 -0.25019264 -0.4048202
0.024152517 0.032948252 5.5511151e-17 0 -0.25019264 -0.4048202
0.024920618 0.032950893 0 0 -0.25019264 -0.4048202
0.029726276 0.077454761 0.063624233 0 -0.25019264 -0.4048202
0.026457205 0.032956418 0 0 -0.25019264 -0.4048202
0.027225699 0.032959305 5.5511151e-17 0 -0.25019264 -0.4048202
0.027994333 0.032962278 0 0 -0.25019264 -0.4048202
0.028763108 0.032965329 5.5511151e-17 0 -0.25019264 -0.4048202
0.029532032 0.032968465 0 0 -0.25019264 -0.4048202
0.030301105 0.032971688 0 0 -0.25019264 -0.4048202
0.035427537 0.072685488 0.05677066 0 -0.25019264 -0.4048202
0.031839721 0.032978375 5.5511151e-17 0 -0.25019264 -0.4048202
0.032609273 0.032981843 0 0 -0.25019264 -0.4048202
0.033378989 0.032985397 5.5511151e-17 0 -0.25019264 -0.4048202
0.034148876 0.032989029 0 0 -0.25019264 -0.4048202
0.034918938 0.03299275 5.5511151e-17 0 -0.25019264 -0.4048202
0.035689179 0.03299655 0 0 -0.25019264 -0.4048202
0.036459602 0.033000436 0 0 -0.25019264 -0.4048202
0.037230212 0.033004407 0 0 -0.25019264 -0.4048202
