# .PCD v0.7 - Point Cloud Data file format
VERSION 0.7
FIELDS x y z vp_x vp_y vp_z
SIZE 4 4 4 4 4 4
TYPE F F F F F F
COUNT 1 1 1 1 1 1
WIDTH 811
HEIGHT 1
VIEWPOINT 0 0 0 1 0 0 0
POINTS 811
DATA ascii
0.039999999 0.0010075014 0.018009424 0.4048202 0 0.25019264
0.039999999 0.0016791744 0.018009393 0.4048202 0 0.25019264
0.039999999 0.0023508556 0.018009342 0.4048202 0 0.25019264
0.039999999 0.0030225483 0.018009277 0.4048202 0 0.25019264
0.039999999 0.0036942558 0.018009197 0.4048202 0 0.25019264
0.039999999 0.0043659816 0.018009098 0.4048202 0 0.25019264
0.039999999 0.0050377282 0.018008985 0.4048202 0 0.25019264
0.039999999 0.0057094996 0.018008852 0.4048202 0 0.25019264
0.039999999 0.0063812993 0.018008707 0.4048202 0 0.25019264
0.039999999 0.0070531298 0.018008543 0.4048202 0 0.25019264
0.039999999 0.0077249948 0.018008363 0.4048202 0 0.25019264
0.039999999 0.0083968975 0.018008167 0.4048202 0 0.25019264
0.039999999 0.0090688411 0.018007955 0.4048202 0 0.25019264
0.039999999 0.0097408295 0.018007725 0.4048202 0 0.25019264
0.039999999 0.010412865 0.018007481 0.4048202 0 0.25019264
0.039999999 0.011084951 0.018007221 0.4048202 0 0.25019264
0.039999999 0.011757093 0.018006941 0.4048202 0 0.25019264
0.039999999 0.012429291 0.018006649 0.4048202 0 0.25019264
0.039999999 0.01310155 0.018006338 0.4048202 0 0.25019264
0.039999999 0.013773873 0.01800601 0.4048202 0 0.25019264
0.039999999 0.014446264 0.018005667 0.4048202 0 0.25019264
0.039999999 0.015118725 0.018005308 0.4048202 0 0.25019264
0.039999999 0.01579126 0.018004932 0.4048202 0 0.25019264
0.039999999 0.016463872 0.01800454 0.4048202 0 0.25019264
0.039999999 0.017136566 0.018004131 0.4048202 0 0.25019264
0.039999999 0.017809343 0.018003706 0.4048202 0 0.25019264
0.039999999 0.018482206 0.018003264 0.4048202 0 0.25019264
0.039999999 0.019155161 0.018002806 0.4048202 0 0.25019264
0.039999999 0.019828208 0.018002331 0.4048202 0 0.25019264
0.039999999 0.020501355 0.018001841 0.4048202 0 0.25019264
0.039999999 0.0211746 0.018001335 0.4048202 0 0.25019264
0.039999999 0.021847948 0.018000811 0.4048202 0 0.25019264
0.039999999 0.022521405 0.018000271 0.4048202 0 0.25019264
0.039999999 0.023194972 0.017999714 0.4048202 0 0.25019264
0.039999999 0.023868652 0.017999141 0.4048202 0 0.25019264
0.039999999 0.024542449 0.017998552 0.4048202 0 0.25019264
0.039999999 0.025216367 0.017997947 0.4048202 0 0.25019264
0.039999999 0.025890408 0.017997324 0.4048202 0 0.25019264
0.039999999 0.026564576 0.017996686 0.4048202 0 0.25019264
0.039999999 0.027238874 0.01799603 0.4048202 0 0.25019264
0.039999999 0.027913306 0.017995358 0.4048202 0 0.25019264
0.039999999 0.028587876 0.01799467 0.4048202 0 0.25019264
0.039999999 0.029262584 0.017993964 0.4048202 0 0.25019264
0.039999999 0.029937437 0.017993243 0.4048202 0 0.25019264
0.039999999 0.030612437 0.017992506 0.4048202 0 0.25019264
0.039999999 0.031287588 0.017991751 0.4048202 0 0.25019264
0.039999999 0.03196289 0.01799098 0.4048202 0 0.25019264
0.039999999 0.032638352 0.017990192 0.4048202 0 0.25019264
0.039999999 0.033313971 0.01798939 0.4048202 0 0.25019264
0.039999999 0.033989757 0.017988568 0.4048202 0 0.25019264
0.039999999 0.034665711 0.017987732 0.4048202 0 0.25019264
0.039999999 0.035341833 0.017986877 0.4048202 0 0.25019264
0.039999999 0.036018129 0.017986007 0.4048202 0 0.25019264
0.039999999 0.036694601 0.01798512 0.4048202 0 0.25019264
0.039999999 0.037371255 0.017984217 0.4048202 0 0.25019264
0.039999999 0.038048092 0.017983297 0.4048202 0 0.25019264
0.039999999 0.038725119 0.01798236 0.4048202 0 0.25019264
0.039999999 0.039402336 0.017981406 0.4048202 0 0.25019264
0.039999999 0.040079743 0.017980436 0.4048202 0 0.25019264
0.039999999 0.040757351 0.017979449 0.4048202 0 0.25019264
0.039999999 0.04143516 0.017978445 0.4048202 0 0.25019264
0.039999999 0.042113174 0.017977426 0.4048202 0 0.25019264
0.039999999 0.042791393 0.017976388 0.4048202 0 0.25019264
0.039999999 0.043469824 0.017975334 0.4048202 0 0.25019264
0.039999999 0.044148471 0.017974263 0.4048202 0 0.25019264
0.039999999 0.044827335 0.017973177 0.4048202 0 0.25019264
0.039999999 0.045506421 0.017972073 0.4048202 0 0.25019264
0.039999999 0.046185732 0.017970951 0.4048202 0 0.25019264
0.039999999 0.04686527 0.017969813 0.4048202 0 0.25019264
0.039999999 0.047545038 0.01796866 0.4048202 0 0.25019264
0.039999999 0.048225045 0.017967489 0.4048202 0 0.25019264
0.039999999 0.048905287 0.0179663 0.4048202 0 0.25019264
0.039999999 0.049585775 0.017965095 0.4048202 0 0.25019264
0.039999999 0.050266504 0.017963873 0.4048202 0 0.25019264
0.039999999 0.050947487 0.017962635 0.4048202 0 0.25019264
0.039999999 0.05162872 0.017961379 0.4048202 0 0.25019264
0.039999999 0.052310206 0.017960107 0.4048202 0 0.25019264
0.039999999 0.052991956 0.017958818 0.4048202 0 0.25019264
0.039999999 0.053673964 0.01795751 0.4048202 0 0.25019264
0.039999999 0.054356243 0.017956188 0.4048202 0 0.25019264
0.039999999 0.055038787 0.017954847 0.4048202 0 0.25019264
0.039999999 0.055721607 0.017953489 0.4048202 0 0.25019264
0.039999999 0.056404706 0.017952114 0.4048202 0 0.25019264
0.039999999 0.057088081 0.017950723 0.4048202 0 0.25019264
0.039999999 0.057771742 0.017949315 0.4048202 0 0.25019264
0.039999999 0.058455691 0.01794789 0.4048202 0 0.25019264
0.039999999 0.05913993 0.017946446 0.4048202 0 0.25019264
0.039999999 0.059824463 0.017944988 0.4048202 0 0.25019264
0.039999999 0.060509294 0.017943511 0.4048202 0 0.25019264
0.039999999 0.061194427 0.017942017 0.4048202 0 0.25019264
0.039999999 0.061879866 0.017940504 0.4048202 0 0.25019264
0.039999999 0.06256561 0.017938977 0.4048202 0 0.25019264
0.039999999 0.063251667 0.017937431 0.4048202 0 0.25019264
0.039999999 0.063938044 0.017935868 0.4048202 0 0.25019264
0.039999999 0.064624734 0.017934289 0.4048202 0 0.25019264
0.039999999 0.065311752 0.017932691 0.4048202 0 0.25019264
0.039999999 0.065999098 0.017931078 0.4048202 0 0.25019264
0.039999999 0.066686772 0.017929444 0.4048202 0 0.25019264
0.039999999 0.067374773 0.017927796 0.4048202 0 0.25019264
0.039999999 0.068063118 0.017926129 0.4048202 0 0.25019264
0.039999999 0.068751805 0.017924445 0.4048202 0 0.25019264
0.039999999 0.069440834 0.017922744 0.4048202 0 0.25019264
0.039999999 0.070130207 0.017921025 0.4048202 0 0.25019264
0.039999999 0.070819937 0.017919289 0.4048202 0 0.25019264
0.039999999 0.071510024 0.017917536 0.4048202 0 0.25019264
0.039999999 0.072200462 0.017915765 0.4048202 0 0.25019264
0.039999999 0.072891273 0.017913977 0.4048202 0 0.25019264
0.039999999 0.073582441 0.01791217 0.4048202 0 0.25019264
0.039999999 0.074273981 0.017910346 0.4048202 0 0.25019264
0.039999999 0.074965902 0.017908506 0.4048202 0 0.25019264
0.039999999 0.075658195 0.017906647 0.4048202 0 0.25019264
0.039999999 0.076350868 0.017904771 0.4048202 0 0.25019264
0.039999999 0.077043921 0.017902877 0.4048202 0 0.25019264
0.039999999 0.077737369 0.017900966 0.4048202 0 0.25019264
0.039999999 0.078431211 0.017899036 0.4048202 0 0.25019264
0.039999999 0.079125449 0.01789709 0.4048202 0 0.25019264
0.039999999 0.079820082 0.017895125 0.4048202 0 0.25019264
0.039999999 0.00033615867 0.017212426 0.4048202 0 0.25019264
0.039999999 0.0010084776 0.017212408 0.4048202 0 0.25019264
0.039999999 0.0016808016 0.01721237 0.4048202 0 0.25019264
0.039999999 0.0023531336 0.017212316 0.4048202 0 0.25019264
0.039999999 0.0030254775 0.017212244 0.4048202 0 0.25019264
0.039999999 0.0036978358 0.017212151 0.4048202 0 0.25019264
0.039999999 0.0043702126 0.017212043 0.4048202 0 0.25019264
0.039999999 0.0050426102 0.017211914 0.4048202 0 0.25019264
0.039999999 0.005715033 0.017211767 0.4048202 0 0.25019264
0.039999999 0.0063874838 0.017211603 0.4048202 0 0.25019264
0.039999999 0.0070599653 0.01721142 0.4048202 0 0.25019264
0.039999999 0.0077324817 0.017211219 0.4048202 0 0.25019264
0.039999999 0.0084050363 0.017211 0.4048202 0 0.25019264
0.039999999 0.0090776319 0.017210761 0.4048202 0 0.25019264
0.039999999 0.0097502712 0.017210506 0.4048202 0 0.25019264
0.039999999 0.010422959 0.01721023 0.4048202 0 0.25019264
0.039999999 0.011095697 0.017209938 0.4048202 0 0.25019264
0.039999999 0.01176849 0.017209627 0.4048202 0 0.25019264
0.039999999 0.012441341 0.017209299 0.4048202 0 0.25019264
0.039999999 0.013114252 0.017208951 0.4048202 0 0.25019264
0.039999999 0.013787228 0.017208584 0.4048202 0 0.25019264
0.039999999 0.014460271 0.0172082 0.4048202 0 0.25019264
0.039999999 0.015133385 0.017207798 0.4048202 0 0.25019264
0.039999999 0.015806573 0.017207377 0.4048202 0 0.25019264
0.039999999 0.016479839 0.017206937 0.4048202 0 0.25019264
0.039999999 0.017153185 0.017206479 0.4048202 0 0.25019264
0.039999999 0.017826615 0.017206004 0.4048202 0 0.25019264
0.039999999 0.018500132 0.017205508 0.4048202 0 0.25019264
0.039999999 0.019173741 0.017204996 0.4048202 0 0.25019264
0.039999999 0.019847443 0.017204465 0.4048202 0 0.25019264
0.039999999 0.020521244 0.017203916 0.4048202 0 0.25019264
0.039999999 0.021195143 0.017203348 0.4048202 0 0.25019264
0.039999999 0.021869147 0.017202761 0.4048202 0 0.25019264
0.039999999 0.022543259 0.017202156 0.4048202 0 0.25019264
0.039999999 0.023217481 0.017201534 0.4048202 0 0.25019264
0.039999999 0.023891818 0.017200891 0.4048202 0 0.25019264
0.039999999 0.02456627 0.017200232 0.4048202 0 0.25019264
0.039999999 0.025240844 0.017199554 0.4048202 0 0.25019264
0.039999999 0.025915543 0.017198857 0.4048202 0 0.25019264
0.039999999 0.026590368 0.017198142 0.4048202 0 0.25019264
0.039999999 0.027265323 0.017197408 0.4048202 0 0.25019264
0.039999999 0.027940413 0.017196655 0.4048202 0 0.25019264
0.039999999 0.028615639 0.017195884 0.4048202 0 0.25019264
0.039999999 0.029291006 0.017195094 0.4048202 0 0.25019264
0.039999999 0.029966518 0.017194288 0.4048202 0 0.25019264
0.039999999 0.030642176 0.017193461 0.4048202 0 0.25019264
0.039999999 0.031317987 0.017192617 0.4048202 0 0.25019264
0.039999999 0.031993948 0.017191753 0.4048202 0 0.25019264
0.039999999 0.032670069 0.017190872 0.4048202 0 0.25019264
0.039999999 0.033346351 0.01718997 0.4048202 0 0.25019264
0.039999999 0.034022797 0.017189052 0.4048202 0 0.25019264
0.039999999 0.03469941 0.017188115 0.4048202 0 0.25019264
0.039999999 0.035376195 0.017187158 0.4048202 0 0.25019264
0.039999999 0.036053155 0.017186183 0.4048202 0 0.25019264
0.039999999 0.036730289 0.017185191 0.4048202 0 0.25019264
0.039999999 0.037407607 0.017184179 0.4048202 0 0.25019264
0.039999999 0.038085107 0.017183147 0.4048202 0 0.25019264
0.039999999 0.038762797 0.017182099 0.4048202 0 0.25019264
0.039999999 0.039440677 0.017181031 0.4048202 0 0.25019264
0.039999999 0.04011875 0.017179945 0.4048202 0 0.25019264
0.039999999 0.040797025 0.017178839 0.4048202 0 0.25019264
0.039999999 0.041475497 0.017177716 0.4048202 0 0.25019264
0.039999999 0.042154178 0.017176572 0.4048202 0 0.25019264
0.039999999 0.042833064 0.017175412 0.4048202 0 0.25019264
0.039999999 0.043512166 0.017174231 0.4048202 0 0.25019264
0.039999999 0.044191476 0.017173033 0.4048202 0 0.25019264
0.039999999 0.04487101 0.017171815 0.4048202 0 0.25019264
0.039999999 0.045550764 0.017170578 0.4048202 0 0.25019264
0.039999999 0.046230745 0.017169325 0.4048202 0 0.25019264
0.039999999 0.046910953 0.017168051 0.4048202 0 0.25019264
0.039999999 0.047591392 0.017166758 0.4048202 0 0.25019264
0.039999999 0.04827207 0.017165445 0.4048202 0 0.25019264
0.039999999 0.048952986 0.017164115 0.4048202 0 0.25019264
0.039999999 0.049634144 0.017162766 0.4048202 0 0.25019264
0.039999999 0.050315548 0.017161397 0.4048202 0 0.25019264
0.039999999 0.050997201 0.01716001 0.4048202 0 0.25019264
0.039999999 0.051679108 0.017158603 0.4048202 0 0.25019264
0.039999999 0.052361272 0.017157178 0.4048202 0 0.25019264
0.039999999 0.053043693 0.017155735 0.4048202 0 0.25019264
0.039999999 0.053726383 0.017154273 0.4048202 0 0.25019264
0.039999999 0.054409333 0.01715279 0.4048202 0 0.25019264
0.039999999 0.055092558 0.017151289 0.4048202 0 0.25019264
0.039999999 0.055776056 0.017149769 0.4048202 0 0.25019264
0.039999999 0.056459833 0.01714823 0.4048202 0 0.25019264
0.039999999 0.057143889 0.017146671 0.4048202 0 0.25019264
0.039999999 0.057828229 0.017145094 0.4048202 0 0.25019264
0.039999999 0.058512859 0.017143497 0.4048202 0 0.25019264
0.039999999 0.05919778 0.017141882 0.4048202 0 0.25019264
0.039999999 0.059882995 0.017140247 0.4048202 0 0.25019264
0.039999999 0.060568508 0.017138593 0.4048202 0 0.25019264
0.039999999 0.061254326 0.01713692 0.4048202 0 0.25019264
0.039999999 0.061940446 0.017135229 0.4048202 0 0.25019264
0.039999999 0.062626876 0.017133517 0.4048202 0 0.25019264
0.039999999 0.063313626 0.017131787 0.4048202 0 0.25019264
0.039999999 0.064000681 0.017130036 0.4048202 0 0.25019264
0.039999999 0.064688064 0.017128266 0.4048202 0 0.25019264
0.039999999 0.065375768 0.017126478 0.4048202 0 0.25019264
0.039999999 0.066063799 0.01712467 0.4048202 0 0.25019264
0.039999999 0.066752166 0.017122842 0.4048202 0 0.25019264
0.039999999 0.06744086 0.017120996 0.4048202 0 0.25019264
0.039999999 0.068129897 0.01711913 0.4048202 0 0.25019264
0.039999999 0.06881927 0.017117243 0.4048202 0 0.25019264
0.039999999 0.069508992 0.01711534 0.4048202 0 0.25019264
0.039999999 0.070199065 0.017113414 0.4048202 0 0.25019264
0.039999999 0.070889488 0.017111471 0.4048202 0 0.25019264
0.039999999 0.071580268 0.017109506 0.4048202 0 0.25019264
0.039999999 0.072271407 0.017107524 0.4048202 0 0.25019264
0.039999999 0.07296291 0.01710552 0.4048202 0 0.25019264
0.039999999 0.073654778 0.017103499 0.4048202 0 0.25019264
0.039999999 0.074347019 0.017101455 0.4048202 0 0.25019264
0.039999999 0.07503964 0.017099394 0.4048202 0 0.25019264
0.039999999 0.075732633 0.017097313 0.4048202 0 0.25019264
0.039999999 0.076426007 0.017095212 0.4048202 0 0.25019264
0.039999999 0.077119768 0.01709309 0.4048202 0 0.25019264
0.039999999 0.077813923 0.01709095 0.4048202 0 0.25019264
0.039999999 0.078508466 0.017088789 0.4048202 0 0.25019264
0.039999999 0.079203404 0.01708661 0.4048202 0 0.25019264
0.039999999 0.079898752 0.017084409 0.4048202 0 0.25019264
0.039999999 0.00033648475 0.016413828 0.4048202 0 0.25019264
0.039999999 0.0010094559 0.016413808 0.4048202 0 0.25019264
0.039999999 0.001682432 0.016413767 0.4048202 0 0.25019264
0.039999999 0.0023554163 0.016413705 0.4048202 0 0.25019264
0.039999999 0.0030284123 0.016413625 0.4048202 0 0.25019264
0.039999999 0.0037014231 0.016413525 0.4048202 0 0.25019264
0.039999999 0.0043744519 0.016413402 0.4048202 0 0.25019264
0.039999999 0.005047502 0.01641326 0.4048202 0 0.25019264
0.039999999 0.0057205772 0.016413098 0.4048202 0 0.25019264
0.039999999 0.0063936803 0.016412916 0.4048202 0 0.25019264
0.039999999 0.0070668147 0.016412714 0.4048202 0 0.25019264
0.039999999 0.007739984 0.016412491 0.4048202 0 0.25019264
0.039999999 0.008413191 0.016412249 0.4048202 0 0.25019264
0.039999999 0.0090864394 0.016411984 0.4048202 0 0.25019264
0.039999999 0.0097597316 0.016411701 0.4048202 0 0.25019264
0.039999999 0.010433072 0.016411398 0.4048202 0 0.25019264
0.039999999 0.011106464 0.016411074 0.4048202 0 0.25019264
0.039999999 0.01177991 0.016410729 0.4048202 0 0.25019264
0.039999999 0.012453414 0.016410364 0.4048202 0 0.25019264
0.039999999 0.01312698 0.016409978 0.4048202 0 0.25019264
0.039999999 0.013800609 0.016409574 0.4048202 0 0.25019264
0.039999999 0.014474305 0.016409148 0.4048202 0 0.25019264
0.039999999 0.015148073 0.016408702 0.4048202 0 0.25019264
0.039999999 0.015821915 0.016408235 0.4048202 0 0.25019264
0.039999999 0.016495837 0.016407749 0.4048202 0 0.25019264
0.039999999 0.017169837 0.016407242 0.4048202 0 0.25019264
0.039999999 0.017843923 0.016406715 0.4048202 0 0.25019264
0.039999999 0.018518096 0.016406167 0.4048202 0 0.25019264
0.039999999 0.019192358 0.016405599 0.4048202 0 0.25019264
0.039999999 0.019866716 0.016405011 0.4048202 0 0.25019264
0.039999999 0.020541172 0.016404403 0.4048202 0 0.25019264
0.039999999 0.021215728 0.016403774 0.4048202 0 0.25019264
0.039999999 0.021890389 0.016403124 0.4048202 0 0.25019264
0.039999999 0.022565156 0.016402455 0.4048202 0 0.25019264
0.039999999 0.023240035 0.016401764 0.4048202 0 0.25019264
0.039999999 0.023915028 0.016401054 0.4048202 0 0.25019264
0.039999999 0.02459014 0.016400324 0.4048202 0 0.25019264
0.039999999 0.025265371 0.016399572 0.4048202 0 0.25019264
0.039999999 0.025940727 0.016398801 0.4048202 0 0.25019264
0.039999999 0.02661621 0.016398009 0.4048202 0 0.25019264
0.039999999 0.027291823 0.016397195 0.4048202 0 0.25019264
0.039999999 0.027967572 0.016396362 0.4048202 0 0.25019264
0.039999999 0.028643459 0.016395509 0.4048202 0 0.25019264
0.039999999 0.029319486 0.016394636 0.4048202 0 0.25019264
0.039999999 0.029995658 0.01639374 0.4048202 0 0.25019264
0.039999999 0.030671977 0.016392825 0.4048202 0 0.25019264
0.039999999 0.031348445 0.01639189 0.4048202 0 0.25019264
0.039999999 0.032025069 0.016390935 0.4048202 0 0.25019264
0.039999999 0.032701854 0.016389957 0.4048202 0 0.25019264
0.039999999 0.033378795 0.01638896 0.4048202 0 0.25019264
0.039999999 0.034055904 0.016387943 0.4048202 0 0.25019264
0.039999999 0.03473318 0.016386904 0.4048202 0 0.25019264
0.039999999 0.035410628 0.016385846 0.4048202 0 0.25019264
0.039999999 0.036088247 0.016384767 0.4048202 0 0.25019264
0.039999999 0.036766049 0.016383667 0.4048202 0 0.25019264
0.039999999 0.037444029 0.016382545 0.4048202 0 0.25019264
0.039999999 0.038122196 0.016381405 0.4048202 0 0.25019264
0.039999999 0.038800549 0.016380243 0.4048202 0 0.25019264
0.039999999 0.039479095 0.01637906 0.4048202 0 0.25019264
0.039999999 0.040157836 0.016377857 0.4048202 0 0.25019264
0.039999999 0.040836778 0.016376633 0.4048202 0 0.25019264
0.039999999 0.041515917 0.016375389 0.4048202 0 0.25019264
0.039999999 0.042195264 0.016374122 0.4048202 0 0.25019264
0.039999999 0.042874821 0.016372837 0.4048202 0 0.25019264
0.039999999 0.043554585 0.01637153 0.4048202 0 0.25019264
0.039999999 0.04423457 0.016370203 0.4048202 0 0.25019264
0.039999999 0.044914771 0.016368855 0.4048202 0 0.25019264
0.039999999 0.045595195 0.016367486 0.4048202 0 0.25019264
0.039999999 0.046275847 0.016366094 0.4048202 0 0.25019264
0.039999999 0.046956725 0.016364684 0.4048202 0 0.25019264
0.039999999 0.047637839 0.016363252 0.4048202 0 0.25019264
0.039999999 0.048319187 0.016361801 0.4048202 0 0.25019264
0.039999999 0.049000777 0.016360328 0.4048202 0 0.25019264
0.039999999 0.04968261 0.016358832 0.4048202 0 0.25019264
0.039999999 0.050364688 0.016357318 0.4048202 0 0.25019264
0.039999999 0.051047016 0.016355781 0.4048202 0 0.25019264
0.039999999 0.051729597 0.016354224 0.4048202 0 0.25019264
0.039999999 0.052412435 0.016352646 0.4048202 0 0.25019264
0.039999999 0.053095538 0.016351046 0.4048202 0 0.25019264
0.039999999 0.053778902 0.016349426 0.4048202 0 0.25019264
0.039999999 0.054462533 0.016347785 0.4048202 0 0.25019264
0.039999999 0.055146433 0.016346123 0.4048202 0 0.25019264
0.039999999 0.055830613 0.016344439 0.4048202 0 0.25019264
0.039999999 0.056515068 0.016342735 0.4048202 0 0.25019264
0.039999999 0.057199806 0.016341008 0.4048202 0 0.25019264
0.039999999 0.057884827 0.016339263 0.4048202 0 0.25019264
0.039999999 0.058570139 0.016337495 0.4048202 0 0.25019264
0.039999999 0.059255742 0.016335705 0.4048202 0 0.25019264
0.039999999 0.059941642 0.016333895 0.4048202 0 0.25019264
0.039999999 0.06062784 0.016332064 0.4048202 0 0.25019264
0.039999999 0.061314341 0.01633021 0.4048202 0 0.25019264
0.039999999 0.06200115 0.016328337 0.4048202 0 0.25019264
0.039999999 0.062688269 0.01632644 0.4048202 0 0.25019264
0.039999999 0.063375697 0.016324524 0.4048202 0 0.25019264
0.039999999 0.064063445 0.016322587 0.4048202 0 0.25019264
0.039999999 0.064751521 0.016320627 0.4048202 0 0.25019264
0.039999999 0.06543991 0.016318645 0.4048202 0 0.25019264
0.039999999 0.066128634 0.016316643 0.4048202 0 0.25019264
0.039999999 0.066817686 0.01631462 0.4048202 0 0.25019264
0.039999999 0.067507073 0.016312575 0.4048202 0 0.25019264
0.039999999 0.068196803 0.016310507 0.4048202 0 0.25019264
0.039999999 0.068886876 0.016308419 0.4048202 0 0.25019264
0.039999999 0.069577292 0.016306309 0.4048202 0 0.25019264
0.039999999 0.070268057 0.016304178 0.4048202 0 0.25019264
0.039999999 0.070959181 0.016302025 0.4048202 0 0.25019264
0.039999999 0.071650654 0.016299851 0.4048202 0 0.25019264
0.039999999 0.072342493 0.016297653 0.4048202 0 0.25019264
0.039999999 0.073034696 0.016295437 0.4048202 0 0.25019264
0.039999999 0.073727265 0.016293196 0.4048202 0 0.25019264
0.039999999 0.074420206 0.016290935 0.4048202 0 0.25019264
0.039999999 0.075113527 0.016288651 0.4048202 0 0.25019264
0.039999999 0.075807221 0.016286347 0.4048202 0 0.25019264
0.039999999 0.076501302 0.016284019 0.4048202 0 0.25019264
0.039999999 0.077195771 0.01628167 0.4048202 0 0.25019264
0.039999999 0.077890627 0.016279301 0.4048202 0 0.25019264
0.039999999 0.078585878 0.016276907 0.4048202 0 0.25019264
0.039999999 0.079281524 0.016274493 0.4048202 0 0.25019264
0.039999999 0.079977579 0.016272057 0.4048202 0 0.25019264
0.039999999 0.0003368115 0.015613638 0.4048202 0 0.25019264
0.039999999 0.0010104361 0.015613616 0.4048202 0 0.25019264
0.039999999 0.0016840657 0.015613572 0.4048202 0 0.25019264
0.039999999 0.0023577036 0.015613505 0.4048202 0 0.25019264
0.039999999 0.003031353 0.015613416 0.4048202 0 0.25019264
0.039999999 0.0037050173 0.015613304 0.4048202 0 0.25019264
0.039999999 0.0043786997 0.015613171 0.4048202 0 0.25019264
0.039999999 0.0050524035 0.015613016 0.4048202 0 0.25019264
0.039999999 0.0057261325 0.015612838 0.4048202 0 0.25019264
0.039999999 0.0063998895 0.015612638 0.4048202 0 0.25019264
0.039999999 0.0070736776 0.015612416 0.4048202 0 0.25019264
0.039999999 0.0077475007 0.015612171 0.4048202 0 0.25019264
0.039999999 0.0084213614 0.015611905 0.4048202 0 0.25019264
0.039999999 0.0090952637 0.015611616 0.4048202 0 0.25019264
0.039999999 0.0097692106 0.015611304 0.4048202 0 0.25019264
0.039999999 0.010443206 0.015610971 0.4048202 0 0.25019264
0.039999999 0.011117253 0.015610615 0.4048202 0 0.25019264
0.039999999 0.011791353 0.015610238 0.4048202 0 0.25019264
0.039999999 0.012465511 0.015609837 0.4048202 0 0.25019264
0.039999999 0.013139731 0.015609414 0.4048202 0 0.25019264
0.039999999 0.013814016 0.01560897 0.4048202 0 0.25019264
0.039999999 0.014488368 0.015608503 0.4048202 0 0.25019264
0.039999999 0.015162792 0.015608014 0.4048202 0 0.25019264
0.039999999 0.015837289 0.015607501 0.4048202 0 0.25019264
0.039999999 0.016511865 0.015606968 0.4048202 0 0.25019264
0.039999999 0.017186522 0.015606412 0.4048202 0 0.25019264
0.039999999 0.017861264 0.015605832 0.4048202 0 0.25019264
0.039999999 0.018536093 0.015605232 0.4048202 0 0.25019264
0.039999999 0.019211013 0.015604609 0.4048202 0 0.25019264
0.039999999 0.019886028 0.015603963 0.4048202 0 0.25019264
0.039999999 0.02056114 0.015603296 0.4048202 0 0.25019264
0.039999999 0.021236354 0.015602605 0.4048202 0 0.25019264
0.039999999 0.021911671 0.015601893 0.4048202 0 0.25019264
0.039999999 0.022587098 0.015601158 0.4048202 0 0.25019264
0.039999999 0.023262635 0.0156004 0.4048202 0 0.25019264
0.039999999 0.023938287 0.015599621 0.4048202 0 0.25019264
0.039999999 0.024614057 0.015598819 0.4048202 0 0.25019264
0.039999999 0.025289945 0.015597994 0.4048202 0 0.25019264
0.039999999 0.025965961 0.015597147 0.4048202 0 0.25019264
0.039999999 0.026642105 0.015596278 0.4048202 0 0.25019264
0.039999999 0.027318379 0.015595386 0.4048202 0 0.25019264
0.039999999 0.027994787 0.015594472 0.4048202 0 0.25019264
0.039999999 0.028671334 0.015593535 0.4048202 0 0.25019264
0.039999999 0.029348021 0.015592576 0.4048202 0 0.25019264
0.039999999 0.030024854 0.015591594 0.4048202 0 0.25019264
0.039999999 0.030701835 0.01559059 0.4048202 0 0.25019264
0.039999999 0.031378966 0.015589564 0.4048202 0 0.25019264
0.039999999 0.032056253 0.015588515 0.4048202 0 0.25019264
0.039999999 0.032733697 0.015587443 0.4048202 0 0.25019264
0.039999999 0.033411305 0.015586349 0.4048202 0 0.25019264
0.039999999 0.034089077 0.015585233 0.4048202 0 0.25019264
0.039999999 0.034767017 0.015584093 0.4048202 0 0.25019264
0.039999999 0.035445128 0.015582931 0.4048202 0 0.25019264
0.039999999 0.036123414 0.015581747 0.4048202 0 0.25019264
0.039999999 0.036801878 0.01558054 0.4048202 0 0.25019264
0.039999999 0.037480526 0.01557931 0.4048202 0 0.25019264
0.039999999 0.038159356 0.015578058 0.4048202 0 0.25019264
0.039999999 0.038838379 0.015576783 0.4048202 0 0.25019264
0.039999999 0.039517593 0.015575484 0.4048202 0 0.25019264
0.039999999 0.040197 0.015574165 0.4048202 0 0.25019264
0.039999999 0.040876608 0.015572821 0.4048202 0 0.25019264
0.039999999 0.041556418 0.015571455 0.4048202 0 0.25019264
0.039999999 0.042236432 0.015570067 0.4048202 0 0.25019264
0.039999999 0.042916656 0.015568656 0.4048202 0 0.25019264
0.039999999 0.043597095 0.015567222 0.4048202 0 0.25019264
0.039999999 0.04427775 0.015565764 0.4048202 0 0.25019264
0.039999999 0.044958621 0.015564285 0.4048202 0 0.25019264
0.039999999 0.045639716 0.015562782 0.4048202 0 0.25019264
0.039999999 0.046321042 0.015561257 0.4048202 0 0.25019264
0.039999999 0.047002591 0.015559709 0.4048202 0 0.25019264
0.039999999 0.047684379 0.015558138 0.4048202 0 0.25019264
0.039999999 0.048366401 0.015556543 0.4048202 0 0.25019264
0.039999999 0.049048666 0.015554926 0.4048202 0 0.25019264
0.039999999 0.049731173 0.015553286 0.4048202 0 0.25019264
0.039999999 0.050413925 0.015551624 0.4048202 0 0.25019264
0.039999999 0.051096931 0.015549938 0.4048202 0 0.25019264
0.039999999 0.05178019 0.015548229 0.4048202 0 0.25019264
0.039999999 0.052463707 0.015546497 0.4048202 0 0.25019264
0.039999999 0.053147484 0.015544742 0.4048202 0 0.25019264
0.039999999 0.053831525 0.015542964 0.4048202 0 0.25019264
0.039999999 0.054515839 0.015541163 0.4048202 0 0.25019264
0.039999999 0.05520042 0.015539339 0.4048202 0 0.25019264
0.039999999 0.055885278 0.015537492 0.4048202 0 0.25019264
0.039999999 0.056570414 0.015535621 0.4048202 0 0.25019264
0.039999999 0.057255834 0.015533728 0.4048202 0 0.25019264
0.039999999 0.057941541 0.015531811 0.4048202 0 0.25019264
0.039999999 0.058627535 0.01552987 0.4048202 0 0.25019264
0.039999999 0.059313823 0.015527907 0.4048202 0 0.25019264
0.039999999 0.060000405 0.01552592 0.4048202 0 0.25019264
0.039999999 0.060687289 0.015523911 0.4048202 0 0.25019264
0.039999999 0.061374478 0.015521877 0.4048202 0 0.25019264
0.039999999 0.062061973 0.01551982 0.4048202 0 0.25019264
0.039999999 0.062749781 0.015517741 0.4048202 0 0.25019264
0.039999999 0.063437901 0.015515637 0.4048202 0 0.25019264
0.039999999 0.064126335 0.01551351 0.4048202 0 0.25019264
0.039999999 0.064815097 0.015511359 0.4048202 0 0.25019264
0.039999999 0.065504186 0.015509185 0.4048202 0 0.25019264
0.039999999 0.066193596 0.015506988 0.4048202 0 0.25019264
0.039999999 0.066883348 0.015504767 0.4048202 0 0.25019264
0.039999999 0.067573428 0.015502523 0.4048202 0 0.25019264
0.039999999 0.068263851 0.015500255 0.4048202 0 0.25019264
0.039999999 0.068954617 0.015497963 0.4048202 0 0.25019264
0.039999999 0.069645725 0.015495648 0.4048202 0 0.25019264
0.039999999 0.070337191 0.015493309 0.4048202 0 0.25019264
0.039999999 0.071029007 0.015490946 0.4048202 0 0.25019264
0.039999999 0.071721181 0.015488559 0.4048202 0 0.25019264
0.039999999 0.07241372 0.015486149 0.4048202 0 0.25019264
0.039999999 0.073106624 0.015483715 0.4048202 0 0.25019264
0.039999999 0.073799893 0.015481257 0.4048202 0 0.25019264
0.039999999 0.074493542 0.015478775 0.4048202 0 0.25019264
0.039999999 0.075187564 0.01547627 0.4048202 0 0.25019264
0.039999999 0.075881965 0.01547374 0.4048202 0 0.25019264
0.039999999 0.076576747 0.015471186 0.4048202 0 0.25019264
0.039999999 0.077271923 0.015468609 0.4048202 0 0.25019264
0.039999999 0.077967487 0.015466007 0.4048202 0 0.25019264
0.039999999 0.078663446 0.015463382 0.4048202 0 0.25019264
0.039999999 0.0793598 0.015460731 0.4048202 0 0.25019264
0.039999999 0.00033713889 0.014811848 0.4048202 0 0.25019264
0.039999999 0.0010114183 0.014811824 0.4048202 0 0.25019264
0.039999999 0.0016857027 0.014811776 0.4048202 0 0.25019264
0.039999999 0.0023599954 0.014811703 0.4048202 0 0.25019264
0.039999999 0.0030342997 0.014811606 0.4048202 0 0.25019264
0.039999999 0.0037086187 0.014811485 0.4048202 0 0.25019264
0.039999999 0.0043829563 0.01481134 0.4048202 0 0.25019264
0.039999999 0.0050573153 0.014811171 0.4048202 0 0.25019264
0.039999999 0.0057316991 0.014810978 0.4048202 0 0.25019264
0.039999999 0.0064061107 0.01481076 0.4048202 0 0.25019264
0.039999999 0.0070805545 0.014810517 0.4048202 0 0.25019264
0.039999999 0.0077550327 0.014810251 0.4048202 0 0.25019264
0.039999999 0.0084295487 0.01480996 0.4048202 0 0.25019264
0.039999999 0.0091041066 0.014809646 0.4048202 0 0.25019264
0.039999999 0.0097787092 0.014809307 0.4048202 0 0.25019264
0.039999999 0.01045336 0.014808943 0.4048202 0 0.25019264
0.039999999 0.011128062 0.014808556 0.4048202 0 0.25019264
0.039999999 0.011802819 0.014808144 0.4048202 0 0.25019264
0.039999999 0.012477634 0.014807709 0.4048202 0 0.25019264
0.039999999 0.01315251 0.014807248 0.4048202 0 0.25019264
0.039999999 0.013827451 0.014806764 0.4048202 0 0.25019264
0.039999999 0.014502459 0.014806256 0.4048202 0 0.25019264
0.039999999 0.01517754 0.014805722 0.4048202 0 0.25019264
0.039999999 0.015852693 0.014805165 0.4048202 0 0.25019264
0.039999999 0.016527927 0.014804584 0.4048202 0 0.25019264
0.039999999 0.017203242 0.014803978 0.4048202 0 0.25019264
0.039999999 0.01787864 0.014803348 0.4048202 0 0.25019264
0.039999999 0.018554127 0.014802693 0.4048202 0 0.25019264
0.039999999 0.019229705 0.014802014 0.4048202 0 0.25019264
0.039999999 0.019905379 0.014801311 0.4048202 0 0.25019264
0.039999999 0.020581149 0.014800584 0.4048202 0 0.25019264
0.039999999 0.021257021 0.014799832 0.4048202 0 0.25019264
0.039999999 0.021932999 0.014799057 0.4048202 0 0.25019264
0.039999999 0.022609083 0.014798257 0.4048202 0 0.25019264
0.039999999 0.023285279 0.014797431 0.4048202 0 0.25019264
0.039999999 0.023961591 0.014796582 0.4048202 0 0.25019264
0.039999999 0.02463802 0.014795708 0.4048202 0 0.25019264
0.039999999 0.025314571 0.014794811 0.4048202 0 0.25019264
0.039999999 0.025991246 0.014793889 0.4048202 0 0.25019264
0.039999999 0.026668049 0.014792942 0.4048202 0 0.25019264
0.039999999 0.027344985 0.01479197 0.4048202 0 0.25019264
0.039999999 0.028022055 0.014790975 0.4048202 0 0.25019264
0.039999999 0.028699264 0.014789955 0.4048202 0 0.25019264
0.039999999 0.029376615 0.01478891 0.4048202 0 0.25019264
0.039999999 0.030054109 0.014787842 0.4048202 0 0.25019264
0.039999999 0.030731753 0.014786747 0.4048202 0 0.25019264
0.039999999 0.031409547 0.01478563 0.4048202 0 0.25019264
0.039999999 0.032087497 0.014784487 0.4048202 0 0.25019264
0.039999999 0.032765608 0.01478332 0.4048202 0 0.25019264
0.039999999 0.033443879 0.014782128 0.4048202 0 0.25019264
0.039999999 0.034122314 0.014780912 0.4048202 0 0.25019264
0.039999999 0.034800921 0.014779671 0.4048202 0 0.25019264
0.039999999 0.035479695 0.014778405 0.4048202 0 0.25019264
0.039999999 0.036158647 0.014777116 0.4048202 0 0.25019264
0.039999999 0.036837779 0.014775801 0.4048202 0 0.25019264
0.039999999 0.037517093 0.014774461 0.4048202 0 0.25019264
0.039999999 0.038196594 0.014773098 0.4048202 0 0.25019264
0.039999999 0.038876284 0.014771709 0.4048202 0 0.25019264
0.039999999 0.039556164 0.014770295 0.4048202 0 0.25019264
0.039999999 0.040236242 0.014768858 0.4048202 0 0.25019264
0.039999999 0.040916517 0.014767395 0.4048202 0 0.25019264
0.039999999 0.041596998 0.014765907 0.4048202 0 0.25019264
0.039999999 0.042277683 0.014764396 0.4048202 0 0.25019264
0.039999999 0.04295858 0.014762858 0.4048202 0 0.25019264
0.039999999 0.04363969 0.014761296 0.4048202 0 0.25019264
0.039999999 0.044321012 0.014759709 0.4048202 0 0.25019264
0.039999999 0.045002557 0.014758098 0.4048202 0 0.25019264
0.039999999 0.045684326 0.014756462 0.4048202 0 0.25019264
0.039999999 0.046366323 0.0147548 0.4048202 0 0.25019264
0.039999999 0.04704855 0.014753114 0.4048202 0 0.25019264
0.039999999 0.047731012 0.014751403 0.4048202 0 0.25019264
0.039999999 0.048413709 0.014749667 0.4048202 0 0.25019264
0.039999999 0.049096648 0.014747906 0.4048202 0 0.25019264
0.039999999 0.049779832 0.01474612 0.4048202 0 0.25019264
0.039999999 0.050463263 0.014744309 0.4048202 0 0.25019264
0.039999999 0.051146943 0.014742473 0.4048202 0 0.25019264
0.039999999 0.05183088 0.014740611 0.4048202 0 0.25019264
0.039999999 0.052515078 0.014738725 0.4048202 0 0.25019264
0.039999999 0.053199537 0.014736814 0.4048202 0 0.25019264
0.039999999 0.053884257 0.014734877 0.4048202 0 0.25019264
0.039999999 0.054569252 0.014732916 0.4048202 0 0.25019264
0.039999999 0.055254515 0.014730929 0.4048202 0 0.25019264
0.039999999 0.055940054 0.014728918 0.4048202 0 0.25019264
0.039999999 0.056625873 0.01472688 0.4048202 0 0.25019264
0.039999999 0.057311978 0.014724818 0.4048202 0 0.25019264
0.039999999 0.057998367 0.01472273 0.4048202 0 0.25019264
0.039999999 0.058685046 0.014720617 0.4048202 0 0.25019264
0.039999999 0.059372019 0.014718479 0.4048202 0 0.25019264
0.039999999 0.06005929 0.014716315 0.4048202 0 0.25019264
0.039999999 0.06074686 0.014714126 0.4048202 0 0.25019264
0.039999999 0.061434738 0.014711911 0.4048202 0 0.25019264
0.039999999 0.062122922 0.014709671 0.4048202 0 0.25019264
0.039999999 0.062811419 0.014707406 0.4048202 0 0.25019264
0.039999999 0.063500226 0.014705115 0.4048202 0 0.25019264
0.039999999 0.06418936 0.014702799 0.4048202 0 0.25019264
0.039999999 0.064878806 0.014700457 0.4048202 0 0.25019264
0.039999999 0.065568589 0.014698089 0.4048202 0 0.25019264
0.039999999 0.066258691 0.014695696 0.4048202 0 0.25019264
0.039999999 0.066949137 0.014693277 0.4048202 0 0.25019264
0.039999999 0.06763991 0.014690832 0.4048202 0 0.25019264
0.039999999 0.068331033 0.014688362 0.4048202 0 0.25019264
0.039999999 0.069022492 0.014685866 0.4048202 0 0.25019264
0.039999999 0.0697143 0.014683344 0.4048202 0 0.25019264
0.039999999 0.070406467 0.014680797 0.4048202 0 0.25019264
0.039999999 0.071098983 0.014678224 0.4048202 0 0.25019264
0.039999999 0.071791857 0.014675625 0.4048202 0 0.25019264
0.039999999 0.072485097 0.014672999 0.4048202 0 0.25019264
0.039999999 0.073178701 0.014670349 0.4048202 0 0.25019264
0.039999999 0.073872678 0.014667671 0.4048202 0 0.25019264
0.039999999 0.074567027 0.014664968 0.4048202 0 0.25019264
0.039999999 0.075261749 0.01466224 0.4048202 0 0.25019264
0.039999999 0.075956859 0.014659484 0.4048202 0 0.25019264
0.039999999 0.076652348 0.014656703 0.4048202 0 0.25019264
0.039999999 0.077348225 0.014653896 0.4048202 0 0.25019264
0.039999999 0.078044504 0.014651062 0.4048202 0 0.25019264
0.039999999 0.07874117 0.014648203 0.4048202 0 0.25019264
0.039999999 0.079438239 0.014645317 0.4048202 0 0.25019264
0.039999999 0.00033746692 0.01400845 0.4048202 0 0.25019264
0.039999999 0.0010124025 0.014008424 0.4048202 0 0.25019264
0.039999999 0.0016873429 0.014008371 0.4048202 0 0.25019264
0.039999999 0.0023622918 0.014008293 0.4048202 0 0.25019264
0.039999999 0.0030372522 0.014008189 0.4048202 0 0.25019264
0.039999999 0.0037122276 0.014008057 0.4048202 0 0.25019264
0.039999999 0.0043872213 0.0140079 0.4048202 0 0.25019264
0.039999999 0.0050622365 0.014007716 0.4048202 0 0.25019264
0.039999999 0.0057372763 0.014007507 0.4048202 0 0.25019264
0.039999999 0.006412345 0.014007271 0.4048202 0 0.25019264
0.039999999 0.0070874449 0.01400701 0.4048202 0 0.25019264
0.039999999 0.0077625797 0.014006722 0.4048202 0 0.25019264
0.039999999 0.0084377527 0.014006407 0.4048202 0 0.25019264
0.039999999 0.0091129672 0.014006066 0.4048202 0 0.25019264
0.039999999 0.0097882263 0.0140057 0.4048202 0 0.25019264
0.039999999 0.010463534 0.014005307 0.4048202 0 0.25019264
0.039999999 0.011138894 0.014004887 0.4048202 0 0.25019264
0.039999999 0.011814307 0.014004442 0.4048202 0 0.25019264
0.039999999 0.01248978 0.014003971 0.4048202 0 0.25019264
0.039999999 0.013165313 0.014003472 0.4048202 0 0.25019264
0.039999999 0.013840912 0.014002948 0.4048202 0 0.25019264
0.039999999 0.014516578 0.014002398 0.4048202 0 0.25019264
0.039999999 0.015192317 0.014001821 0.4048202 0 0.25019264
0.039999999 0.015868129 0.014001218 0.4048202 0 0.25019264
0.039999999 0.016544022 0.014000589 0.4048202 0 0.25019264
0.039999999 0.017219994 0.013999933 0.4048202 0 0.25019264
0.039999999 0.017896051 0.013999252 0.4048202 0 0.25019264
0.039999999 0.018572198 0.013998543 0.4048202 0 0.25019264
0.039999999 0.019248435 0.013997809 0.4048202 0 0.25019264
0.039999999 0.019924767 0.013997048 0.4048202 0 0.25019264
0.039999999 0.020601198 0.013996261 0.4048202 0 0.25019264
0.039999999 0.021277729 0.013995447 0.4048202 0 0.25019264
0.039999999 0.021954367 0.013994608 0.4048202 0 0.25019264
0.039999999 0.022631112 0.013993742 0.4048202 0 0.25019264
0.039999999 0.02330797 0.013992849 0.4048202 0 0.25019264
0.039999999 0.023984943 0.013991931 0.4048202 0 0.25019264
0.039999999 0.024662033 0.013990985 0.4048202 0 0.25019264
0.039999999 0.025339244 0.013990013 0.4048202 0 0.25019264
0.039999999 0.026016582 0.013989015 0.4048202 0 0.25019264
0.039999999 0.026694048 0.013987991 0.4048202 0 0.25019264
0.039999999 0.027371647 0.01398694 0.4048202 0 0.25019264
0.039999999 0.02804938 0.013985862 0.4048202 0 0.25019264
0.039999999 0.02872725 0.013984758 0.4048202 0 0.25019264
0.039999999 0.029405264 0.013983628 0.4048202 0 0.25019264
0.039999999 0.030083423 0.013982471 0.4048202 0 0.25019264
0.039999999 0.030761732 0.013981287 0.4048202 0 0.25019264
0.039999999 0.031440191 0.013980078 0.4048202 0 0.25019264
0.039999999 0.032118805 0.013978842 0.4048202 0 0.25019264
0.039999999 0.032797582 0.013977579 0.4048202 0 0.25019264
0.039999999 0.033476517 0.013976289 0.4048202 0 0.25019264
0.039999999 0.034155618 0.013974973 0.4048202 0 0.25019264
0.039999999 0.034834892 0.01397363 0.4048202 0 0.25019264
0.039999999 0.035514336 0.013972261 0.4048202 0 0.25019264
0.039999999 0.036193956 0.013970865 0.4048202 0 0.25019264
0.039999999 0.036873754 0.013969442 0.4048202 0 0.25019264
0.039999999 0.037553739 0.013967993 0.4048202 0 0.25019264
0.039999999 0.038233906 0.013966517 0.4048202 0 0.25019264
0.039999999 0.038914263 0.013965014 0.4048202 0 0.25019264
0.039999999 0.039594814 0.013963485 0.4048202 0 0.25019264
0.039999999 0.040275563 0.013961929 0.4048202 0 0.25019264
0.039999999 0.040956508 0.013960346 0.4048202 0 0.25019264
0.039999999 0.041637659 0.013958736 0.4048202 0 0.25019264
0.039999999 0.042319018 0.013957099 0.4048202 0 0.25019264
0.039999999 0.043000586 0.013955436 0.4048202 0 0.25019264
0.039999999 0.043682367 0.013953746 0.4048202 0 0.25019264
0.039999999 0.044364367 0.013952029 0.4048202 0 0.25019264
0.039999999 0.045046587 0.013950285 0.4048202 0 0.25019264
0.039999999 0.04572903 0.013948514 0.4048202 0 0.25019264
0.039999999 0.046411701 0.013946717 0.4048202 0 0.25019264
0.039999999 0.047094602 0.013944891 0.4048202 0 0.25019264
0.039999999 0.047777738 0.01394304 0.4048202 0 0.25019264
0.039999999 0.048461113 0.013941161 0.4048202 0 0.25019264
0.039999999 0.04914473 0.013939256 0.4048202 0 0.25019264
0.039999999 0.049828589 0.013937323 0.4048202 0 0.25019264
0.039999999 0.050512698 0.013935363 0.4048202 0 0.25019264
0.039999999 0.051197059 0.013933376 0.4048202 0 0.25019264
0.039999999 0.051881678 0.013931362 0.4048202 0 0.25019264
0.039999999 0.052566554 0.013929321 0.4048202 0 0.25019264
0.039999999 0.053251691 0.013927253 0.4048202 0 0.25019264
0.039999999 0.053937096 0.013925157 0.4048202 0 0.25019264
0.039999999 0.054622769 0.013923035 0.4048202 0 0.25019264
0.039999999 0.055308718 0.013920885 0.4048202 0 0.25019264
0.039999999 0.055994943 0.013918707 0.4048202 0 0.25019264
0.039999999 0.056681447 0.013916503 0.4048202 0 0.25019264
0.039999999 0.057368234 0.013914271 0.4048202 0 0.25019264
0.039999999 0.058055308 0.013912012 0.4048202 0 0.25019264
0.039999999 0.058742676 0.013909725 0.4048202 0 0.25019264
0.039999999 0.059430335 0.013907411 0.4048202 0 0.25019264
0.039999999 0.060118292 0.01390507 0.4048202 0 0.25019264
0.039999999 0.060806554 0.013902701 0.4048202 0 0.25019264
0.039999999 0.061495118 0.013900304 0.4048202 0 0.25019264
0.039999999 0.062183991 0.013897881 0.4048202 0 0.25019264
0.039999999 0.062873177 0.013895429 0.4048202 0 0.25019264
0.039999999 0.063562684 0.01389295 0.4048202 0 0.25019264
0.039999999 0.064252503 0.013890443 0.4048202 0 0.25019264
0.039999999 0.06494265 0.013887908 0.4048202 0 0.25019264
0.039999999 0.065633118 0.013885346 0.4048202 0 0.25019264
0.039999999 0.066323921 0.013882757 0.4048202 0 0.25019264
0.039999999 0.067015059 0.013880139 0.4048202 0 0.25019264
0.039999999 0.067706533 0.013877494 0.4048202 0 0.25019264
0.039999999 0.068398349 0.013874821 0.4048202 0 0.25019264
0.039999999 0.069090508 0.01387212 0.4048202 0 0.25019264
0.039999999 0.069783017 0.013869391 0.4048202 0 0.25019264
0.039999999 0.070475876 0.013866634 0.4048202 0 0.25019264
0.039999999 0.071169093 0.013863849 0.4048202 0 0.25019264
0.039999999 0.071862675 0.013861037 0.4048202 0 0.25019264
0.039999999 0.072556615 0.013858196 0.4048202 0 0.25019264
0.039999999 0.07325092 0.013855327 0.4048202 0 0.25019264
0.039999999 0.073945604 0.013852431 0.4048202 0 0.25019264
0.039999999 0.074640654 0.013849505 0.4048202 0 0.25019264
0.039999999 0.075336091 0.013846552 0.4048202 0 0.25019264
0.039999999 0.076031901 0.013843571 0.4048202 0 0.25019264
0.039999999 0.076728098 0.013840561 0.4048202 0 0.25019264
0.039999999 0.07742469 0.013837523 0.4048202 0 0.25019264
0.039999999 0.07812167 0.013834457 0.4048202 0 0.25019264
0.039999999 0.078819051 0.013831362 0.4048202 0 0.25019264
0.039999999 0.079516836 0.013828239 0.4048202 0 0.25019264
0.039999999 0.00033779562 0.013203435 0.4048202 0 0.25019264
0.039999999 0.0010133885 0.013203406 0.4048202 0 0.25019264
0.039999999 0.0016889864 0.01320335 0.4048202 0 0.25019264
0.039999999 0.0023645926 0.013203265 0.4048202 0 0.25019264
0.039999999 0.0030402106 0.013203152 0.4048202 0 0.25019264
0.039999999 0.0037158434 0.013203012 0.4048202 0 0.25019264
0.039999999 0.0043914947 0.013202842 0.4048202 0 0.25019264
0.039999999 0.0050671673 0.013202645 0.4048202 0 0.25019264
0.039999999 0.0057428651 0.01320242 0.4048202 0 0.25019264
0.039999999 0.0064185914 0.013202166 0.4048202 0 0.25019264
0.039999999 0.0070943492 0.013201884 0.4048202 0 0.25019264
0.039999999 0.0077701421 0.013201574 0.4048202 0 0.25019264
0.039999999 0.0084459726 0.013201236 0.4048202 0 0.25019264
0.039999999 0.0091218455 0.013200869 0.4048202 0 0.25019264
0.039999999 0.0097977631 0.013200474 0.4048202 0 0.25019264
0.039999999 0.010473729 0.013200051 0.4048202 0 0.25019264
0.039999999 0.011149746 0.0131996 0.4048202 0 0.25019264
0.039999999 0.011825819 0.013199121 0.4048202 0 0.25019264
0.039999999 0.01250195 0.013198613 0.4048202 0 0.25019264
0.039999999 0.013178143 0.013198078 0.4048202 0 0.25019264
0.039999999 0.0138544 0.013197513 0.4048202 0 0.25019264
0.039999999 0.014530726 0.013196921 0.4048202 0 0.25019264
0.039999999 0.015207124 0.0131963 0.4048202 0 0.25019264
0.039999999 0.015883597 0.013195652 0.4048202 0 0.25019264
0.039999999 0.016560147 0.013194974 0.4048202 0 0.25019264
0.039999999 0.01723678 0.013194269 0.4048202 0 0.25019264
0.039999999 0.017913498 0.013193535 0.4048202 0 0.25019264
0.039999999 0.018590305 0.013192773 0.4048202 0 0.25019264
0.039999999 0.019267201 0.013191982 0.4048202 0 0.25019264
0.039999999 0.019944195 0.013191164 0.4048202 0 0.25019264
0.039999999 0.020621287 0.013190316 0.4048202 0 0.25019264
0.039999999 0.021298481 0.013189441 0.4048202 0 0.25019264
0.039999999 0.02197578 0.013188537 0.4048202 0 0.25019264
0.039999999 0.022653187 0.013187605 0.4048202 0 0.25019264
0.039999999 0.023330705 0.013186645 0.4048202 0 0.25019264
0.039999999 0.024008339 0.013185656 0.4048202 0 0.25019264
0.039999999 0.024686093 0.013184639 0.4048202 0 0.25019264
0.039999999 0.025363969 0.013183593 0.4048202 0 0.25019264
0.039999999 0.02604197 0.013182518 0.4048202 0 0.25019264
0.039999999 0.026720099 0.013181416 0.4048202 0 0.25019264
0.039999999 0.027398361 0.013180285 0.4048202 0 0.25019264
0.039999999 0.028076759 0.013179125 0.4048202 0 0.25019264
0.039999999 0.028755294 0.013177937 0.4048202 0 0.25019264
0.039999999 0.029433973 0.013176721 0.4048202 0 0.25019264
0.039999999 0.030112797 0.013175475 0.4048202 0 0.25019264
0.039999999 0.030791771 0.013174202 0.4048202 0 0.25019264
0.039999999 0.031470895 0.0131729 0.4048202 0 0.25019264
0.039999999 0.032150179 0.013171569 0.4048202 0 0.25019264
0.039999999 0.03282962 0.013170211 0.4048202 0 0.25019264
0.039999999 0.033509221 0.013168823 0.4048202 0 0.25019264
0.039999999 0.034188993 0.013167406 0.4048202 0 0.25019264
0.039999999 0.034868933 0.013165961 0.4048202 0 0.25019264
0.039999999 0.035549045 0.013164488 0.4048202 0 0.25019264
0.039999999 0.036229335 0.013162985 0.4048202 0 0.25019264
0.039999999 0.036909804 0.013161454 0.4048202 0 0.25019264
0.039999999 0.037590455 0.013159894 0.4048202 0 0.25019264
0.039999999 0.038271293 0.013158306 0.4048202 0 0.25019264
0.039999999 0.038952321 0.013156689 0.4048202 0 0.25019264
0.039999999 0.039633542 0.013155042 0.4048202 0 0.25019264
0.039999999 0.040314961 0.013153368 0.4048202 0 0.25019264
0.039999999 0.040996581 0.013151664 0.4048202 0 0.25019264
0.039999999 0.041678406 0.013149932 0.4048202 0 0.25019264
0.039999999 0.042360436 0.013148171 0.4048202 0 0.25019264
0.039999999 0.043042678 0.013146381 0.4048202 0 0.25019264
0.039999999 0.043725133 0.013144562 0.4048202 0 0.25019264
0.039999999 0.044407807 0.013142714 0.4048202 0 0.25019264
0.039999999 0.045090701 0.013140837 0.4048202 0 0.25019264
0.039999999 0.045773819 0.013138931 0.4048202 0 0.25019264
0.039999999 0.046457168 0.013136997 0.4048202 0 0.25019264
0.039999999 0.047140747 0.013135033 0.4048202 0 0.25019264
0.039999999 0.047824562 0.01313304 0.4048202 0 0.25019264
0.039999999 0.048508614 0.013131019 0.4048202 0 0.25019264
0.039999999 0.049192905 0.013128967 0.4048202 0 0.25019264
0.039999999 0.049877446 0.013126887 0.4048202 0 0.25019264
0.039999999 0.050562236 0.013124778 0.4048202 0 0.25019264
0.039999999 0.05124728 0.01312264 0.4048202 0 0.25019264
0.039999999 0.051932577 0.013120472 0.4048202 0 0.25019264
0.039999999 0.052618135 0.013118275 0.4048202 0 0.25019264
0.039999999 0.053303953 0.01311605 0.4048202 0 0.25019264
0.039999999 0.053990044 0.013113795 0.4048202 0 0.25019264
0.039999999 0.054676399 0.01311151 0.4048202 0 0.25019264
0.039999999 0.055363033 0.013109196 0.4048202 0 0.25019264
0.039999999 0.056049939 0.013106853 0.4048202 0 0.25019264
0.039999999 0.056737129 0.013104481 0.4048202 0 0.25019264
0.039999999 0.057424605 0.013102079 0.4048202 0 0.25019264
0.039999999 0.058112364 0.013099647 0.4048202 0 0.25019264
0.039999999 0.058800418 0.013097187 0.4048202 0 0.25019264
0.039999999 0.05948877 0.013094696 0.4048202 0 0.25019264
0.039999999 0.060177416 0.013092176 0.4048202 0 0.25019264
0.039999999 0.060866367 0.013089627 0.4048202 0 0.25019264
0.039999999 0.06155562 0.013087047 0.4048202 0 0.25019264
0.039999999 0.062245186 0.013084439 0.4048202 0 0.25019264
0.039999999 0.062935069 0.0130818 0.4048202 0 0.25019264
0.039999999 0.063625261 0.013079133 0.4048202 0 0.25019264
0.039999999 0.064315774 0.013076435 0.4048202 0 0.25019264
0.039999999 0.065006614 0.013073707 0.4048202 0 0.25019264
0.039999999 0.065697782 0.01307095 0.4048202 0 0.25019264
0.039999999 0.066389285 0.013068163 0.4048202 0 0.25019264
0.039999999 0.067081116 0.013065346 0.4048202 0 0.25019264
0.039999999 0.06777329 0.013062499 0.4048202 0 0.25019264
0.039999999 0.068465799 0.013059622 0.4048202 0 0.25019264
0.039999999 0.069158658 0.013056715 0.4048202 0 0.25019264
0.039999999 0.069851868 0.013053779 0.4048202 0 0.25019264
0.039999999 0.070545435 0.013050811 0.4048202 0 0.25019264
0.039999999 0.071239352 0.013047814 0.4048202 0 0.25019264
0.039999999 0.071933635 0.013044788 0.4048202 0 0.25019264
0.039999999 0.072628282 0.01304173 0.4048202 0 0.25019264
