# .PCD v0.7 - Point Cloud Data file format
VERSION 0.7
FIELDS x y z vp_x vp_y vp_z
SIZE 4 4 4 4 4 4
TYPE F F F F F F
COUNT 1 1 1 1 1 1
WIDTH 784
HEIGHT 1
VIEWPOINT 0 0 0 1 0 0 0
POINTS 784
DATA ascii
0.0065355087 0.079814725 0.039999999 -0.4048202 0 0.25019264
0.0065135178 0.079075024 0.039999999 -0.4048202 0 0.25019264
0.0064917388 0.078335799 0.039999999 -0.4048202 0 0.25019264
0.0064701703 0.077597059 0.039999999 -0.4048202 0 0.25019264
0.0064488128 0.076858789 0.039999999 -0.4048202 0 0.25019264
0.0064276657 0.076120988 0.039999999 -0.4048202 0 0.25019264
0.0064067286 0.075383648 0.039999999 -0.4048202 0 0.25019264
0.0063860016 0.074646771 0.039999999 -0.4048202 0 0.25019264
0.0054772864 0.073750697 0.040454034 -0.4048202 0 0.25019264
0.0047460115 0.072889775 0.04081751 -0.4048202 0 0.25019264
0.0040315287 0.072034754 0.041172545 -0.4048202 0 0.25019264
0.0034720909 0.071209647 0.041448452 -0.4048202 0 0.25019264
0.0029144324 0.070387162 0.041723579 -0.4048202 0 0.25019264
0.0024794687 0.069587946 0.041936107 -0.4048202 0 0.25019264
0.0020579447 0.068792872 0.042141885 -0.4048202 0 0.25019264
0.0016936557 0.068009183 0.042318519 -0.4048202 0 0.25019264
0.0013857742 0.067236431 0.042466428 -0.4048202 0 0.25019264
0.0010784899 0.066465184 0.042614155 -0.4048202 0 0.25019264
0.00085912837 0.065709576 0.042717028 -0.4048202 0 0.25019264
0.00065008894 0.064956695 0.042814735 -0.4048202 0 0.25019264
0.00045238296 0.064206645 0.042906761 -0.4048202 0 0.25019264
0.00033155468 0.063469633 0.042959575 -0.4048202 0 0.25019264
0.00021084714 0.062733367 0.043012436 -0.4048202 0 0.25019264
0.00010846916 0.06200061 0.043056026 -0.4048202 0 0.25019264
6.9294409e-05 0.061278068 0.043067396 -0.4048202 0 0.25019264
3.0142519e-05 0.06055595 0.043078855 -0.4048202 0 0.25019264
8.8438383e-06 0.059836883 0.043081284 -0.4048202 0 0.25019264
4.7337937e-05 0.059126895 0.043053225 -0.4048202 0 0.25019264
8.5824868e-05 0.058417041 0.04302527 -0.4048202 0 0.25019264
0.00013827404 0.057709306 0.042990275 -0.4048202 0 0.25019264
0.00025285632 0.057010394 0.042923585 -0.4048202 0 0.25019264
0.00036746188 0.056311339 0.04285698 -0.4048202 0 0.25019264
0.00049178064 0.055613469 0.042785503 -0.4048202 0 0.25019264
0.00068307912 0.054924488 0.042679846 -0.4048202 0 0.25019264
0.00087449141 0.054235093 0.042574223 -0.4048202 0 0.25019264
0.0010739026 0.053546328 0.042464603 -0.4048202 0 0.25019264
0.0013447995 0.052866407 0.042318493 -0.4048202 0 0.25019264
0.0016159673 0.052185807 0.042172335 -0.4048202 0 0.25019264
0.0018994663 0.05150605 0.042019956 -0.4048202 0 0.25019264
0.0022554579 0.050834578 0.041830566 -0.4048202 0 0.25019264
0.0026119587 0.050162151 0.041641004 -0.4048202 0 0.25019264
0.0029963125 0.049492076 0.041437272 -0.4048202 0 0.25019264
0.0034460949 0.048828695 0.041200135 -0.4048202 0 0.25019264
0.0038967314 0.048164058 0.040962651 -0.4048202 0 0.25019264
0.0044103717 0.047505368 0.040692996 -0.4048202 0 0.25019264
0.0049670408 0.046850007 0.040401399 -0.4048202 0 0.25019264
0.0055348254 0.046194155 0.040104195 -0.4048202 0 0.25019264
0.0057257973 0.045494758 0.039999999 -0.4048202 0 0.25019264
0.0057134451 0.044772726 0.039999999 -0.4048202 0 0.25019264
0.0057012928 0.044050958 0.039999999 -0.4048202 0 0.25019264
0.0056893397 0.043329455 0.039999999 -0.4048202 0 0.25019264
0.005677586 0.042608209 0.039999999 -0.4048202 0 0.25019264
0.005666032 0.041887216 0.039999999 -0.4048202 0 0.25019264
0.0056546764 0.041166477 0.039999999 -0.4048202 0 0.25019264
0.00564352 0.04044598 0.039999999 -0.4048202 0 0.25019264
0.0056325621 0.039725725 0.039999999 -0.4048202 0 0.25019264
0.0056218025 0.039005704 0.039999999 -0.4048202 0 0.25019264
0.0056112418 0.038285919 0.039999999 -0.4048202 0 0.25019264
0.005600879 0.03756636 0.039999999 -0.4048202 0 0.25019264
0.005590714 0.036847025 0.039999999 -0.4048202 0 0.25019264
0.005580747 0.03612791 0.039999999 -0.4048202 0 0.25019264
0.0055709784 0.035409011 0.039999999 -0.4048202 0 0.25019264
0.0055614067 0.03469032 0.039999999 -0.4048202 0 0.25019264
0.005552033 0.033971839 0.039999999 -0.4048202 0 0.25019264
0.0055428562 0.033253554 0.039999999 -0.4048202 0 0.25019264
0.0055338768 0.032535471 0.039999999 -0.4048202 0 0.25019264
0.0055250949 0.031817582 0.039999999 -0.4048202 0 0.25019264
0.0055165095 0.031099878 0.039999999 -0.4048202 0 0.25019264
0.0055081211 0.030382361 0.039999999 -0.4048202 0 0.25019264
0.0054999297 0.029665023 0.039999999 -0.4048202 0 0.25019264
0.0054919347 0.028947862 0.039999999 -0.4048202 0 0.25019264
0.0054841358 0.028230872 0.039999999 -0.4048202 0 0.25019264
0.0054765339 0.02751405 0.039999999 -0.4048202 0 0.25019264
0.005469128 0.026797391 0.039999999 -0.4048202 0 0.25019264
0.0054619182 0.026080891 0.039999999 -0.4048202 0 0.25019264
0.0054549049 0.025364546 0.039999999 -0.4048202 0 0.25019264
0.0054480871 0.024648352 0.039999999 -0.4048202 0 0.25019264
0.0054414654 0.023932302 0.039999999 -0.4048202 0 0.25019264
0.0054350393 0.023216395 0.039999999 -0.4048202 0 0.25019264
0.0054288087 0.022500625 0.039999999 -0.4048202 0 0.25019264
0.0054227742 0.021784989 0.039999999 -0.4048202 0 0.25019264
0.0054169348 0.021069482 0.039999999 -0.4048202 0 0.25019264
0.0054112915 0.0203541 0.039999999 -0.4048202 0 0.25019264
0.0054058428 0.019638836 0.039999999 -0.4048202 0 0.25019264
0.0054005897 0.018923691 0.039999999 -0.4048202 0 0.25019264
0.0053955317 0.018208656 0.039999999 -0.4048202 0 0.25019264
0.0053906688 0.01749373 0.039999999 -0.4048202 0 0.25019264
0.005386001 0.016778907 0.039999999 -0.4048202 0 0.25019264
0.0053815283 0.016064182 0.039999999 -0.4048202 0 0.25019264
0.0053772507 0.015349554 0.039999999 -0.4048202 0 0.25019264
0.0053731678 0.014635016 0.039999999 -0.4048202 0 0.25019264
0.0053692795 0.013920564 0.039999999 -0.4048202 0 0.25019264
0.0053655859 0.013206195 0.039999999 -0.4048202 0 0.25019264
0.0053620874 0.012491904 0.039999999 -0.4048202 0 0.25019264
0.0053587831 0.011777687 0.039999999 -0.4048202 0 0.25019264
0.0053556738 0.011063539 0.039999999 -0.4048202 0 0.25019264
0.0053527588 0.010349457 0.039999999 -0.4048202 0 0.25019264
0.0053500384 0.0096354354 0.039999999 -0.4048202 0 0.25019264
0.0053475122 0.0089214714 0.039999999 -0.4048202 0 0.25019264
0.0053451811 0.0082075596 0.039999999 -0.4048202 0 0.25019264
0.0053430437 0.0074936966 0.039999999 -0.4048202 0 0.25019264
0.005341101 0.0067798775 0.039999999 -0.4048202 0 0.25019264
0.0053393529 0.0060660988 0.039999999 -0.4048202 0 0.25019264
0.0053377985 0.005352356 0.039999999 -0.4048202 0 0.25019264
0.0053364388 0.0046386444 0.039999999 -0.4048202 0 0.25019264
0.0053352737 0.0039249607 0.039999999 -0.4048202 0 0.25019264
0.0053343023 0.0032112997 0.039999999 -0.4048202 0 0.25019264
0.0053335256 0.0024976579 0.039999999 -0.4048202 0 0.25019264
0.0053329426 0.0017840308 0.039999999 -0.4048202 0 0.25019264
0.0053325542 0.0010704143 0.039999999 -0.4048202 0 0.25019264
0.00533236 0.00035680406 0.039999999 -0.4048202 0 0.25019264
0.0049402053 0.07957948 0.039999999 -0.4048202 0 0.25019264
0.0049187704 0.078842029 0.039999999 -0.4048202 0 0.25019264
0.0048975414 0.078105055 0.039999999 -0.4048202 0 0.25019264
0.0048765182 0.077368557 0.039999999 -0.4048202 0 0.25019264
0.0048556998 0.076632529 0.039999999 -0.4048202 0 0.25019264
0.0048350873 0.075896971 0.039999999 -0.4048202 0 0.25019264
0.0048146788 0.075161867 0.039999999 -0.4048202 0 0.25019264
0.0047944752 0.074427217 0.039999999 -0.4048202 0 0.25019264
0.0047744759 0.07369303 0.039999999 -0.4048202 0 0.25019264
0.0047546802 0.072959282 0.039999999 -0.4048202 0 0.25019264
0.0040847524 0.072111286 0.040333766 -0.4048202 0 0.25019264
0.0035231251 0.071284913 0.040612083 -0.4048202 0 0.25019264
0.0029647965 0.070461445 0.040888838 -0.4048202 0 0.25019264
0.0025172604 0.069659233 0.041108854 -0.4048202 0 0.25019264
0.0020952576 0.06886325 0.041315883 -0.4048202 0 0.25019264
0.0017206878 0.068077028 0.041498687 -0.4048202 0 0.25019264
0.0014124732 0.067303449 0.04164755 -0.4048202 0 0.25019264
0.0011048567 0.06653136 0.041796219 -0.4048202 0 0.25019264
0.00087690417 0.065773591 0.041904099 -0.4048202 0 0.25019264
0.00066764827 0.065019935 0.042002495 -0.4048202 0 0.25019264
0.00046243437 0.064267956 0.042098928 -0.4048202 0 0.25019264
0.00034148566 0.063530214 0.042152204 -0.4048202 0 0.25019264
0.00022065798 0.062793203 0.04220552 -0.4048202 0 0.25019264
0.00011161985 0.062058721 0.042252891 -0.4048202 0 0.25019264
7.2407456e-05 0.061335485 0.042264506 -0.4048202 0 0.25019264
3.321797e-05 0.060612675 0.042276215 -0.4048202 0 0.25019264
5.8541414e-06 0.059892025 0.042281952 -0.4048202 0 0.25019264
4.4384007e-05 0.059181377 0.042253945 -0.4048202 0 0.25019264
8.2906685e-05 0.058470864 0.042226043 -0.4048202 0 0.25019264
0.00012969111 0.057761662 0.042193998 -0.4048202 0 0.25019264
0.00024437654 0.057062119 0.04212717 -0.4048202 0 0.25019264
0.00035908524 0.056362435 0.042060427 -0.4048202 0 0.25019264
0.00047797928 0.05566318 0.041991629 -0.4048202 0 0.25019264
0.00066944479 0.054973595 0.041885644 -0.4048202 0 0.25019264
0.00086102419 0.0542836 0.041779697 -0.4048202 0 0.25019264
0.0010551065 0.053593505 0.041672554 -0.4048202 0 0.25019264
0.0013262329 0.052913006 0.041525923 -0.4048202 0 0.25019264
0.0015976304 0.05223183 0.041379243 -0.4048202 0 0.25019264
0.001875749 0.051550783 0.0412292 -0.4048202 0 0.25019264
0.0022320333 0.050878763 0.041039079 -0.4048202 0 0.25019264
0.0025888274 0.050205778 0.040848788 -0.4048202 0 0.25019264
0.0029675895 0.049534436 0.040647298 -0.4048202 0 0.25019264
0.0034177301 0.04887053 0.040409211 -0.4048202 0 0.25019264
0.0038687261 0.048205361 0.040170774 -0.4048202 0 0.25019264
0.00418822 0.047523547 0.039999999 -0.4048202 0 0.25019264
0.0041755945 0.046802815 0.039999999 -0.4048202 0 0.25019264
0.0041631637 0.046082366 0.039999999 -0.4048202 0 0.25019264
0.0041509285 0.045362189 0.039999999 -0.4048202 0 0.25019264
0.0041388874 0.044642281 0.039999999 -0.4048202 0 0.25019264
0.0041270414 0.043922637 0.039999999 -0.4048202 0 0.25019264
0.0041153897 0.043203257 0.039999999 -0.4048202 0 0.25019264
0.0041039325 0.042484134 0.039999999 -0.4048202 0 0.25019264
0.0040926691 0.041765261 0.039999999 -0.4048202 0 0.25019264
0.0040815999 0.041046638 0.039999999 -0.4048202 0 0.25019264
0.0040707244 0.040328257 0.039999999 -0.4048202 0 0.25019264
0.0040600426 0.039610118 0.039999999 -0.4048202 0 0.25019264
0.0040495545 0.03889221 0.039999999 -0.4048202 0 0.25019264
0.0040392596 0.038174536 0.039999999 -0.4048202 0 0.25019264
0.004029158 0.037457086 0.039999999 -0.4048202 0 0.25019264
0.0040192492 0.03673986 0.039999999 -0.4048202 0 0.25019264
0.0040095337 0.036022853 0.039999999 -0.4048202 0 0.25019264
0.0040000104 0.035306055 0.039999999 -0.4048202 0 0.25019264
0.0039906804 0.034589469 0.039999999 -0.4048202 0 0.25019264
0.0039815423 0.033873089 0.039999999 -0.4048202 0 0.25019264
0.003972597 0.033156905 0.039999999 -0.4048202 0 0.25019264
0.0039638439 0.032440919 0.039999999 -0.4048202 0 0.25019264
0.0039552832 0.031725127 0.039999999 -0.4048202 0 0.25019264
0.0039469139 0.031009521 0.039999999 -0.4048202 0 0.25019264
0.0039387369 0.0302941 0.039999999 -0.4048202 0 0.25019264
0.0039307517 0.029578855 0.039999999 -0.4048202 0 0.25019264
0.0039229579 0.028863788 0.039999999 -0.4048202 0 0.25019264
0.0039153555 0.02814889 0.039999999 -0.4048202 0 0.25019264
0.003907945 0.027434157 0.039999999 -0.4048202 0 0.25019264
0.0039007256 0.026719589 0.039999999 -0.4048202 0 0.25019264
0.0038936976 0.026005177 0.039999999 -0.4048202 0 0.25019264
0.0038868606 0.025290918 0.039999999 -0.4048202 0 0.25019264
0.0038802146 0.024576809 0.039999999 -0.4048202 0 0.25019264
0.0038737596 0.023862844 0.039999999 -0.4048202 0 0.25019264
0.0038674953 0.023149021 0.039999999 -0.4048202 0 0.25019264
0.003861422 0.022435335 0.039999999 -0.4048202 0 0.25019264
0.0038555393 0.02172178 0.039999999 -0.4048202 0 0.25019264
0.003849847 0.021008354 0.039999999 -0.4048202 0 0.25019264
0.0038443455 0.020295052 0.039999999 -0.4048202 0 0.25019264
0.0038390341 0.019581867 0.039999999 -0.4048202 0 0.25019264
0.0038339132 0.0188688 0.039999999 -0.4048202 0 0.25019264
0.0038289826 0.018155845 0.039999999 -0.4048202 0 0.25019264
0.0038242424 0.017442996 0.039999999 -0.4048202 0 0.25019264
0.0038196919 0.016730249 0.039999999 -0.4048202 0 0.25019264
0.003815332 0.016017601 0.039999999 -0.4048202 0 0.25019264
0.0038111617 0.015305046 0.039999999 -0.4048202 0 0.25019264
0.0038071815 0.014592582 0.039999999 -0.4048202 0 0.25019264
0.0038033912 0.013880205 0.039999999 -0.4048202 0 0.25019264
0.0037997907 0.013167909 0.039999999 -0.4048202 0 0.25019264
0.0037963802 0.012455691 0.039999999 -0.4048202 0 0.25019264
0.0037931593 0.011743546 0.039999999 -0.4048202 0 0.25019264
0.003790128 0.011031469 0.039999999 -0.4048202 0 0.25019264
0.0037872866 0.010319457 0.039999999 -0.4048202 0 0.25019264
0.0037846346 0.0096075069 0.039999999 -0.4048202 0 0.25019264
0.0037821722 0.0088956133 0.039999999 -0.4048202 0 0.25019264
0.0037798993 0.0081837717 0.039999999 -0.4048202 0 0.25019264
0.0037778162 0.0074719782 0.039999999 -0.4048202 0 0.25019264
0.0037759223 0.0067602289 0.039999999 -0.4048202 0 0.25019264
0.003774218 0.0060485192 0.039999999 -0.4048202 0 0.25019264
0.003772703 0.0053368448 0.039999999 -0.4048202 0 0.25019264
0.0037713775 0.0046252022 0.039999999 -0.4048202 0 0.25019264
0.0037702415 0.0039135865 0.039999999 -0.4048202 0 0.25019264
0.0037692948 0.0032019939 0.039999999 -0.4048202 0 0.25019264
0.0037685374 0.0024904201 0.039999999 -0.4048202 0 0.25019264
0.0037679693 0.0017788612 0.039999999 -0.4048202 0 0.25019264
0.0037675907 0.0010673124 0.039999999 -0.4048202 0 0.25019264
0.0037674014 0.00035577014 0.039999999 -0.4048202 0 0.25019264
0.0033546644 0.079345673 0.039999999 -0.4048202 0 0.25019264
0.0033337788 0.078610465 0.039999999 -0.4048202 0 0.25019264
0.0033130939 0.077875726 0.039999999 -0.4048202 0 0.25019264
0.0032926092 0.077141456 0.039999999 -0.4048202 0 0.25019264
0.0032723248 0.076407656 0.039999999 -0.4048202 0 0.25019264
0.0032522401 0.075674318 0.039999999 -0.4048202 0 0.25019264
0.003232355 0.074941434 0.039999999 -0.4048202 0 0.25019264
0.0032126689 0.074209012 0.039999999 -0.4048202 0 0.25019264
0.0031931817 0.07347703 0.039999999 -0.4048202 0 0.25019264
0.0031738933 0.072745495 0.039999999 -0.4048202 0 0.25019264
0.0031548031 0.072014399 0.039999999 -0.4048202 0 0.25019264
0.003135911 0.071283735 0.039999999 -0.4048202 0 0.25019264
0.0030152549 0.070535861 0.040052537 -0.4048202 0 0.25019264
0.0025551205 0.069730639 0.040280104 -0.4048202 0 0.25019264
0.0021326377 0.068933755 0.040488396 -0.4048202 0 0.25019264
0.0017477673 0.068144992 0.040677421 -0.4048202 0 0.25019264
0.0014392186 0.067370571 0.040827233 -0.4048202 0 0.25019264
0.0011312696 0.066597655 0.040976852 -0.4048202 0 0.25019264
0.00089471031 0.065837726 0.041089788 -0.4048202 0 0.25019264
0.00068523752 0.065083288 0.041188873 -0.4048202 0 0.25019264
0.00047606757 0.064329937 0.041287914 -0.4048202 0 0.25019264
0.00035143321 0.063590892 0.041343484 -0.4048202 0 0.25019264
0.00023048517 0.06285315 0.041397262 -0.4048202 0 0.25019264
0.00011477568 0.062116928 0.041448444 -0.4048202 0 0.25019264
7.5525582e-05 0.061392996 0.041460309 -0.4048202 0 0.25019264
3.6298439e-05 0.060669489 0.041472267 -0.4048202 0 0.25019264
2.8596614e-06 0.059947256 0.041481338 -0.4048202 0 0.25019264
4.1425352e-05 0.059235949 0.041453388 -0.4048202 0 0.25019264
7.9983831e-05 0.058524773 0.041425537 -0.4048202 0 0.25019264
0.0001210947 0.057814095 0.041396469 -0.4048202 0 0.25019264
0.00023588342 0.057113923 0.041329503 -0.4048202 0 0.25019264
0.00035069545 0.05641361 0.041262623 -0.4048202 0 0.25019264
0.00046553131 0.055713151 0.041195821 -0.4048202 0 0.25019264
0.00065578934 0.055022776 0.04109022 -0.4048202 0 0.25019264
0.0008475362 0.054332178 0.040983941 -0.4048202 0 0.25019264
0.0010393981 0.053641163 0.040877696 -0.4048202 0 0.25019264
0.001307638 0.052959677 0.040732149 -0.4048202 0 0.25019264
0.0015792658 0.052277923 0.040584944 -0.4048202 0 0.25019264
0.0018519964 0.051595587 0.040437259 -0.4048202 0 0.25019264
0.0022085737 0.050923012 0.040246412 -0.4048202 0 0.25019264
0.0025656617 0.050249476 0.04005539 -0.4048202 0 0.25019264
0.0026599823 0.04954296 0.039999999 -0.4048202 0 0.25019264
0.0026471077 0.048823494 0.039999999 -0.4048202 0 0.25019264
0.002634424 0.048104316 0.039999999 -0.4048202 0 0.25019264
0.0026219308 0.047385424 0.039999999 -0.4048202 0 0.25019264
0.0026096278 0.046666816 0.039999999 -0.4048202 0 0.25019264
0.0025975152 0.045948479 0.039999999 -0.4048202 0 0.25019264
0.0025855924 0.045230418 0.039999999 -0.4048202 0 0.25019264
0.0025738594 0.044512626 0.039999999 -0.4048202 0 0.25019264
0.0025623161 0.043795094 0.039999999 -0.4048202 0 0.25019264
0.0025509624 0.043077826 0.039999999 -0.4048202 0 0.25019264
0.0025397979 0.042360809 0.039999999 -0.4048202 0 0.25019264
0.0025288227 0.041644044 0.039999999 -0.4048202 0 0.25019264
0.0025180364 0.040927526 0.039999999 -0.4048202 0 0.25019264
0.0025074389 0.040211249 0.039999999 -0.4048202 0 0.25019264
0.0024970302 0.039495207 0.039999999 -0.4048202 0 0.25019264
0.0024868099 0.038779404 0.039999999 -0.4048202 0 0.25019264
0.0024767781 0.038063824 0.039999999 -0.4048202 0 0.25019264
0.0024669347 0.037348475 0.039999999 -0.4048202 0 0.25019264
0.0024572792 0.036633343 0.039999999 -0.4048202 0 0.25019264
0.0024478119 0.035918426 0.039999999 -0.4048202 0 0.25019264
0.0024385322 0.035203721 0.039999999 -0.4048202 0 0.25019264
0.0024294404 0.034489226 0.039999999 -0.4048202 0 0.25019264
0.002420536 0.033774935 0.039999999 -0.4048202 0 0.25019264
0.0024118193 0.033060841 0.039999999 -0.4048202 0 0.25019264
0.0024032898 0.032346942 0.039999999 -0.4048202 0 0.25019264
0.0023949475 0.031633232 0.039999999 -0.4048202 0 0.25019264
0.0023867923 0.03091971 0.039999999 -0.4048202 0 0.25019264
0.0023788242 0.030206371 0.039999999 -0.4048202 0 0.25019264
0.002371043 0.029493209 0.039999999 -0.4048202 0 0.25019264
0.0023634483 0.02878022 0.039999999 -0.4048202 0 0.25019264
0.0023560403 0.028067401 0.039999999 -0.4048202 0 0.25019264
0.002348819 0.027354747 0.039999999 -0.4048202 0 0.25019264
0.0023417841 0.026642254 0.039999999 -0.4048202 0 0.25019264
0.0023349356 0.025929919 0.039999999 -0.4048202 0 0.25019264
0.0023282731 0.025217734 0.039999999 -0.4048202 0 0.25019264
0.002321797 0.024505697 0.039999999 -0.4048202 0 0.25019264
0.0023155068 0.023793805 0.039999999 -0.4048202 0 0.25019264
0.0023094027 0.023082053 0.039999999 -0.4048202 0 0.25019264
0.0023034844 0.022370437 0.039999999 -0.4048202 0 0.25019264
0.0022977518 0.021658953 0.039999999 -0.4048202 0 0.25019264
0.0022922051 0.020947594 0.039999999 -0.4048202 0 0.25019264
0.002286844 0.02023636 0.039999999 -0.4048202 0 0.25019264
0.0022816684 0.019525243 0.039999999 -0.4048202 0 0.25019264
0.0022766783 0.018814242 0.039999999 -0.4048202 0 0.25019264
0.0022718736 0.01810335 0.039999999 -0.4048202 0 0.25019264
0.0022672543 0.017392566 0.039999999 -0.4048202 0 0.25019264
0.0022628203 0.016681883 0.039999999 -0.4048202 0 0.25019264
0.0022585716 0.015971297 0.039999999 -0.4048202 0 0.25019264
0.0022545077 0.015260807 0.039999999 -0.4048202 0 0.25019264
0.0022506292 0.014550405 0.039999999 -0.4048202 0 0.25019264
0.0022469359 0.013840089 0.039999999 -0.4048202 0 0.25019264
0.0022434273 0.013129853 0.039999999 -0.4048202 0 0.25019264
0.0022401037 0.012419695 0.039999999 -0.4048202 0 0.25019264
0.0022369651 0.011709609 0.039999999 -0.4048202 0 0.25019264
0.0022340112 0.010999592 0.039999999 -0.4048202 0 0.25019264
0.0022312424 0.010289639 0.039999999 -0.4048202 0 0.25019264
0.0022286582 0.009579747 0.039999999 -0.4048202 0 0.25019264
0.0022262586 0.0088699115 0.039999999 -0.4048202 0 0.25019264
0.0022240439 0.0081601273 0.039999999 -0.4048202 0 0.25019264
0.0022220139 0.0074503911 0.039999999 -0.4048202 0 0.25019264
0.0022201685 0.0067406981 0.039999999 -0.4048202 0 0.25019264
0.0022185075 0.0060310452 0.039999999 -0.4048202 0 0.25019264
0.0022170313 0.0053214272 0.039999999 -0.4048202 0 0.25019264
0.0022157396 0.0046118405 0.039999999 -0.4048202 0 0.25019264
0.0022146325 0.0039022809 0.039999999 -0.4048202 0 0.25019264
0.00221371 0.0031927442 0.039999999 -0.4048202 0 0.25019264
0.0022129719 0.0024832261 0.039999999 -0.4048202 0 0.25019264
0.0022124185 0.0017737225 0.039999999 -0.4048202 0 0.25019264
0.0022120494 0.0010642294 0.039999999 -0.4048202 0 0.25019264
0.002211865 0.00035474243 0.039999999 -0.4048202 0 0.25019264
0.0017993272 0.07984677 0.039999999 -0.4048202 0 0.25019264
0.001778789 0.079113297 0.039999999 -0.4048202 0 0.25019264
0.0017584466 0.078380309 0.039999999 -0.4048202 0 0.25019264
0.0017382996 0.07764779 0.039999999 -0.4048202 0 0.25019264
0.0017183478 0.076915734 0.039999999 -0.4048202 0 0.25019264
0.0016985907 0.076184154 0.039999999 -0.4048202 0 0.25019264
0.0016790283 0.075453021 0.039999999 -0.4048202 0 0.25019264
0.0016596601 0.07472235 0.039999999 -0.4048202 0 0.25019264
0.0016404858 0.073992126 0.039999999 -0.4048202 0 0.25019264
0.0016215054 0.073262349 0.039999999 -0.4048202 0 0.25019264
0.0016027183 0.072533011 0.039999999 -0.4048202 0 0.25019264
0.0015841243 0.071804106 0.039999999 -0.4048202 0 0.25019264
0.0015657232 0.071075633 0.039999999 -0.4048202 0 0.25019264
0.0015475147 0.070347585 0.039999999 -0.4048202 0 0.25019264
0.0015294986 0.069619961 0.039999999 -0.4048202 0 0.25019264
0.0015116746 0.068892755 0.039999999 -0.4048202 0 0.25019264
0.0014940423 0.068165965 0.039999999 -0.4048202 0 0.25019264
0.0014660112 0.06743782 0.040005479 -0.4048202 0 0.25019264
0.001157729 0.06666407 0.040156048 -0.4048202 0 0.25019264
0.00091254694 0.065901965 0.04027408 -0.4048202 0 0.25019264
0.00070285687 0.065146744 0.040373858 -0.4048202 0 0.25019264
0.00049347029 0.064392611 0.040473588 -0.4048202 0 0.25019264
0.00036139737 0.063651666 0.040533416 -0.4048202 0 0.25019264
0.00024032877 0.062913194 0.040587652 -0.4048202 0 0.25019264
0.00011938097 0.062175453 0.04064193 -0.4048202 0 0.25019264
7.8648809e-05 0.061450604 0.040654797 -0.4048202 0 0.25019264
3.9383944e-05 0.0607264 0.040667005 -0.4048202 0 0.25019264
1.4188983e-07 0.060002618 0.040679298 -0.4048202 0 0.25019264
3.8461945e-05 0.059290607 0.040651545 -0.4048202 0 0.25019264
7.7056284e-05 0.058578771 0.040623747 -0.4048202 0 0.25019264
0.00011564357 0.057867065 0.040596046 -0.4048202 0 0.25019264
0.00022737691 0.057165809 0.040530581 -0.4048202 0 0.25019264
0.00034229242 0.056464866 0.040463559 -0.4048202 0 0.25019264
0.00045723177 0.055763777 0.040396616 -0.4048202 0 0.25019264
0.00064211269 0.055072032 0.040293559 -0.4048202 0 0.25019264
0.00083402725 0.05438083 0.040186953 -0.4048202 0 0.25019264
0.0010260571 0.053689215 0.040080376 -0.4048202 0 0.25019264
0.0011676492 0.052990578 0.039999999 -0.4048202 0 0.25019264
0.0011541774 0.05227172 0.039999999 -0.4048202 0 0.25019264
0.0011408923 0.051553171 0.039999999 -0.4048202 0 0.25019264
0.0011277936 0.050834928 0.039999999 -0.4048202 0 0.25019264
0.0011148812 0.050116986 0.039999999 -0.4048202 0 0.25019264
0.001102155 0.049399339 0.039999999 -0.4048202 0 0.25019264
0.0010896147 0.048681986 0.039999999 -0.4048202 0 0.25019264
0.00107726 0.047964919 0.039999999 -0.4048202 0 0.25019264
0.001065091 0.047248136 0.039999999 -0.4048202 0 0.25019264
0.0010531073 0.046531633 0.039999999 -0.4048202 0 0.25019264
0.0010413089 0.045815405 0.039999999 -0.4048202 0 0.25019264
0.0010296955 0.045099445 0.039999999 -0.4048202 0 0.25019264
0.001018267 0.044383753 0.039999999 -0.4048202 0 0.25019264
0.0010070232 0.043668322 0.039999999 -0.4048202 0 0.25019264
0.00099596393 0.042953148 0.039999999 -0.4048202 0 0.25019264
0.00098508911 0.042238228 0.039999999 -0.4048202 0 0.25019264
0.00097439851 0.041523557 0.039999999 -0.4048202 0 0.25019264
0.00096389203 0.040809128 0.039999999 -0.4048202 0 0.25019264
0.00095356943 0.040094942 0.039999999 -0.4048202 0 0.25019264
0.0009434307 0.039380994 0.039999999 -0.4048202 0 0.25019264
0.00093347556 0.038667273 0.039999999 -0.4048202 0 0.25019264
0.00092370395 0.037953783 0.039999999 -0.4048202 0 0.25019264
0.00091411575 0.037240513 0.039999999 -0.4048202 0 0.25019264
0.00090471073 0.036527462 0.039999999 -0.4048202 0 0.25019264
0.00089548883 0.035814628 0.039999999 -0.4048202 0 0.25019264
0.00088644988 0.035102006 0.039999999 -0.4048202 0 0.25019264
0.00087759382 0.034389585 0.039999999 -0.4048202 0 0.25019264
0.00086892047 0.033677369 0.039999999 -0.4048202 0 0.25019264
0.00086042966 0.032965351 0.039999999 -0.4048202 0 0.25019264
0.00085212139 0.032253526 0.039999999 -0.4048202 0 0.25019264
0.00084399543 0.031541891 0.039999999 -0.4048202 0 0.25019264
0.00083605171 0.030830441 0.039999999 -0.4048202 0 0.25019264
0.00082829013 0.03011917 0.039999999 -0.4048202 0 0.25019264
0.00082071056 0.029408077 0.039999999 -0.4048202 0 0.25019264
0.00081331289 0.028697155 0.039999999 -0.4048202 0 0.25019264
0.00080609706 0.027986404 0.039999999 -0.4048202 0 0.25019264
0.00079906289 0.027275814 0.039999999 -0.4048202 0 0.25019264
0.00079221034 0.026565384 0.039999999 -0.4048202 0 0.25019264
0.00078553928 0.025855111 0.039999999 -0.4048202 0 0.25019264
0.00077904965 0.025144989 0.039999999 -0.4048202 0 0.25019264
0.00077274139 0.024435014 0.039999999 -0.4048202 0 0.25019264
0.00076661428 0.023725182 0.039999999 -0.4048202 0 0.25019264
0.00076066836 0.023015488 0.039999999 -0.4048202 0 0.25019264
0.00075490348 0.02230593 0.039999999 -0.4048202 0 0.25019264
0.00074931956 0.021596503 0.039999999 -0.4048202 0 0.25019264
0.00074391661 0.0208872 0.039999999 -0.4048202 0 0.25019264
0.00073869439 0.02017802 0.039999999 -0.4048202 0 0.25019264
0.00073365297 0.019468959 0.039999999 -0.4048202 0 0.25019264
0.00072879222 0.018760011 0.039999999 -0.4048202 0 0.25019264
0.00072411209 0.018051172 0.039999999 -0.4048202 0 0.25019264
0.00071961252 0.017342439 0.039999999 -0.4048202 0 0.25019264
0.0007152934 0.016633809 0.039999999 -0.4048202 0 0.25019264
0.00071115472 0.015925273 0.039999999 -0.4048202 0 0.25019264
0.00070719642 0.015216833 0.039999999 -0.4048202 0 0.25019264
0.00070341839 0.01450848 0.039999999 -0.4048202 0 0.25019264
0.00069982058 0.013800213 0.039999999 -0.4048202 0 0.25019264
0.00069640303 0.013092025 0.039999999 -0.4048202 0 0.25019264
0.00069316564 0.012383915 0.039999999 -0.4048202 0 0.25019264
0.00069010828 0.011675877 0.039999999 -0.4048202 0 0.25019264
0.00068723108 0.010967907 0.039999999 -0.4048202 0 0.25019264
0.00068453385 0.01026 0.039999999 -0.4048202 0 0.25019264
0.0006820166 0.0095521538 0.039999999 -0.4048202 0 0.25019264
0.00067967933 0.0088443635 0.039999999 -0.4048202 0 0.25019264
0.00067752198 0.0081366245 0.039999999 -0.4048202 0 0.25019264
0.00067554449 0.0074289329 0.039999999 -0.4048202 0 0.25019264
0.00067374686 0.0067212847 0.039999999 -0.4048202 0 0.25019264
0.0006721291 0.0060136761 0.039999999 -0.4048202 0 0.25019264
0.00067069108 0.0053061023 0.039999999 -0.4048202 0 0.25019264
0.00066943292 0.0045985593 0.039999999 -0.4048202 0 0.25019264
0.00066835451 0.0038910431 0.039999999 -0.4048202 0 0.25019264
0.00066745584 0.0031835497 0.039999999 -0.4048202 0 0.25019264
0.00066673697 0.002476075 0.039999999 -0.4048202 0 0.25019264
0.0006661978 0.0017686147 0.039999999 -0.4048202 0 0.25019264
0.00066583836 0.0010611647 0.039999999 -0.4048202 0 0.25019264
0.00066565862 0.00035372088 0.039999999 -0.4048202 0 0.25019264
0.00023247926 0.079613589 0.039999999 -0.4048202 0 0.25019264
0.00021248343 0.078882329 0.039999999 -0.4048202 0 0.25019264
0.00019267811 0.078151546 0.039999999 -0.4048202 0 0.25019264
0.00017306305 0.077421233 0.039999999 -0.4048202 0 0.25019264
0.00015363791 0.076691389 0.039999999 -0.4048202 0 0.25019264
0.00013440245 0.075962 0.039999999 -0.4048202 0 0.25019264
0.00011535636 0.075233072 0.039999999 -0.4048202 0 0.25019264
9.6499374e-05 0.074504592 0.039999999 -0.4048202 0 0.25019264
7.7831217e-05 0.073776558 0.039999999 -0.4048202 0 0.25019264
5.9351616e-05 0.073048964 0.039999999 -0.4048202 0 0.25019264
4.1060306e-05 0.07232181 0.039999999 -0.4048202 0 0.25019264
2.2957016e-05 0.071595088 0.039999999 -0.4048202 0 0.25019264
5.0414842e-06 0.070868798 0.039999999 -0.4048202 0 0.25019264
5.5511151e-17 0.070145123 0.039993413 -0.4048202 0 0.25019264
5.5511151e-17 0.069422655 0.039984304 -0.4048202 0 0.25019264
0 0.068700507 0.039975289 -0.4048202 0 0.25019264
5.5511151e-17 0.06797868 0.039966375 -0.4048202 0 0.25019264
5.5511151e-17 0.067257158 0.039957553 -0.4048202 0 0.25019264
5.5511151e-17 0.066535957 0.039948832 -0.4048202 0 0.25019264
5.5511151e-17 0.065815054 0.039940204 -0.4048202 0 0.25019264
5.5511151e-17 0.065094456 0.03993167 -0.4048202 0 0.25019264
0 0.064374156 0.039923236 -0.4048202 0 0.25019264
1.110223e-16 0.063654147 0.039914895 -0.4048202 0 0.25019264
5.5511151e-17 0.062934436 0.039906647 -0.4048202 0 0.25019264
5.5511151e-17 0.062215015 0.0398985 -0.4048202 0 0.25019264
5.5511151e-17 0.061495878 0.039890442 -0.4048202 0 0.25019264
5.5511151e-17 0.060777023 0.039882485 -0.4048202 0 0.25019264
5.5511151e-17 0.060058448 0.039874621 -0.4048202 0 0.25019264
5.5511151e-17 0.059340149 0.03986685 -0.4048202 0 0.25019264
5.5511151e-17 0.058622118 0.039859176 -0.4048202 0 0.25019264
5.5511151e-17 0.057904359 0.039851598 -0.4048202 0 0.25019264
1.110223e-16 0.057186864 0.039844111 -0.4048202 0 0.25019264
5.5511151e-17 0.05646963 0.039836723 -0.4048202 0 0.25019264
5.5511151e-17 0.055752654 0.039829426 -0.4048202 0 0.25019264
5.5511151e-17 0.055035934 0.039822225 -0.4048202 0 0.25019264
5.5511151e-17 0.054319464 0.03981512 -0.4048202 0 0.25019264
5.5511151e-17 0.053603243 0.039808106 -0.4048202 0 0.25019264
5.5511151e-17 0.052887268 0.039801188 -0.4048202 0 0.25019264
1.110223e-16 0.052171536 0.039794367 -0.4048202 0 0.25019264
5.5511151e-17 0.051456038 0.039787635 -0.4048202 0 0.25019264
1.110223e-16 0.050740778 0.039781 -0.4048202 0 0.25019264
1.110223e-16 0.05002575 0.039774459 -0.4048202 0 0.25019264
5.5511151e-17 0.049310949 0.03976801 -0.4048202 0 0.25019264
5.5511151e-17 0.048596371 0.039761659 -0.4048202 0 0.25019264
1.110223e-16 0.047882017 0.039755397 -0.4048202 0 0.25019264
5.5511151e-17 0.047167879 0.039749231 -0.4048202 0 0.25019264
1.110223e-16 0.046453957 0.039743159 -0.4048202 0 0.25019264
5.5511151e-17 0.045740247 0.03973718 -0.4048202 0 0.25019264
5.5511151e-17 0.045026746 0.039731294 -0.4048202 0 0.25019264
1.110223e-16 0.044313449 0.039725501 -0.4048202 0 0.25019264
1.110223e-16 0.043600354 0.039719801 -0.4048202 0 0.25019264
0 0.042887457 0.039714195 -0.4048202 0 0.25019264
5.5511151e-17 0.042174753 0.039708681 -0.4048202 0 0.25019264
1.110223e-16 0.041462243 0.039703261 -0.4048202 0 0.25019264
5.5511151e-17 0.040749922 0.039697934 -0.4048202 0 0.25019264
5.5511151e-17 0.040037785 0.0396927 -0.4048202 0 0.25019264
5.5511151e-17 0.03932583 0.039687559 -0.4048202 0 0.25019264
0 0.038614053 0.039682511 -0.4048202 0 0.25019264
1.110223e-16 0.037902452 0.039677557 -0.4048202 0 0.25019264
5.5511151e-17 0.037191022 0.039672695 -0.4048202 0 0.25019264
5.5511151e-17 0.036479764 0.039667927 -0.4048202 0 0.25019264
5.5511151e-17 0.035768669 0.039663248 -0.4048202 0 0.25019264
5.5511151e-17 0.035057735 0.039658666 -0.4048202 0 0.25019264
5.5511151e-17 0.03434696 0.039654173 -0.4048202 0 0.25019264
5.5511151e-17 0.033636343 0.039649773 -0.4048202 0 0.25019264
5.5511151e-17 0.032925878 0.039645467 -0.4048202 0 0.25019264
5.5511151e-17 0.032215562 0.03964125 -0.4048202 0 0.25019264
5.5511151e-17 0.031505395 0.03963713 -0.4048202 0 0.25019264
5.5511151e-17 0.030795366 0.039633099 -0.4048202 0 0.25019264
5.5511151e-17 0.030085478 0.039629161 -0.4048202 0 0.25019264
5.5511151e-17 0.029375726 0.039625317 -0.4048202 0 0.25019264
5.5511151e-17 0.028666107 0.039621562 -0.4048202 0 0.25019264
5.5511151e-17 0.027956618 0.0396179 -0.4048202 0 0.25019264
5.5511151e-17 0.027247256 0.039614331 -0.4048202 0 0.25019264
5.5511151e-17 0.026538016 0.039610855 -0.4048202 0 0.25019264
5.5511151e-17 0.025828898 0.039607469 -0.4048202 0 0.25019264
5.5511151e-17 0.025119895 0.039604176 -0.4048202 0 0.25019264
5.5511151e-17 0.024411006 0.039600976 -0.4048202 0 0.25019264
5.5511151e-17 0.023702228 0.039597865 -0.4048202 0 0.25019264
5.5511151e-17 0.022993557 0.039594848 -0.4048202 0 0.25019264
5.5511151e-17 0.02228499 0.039591923 -0.4048202 0 0.25019264
5.5511151e-17 0.021576524 0.039589088 -0.4048202 0 0.25019264
5.5511151e-17 0.020868154 0.039586347 -0.4048202 0 0.25019264
5.5511151e-17 0.02015988 0.039583694 -0.4048202 0 0.25019264
5.5511151e-17 0.019451696 0.039581135 -0.4048202 0 0.25019264
5.5511151e-17 0.018743601 0.039578669 -0.4048202 0 0.25019264
5.5511151e-17 0.018035589 0.039576292 -0.4048202 0 0.25019264
5.5511151e-17 0.017327659 0.039574008 -0.4048202 0 0.25019264
5.5511151e-17 0.016619809 0.039571818 -0.4048202 0 0.25019264
5.5511151e-17 0.015912032 0.039569717 -0.4048202 0 0.25019264
5.5511151e-17 0.015204327 0.039567705 -0.4048202 0 0.25019264
5.5511151e-17 0.014496692 0.03956579 -0.4048202 0 0.25019264
5.5511151e-17 0.013789121 0.039563961 -0.4048202 0 0.25019264
5.5511151e-17 0.013081613 0.039562229 -0.4048202 0 0.25019264
5.5511151e-17 0.012374164 0.039560582 -0.4048202 0 0.25019264
5.5511151e-17 0.01166677 0.039559033 -0.4048202 0 0.25019264
5.5511151e-17 0.01095943 0.039557572 -0.4048202 0 0.25019264
5.5511151e-17 0.010252139 0.039556202 -0.4048202 0 0.25019264
5.5511151e-17 0.0095448941 0.039554924 -0.4048202 0 0.25019264
5.5511151e-17 0.0088376915 0.039553735 -0.4048202 0 0.25019264
5.5511151e-17 0.0081305299 0.03955264 -0.4048202 0 0.25019264
5.5511151e-17 0.0074234046 0.039551638 -0.4048202 0 0.25019264
5.5511151e-17 0.0067163124 0.039550725 -0.4048202 0 0.25019264
5.5511151e-17 0.0060092509 0.039549902 -0.4048202 0 0.25019264
5.5511151e-17 0.0053022164 0.039549172 -0.4048202 0 0.25019264
5.5511151e-17 0.0045952061 0.039548535 -0.4048202 0 0.25019264
5.5511151e-17 0.0038882161 0.039547987 -0.4048202 0 0.25019264
5.5511151e-17 0.0031812438 0.039547529 -0.4048202 0 0.25019264
5.5511151e-17 0.0024742859 0.039547164 -0.4048202 0 0.25019264
5.5511151e-17 0.0017673391 0.039546892 -0.4048202 0 0.25019264
5.5511151e-17 0.0010604003 0.03954671 -0.4048202 0 0.25019264
5.5511151e-17 0.00035346622 0.03954662 -0.4048202 0 0.25019264
5.5511151e-17 0.079642467 0.039309826 -0.4048202 0 0.25019264
1.110223e-16 0.078914821 0.039299656 -0.4048202 0 0.25019264
5.5511151e-17 0.078187548 0.039289579 -0.4048202 0 0.25019264
1.110223e-16 0.077460632 0.039279602 -0.4048202 0 0.25019264
0 0.076734073 0.039269719 -0.4048202 0 0.25019264
5.5511151e-17 0.076007873 0.039259929 -0.4048202 0 0.25019264
5.5511151e-17 0.075282022 0.039250236 -0.4048202 0 0.25019264
1.110223e-16 0.074556522 0.03924064 -0.4048202 0 0.25019264
5.5511151e-17 0.073831372 0.03923114 -0.4048202 0 0.25019264
5.5511151e-17 0.073106557 0.03922173 -0.4048202 0 0.25019264
5.5511151e-17 0.072382085 0.039212421 -0.4048202 0 0.25019264
0 0.071657948 0.039203204 -0.4048202 0 0.25019264
5.5511151e-17 0.070934139 0.039194081 -0.4048202 0 0.25019264
0 0.070210658 0.039185055 -0.4048202 0 0.25019264
5.5511151e-17 0.069487505 0.039176121 -0.4048202 0 0.25019264
5.5511151e-17 0.068764664 0.039167281 -0.4048202 0 0.25019264
0 0.068042144 0.039158538 -0.4048202 0 0.25019264
1.110223e-16 0.067319945 0.039149888 -0.4048202 0 0.25019264
5.5511151e-17 0.06659805 0.039141335 -0.4048202 0 0.25019264
5.5511151e-17 0.065876462 0.039132871 -0.4048202 0 0.25019264
0 0.065155178 0.039124504 -0.4048202 0 0.25019264
5.5511151e-17 0.064434193 0.03911623 -0.4048202 0 0.25019264
5.5511151e-17 0.063713506 0.039108049 -0.4048202 0 0.25019264
5.5511151e-17 0.062993109 0.039099965 -0.4048202 0 0.25019264
5.5511151e-17 0.062273007 0.039091971 -0.4048202 0 0.25019264
5.5511151e-17 0.061553188 0.039084073 -0.4048202 0 0.25019264
5.5511151e-17 0.060833652 0.039076269 -0.4048202 0 0.25019264
5.5511151e-17 0.060114395 0.039068554 -0.4048202 0 0.25019264
5.5511151e-17 0.059395414 0.039060935 -0.4048202 0 0.25019264
5.5511151e-17 0.058676705 0.03905341 -0.4048202 0 0.25019264
5.5511151e-17 0.057958264 0.039045975 -0.4048202 0 0.25019264
1.110223e-16 0.057240091 0.039038636 -0.4048202 0 0.25019264
5.5511151e-17 0.056522183 0.03903139 -0.4048202 0 0.25019264
5.5511151e-17 0.055804528 0.039024234 -0.4048202 0 0.25019264
1.110223e-16 0.055087134 0.039017171 -0.4048202 0 0.25019264
5.5511151e-17 0.05436999 0.039010204 -0.4048202 0 0.25019264
5.5511151e-17 0.053653095 0.039003327 -0.4048202 0 0.25019264
1.110223e-16 0.052936442 0.03899654 -0.4048202 0 0.25019264
5.5511151e-17 0.052220035 0.038989849 -0.4048202 0 0.25019264
1.110223e-16 0.051503867 0.038983248 -0.4048202 0 0.25019264
5.5511151e-17 0.050787933 0.038976744 -0.4048202 0 0.25019264
5.5511151e-17 0.05007223 0.038970329 -0.4048202 0 0.25019264
5.5511151e-17 0.049356759 0.038964003 -0.4048202 0 0.25019264
5.5511151e-17 0.04864151 0.038957775 -0.4048202 0 0.25019264
1.110223e-16 0.047926486 0.038951632 -0.4048202 0 0.25019264
0 0.047211681 0.038945585 -0.4048202 0 0.25019264
5.5511151e-17 0.046497088 0.038939629 -0.4048202 0 0.25019264
5.5511151e-17 0.045782708 0.038933765 -0.4048202 0 0.25019264
5.5511151e-17 0.04506854 0.038927995 -0.4048202 0 0.25019264
0 0.044354573 0.038922314 -0.4048202 0 0.25019264
5.5511151e-17 0.043640811 0.038916726 -0.4048202 0 0.25019264
5.5511151e-17 0.042927247 0.038911227 -0.4048202 0 0.25019264
5.5511151e-17 0.042213876 0.038905818 -0.4048202 0 0.25019264
0 0.041500699 0.038900506 -0.4048202 0 0.25019264
5.5511151e-17 0.040787712 0.038895279 -0.4048202 0 0.25019264
0 0.040074911 0.038890149 -0.4048202 0 0.25019264
1.110223e-16 0.039362289 0.038885105 -0.4048202 0 0.25019264
1.110223e-16 0.03864985 0.038880154 -0.4048202 0 0.25019264
0 0.037937585 0.038875297 -0.4048202 0 0.25019264
1.110223e-16 0.037225492 0.038870528 -0.4048202 0 0.25019264
5.5511151e-17 0.036513567 0.038865849 -0.4048202 0 0.25019264
5.5511151e-17 0.035801809 0.038861264 -0.4048202 0 0.25019264
0 0.035090216 0.038856767 -0.4048202 0 0.25019264
5.5511151e-17 0.034378778 0.038852364 -0.4048202 0 0.25019264
1.110223e-16 0.033667501 0.03884805 -0.4048202 0 0.25019264
1.110223e-16 0.032956373 0.038843825 -0.4048202 0 0.25019264
5.5511151e-17 0.032245398 0.03883969 -0.4048202 0 0.25019264
5.5511151e-17 0.031534564 0.038835648 -0.4048202 0 0.25019264
5.5511151e-17 0.030823877 0.038831696 -0.4048202 0 0.25019264
5.5511151e-17 0.03011333 0.038827837 -0.4048202 0 0.25019264
5.5511151e-17 0.029402919 0.038824063 -0.4048202 0 0.25019264
5.5511151e-17 0.02869264 0.038820382 -0.4048202 0 0.25019264
5.5511151e-17 0.027982492 0.038816791 -0.4048202 0 0.25019264
5.5511151e-17 0.02727247 0.038813293 -0.4048202 0 0.25019264
5.5511151e-17 0.026562573 0.038809881 -0.4048202 0 0.25019264
5.5511151e-17 0.025852796 0.038806561 -0.4048202 0 0.25019264
5.5511151e-17 0.025143135 0.038803332 -0.4048202 0 0.25019264
5.5511151e-17 0.024433589 0.038800195 -0.4048202 0 0.25019264
5.5511151e-17 0.023724154 0.038797144 -0.4048202 0 0.25019264
5.5511151e-17 0.023014825 0.038794186 -0.4048202 0 0.25019264
5.5511151e-17 0.0223056 0.038791314 -0.4048202 0 0.25019264
5.5511151e-17 0.021596478 0.038788535 -0.4048202 0 0.25019264
5.5511151e-17 0.020887453 0.038785849 -0.4048202 0 0.25019264
5.5511151e-17 0.020178521 0.038783249 -0.4048202 0 0.25019264
5.5511151e-17 0.019469682 0.038780738 -0.4048202 0 0.25019264
5.5511151e-17 0.018760931 0.03877832 -0.4048202 0 0.25019264
5.5511151e-17 0.018052263 0.038775988 -0.4048202 0 0.25019264
5.5511151e-17 0.017343679 0.038773749 -0.4048202 0 0.25019264
5.5511151e-17 0.016635172 0.0387716 -0.4048202 0 0.25019264
5.5511151e-17 0.015926741 0.038769539 -0.4048202 0 0.25019264
5.5511151e-17 0.015218381 0.038767569 -0.4048202 0 0.25019264
5.5511151e-17 0.01451009 0.038765687 -0.4048202 0 0.25019264
5.5511151e-17 0.013801865 0.038763896 -0.4048202 0 0.25019264
5.5511151e-17 0.013093703 0.038762193 -0.4048202 0 0.25019264
5.5511151e-17 0.012385599 0.038760584 -0.4048202 0 0.25019264
5.5511151e-17 0.011677552 0.03875906 -0.4048202 0 0.25019264
5.5511151e-17 0.010969558 0.03875763 -0.4048202 0 0.25019264
5.5511151e-17 0.010261612 0.038756285 -0.4048202 0 0.25019264
5.5511151e-17 0.0095537137 0.038755033 -0.4048202 0 0.25019264
5.5511151e-17 0.0088458583 0.038753867 -0.4048202 0 0.25019264
5.5511151e-17 0.0081380419 0.038752794 -0.4048202 0 0.25019264
5.5511151e-17 0.0074302633 0.038751811 -0.4048202 0 0.25019264
5.5511151e-17 0.0067225178 0.038750913 -0.4048202 0 0.25019264
5.5511151e-17 0.006014803 0.038750108 -0.4048202 0 0.25019264
5.5511151e-17 0.0053071151 0.038749393 -0.4048202 0 0.25019264
5.5511151e-17 0.0045994516 0.038748767 -0.4048202 0 0.25019264
5.5511151e-17 0.0038918084 0.038748231 -0.4048202 0 0.25019264
5.5511151e-17 0.0031841828 0.03874778 -0.4048202 0 0.25019264
5.5511151e-17 0.0024765718 0.038747422 -0.4048202 0 0.25019264
5.5511151e-17 0.0017689718 0.038747154 -0.4048202 0 0.25019264
5.5511151e-17 0.0010613799 0.038746975 -0.4048202 0 0.25019264
5.5511151e-17 0.00035379277 0.038746886 -0.4048202 0 0.25019264
1.110223e-16 0.079717167 0.038497675 -0.4048202 0 0.25019264
0 0.07898882 0.038487706 -0.4048202 0 0.25019264
5.5511151e-17 0.078260839 0.038477831 -0.4048202 0 0.25019264
1.110223e-16 0.077533223 0.038468048 -0.4048202 0 0.25019264
5.5511151e-17 0.076805972 0.038458358 -0.4048202 0 0.25019264
5.5511151e-17 0.076079071 0.038448762 -0.4048202 0 0.25019264
5.5511151e-17 0.075352527 0.038439263 -0.4048202 0 0.25019264
0 0.074626334 0.038429856 -0.4048202 0 0.25019264
5.5511151e-17 0.073900484 0.038420539 -0.4048202 0 0.25019264
5.5511151e-17 0.073174976 0.038411319 -0.4048202 0 0.25019264
1.110223e-16 0.072449803 0.038402192 -0.4048202 0 0.25019264
1.110223e-16 0.071724974 0.038393158 -0.4048202 0 0.25019264
5.5511151e-17 0.071000472 0.038384214 -0.4048202 0 0.25019264
1.110223e-16 0.070276298 0.038375366 -0.4048202 0 0.25019264
5.5511151e-17 0.069552451 0.038366608 -0.4048202 0 0.25019264
5.5511151e-17 0.068828925 0.038357947 -0.4048202 0 0.25019264
5.5511151e-17 0.06810572 0.038349375 -0.4048202 0 0.25019264
5.5511151e-17 0.067382827 0.038340896 -0.4048202 0 0.25019264
1.110223e-16 0.066660248 0.038332511 -0.4048202 0 0.25019264
0 0.065937974 0.038324215 -0.4048202 0 0.25019264
0 0.065215997 0.038316011 -0.4048202 0 0.25019264
5.5511151e-17 0.064494327 0.038307901 -0.4048202 0 0.25019264
5.5511151e-17 0.063772954 0.038299885 -0.4048202 0 0.25019264
5.5511151e-17 0.063051879 0.038291957 -0.4048202 0 0.25019264
0 0.062331088 0.038284123 -0.4048202 0 0.25019264
5.5511151e-17 0.061610587 0.038276378 -0.4048202 0 0.25019264
1.110223e-16 0.060890369 0.038268726 -0.4048202 0 0.25019264
1.110223e-16 0.060170431 0.038261168 -0.4048202 0 0.25019264
1.110223e-16 0.059450768 0.038253698 -0.4048202 0 0.25019264
5.5511151e-17 0.058731381 0.038246322 -0.4048202 0 0.25019264
1.110223e-16 0.058012262 0.038239036 -0.4048202 0 0.25019264
5.5511151e-17 0.057293408 0.038231838 -0.4048202 0 0.25019264
0 0.056574818 0.038224734 -0.4048202 0 0.25019264
0 0.055856489 0.038217723 -0.4048202 0 0.25019264
5.5511151e-17 0.055138417 0.038210802 -0.4048202 0 0.25019264
5.5511151e-17 0.054420594 0.03820397 -0.4048202 0 0.25019264
0 0.053703025 0.038197227 -0.4048202 0 0.25019264
1.110223e-16 0.052985698 0.038190577 -0.4048202 0 0.25019264
0 0.052268617 0.038184017 -0.4048202 0 0.25019264
0 0.051551774 0.03817755 -0.4048202 0 0.25019264
5.5511151e-17 0.050835166 0.038171168 -0.4048202 0 0.25019264
0 0.050118789 0.03816488 -0.4048202 0 0.25019264
5.5511151e-17 0.049402643 0.038158681 -0.4048202 0 0.25019264
5.5511151e-17 0.048686724 0.038152575 -0.4048202 0 0.25019264
5.5511151e-17 0.047971029 0.038146555 -0.4048202 0 0.25019264
0 0.04725555 0.038140628 -0.4048202 0 0.25019264
0 0.046540286 0.038134791 -0.4048202 0 0.25019264
0 0.045825239 0.038129043 -0.4048202 0 0.25019264
5.5511151e-17 0.045110397 0.038123384 -0.4048202 0 0.25019264
1.110223e-16 0.044395763 0.038117815 -0.4048202 0 0.25019264
1.110223e-16 0.043681331 0.038112339 -0.4048202 0 0.25019264
5.5511151e-17 0.0429671 0.038106948 -0.4048202 0 0.25019264
5.5511151e-17 0.042253062 0.038101647 -0.4048202 0 0.25019264
5.5511151e-17 0.041539218 0.038096439 -0.4048202 0 0.25019264
5.5511151e-17 0.040825564 0.038091317 -0.4048202 0 0.25019264
5.5511151e-17 0.040112097 0.038086288 -0.4048202 0 0.25019264
0 0.039398812 0.038081344 -0.4048202 0 0.25019264
0 0.038685702 0.03807649 -0.4048202 0 0.25019264
0 0.037972774 0.038071729 -0.4048202 0 0.25019264
5.5511151e-17 0.037260015 0.038067054 -0.4048202 0 0.25019264
5.5511151e-17 0.03654743 0.038062468 -0.4048202 0 0.25019264
5.5511151e-17 0.035835005 0.038057972 -0.4048202 0 0.25019264
5.5511151e-17 0.035122748 0.038053565 -0.4048202 0 0.25019264
5.5511151e-17 0.034410648 0.038049247 -0.4048202 0 0.25019264
5.5511151e-17 0.033698708 0.038045019 -0.4048202 0 0.25019264
5.5511151e-17 0.032986917 0.03804088 -0.4048202 0 0.25019264
5.5511151e-17 0.032275278 0.038036827 -0.4048202 0 0.25019264
0 0.031563785 0.038032863 -0.4048202 0 0.25019264
5.5511151e-17 0.030852437 0.038028989 -0.4048202 0 0.25019264
5.5511151e-17 0.030141227 0.038025204 -0.4048202 0 0.25019264
5.5511151e-17 0.029430155 0.038021509 -0.4048202 0 0.25019264
5.5511151e-17 0.028719217 0.038017899 -0.4048202 0 0.25019264
1.110223e-16 0.028008409 0.038014382 -0.4048202 0 0.25019264
1.110223e-16 0.027297728 0.038010951 -0.4048202 0 0.25019264
5.5511151e-17 0.02658717 0.038007606 -0.4048202 0 0.25019264
5.5511151e-17 0.025876733 0.038004354 -0.4048202 0 0.25019264
5.5511151e-17 0.025166415 0.038001187 -0.4048202 0 0.25019264
5.5511151e-17 0.024456209 0.03799811 -0.4048202 0 0.25019264
5.5511151e-17 0.023746114 0.037995119 -0.4048202 0 0.25019264
5.5511151e-17 0.023036128 0.03799222 -0.4048202 0 0.25019264
5.5511151e-17 0.022326246 0.037989408 -0.4048202 0 0.25019264
5.5511151e-17 0.021616464 0.037986685 -0.4048202 0 0.25019264
5.5511151e-17 0.020906782 0.037984047 -0.4048202 0 0.25019264
5.5511151e-17 0.020197194 0.037981499 -0.4048202 0 0.25019264
5.5511151e-17 0.019487698 0.03797904 -0.4048202 0 0.25019264
5.5511151e-17 0.018778289 0.037976667 -0.4048202 0 0.25019264
5.5511151e-17 0.018068966 0.037974384 -0.4048202 0 0.25019264
5.5511151e-17 0.017359724 0.037972189 -0.4048202 0 0.25019264
5.5511151e-17 0.016650561 0.037970081 -0.4048202 0 0.25019264
5.5511151e-17 0.015941473 0.037968062 -0.4048202 0 0.25019264
5.5511151e-17 0.015232458 0.037966128 -0.4048202 0 0.25019264
5.5511151e-17 0.014523512 0.037964284 -0.4048202 0 0.25019264
5.5511151e-17 0.013814631 0.03796253 -0.4048202 0 0.25019264
5.5511151e-17 0.013105812 0.037960861 -0.4048202 0 0.25019264
5.5511151e-17 0.012397054 0.037959281 -0.4048202 0 0.25019264
5.5511151e-17 0.011688352 0.037957791 -0.4048202 0 0.25019264
5.5511151e-17 0.010979702 0.037956387 -0.4048202 0 0.25019264
5.5511151e-17 0.010271101 0.037955068 -0.4048202 0 0.25019264
5.5511151e-17 0.0095625473 0.037953839 -0.4048202 0 0.25019264
5.5511151e-17 0.0088540372 0.037952699 -0.4048202 0 0.25019264
5.5511151e-17 0.008145567 0.037951648 -0.4048202 0 0.25019264
5.5511151e-17 0.0074371332 0.037950683 -0.4048202 0 0.25019264
5.5511151e-17 0.0067287334 0.037949804 -0.4048202 0 0.25019264
5.5511151e-17 0.0060203639 0.037949014 -0.4048202 0 0.25019264
5.5511151e-17 0.0053120218 0.037948314 -0.4048202 0 0.25019264
5.5511151e-17 0.004603704 0.037947699 -0.4048202 0 0.25019264
5.5511151e-17 0.0038954064 0.03794717 -0.4048202 0 0.25019264
5.5511151e-17 0.0031871267 0.037946735 -0.4048202 0 0.25019264
5.5511151e-17 0.0024788612 0.037946384 -0.4048202 0 0.25019264
5.5511151e-17 0.0017706072 0.03794612 -0.4048202 0 0.25019264
5.5511151e-17 0.0010623612 0.037945945 -0.4048202 0 0.25019264
5.5511151e-17 0.00035411984 0.037945855 -0.4048202 0 0.25019264
1.110223e-16 0.079791993 0.03768418 -0.4048202 0 0.25019264
5.5511151e-17 0.079062939 0.037674408 -0.4048202 0 0.25019264
5.5511151e-17 0.078334257 0.037664734 -0.4048202 0 0.25019264
