# .PCD v0.7 - Point Cloud Data file format
VERSION 0.7
FIELDS x y z vp_x vp_y vp_z
SIZE 4 4 4 4 4 4
TYPE F F F F F F
COUNT 1 1 1 1 1 1
WIDTH 865
HEIGHT 1
VIEWPOINT 0 0 0 1 0 0 0
POINTS 865
DATA ascii
0.00014080414 0.062306125 0.04267526 -0.4048202 0 -0.25019264
5.2428382e-05 0.060966991 0.042596914 -0.4048202 0 -0.25019264
1.9652154e-05 0.059637535 0.042559098 -0.4048202 0 -0.25019264
9.0860922e-05 0.058324158 0.042596787 -0.4048202 0 -0.25019264
0.00025068223 0.057023656 0.04269886 -0.4048202 0 -0.25019264
0.00046274549 0.055730145 0.042839006 -0.4048202 0 -0.25019264
0.00081351836 0.054454695 0.043079738 -0.4048202 0 -0.25019264
0.0012179455 0.053184796 0.043359555 -0.4048202 0 -0.25019264
0.0017196877 0.05192548 0.043710008 -0.4048202 0 -0.25019264
0.002338357 0.050678216 0.044145275 -0.4048202 0 -0.25019264
0.0030336776 0.049436964 0.044636227 -0.4048202 0 -0.25019264
0.0038668171 0.048208177 0.045227077 -0.4048202 0 -0.25019264
0.0048468281 0.046991531 0.045924358 -0.4048202 0 -0.25019264
0.0059669605 0.045784827 0.046723176 -0.4048202 0 -0.25019264
0.0072699636 0.044591308 0.047654424 -0.4048202 0 -0.25019264
0.0088256244 0.0434165 0.048768528 -0.4048202 0 -0.25019264
0.010759519 0.042270709 0.050156232 -0.4048202 0 -0.25019264
0.013325184 0.041175202 0.052000739 -0.4048202 0 -0.25019264
0.017336169 0.040201299 0.054889947 -0.4048202 0 -0.25019264
0.010088243 0.077343166 0.048364509 -0.4048202 0 -0.25019264
0.0073599755 0.075477116 0.046384104 -0.4048202 0 -0.25019264
0.0055175284 0.073789462 0.045041576 -0.4048202 0 -0.25019264
0.0041607581 0.072200768 0.044048931 -0.4048202 0 -0.25019264
0.0031096032 0.070675015 0.043276567 -0.4048202 0 -0.25019264
0.0022701973 0.069193222 0.042656921 -0.4048202 0 -0.25019264
0.0015880738 0.067744181 0.042150781 -0.4048202 0 -0.25019264
0.0010288111 0.066320702 0.041733377 -0.4048202 0 -0.25019264
0.00064256327 0.06492959 0.041440759 -0.4048202 0 -0.25019264
0.00034571174 0.063555986 0.041212771 -0.4048202 0 -0.25019264
0.00012285527 0.062196646 0.041038327 -0.4048202 0 -0.25019264
4.6721747e-05 0.060861737 0.040969715 -0.4048202 0 -0.25019264
2.5143248e-05 0.059536256 0.040940642 -0.4048202 0 -0.25019264
9.6230295e-05 0.058225125 0.040978506 -0.4048202 0 -0.25019264
0.00026631454 0.056928303 0.041087855 -0.4048202 0 -0.25019264
0.000485 0.055637892 0.041232437 -0.4048202 0 -0.25019264
0.00083843974 0.054364938 0.041474197 -0.4048202 0 -0.25019264
0.0012523686 0.053098399 0.041759726 -0.4048202 0 -0.25019264
0.0017533276 0.051841047 0.042108096 -0.4048202 0 -0.25019264
0.0023814151 0.050597001 0.042548135 -0.4048202 0 -0.25019264
0.0030865774 0.049358945 0.043043848 -0.4048202 0 -0.25019264
0.0039184936 0.048131961 0.043630939 -0.4048202 0 -0.25019264
0.0049089156 0.046918437 0.044332225 -0.4048202 0 -0.25019264
0.0060407692 0.045714915 0.045135424 -0.4048202 0 -0.25019264
0.0073575783 0.044524699 0.046071809 -0.4048202 0 -0.25019264
0.0089304429 0.043353435 0.047192473 -0.4048202 0 -0.25019264
0.010887273 0.042211603 0.048589338 -0.4048202 0 -0.25019264
0.013486453 0.041120861 0.050448075 -0.4048202 0 -0.25019264
0.017672285 0.040164731 0.053447314 -0.4048202 0 -0.25019264
5.5511151e-17 0.079332642 0.039531987 -0.4048202 0 -0.25019264
0 0.07799831 0.039514884 -0.4048202 0 -0.25019264
0 0.076665148 0.039498076 -0.4048202 0 -0.25019264
0 0.075333133 0.039481565 -0.4048202 0 -0.25019264
5.5511151e-17 0.074002244 0.039465353 -0.4048202 0 -0.25019264
0 0.072672457 0.039449431 -0.4048202 0 -0.25019264
5.5511151e-17 0.071343757 0.039433807 -0.4048202 0 -0.25019264
5.5511151e-17 0.070016123 0.039418478 -0.4048202 0 -0.25019264
5.5511151e-17 0.068689525 0.039403442 -0.4048202 0 -0.25019264
0 0.067363955 0.039388701 -0.4048202 0 -0.25019264
0 0.066039383 0.039374247 -0.4048202 0 -0.25019264
0 0.064715803 0.039360091 -0.4048202 0 -0.25019264
5.5511151e-17 0.063393176 0.039346222 -0.4048202 0 -0.25019264
0 0.062071491 0.039332647 -0.4048202 0 -0.25019264
5.5511151e-17 0.060750727 0.039319362 -0.4048202 0 -0.25019264
0 0.059430864 0.039306365 -0.4048202 0 -0.25019264
0 0.05811188 0.039293658 -0.4048202 0 -0.25019264
0 0.056793757 0.039281242 -0.4048202 0 -0.25019264
0 0.055476476 0.039269112 -0.4048202 0 -0.25019264
5.5511151e-17 0.054160014 0.039257273 -0.4048202 0 -0.25019264
5.5511151e-17 0.052844353 0.039245721 -0.4048202 0 -0.25019264
5.5511151e-17 0.051529471 0.039234456 -0.4048202 0 -0.25019264
0 0.050215352 0.039223477 -0.4048202 0 -0.25019264
5.5511151e-17 0.048901971 0.039212786 -0.4048202 0 -0.25019264
0 0.047589313 0.039202377 -0.4048202 0 -0.25019264
5.5511151e-17 0.046277355 0.039192259 -0.4048202 0 -0.25019264
0 0.044966079 0.039182425 -0.4048202 0 -0.25019264
5.5511151e-17 0.043655466 0.039172873 -0.4048202 0 -0.25019264
0 0.042345494 0.039163608 -0.4048202 0 -0.25019264
0 0.041036148 0.039154626 -0.4048202 0 -0.25019264
0 0.039727401 0.039145928 -0.4048202 0 -0.25019264
0 0.038419239 0.039137516 -0.4048202 0 -0.25019264
0 0.03711164 0.039129384 -0.4048202 0 -0.25019264
0 0.035804588 0.039121538 -0.4048202 0 -0.25019264
5.5511151e-17 0.034498058 0.039113972 -0.4048202 0 -0.25019264
5.5511151e-17 0.033192039 0.039106693 -0.4048202 0 -0.25019264
0 0.031886503 0.039099693 -0.4048202 0 -0.25019264
0 0.030581435 0.039092977 -0.4048202 0 -0.25019264
5.5511151e-17 0.029276816 0.039086539 -0.4048202 0 -0.25019264
5.5511151e-17 0.027972626 0.039080385 -0.4048202 0 -0.25019264
0 0.026668845 0.03907451 -0.4048202 0 -0.25019264
0 0.025365453 0.039068919 -0.4048202 0 -0.25019264
0 0.024062434 0.039063606 -0.4048202 0 -0.25019264
0.0013175629 0.022833843 0.039999999 -0.4048202 0 -0.25019264
5.5511151e-17 0.021457434 0.039053828 -0.4048202 0 -0.25019264
5.5511151e-17 0.020155413 0.039049357 -0.4048202 0 -0.25019264
0 0.018853687 0.039045166 -0.4048202 0 -0.25019264
0 0.017552236 0.039041258 -0.4048202 0 -0.25019264
5.5511151e-17 0.016251042 0.039037626 -0.4048202 0 -0.25019264
5.5511151e-17 0.014950085 0.039034277 -0.4048202 0 -0.25019264
5.5511151e-17 0.013649347 0.039031208 -0.4048202 0 -0.25019264
0 0.012348808 0.039028417 -0.4048202 0 -0.25019264
5.5511151e-17 0.01104845 0.039025903 -0.4048202 0 -0.25019264
5.5511151e-17 0.009748253 0.039023671 -0.4048202 0 -0.25019264
0 0.0084481984 0.039021719 -0.4048202 0 -0.25019264
0 0.0071482668 0.039020047 -0.4048202 0 -0.25019264
5.5511151e-17 0.0058484394 0.03901865 -0.4048202 0 -0.25019264
0 0.0045486977 0.039017536 -0.4048202 0 -0.25019264
0 0.0032490224 0.039016698 -0.4048202 0 -0.25019264
0 0.0019493945 0.039016139 -0.4048202 0 -0.25019264
0 0.00064979499 0.039015859 -0.4048202 0 -0.25019264
0 0.079196632 0.037912253 -0.4048202 0 -0.25019264
0 0.077864647 0.037895881 -0.4048202 0 -0.25019264
5.5511151e-17 0.076533824 0.037879787 -0.4048202 0 -0.25019264
5.5511151e-17 0.075204141 0.037863981 -0.4048202 0 -0.25019264
5.5511151e-17 0.073875584 0.037848458 -0.4048202 0 -0.25019264
0 0.072548121 0.037833218 -0.4048202 0 -0.25019264
0 0.071221747 0.03781826 -0.4048202 0 -0.25019264
0 0.069896422 0.037803583 -0.4048202 0 -0.25019264
0 0.068572141 0.037789188 -0.4048202 0 -0.25019264
5.5511151e-17 0.067248881 0.037775073 -0.4048202 0 -0.25019264
0 0.065926611 0.037761237 -0.4048202 0 -0.25019264
5.5511151e-17 0.064605325 0.037747681 -0.4048202 0 -0.25019264
0.037734665 0.069184005 0.064573064 -0.4048202 0 -0.25019264
5.5511151e-17 0.061965607 0.037721407 -0.4048202 0 -0.25019264
0 0.06064713 0.037708689 -0.4048202 0 -0.25019264
0 0.059329551 0.037696246 -0.4048202 0 -0.25019264
5.5511151e-17 0.058012851 0.037684083 -0.4048202 0 -0.25019264
0 0.056697004 0.037672192 -0.4048202 0 -0.25019264
5.5511151e-17 0.055381995 0.03766058 -0.4048202 0 -0.25019264
0 0.054067802 0.037649244 -0.4048202 0 -0.25019264
5.5511151e-17 0.05275441 0.037638184 -0.4048202 0 -0.25019264
0 0.051441789 0.037627399 -0.4048202 0 -0.25019264
0 0.050129931 0.037616886 -0.4048202 0 -0.25019264
0 0.048818808 0.037606653 -0.4048202 0 -0.25019264
0 0.047508404 0.037596688 -0.4048202 0 -0.25019264
0 0.046198696 0.037586998 -0.4048202 0 -0.25019264
0 0.044889666 0.037577584 -0.4048202 0 -0.25019264
0 0.043581299 0.037568439 -0.4048202 0 -0.25019264
5.5511151e-17 0.04227357 0.037559569 -0.4048202 0 -0.25019264
5.5511151e-17 0.040966462 0.037550971 -0.4048202 0 -0.25019264
0 0.039659951 0.037542645 -0.4048202 0 -0.25019264
5.5511151e-17 0.038354024 0.037534587 -0.4048202 0 -0.25019264
0 0.03704866 0.037526805 -0.4048202 0 -0.25019264
0.0034904385 0.036052026 0.039999999 -0.4048202 0 -0.25019264
0 0.034439538 0.037512049 -0.4048202 0 -0.25019264
0 0.033135742 0.037505075 -0.4048202 0 -0.25019264
5.5511151e-17 0.031832431 0.037498374 -0.4048202 0 -0.25019264
0 0.030529585 0.037491944 -0.4048202 0 -0.25019264
0 0.029227186 0.037485782 -0.4048202 0 -0.25019264
5.5511151e-17 0.027925214 0.037479889 -0.4048202 0 -0.25019264
0 0.02662365 0.037474267 -0.4048202 0 -0.25019264
0 0.025322475 0.037468914 -0.4048202 0 -0.25019264
0 0.024021668 0.037463825 -0.4048202 0 -0.25019264
5.5511151e-17 0.022721212 0.037459012 -0.4048202 0 -0.25019264
0 0.021421088 0.037454464 -0.4048202 0 -0.25019264
0 0.020121278 0.037450183 -0.4048202 0 -0.25019264
0 0.018821759 0.037446171 -0.4048202 0 -0.25019264
0 0.017522516 0.037442427 -0.4048202 0 -0.25019264
0 0.016223527 0.037438951 -0.4048202 0 -0.25019264
0 0.014924776 0.037435744 -0.4048202 0 -0.25019264
5.5511151e-17 0.013626241 0.037432805 -0.4048202 0 -0.25019264
5.5511151e-17 0.012327906 0.037430134 -0.4048202 0 -0.25019264
5.5511151e-17 0.01102975 0.037427727 -0.4048202 0 -0.25019264
0 0.0097317537 0.037425593 -0.4048202 0 -0.25019264
0 0.0084339008 0.037423722 -0.4048202 0 -0.25019264
0 0.0071361694 0.037422121 -0.4048202 0 -0.25019264
5.5511151e-17 0.0058385422 0.037420783 -0.4048202 0 -0.25019264
0 0.0045410004 0.037419714 -0.4048202 0 -0.25019264
0 0.0032435246 0.037418913 -0.4048202 0 -0.25019264
5.5511151e-17 0.0019460958 0.03741838 -0.4048202 0 -0.25019264
5.5511151e-17 0.00064869545 0.037418112 -0.4048202 0 -0.25019264
5.5511151e-17 0.079061128 0.036298607 -0.4048202 0 -0.25019264
0 0.077731475 0.036282957 -0.4048202 0 -0.25019264
0 0.076402985 0.036267579 -0.4048202 0 -0.25019264
5.5511151e-17 0.075075634 0.036252469 -0.4048202 0 -0.25019264
0 0.073749393 0.036237631 -0.4048202 0 -0.25019264
5.5511151e-17 0.072424255 0.036223065 -0.4048202 0 -0.25019264
0 0.071100183 0.036208767 -0.4048202 0 -0.25019264
0 0.069777176 0.036194738 -0.4048202 0 -0.25019264
0 0.068455197 0.036180981 -0.4048202 0 -0.25019264
0 0.067134231 0.036167488 -0.4048202 0 -0.25019264
5.5511151e-17 0.065814264 0.036154266 -0.4048202 0 -0.25019264
0 0.064495273 0.03614131 -0.4048202 0 -0.25019264
5.5511151e-17 0.063177228 0.036128618 -0.4048202 0 -0.25019264
0 0.061860118 0.036116198 -0.4048202 0 -0.25019264
0 0.060543921 0.036104038 -0.4048202 0 -0.25019264
0 0.059228618 0.036092147 -0.4048202 0 -0.25019264
0 0.057914186 0.036080517 -0.4048202 0 -0.25019264
0 0.056600608 0.036069155 -0.4048202 0 -0.25019264
0 0.055287864 0.036058057 -0.4048202 0 -0.25019264
0 0.053975936 0.03604722 -0.4048202 0 -0.25019264
0 0.052664798 0.036036648 -0.4048202 0 -0.25019264
0 0.051354434 0.03602634 -0.4048202 0 -0.25019264
0 0.050044827 0.036016293 -0.4048202 0 -0.25019264
0 0.04873595 0.03600651 -0.4048202 0 -0.25019264
0 0.047427792 0.035996985 -0.4048202 0 -0.25019264
5.5511151e-17 0.046120327 0.035987724 -0.4048202 0 -0.25019264
0 0.04481354 0.035978723 -0.4048202 0 -0.25019264
0 0.043507408 0.035969984 -0.4048202 0 -0.25019264
0 0.042201914 0.035961505 -0.4048202 0 -0.25019264
0 0.040897034 0.035953287 -0.4048202 0 -0.25019264
0 0.039592754 0.03594533 -0.4048202 0 -0.25019264
5.5511151e-17 0.038289055 0.03593763 -0.4048202 0 -0.25019264
0 0.036985915 0.03593019 -0.4048202 0 -0.25019264
0 0.035683315 0.035923008 -0.4048202 0 -0.25019264
0.0057784012 0.034871992 0.039999999 -0.4048202 0 -0.25019264
5.5511151e-17 0.033079654 0.035909422 -0.4048202 0 -0.25019264
0 0.031778559 0.035903014 -0.4048202 0 -0.25019264
0 0.030477928 0.035896868 -0.4048202 0 -0.25019264
5.5511151e-17 0.02917774 0.035890978 -0.4048202 0 -0.25019264
0 0.027877979 0.035885345 -0.4048202 0 -0.25019264
5.5511151e-17 0.026578622 0.03587997 -0.4048202 0 -0.25019264
5.5511151e-17 0.025279654 0.035874855 -0.4048202 0 -0.25019264
0 0.023981053 0.035869993 -0.4048202 0 -0.25019264
5.5511151e-17 0.022682801 0.035865389 -0.4048202 0 -0.25019264
0 0.02138488 0.035861041 -0.4048202 0 -0.25019264
0.0058632819 0.020378206 0.039999999 -0.4048202 0 -0.25019264
0 0.018789951 0.035853118 -0.4048202 0 -0.25019264
5.5511151e-17 0.017492905 0.035849538 -0.4048202 0 -0.25019264
0 0.016196115 0.035846218 -0.4048202 0 -0.25019264
0 0.01489956 0.035843153 -0.4048202 0 -0.25019264
5.5511151e-17 0.013603222 0.03584034 -0.4048202 0 -0.25019264
0 0.012307081 0.035837788 -0.4048202 0 -0.25019264
0 0.011011119 0.03583549 -0.4048202 0 -0.25019264
0 0.0097153168 0.035833444 -0.4048202 0 -0.25019264
5.5511151e-17 0.0084196562 0.03583166 -0.4048202 0 -0.25019264
0 0.0071241171 0.035830125 -0.4048202 0 -0.25019264
0 0.0058286823 0.035828851 -0.4048202 0 -0.25019264
0 0.0045333318 0.03582783 -0.4048202 0 -0.25019264
5.5511151e-17 0.003238047 0.035827063 -0.4048202 0 -0.25019264
0 0.0019428094 0.035826553 -0.4048202 0 -0.25019264
5.5511151e-17 0.00064759998 0.035826296 -0.4048202 0 -0.25019264
5.5511151e-17 0.078926131 0.034690991 -0.4048202 0 -0.25019264
0 0.07759881 0.03467606 -0.4048202 0 -0.25019264
0 0.076272637 0.034661386 -0.4048202 0 -0.25019264
0 0.074947603 0.034646973 -0.4048202 0 -0.25019264
0 0.07362368 0.034632817 -0.4048202 0 -0.25019264
5.5511151e-17 0.072300844 0.034618918 -0.4048202 0 -0.25019264
0 0.070979081 0.034605276 -0.4048202 0 -0.25019264
0 0.069658369 0.034591895 -0.4048202 0 -0.25019264
5.5511151e-17 0.068338692 0.034578767 -0.4048202 0 -0.25019264
0 0.067020014 0.034565892 -0.4048202 0 -0.25019264
0 0.065702334 0.034553278 -0.4048202 0 -0.25019264
0 0.064385623 0.034540914 -0.4048202 0 -0.25019264
0 0.063069858 0.034528807 -0.4048202 0 -0.25019264
5.5511151e-17 0.06175502 0.034516953 -0.4048202 0 -0.25019264
0 0.060441095 0.034505356 -0.4048202 0 -0.25019264
0 0.059128057 0.034494009 -0.4048202 0 -0.25019264
5.5511151e-17 0.057815891 0.034482915 -0.4048202 0 -0.25019264
0.039887697 0.062072076 0.062520623 -0.4048202 0 -0.25019264
0 0.055194087 0.034461483 -0.4048202 0 -0.25019264
0 0.053884409 0.034451146 -0.4048202 0 -0.25019264
5.5511151e-17 0.052575521 0.034441058 -0.4048202 0 -0.25019264
0.039628394 0.056286041 0.062293436 -0.4048202 0 -0.25019264
0.039284665 0.054808274 0.062041249 -0.4048202 0 -0.25019264
0 0.048653405 0.034412302 -0.4048202 0 -0.25019264
0 0.047347482 0.034403216 -0.4048202 0 -0.25019264
0 0.046042252 0.03439438 -0.4048202 0 -0.25019264
0 0.044737693 0.034385793 -0.4048202 0 -0.25019264
0 0.043433789 0.034377456 -0.4048202 0 -0.25019264
0 0.042130522 0.034369364 -0.4048202 0 -0.25019264
5.5511151e-17 0.040827867 0.034361523 -0.4048202 0 -0.25019264
5.5511151e-17 0.039525807 0.034353931 -0.4048202 0 -0.25019264
0 0.038224325 0.034346584 -0.4048202 0 -0.25019264
5.5511151e-17 0.036923401 0.034339484 -0.4048202 0 -0.25019264
0 0.035623014 0.034332633 -0.4048202 0 -0.25019264
0 0.034323145 0.034326028 -0.4048202 0 -0.25019264
0 0.033023778 0.034319669 -0.4048202 0 -0.25019264
5.5511151e-17 0.031724889 0.03431356 -0.4048202 0 -0.25019264
0 0.030426463 0.034307692 -0.4048202 0 -0.25019264
0 0.029128479 0.034302074 -0.4048202 0 -0.25019264
0 0.027830917 0.034296699 -0.4048202 0 -0.25019264
5.5511151e-17 0.026533762 0.034291573 -0.4048202 0 -0.25019264
0 0.025236992 0.034286689 -0.4048202 0 -0.25019264
5.5511151e-17 0.023940587 0.034282051 -0.4048202 0 -0.25019264
5.5511151e-17 0.022644533 0.034277659 -0.4048202 0 -0.25019264
0 0.021348804 0.034273509 -0.4048202 0 -0.25019264
0 0.020053387 0.034269609 -0.4048202 0 -0.25019264
0 0.01875826 0.03426595 -0.4048202 0 -0.25019264
0 0.017463407 0.034262534 -0.4048202 0 -0.25019264
0 0.016168805 0.034259368 -0.4048202 0 -0.25019264
0 0.014874438 0.03425644 -0.4048202 0 -0.25019264
0 0.013580287 0.034253761 -0.4048202 0 -0.25019264
0 0.012286333 0.034251325 -0.4048202 0 -0.25019264
0 0.010992557 0.034249131 -0.4048202 0 -0.25019264
5.5511151e-17 0.0096989404 0.034247182 -0.4048202 0 -0.25019264
5.5511151e-17 0.0084054638 0.034245476 -0.4048202 0 -0.25019264
5.5511151e-17 0.0071121096 0.034244012 -0.4048202 0 -0.25019264
0 0.0058188583 0.034242794 -0.4048202 0 -0.25019264
0 0.0045256913 0.034241822 -0.4048202 0 -0.25019264
0 0.0032325897 0.034241091 -0.4048202 0 -0.25019264
5.5511151e-17 0.0019395351 0.034240603 -0.4048202 0 -0.25019264
0 0.00064650859 0.034240361 -0.4048202 0 -0.25019264
0 0.078791633 0.033089351 -0.4048202 0 -0.25019264
0 0.077466629 0.033075131 -0.4048202 0 -0.25019264
5.5511151e-17 0.07614278 0.033061158 -0.4048202 0 -0.25019264
5.5511151e-17 0.074820049 0.033047434 -0.4048202 0 -0.25019264
0 0.073498428 0.033033956 -0.4048202 0 -0.25019264
0 0.072177894 0.03302072 -0.4048202 0 -0.25019264
5.5511151e-17 0.070858426 0.03300773 -0.4048202 0 -0.25019264
0 0.069540009 0.032994986 -0.4048202 0 -0.25019264
0 0.068222612 0.032982487 -0.4048202 0 -0.25019264
5.5511151e-17 0.066906221 0.032970231 -0.4048202 0 -0.25019264
0 0.065590814 0.032958217 -0.4048202 0 -0.25019264
0 0.064276375 0.032946445 -0.4048202 0 -0.25019264
5.5511151e-17 0.062962882 0.032934915 -0.4048202 0 -0.25019264
0 0.061650313 0.032923631 -0.4048202 0 -0.25019264
0 0.06033865 0.032912586 -0.4048202 0 -0.25019264
0 0.059027873 0.032901779 -0.4048202 0 -0.25019264
0 0.05771796 0.032891218 -0.4048202 0 -0.25019264
0 0.056408893 0.032880891 -0.4048202 0 -0.25019264
0 0.055100653 0.03287081 -0.4048202 0 -0.25019264
0 0.053793222 0.032860965 -0.4048202 0 -0.25019264
5.5511151e-17 0.052486572 0.032851361 -0.4048202 0 -0.25019264
5.5511151e-17 0.051180694 0.032841995 -0.4048202 0 -0.25019264
0 0.049875561 0.032832865 -0.4048202 0 -0.25019264
0 0.048571158 0.032823976 -0.4048202 0 -0.25019264
0 0.047267467 0.032815326 -0.4048202 0 -0.25019264
0 0.045964461 0.032806911 -0.4048202 0 -0.25019264
0 0.044662129 0.032798734 -0.4048202 0 -0.25019264
0 0.043360446 0.032790795 -0.4048202 0 -0.25019264
0 0.042059392 0.032783091 -0.4048202 0 -0.25019264
5.5511151e-17 0.040758952 0.032775622 -0.4048202 0 -0.25019264
0 0.039459106 0.032768391 -0.4048202 0 -0.25019264
0 0.038159836 0.032761395 -0.4048202 0 -0.25019264
0 0.036861118 0.032754637 -0.4048202 0 -0.25019264
0 0.035562936 0.032748114 -0.4048202 0 -0.25019264
0 0.034265272 0.032741822 -0.4048202 0 -0.25019264
0 0.032968104 0.032735769 -0.4048202 0 -0.25019264
0 0.031671416 0.03272995 -0.4048202 0 -0.25019264
0 0.030375186 0.032724362 -0.4048202 0 -0.25019264
0 0.029079398 0.032719012 -0.4048202 0 -0.25019264
0 0.027784031 0.032713894 -0.4048202 0 -0.25019264
0 0.026489068 0.032709014 -0.4048202 0 -0.25019264
5.5511151e-17 0.025194487 0.032704361 -0.4048202 0 -0.25019264
5.5511151e-17 0.023900272 0.032699946 -0.4048202 0 -0.25019264
0 0.022606403 0.032695763 -0.4048202 0 -0.25019264
0 0.021312863 0.032691814 -0.4048202 0 -0.25019264
5.5511151e-17 0.02001963 0.032688096 -0.4048202 0 -0.25019264
5.5511151e-17 0.018726686 0.032684613 -0.4048202 0 -0.25019264
5.5511151e-17 0.017434014 0.032681365 -0.4048202 0 -0.25019264
0 0.016141593 0.032678343 -0.4048202 0 -0.25019264
5.5511151e-17 0.014849409 0.032675561 -0.4048202 0 -0.25019264
5.5511151e-17 0.013557437 0.032673005 -0.4048202 0 -0.25019264
0 0.012265661 0.032670684 -0.4048202 0 -0.25019264
0 0.010974064 0.032668598 -0.4048202 0 -0.25019264
5.5511151e-17 0.0096826237 0.032666743 -0.4048202 0 -0.25019264
0 0.0083913244 0.032665119 -0.4048202 0 -0.25019264
0 0.0071001458 0.032663725 -0.4048202 0 -0.25019264
0 0.0058090705 0.032662567 -0.4048202 0 -0.25019264
5.5511151e-17 0.0045180791 0.032661639 -0.4048202 0 -0.25019264
0 0.0032271526 0.032660943 -0.4048202 0 -0.25019264
0 0.0019362728 0.032660477 -0.4048202 0 -0.25019264
0 0.00064542121 0.032660246 -0.4048202 0 -0.25019264
0 0.079981498 0.031507373 -0.4048202 0 -0.25019264
5.5511151e-17 0.078657635 0.031493627 -0.4048202 0 -0.25019264
5.5511151e-17 0.077334948 0.031480119 -0.4048202 0 -0.25019264
5.5511151e-17 0.076013394 0.031466842 -0.4048202 0 -0.25019264
5.5511151e-17 0.074692965 0.031453799 -0.4048202 0 -0.25019264
5.5511151e-17 0.073373646 0.031440992 -0.4048202 0 -0.25019264
0 0.072055399 0.031428419 -0.4048202 0 -0.25019264
0 0.070738219 0.031416077 -0.4048202 0 -0.25019264
5.5511151e-17 0.069422081 0.031403966 -0.4048202 0 -0.25019264
0 0.068106964 0.03139209 -0.4048202 0 -0.25019264
5.5511151e-17 0.066792846 0.031380445 -0.4048202 0 -0.25019264
5.5511151e-17 0.065479711 0.03136903 -0.4048202 0 -0.25019264
0 0.064167537 0.031357843 -0.4048202 0 -0.25019264
5.5511151e-17 0.062856302 0.031346891 -0.4048202 0 -0.25019264
0 0.06154599 0.031336166 -0.4048202 0 -0.25019264
0 0.060236581 0.031325672 -0.4048202 0 -0.25019264
5.5511151e-17 0.058928054 0.031315405 -0.4048202 0 -0.25019264
0 0.057620388 0.031305369 -0.4048202 0 -0.25019264
0 0.056313563 0.031295557 -0.4048202 0 -0.25019264
0.039976176 0.060439587 0.059082113 -0.4048202 0 -0.25019264
5.5511151e-17 0.053702366 0.031276625 -0.4048202 0 -0.25019264
0 0.052397951 0.031267498 -0.4048202 0 -0.25019264
5.5511151e-17 0.051094301 0.031258598 -0.4048202 0 -0.25019264
5.5511151e-17 0.049791399 0.031249924 -0.4048202 0 -0.25019264
5.5511151e-17 0.048489217 0.031241478 -0.4048202 0 -0.25019264
0 0.047187746 0.031233257 -0.4048202 0 -0.25019264
5.5511151e-17 0.045886956 0.031225262 -0.4048202 0 -0.25019264
5.5511151e-17 0.044586837 0.031217493 -0.4048202 0 -0.25019264
0 0.043287367 0.031209948 -0.4048202 0 -0.25019264
5.5511151e-17 0.041988526 0.031202627 -0.4048202 0 -0.25019264
0 0.040690292 0.031195533 -0.4048202 0 -0.25019264
0 0.03939265 0.031188661 -0.4048202 0 -0.25019264
5.5511151e-17 0.038095579 0.031182015 -0.4048202 0 -0.25019264
5.5511151e-17 0.036799062 0.031175593 -0.4048202 0 -0.25019264
0 0.035503078 0.031169392 -0.4048202 0 -0.25019264
0 0.034207609 0.031163417 -0.4048202 0 -0.25019264
0 0.032912634 0.031157663 -0.4048202 0 -0.25019264
5.5511151e-17 0.031618137 0.031152135 -0.4048202 0 -0.25019264
0 0.030324098 0.031146826 -0.4048202 0 -0.25019264
0 0.029030496 0.031141743 -0.4048202 0 -0.25019264
0 0.027737314 0.03113688 -0.4048202 0 -0.25019264
0 0.026444536 0.03113224 -0.4048202 0 -0.25019264
0 0.025152138 0.031127822 -0.4048202 0 -0.25019264
0.012773294 0.024612961 0.039999999 -0.4048202 0 -0.25019264
0 0.022568414 0.031119652 -0.4048202 0 -0.25019264
0 0.021277051 0.031115899 -0.4048202 0 -0.25019264
5.5511151e-17 0.019985994 0.031112367 -0.4048202 0 -0.25019264
0 0.018695228 0.031109057 -0.4048202 0 -0.25019264
0 0.01740473 0.031105967 -0.4048202 0 -0.25019264
0 0.016114483 0.031103101 -0.4048202 0 -0.25019264
5.5511151e-17 0.01482447 0.031100454 -0.4048202 0 -0.25019264
0 0.01353467 0.031098027 -0.4048202 0 -0.25019264
5.5511151e-17 0.012245065 0.031095823 -0.4048202 0 -0.25019264
0 0.010955636 0.031093838 -0.4048202 0 -0.25019264
5.5511151e-17 0.0096663665 0.031092074 -0.4048202 0 -0.25019264
5.5511151e-17 0.0083772363 0.031090531 -0.4048202 0 -0.25019264
0 0.0070882263 0.031089209 -0.4048202 0 -0.25019264
0 0.0057993182 0.031088106 -0.4048202 0 -0.25019264
0 0.0045104944 0.031087225 -0.4048202 0 -0.25019264
0 0.0032217351 0.031086564 -0.4048202 0 -0.25019264
0 0.0019330225 0.031086123 -0.4048202 0 -0.25019264
0 0.00064433774 0.031085903 -0.4048202 0 -0.25019264
0 0.079845682 0.029916799 -0.4048202 0 -0.25019264
0 0.078524135 0.029903769 -0.4048202 0 -0.25019264
0 0.077203743 0.029890964 -0.4048202 0 -0.25019264
5.5511151e-17 0.075884484 0.02987838 -0.4048202 0 -0.25019264
0 0.074566349 0.029866017 -0.4048202 0 -0.25019264
5.5511151e-17 0.07324931 0.029853877 -0.4048202 0 -0.25019264
5.5511151e-17 0.071933351 0.029841958 -0.4048202 0 -0.25019264
5.5511151e-17 0.070618451 0.029830258 -0.4048202 0 -0.25019264
0 0.069304585 0.029818781 -0.4048202 0 -0.25019264
0 0.067991734 0.029807521 -0.4048202 0 -0.25019264
0 0.066679887 0.029796483 -0.4048202 0 -0.25019264
0 0.06536901 0.029785661 -0.4048202 0 -0.25019264
0 0.064059094 0.029775059 -0.4048202 0 -0.25019264
5.5511151e-17 0.062750116 0.029764676 -0.4048202 0 -0.25019264
0 0.061442051 0.02975451 -0.4048202 0 -0.25019264
0 0.060134888 0.029744562 -0.4048202 0 -0.25019264
0 0.0588286 0.029734829 -0.4048202 0 -0.25019264
0 0.057523172 0.029725315 -0.4048202 0 -0.25019264
0 0.056218583 0.029716017 -0.4048202 0 -0.25019264
0 0.054914813 0.029706934 -0.4048202 0 -0.25019264
0.03994045 0.058901306 0.057312701 -0.4048202 0 -0.25019264
5.5511151e-17 0.052309655 0.029689416 -0.4048202 0 -0.25019264
5.5511151e-17 0.051008228 0.02968098 -0.4048202 0 -0.25019264
0 0.049707539 0.029672759 -0.4048202 0 -0.25019264
0 0.048407577 0.029664753 -0.4048202 0 -0.25019264
0 0.047108315 0.02965696 -0.4048202 0 -0.25019264
0 0.045809735 0.029649381 -0.4048202 0 -0.25019264
0 0.044511825 0.029642016 -0.4048202 0 -0.25019264
0 0.043214556 0.029634865 -0.4048202 0 -0.25019264
0.033626586 0.045399848 0.052871358 -0.4048202 0 -0.25019264
0 0.04062188 0.029621201 -0.4048202 0 -0.25019264
5.5511151e-17 0.039326437 0.029614687 -0.4048202 0 -0.25019264
0 0.038031559 0.029608386 -0.4048202 0 -0.25019264
0 0.036737233 0.029602297 -0.4048202 0 -0.25019264
5.5511151e-17 0.035443436 0.02959642 -0.4048202 0 -0.25019264
0 0.034150157 0.029590756 -0.4048202 0 -0.25019264
5.5511151e-17 0.032857366 0.029585302 -0.4048202 0 -0.25019264
0 0.031565052 0.02958006 -0.4048202 0 -0.25019264
0 0.030273193 0.029575029 -0.4048202 0 -0.25019264
0 0.028981771 0.029570209 -0.4048202 0 -0.25019264
5.5511151e-17 0.027690768 0.029565601 -0.4048202 0 -0.25019264
0 0.026400166 0.029561201 -0.4048202 0 -0.25019264
5.5511151e-17 0.025109941 0.029557014 -0.4048202 0 -0.25019264
5.5511151e-17 0.02382008 0.029553035 -0.4048202 0 -0.25019264
0 0.022530563 0.029549269 -0.4048202 0 -0.25019264
0 0.021241369 0.029545711 -0.4048202 0 -0.25019264
0 0.019952482 0.029542364 -0.4048202 0 -0.25019264
0 0.018663883 0.029539226 -0.4048202 0 -0.25019264
0 0.017375551 0.029536298 -0.4048202 0 -0.25019264
0 0.016087471 0.02953358 -0.4048202 0 -0.25019264
5.5511151e-17 0.014799622 0.029531069 -0.4048202 0 -0.25019264
0 0.013511986 0.029528771 -0.4048202 0 -0.25019264
0 0.012224544 0.029526681 -0.4048202 0 -0.25019264
0 0.010937277 0.029524799 -0.4048202 0 -0.25019264
5.5511151e-17 0.0096501689 0.029523127 -0.4048202 0 -0.25019264
0 0.0083631994 0.029521665 -0.4048202 0 -0.25019264
5.5511151e-17 0.0070763496 0.029520411 -0.4048202 0 -0.25019264
0 0.0057896017 0.029519366 -0.4048202 0 -0.25019264
5.5511151e-17 0.0045029372 0.02951853 -0.4048202 0 -0.25019264
0 0.0032163374 0.029517904 -0.4048202 0 -0.25019264
0 0.001929784 0.029517487 -0.4048202 0 -0.25019264
5.5511151e-17 0.00064325827 0.029517276 -0.4048202 0 -0.25019264
5.5511151e-17 0.079710372 0.028332042 -0.4048202 0 -0.25019264
5.5511151e-17 0.078391112 0.028319724 -0.4048202 0 -0.25019264
0 0.077073015 0.028307617 -0.4048202 0 -0.25019264
0 0.075756051 0.028295718 -0.4048202 0 -0.25019264
0 0.074440196 0.028284032 -0.4048202 0 -0.25019264
0 0.073125437 0.028272554 -0.4048202 0 -0.25019264
5.5511151e-17 0.071811751 0.028261285 -0.4048202 0 -0.25019264
0 0.070499115 0.028250225 -0.4048202 0 -0.25019264
0 0.069187514 0.028239371 -0.4048202 0 -0.25019264
0.034586117 0.07367605 0.052015863 -0.4048202 0 -0.25019264
0 0.066567339 0.02821829 -0.4048202 0 -0.25019264
0 0.065258712 0.02820806 -0.4048202 0 -0.25019264
0 0.063951045 0.028198037 -0.4048202 0 -0.25019264
0 0.06264431 0.028188219 -0.4048202 0 -0.25019264
0.038631942 0.067192011 0.054743543 -0.4048202 0 -0.25019264
5.5511151e-17 0.06003356 0.028169202 -0.4048202 0 -0.25019264
0 0.058729507 0.028160002 -0.4048202 0 -0.25019264
0.039735131 0.063062988 0.05547183 -0.4048202 0 -0.25019264
0 0.05612395 0.028142216 -0.4048202 0 -0.25019264
0 0.0548224 0.028133629 -0.4048202 0 -0.25019264
0 0.053521652 0.028125245 -0.4048202 0 -0.25019264
0 0.052221678 0.028117066 -0.4048202 0 -0.25019264
0 0.050922465 0.02810909 -0.4048202 0 -0.25019264
0 0.049623985 0.028101318 -0.4048202 0 -0.25019264
0 0.048326228 0.028093748 -0.4048202 0 -0.25019264
5.5511151e-17 0.047029171 0.028086379 -0.4048202 0 -0.25019264
0 0.045732796 0.028079215 -0.4048202 0 -0.25019264
0 0.044437081 0.028072251 -0.4048202 0 -0.25019264
0 0.04314201 0.02806549 -0.4048202 0 -0.25019264
0 0.041847561 0.028058929 -0.4048202 0 -0.25019264
0 0.040553719 0.02805257 -0.4048202 0 -0.25019264
0 0.039260462 0.028046412 -0.4048202 0 -0.25019264
0 0.037967771 0.028040456 -0.4048202 0 -0.25019264
0 0.036675628 0.028034698 -0.4048202 0 -0.25019264
5.5511151e-17 0.035384014 0.028029142 -0.4048202 0 -0.25019264
5.5511151e-17 0.034092911 0.028023787 -0.4048202 0 -0.25019264
5.5511151e-17 0.032802299 0.028018631 -0.4048202 0 -0.25019264
5.5511151e-17 0.03151216 0.028013675 -0.4048202 0 -0.25019264
0 0.030222474 0.028008917 -0.4048202 0 -0.25019264
0 0.028933225 0.028004361 -0.4048202 0 -0.25019264
0 0.02764439 0.028000003 -0.4048202 0 -0.25019264
0 0.026355956 0.027995845 -0.4048202 0 -0.25019264
0 0.025067899 0.027991885 -0.4048202 0 -0.25019264
5.5511151e-17 0.023780202 0.027988125 -0.4048202 0 -0.25019264
0 0.022492848 0.027984561 -0.4048202 0 -0.25019264
0 0.021205818 0.027981199 -0.4048202 0 -0.25019264
5.5511151e-17 0.019919092 0.027978035 -0.4048202 0 -0.25019264
0 0.018632652 0.027975067 -0.4048202 0 -0.25019264
0 0.017346479 0.0279723 -0.4048202 0 -0.25019264
0 0.016060555 0.027969729 -0.4048202 0 -0.25019264
0 0.014774864 0.027967356 -0.4048202 0 -0.25019264
0 0.013489383 0.027965182 -0.4048202 0 -0.25019264
5.5511151e-17 0.012204096 0.027963206 -0.4048202 0 -0.25019264
0 0.010918984 0.027961427 -0.4048202 0 -0.25019264
5.5511151e-17 0.0096340291 0.027959846 -0.4048202 0 -0.25019264
0 0.0083492128 0.027958464 -0.4048202 0 -0.25019264
0 0.0070645157 0.027957279 -0.4048202 0 -0.25019264
5.5511151e-17 0.0057799201 0.02795629 -0.4048202 0 -0.25019264
0 0.0044954075 0.0279555 -0.4048202 0 -0.25019264
0 0.0032109593 0.027954908 -0.4048202 0 -0.25019264
5.5511151e-17 0.0019265572 0.027954513 -0.4048202 0 -0.25019264
0 0.00064218265 0.027954316 -0.4048202 0 -0.25019264
0 0.079575546 0.026753047 -0.4048202 0 -0.25019264
0 0.078258581 0.026741434 -0.4048202 0 -0.25019264
0 0.076942764 0.026730021 -0.4048202 0 -0.25019264
5.5511151e-17 0.075628079 0.026718806 -0.4048202 0 -0.25019264
0 0.074314497 0.026707789 -0.4048202 0 -0.25019264
0 0.073002011 0.026696969 -0.4048202 0 -0.25019264
0 0.071690589 0.026686346 -0.4048202 0 -0.25019264
0 0.070380218 0.026675919 -0.4048202 0 -0.25019264
0 0.069070876 0.026665689 -0.4048202 0 -0.25019264
0 0.067762539 0.026655655 -0.4048202 0 -0.25019264
0 0.066455193 0.026645815 -0.4048202 0 -0.25019264
5.5511151e-17 0.065148816 0.026636172 -0.4048202 0 -0.25019264
5.5511151e-17 0.063843392 0.026626723 -0.4048202 0 -0.25019264
0 0.062538892 0.026617467 -0.4048202 0 -0.25019264
0 0.061235301 0.026608407 -0.4048202 0 -0.25019264
0 0.059932604 0.026599541 -0.4048202 0 -0.25019264
0 0.058630776 0.026590869 -0.4048202 0 -0.25019264
0 0.0573298 0.026582388 -0.4048202 0 -0.25019264
0 0.056029655 0.026574101 -0.4048202 0 -0.25019264
0 0.054730322 0.026566006 -0.4048202 0 -0.25019264
5.5511151e-17 0.053431783 0.026558103 -0.4048202 0 -0.25019264
0 0.052134018 0.026550394 -0.4048202 0 -0.25019264
5.5511151e-17 0.05083701 0.026542874 -0.4048202 0 -0.25019264
0 0.049540736 0.026535546 -0.4048202 0 -0.25019264
0 0.048245177 0.026528411 -0.4048202 0 -0.25019264
0 0.046950314 0.026521465 -0.4048202 0 -0.25019264
0.03722484 0.049854394 0.05195906 -0.4048202 0 -0.25019264
0 0.044362608 0.026508145 -0.4048202 0 -0.25019264
0 0.043069724 0.026501771 -0.4048202 0 -0.25019264
0 0.041777462 0.026495587 -0.4048202 0 -0.25019264
0 0.040485799 0.026489593 -0.4048202 0 -0.25019264
0 0.039194722 0.026483787 -0.4048202 0 -0.25019264
5.5511151e-17 0.03790421 0.026478171 -0.4048202 0 -0.25019264
0 0.036614243 0.026472745 -0.4048202 0 -0.25019264
0 0.035324804 0.026467508 -0.4048202 0 -0.25019264
0 0.034035873 0.026462458 -0.4048202 0 -0.25019264
5.5511151e-17 0.032747429 0.026457598 -0.4048202 0 -0.25019264
5.5511151e-17 0.031459458 0.026452925 -0.4048202 0 -0.25019264
0 0.030171938 0.026448442 -0.4048202 0 -0.25019264
5.5511151e-17 0.028884852 0.026444146 -0.4048202 0 -0.25019264
5.5511151e-17 0.02759818 0.026440037 -0.4048202 0 -0.25019264
0 0.026311904 0.026436117 -0.4048202 0 -0.25019264
5.5511151e-17 0.025026007 0.026432384 -0.4048202 0 -0.25019264
0 0.023740469 0.026428839 -0.4048202 0 -0.25019264
0 0.022455269 0.026425481 -0.4048202 0 -0.25019264
0 0.021170393 0.026422311 -0.4048202 0 -0.25019264
0 0.019885819 0.026419327 -0.4048202 0 -0.25019264
0 0.018601533 0.026416529 -0.4048202 0 -0.25019264
0 0.017317511 0.026413919 -0.4048202 0 -0.25019264
5.5511151e-17 0.016033737 0.026411496 -0.4048202 0 -0.25019264
5.5511151e-17 0.014750194 0.026409261 -0.4048202 0 -0.25019264
0 0.013466862 0.02640721 -0.4048202 0 -0.25019264
0 0.012183722 0.026405348 -0.4048202 0 -0.25019264
0 0.010900757 0.026403671 -0.4048202 0 -0.25019264
0 0.009617948 0.026402181 -0.4048202 0 -0.25019264
0 0.0083352765 0.026400877 -0.4048202 0 -0.25019264
0 0.0070527247 0.02639976 -0.4048202 0 -0.25019264
0 0.0057702735 0.026398828 -0.4048202 0 -0.25019264
0 0.0044879047 0.026398083 -0.4048202 0 -0.25019264
0 0.0032056004 0.026397526 -0.4048202 0 -0.25019264
0 0.0019233419 0.026397154 -0.4048202 0 -0.25019264
0 0.00064111094 0.026396967 -0.4048202 0 -0.25019264
0 0.079441212 0.025179761 -0.4048202 0 -0.25019264
0 0.078126527 0.025168851 -0.4048202 0 -0.25019264
0 0.076812983 0.025158126 -0.4048202 0 -0.25019264
0 0.07550057 0.025147589 -0.4048202 0 -0.25019264
0 0.074189261 0.025137236 -0.4048202 0 -0.25019264
0 0.072879031 0.02512707 -0.4048202 0 -0.25019264
0 0.071569867 0.025117088 -0.4048202 0 -0.25019264
0 0.070261747 0.025107291 -0.4048202 0 -0.25019264
5.5511151e-17 0.068954654 0.025097679 -0.4048202 0 -0.25019264
0 0.06764856 0.025088251 -0.4048202 0 -0.25019264
0 0.066343457 0.025079006 -0.4048202 0 -0.25019264
0 0.065039314 0.025069945 -0.4048202 0 -0.25019264
0 0.063736118 0.025061065 -0.4048202 0 -0.25019264
0 0.06243385 0.025052371 -0.4048202 0 -0.25019264
0 0.061132483 0.025043856 -0.4048202 0 -0.25019264
0 0.059832007 0.025035525 -0.4048202 0 -0.25019264
0 0.058532398 0.025027376 -0.4048202 0 -0.25019264
0 0.057233635 0.025019407 -0.4048202 0 -0.25019264
0 0.055935699 0.025011621 -0.4048202 0 -0.25019264
0 0.054638576 0.025004014 -0.4048202 0 -0.25019264
0 0.053342238 0.02499659 -0.4048202 0 -0.25019264
0 0.052046675 0.024989344 -0.4048202 0 -0.25019264
0 0.050751861 0.024982279 -0.4048202 0 -0.25019264
5.5511151e-17 0.049457781 0.024975395 -0.4048202 0 -0.25019264
0 0.048164412 0.024968689 -0.4048202 0 -0.25019264
0 0.04687174 0.024962163 -0.4048202 0 -0.25019264
0 0.045579743 0.024955817 -0.4048202 0 -0.25019264
0 0.044288401 0.024949647 -0.4048202 0 -0.25019264
5.5511151e-17 0.042997696 0.024943659 -0.4048202 0 -0.25019264
0 0.041707613 0.024937848 -0.4048202 0 -0.25019264
0 0.040418126 0.024932215 -0.4048202 0 -0.25019264
0 0.03912922 0.024926759 -0.4048202 0 -0.25019264
5.5511151e-17 0.03784088 0.024921482 -0.4048202 0 -0.25019264
0 0.036553081 0.024916384 -0.4048202 0 -0.25019264
0 0.035265807 0.024911463 -0.4048202 0 -0.25019264
0 0.033979036 0.024906717 -0.4048202 0 -0.25019264
5.5511151e-17 0.032692757 0.02490215 -0.4048202 0 -0.25019264
0.0222243 0.03313116 0.039999999 -0.4048202 0 -0.25019264
0.022230839 0.03177572 0.039999999 -0.4048202 0 -0.25019264
0 0.028836653 0.02488951 -0.4048202 0 -0.25019264
0.022243099 0.029066004 0.039999999 -0.4048202 0 -0.25019264
0 0.026268011 0.024881966 -0.4048202 0 -0.25019264
0 0.024984265 0.024878459 -0.4048202 0 -0.25019264
0 0.023700876 0.024875129 -0.4048202 0 -0.25019264
0 0.022417825 0.024871973 -0.4048202 0 -0.25019264
0 0.021135096 0.024868993 -0.4048202 0 -0.25019264
5.5511151e-17 0.019852668 0.02486619 -0.4048202 0 -0.25019264
0.022277396 0.019592468 0.039999999 -0.4048202 0 -0.25019264
0 0.017288646 0.02486111 -0.4048202 0 -0.25019264
0 0.016007015 0.024858832 -0.4048202 0 -0.25019264
0 0.014725613 0.024856731 -0.4048202 0 -0.25019264
0 0.013444421 0.024854805 -0.4048202 0 -0.25019264
5.5511151e-17 0.012163421 0.024853054 -0.4048202 0 -0.25019264
0.022296157 0.011481972 0.039999999 -0.4048202 0 -0.25019264
0 0.0096019246 0.02485008 -0.4048202 0 -0.25019264
0 0.0083213905 0.024848854 -0.4048202 0 -0.25019264
0 0.0070409756 0.024847804 -0.4048202 0 -0.25019264
0 0.0057606613 0.02484693 -0.4048202 0 -0.25019264
0 0.004480429 0.02484623 -0.4048202 0 -0.25019264
0 0.0032002607 0.024845704 -0.4048202 0 -0.25019264
5.5511151e-17 0.0019201381 0.024845354 -0.4048202 0 -0.25019264
5.5511151e-17 0.000640043 0.024845179 -0.4048202 0 -0.25019264
0.0035355459 0.079999998 0.026003439 -0.4048202 0 -0.25019264
0 0.077994943 0.023601918 -0.4048202 0 -0.25019264
5.5511151e-17 0.07668367 0.023591878 -0.4048202 0 -0.25019264
5.5511151e-17 0.075373523 0.023582013 -0.4048202 0 -0.25019264
0 0.074064463 0.023572322 -0.4048202 0 -0.25019264
0 0.072756492 0.023562804 -0.4048202 0 -0.25019264
0 0.071449578 0.023553461 -0.4048202 0 -0.25019264
0 0.0701437 0.023544289 -0.4048202 0 -0.25019264
5.5511151e-17 0.06883885 0.023535291 -0.4048202 0 -0.25019264
0 0.067534991 0.023526464 -0.4048202 0 -0.25019264
0 0.066232122 0.023517808 -0.4048202 0 -0.25019264
5.5511151e-17 0.064930208 0.023509325 -0.4048202 0 -0.25019264
0 0.063629232 0.023501014 -0.4048202 0 -0.25019264
0 0.062329184 0.023492873 -0.4048202 0 -0.25019264
0 0.061030038 0.023484902 -0.4048202 0 -0.25019264
0 0.05973177 0.023477104 -0.4048202 0 -0.25019264
0.039557815 0.064144403 0.050210912 -0.4048202 0 -0.25019264
0 0.057137813 0.023462014 -0.4048202 0 -0.25019264
5.5511151e-17 0.055842079 0.023454724 -0.4048202 0 -0.25019264
0 0.054547153 0.023447603 -0.4048202 0 -0.25019264
0 0.053253014 0.023440652 -0.4048202 0 -0.25019264
0 0.051959641 0.02343387 -0.4048202 0 -0.25019264
0 0.050667018 0.023427255 -0.4048202 0 -0.25019264
0 0.049375124 0.023420809 -0.4048202 0 -0.25019264
0 0.048083939 0.023414532 -0.4048202 0 -0.25019264
0.03792626 0.051177368 0.049041197 -0.4048202 0 -0.25019264
0 0.045503628 0.02340248 -0.4048202 0 -0.25019264
5.5511151e-17 0.044214461 0.023396706 -0.4048202 0 -0.25019264
0 0.042925928 0.023391098 -0.4048202 0 -0.25019264
0 0.041638013 0.023385659 -0.4048202 0 -0.25019264
0 0.040350694 0.023380386 -0.4048202 0 -0.25019264
0 0.039063953 0.023375278 -0.4048202 0 -0.25019264
0.024608677 0.040074252 0.039999999 -0.4048202 0 -0.25019264
0 0.036492135 0.023365565 -0.4048202 0 -0.25019264
0 0.035207018 0.023360956 -0.4048202 0 -0.25019264
5.5511151e-17 0.033922404 0.023356516 -0.4048202 0 -0.25019264
0.02463709 0.034624621 0.039999999 -0.4048202 0 -0.25019264
5.5511151e-17 0.031354617 0.02334813 -0.4048202 0 -0.25019264
5.5511151e-17 0.030071406 0.023344185 -0.4048202 0 -0.25019264
0 0.028788622 0.023340406 -0.4048202 0 -0.25019264
5.5511151e-17 0.027506253 0.023336792 -0.4048202 0 -0.25019264
0 0.026224274 0.023333343 -0.4048202 0 -0.25019264
5.5511151e-17 0.02494267 0.023330059 -0.4048202 0 -0.25019264
0 0.023661423 0.023326941 -0.4048202 0 -0.25019264
5.5511151e-17 0.022380514 0.023323987 -0.4048202 0 -0.25019264
0 0.021099923 0.023321196 -0.4048202 0 -0.25019264
5.5511151e-17 0.019819634 0.023318572 -0.4048202 0 -0.25019264
0 0.018539626 0.023316113 -0.4048202 0 -0.25019264
0 0.017259885 0.023313817 -0.4048202 0 -0.25019264
0 0.015980387 0.023311686 -0.4048202 0 -0.25019264
0 0.01470112 0.023309717 -0.4048202 0 -0.25019264
0 0.01342206 0.023307914 -0.4048202 0 -0.25019264
0.024709264 0.012884384 0.039999999 -0.4048202 0 -0.25019264
0 0.010864497 0.023304801 -0.4048202 0 -0.25019264
0 0.009585957 0.02330349 -0.4048202 0 -0.25019264
5.5511151e-17 0.0083075538 0.023302343 -0.4048202 0 -0.25019264
0 0.007029268 0.023301359 -0.4048202 0 -0.25019264
0 0.0057510831 0.023300542 -0.4048202 0 -0.25019264
0.0247193 0.0047461106 0.039999999 -0.4048202 0 -0.25019264
5.5511151e-17 0.00319494 0.023299394 -0.4048202 0 -0.25019264
5.5511151e-17 0.0019169458 0.023299066 -0.4048202 0 -0.25019264
5.5511151e-17 0.00063897891 0.023298902 -0.4048202 0 -0.25019264
0.0042234482 0.079999998 0.024890389 -0.4048202 0 -0.25019264
0 0.077863835 0.022040587 -0.4048202 0 -0.25019264
5.5511151e-17 0.07655482 0.022031227 -0.4048202 0 -0.25019264
0 0.075246923 0.022022029 -0.4048202 0 -0.25019264
0 0.073940121 0.022012996 -0.4048202 0 -0.25019264
5.5511151e-17 0.072634391 0.022004122 -0.4048202 0 -0.25019264
0 0.07132972 0.02199541 -0.4048202 0 -0.25019264
0 0.070026077 0.021986859 -0.4048202 0 -0.25019264
0 0.068723455 0.02197847 -0.4048202 0 -0.25019264
5.5511151e-17 0.067421831 0.02197024 -0.4048202 0 -0.25019264
0 0.066121176 0.021962173 -0.4048202 0 -0.25019264
5.5511151e-17 0.064821489 0.021954264 -0.4048202 0 -0.25019264
0 0.063522726 0.021946514 -0.4048202 0 -0.25019264
0 0.062224891 0.021938926 -0.4048202 0 -0.25019264
0 0.060927954 0.021931496 -0.4048202 0 -0.25019264
5.5511151e-17 0.059631892 0.021924224 -0.4048202 0 -0.25019264
5.5511151e-17 0.05833669 0.02191711 -0.4048202 0 -0.25019264
0.039802711 0.062650844 0.048663832 -0.4048202 0 -0.25019264
0 0.055748794 0.02190336 -0.4048202 0 -0.25019264
0.039991092 0.059835624 0.048775692 -0.4048202 0 -0.25019264
0 0.053164106 0.02189024 -0.4048202 0 -0.25019264
0 0.051872917 0.021883916 -0.4048202 0 -0.25019264
0 0.050582476 0.021877751 -0.4048202 0 -0.25019264
0 0.049292758 0.02187174 -0.4048202 0 -0.25019264
5.5511151e-17 0.048003752 0.021865888 -0.4048202 0 -0.25019264
0.037878074 0.051086482 0.047315534 -0.4048202 0 -0.25019264
5.5511151e-17 0.045427781 0.021854652 -0.4048202 0 -0.25019264
0 0.044140778 0.021849269 -0.4048202 0 -0.25019264
0 0.042854413 0.021844041 -0.4048202 0 -0.25019264
0 0.041568659 0.021838969 -0.4048202 0 -0.25019264
0 0.040283497 0.021834053 -0.4048202 0 -0.25019264
5.5511151e-17 0.038998917 0.021829292 -0.4048202 0 -0.25019264
0 0.037714891 0.021824686 -0.4048202 0 -0.25019264
0 0.036431402 0.021820236 -0.4048202 0 -0.25019264
0 0.035148438 0.021815941 -0.4048202 0 -0.25019264
0 0.033865973 0.021811798 -0.4048202 0 -0.25019264
0 0.032583993 0.021807812 -0.4048202 0 -0.25019264
0 0.031302474 0.021803981 -0.4048202 0 -0.25019264
0.027087485 0.03203021 0.039999999 -0.4048202 0 -0.25019264
0 0.028740766 0.02179678 -0.4048202 0 -0.25019264
0 0.027460532 0.02179341 -0.4048202 0 -0.25019264
0 0.026180692 0.021790195 -0.4048202 0 -0.25019264
0.027108397 0.026568711 0.039999999 -0.4048202 0 -0.25019264
5.5511151e-17 0.02362211 0.021784225 -0.4048202 0 -0.25019264
0 0.022343334 0.021781472 -0.4048202 0 -0.25019264
0 0.021064876 0.021778872 -0.4048202 0 -0.25019264
5.5511151e-17 0.019786716 0.021776425 -0.4048202 0 -0.25019264
0 0.018508838 0.021774132 -0.4048202 0 -0.25019264
0 0.017231224 0.02177199 -0.4048202 0 -0.25019264
0 0.015953854 0.021770004 -0.4048202 0 -0.25019264
0.027138518 0.015660616 0.039999999 -0.4048202 0 -0.25019264
0 0.013399778 0.021766488 -0.4048202 0 -0.25019264
0 0.012123034 0.02176496 -0.4048202 0 -0.25019264
0 0.010846464 0.021763586 -0.4048202 0 -0.25019264
5.5511151e-17 0.0095700463 0.021762364 -0.4048202 0 -0.25019264
0 0.0082937656 0.021761294 -0.4048202 0 -0.25019264
0 0.0070176022 0.021760378 -0.4048202 0 -0.25019264
0 0.0057415385 0.021759614 -0.4048202 0 -0.25019264
5.5511151e-17 0.0044655567 0.021759003 -0.4048202 0 -0.25019264
0 0.003189638 0.021758545 -0.4048202 0 -0.25019264
0 0.0019137646 0.02175824 -0.4048202 0 -0.25019264
0 0.00063791854 0.021758087 -0.4048202 0 -0.25019264
5.5511151e-17 0.079041086 0.02049364 -0.4048202 0 -0.25019264
0 0.077733189 0.020484805 -0.4048202 0 -0.25019264
5.5511151e-17 0.076426432 0.02047612 -0.4048202 0 -0.25019264
0 0.075120777 0.020467587 -0.4048202 0 -0.25019264
0 0.07381621 0.020459203 -0.4048202 0 -0.25019264
0 0.072512724 0.02045097 -0.4048202 0 -0.25019264
0.031032186 0.07666903 0.041188918 -0.4048202 0 -0.25019264
0 0.069908872 0.020434953 -0.4048202 0 -0.25019264
5.5511151e-17 0.06860847 0.020427169 -0.4048202 0 -0.25019264
5.5511151e-17 0.067309067 0.020419534 -0.4048202 0 -0.25019264
0 0.066010632 0.020412046 -0.4048202 0 -0.25019264
0 0.06471315 0.02040471 -0.4048202 0 -0.25019264
0.037664235 0.069316849 0.045573067 -0.4048202 0 -0.25019264
0 0.062120967 0.020390477 -0.4048202 0 -0.25019264
0 0.060826231 0.020383583 -0.4048202 0 -0.25019264
5.5511151e-17 0.059532367 0.020376835 -0.4048202 0 -0.25019264
5.5511151e-17 0.058239359 0.020370236 -0.4048202 0 -0.25019264
5.5511151e-17 0.05694719 0.020363783 -0.4048202 0 -0.25019264
5.5511151e-17 0.055655837 0.020357477 -0.4048202 0 -0.25019264
0 0.054365285 0.020351317 -0.4048202 0 -0.25019264
0 0.053075511 0.020345304 -0.4048202 0 -0.25019264
5.5511151e-17 0.051786501 0.020339435 -0.4048202 0 -0.25019264
0 0.050498232 0.020333715 -0.4048202 0 -0.25019264
0 0.049210686 0.020328138 -0.4048202 0 -0.25019264
0 0.047923844 0.020322708 -0.4048202 0 -0.25019264
0 0.046637688 0.020317422 -0.4048202 0 -0.25019264
5.5511151e-17 0.045352202 0.020312283 -0.4048202 0 -0.25019264
0 0.04406736 0.020307288 -0.4048202 0 -0.25019264
0 0.042783149 0.020302437 -0.4048202 0 -0.25019264
0 0.041499548 0.02029773 -0.4048202 0 -0.25019264
0 0.040216543 0.020293169 -0.4048202 0 -0.25019264
0 0.038934108 0.020288751 -0.4048202 0 -0.25019264
0 0.037652228 0.020284478 -0.4048202 0 -0.25019264
0 0.036370888 0.020280348 -0.4048202 0 -0.25019264
5.5511151e-17 0.035090063 0.020276362 -0.4048202 0 -0.25019264
5.5511151e-17 0.03380974 0.020272519 -0.4048202 0 -0.25019264
0 0.032529898 0.02026882 -0.4048202 0 -0.25019264
0 0.031250518 0.020265264 -0.4048202 0 -0.25019264
0 0.029971583 0.020261852 -0.4048202 0 -0.25019264
5.5511151e-17 0.028693074 0.020258583 -0.4048202 0 -0.25019264
0 0.027414974 0.020255458 -0.4048202 0 -0.25019264
0 0.026137263 0.020252474 -0.4048202 0 -0.25019264
5.5511151e-17 0.024859924 0.020249633 -0.4048202 0 -0.25019264
0 0.023582937 0.020246934 -0.4048202 0 -0.25019264
0 0.022306286 0.02024438 -0.4048202 0 -0.25019264
0 0.021029951 0.020241966 -0.4048202 0 -0.25019264
0 0.019753914 0.020239696 -0.4048202 0 -0.25019264
0 0.018478159 0.020237567 -0.4048202 0 -0.25019264
0 0.017202664 0.020235581 -0.4048202 0 -0.25019264
5.5511151e-17 0.015927415 0.020233737 -0.4048202 0 -0.25019264
0 0.014652391 0.020232035 -0.4048202 0 -0.25019264
0.029594744 0.014355554 0.039999999 -0.4048202 0 -0.25019264
0 0.012102948 0.020229058 -0.4048202 0 -0.25019264
5.5511151e-17 0.010828493 0.020227782 -0.4048202 0 -0.25019264
0 0.0095541915 0.020226648 -0.4048202 0 -0.25019264
5.5511151e-17 0.0082800258 0.020225655 -0.4048202 0 -0.25019264
0 0.007005977 0.020224806 -0.4048202 0 -0.25019264
5.5511151e-17 0.0057320278 0.020224096 -0.4048202 0 -0.25019264
0 0.0044581597 0.02022353 -0.4048202 0 -0.25019264
5.5511151e-17 0.0031843546 0.020223105 -0.4048202 0 -0.25019264
0 0.0019105946 0.020222822 -0.4048202 0 -0.25019264
0 0.00063686189 0.020222681 -0.4048202 0 -0.25019264
0 0.078908652 0.018942675 -0.4048202 0 -0.25019264
0 0.077603012 0.018934522 -0.4048202 0 -0.25019264
0 0.07629849 0.018926507 -0.4048202 0 -0.25019264
0 0.074995071 0.018918633 -0.4048202 0 -0.25019264
0 0.073692746 0.018910896 -0.4048202 0 -0.25019264
5.5511151e-17 0.07239148 0.0189033 -0.4048202 0 -0.25019264
0 0.071091264 0.01889584 -0.4048202 0 -0.25019264
5.5511151e-17 0.069792077 0.01888852 -0.4048202 0 -0.25019264
0 0.068493895 0.018881336 -0.4048202 0 -0.25019264
5.5511151e-17 0.067196697 0.018874291 -0.4048202 0 -0.25019264
0 0.065900475 0.018867383 -0.4048202 0 -0.25019264
5.5511151e-17 0.064605199 0.01886061 -0.4048202 0 -0.25019264
0 0.063310847 0.018853975 -0.4048202 0 -0.25019264
5.5511151e-17 0.062017411 0.018847477 -0.4048202 0 -0.25019264
0.03888467 0.066557743 0.044682927 -0.4048202 0 -0.25019264
5.5511151e-17 0.059433188 0.018834889 -0.4048202 0 -0.25019264
