# .PCD v0.7 - Point Cloud Data file format
VERSION 0.7
FIELDS x y z vp_x vp_y vp_z
SIZE 4 4 4 4 4 4
TYPE F F F F F F
COUNT 1 1 1 1 1 1
WIDTH 675
HEIGHT 1
VIEWPOINT 0 0 0 1 0 0 0
POINTS 675
DATA ascii
0.035327155 0.022555573 0.039999999 -0.23852047 -0.14741376 0.38593423
0.035973102 0.021510411 0.039999999 -0.23852047 -0.14741376 0.38593423
0.036619507 0.020465521 0.039999999 -0.23852047 -0.14741376 0.38593423
0.037266381 0.019420888 0.039999999 -0.23852047 -0.14741376 0.38593423
0.037913732 0.018376494 0.039999999 -0.23852047 -0.14741376 0.38593423
0.038561575 0.017332323 0.039999999 -0.23852047 -0.14741376 0.38593423
0.039209921 0.016288361 0.039999999 -0.23852047 -0.14741376 0.38593423
0.039858773 0.015244586 0.039999999 -0.23852047 -0.14741376 0.38593423
2.7755576e-17 0.079342254 0.039234217 -0.23852047 -0.14741376 0.38593423
0.00010834884 0.077759221 0.039999999 -0.23852047 -0.14741376 0.38593423
0.00074344646 0.076678231 0.039999999 -0.23852047 -0.14741376 0.38593423
0.0013784649 0.075598411 0.039999999 -0.23852047 -0.14741376 0.38593423
0.0020134142 0.074519746 0.039999999 -0.23852047 -0.14741376 0.38593423
0.0026483042 0.073442213 0.039999999 -0.23852047 -0.14741376 0.38593423
0.0032831451 0.072365798 0.039999999 -0.23852047 -0.14741376 0.38593423
0.0029110131 0.070382118 0.041436788 -0.23852047 -0.14741376 0.38593423
0.0014751803 0.067460835 0.044379856 -0.23852047 -0.14741376 0.38593423
0.00070703117 0.06516178 0.046359818 -0.23852047 -0.14741376 0.38593423
0.00028538523 0.063188016 0.047838908 -0.23852047 -0.14741376 0.38593423
7.6751843e-05 0.061415616 0.049009535 -0.23852047 -0.14741376 0.38593423
1.1923968e-05 0.059780072 0.049971584 -0.23852047 -0.14741376 0.38593423
9.3231065e-05 0.058280442 0.050723411 -0.23852047 -0.14741376 0.38593423
0.00027509319 0.056874759 0.051330511 -0.23852047 -0.14741376 0.38593423
0.00051611464 0.055525828 0.051851869 -0.23852047 -0.14741376 0.38593423
0.00086405693 0.054272678 0.052221574 -0.23852047 -0.14741376 0.38593423
0.0012645839 0.05306774 0.052516356 -0.23852047 -0.14741376 0.38593423
0.0017238404 0.051915057 0.052728273 -0.23852047 -0.14741376 0.38593423
0.0022591099 0.050827689 0.052834067 -0.23852047 -0.14741376 0.38593423
0.0028224986 0.049765032 0.052900638 -0.23852047 -0.14741376 0.38593423
0.0034794188 0.048779547 0.05283827 -0.23852047 -0.14741376 0.38593423
0.0041533802 0.047807921 0.05275296 -0.23852047 -0.14741376 0.38593423
0.0049175741 0.046908244 0.052544665 -0.23852047 -0.14741376 0.38593423
0.0057091429 0.046029035 0.052300192 -0.23852047 -0.14741376 0.38593423
0.006576282 0.045207664 0.05195415 -0.23852047 -0.14741376 0.38593423
0.007492533 0.044422105 0.051543277 -0.23852047 -0.14741376 0.38593423
0.0084688207 0.043679919 0.05105326 -0.23852047 -0.14741376 0.38593423
0.0095253279 0.04299552 0.050457407 -0.23852047 -0.14741376 0.38593423
0.010621074 0.042336252 0.04981181 -0.23852047 -0.14741376 0.38593423
0.011844886 0.041768562 0.048997305 -0.23852047 -0.14741376 0.38593423
0.013130775 0.041240711 0.04810375 -0.23852047 -0.14741376 0.38593423
0.014511012 0.040775631 0.04708853 -0.23852047 -0.14741376 0.38593423
0.016051581 0.040420387 0.045864411 -0.23852047 -0.14741376 0.38593423
0.017733216 0.040158104 0.04445862 -0.23852047 -0.14741376 0.38593423
0.019615034 0.040029299 0.04279393 -0.23852047 -0.14741376 0.38593423
0.021804228 0.040107783 0.040730108 -0.23852047 -0.14741376 0.38593423
0.022993056 0.039453857 0.039999999 -0.23852047 -0.14741376 0.38593423
0.023631563 0.03840388 0.039999999 -0.23852047 -0.14741376 0.38593423
0.024270346 0.037354451 0.039999999 -0.23852047 -0.14741376 0.38593423
0.02490942 0.03630555 0.039999999 -0.23852047 -0.14741376 0.38593423
0.025548788 0.035257164 0.039999999 -0.23852047 -0.14741376 0.38593423
0.026188465 0.03420927 0.039999999 -0.23852047 -0.14741376 0.38593423
0.026828459 0.033161856 0.039999999 -0.23852047 -0.14741376 0.38593423
0.02746878 0.032114904 0.039999999 -0.23852047 -0.14741376 0.38593423
0.028109439 0.0310684 0.039999999 -0.23852047 -0.14741376 0.38593423
0.028750446 0.030022321 0.039999999 -0.23852047 -0.14741376 0.38593423
0.029391808 0.028976658 0.039999999 -0.23852047 -0.14741376 0.38593423
0.030033538 0.02793139 0.039999999 -0.23852047 -0.14741376 0.38593423
0.030675644 0.026886502 0.039999999 -0.23852047 -0.14741376 0.38593423
0.031318139 0.025841977 0.039999999 -0.23852047 -0.14741376 0.38593423
0.031961031 0.024797801 0.039999999 -0.23852047 -0.14741376 0.38593423
0.032604329 0.023753954 0.039999999 -0.23852047 -0.14741376 0.38593423
0.033248045 0.022710422 0.039999999 -0.23852047 -0.14741376 0.38593423
0.033892188 0.021667188 0.039999999 -0.23852047 -0.14741376 0.38593423
0.034536768 0.020624235 0.039999999 -0.23852047 -0.14741376 0.38593423
0.035181794 0.019581547 0.039999999 -0.23852047 -0.14741376 0.38593423
0.035827279 0.018539108 0.039999999 -0.23852047 -0.14741376 0.38593423
0.036473233 0.017496902 0.039999999 -0.23852047 -0.14741376 0.38593423
0.037119664 0.016454913 0.039999999 -0.23852047 -0.14741376 0.38593423
0.037766583 0.015413123 0.039999999 -0.23852047 -0.14741376 0.38593423
0.038414001 0.014371517 0.039999999 -0.23852047 -0.14741376 0.38593423
0.039061926 0.013330079 0.039999999 -0.23852047 -0.14741376 0.38593423
0.039710369 0.012288791 0.039999999 -0.23852047 -0.14741376 0.38593423
0 0.079631753 0.037225883 -0.23852047 -0.14741376 0.38593423
0 0.077939458 0.038158279 -0.23852047 -0.14741376 0.38593423
0 0.076257467 0.03908556 -0.23852047 -0.14741376 0.38593423
5.3637805e-06 0.074590646 0.039999999 -0.23852047 -0.14741376 0.38593423
0.00063948974 0.073514663 0.039999999 -0.23852047 -0.14741376 0.38593423
0.0012735469 0.072439805 0.039999999 -0.23852047 -0.14741376 0.38593423
0.0019075455 0.071366042 0.039999999 -0.23852047 -0.14741376 0.38593423
0.0025414953 0.070293374 0.039999999 -0.23852047 -0.14741376 0.38593423
0.0016220593 0.067829482 0.042223271 -0.23852047 -0.14741376 0.38593423
0.00079177099 0.065466978 0.044307612 -0.23852047 -0.14741376 0.38593423
0.00032814656 0.063448846 0.045858987 -0.23852047 -0.14741376 0.38593423
8.9082409e-05 0.061643042 0.047083378 -0.23852047 -0.14741376 0.38593423
1.031352e-06 0.059980977 0.048087519 -0.23852047 -0.14741376 0.38593423
8.2648075e-05 0.058475636 0.048846774 -0.23852047 -0.14741376 0.38593423
0.00024656777 0.057048753 0.049486168 -0.23852047 -0.14741376 0.38593423
0.00047284176 0.055681683 0.050034668 -0.23852047 -0.14741376 0.38593423
0.00082199398 0.05442417 0.050408147 -0.23852047 -0.14741376 0.38593423
0.0012103835 0.053203776 0.050724916 -0.23852047 -0.14741376 0.38593423
0.0016711772 0.052047234 0.050939165 -0.23852047 -0.14741376 0.38593423
0.0021961918 0.050946366 0.051063079 -0.23852047 -0.14741376 0.38593423
0.0027614047 0.049880266 0.051130686 -0.23852047 -0.14741376 0.38593423
0.0034094548 0.048882734 0.051083419 -0.23852047 -0.14741376 0.38593423
0.0040756804 0.047900129 0.051011428 -0.23852047 -0.14741376 0.38593423
0.0048418436 0.046997402 0.050802328 -0.23852047 -0.14741376 0.38593423
0.00562604 0.046107754 0.050569668 -0.23852047 -0.14741376 0.38593423
0.0064957677 0.045283929 0.050221156 -0.23852047 -0.14741376 0.38593423
0.00740514 0.044488546 0.049820397 -0.23852047 -0.14741376 0.38593423
0.0083842762 0.043744192 0.049326725 -0.23852047 -0.14741376 0.38593423
0.0094341636 0.043050367 0.048739519 -0.23852047 -0.14741376 0.38593423
0.01053304 0.042389218 0.048089005 -0.23852047 -0.14741376 0.38593423
0.011750277 0.041812334 0.047281802 -0.23852047 -0.14741376 0.38593423
0.01302905 0.041274987 0.04639579 -0.23852047 -0.14741376 0.38593423
0.014413057 0.040808637 0.045372732 -0.23852047 -0.14741376 0.38593423
0.015945898 0.040443648 0.044155098 -0.23852047 -0.14741376 0.38593423
0.01761825 0.04017061 0.042756837 -0.23852047 -0.14741376 0.38593423
0.019488147 0.040029299 0.041101735 -0.23852047 -0.14741376 0.38593423
0.020949317 0.039579414 0.039999999 -0.23852047 -0.14741376 0.38593423
0.021586398 0.038531218 0.039999999 -0.23852047 -0.14741376 0.38593423
0.022223737 0.03748358 0.039999999 -0.23852047 -0.14741376 0.38593423
0.022861343 0.036436476 0.039999999 -0.23852047 -0.14741376 0.38593423
0.023499224 0.035389889 0.039999999 -0.23852047 -0.14741376 0.38593423
0.024137393 0.034343809 0.039999999 -0.23852047 -0.14741376 0.38593423
0.024775859 0.033298217 0.039999999 -0.23852047 -0.14741376 0.38593423
0.025414629 0.032253094 0.039999999 -0.23852047 -0.14741376 0.38593423
0.026053717 0.031208424 0.039999999 -0.23852047 -0.14741376 0.38593423
0.02669313 0.030164191 0.039999999 -0.23852047 -0.14741376 0.38593423
0.02733288 0.029120382 0.039999999 -0.23852047 -0.14741376 0.38593423
0.027972976 0.028076977 0.039999999 -0.23852047 -0.14741376 0.38593423
0.028613428 0.027033959 0.039999999 -0.23852047 -0.14741376 0.38593423
0.029254245 0.025991315 0.039999999 -0.23852047 -0.14741376 0.38593423
0.029895438 0.024949025 0.039999999 -0.23852047 -0.14741376 0.38593423
0.030537017 0.023907077 0.039999999 -0.23852047 -0.14741376 0.38593423
0.03117899 0.02286545 0.039999999 -0.23852047 -0.14741376 0.38593423
0.03182137 0.021824131 0.039999999 -0.23852047 -0.14741376 0.38593423
0.032464165 0.020783102 0.039999999 -0.23852047 -0.14741376 0.38593423
0.033107389 0.019742349 0.039999999 -0.23852047 -0.14741376 0.38593423
0.033751044 0.018701851 0.039999999 -0.23852047 -0.14741376 0.38593423
0.034395147 0.017661598 0.039999999 -0.23852047 -0.14741376 0.38593423
0.035039708 0.016621569 0.039999999 -0.23852047 -0.14741376 0.38593423
0.035684731 0.01558175 0.039999999 -0.23852047 -0.14741376 0.38593423
0.036330234 0.014542124 0.039999999 -0.23852047 -0.14741376 0.38593423
0.036976222 0.013502675 0.039999999 -0.23852047 -0.14741376 0.38593423
0.037622705 0.012463386 0.039999999 -0.23852047 -0.14741376 0.38593423
0.038269695 0.011424243 0.039999999 -0.23852047 -0.14741376 0.38593423
0.038917203 0.010385227 0.039999999 -0.23852047 -0.14741376 0.38593423
0.039565239 0.009346324 0.039999999 -0.23852047 -0.14741376 0.38593423
2.7755576e-17 0.07992319 0.035204086 -0.23852047 -0.14741376 0.38593423
2.7755576e-17 0.078223825 0.036146134 -0.23852047 -0.14741376 0.38593423
0 0.076534837 0.037082978 -0.23852047 -0.14741376 0.38593423
2.7755576e-17 0.074856117 0.038014669 -0.23852047 -0.14741376 0.38593423
2.7755576e-17 0.073187552 0.038941272 -0.23852047 -0.14741376 0.38593423
5.5511151e-17 0.071529038 0.039862834 -0.23852047 -0.14741376 0.38593423
0.00053862162 0.070371144 0.039999999 -0.23852047 -0.14741376 0.38593423
0.0011717215 0.069301106 0.039999999 -0.23852047 -0.14741376 0.38593423
0.0017700789 0.068200998 0.04004994 -0.23852047 -0.14741376 0.38593423
0.00087712286 0.065774381 0.042240582 -0.23852047 -0.14741376 0.38593423
0.0003712007 0.063711464 0.043865509 -0.23852047 -0.14741376 0.38593423
0.00010149399 0.061871961 0.045144569 -0.23852047 -0.14741376 0.38593423
1.0914116e-05 0.060201298 0.046161789 -0.23852047 -0.14741376 0.38593423
7.1998053e-05 0.058672063 0.046958253 -0.23852047 -0.14741376 0.38593423
0.00021786652 0.057223819 0.047630455 -0.23852047 -0.14741376 0.38593423
0.00044306708 0.055850174 0.048187084 -0.23852047 -0.14741376 0.38593423
0.00077967829 0.054576576 0.048583824 -0.23852047 -0.14741376 0.38593423
0.0011558639 0.053340614 0.048922934 -0.23852047 -0.14741376 0.38593423
0.0016182045 0.05218019 0.049139537 -0.23852047 -0.14741376 0.38593423
0.0021329103 0.051065728 0.049281858 -0.23852047 -0.14741376 0.38593423
0.0026999579 0.049996167 0.049350515 -0.23852047 -0.14741376 0.38593423
0.0033390934 0.048986509 0.049318597 -0.23852047 -0.14741376 0.38593423
0.0040074186 0.048000805 0.049246442 -0.23852047 -0.14741376 0.38593423
0.0047656889 0.047087058 0.049050234 -0.23852047 -0.14741376 0.38593423
0.0055424785 0.046186905 0.048829589 -0.23852047 -0.14741376 0.38593423
0.0064148088 0.045360617 0.048478588 -0.23852047 -0.14741376 0.38593423
0.0073172702 0.044555344 0.048088118 -0.23852047 -0.14741376 0.38593423
0.0082992706 0.043808814 0.047590762 -0.23852047 -0.14741376 0.38593423
0.0093425084 0.043105513 0.047012366 -0.23852047 -0.14741376 0.38593423
0.010444532 0.042442471 0.04635689 -0.23852047 -0.14741376 0.38593423
0.011655164 0.041856337 0.045557141 -0.23852047 -0.14741376 0.38593423
0.01292679 0.041309442 0.044678833 -0.23852047 -0.14741376 0.38593423
0.014314585 0.040841818 0.04364787 -0.23852047 -0.14741376 0.38593423
0.015839666 0.040467031 0.042436887 -0.23852047 -0.14741376 0.38593423
0.017502695 0.040183183 0.04104634 -0.23852047 -0.14741376 0.38593423
0.018914899 0.039705321 0.039999999 -0.23852047 -0.14741376 0.38593423
0.019550592 0.038658895 0.039999999 -0.23852047 -0.14741376 0.38593423
0.020186521 0.037613031 0.039999999 -0.23852047 -0.14741376 0.38593423
0.020822696 0.03656771 0.039999999 -0.23852047 -0.14741376 0.38593423
0.021459129 0.035522919 0.039999999 -0.23852047 -0.14741376 0.38593423
0.022095826 0.034478642 0.039999999 -0.23852047 -0.14741376 0.38593423
0.0227328 0.033434857 0.039999999 -0.23852047 -0.14741376 0.38593423
0.023370057 0.032391552 0.039999999 -0.23852047 -0.14741376 0.38593423
0.024007611 0.031348705 0.039999999 -0.23852047 -0.14741376 0.38593423
0.02464547 0.030306309 0.039999999 -0.23852047 -0.14741376 0.38593423
0.025283646 0.02926434 0.039999999 -0.23852047 -0.14741376 0.38593423
0.025922144 0.028222786 0.039999999 -0.23852047 -0.14741376 0.38593423
0.026560979 0.027181629 0.039999999 -0.23852047 -0.14741376 0.38593423
0.027200157 0.026140852 0.039999999 -0.23852047 -0.14741376 0.38593423
0.02783969 0.02510044 0.039999999 -0.23852047 -0.14741376 0.38593423
0.028479587 0.024060374 0.039999999 -0.23852047 -0.14741376 0.38593423
0.02911986 0.023020642 0.039999999 -0.23852047 -0.14741376 0.38593423
0.029760517 0.021981226 0.039999999 -0.23852047 -0.14741376 0.38593423
0.030401567 0.020942109 0.039999999 -0.23852047 -0.14741376 0.38593423
0.031043023 0.019903276 0.039999999 -0.23852047 -0.14741376 0.38593423
0.03168489 0.01886471 0.039999999 -0.23852047 -0.14741376 0.38593423
0.032327186 0.017826393 0.039999999 -0.23852047 -0.14741376 0.38593423
0.032969914 0.016788313 0.039999999 -0.23852047 -0.14741376 0.38593423
0.033613086 0.015750451 0.039999999 -0.23852047 -0.14741376 0.38593423
0.034256712 0.014712793 0.039999999 -0.23852047 -0.14741376 0.38593423
0.034900803 0.01367532 0.039999999 -0.23852047 -0.14741376 0.38593423
0.035545368 0.012638018 0.039999999 -0.23852047 -0.14741376 0.38593423
0.036190417 0.011600869 0.039999999 -0.23852047 -0.14741376 0.38593423
0.036835961 0.010563859 0.039999999 -0.23852047 -0.14741376 0.38593423
0.037482012 0.0095269708 0.039999999 -0.23852047 -0.14741376 0.38593423
0.038128577 0.008490188 0.039999999 -0.23852047 -0.14741376 0.38593423
0.038775664 0.0074534947 0.039999999 -0.23852047 -0.14741376 0.38593423
0.039423291 0.0064168754 0.039999999 -0.23852047 -0.14741376 0.38593423
2.7755576e-17 0.078510098 0.03412047 -0.23852047 -0.14741376 0.38593423
0 0.076814063 0.035066985 -0.23852047 -0.14741376 0.38593423
2.7755576e-17 0.075128384 0.036008257 -0.23852047 -0.14741376 0.38593423
2.7755576e-17 0.073452935 0.036944352 -0.23852047 -0.14741376 0.38593423
2.7755576e-17 0.071787618 0.037875324 -0.23852047 -0.14741376 0.38593423
2.7755576e-17 0.070132315 0.03880123 -0.23852047 -0.14741376 0.38593423
0 0.068486914 0.039722122 -0.23852047 -0.14741376 0.38593423
0.00044075237 0.067247257 0.039999999 -0.23852047 -0.14741376 0.38593423
0.0009630947 0.06608402 0.040158536 -0.23852047 -0.14741376 0.38593423
0.00041455132 0.063975886 0.041858304 -0.23852047 -0.14741376 0.38593423
0.00011398756 0.062102392 0.043192949 -0.23852047 -0.14741376 0.38593423
2.3040926e-05 0.060424969 0.044220302 -0.23852047 -0.14741376 0.38593423
6.1280196e-05 0.058869746 0.045057703 -0.23852047 -0.14741376 0.38593423
0.00018898745 0.057399973 0.04576325 -0.23852047 -0.14741376 0.38593423
0.00041500819 0.056021325 0.046325412 -0.23852047 -0.14741376 0.38593423
0.00073710701 0.054729901 0.046748482 -0.23852047 -0.14741376 0.38593423
0.0011010215 0.053478263 0.047110286 -0.23852047 -0.14741376 0.38593423
0.0015649184 0.052313931 0.047329266 -0.23852047 -0.14741376 0.38593423
0.0020692612 0.051185783 0.047490295 -0.23852047 -0.14741376 0.38593423
0.0026381547 0.050112739 0.047560006 -0.23852047 -0.14741376 0.38593423
0.0032683299 0.049090881 0.047543693 -0.23852047 -0.14741376 0.38593423
0.0039387667 0.048102062 0.047471371 -0.23852047 -0.14741376 0.38593423
0.0046891053 0.047177218 0.04728828 -0.23852047 -0.14741376 0.38593423
0.0054609785 0.0462685 0.047076344 -0.23852047 -0.14741376 0.38593423
0.0063333996 0.045437727 0.046726339 -0.23852047 -0.14741376 0.38593423
0.0072289188 0.044622511 0.04634634 -0.23852047 -0.14741376 0.38593423
0.0082137985 0.043873791 0.045845266 -0.23852047 -0.14741376 0.38593423
0.0092503559 0.043160956 0.045275848 -0.23852047 -0.14741376 0.38593423
0.010355542 0.042496011 0.044615366 -0.23852047 -0.14741376 0.38593423
0.011559541 0.041900579 0.043823231 -0.23852047 -0.14741376 0.38593423
0.012823989 0.041344084 0.042952791 -0.23852047 -0.14741376 0.38593423
0.014215591 0.040875174 0.041913852 -0.23852047 -0.14741376 0.38593423
0.015732877 0.040490534 0.040709678 -0.23852047 -0.14741376 0.38593423
0.01688968 0.039831556 0.039999999 -0.23852047 -0.14741376 0.38593423
0.017524021 0.038786892 0.039999999 -0.23852047 -0.14741376 0.38593423
0.018158576 0.037742794 0.039999999 -0.23852047 -0.14741376 0.38593423
0.018793358 0.036699247 0.039999999 -0.23852047 -0.14741376 0.38593423
0.019428374 0.035656236 0.039999999 -0.23852047 -0.14741376 0.38593423
0.020063637 0.034613747 0.039999999 -0.23852047 -0.14741376 0.38593423
0.020699155 0.033571761 0.039999999 -0.23852047 -0.14741376 0.38593423
0.021334937 0.032530259 0.039999999 -0.23852047 -0.14741376 0.38593423
0.021970995 0.031489231 0.039999999 -0.23852047 -0.14741376 0.38593423
0.022607338 0.030448655 0.039999999 -0.23852047 -0.14741376 0.38593423
0.023243973 0.029408518 0.039999999 -0.23852047 -0.14741376 0.38593423
0.023880914 0.028368801 0.039999999 -0.23852047 -0.14741376 0.38593423
0.024518168 0.027329491 0.039999999 -0.23852047 -0.14741376 0.38593423
0.025155745 0.026290571 0.039999999 -0.23852047 -0.14741376 0.38593423
0.025793659 0.025252022 0.039999999 -0.23852047 -0.14741376 0.38593423
0.026431913 0.024213832 0.039999999 -0.23852047 -0.14741376 0.38593423
0.027070522 0.023175981 0.039999999 -0.23852047 -0.14741376 0.38593423
0.027709493 0.022138456 0.039999999 -0.23852047 -0.14741376 0.38593423
0.028348839 0.021101238 0.039999999 -0.23852047 -0.14741376 0.38593423
0.028988566 0.020064313 0.039999999 -0.23852047 -0.14741376 0.38593423
0.029628687 0.019027663 0.039999999 -0.23852047 -0.14741376 0.38593423
0.030269211 0.017991275 0.039999999 -0.23852047 -0.14741376 0.38593423
0.030910147 0.01695513 0.039999999 -0.23852047 -0.14741376 0.38593423
0.031551506 0.015919212 0.039999999 -0.23852047 -0.14741376 0.38593423
0.032193299 0.014883508 0.039999999 -0.23852047 -0.14741376 0.38593423
0.032835532 0.013847998 0.039999999 -0.23852047 -0.14741376 0.38593423
0.033478219 0.012812668 0.039999999 -0.23852047 -0.14741376 0.38593423
0.034121368 0.011777502 0.039999999 -0.23852047 -0.14741376 0.38593423
0.034764994 0.010742485 0.039999999 -0.23852047 -0.14741376 0.38593423
0.035409097 0.009707598 0.039999999 -0.23852047 -0.14741376 0.38593423
0.036053695 0.008672826 0.039999999 -0.23852047 -0.14741376 0.38593423
0.0366988 0.0076381546 0.039999999 -0.23852047 -0.14741376 0.38593423
0.037344415 0.0066035665 0.039999999 -0.23852047 -0.14741376 0.38593423
0.037990551 0.0055690454 0.039999999 -0.23852047 -0.14741376 0.38593423
0.038637225 0.0045345756 0.039999999 -0.23852047 -0.14741376 0.38593423
0.039284438 0.0035001414 0.039999999 -0.23852047 -0.14741376 0.38593423
0.039932206 0.0024657263 0.039999999 -0.23852047 -0.14741376 0.38593423
0 0.078798302 0.032081123 -0.23852047 -0.14741376 0.38593423
0 0.077095173 0.03303742 -0.23852047 -0.14741376 0.38593423
0 0.075402468 0.033988386 -0.23852047 -0.14741376 0.38593423
0 0.07372009 0.034934085 -0.23852047 -0.14741376 0.38593423
2.7755576e-17 0.072047919 0.035874568 -0.23852047 -0.14741376 0.38593423
2.7755576e-17 0.070385836 0.036809895 -0.23852047 -0.14741376 0.38593423
0 0.068733752 0.03774013 -0.23852047 -0.14741376 0.38593423
2.7755576e-17 0.06709154 0.038665317 -0.23852047 -0.14741376 0.38593423
2.7755576e-17 0.065459095 0.03958552 -0.23852047 -0.14741376 0.38593423
0.00034579352 0.064142585 0.039999999 -0.23852047 -0.14741376 0.38593423
0.00014860855 0.06235373 0.041196529 -0.23852047 -0.14741376 0.38593423
3.524798e-05 0.060650114 0.042265967 -0.23852047 -0.14741376 0.38593423
5.049372e-05 0.059068691 0.043144982 -0.23852047 -0.14741376 0.38593423
0.00015992852 0.057577223 0.043884411 -0.23852047 -0.14741376 0.38593423
0.00038677486 0.056193538 0.044452164 -0.23852047 -0.14741376 0.38593423
0.00069427717 0.054884158 0.044901993 -0.23852047 -0.14741376 0.38593423
0.0010461202 0.053616956 0.045286469 -0.23852047 -0.14741376 0.38593423
0.0015113158 0.05244847 0.045508236 -0.23852047 -0.14741376 0.38593423
0.0020052404 0.051306538 0.045688272 -0.23852047 -0.14741376 0.38593423
0.0025759905 0.050229993 0.045759056 -0.23852047 -0.14741376 0.38593423
0.0031971601 0.049195848 0.045758601 -0.23852047 -0.14741376 0.38593423
0.0038697207 0.048203897 0.045686107 -0.23852047 -0.14741376 0.38593423
0.0046120887 0.047267888 0.045516353 -0.23852047 -0.14741376 0.38593423
0.0053863428 0.046356369 0.045303054 -0.23852047 -0.14741376 0.38593423
0.0062515358 0.045515273 0.044964299 -0.23852047 -0.14741376 0.38593423
0.0071400804 0.044690046 0.044594966 -0.23852047 -0.14741376 0.38593423
0.0081278542 0.043939129 0.044090137 -0.23852047 -0.14741376 0.38593423
0.0091577014 0.043216705 0.043529868 -0.23852047 -0.14741376 0.38593423
0.010266067 0.042549845 0.042864334 -0.23852047 -0.14741376 0.38593423
0.011463402 0.041945055 0.04207997 -0.23852047 -0.14741376 0.38593423
0.01272064 0.041378908 0.041217569 -0.23852047 -0.14741376 0.38593423
0.014116068 0.040908709 0.040170576 -0.23852047 -0.14741376 0.38593423
0.014873539 0.039958104 0.039999999 -0.23852047 -0.14741376 0.38593423
0.015506561 0.038915187 0.039999999 -0.23852047 -0.14741376 0.38593423
0.016139777 0.037872843 0.039999999 -0.23852047 -0.14741376 0.38593423
0.016773202 0.036831059 0.039999999 -0.23852047 -0.14741376 0.38593423
0.01740684 0.035789821 0.039999999 -0.23852047 -0.14741376 0.38593423
0.018040704 0.034749109 0.039999999 -0.23852047 -0.14741376 0.38593423
0.018674802 0.033708908 0.039999999 -0.23852047 -0.14741376 0.38593423
0.019309144 0.032669205 0.039999999 -0.23852047 -0.14741376 0.38593423
0.019943742 0.031629976 0.039999999 -0.23852047 -0.14741376 0.38593423
0.020578602 0.030591212 0.039999999 -0.23852047 -0.14741376 0.38593423
0.021213738 0.029552894 0.039999999 -0.23852047 -0.14741376 0.38593423
0.021849157 0.028515005 0.039999999 -0.23852047 -0.14741376 0.38593423
0.022484869 0.027477533 0.039999999 -0.23852047 -0.14741376 0.38593423
0.023120884 0.026440455 0.039999999 -0.23852047 -0.14741376 0.38593423
0.023757212 0.02540376 0.039999999 -0.23852047 -0.14741376 0.38593423
0.024393862 0.024367429 0.039999999 -0.23852047 -0.14741376 0.38593423
0.025030846 0.023331448 0.039999999 -0.23852047 -0.14741376 0.38593423
0.02566817 0.022295803 0.039999999 -0.23852047 -0.14741376 0.38593423
0.026305849 0.021260472 0.039999999 -0.23852047 -0.14741376 0.38593423
0.026943887 0.020225443 0.039999999 -0.23852047 -0.14741376 0.38593423
0.027582299 0.019190699 0.039999999 -0.23852047 -0.14741376 0.38593423
0.028221091 0.018156225 0.039999999 -0.23852047 -0.14741376 0.38593423
0.028860275 0.017122002 0.039999999 -0.23852047 -0.14741376 0.38593423
0.02949986 0.016088018 0.039999999 -0.23852047 -0.14741376 0.38593423
0.030139858 0.015054254 0.039999999 -0.23852047 -0.14741376 0.38593423
0.030780276 0.014020695 0.039999999 -0.23852047 -0.14741376 0.38593423
0.031421125 0.012987326 0.039999999 -0.23852047 -0.14741376 0.38593423
0.032062415 0.011954129 0.039999999 -0.23852047 -0.14741376 0.38593423
0.03270416 0.010921089 0.039999999 -0.23852047 -0.14741376 0.38593423
0.033346362 0.0098881908 0.039999999 -0.23852047 -0.14741376 0.38593423
0.033989035 0.0088554183 0.039999999 -0.23852047 -0.14741376 0.38593423
0.034632191 0.0078227539 0.039999999 -0.23852047 -0.14741376 0.38593423
0.035275836 0.0067901835 0.039999999 -0.23852047 -0.14741376 0.38593423
0.035919983 0.0057576899 0.039999999 -0.23852047 -0.14741376 0.38593423
0.036564644 0.0047252579 0.039999999 -0.23852047 -0.14741376 0.38593423
0.037209824 0.003692871 0.039999999 -0.23852047 -0.14741376 0.38593423
0.037855536 0.0026605136 0.039999999 -0.23852047 -0.14741376 0.38593423
0.038501792 0.0016281697 0.039999999 -0.23852047 -0.14741376 0.38593423
0.039148595 0.0005958231 0.039999999 -0.23852047 -0.14741376 0.38593423
2.7755576e-17 0.079088472 0.030027924 -0.23852047 -0.14741376 0.38593423
2.7755576e-17 0.077378184 0.030994117 -0.23852047 -0.14741376 0.38593423
0 0.075678408 0.031954888 -0.23852047 -0.14741376 0.38593423
0 0.073989041 0.032910299 -0.23852047 -0.14741376 0.38593423
2.7755576e-17 0.072309963 0.033860404 -0.23852047 -0.14741376 0.38593423
2.7755576e-17 0.070641063 0.034805264 -0.23852047 -0.14741376 0.38593423
2.7755576e-17 0.068982221 0.035744939 -0.23852047 -0.14741376 0.38593423
0 0.067333341 0.036679488 -0.23852047 -0.14741376 0.38593423
2.7755576e-17 0.06569431 0.037608963 -0.23852047 -0.14741376 0.38593423
0 0.064065024 0.038533419 -0.23852047 -0.14741376 0.38593423
2.7755576e-17 0.062445372 0.03945291 -0.23852047 -0.14741376 0.38593423
4.753625e-05 0.060876761 0.040298626 -0.23852047 -0.14741376 0.38593423
3.9637802e-05 0.059268918 0.041219953 -0.23852047 -0.14741376 0.38593423
0.00013068761 0.057755582 0.041993812 -0.23852047 -0.14741376 0.38593423
0.00035836513 0.056366827 0.042567216 -0.23852047 -0.14741376 0.38593423
0.00065118587 0.055039354 0.043044232 -0.23852047 -0.14741376 0.38593423
0.0010042631 0.053767707 0.043432619 -0.23852047 -0.14741376 0.38593423
0.0014573927 0.05258381 0.04367632 -0.23852047 -0.14741376 0.38593423
0.001940844 0.051428001 0.043875672 -0.23852047 -0.14741376 0.38593423
0.002513462 0.050347935 0.043947536 -0.23852047 -0.14741376 0.38593423
0.0031255796 0.049301419 0.043963201 -0.23852047 -0.14741376 0.38593423
0.0038002764 0.04830632 0.043890536 -0.23852047 -0.14741376 0.38593423
0.0045346338 0.047359075 0.043734346 -0.23852047 -0.14741376 0.38593423
0.0053112819 0.046444736 0.043519672 -0.23852047 -0.14741376 0.38593423
0.0061692125 0.045593251 0.043192368 -0.23852047 -0.14741376 0.38593423
0.0070509142 0.044758085 0.042833656 -0.23852047 -0.14741376 0.38593423
0.0080414331 0.044004828 0.042325269 -0.23852047 -0.14741376 0.38593423
0.0090645393 0.043272756 0.041774321 -0.23852047 -0.14741376 0.38593423
0.010176101 0.042603973 0.041103691 -0.23852047 -0.14741376 0.38593423
0.011366743 0.041989777 0.040327262 -0.23852047 -0.14741376 0.38593423
0.012234783 0.041126728 0.039999999 -0.23852047 -0.14741376 0.38593423
0.012866355 0.040084943 0.039999999 -0.23852047 -0.14741376 0.38593423
0.013498092 0.039043762 0.039999999 -0.23852047 -0.14741376 0.38593423
0.014130007 0.038003165 0.039999999 -0.23852047 -0.14741376 0.38593423
0.014762106 0.036963135 0.039999999 -0.23852047 -0.14741376 0.38593423
0.015394401 0.035923656 0.039999999 -0.23852047 -0.14741376 0.38593423
0.016026901 0.03488471 0.039999999 -0.23852047 -0.14741376 0.38593423
0.016659616 0.033846285 0.039999999 -0.23852047 -0.14741376 0.38593423
0.017292555 0.032808363 0.039999999 -0.23852047 -0.14741376 0.38593423
0.017925728 0.03177093 0.039999999 -0.23852047 -0.14741376 0.38593423
0.018559145 0.030733965 0.039999999 -0.23852047 -0.14741376 0.38593423
0.019192815 0.029697454 0.039999999 -0.23852047 -0.14741376 0.38593423
0.019826749 0.028661381 0.039999999 -0.23852047 -0.14741376 0.38593423
0.020460956 0.027625732 0.039999999 -0.23852047 -0.14741376 0.38593423
0.021095444 0.026590489 0.039999999 -0.23852047 -0.14741376 0.38593423
0.021730226 0.025555635 0.039999999 -0.23852047 -0.14741376 0.38593423
0.022365309 0.024521153 0.039999999 -0.23852047 -0.14741376 0.38593423
0.023000704 0.023487031 0.039999999 -0.23852047 -0.14741376 0.38593423
0.023636421 0.02245325 0.039999999 -0.23852047 -0.14741376 0.38593423
0.024272468 0.021419795 0.039999999 -0.23852047 -0.14741376 0.38593423
0.024908857 0.020386651 0.039999999 -0.23852047 -0.14741376 0.38593423
0.025545597 0.0193538 0.039999999 -0.23852047 -0.14741376 0.38593423
0.026182698 0.018321227 0.039999999 -0.23852047 -0.14741376 0.38593423
0.026820168 0.017288916 0.039999999 -0.23852047 -0.14741376 0.38593423
0.02745802 0.01625685 0.039999999 -0.23852047 -0.14741376 0.38593423
0.028096261 0.015225016 0.039999999 -0.23852047 -0.14741376 0.38593423
0.028734902 0.014193395 0.039999999 -0.23852047 -0.14741376 0.38593423
0.029373953 0.013161973 0.039999999 -0.23852047 -0.14741376 0.38593423
0.030013425 0.012130733 0.039999999 -0.23852047 -0.14741376 0.38593423
0.030653326 0.01109966 0.039999999 -0.23852047 -0.14741376 0.38593423
0.031293668 0.010068737 0.039999999 -0.23852047 -0.14741376 0.38593423
0.031934455 0.0090379482 0.039999999 -0.23852047 -0.14741376 0.38593423
0.032575704 0.0080072787 0.039999999 -0.23852047 -0.14741376 0.38593423
0.033217426 0.0069767125 0.039999999 -0.23852047 -0.14741376 0.38593423
0.033859622 0.0059462334 0.039999999 -0.23852047 -0.14741376 0.38593423
0.034502313 0.0049158251 0.039999999 -0.23852047 -0.14741376 0.38593423
0.035145499 0.0038854724 0.039999999 -0.23852047 -0.14741376 0.38593423
0.035789195 0.0028551589 0.039999999 -0.23852047 -0.14741376 0.38593423
0.036433414 0.0018248688 0.039999999 -0.23852047 -0.14741376 0.38593423
0.037078161 0.00079458655 0.039999999 -0.23852047 -0.14741376 0.38593423
0.038165849 0 0.039445989 -0.23852047 -0.14741376 0.38593423
2.7755576e-17 0.079380617 0.027960705 -0.23852047 -0.14741376 0.38593423
0 0.077663116 0.02893691 -0.23852047 -0.14741376 0.38593423
2.7755576e-17 0.075956225 0.029907597 -0.23852047 -0.14741376 0.38593423
0 0.074259818 0.030872829 -0.23852047 -0.14741376 0.38593423
0 0.072573774 0.031832669 -0.23852047 -0.14741376 0.38593423
2.7755576e-17 0.070897996 0.03278717 -0.23852047 -0.14741376 0.38593423
2.7755576e-17 0.06923236 0.0337364 -0.23852047 -0.14741376 0.38593423
5.5511151e-17 0.067576759 0.034680407 -0.23852047 -0.14741376 0.38593423
2.7755576e-17 0.065931089 0.035619259 -0.23852047 -0.14741376 0.38593423
2.7755576e-17 0.064295232 0.036553007 -0.23852047 -0.14741376 0.38593423
5.5511151e-17 0.062669091 0.037481707 -0.23852047 -0.14741376 0.38593423
2.7755576e-17 0.061052565 0.038405415 -0.23852047 -0.14741376 0.38593423
0 0.059445541 0.039324183 -0.23852047 -0.14741376 0.38593423
0.00011148004 0.057943858 0.040076498 -0.23852047 -0.14741376 0.38593423
0.00032977693 0.056541204 0.040670421 -0.23852047 -0.14741376 0.38593423
0.00060783006 0.055195507 0.041175067 -0.23852047 -0.14741376 0.38593423
0.00096214935 0.053919386 0.041567408 -0.23852047 -0.14741376 0.38593423
0.0014031457 0.052719966 0.041833404 -0.23852047 -0.14741376 0.38593423
0.0018760676 0.051550183 0.042052377 -0.23852047 -0.14741376 0.38593423
0.0024505646 0.050466571 0.042125337 -0.23852047 -0.14741376 0.38593423
0.0030535834 0.049407605 0.042157385 -0.23852047 -0.14741376 0.38593423
0.0037304289 0.048409335 0.042084549 -0.23852047 -0.14741376 0.38593423
0.0044567361 0.047450785 0.041942146 -0.23852047 -0.14741376 0.38593423
0.0052357921 0.046533611 0.04172609 -0.23852047 -0.14741376 0.38593423
0.0060864249 0.045671668 0.041410435 -0.23852047 -0.14741376 0.38593423
0.0069707944 0.044833977 0.041049127 -0.23852047 -0.14741376 0.38593423
0.0079545295 0.044070892 0.040550556 -0.23852047 -0.14741376 0.38593423
0.0089708641 0.043329116 0.040009107 -0.23852047 -0.14741376 0.38593423
0.0096074594 0.042292811 0.039999999 -0.23852047 -0.14741376 0.38593423
0.010237665 0.041252121 0.039999999 -0.23852047 -0.14741376 0.38593423
0.010868007 0.040212058 0.039999999 -0.23852047 -0.14741376 0.38593423
0.011498496 0.039172601 0.039999999 -0.23852047 -0.14741376 0.38593423
0.012129141 0.038133737 0.039999999 -0.23852047 -0.14741376 0.38593423
0.012759953 0.03709545 0.039999999 -0.23852047 -0.14741376 0.38593423
0.013390939 0.036057718 0.039999999 -0.23852047 -0.14741376 0.38593423
0.014022111 0.035020534 0.039999999 -0.23852047 -0.14741376 0.38593423
0.014653477 0.033983871 0.039999999 -0.23852047 -0.14741376 0.38593423
0.015285048 0.032947723 0.039999999 -0.23852047 -0.14741376 0.38593423
0.015916832 0.03191207 0.039999999 -0.23852047 -0.14741376 0.38593423
0.01654884 0.030876894 0.039999999 -0.23852047 -0.14741376 0.38593423
0.017181082 0.029842181 0.039999999 -0.23852047 -0.14741376 0.38593423
0.017813567 0.028807914 0.039999999 -0.23852047 -0.14741376 0.38593423
0.018446304 0.027774077 0.039999999 -0.23852047 -0.14741376 0.38593423
0.019079303 0.026740653 0.039999999 -0.23852047 -0.14741376 0.38593423
0.019712573 0.025707629 0.039999999 -0.23852047 -0.14741376 0.38593423
0.020346127 0.024674987 0.039999999 -0.23852047 -0.14741376 0.38593423
0.020979971 0.023642711 0.039999999 -0.23852047 -0.14741376 0.38593423
0.021614116 0.022610785 0.039999999 -0.23852047 -0.14741376 0.38593423
0.022248572 0.021579195 0.039999999 -0.23852047 -0.14741376 0.38593423
0.022883348 0.020547921 0.039999999 -0.23852047 -0.14741376 0.38593423
0.023518454 0.01951695 0.039999999 -0.23852047 -0.14741376 0.38593423
0.024153901 0.018486267 0.039999999 -0.23852047 -0.14741376 0.38593423
0.024789697 0.017455855 0.039999999 -0.23852047 -0.14741376 0.38593423
0.025425851 0.016425697 0.039999999 -0.23852047 -0.14741376 0.38593423
0.026062377 0.015395779 0.039999999 -0.23852047 -0.14741376 0.38593423
0.02669928 0.014366085 0.039999999 -0.23852047 -0.14741376 0.38593423
0.027336573 0.013336597 0.039999999 -0.23852047 -0.14741376 0.38593423
0.027974265 0.0123073 0.039999999 -0.23852047 -0.14741376 0.38593423
0.028612364 0.01127818 0.039999999 -0.23852047 -0.14741376 0.38593423
0.029250881 0.01024922 0.039999999 -0.23852047 -0.14741376 0.38593423
0.029889828 0.0092204036 0.039999999 -0.23852047 -0.14741376 0.38593423
0.03052921 0.0081917159 0.039999999 -0.23852047 -0.14741376 0.38593423
0.031169044 0.0071631409 0.039999999 -0.23852047 -0.14741376 0.38593423
0.031809334 0.0061346623 0.039999999 -0.23852047 -0.14741376 0.38593423
0.032450091 0.0051062647 0.039999999 -0.23852047 -0.14741376 0.38593423
0.033091325 0.0040779323 0.039999999 -0.23852047 -0.14741376 0.38593423
0.033733051 0.0030496491 0.039999999 -0.23852047 -0.14741376 0.38593423
0.034375273 0.0020213996 0.039999999 -0.23852047 -0.14741376 0.38593423
0.035018001 0.00099316763 0.039999999 -0.23852047 -0.14741376 0.38593423
0.038301762 0 0.03748662 -0.23852047 -0.14741376 0.38593423
2.7755576e-17 0.079674773 0.025879292 -0.23852047 -0.14741376 0.38593423
0 0.077950008 0.026865624 -0.23852047 -0.14741376 0.38593423
2.7755576e-17 0.076235928 0.027846344 -0.23852047 -0.14741376 0.38593423
2.7755576e-17 0.074532427 0.028821513 -0.23852047 -0.14741376 0.38593423
0 0.072839379 0.029791195 -0.23852047 -0.14741376 0.38593423
0 0.071156666 0.030755451 -0.23852047 -0.14741376 0.38593423
2.7755576e-17 0.069484182 0.031714339 -0.23852047 -0.14741376 0.38593423
0 0.067821816 0.032667924 -0.23852047 -0.14741376 0.38593423
2.7755576e-17 0.066169448 0.033616256 -0.23852047 -0.14741376 0.38593423
2.7755576e-17 0.064526983 0.034559399 -0.23852047 -0.14741376 0.38593423
0 0.0628943 0.035497408 -0.23852047 -0.14741376 0.38593423
2.7755576e-17 0.06127131 0.03643034 -0.23852047 -0.14741376 0.38593423
2.7755576e-17 0.059657894 0.03735825 -0.23852047 -0.14741376 0.38593423
0 0.058053959 0.038281195 -0.23852047 -0.14741376 0.38593423
0 0.056459401 0.039199222 -0.23852047 -0.14741376 0.38593423
7.7519297e-05 0.054939862 0.039999999 -0.23852047 -0.14741376 0.38593423
0.00070588832 0.053892013 0.039999999 -0.23852047 -0.14741376 0.38593423
0.0013342595 0.05284499 0.039999999 -0.23852047 -0.14741376 0.38593423
0.0018179287 0.051678903 0.040208168 -0.23852047 -0.14741376 0.38593423
0.0023872943 0.050585911 0.040292334 -0.23852047 -0.14741376 0.38593423
0.0029811675 0.049514413 0.040341031 -0.23852047 -0.14741376 0.38593423
0.0036601739 0.048512954 0.040268026 -0.23852047 -0.14741376 0.38593423
0.0043783905 0.047543019 0.040139645 -0.23852047 -0.14741376 0.38593423
0.0051050703 0.046579361 0.039999999 -0.23852047 -0.14741376 0.38593423
0.0057337261 0.045537684 0.039999999 -0.23852047 -0.14741376 0.38593423
0.0063624606 0.044496704 0.039999999 -0.23852047 -0.14741376 0.38593423
0.006991284 0.043456402 0.039999999 -0.23852047 -0.14741376 0.38593423
0.0076202056 0.042416766 0.039999999 -0.23852047 -0.14741376 0.38593423
0.0082492353 0.041377783 0.039999999 -0.23852047 -0.14741376 0.38593423
0.0088783819 0.040339425 0.039999999 -0.23852047 -0.14741376 0.38593423
0.0095076552 0.039301686 0.039999999 -0.23852047 -0.14741376 0.38593423
0.010137065 0.038264547 0.039999999 -0.23852047 -0.14741376 0.38593423
0.010766623 0.037227988 0.039999999 -0.23852047 -0.14741376 0.38593423
0.011396335 0.036191996 0.039999999 -0.23852047 -0.14741376 0.38593423
0.012026212 0.035156559 0.039999999 -0.23852047 -0.14741376 0.38593423
0.012656265 0.034121651 0.039999999 -0.23852047 -0.14741376 0.38593423
0.013286502 0.033087265 0.039999999 -0.23852047 -0.14741376 0.38593423
0.013916933 0.032053381 0.039999999 -0.23852047 -0.14741376 0.38593423
0.014547568 0.031019984 0.039999999 -0.23852047 -0.14741376 0.38593423
0.015178416 0.029987056 0.039999999 -0.23852047 -0.14741376 0.38593423
0.015809488 0.028954582 0.039999999 -0.23852047 -0.14741376 0.38593423
0.01644079 0.027922546 0.039999999 -0.23852047 -0.14741376 0.38593423
0.017072337 0.026890934 0.039999999 -0.23852047 -0.14741376 0.38593423
0.017704133 0.025859728 0.039999999 -0.23852047 -0.14741376 0.38593423
0.018336192 0.024828913 0.039999999 -0.23852047 -0.14741376 0.38593423
0.018968523 0.023798471 0.039999999 -0.23852047 -0.14741376 0.38593423
0.019601133 0.022768389 0.039999999 -0.23852047 -0.14741376 0.38593423
0.020234033 0.02173865 0.039999999 -0.23852047 -0.14741376 0.38593423
0.020867234 0.020709237 0.039999999 -0.23852047 -0.14741376 0.38593423
0.021500744 0.019680137 0.039999999 -0.23852047 -0.14741376 0.38593423
0.022134574 0.018651331 0.039999999 -0.23852047 -0.14741376 0.38593423
0.022768734 0.017622806 0.039999999 -0.23852047 -0.14741376 0.38593423
0.023403231 0.016594544 0.039999999 -0.23852047 -0.14741376 0.38593423
0.024038076 0.015566529 0.039999999 -0.23852047 -0.14741376 0.38593423
0.024673281 0.014538747 0.039999999 -0.23852047 -0.14741376 0.38593423
0.025308853 0.013511182 0.039999999 -0.23852047 -0.14741376 0.38593423
0.025944803 0.012483818 0.039999999 -0.23852047 -0.14741376 0.38593423
0.02658114 0.011456638 0.039999999 -0.23852047 -0.14741376 0.38593423
0.027217874 0.010429627 0.039999999 -0.23852047 -0.14741376 0.38593423
0.027855016 0.0094027705 0.039999999 -0.23852047 -0.14741376 0.38593423
0.028492574 0.0083760517 0.039999999 -0.23852047 -0.14741376 0.38593423
0.029130559 0.0073494543 0.039999999 -0.23852047 -0.14741376 0.38593423
0.029768981 0.0063229636 0.039999999 -0.23852047 -0.14741376 0.38593423
0.030407848 0.0052965633 0.039999999 -0.23852047 -0.14741376 0.38593423
0.031047173 0.0042702379 0.039999999 -0.23852047 -0.14741376 0.38593423
0.031686962 0.0032439716 0.039999999 -0.23852047 -0.14741376 0.38593423
0.032327231 0.0022177489 0.039999999 -0.23852047 -0.14741376 0.38593423
0.032967985 0.0011915538 0.039999999 -0.23852047 -0.14741376 0.38593423
0.03360923 0.00016537055 0.039999999 -0.23852047 -0.14741376 0.38593423
0.035853181 0 0.037968066 -0.23852047 -0.14741376 0.38593423
0.03843857 0 0.035514321 -0.23852047 -0.14741376 0.38593423
0 0.079970956 0.023783511 -0.23852047 -0.14741376 0.38593423
2.7755576e-17 0.078238867 0.024780089 -0.23852047 -0.14741376 0.38593423
0 0.076517552 0.025770957 -0.23852047 -0.14741376 0.38593423
0 0.074806899 0.026756179 -0.23852047 -0.14741376 0.38593423
2.7755576e-17 0.073106788 0.02773582 -0.23852047 -0.14741376 0.38593423
2.7755576e-17 0.071417093 0.028709939 -0.23852047 -0.14741376 0.38593423
2.7755576e-17 0.069737703 0.029678602 -0.23852047 -0.14741376 0.38593423
5.5511151e-17 0.068068519 0.030641865 -0.23852047 -0.14741376 0.38593423
0 0.066409409 0.03159979 -0.23852047 -0.14741376 0.38593423
2.7755576e-17 0.064760283 0.032552436 -0.23852047 -0.14741376 0.38593423
0 0.063121013 0.033499859 -0.23852047 -0.14741376 0.38593423
0 0.061491512 0.034442123 -0.23852047 -0.14741376 0.38593423
0 0.059871659 0.035379276 -0.23852047 -0.14741376 0.38593423
0 0.058261361 0.036311377 -0.23852047 -0.14741376 0.38593423
2.7755576e-17 0.056660511 0.037238482 -0.23852047 -0.14741376 0.38593423
2.7755576e-17 0.055069011 0.038160644 -0.23852047 -0.14741376 0.38593423
2.7755576e-17 0.053486757 0.039077915 -0.23852047 -0.14741376 0.38593423
2.7755576e-17 0.051913656 0.039990354 -0.23852047 -0.14741376 0.38593423
0.00062078319 0.050864313 0.039999999 -0.23852047 -0.14741376 0.38593423
0.0012482293 0.049821317 0.039999999 -0.23852047 -0.14741376 0.38593423
0.0018756969 0.048779089 0.039999999 -0.23852047 -0.14741376 0.38593423
0.0025031958 0.047737617 0.039999999 -0.23852047 -0.14741376 0.38593423
0.0031307351 0.046696883 0.039999999 -0.23852047 -0.14741376 0.38593423
0.003758325 0.045656867 0.039999999 -0.23852047 -0.14741376 0.38593423
0.0043859747 0.044617556 0.039999999 -0.23852047 -0.14741376 0.38593423
0.0050136936 0.043578934 0.039999999 -0.23852047 -0.14741376 0.38593423
0.0056414912 0.042540982 0.039999999 -0.23852047 -0.14741376 0.38593423
0.0062693777 0.041503686 0.039999999 -0.23852047 -0.14741376 0.38593423
0.0068973619 0.040467031 0.039999999 -0.23852047 -0.14741376 0.38593423
0.0075254538 0.039430998 0.039999999 -0.23852047 -0.14741376 0.38593423
0.008153663 0.038395572 0.039999999 -0.23852047 -0.14741376 0.38593423
0.0087819993 0.037360735 0.039999999 -0.23852047 -0.14741376 0.38593423
0.0094104707 0.036326472 0.039999999 -0.23852047 -0.14741376 0.38593423
0.010039088 0.035292767 0.039999999 -0.23852047 -0.14741376 0.38593423
0.010667861 0.034259606 0.039999999 -0.23852047 -0.14741376 0.38593423
0.011296799 0.033226971 0.039999999 -0.23852047 -0.14741376 0.38593423
0.011925912 0.032194845 0.039999999 -0.23852047 -0.14741376 0.38593423
0.012555208 0.031163216 0.039999999 -0.23852047 -0.14741376 0.38593423
0.013184698 0.030132063 0.039999999 -0.23852047 -0.14741376 0.38593423
0.013814391 0.029101372 0.039999999 -0.23852047 -0.14741376 0.38593423
0.014444296 0.028071128 0.039999999 -0.23852047 -0.14741376 0.38593423
0.015074424 0.027041314 0.039999999 -0.23852047 -0.14741376 0.38593423
0.015704783 0.026011916 0.039999999 -0.23852047 -0.14741376 0.38593423
0.016335385 0.024982914 0.039999999 -0.23852047 -0.14741376 0.38593423
0.016966235 0.023954298 0.039999999 -0.23852047 -0.14741376 0.38593423
0.017597347 0.022926047 0.039999999 -0.23852047 -0.14741376 0.38593423
0.01822873 0.021898149 0.039999999 -0.23852047 -0.14741376 0.38593423
0.018860392 0.020870585 0.039999999 -0.23852047 -0.14741376 0.38593423
0.019492343 0.019843342 0.039999999 -0.23852047 -0.14741376 0.38593423
0.020124594 0.018816402 0.039999999 -0.23852047 -0.14741376 0.38593423
0.020757154 0.017789751 0.039999999 -0.23852047 -0.14741376 0.38593423
0.02139003 0.016763372 0.039999999 -0.23852047 -0.14741376 0.38593423
0.022023235 0.01573725 0.039999999 -0.23852047 -0.14741376 0.38593423
0.022656778 0.01471137 0.039999999 -0.23852047 -0.14741376 0.38593423
0.023290668 0.013685714 0.039999999 -0.23852047 -0.14741376 0.38593423
0.023924915 0.012660269 0.039999999 -0.23852047 -0.14741376 0.38593423
0.024559528 0.011635018 0.039999999 -0.23852047 -0.14741376 0.38593423
0.025194518 0.010609944 0.039999999 -0.23852047 -0.14741376 0.38593423
0.025829893 0.0095850341 0.039999999 -0.23852047 -0.14741376 0.38593423
0.026465666 0.008560271 0.039999999 -0.23852047 -0.14741376 0.38593423
0.027101843 0.0075356392 0.039999999 -0.23852047 -0.14741376 0.38593423
0.027738435 0.0065111234 0.039999999 -0.23852047 -0.14741376 0.38593423
0.028375454 0.0054867077 0.039999999 -0.23852047 -0.14741376 0.38593423
0.029012907 0.0044623762 0.039999999 -0.23852047 -0.14741376 0.38593423
0.029650804 0.0034381137 0.039999999 -0.23852047 -0.14741376 0.38593423
0.030289156 0.0024139045 0.039999999 -0.23852047 -0.14741376 0.38593423
0.030927975 0.0013897327 0.039999999 -0.23852047 -0.14741376 0.38593423
0.031567264 0.00036558282 0.039999999 -0.23852047 -0.14741376 0.38593423
0.033421926 0 0.038447626 -0.23852047 -0.14741376 0.38593423
0.035980716 0 0.036005598 -0.23852047 -0.14741376 0.38593423
0.03857629 0 0.033528939 -0.23852047 -0.14741376 0.38593423
0 0.078529723 0.022680126 -0.23852047 -0.14741376 0.38593423
2.7755576e-17 0.076801121 0.023681261 -0.23852047 -0.14741376 0.38593423
0 0.075083263 0.024676653 -0.23852047 -0.14741376 0.38593423
2.7755576e-17 0.073376022 0.025666367 -0.23852047 -0.14741376 0.38593423
2.7755576e-17 0.071679294 0.026650466 -0.23852047 -0.14741376 0.38593423
2.7755576e-17 0.069992952 0.027629012 -0.23852047 -0.14741376 0.38593423
2.7755576e-17 0.068316892 0.028602069 -0.23852047 -0.14741376 0.38593423
2.7755576e-17 0.066650994 0.029569695 -0.23852047 -0.14741376 0.38593423
2.7755576e-17 0.064995147 0.030531952 -0.23852047 -0.14741376 0.38593423
5.5511151e-17 0.063349247 0.031488899 -0.23852047 -0.14741376 0.38593423
2.7755576e-17 0.061713185 0.032440595 -0.23852047 -0.14741376 0.38593423
0 0.06008685 0.033387098 -0.23852047 -0.14741376 0.38593423
0 0.058470141 0.034328461 -0.23852047 -0.14741376 0.38593423
2.7755576e-17 0.056862954 0.035264742 -0.23852047 -0.14741376 0.38593423
2.7755576e-17 0.055265188 0.036196001 -0.23852047 -0.14741376 0.38593423
2.7755576e-17 0.053676739 0.037122283 -0.23852047 -0.14741376 0.38593423
0 0.052097514 0.038043652 -0.23852047 -0.14741376 0.38593423
2.7755576e-17 0.050527409 0.038960155 -0.23852047 -0.14741376 0.38593423
5.5511151e-17 0.04896633 0.039871842 -0.23852047 -0.14741376 0.38593423
0.00053817272 0.047853772 0.039999999 -0.23852047 -0.14741376 0.38593423
0.0011646975 0.046814684 0.039999999 -0.23852047 -0.14741376 0.38593423
0.0017912535 0.045776319 0.039999999 -0.23852047 -0.14741376 0.38593423
0.0024178501 0.044738669 0.039999999 -0.23852047 -0.14741376 0.38593423
0.003044497 0.043701716 0.039999999 -0.23852047 -0.14741376 0.38593423
0.0036712037 0.042665437 0.039999999 -0.23852047 -0.14741376 0.38593423
0.0042979801 0.041629825 0.039999999 -0.23852047 -0.14741376 0.38593423
0.0049248347 0.040594857 0.039999999 -0.23852047 -0.14741376 0.38593423
0.0055517782 0.039560519 0.039999999 -0.23852047 -0.14741376 0.38593423
0.0061788191 0.038526796 0.039999999 -0.23852047 -0.14741376 0.38593423
0.0068059675 0.037493668 0.039999999 -0.23852047 -0.14741376 0.38593423
0.0074332329 0.036461126 0.039999999 -0.23852047 -0.14741376 0.38593423
0.0080606248 0.035429146 0.039999999 -0.23852047 -0.14741376 0.38593423
0.0086881518 0.034397718 0.039999999 -0.23852047 -0.14741376 0.38593423
0.0093158251 0.033366825 0.039999999 -0.23852047 -0.14741376 0.38593423
0.0099436529 0.032336447 0.039999999 -0.23852047 -0.14741376 0.38593423
0.010571645 0.031306572 0.039999999 -0.23852047 -0.14741376 0.38593423
0.011199811 0.030277185 0.039999999 -0.23852047 -0.14741376 0.38593423
0.01182816 0.029248267 0.039999999 -0.23852047 -0.14741376 0.38593423
0.012456702 0.028219802 0.039999999 -0.23852047 -0.14741376 0.38593423
0.013085447 0.027191777 0.039999999 -0.23852047 -0.14741376 0.38593423
0.013714404 0.026164174 0.039999999 -0.23852047 -0.14741376 0.38593423
0.014343581 0.025136979 0.039999999 -0.23852047 -0.14741376 0.38593423
0.01497299 0.024110174 0.039999999 -0.23852047 -0.14741376 0.38593423
0.015602641 0.023083745 0.039999999 -0.23852047 -0.14741376 0.38593423
0.016232541 0.022057675 0.039999999 -0.23852047 -0.14741376 0.38593423
