# .PCD v0.7 - Point Cloud Data file format
VERSION 0.7
FIELDS x y z vp_x vp_y vp_z
SIZE 4 4 4 4 4 4
TYPE F F F F F F
COUNT 1 1 1 1 1 1
WIDTH 687
HEIGHT 1
VIEWPOINT 0 0 0 1 0 0 0
POINTS 687
DATA ascii
0.036238786 0.057822954 0.07 0.23852047 -0.14741376 0.38593423
0.036813978 0.058797892 0.07 0.23852047 -0.14741376 0.38593423
0.037389409 0.059773963 0.07 0.23852047 -0.14741376 0.38593423
0.037965085 0.060751185 0.07 0.23852047 -0.14741376 0.38593423
0.038541019 0.061729573 0.07 0.23852047 -0.14741376 0.38593423
0.039117217 0.062709145 0.07 0.23852047 -0.14741376 0.38593423
0.039619405 0.063768789 0.069881961 0.23852047 -0.14741376 0.38593423
0.039073478 0.065952405 0.068092495 0.23852047 -0.14741376 0.38593423
0.037949454 0.068778887 0.065368161 0.23852047 -0.14741376 0.38593423
0.00016759864 0.045896024 0.039999999 0.23852047 -0.14741376 0.38593423
0.00079315249 0.046932742 0.039999999 0.23852047 -0.14741376 0.38593423
0.001418694 0.047970194 0.039999999 0.23852047 -0.14741376 0.38593423
0.0083563048 0.043765455 0.049233746 0.23852047 -0.14741376 0.38593423
0.01322753 0.041208107 0.055485591 0.23852047 -0.14741376 0.38593423
0.015894549 0.04045495 0.058529045 0.23852047 -0.14741376 0.38593423
0.018031646 0.040125638 0.060807288 0.23852047 -0.14741376 0.38593423
0.019873681 0.040029299 0.062661409 0.23852047 -0.14741376 0.38593423
0.021529311 0.040077873 0.064249068 0.23852047 -0.14741376 0.38593423
0.023036648 0.040241856 0.065624759 0.23852047 -0.14741376 0.38593423
0.024400566 0.040519904 0.066794015 0.23852047 -0.14741376 0.38593423
0.025698634 0.040846273 0.067871086 0.23852047 -0.14741376 0.38593423
0.026898932 0.041250721 0.068807356 0.23852047 -0.14741376 0.38593423
0.028029192 0.041710302 0.069643363 0.23852047 -0.14741376 0.38593423
0.028838374 0.042453762 0.07 0.23852047 -0.14741376 0.38593423
0.029410314 0.043411337 0.07 0.23852047 -0.14741376 0.38593423
0.029982366 0.044369798 0.07 0.23852047 -0.14741376 0.38593423
0.030554539 0.045329157 0.07 0.23852047 -0.14741376 0.38593423
0.031126838 0.046289433 0.07 0.23852047 -0.14741376 0.38593423
0.031699277 0.047250636 0.07 0.23852047 -0.14741376 0.38593423
0.032271862 0.048212785 0.07 0.23852047 -0.14741376 0.38593423
0.032844599 0.049175899 0.07 0.23852047 -0.14741376 0.38593423
0.033417504 0.050139986 0.07 0.23852047 -0.14741376 0.38593423
0.033990581 0.051105071 0.07 0.23852047 -0.14741376 0.38593423
0.034563839 0.052071162 0.07 0.23852047 -0.14741376 0.38593423
0.035137292 0.05303828 0.07 0.23852047 -0.14741376 0.38593423
0.035710942 0.054006439 0.07 0.23852047 -0.14741376 0.38593423
0.036284801 0.054975651 0.07 0.23852047 -0.14741376 0.38593423
0.036858879 0.055945944 0.07 0.23852047 -0.14741376 0.38593423
0.037433185 0.056917321 0.07 0.23852047 -0.14741376 0.38593423
0.038007725 0.057889804 0.07 0.23852047 -0.14741376 0.38593423
0.038582511 0.058863413 0.07 0.23852047 -0.14741376 0.38593423
0.039157555 0.059838161 0.07 0.23852047 -0.14741376 0.38593423
0.039732859 0.06081406 0.07 0.23852047 -0.14741376 0.38593423
0.039867342 0.06225669 0.069296934 0.23852047 -0.14741376 0.38593423
0.039550729 0.064187624 0.06786821 0.23852047 -0.14741376 0.38593423
0.038918581 0.066472635 0.065924786 0.23852047 -0.14741376 0.38593423
0.037498243 0.06962993 0.062702112 0.23852047 -0.14741376 0.38593423
0.0002445344 0.04291499 0.039999999 0.23852047 -0.14741376 0.38593423
0.00086915505 0.04394795 0.039999999 0.23852047 -0.14741376 0.38593423
0.0014937536 0.044981599 0.039999999 0.23852047 -0.14741376 0.38593423
0.0021183398 0.046015956 0.039999999 0.23852047 -0.14741376 0.38593423
0.0027429229 0.047051039 0.039999999 0.23852047 -0.14741376 0.38593423
0.0094029373 0.043069154 0.048878729 0.23852047 -0.14741376 0.38593423
0.013578726 0.041089769 0.054140449 0.23852047 -0.14741376 0.38593423
0.016182236 0.040391631 0.057104889 0.23852047 -0.14741376 0.38593423
0.018279115 0.040098716 0.059333868 0.23852047 -0.14741376 0.38593423
0.020092832 0.040029299 0.061153717 0.23852047 -0.14741376 0.38593423
0.021726996 0.040099379 0.062715597 0.23852047 -0.14741376 0.38593423
0.023237383 0.040263891 0.064100787 0.23852047 -0.14741376 0.38593423
0.024584133 0.040560305 0.06524808 0.23852047 -0.14741376 0.38593423
0.025867475 0.040903166 0.066306189 0.23852047 -0.14741376 0.38593423
0.027070733 0.041308608 0.067249231 0.23852047 -0.14741376 0.38593423
0.028187843 0.041783705 0.068067096 0.23852047 -0.14741376 0.38593423
0.029269593 0.042284179 0.068835698 0.23852047 -0.14741376 0.38593423
0.030257041 0.042864591 0.069465049 0.23852047 -0.14741376 0.38593423
0.031180372 0.04349912 0.07 0.23852047 -0.14741376 0.38593423
0.031751793 0.044456173 0.07 0.23852047 -0.14741376 0.38593423
0.032323349 0.045414135 0.07 0.23852047 -0.14741376 0.38593423
0.032895051 0.046373017 0.07 0.23852047 -0.14741376 0.38593423
0.033466905 0.047332834 0.07 0.23852047 -0.14741376 0.38593423
0.034038927 0.048293602 0.07 0.23852047 -0.14741376 0.38593423
0.034611117 0.049255338 0.07 0.23852047 -0.14741376 0.38593423
0.035183489 0.050218057 0.07 0.23852047 -0.14741376 0.38593423
0.035756052 0.051181775 0.07 0.23852047 -0.14741376 0.38593423
0.036328815 0.052146506 0.07 0.23852047 -0.14741376 0.38593423
0.036901783 0.053112268 0.07 0.23852047 -0.14741376 0.38593423
0.037474971 0.054079078 0.07 0.23852047 -0.14741376 0.38593423
0.038048383 0.05504695 0.07 0.23852047 -0.14741376 0.38593423
0.038622029 0.056015901 0.07 0.23852047 -0.14741376 0.38593423
0.039195921 0.056985945 0.07 0.23852047 -0.14741376 0.38593423
0.039770063 0.057957102 0.07 0.23852047 -0.14741376 0.38593423
0.039963473 0.059326082 0.069392614 0.23852047 -0.14741376 0.38593423
0.03995017 0.06091943 0.068450756 0.23852047 -0.14741376 0.38593423
0.039799806 0.062668562 0.067283176 0.23852047 -0.14741376 0.38593423
0.039431397 0.064663209 0.065757625 0.23852047 -0.14741376 0.38593423
0.03866994 0.067096658 0.063588664 0.23852047 -0.14741376 0.38593423
0.036941852 0.070599087 0.059842706 0.23852047 -0.14741376 0.38593423
0.000319215 0.039950158 0.039999999 0.23852047 -0.14741376 0.38593423
0.00094290613 0.040979467 0.039999999 0.23852047 -0.14741376 0.38593423
0.0015665658 0.042009428 0.039999999 0.23852047 -0.14741376 0.38593423
0.0021902032 0.043040056 0.039999999 0.23852047 -0.14741376 0.38593423
0.0028138282 0.044071365 0.039999999 0.23852047 -0.14741376 0.38593423
0.0034374497 0.045103379 0.039999999 0.23852047 -0.14741376 0.38593423
0.0040610773 0.046136104 0.039999999 0.23852047 -0.14741376 0.38593423
0.010158781 0.042614397 0.048098266 0.23852047 -0.14741376 0.38593423
0.013931162 0.040971015 0.052790556 0.23852047 -0.14741376 0.38593423
0.016471099 0.040328056 0.055674914 0.23852047 -0.14741376 0.38593423
0.018527683 0.040071674 0.057853889 0.23852047 -0.14741376 0.38593423
0.020313015 0.040029299 0.059638921 0.23852047 -0.14741376 0.38593423
0.021925652 0.040120993 0.061174583 0.23852047 -0.14741376 0.38593423
0.023418738 0.040303808 0.062538728 0.23852047 -0.14741376 0.38593423
0.02476863 0.040600911 0.063694306 0.23852047 -0.14741376 0.38593423
0.026037198 0.040960353 0.064733125 0.23852047 -0.14741376 0.38593423
0.027243426 0.041366801 0.065682992 0.23852047 -0.14741376 0.38593423
0.028347343 0.041857496 0.066482402 0.23852047 -0.14741376 0.38593423
0.029426036 0.042364597 0.067247599 0.23852047 -0.14741376 0.38593423
0.030407066 0.042954855 0.06786757 0.23852047 -0.14741376 0.38593423
0.031369738 0.043557223 0.068462647 0.23852047 -0.14741376 0.38593423
0.03225306 0.044228729 0.068938874 0.23852047 -0.14741376 0.38593423
0.033115812 0.044916037 0.069385827 0.23852047 -0.14741376 0.38593423
0.033908192 0.045666583 0.069726273 0.23852047 -0.14741376 0.38593423
0.034656443 0.04645694 0.07 0.23852047 -0.14741376 0.38593423
0.035227742 0.047415379 0.07 0.23852047 -0.14741376 0.38593423
0.035799224 0.048374772 0.07 0.23852047 -0.14741376 0.38593423
0.036370892 0.049335141 0.07 0.23852047 -0.14741376 0.38593423
0.036942758 0.050296497 0.07 0.23852047 -0.14741376 0.38593423
0.037514832 0.051258855 0.07 0.23852047 -0.14741376 0.38593423
0.038087122 0.052222233 0.07 0.23852047 -0.14741376 0.38593423
0.038659636 0.053186648 0.07 0.23852047 -0.14741376 0.38593423
0.039130971 0.054254685 0.069839232 0.23852047 -0.14741376 0.38593423
0.039466672 0.055463854 0.06946151 0.23852047 -0.14741376 0.38593423
0.039708488 0.056774516 0.068931498 0.23852047 -0.14741376 0.38593423
0.039899431 0.058144435 0.068316638 0.23852047 -0.14741376 0.38593423
0.039980307 0.059636649 0.067521244 0.23852047 -0.14741376 0.38593423
0.039930888 0.061275139 0.066511184 0.23852047 -0.14741376 0.38593423
0.039731726 0.063083768 0.065253161 0.23852047 -0.14741376 0.38593423
0.039292827 0.065162323 0.063599378 0.23852047 -0.14741376 0.38593423
0.038418818 0.067726895 0.061229266 0.23852047 -0.14741376 0.38593423
0.035994068 0.071997054 0.056320738 0.23852047 -0.14741376 0.38593423
0.00039171652 0.037001181 0.039999999 0.23852047 -0.14741376 0.38593423
0.001014482 0.038026951 0.039999999 0.23852047 -0.14741376 0.38593423
0.0016372064 0.039053332 0.039999999 0.23852047 -0.14741376 0.38593423
0.0022598992 0.040080342 0.039999999 0.23852047 -0.14741376 0.38593423
0.0028825698 0.04110799 0.039999999 0.23852047 -0.14741376 0.38593423
0.0035052274 0.0421363 0.039999999 0.23852047 -0.14741376 0.38593423
0.0041278815 0.043165285 0.039999999 0.23852047 -0.14741376 0.38593423
0.0047505414 0.044194959 0.039999999 0.23852047 -0.14741376 0.38593423
0.0053732167 0.045225341 0.039999999 0.23852047 -0.14741376 0.38593423
0.010808462 0.042248067 0.047159776 0.23852047 -0.14741376 0.38593423
0.014284848 0.040851839 0.051435873 0.23852047 -0.14741376 0.38593423
0.016761148 0.040264215 0.054239061 0.23852047 -0.14741376 0.38593423
0.018777365 0.040044513 0.056367289 0.23852047 -0.14741376 0.38593423
0.020534243 0.040029299 0.058116946 0.23852047 -0.14741376 0.38593423
0.022125293 0.040142711 0.059625942 0.23852047 -0.14741376 0.38593423
0.02360102 0.040343925 0.060968675 0.23852047 -0.14741376 0.38593423
0.024954069 0.040641725 0.062132608 0.23852047 -0.14741376 0.38593423
0.026207812 0.041017842 0.063151799 0.23852047 -0.14741376 0.38593423
0.027415708 0.041426472 0.064106539 0.23852047 -0.14741376 0.38593423
0.0285077 0.041931689 0.064889193 0.23852047 -0.14741376 0.38593423
0.029574201 0.042453744 0.065636903 0.23852047 -0.14741376 0.38593423
0.030557916 0.043045618 0.066261314 0.23852047 -0.14741376 0.38593423
0.031508807 0.043662943 0.066838384 0.23852047 -0.14741376 0.38593423
0.032394655 0.044336371 0.06731791 0.23852047 -0.14741376 0.38593423
0.033245642 0.045039009 0.067745835 0.23852047 -0.14741376 0.38593423
0.034040388 0.045791801 0.068088494 0.23852047 -0.14741376 0.38593423
0.034800064 0.046575822 0.06837815 0.23852047 -0.14741376 0.38593423
0.035507351 0.047408473 0.068587266 0.23852047 -0.14741376 0.38593423
0.036178593 0.048275117 0.06874077 0.23852047 -0.14741376 0.38593423
0.036799323 0.049190685 0.068815418 0.23852047 -0.14741376 0.38593423
0.037379652 0.050146393 0.068826482 0.23852047 -0.14741376 0.38593423
0.037912078 0.051150624 0.068761528 0.23852047 -0.14741376 0.38593423
0.038392939 0.052208152 0.068614081 0.23852047 -0.14741376 0.38593423
0.038832091 0.053310305 0.068399094 0.23852047 -0.14741376 0.38593423
0.039196685 0.054491375 0.068063579 0.23852047 -0.14741376 0.38593423
0.039533231 0.055705678 0.067680866 0.23852047 -0.14741376 0.38593423
0.039752893 0.057045326 0.067108013 0.23852047 -0.14741376 0.38593423
0.039916024 0.058450606 0.066440448 0.23852047 -0.14741376 0.38593423
0.039997261 0.059949454 0.065636396 0.23852047 -0.14741376 0.38593423
0.039911464 0.061633553 0.064556874 0.23852047 -0.14741376 0.38593423
0.039663095 0.063502334 0.063206658 0.23852047 -0.14741376 0.38593423
0.039153032 0.065665863 0.06142199 0.23852047 -0.14741376 0.38593423
0.038165182 0.068363458 0.058846209 0.23852047 -0.14741376 0.38593423
0.000462114 0.034067716 0.039999999 0.23852047 -0.14741376 0.38593423
0.0010839575 0.035090059 0.039999999 0.23852047 -0.14741376 0.38593423
0.0017057505 0.036112972 0.039999999 0.23852047 -0.14741376 0.38593423
0.0023275025 0.037136469 0.039999999 0.23852047 -0.14741376 0.38593423
0.0029492227 0.03816057 0.039999999 0.23852047 -0.14741376 0.38593423
0.0035709206 0.039185289 0.039999999 0.23852047 -0.14741376 0.38593423
0.0041926056 0.040210646 0.039999999 0.23852047 -0.14741376 0.38593423
0.0048142863 0.041236646 0.039999999 0.23852047 -0.14741376 0.38593423
0.0054359729 0.042263318 0.039999999 0.23852047 -0.14741376 0.38593423
0.0060576745 0.043290667 0.039999999 0.23852047 -0.14741376 0.38593423
0.0066794003 0.044318713 0.039999999 0.23852047 -0.14741376 0.38593423
0.011281393 0.042029262 0.045954946 0.23852047 -0.14741376 0.38593423
0.014639798 0.040732238 0.050076358 0.23852047 -0.14741376 0.38593423
0.017008981 0.040236894 0.052731972 0.23852047 -0.14741376 0.38593423
0.019014033 0.040029299 0.054852676 0.23852047 -0.14741376 0.38593423
0.020756526 0.040029299 0.056587718 0.23852047 -0.14741376 0.38593423
0.022325924 0.040164538 0.058069605 0.23852047 -0.14741376 0.38593423
0.023784241 0.040384252 0.059390549 0.23852047 -0.14741376 0.38593423
0.025140459 0.040682752 0.060562909 0.23852047 -0.14741376 0.38593423
0.026379326 0.041075636 0.061562128 0.23852047 -0.14741376 0.38593423
0.02757407 0.041499741 0.062499039 0.23852047 -0.14741376 0.38593423
0.028668925 0.042006277 0.06328737 0.23852047 -0.14741376 0.38593423
0.029723186 0.042543385 0.064017288 0.23852047 -0.14741376 0.38593423
0.0307096 0.043136884 0.06464617 0.23852047 -0.14741376 0.38593423
0.031648666 0.043769263 0.065204926 0.23852047 -0.14741376 0.38593423
0.032537054 0.044444624 0.065687791 0.23852047 -0.14741376 0.38593423
0.033376217 0.045162696 0.066096358 0.23852047 -0.14741376 0.38593423
0.034173347 0.045917746 0.066441253 0.23852047 -0.14741376 0.38593423
0.034920812 0.046717972 0.066709936 0.23852047 -0.14741376 0.38593423
0.035630316 0.047553234 0.066920169 0.23852047 -0.14741376 0.38593423
0.036288541 0.04843729 0.06705042 0.23852047 -0.14741376 0.38593423
0.036911312 0.049355868 0.067125022 0.23852047 -0.14741376 0.38593423
0.037477367 0.050330698 0.067109779 0.23852047 -0.14741376 0.38593423
0.038011637 0.051338397 0.067043535 0.23852047 -0.14741376 0.38593423
0.03847634 0.052417468 0.066865578 0.23852047 -0.14741376 0.38593423
0.038917098 0.053523645 0.066647902 0.23852047 -0.14741376 0.38593423
0.039262831 0.054729637 0.066276126 0.23852047 -0.14741376 0.38593423
0.039577037 0.055972826 0.065851033 0.23852047 -0.14741376 0.38593423
0.039797604 0.057318013 0.065271929 0.23852047 -0.14741376 0.38593423
0.039932739 0.058758989 0.064550713 0.23852047 -0.14741376 0.38593423
0.039983939 0.060296327 0.063688554 0.23852047 -0.14741376 0.38593423
0.039891891 0.061994702 0.062587634 0.23852047 -0.14741376 0.38593423
0.039593901 0.063924327 0.061143436 0.23852047 -0.14741376 0.38593423
0.039011985 0.066173889 0.05922519 0.23852047 -0.14741376 0.38593423
0.037721671 0.069208518 0.056131437 0.23852047 -0.14741376 0.38593423
0.00053048128 0.031149436 0.039999999 0.23852047 -0.14741376 0.38593423
0.0011514064 0.032168455 0.039999999 0.23852047 -0.14741376 0.38593423
0.0017722719 0.033188008 0.039999999 0.23852047 -0.14741376 0.38593423
0.0023930869 0.034208104 0.039999999 0.23852047 -0.14741376 0.38593423
0.0030138609 0.035228767 0.039999999 0.23852047 -0.14741376 0.38593423
0.003634603 0.036250003 0.039999999 0.23852047 -0.14741376 0.38593423
0.0042553227 0.037271835 0.039999999 0.23852047 -0.14741376 0.38593423
0.0048760287 0.038294278 0.039999999 0.23852047 -0.14741376 0.38593423
0.005496731 0.039317343 0.039999999 0.23852047 -0.14741376 0.38593423
0.0061174389 0.040341053 0.039999999 0.23852047 -0.14741376 0.38593423
0.0067381612 0.041365419 0.039999999 0.23852047 -0.14741376 0.38593423
0.0073589073 0.042390455 0.039999999 0.23852047 -0.14741376 0.38593423
0.0079796864 0.04341618 0.039999999 0.23852047 -0.14741376 0.38593423
0.01175554 0.041809898 0.044747014 0.23852047 -0.14741376 0.38593423
0.014930802 0.040667064 0.048613571 0.23852047 -0.14741376 0.38593423
0.017257448 0.040209863 0.05121728 0.23852047 -0.14741376 0.38593423
0.01923392 0.040029299 0.053303901 0.23852047 -0.14741376 0.38593423
0.020979872 0.040029299 0.05505117 0.23852047 -0.14741376 0.38593423
0.022527559 0.040186472 0.05650549 0.23852047 -0.14741376 0.38593423
0.023968408 0.040424787 0.05780426 0.23852047 -0.14741376 0.38593423
0.025327807 0.040723983 0.058985118 0.23852047 -0.14741376 0.38593423
0.02655175 0.041133735 0.059964024 0.23852047 -0.14741376 0.38593423
0.027733296 0.041573405 0.060882784 0.23852047 -0.14741376 0.38593423
0.028831024 0.042081274 0.061676845 0.23852047 -0.14741376 0.38593423
0.029873 0.042633522 0.062388662 0.23852047 -0.14741376 0.38593423
0.030862128 0.043228656 0.063022055 0.23852047 -0.14741376 0.38593423
0.031789318 0.04387619 0.063562177 0.23852047 -0.14741376 0.38593423
0.032680262 0.044553492 0.064048402 0.23852047 -0.14741376 0.38593423
0.033507556 0.045287099 0.064437293 0.23852047 -0.14741376 0.38593423
0.034307081 0.046044417 0.06478443 0.23852047 -0.14741376 0.38593423
0.035042278 0.046860967 0.065031789 0.23852047 -0.14741376 0.38593423
0.035754014 0.047698855 0.065243147 0.23852047 -0.14741376 0.38593423
0.03639916 0.048600454 0.065349758 0.23852047 -0.14741376 0.38593423
0.037023984 0.049522057 0.065424316 0.23852047 -0.14741376 0.38593423
0.037575696 0.050516155 0.065382324 0.23852047 -0.14741376 0.38593423
0.038111817 0.051527351 0.065314762 0.23852047 -0.14741376 0.38593423
0.038560282 0.052628137 0.065105788 0.23852047 -0.14741376 0.38593423
0.038990911 0.053750202 0.064866498 0.23852047 -0.14741376 0.38593423
0.039329425 0.054969493 0.064476728 0.23852047 -0.14741376 0.38593423
0.039621145 0.056241829 0.064008512 0.23852047 -0.14741376 0.38593423
0.039842628 0.057592593 0.063423082 0.23852047 -0.14741376 0.38593423
0.039949574 0.059069607 0.062647253 0.23852047 -0.14741376 0.38593423
0.039964665 0.060651969 0.061716367 0.23852047 -0.14741376 0.38593423
0.039846115 0.06238614 0.060560592 0.23852047 -0.14741376 0.38593423
0.039516009 0.064358436 0.059049908 0.23852047 -0.14741376 0.38593423
0.038806289 0.066754453 0.056904245 0.23852047 -0.14741376 0.38593423
0.03726209 0.070075348 0.053366225 0.23852047 -0.14741376 0.38593423
0.029801238 0.079876609 0.039999999 0.23852047 -0.14741376 0.38593423
0.00059689122 0.02824601 0.039999999 0.23852047 -0.14741376 0.38593423
0.0012169017 0.029261814 0.039999999 0.23852047 -0.14741376 0.38593423
0.0018368433 0.030278109 0.039999999 0.23852047 -0.14741376 0.38593423
0.0024567253 0.031294912 0.039999999 0.23852047 -0.14741376 0.38593423
0.0030765568 0.03231224 0.039999999 0.23852047 -0.14741376 0.38593423
0.0036963471 0.033330105 0.039999999 0.23852047 -0.14741376 0.38593423
0.0043161055 0.034348525 0.039999999 0.23852047 -0.14741376 0.38593423
0.0049358411 0.035367515 0.039999999 0.23852047 -0.14741376 0.38593423
0.0055555636 0.03638709 0.039999999 0.23852047 -0.14741376 0.38593423
0.0061752815 0.037407264 0.039999999 0.23852047 -0.14741376 0.38593423
0.0067950045 0.038428053 0.039999999 0.23852047 -0.14741376 0.38593423
0.0074147419 0.039449479 0.039999999 0.23852047 -0.14741376 0.38593423
0.0080345031 0.04047155 0.039999999 0.23852047 -0.14741376 0.38593423
0.0086542964 0.041494284 0.039999999 0.23852047 -0.14741376 0.38593423
0.0092741325 0.042517699 0.039999999 0.23852047 -0.14741376 0.38593423
0.012230916 0.041589964 0.043535952 0.23852047 -0.14741376 0.38593423
0.015221217 0.040603146 0.047141895 0.23852047 -0.14741376 0.38593423
0.017507054 0.040182706 0.049695659 0.23852047 -0.14741376 0.38593423
0.019454874 0.040029299 0.051747624 0.23852047 -0.14741376 0.38593423
0.021190686 0.040041037 0.053486407 0.23852047 -0.14741376 0.38593423
0.022730205 0.040208519 0.054933514 0.23852047 -0.14741376 0.38593423
0.024153532 0.040465534 0.056209732 0.23852047 -0.14741376 0.38593423
0.025500277 0.040779434 0.057374712 0.23852047 -0.14741376 0.38593423
0.026725095 0.041192144 0.058357395 0.23852047 -0.14741376 0.38593423
0.027893392 0.041647475 0.059257686 0.23852047 -0.14741376 0.38593423
0.028994009 0.042156678 0.060057525 0.23852047 -0.14741376 0.38593423
0.030023653 0.042724166 0.060750924 0.23852047 -0.14741376 0.38593423
0.031015506 0.043320939 0.061388873 0.23852047 -0.14741376 0.38593423
0.031930774 0.043983724 0.061910037 0.23852047 -0.14741376 0.38593423
0.032824285 0.044662979 0.062399659 0.23852047 -0.14741376 0.38593423
0.033639662 0.045412231 0.062768526 0.23852047 -0.14741376 0.38593423
0.034441598 0.046171833 0.063117936 0.23852047 -0.14741376 0.38593423
0.035164468 0.047004819 0.063343607 0.23852047 -0.14741376 0.38593423
0.035878453 0.047845349 0.06355609 0.23852047 -0.14741376 0.38593423
0.03651046 0.048764616 0.063638672 0.23852047 -0.14741376 0.38593423
0.037137311 0.049689304 0.063713126 0.23852047 -0.14741376 0.38593423
0.037674643 0.050702784 0.063643977 0.23852047 -0.14741376 0.38593423
0.038201749 0.051728312 0.063557588 0.23852047 -0.14741376 0.38593423
0.038644768 0.052840173 0.063334577 0.23852047 -0.14741376 0.38593423
0.039056633 0.053986922 0.063059412 0.23852047 -0.14741376 0.38593423
0.039396461 0.055210959 0.062665254 0.23852047 -0.14741376 0.38593423
0.039665561 0.056512706 0.062153157 0.23852047 -0.14741376 0.38593423
0.03988469 0.057872474 0.06155597 0.23852047 -0.14741376 0.38593423
0.039966531 0.059382495 0.060729902 0.23852047 -0.14741376 0.38593423
0.039945241 0.061010346 0.059729002 0.23852047 -0.14741376 0.38593423
0.039777525 0.062804446 0.058480363 0.23852047 -0.14741376 0.38593423
0.039376415 0.064861253 0.056838013 0.23852047 -0.14741376 0.38593423
0.038553365 0.067389227 0.054485872 0.23852047 -0.14741376 0.38593423
0.036440469 0.071338616 0.049974609 0.23852047 -0.14741376 0.38593423
0.031067999 0.078890823 0.039999999 0.23852047 -0.14741376 0.38593423
0.031695649 0.07994958 0.039999999 0.23852047 -0.14741376 0.38593423
4.2228919e-05 0.024344867 0.039999999 0.23852047 -0.14741376 0.38593423
0.00066141557 0.02535712 0.039999999 0.23852047 -0.14741376 0.38593423
0.001280515 0.026369812 0.039999999 0.23852047 -0.14741376 0.38593423
0.0018995365 0.027382957 0.039999999 0.23852047 -0.14741376 0.38593423
0.002518489 0.028396569 0.039999999 0.23852047 -0.14741376 0.38593423
0.0031373822 0.029410668 0.039999999 0.23852047 -0.14741376 0.38593423
0.0037562246 0.030425265 0.039999999 0.23852047 -0.14741376 0.38593423
0.0043750261 0.031440377 0.039999999 0.23852047 -0.14741376 0.38593423
0.0049937954 0.032456022 0.039999999 0.23852047 -0.14741376 0.38593423
0.0056125415 0.03347221 0.039999999 0.23852047 -0.14741376 0.38593423
0.0062312745 0.034488961 0.039999999 0.23852047 -0.14741376 0.38593423
0.0068500023 0.035506286 0.039999999 0.23852047 -0.14741376 0.38593423
0.0074687358 0.036524206 0.039999999 0.23852047 -0.14741376 0.38593423
0.0080874823 0.037542734 0.039999999 0.23852047 -0.14741376 0.38593423
0.008706253 0.038561884 0.039999999 0.23852047 -0.14741376 0.38593423
0.0093250554 0.039581675 0.039999999 0.23852047 -0.14741376 0.38593423
0.0099438997 0.040602118 0.039999999 0.23852047 -0.14741376 0.38593423
0.010562795 0.041623231 0.039999999 0.23852047 -0.14741376 0.38593423
0.012679743 0.041392688 0.042279445 0.23852047 -0.14741376 0.38593423
0.015512861 0.040538959 0.045663986 0.23852047 -0.14741376 0.38593423
0.017757807 0.040155429 0.048167035 0.23852047 -0.14741376 0.38593423
0.019676901 0.040029299 0.050183777 0.23852047 -0.14741376 0.38593423
0.021390973 0.040062826 0.051896069 0.23852047 -0.14741376 0.38593423
0.022933876 0.040230677 0.053353604 0.23852047 -0.14741376 0.38593423
0.024339626 0.04050649 0.054606866 0.23852047 -0.14741376 0.38593423
0.025671476 0.040837124 0.055752277 0.23852047 -0.14741376 0.38593423
0.026899368 0.041250866 0.05674215 0.23852047 -0.14741376 0.38593423
0.02805437 0.041721951 0.057623643 0.23852047 -0.14741376 0.38593423
0.029157888 0.042232499 0.058429319 0.23852047 -0.14741376 0.38593423
0.030175153 0.04281532 0.059103977 0.23852047 -0.14741376 0.38593423
0.031169746 0.04341374 0.059746519 0.23852047 -0.14741376 0.38593423
0.032073043 0.04409188 0.060248397 0.23852047 -0.14741376 0.38593423
0.032967009 0.044775087 0.060738079 0.23852047 -0.14741376 0.38593423
0.033772543 0.045538098 0.061089955 0.23852047 -0.14741376 0.38593423
0.034570739 0.04630585 0.061431844 0.23852047 -0.14741376 0.38593423
0.035287399 0.047149532 0.061645266 0.23852047 -0.14741376 0.38593423
0.035993662 0.048002347 0.061842937 0.23852047 -0.14741376 0.38593423
0.036622442 0.048929788 0.061917033 0.23852047 -0.14741376 0.38593423
0.037235014 0.049873583 0.0619651 0.23852047 -0.14741376 0.38593423
0.037774216 0.050890595 0.061894625 0.23852047 -0.14741376 0.38593423
0.038285155 0.051937643 0.061777584 0.23852047 -0.14741376 0.38593423
0.038729805 0.053053591 0.061551802 0.23852047 -0.14741376 0.38593423
0.039122798 0.05422524 0.061240144 0.23852047 -0.14741376 0.38593423
0.039463952 0.055454053 0.060841538 0.23852047 -0.14741376 0.38593423
0.039710287 0.056785479 0.060284793 0.23852047 -0.14741376 0.38593423
0.039901406 0.058180876 0.059633549 0.23852047 -0.14741376 0.38593423
0.039983615 0.05969768 0.05879847 0.23852047 -0.14741376 0.38593423
0.039925668 0.061371494 0.057726257 0.23852047 -0.14741376 0.38593423
0.039708368 0.063226216 0.056382935 0.23852047 -0.14741376 0.38593423
0.039235558 0.0653686 0.054606173 0.23852047 -0.14741376 0.38593423
0.038297862 0.068030469 0.052042861 0.23852047 -0.14741376 0.38593423
0.031702418 0.076854706 0.039999999 0.23852047 -0.14741376 0.38593423
0.03232903 0.077909507 0.039999999 0.23852047 -0.14741376 0.38593423
0.032956038 0.078965567 0.039999999 0.23852047 -0.14741376 0.38593423
0.00010583687 0.021473171 0.039999999 0.23852047 -0.14741376 0.38593423
0.00072412507 0.022482451 0.039999999 0.23852047 -0.14741376 0.38593423
0.0013423171 0.023492131 0.039999999 0.23852047 -0.14741376 0.38593423
0.0019604219 0.024502229 0.039999999 0.23852047 -0.14741376 0.38593423
0.002578449 0.025512755 0.039999999 0.23852047 -0.14741376 0.38593423
0.0031964073 0.026523728 0.039999999 0.23852047 -0.14741376 0.38593423
0.0038143059 0.027535161 0.039999999 0.23852047 -0.14741376 0.38593423
0.0044321544 0.028547073 0.039999999 0.23852047 -0.14741376 0.38593423
0.0050499612 0.029559474 0.039999999 0.23852047 -0.14741376 0.38593423
0.0056677358 0.030572383 0.039999999 0.23852047 -0.14741376 0.38593423
0.0062854872 0.031585816 0.039999999 0.23852047 -0.14741376 0.38593423
0.0069032251 0.032599784 0.039999999 0.23852047 -0.14741376 0.38593423
0.0075209583 0.033614308 0.039999999 0.23852047 -0.14741376 0.38593423
0.0081386957 0.034629397 0.039999999 0.23852047 -0.14741376 0.38593423
0.0087564476 0.035645071 0.039999999 0.23852047 -0.14741376 0.38593423
0.0093742218 0.036661346 0.039999999 0.23852047 -0.14741376 0.38593423
0.0099920277 0.037678231 0.039999999 0.23852047 -0.14741376 0.38593423
0.010609875 0.038695753 0.039999999 0.23852047 -0.14741376 0.38593423
0.011227774 0.039713915 0.039999999 0.23852047 -0.14741376 0.38593423
0.011845731 0.040732741 0.039999999 0.23852047 -0.14741376 0.38593423
0.013037484 0.041272145 0.040877972 0.23852047 -0.14741376 0.38593423
0.015805747 0.040474493 0.044179786 0.23852047 -0.14741376 0.38593423
0.01800972 0.040128022 0.04663134 0.23852047 -0.14741376 0.38593423
0.019900015 0.040029299 0.048612282 0.23852047 -0.14741376 0.38593423
0.02159228 0.040084723 0.050297618 0.23852047 -0.14741376 0.38593423
0.023138581 0.040252946 0.051765669 0.23852047 -0.14741376 0.38593423
0.024526695 0.040547665 0.052995585 0.23852047 -0.14741376 0.38593423
0.025843604 0.040895119 0.054121073 0.23852047 -0.14741376 0.38593423
0.027074579 0.041309904 0.055118203 0.23852047 -0.14741376 0.38593423
0.028216237 0.041796841 0.055980563 0.23852047 -0.14741376 0.38593423
0.029322673 0.042308737 0.056792125 0.23852047 -0.14741376 0.38593423
0.03032751 0.042906988 0.057447713 0.23852047 -0.14741376 0.38593423
0.031315319 0.043515854 0.058079801 0.23852047 -0.14741376 0.38593423
0.032216135 0.044200659 0.058577158 0.23852047 -0.14741376 0.38593423
0.033098232 0.044899385 0.059047263 0.23852047 -0.14741376 0.38593423
0.03390621 0.045664709 0.059401464 0.23852047 -0.14741376 0.38593423
0.034692135 0.046448763 0.05972207 0.23852047 -0.14741376 0.38593423
0.035411067 0.047295123 0.059936654 0.23852047 -0.14741376 0.38593423
0.036104251 0.048165463 0.06011067 0.23852047 -0.14741376 0.38593423
0.036735121 0.049095988 0.060184725 0.23852047 -0.14741376 0.38593423
0.037333336 0.050059035 0.060205951 0.23852047 -0.14741376 0.38593423
0.037874423 0.051079597 0.060134135 0.23852047 -0.14741376 0.38593423
0.038369112 0.052148346 0.05998591 0.23852047 -0.14741376 0.38593423
0.038815398 0.05326841 0.05975733 0.23852047 -0.14741376 0.38593423
0.039189409 0.054465171 0.059408545 0.23852047 -0.14741376 0.38593423
0.039531901 0.055698801 0.059005443 0.23852047 -0.14741376 0.38593423
0.039755329 0.057060178 0.058403265 0.23852047 -0.14741376 0.38593423
0.039918244 0.05849155 0.057696979 0.23852047 -0.14741376 0.38593423
0.039999075 0.060017016 0.056849886 0.23852047 -0.14741376 0.38593423
0.039905939 0.061735459 0.05570792 0.23852047 -0.14741376 0.38593423
0.039638638 0.063651495 0.05426807 0.23852047 -0.14741376 0.38593423
0.039093427 0.065880544 0.052354086 0.23852047 -0.14741376 0.38593423
0.037953515 0.068771228 0.049430124 0.23852047 -0.14741376 0.38593423
0.032958433 0.075880453 0.039999999 0.23852047 -0.14741376 0.38593423
0.03358439 0.076932594 0.039999999 0.23852047 -0.14741376 0.38593423
0.034210753 0.077985995 0.039999999 0.23852047 -0.14741376 0.38593423
0.034837525 0.079040661 0.039999999 0.23852047 -0.14741376 0.38593423
0.00016769633 0.018615289 0.039999999 0.23852047 -0.14741376 0.38593423
0.00078508951 0.019621694 0.039999999 0.23852047 -0.14741376 0.38593423
0.0014023776 0.020628465 0.039999999 0.23852047 -0.14741376 0.38593423
0.0020195695 0.021635614 0.039999999 0.23852047 -0.14741376 0.38593423
0.0026366748 0.022643154 0.039999999 0.23852047 -0.14741376 0.38593423
0.0032537021 0.023651104 0.039999999 0.23852047 -0.14741376 0.38593423
0.0038706607 0.024659477 0.039999999 0.23852047 -0.14741376 0.38593423
0.0044875597 0.025668288 0.039999999 0.23852047 -0.14741376 0.38593423
0.0051044081 0.026677553 0.039999999 0.23852047 -0.14741376 0.38593423
0.0057212152 0.027687285 0.039999999 0.23852047 -0.14741376 0.38593423
0.0063379901 0.028697502 0.039999999 0.23852047 -0.14741376 0.38593423
0.0069547421 0.029708218 0.039999999 0.23852047 -0.14741376 0.38593423
0.0075714798 0.030719448 0.039999999 0.23852047 -0.14741376 0.38593423
0.0081882123 0.031731207 0.039999999 0.23852047 -0.14741376 0.38593423
0.0088049499 0.032743514 0.039999999 0.23852047 -0.14741376 0.38593423
0.0094216997 0.033756375 0.039999999 0.23852047 -0.14741376 0.38593423
0.010038473 0.034769818 0.039999999 0.23852047 -0.14741376 0.38593423
0.010655277 0.035783846 0.039999999 0.23852047 -0.14741376 0.38593423
0.011272123 0.036798485 0.039999999 0.23852047 -0.14741376 0.38593423
0.011889018 0.037813742 0.039999999 0.23852047 -0.14741376 0.38593423
0.012505973 0.03882964 0.039999999 0.23852047 -0.14741376 0.38593423
0.013122995 0.039846186 0.039999999 0.23852047 -0.14741376 0.38593423
0.013740095 0.040863402 0.039999999 0.23852047 -0.14741376 0.38593423
0.016099887 0.040409755 0.04268923 0.23852047 -0.14741376 0.38593423
0.018262805 0.040100489 0.045088507 0.23852047 -0.14741376 0.38593423
0.020124227 0.040029299 0.047033053 0.23852047 -0.14741376 0.38593423
0.021794619 0.040106736 0.048690975 0.23852047 -0.14741376 0.38593423
0.023333251 0.040284991 0.050152339 0.23852047 -0.14741376 0.38593423
0.024714753 0.040589053 0.051375795 0.23852047 -0.14741376 0.38593423
0.026016666 0.040953435 0.052481007 0.23852047 -0.14741376 0.38593423
0.027250743 0.041369263 0.053485453 0.23852047 -0.14741376 0.38593423
0.028379004 0.041872144 0.054328348 0.23852047 -0.14741376 0.38593423
0.029477304 0.042395446 0.05512834 0.23852047 -0.14741376 0.38593423
0.030480733 0.042999178 0.055782035 0.23852047 -0.14741376 0.38593423
0.031456623 0.043623272 0.056395341 0.23852047 -0.14741376 0.38593423
0.032360058 0.044310071 0.05689621 0.23852047 -0.14741376 0.38593423
0.033230234 0.045024421 0.057346396 0.23852047 -0.14741376 0.38593423
0.034040671 0.045792073 0.057702944 0.23852047 -0.14741376 0.38593423
0.034814272 0.046592548 0.058001902 0.23852047 -0.14741376 0.38593423
0.035535492 0.047441598 0.05821766 0.23852047 -0.14741376 0.38593423
0.036215525 0.048329595 0.05836761 0.23852047 -0.14741376 0.38593423
0.0368485 0.04926322 0.05844162 0.23852047 -0.14741376 0.38593423
0.037432291 0.050245672 0.058435552 0.23852047 -0.14741376 0.38593423
0.037975274 0.051269814 0.058362372 0.23852047 -0.14741376 0.38593423
0.038453616 0.052360438 0.05818243 0.23852047 -0.14741376 0.38593423
0.03890156 0.053484648 0.057951014 0.23852047 -0.14741376 0.38593423
0.039256476 0.054706737 0.057564463 0.23852047 -0.14741376 0.38593423
0.039576501 0.055969562 0.057117455 0.23852047 -0.14741376 0.38593423
0.039800689 0.057336822 0.056508403 0.23852047 -0.14741376 0.38593423
0.039935205 0.058804519 0.055746082 0.23852047 -0.14741376 0.38593423
0.039979655 0.060375359 0.054828435 0.23852047 -0.14741376 0.38593423
0.039886061 0.062102269 0.053673789 0.23852047 -0.14741376 0.38593423
0.039568324 0.064080328 0.052135509 0.23852047 -0.14741376 0.38593423
0.038947642 0.066399693 0.050077483 0.23852047 -0.14741376 0.38593423
0.037490863 0.069643848 0.046594948 0.23852047 -0.14741376 0.38593423
0.034208827 0.074910566 0.039999999 0.23852047 -0.14741376 0.38593423
0.034834132 0.075960062 0.039999999 0.23852047 -0.14741376 0.38593423
0.03545985 0.077010795 0.039999999 0.23852047 -0.14741376 0.38593423
0.036085986 0.078062795 0.039999999 0.23852047 -0.14741376 0.38593423
0.03671255 0.079116069 0.039999999 0.23852047 -0.14741376 0.38593423
0.00022787618 0.015770914 0.039999999 0.23852047 -0.14741376 0.38593423
0.00084437773 0.016774546 0.039999999 0.23852047 -0.14741376 0.38593423
0.0014607654 0.017778507 0.039999999 0.23852047 -0.14741376 0.38593423
0.0020770479 0.018782806 0.039999999 0.23852047 -0.14741376 0.38593423
0.0026932349 0.019787461 0.039999999 0.23852047 -0.14741376 0.38593423
0.0033093351 0.020792488 0.039999999 0.23852047 -0.14741376 0.38593423
0.0039253575 0.021797899 0.039999999 0.23852047 -0.14741376 0.38593423
0.0045413109 0.022803713 0.039999999 0.23852047 -0.14741376 0.38593423
0.0051572053 0.023809941 0.039999999 0.23852047 -0.14741376 0.38593423
0.0057730488 0.024816601 0.039999999 0.23852047 -0.14741376 0.38593423
0.006388851 0.025823705 0.039999999 0.23852047 -0.14741376 0.38593423
0.007004621 0.026831271 0.039999999 0.23852047 -0.14741376 0.38593423
0.0076203677 0.027839312 0.039999999 0.23852047 -0.14741376 0.38593423
0.0082361 0.028847845 0.039999999 0.23852047 -0.14741376 0.38593423
0.0088518271 0.029856885 0.039999999 0.23852047 -0.14741376 0.38593423
0.009467558 0.030866446 0.039999999 0.23852047 -0.14741376 0.38593423
0.010083303 0.031876542 0.039999999 0.23852047 -0.14741376 0.38593423
0.010699069 0.032887191 0.039999999 0.23852047 -0.14741376 0.38593423
0.011314867 0.033898409 0.039999999 0.23852047 -0.14741376 0.38593423
0.011930705 0.034910206 0.039999999 0.23852047 -0.14741376 0.38593423
0.012546592 0.035922602 0.039999999 0.23852047 -0.14741376 0.38593423
0.013162538 0.036935613 0.039999999 0.23852047 -0.14741376 0.38593423
0.013778552 0.037949249 0.039999999 0.23852047 -0.14741376 0.38593423
0.014394643 0.03896353 0.039999999 0.23852047 -0.14741376 0.38593423
0.01501082 0.039978471 0.039999999 0.23852047 -0.14741376 0.38593423
0.016395293 0.040344737 0.04119226 0.23852047 -0.14741376 0.38593423
0.018517073 0.040072829 0.043538459 0.23852047 -0.14741376 0.38593423
0.020349547 0.040029299 0.04544602 0.23852047 -0.14741376 0.38593423
0.021998001 0.040128864 0.04707605 0.23852047 -0.14741376 0.38593423
0.023519013 0.040325876 0.048514985 0.23852047 -0.14741376 0.38593423
0.024903808 0.040630665 0.049747407 0.23852047 -0.14741376 0.38593423
0.026190672 0.041012067 0.050831977 0.23852047 -0.14741376 0.38593423
0.027425542 0.041431021 0.051840141 0.23852047 -0.14741376 0.38593423
0.028542683 0.041947871 0.052666899 0.23852047 -0.14741376 0.38593423
0.029628603 0.042486478 0.053448386 0.23852047 -0.14741376 0.38593423
0.030634832 0.043091897 0.054106843 0.23852047 -0.14741376 0.38593423
0.031598751 0.043731317 0.05470103 0.23852047 -0.14741376 0.38593423
0.032504823 0.044420119 0.055205442 0.23852047 -0.14741376 0.38593423
0.033363029 0.045150202 0.055635367 0.23852047 -0.14741376 0.38593423
0.034175936 0.045920193 0.055994283 0.23852047 -0.14741376 0.38593423
0.034937155 0.046737209 0.056271214 0.23852047 -0.14741376 0.38593423
0.035660673 0.047588971 0.056488156 0.23852047 -0.14741376 0.38593423
0.0363275 0.048494752 0.056613635 0.23852047 -0.14741376 0.38593423
0.036962591 0.049431503 0.056687593 0.23852047 -0.14741376 0.38593423
0.037531879 0.050433509 0.05665376 0.23852047 -0.14741376 0.38593423
0.038076773 0.051461253 0.056579206 0.23852047 -0.14741376 0.38593423
0.038538683 0.052573934 0.056367002 0.23852047 -0.14741376 0.38593423
0.038979951 0.053710721 0.056118939 0.23852047 -0.14741376 0.38593423
0.039324 0.054949962 0.055707745 0.23852047 -0.14741376 0.38593423
0.039621241 0.056242425 0.055215761 0.23852047 -0.14741376 0.38593423
0.039846372 0.057615437 0.054600038 0.23852047 -0.14741376 0.38593423
0.039952297 0.059119821 0.053780667 0.23852047 -0.14741376 0.38593423
0.039960083 0.060736511 0.052791137 0.23852047 -0.14741376 0.38593423
0.039824922 0.062515393 0.051554471 0.23852047 -0.14741376 0.38593423
0.039462984 0.064549424 0.049926892 0.23852047 -0.14741376 0.38593423
0.038692843 0.067039169 0.047597613 0.23852047 -0.14741376 0.38593423
0.036902647 0.070656911 0.043521035 0.23852047 -0.14741376 0.38593423
0.035453659 0.073944986 0.039999999 0.23852047 -0.14741376 0.38593423
0.036078312 0.074991852 0.039999999 0.23852047 -0.14741376 0.38593423
0.036703385 0.076039948 0.039999999 0.23852047 -0.14741376 0.38593423
0.037328884 0.077089287 0.039999999 0.23852047 -0.14741376 0.38593423
0.037954818 0.078139894 0.039999999 0.23852047 -0.14741376 0.38593423
0.038581204 0.079191789 0.039999999 0.23852047 -0.14741376 0.38593423
0.00028644441 0.012939754 0.039999999 0.23852047 -0.14741376 0.38593423
0.00090205768 0.01394071 0.039999999 0.23852047 -0.14741376 0.38593423
0.0015175482 0.014941954 0.039999999 0.23852047 -0.14741376 0.38593423
0.002132925 0.015943503 0.039999999 0.23852047 -0.14741376 0.38593423
0.0027481972 0.016945371 0.039999999 0.23852047 -0.14741376 0.38593423
0.0033633737 0.017947573 0.039999999 0.23852047 -0.14741376 0.38593423
0.0039784638 0.018950125 0.039999999 0.23852047 -0.14741376 0.38593423
0.0045934762 0.019953039 0.039999999 0.23852047 -0.14741376 0.38593423
0.0052084196 0.020956332 0.039999999 0.23852047 -0.14741376 0.38593423
0.0058233039 0.021960016 0.039999999 0.23852047 -0.14741376 0.38593423
0.0064381375 0.022964111 0.039999999 0.23852047 -0.14741376 0.38593423
0.0070529296 0.02396863 0.039999999 0.23852047 -0.14741376 0.38593423
0.0076676896 0.024973584 0.039999999 0.23852047 -0.14741376 0.38593423
0.0082824258 0.025978994 0.039999999 0.23852047 -0.14741376 0.38593423
0.0088971481 0.02698487 0.039999999 0.23852047 -0.14741376 0.38593423
0.0095118638 0.02799123 0.039999999 0.23852047 -0.14741376 0.38593423
0.010126584 0.028998088 0.039999999 0.23852047 -0.14741376 0.38593423
0.010741318 0.030005459 0.039999999 0.23852047 -0.14741376 0.38593423
0.011356073 0.03101336 0.039999999 0.23852047 -0.14741376 0.38593423
0.011970858 0.032021802 0.039999999 0.23852047 -0.14741376 0.38593423
0.012585684 0.033030804 0.039999999 0.23852047 -0.14741376 0.38593423
0.013200558 0.034040384 0.039999999 0.23852047 -0.14741376 0.38593423
0.013815491 0.035050549 0.039999999 0.23852047 -0.14741376 0.38593423
0.01443049 0.03606132 0.039999999 0.23852047 -0.14741376 0.38593423
0.015045566 0.037072711 0.039999999 0.23852047 -0.14741376 0.38593423
0.015660729 0.038084734 0.039999999 0.23852047 -0.14741376 0.38593423
0.016275985 0.03909741 0.039999999 0.23852047 -0.14741376 0.38593423
0.016891344 0.040110752 0.039999999 0.23852047 -0.14741376 0.38593423
0.018772537 0.040045038 0.041981123 0.23852047 -0.14741376 0.38593423
0.020575985 0.040029299 0.0438511 0.23852047 -0.14741376 0.38593423
0.022202438 0.040151104 0.045452759 0.23852047 -0.14741376 0.38593423
0.023705767 0.040366981 0.046868861 0.23852047 -0.14741376 0.38593423
0.025093872 0.040672496 0.048110329 0.23852047 -0.14741376 0.38593423
0.026365634 0.041071024 0.049173895 0.23852047 -0.14741376 0.38593423
0.027587155 0.041505791 0.050163258 0.23852047 -0.14741376 0.38593423
0.028707281 0.042024024 0.050996114 0.23852047 -0.14741376 0.38593423
0.029780772 0.04257803 0.05175877 0.23852047 -0.14741376 0.38593423
0.030789815 0.043185145 0.052422024 0.23852047 -0.14741376 0.38593423
0.031741712 0.043839999 0.052996758 0.23852047 -0.14741376 0.38593423
0.032650437 0.044530816 0.05350475 0.23852047 -0.14741376 0.38593423
0.033496618 0.045276739 0.053914055 0.23852047 -0.14741376 0.38593423
0.03431201 0.046049085 0.054275364 0.23852047 -0.14741376 0.38593423
0.035060789 0.04688276 0.05452989 0.23852047 -0.14741376 0.38593423
0.035786625 0.047737248 0.054748029 0.23852047 -0.14741376 0.38593423
0.036440179 0.048660953 0.054848611 0.23852047 -0.14741376 0.38593423
0.037077397 0.049600843 0.054922521 0.23852047 -0.14741376 0.38593423
0.037632111 0.050622564 0.05486045 0.23852047 -0.14741376 0.38593423
0.038174044 0.051658783 0.05477643 0.23852047 -0.14741376 0.38593423
0.03862432 0.05278885 0.054539479 0.23852047 -0.14741376 0.38593423
0.039046586 0.053950731 0.054254059 0.23852047 -0.14741376 0.38593423
0.039391991 0.055194858 0.053838238 0.23852047 -0.14741376 0.38593423
0.039666303 0.05651724 0.053300474 0.23852047 -0.14741376 0.38593423
0.039886311 0.057902329 0.052667812 0.23852047 -0.14741376 0.38593423
0.039969511 0.05943748 0.051800545 0.23852047 -0.14741376 0.38593423
0.039940353 0.061100509 0.050737776 0.23852047 -0.14741376 0.38593423
0.039755221 0.062940486 0.049403854 0.23852047 -0.14741376 0.38593423
0.039321031 0.065060727 0.0476382 0.23852047 -0.14741376 0.38593423
0.038435403 0.067685269 0.045092057 0.23852047 -0.14741376 0.38593423
0.036069389 0.071940638 0.039999999 0.23852047 -0.14741376 0.38593423
0.036692981 0.072983682 0.039999999 0.23852047 -0.14741376 0.38593423
0.037316985 0.074027933 0.039999999 0.23852047 -0.14741376 0.38593423
0.037941411 0.075073399 0.039999999 0.23852047 -0.14741376 0.38593423
0.038566276 0.076120101 0.039999999 0.23852047 -0.14741376 0.38593423
0.039191581 0.077168047 0.039999999 0.23852047 -0.14741376 0.38593423
0.039817341 0.078217275 0.039999999 0.23852047 -0.14741376 0.38593423
0.039803747 0.079999998 0.03888258 0.23852047 -0.14741376 0.38593423
0.00034346807 0.010121515 0.039999999 0.23852047 -0.14741376 0.38593423
0.00095819635 0.011119889 0.039999999 0.23852047 -0.14741376 0.38593423
0.0015727932 0.012118516 0.039999999 0.23852047 -0.14741376 0.38593423
0.0021872676 0.013117411 0.039999999 0.23852047 -0.14741376 0.38593423
0.0028016288 0.014116589 0.039999999 0.23852047 -0.14741376 0.38593423
0.0034158854 0.015116064 0.039999999 0.23852047 -0.14741376 0.38593423
0.0040300465 0.01611585 0.039999999 0.23852047 -0.14741376 0.38593423
0.004644121 0.017115964 0.039999999 0.23852047 -0.14741376 0.38593423
0.0052581183 0.018116418 0.039999999 0.23852047 -0.14741376 0.38593423
0.005872047 0.019117231 0.039999999 0.23852047 -0.14741376 0.38593423
0.0064859162 0.020118413 0.039999999 0.23852047 -0.14741376 0.38593423
0.0070997346 0.021119982 0.039999999 0.23852047 -0.14741376 0.38593423
0.0077135116 0.022121951 0.039999999 0.23852047 -0.14741376 0.38593423
0.008327256 0.023124337 0.039999999 0.23852047 -0.14741376 0.38593423
0.008940977 0.024127152 0.039999999 0.23852047 -0.14741376 0.38593423
0.0095546832 0.025130413 0.039999999 0.23852047 -0.14741376 0.38593423
0.010168384 0.026134135 0.039999999 0.23852047 -0.14741376 0.38593423
0.010782088 0.027138334 0.039999999 0.23852047 -0.14741376 0.38593423
0.011395806 0.02814302 0.039999999 0.23852047 -0.14741376 0.38593423
0.012009543 0.029148214 0.039999999 0.23852047 -0.14741376 0.38593423
0.012623312 0.030153926 0.039999999 0.23852047 -0.14741376 0.38593423
0.013237121 0.031160176 0.039999999 0.23852047 -0.14741376 0.38593423
0.013850977 0.032166976 0.039999999 0.23852047 -0.14741376 0.38593423
0.014464892 0.03317434 0.039999999 0.23852047 -0.14741376 0.38593423
0.015078872 0.034182288 0.039999999 0.23852047 -0.14741376 0.38593423
0.015692929 0.035190828 0.039999999 0.23852047 -0.14741376 0.38593423
0.016307071 0.036199983 0.039999999 0.23852047 -0.14741376 0.38593423
0.016921306 0.03720976 0.039999999 0.23852047 -0.14741376 0.38593423
0.017535644 0.038220182 0.039999999 0.23852047 -0.14741376 0.38593423
0.018150093 0.039231263 0.039999999 0.23852047 -0.14741376 0.38593423
0.019014938 0.040029299 0.040393971 0.23852047 -0.14741376 0.38593423
0.020803558 0.040029299 0.042248212 0.23852047 -0.14741376 0.38593423
0.02240794 0.04017346 0.043821014 0.23852047 -0.14741376 0.38593423
0.02389353 0.040408306 0.045213878 0.23852047 -0.14741376 0.38593423
0.025284955 0.040714554 0.046464469 0.23852047 -0.14741376 0.38593423
0.026541563 0.041130301 0.04750666 0.23852047 -0.14741376 0.38593423
0.027749682 0.041580986 0.048476882 0.23852047 -0.14741376 0.38593423
0.028872807 0.042100605 0.049315888 0.23852047 -0.14741376 0.38593423
0.02993382 0.042670116 0.050059382 0.23852047 -0.14741376 0.38593423
0.030945694 0.043278933 0.050727479 0.23852047 -0.14741376 0.38593423
0.031885523 0.043949325 0.051282417 0.23852047 -0.14741376 0.38593423
0.032796908 0.044642165 0.051794019 0.23852047 -0.14741376 0.38593423
0.033631016 0.045404043 0.05218235 0.23852047 -0.14741376 0.38593423
0.034448907 0.046178758 0.052546069 0.23852047 -0.14741376 0.38593423
0.035185192 0.047029212 0.052777808 0.23852047 -0.14741376 0.38593423
0.035913356 0.047886439 0.052997153 0.23852047 -0.14741376 0.38593423
0.036553569 0.048828203 0.053072415 0.23852047 -0.14741376 0.38593423
0.037184924 0.049779106 0.053133033 0.23852047 -0.14741376 0.38593423
0.037732996 0.050812844 0.05305548 0.23852047 -0.14741376 0.38593423
0.038258571 0.051870927 0.052939583 0.23852047 -0.14741376 0.38593423
0.038710527 0.053005207 0.052699719 0.23852047 -0.14741376 0.38593423
0.039113678 0.054192398 0.052376281 0.23852047 -0.14741376 0.38593423
0.039460454 0.055441454 0.051955778 0.23852047 -0.14741376 0.38593423
0.039711688 0.056794032 0.051371422 0.23852047 -0.14741376 0.38593423
0.039903276 0.058215383 0.050682284 0.23852047 -0.14741376 0.38593423
0.039986856 0.059757531 0.049805522 0.23852047 -0.14741376 0.38593423
0.039920468 0.061467394 0.048668131 0.23852047 -0.14741376 0.38593423
0.039684929 0.06336917 0.047235027 0.23852047 -0.14741376 0.38593423
0.039177772 0.065576755 0.045328386 0.23852047 -0.14741376 0.38593423
0.038175281 0.068338111 0.042560384 0.23852047 -0.14741376 0.38593423
0.037303917 0.070986159 0.039999999 0.23852047 -0.14741376 0.38593423
0.037926849 0.07202661 0.039999999 0.23852047 -0.14741376 0.38593423
0.038550202 0.073068254 0.039999999 0.23852047 -0.14741376 0.38593423
0.039173983 0.074111104 0.039999999 0.23852047 -0.14741376 0.38593423
0.039798211 0.075155176 0.039999999 0.23852047 -0.14741376 0.38593423
0.039999999 0.076677851 0.039261516 0.23852047 -0.14741376 0.38593423
0.00039901349 0.0073159123 0.039999999 0.23852047 -0.14741376 0.38593423
0.00101286 0.0083117988 0.039999999 0.23852047 -0.14741376 0.38593423
0.0016265665 0.0093079023 0.039999999 0.23852047 -0.14741376 0.38593423
0.0022401421 0.010304238 0.039999999 0.23852047 -0.14741376 0.38593423
0.0028535954 0.01130082 0.039999999 0.23852047 -0.14741376 0.38593423
