# .PCD v0.7 - Point Cloud Data file format
VERSION 0.7
FIELDS x y z vp_x vp_y vp_z
SIZE 4 4 4 4 4 4
TYPE F F F F F F
COUNT 1 1 1 1 1 1
WIDTH 746
HEIGHT 1
VIEWPOINT 0 0 0 1 0 0 0
POINTS 746
DATA ascii
0.039999999 0.042073708 0.0084744394 0.23852047 0.14741376 -0.38593423
0.039999999 0.043404825 0.0072526378 0.23852047 0.14741376 -0.38593423
0.039999999 0.044727974 0.0060388427 0.23852047 0.14741376 -0.38593423
0.039999999 0.046043243 0.0048329616 0.23852047 0.14741376 -0.38593423
0.039999999 0.047350727 0.0036349038 0.23852047 0.14741376 -0.38593423
0.039999999 0.048650522 0.002444579 0.23852047 0.14741376 -0.38593423
0.039999999 0.049942713 0.0012618984 0.23852047 0.14741376 -0.38593423
0.039999999 0.051227391 8.6774889e-05 0.23852047 0.14741376 -0.38593423
0.039442446 0.052238084 0 0.23852047 0.14741376 -0.38593423
0.038840447 0.053227607 0 0.23852047 0.14741376 -0.38593423
0.038238615 0.054217592 0 0.23852047 0.14741376 -0.38593423
0.037636951 0.055208053 0 0.23852047 0.14741376 -0.38593423
0.037035443 0.056198999 0 0.23852047 0.14741376 -0.38593423
0.036434084 0.057190444 0 0.23852047 0.14741376 -0.38593423
0.035832871 0.058182403 0 0.23852047 0.14741376 -0.38593423
0.035231788 0.059174884 0 0.23852047 0.14741376 -0.38593423
0.034630835 0.060167901 0 0.23852047 0.14741376 -0.38593423
0.034030005 0.06116147 0 0.23852047 0.14741376 -0.38593423
0.033429287 0.062155597 0 0.23852047 0.14741376 -0.38593423
0.032828677 0.063150294 0 0.23852047 0.14741376 -0.38593423
0.032228164 0.064145587 0 0.23852047 0.14741376 -0.38593423
0.031627744 0.065141469 0 0.23852047 0.14741376 -0.38593423
0.031027406 0.066137962 0 0.23852047 0.14741376 -0.38593423
0.030427149 0.067135088 0 0.23852047 0.14741376 -0.38593423
0.02982696 0.06813284 0 0.23852047 0.14741376 -0.38593423
0.029226834 0.06913124 0 0.23852047 0.14741376 -0.38593423
0.028626764 0.070130311 0 0.23852047 0.14741376 -0.38593423
0.028026743 0.071130045 0 0.23852047 0.14741376 -0.38593423
0.027426763 0.072130471 0 0.23852047 0.14741376 -0.38593423
0.026826816 0.073131591 0 0.23852047 0.14741376 -0.38593423
0.026226895 0.074133426 0 0.23852047 0.14741376 -0.38593423
0.025626995 0.075135991 0 0.23852047 0.14741376 -0.38593423
0.025027106 0.076139286 0 0.23852047 0.14741376 -0.38593423
0.024427222 0.077143334 0 0.23852047 0.14741376 -0.38593423
0.023827335 0.078148142 0 0.23852047 0.14741376 -0.38593423
0.023227438 0.079153724 0 0.23852047 0.14741376 -0.38593423
0.022113573 0.079999998 0.00091875118 0.23852047 0.14741376 -0.38593423
0.018212929 0.079999998 0.0068002567 0.23852047 0.14741376 -0.38593423
0.014189013 0.079999998 0.012868342 0.23852047 0.14741376 -0.38593423
0.010035815 0.079999998 0.019132104 0.23852047 0.14741376 -0.38593423
0.0057469252 0.079999998 0.025601242 0.23852047 0.14741376 -0.38593423
0.0013155062 0.079999998 0.032286104 0.23852047 0.14741376 -0.38593423
0.039999999 0.0059815929 0.039250843 0.23852047 0.14741376 -0.38593423
0.039999999 0.0075400425 0.037809856 0.23852047 0.14741376 -0.38593423
0.039999999 0.0090877209 0.036379553 0.23852047 0.14741376 -0.38593423
0.039999999 0.010624764 0.034959801 0.23852047 0.14741376 -0.38593423
0.039999999 0.012151309 0.033550464 0.23852047 0.14741376 -0.38593423
0.039999999 0.013667489 0.032151412 0.23852047 0.14741376 -0.38593423
0.039999999 0.015173436 0.030762518 0.23852047 0.14741376 -0.38593423
0.039999999 0.016669277 0.029383656 0.23852047 0.14741376 -0.38593423
0.039999999 0.018155141 0.028014699 0.23852047 0.14741376 -0.38593423
0.039999999 0.019631153 0.026655529 0.23852047 0.14741376 -0.38593423
0.032906689 0.016584041 0.039999999 0.23852047 0.14741376 -0.38593423
0.039999999 0.022554107 0.023966063 0.23852047 0.14741376 -0.38593423
0.039999999 0.024001291 0.022635531 0.23852047 0.14741376 -0.38593423
0.039999999 0.025439102 0.021314315 0.23852047 0.14741376 -0.38593423
0.039999999 0.026867656 0.0200023 0.23852047 0.14741376 -0.38593423
0.039999999 0.028287068 0.018699378 0.23852047 0.14741376 -0.38593423
0.039999999 0.029697448 0.017405435 0.23852047 0.14741376 -0.38593423
0.039999999 0.031098906 0.016120367 0.23852047 0.14741376 -0.38593423
0.039999999 0.032491554 0.014844066 0.23852047 0.14741376 -0.38593423
0.039999999 0.033875495 0.013576429 0.23852047 0.14741376 -0.38593423
0.039999999 0.035250831 0.012317353 0.23852047 0.14741376 -0.38593423
0.039999999 0.036617678 0.011066736 0.23852047 0.14741376 -0.38593423
0.039999999 0.037976123 0.0098244781 0.23852047 0.14741376 -0.38593423
0.039999999 0.039326277 0.0085904831 0.23852047 0.14741376 -0.38593423
0.039999999 0.040668234 0.0073646521 0.23852047 0.14741376 -0.38593423
0.039999999 0.042002093 0.0061468915 0.23852047 0.14741376 -0.38593423
0.039999999 0.04332795 0.0049371072 0.23852047 0.14741376 -0.38593423
0.039999999 0.044645898 0.0037352061 0.23852047 0.14741376 -0.38593423
0.039999999 0.04595603 0.002541098 0.23852047 0.14741376 -0.38593423
0.039999999 0.04725844 0.0013546932 0.23852047 0.14741376 -0.38593423
0.039999999 0.048553221 0.0001759031 0.23852047 0.14741376 -0.38593423
0.039486673 0.049588155 0 0.23852047 0.14741376 -0.38593423
0.03888309 0.050578475 0 0.23852047 0.14741376 -0.38593423
0.03827969 0.051569227 0 0.23852047 0.14741376 -0.38593423
0.037676457 0.05256043 0 0.23852047 0.14741376 -0.38593423
0.037073389 0.053552091 0 0.23852047 0.14741376 -0.38593423
0.03647048 0.054544222 0 0.23852047 0.14741376 -0.38593423
0.035867717 0.05553684 0 0.23852047 0.14741376 -0.38593423
0.035265099 0.056529954 0 0.23852047 0.14741376 -0.38593423
0.034662616 0.057523575 0 0.23852047 0.14741376 -0.38593423
0.034060258 0.058517721 0 0.23852047 0.14741376 -0.38593423
0.033458024 0.059512395 0 0.23852047 0.14741376 -0.38593423
0.032855902 0.060507618 0 0.23852047 0.14741376 -0.38593423
0.032253884 0.061503399 0 0.23852047 0.14741376 -0.38593423
0.031651966 0.062499754 0 0.23852047 0.14741376 -0.38593423
0.03105014 0.063496687 0 0.23852047 0.14741376 -0.38593423
0.030448396 0.064494222 0 0.23852047 0.14741376 -0.38593423
0.02984673 0.065492362 0 0.23852047 0.14741376 -0.38593423
0.029245134 0.06649112 0 0.23852047 0.14741376 -0.38593423
0.028643599 0.067490518 0 0.23852047 0.14741376 -0.38593423
0.028042119 0.068490557 0 0.23852047 0.14741376 -0.38593423
0.027440688 0.06949126 0 0.23852047 0.14741376 -0.38593423
0.026839295 0.070492625 0 0.23852047 0.14741376 -0.38593423
0.026237937 0.071494684 0 0.23852047 0.14741376 -0.38593423
0.025636602 0.072497435 0 0.23852047 0.14741376 -0.38593423
0.025035288 0.073500901 0 0.23852047 0.14741376 -0.38593423
0.024433983 0.074505083 0 0.23852047 0.14741376 -0.38593423
0.023832683 0.07551001 0 0.23852047 0.14741376 -0.38593423
0.02323138 0.076515675 0 0.23852047 0.14741376 -0.38593423
0.022630064 0.077522106 0 0.23852047 0.14741376 -0.38593423
0.022028731 0.078529313 0 0.23852047 0.14741376 -0.38593423
0.021427371 0.079537302 0 0.23852047 0.14741376 -0.38593423
0.019048104 0.079999998 0.0031518599 0.23852047 0.14741376 -0.38593423
0.01506795 0.079999998 0.0091165565 0.23852047 0.14741376 -0.38593423
0.010960914 0.079999998 0.015272091 0.23852047 0.14741376 -0.38593423
0.0067207576 0.079999998 0.021627847 0.23852047 0.14741376 -0.38593423
0.0023408241 0.079999998 0.028193835 0.23852047 0.14741376 -0.38593423
0.039999999 0.0029299725 0.03948538 0.23852047 0.14741376 -0.38593423
0.039999999 0.0045029842 0.0380385 0.23852047 0.14741376 -0.38593423
0.039999999 0.0060650427 0.0366024 0.23852047 0.14741376 -0.38593423
0.037726313 0.0060151657 0.039999999 0.23852047 0.14741376 -0.38593423
0.039999999 0.0091568604 0.033761997 0.23852047 0.14741376 -0.38593423
0.039999999 0.010686894 0.032357428 0.23852047 0.14741376 -0.38593423
0.03569676 0.0092756972 0.039999999 0.23852047 0.14741376 -0.38593423
0.039999999 0.01371588 0.0295789 0.23852047 0.14741376 -0.38593423
0.034345832 0.011449873 0.039999999 0.23852047 0.14741376 -0.38593423
0.039999999 0.016704291 0.026840346 0.23852047 0.14741376 -0.38593423
0.039999999 0.0181836 0.02548575 0.23852047 0.14741376 -0.38593423
0.039999999 0.019653141 0.024140783 0.23852047 0.14741376 -0.38593423
0.039999999 0.021113038 0.022805324 0.23852047 0.14741376 -0.38593423
0.039999999 0.022563407 0.021479258 0.23852047 0.14741376 -0.38593423
0.03030242 0.017975911 0.039999999 0.23852047 0.14741376 -0.38593423
0.039999999 0.025436042 0.018854853 0.23852047 0.14741376 -0.38593423
0.02895752 0.020152783 0.039999999 0.23852047 0.14741376 -0.38593423
0.039999999 0.02827196 0.016266674 0.23852047 0.14741376 -0.38593423
0.039999999 0.029676432 0.014985897 0.23852047 0.14741376 -0.38593423
0.039999999 0.031072056 0.013713853 0.23852047 0.14741376 -0.38593423
0.039999999 0.032458942 0.012450441 0.23852047 0.14741376 -0.38593423
0.025601 0.025599308 0.039999999 0.23852047 0.14741376 -0.38593423
0.039999999 0.035206918 0.0099490983 0.23852047 0.14741376 -0.38593423
0.039999999 0.03656821 0.0087109674 0.23852047 0.14741376 -0.38593423
0.039999999 0.037921179 0.007481067 0.23852047 0.14741376 -0.38593423
0.039999999 0.039265919 0.0062593003 0.23852047 0.14741376 -0.38593423
0.039999999 0.040602528 0.0050455718 0.23852047 0.14741376 -0.38593423
0.039999999 0.041931108 0.0038397892 0.23852047 0.14741376 -0.38593423
0.039999999 0.043251745 0.0026418597 0.23852047 0.14741376 -0.38593423
0.039999999 0.044564538 0.0014516929 0.23852047 0.14741376 -0.38593423
0.039999999 0.045869578 0.00026919937 0.23852047 0.14741376 -0.38593423
0.039533015 0.046931144 0 0.23852047 0.14741376 -0.38593423
0.038927849 0.047922328 0 0.23852047 0.14741376 -0.38593423
0.03832287 0.048913915 0 0.23852047 0.14741376 -0.38593423
0.037718069 0.049905922 0 0.23852047 0.14741376 -0.38593423
0.037113436 0.050898362 0 0.23852047 0.14741376 -0.38593423
0.03650897 0.051891249 0 0.23852047 0.14741376 -0.38593423
0.035904661 0.05288459 0 0.23852047 0.14741376 -0.38593423
0.035300501 0.0538784 0 0.23852047 0.14741376 -0.38593423
0.034696482 0.054872692 0 0.23852047 0.14741376 -0.38593423
0.034092598 0.055867475 0 0.23852047 0.14741376 -0.38593423
0.033488844 0.056862768 0 0.23852047 0.14741376 -0.38593423
0.032885205 0.057858575 0 0.23852047 0.14741376 -0.38593423
0.032281682 0.058854915 0 0.23852047 0.14741376 -0.38593423
0.031678263 0.059851799 0 0.23852047 0.14741376 -0.38593423
0.031074943 0.060849238 0 0.23852047 0.14741376 -0.38593423
0.030471712 0.061847247 0 0.23852047 0.14741376 -0.38593423
0.029868567 0.062845841 0 0.23852047 0.14741376 -0.38593423
0.029265497 0.063845024 0 0.23852047 0.14741376 -0.38593423
0.028662495 0.064844809 0 0.23852047 0.14741376 -0.38593423
0.028059555 0.065845214 0 0.23852047 0.14741376 -0.38593423
0.027456669 0.066846259 0 0.23852047 0.14741376 -0.38593423
0.026853831 0.067847937 0 0.23852047 0.14741376 -0.38593423
0.026251031 0.068850279 0 0.23852047 0.14741376 -0.38593423
0.025648264 0.069853291 0 0.23852047 0.14741376 -0.38593423
0.02504552 0.070856981 0 0.23852047 0.14741376 -0.38593423
0.024442796 0.071861364 0 0.23852047 0.14741376 -0.38593423
0.023840079 0.072866462 0 0.23852047 0.14741376 -0.38593423
0.023237366 0.073872276 0 0.23852047 0.14741376 -0.38593423
0.02263465 0.074878827 0 0.23852047 0.14741376 -0.38593423
0.02203192 0.075886123 0 0.23852047 0.14741376 -0.38593423
0.02142917 0.076894179 0 0.23852047 0.14741376 -0.38593423
0.020826394 0.077903003 0 0.23852047 0.14741376 -0.38593423
0.020223584 0.078912616 0 0.23852047 0.14741376 -0.38593423
0.019620733 0.079923034 0 0.23852047 0.14741376 -0.38593423
0.015933093 0.079999998 0.0054236553 0.23852047 0.14741376 -0.38593423
0.011871274 0.079999998 0.011473581 0.23852047 0.14741376 -0.38593423
0.0076788329 0.079999998 0.017718744 0.23852047 0.14741376 -0.38593423
0.0033492907 0.079999998 0.024168823 0.23852047 0.14741376 -0.38593423
0.039999999 0.0014505258 0.038272705 0.23852047 0.14741376 -0.38593423
0.039999999 0.0030272002 0.036830742 0.23852047 0.14741376 -0.38593423
0.039999999 0.0045928801 0.035399519 0.23852047 0.14741376 -0.38593423
0.039999999 0.0061477069 0.033978898 0.23852047 0.14741376 -0.38593423
0.039999999 0.0076918192 0.032568745 0.23852047 0.14741376 -0.38593423
0.039999999 0.0092253536 0.031168932 0.23852047 0.14741376 -0.38593423
0.039999999 0.010748444 0.029779326 0.23852047 0.14741376 -0.38593423
0.039999999 0.012261224 0.028399799 0.23852047 0.14741376 -0.38593423
0.039999999 0.013763822 0.027030228 0.23852047 0.14741376 -0.38593423
0.039999999 0.015256367 0.025670487 0.23852047 0.14741376 -0.38593423
0.039999999 0.016738983 0.024320457 0.23852047 0.14741376 -0.38593423
0.031737108 0.012834105 0.039999999 0.23852047 0.14741376 -0.38593423
0.039999999 0.019674929 0.021649051 0.23852047 0.14741376 -0.38593423
0.030386969 0.015013341 0.039999999 0.23852047 0.14741376 -0.38593423
0.039999999 0.022572624 0.019015076 0.23852047 0.14741376 -0.38593423
0.029038278 0.017193286 0.039999999 0.23852047 0.14741376 -0.38593423
0.039999999 0.025433008 0.01641763 0.23852047 0.14741376 -0.38593423
0.039999999 0.026849493 0.015132328 0.23852047 0.14741376 -0.38593423
0.039999999 0.02825699 0.013855834 0.23852047 0.14741376 -0.38593423
0.039999999 0.029655604 0.01258804 0.23852047 0.14741376 -0.38593423
0.039999999 0.031045446 0.011328842 0.23852047 0.14741376 -0.38593423
0.039999999 0.032426622 0.01007814 0.23852047 0.14741376 -0.38593423
0.039999999 0.033799235 0.0088358317 0.23852047 0.14741376 -0.38593423
0.039999999 0.035163388 0.0076018195 0.23852047 0.14741376 -0.38593423
0.039999999 0.036519181 0.0063760057 0.23852047 0.14741376 -0.38593423
0.039999999 0.037866715 0.0051582935 0.23852047 0.14741376 -0.38593423
0.039999999 0.039206091 0.0039485893 0.23852047 0.14741376 -0.38593423
0.039999999 0.040537398 0.0027467997 0.23852047 0.14741376 -0.38593423
0.039999999 0.041860741 0.0015528331 0.23852047 0.14741376 -0.38593423
0.039999999 0.043176204 0.00036659924 0.23852047 0.14741376 -0.38593423
0.03958144 0.044266868 0 0.23852047 0.14741376 -0.38593423
0.038974684 0.04525898 0 0.23852047 0.14741376 -0.38593423
0.038368121 0.046251468 0 0.23852047 0.14741376 -0.38593423
0.037761748 0.047244351 0 0.23852047 0.14741376 -0.38593423
0.03715555 0.048237637 0 0.23852047 0.14741376 -0.38593423
0.036549523 0.049231339 0 0.23852047 0.14741376 -0.38593423
0.035943661 0.05022547 0 0.23852047 0.14741376 -0.38593423
0.035337955 0.051220044 0 0.23852047 0.14741376 -0.38593423
0.034732398 0.05221507 0 0.23852047 0.14741376 -0.38593423
0.034126982 0.05321056 0 0.23852047 0.14741376 -0.38593423
0.033521704 0.054206531 0 0.23852047 0.14741376 -0.38593423
0.03291655 0.055202991 0 0.23852047 0.14741376 -0.38593423
0.032311514 0.056199957 0 0.23852047 0.14741376 -0.38593423
0.031706594 0.057197437 0 0.23852047 0.14741376 -0.38593423
0.031101778 0.058195446 0 0.23852047 0.14741376 -0.38593423
0.030497059 0.059193995 0 0.23852047 0.14741376 -0.38593423
0.02989243 0.060193099 0 0.23852047 0.14741376 -0.38593423
0.029287884 0.061192766 0 0.23852047 0.14741376 -0.38593423
0.028683415 0.062193014 0 0.23852047 0.14741376 -0.38593423
0.028079012 0.06319385 0 0.23852047 0.14741376 -0.38593423
0.02747467 0.064195298 0 0.23852047 0.14741376 -0.38593423
0.026870381 0.065197356 0 0.23852047 0.14741376 -0.38593423
0.026266139 0.06620004 0 0.23852047 0.14741376 -0.38593423
0.025661936 0.067203373 0 0.23852047 0.14741376 -0.38593423
0.025057765 0.068207353 0 0.23852047 0.14741376 -0.38593423
0.024453616 0.069212005 0 0.23852047 0.14741376 -0.38593423
0.023849484 0.070217341 0 0.23852047 0.14741376 -0.38593423
0.023245361 0.071223363 0 0.23852047 0.14741376 -0.38593423
0.02264124 0.072230093 0 0.23852047 0.14741376 -0.38593423
0.022037113 0.073237546 0 0.23852047 0.14741376 -0.38593423
0.021432972 0.074245729 0 0.23852047 0.14741376 -0.38593423
0.020828811 0.075254656 0 0.23852047 0.14741376 -0.38593423
0.020224623 0.076264337 0 0.23852047 0.14741376 -0.38593423
0.019620398 0.077274792 0 0.23852047 0.14741376 -0.38593423
0.019016132 0.078286037 0 0.23852047 0.14741376 -0.38593423
0.018411813 0.079298072 0 0.23852047 0.14741376 -0.38593423
0.016784772 0.079999998 0.0017882123 0.23852047 0.14741376 -0.38593423
0.012767254 0.079999998 0.0077350675 0.23852047 0.14741376 -0.38593423
0.0086215436 0.079999998 0.013872329 0.23852047 0.14741376 -0.38593423
0.0043413318 0.079999998 0.02020937 0.23852047 0.14741376 -0.38593423
0.037940901 4.1310366e-05 0.039999999 0.23852047 0.14741376 -0.38593423
0.039999999 0.0031235123 0.034201108 0.23852047 0.14741376 -0.38593423
0.036579423 0.0022226125 0.039999999 0.23852047 0.14741376 -0.38593423
0.039999999 0.0062295976 0.031379949 0.23852047 0.14741376 -0.38593423
0.039999999 0.0077666449 0.02998488 0.23852047 0.14741376 -0.38593423
0.039999999 0.0092932098 0.028599979 0.23852047 0.14741376 -0.38593423
0.033861749 0.0065856208 0.039999999 0.23852047 0.14741376 -0.38593423
0.039999999 0.012315419 0.025860179 0.23852047 0.14741376 -0.38593423
0.039999999 0.013811322 0.024505032 0.23852047 0.14741376 -0.38593423
0.039999999 0.01529726 0.023159556 0.23852047 0.14741376 -0.38593423
0.039999999 0.016773358 0.021823635 0.23852047 0.14741376 -0.38593423
0.030473879 0.012041246 0.039999999 0.23852047 0.14741376 -0.38593423
0.039999999 0.019696517 0.019179989 0.23852047 0.14741376 -0.38593423
0.039999999 0.021143818 0.017872034 0.23852047 0.14741376 -0.38593423
0.028445667 0.015316257 0.039999999 0.23852047 0.14741376 -0.38593423
0.039999999 0.024010448 0.015283303 0.23852047 0.14741376 -0.38593423
0.039999999 0.025430003 0.014002309 0.23852047 0.14741376 -0.38593423
0.039999999 0.026840534 0.012730088 0.23852047 0.14741376 -0.38593423
0.039999999 0.028242152 0.011466533 0.23852047 0.14741376 -0.38593423
0.039999999 0.029634962 0.010211542 0.23852047 0.14741376 -0.38593423
0.039999999 0.031019073 0.0089650135 0.23852047 0.14741376 -0.38593423
0.039999999 0.032394588 0.0077268477 0.23852047 0.14741376 -0.38593423
0.039999999 0.033761613 0.0064969449 0.23852047 0.14741376 -0.38593423
0.039999999 0.035120245 0.0052752085 0.23852047 0.14741376 -0.38593423
0.039999999 0.036470585 0.0040615429 0.23852047 0.14741376 -0.38593423
0.039999999 0.037812732 0.0028558546 0.23852047 0.14741376 -0.38593423
0.039999999 0.039146785 0.0016580502 0.23852047 0.14741376 -0.38593423
0.039999999 0.040472839 0.00046803855 0.23852047 0.14741376 -0.38593423
0.039631903 0.041595139 0 0.23852047 0.14741376 -0.38593423
0.039023556 0.042588245 0 0.23852047 0.14741376 -0.38593423
0.03841541 0.043581706 0 0.23852047 0.14741376 -0.38593423
0.037807453 0.044575527 0 0.23852047 0.14741376 -0.38593423
0.037199687 0.045569725 0 0.23852047 0.14741376 -0.38593423
0.036592096 0.046564315 0 0.23852047 0.14741376 -0.38593423
0.03598468 0.047559302 0 0.23852047 0.14741376 -0.38593423
0.035377424 0.048554704 0 0.23852047 0.14741376 -0.38593423
0.034770325 0.04955053 0 0.23852047 0.14741376 -0.38593423
0.034163378 0.050546795 0 0.23852047 0.14741376 -0.38593423
0.033556569 0.051543511 0 0.23852047 0.14741376 -0.38593423
0.032949895 0.05254069 0 0.23852047 0.14741376 -0.38593423
0.032343347 0.053538345 0 0.23852047 0.14741376 -0.38593423
0.031736922 0.054536488 0 0.23852047 0.14741376 -0.38593423
0.031130604 0.05553513 0 0.23852047 0.14741376 -0.38593423
0.030524394 0.056534287 0 0.23852047 0.14741376 -0.38593423
0.029918279 0.057533968 0 0.23852047 0.14741376 -0.38593423
0.029312255 0.058534186 0 0.23852047 0.14741376 -0.38593423
0.028706314 0.059534956 0 0.23852047 0.14741376 -0.38593423
0.028100448 0.060536291 0 0.23852047 0.14741376 -0.38593423
0.027494647 0.061538201 0 0.23852047 0.14741376 -0.38593423
0.026888909 0.062540703 0 0.23852047 0.14741376 -0.38593423
0.026283221 0.063543797 0 0.23852047 0.14741376 -0.38593423
0.02567758 0.064547516 0 0.23852047 0.14741376 -0.38593423
0.025071977 0.065551855 0 0.23852047 0.14741376 -0.38593423
0.024466403 0.066556834 0 0.23852047 0.14741376 -0.38593423
0.023860853 0.067562468 0 0.23852047 0.14741376 -0.38593423
0.023255318 0.068568766 0 0.23852047 0.14741376 -0.38593423
0.022649791 0.069575742 0 0.23852047 0.14741376 -0.38593423
0.022044266 0.070583411 0 0.23852047 0.14741376 -0.38593423
0.021438735 0.07159178 0 0.23852047 0.14741376 -0.38593423
0.020833187 0.072600871 0 0.23852047 0.14741376 -0.38593423
0.020227619 0.073610693 0 0.23852047 0.14741376 -0.38593423
0.01962202 0.074621253 0 0.23852047 0.14741376 -0.38593423
0.019016387 0.075632572 0 0.23852047 0.14741376 -0.38593423
0.018410709 0.076644659 0 0.23852047 0.14741376 -0.38593423
0.017804978 0.077657528 0 0.23852047 0.14741376 -0.38593423
0.01719919 0.078671195 0 0.23852047 0.14741376 -0.38593423
0.016593335 0.079685666 0 0.23852047 0.14741376 -0.38593423
0.013649207 0.079999998 0.0040550879 0.23852047 0.14741376 -0.38593423
0.0095492685 0.079999998 0.010087059 0.23852047 0.14741376 -0.38593423
0.0053173583 0.079999998 0.016313832 0.23852047 0.14741376 -0.38593423
0.00094692357 0.079999998 0.022745078 0.23852047 0.14741376 -0.38593423
0.039999999 8.3936226e-05 0.034428582 0.23852047 0.14741376 -0.38593423
0.039999999 0.0016568968 0.033007078 0.23852047 0.14741376 -0.38593423
0.039999999 0.0032189225 0.031596098 0.23852047 0.14741376 -0.38593423
0.039999999 0.0047701532 0.030195506 0.23852047 0.14741376 -0.38593423
0.039999999 0.0063107261 0.028805172 0.23852047 0.14741376 -0.38593423
0.039999999 0.0078407768 0.027424969 0.23852047 0.14741376 -0.38593423
0.039999999 0.0093604391 0.02605477 0.23852047 0.14741376 -0.38593423
0.039999999 0.010869842 0.024694448 0.23852047 0.14741376 -0.38593423
0.039999999 0.012369117 0.023343883 0.23852047 0.14741376 -0.38593423
0.039999999 0.013858388 0.022002954 0.23852047 0.14741376 -0.38593423
0.039999999 0.015337781 0.020671541 0.23852047 0.14741376 -0.38593423
0.039999999 0.01680742 0.01934953 0.23852047 0.14741376 -0.38593423
0.039999999 0.018267423 0.018036805 0.23852047 0.14741376 -0.38593423
0.039999999 0.019717911 0.016733252 0.23852047 0.14741376 -0.38593423
0.039999999 0.021159003 0.01543876 0.23852047 0.14741376 -0.38593423
0.039999999 0.022590809 0.014153221 0.23852047 0.14741376 -0.38593423
0.039999999 0.024013445 0.012876525 0.23852047 0.14741376 -0.38593423
0.039999999 0.025427025 0.011608568 0.23852047 0.14741376 -0.38593423
0.039999999 0.026831655 0.010349245 0.23852047 0.14741376 -0.38593423
0.039999999 0.028227447 0.0090984516 0.23852047 0.14741376 -0.38593423
0.039999999 0.029614503 0.0078560887 0.23852047 0.14741376 -0.38593423
0.039999999 0.030992933 0.0066220555 0.23852047 0.14741376 -0.38593423
0.039999999 0.032362837 0.0053962539 0.23852047 0.14741376 -0.38593423
0.039999999 0.033724319 0.0041785878 0.23852047 0.14741376 -0.38593423
0.039999999 0.035077475 0.0029689609 0.23852047 0.14741376 -0.38593423
0.039999999 0.036422409 0.0017672804 0.23852047 0.14741376 -0.38593423
0.039999999 0.037759218 0.00057345338 0.23852047 0.14741376 -0.38593423
0.039684378 0.038915772 0 0.23852047 0.14741376 -0.38593423
0.039074432 0.039909944 0 0.23852047 0.14741376 -0.38593423
0.038464695 0.040904436 0 0.23852047 0.14741376 -0.38593423
0.037855156 0.041899268 0 0.23852047 0.14741376 -0.38593423
0.037245814 0.042894445 0 0.23852047 0.14741376 -0.38593423
0.036636654 0.043889988 0 0.23852047 0.14741376 -0.38593423
0.036027677 0.0448859 0 0.23852047 0.14741376 -0.38593423
0.035418872 0.045882195 0 0.23852047 0.14741376 -0.38593423
0.034810226 0.046878893 0 0.23852047 0.14741376 -0.38593423
0.034201737 0.047875997 0 0.23852047 0.14741376 -0.38593423
0.033593401 0.048873525 0 0.23852047 0.14741376 -0.38593423
0.032985203 0.049871489 0 0.23852047 0.14741376 -0.38593423
0.032377139 0.050869897 0 0.23852047 0.14741376 -0.38593423
0.031769205 0.05186877 0 0.23852047 0.14741376 -0.38593423
0.031161385 0.052868113 0 0.23852047 0.14741376 -0.38593423
0.030553678 0.05386794 0 0.23852047 0.14741376 -0.38593423
0.029946078 0.054868266 0 0.23852047 0.14741376 -0.38593423
0.029338572 0.055869102 0 0.23852047 0.14741376 -0.38593423
0.028731156 0.056870461 0 0.23852047 0.14741376 -0.38593423
0.02812382 0.057872355 0 0.23852047 0.14741376 -0.38593423
0.027516561 0.058874797 0 0.23852047 0.14741376 -0.38593423
0.026909368 0.059877802 0 0.23852047 0.14741376 -0.38593423
0.026302235 0.06088138 0 0.23852047 0.14741376 -0.38593423
0.025695153 0.061885543 0 0.23852047 0.14741376 -0.38593423
0.025088117 0.062890306 0 0.23852047 0.14741376 -0.38593423
0.024481116 0.06389568 0 0.23852047 0.14741376 -0.38593423
0.023874147 0.06490168 0 0.23852047 0.14741376 -0.38593423
0.023267198 0.065908313 0 0.23852047 0.14741376 -0.38593423
0.022660265 0.066915601 0 0.23852047 0.14741376 -0.38593423
0.022053339 0.067923546 0 0.23852047 0.14741376 -0.38593423
0.021446412 0.068932176 0 0.23852047 0.14741376 -0.38593423
0.020839479 0.069941491 0 0.23852047 0.14741376 -0.38593423
0.020232528 0.070951506 0 0.23852047 0.14741376 -0.38593423
0.019625558 0.071962237 0 0.23852047 0.14741376 -0.38593423
0.019018555 0.072973698 0 0.23852047 0.14741376 -0.38593423
0.018411515 0.073985897 0 0.23852047 0.14741376 -0.38593423
0.017804431 0.074998856 0 0.23852047 0.14741376 -0.38593423
0.017197292 0.076012582 0 0.23852047 0.14741376 -0.38593423
0.016590094 0.077027082 0 0.23852047 0.14741376 -0.38593423
0.015982827 0.078042381 0 0.23852047 0.14741376 -0.38593423
0.015375487 0.079058491 0 0.23852047 0.14741376 -0.38593423
0.014517468 0.079999998 0.00043222966 0.23852047 0.14741376 -0.38593423
0.010462375 0.079999998 0.0063614342 0.23852047 0.14741376 -0.38593423
0.0062777684 0.079999998 0.012480624 0.23852047 0.14741376 -0.38593423
0.0019572682 0.079999998 0.018799158 0.23852047 0.14741376 -0.38593423
0.039999999 0.00019299275 0.031817328 0.23852047 0.14741376 -0.38593423
0.039999999 0.0017586366 0.03041115 0.23852047 0.14741376 -0.38593423
0.039999999 0.0033134448 0.029015325 0.23852047 0.14741376 -0.38593423
0.039999999 0.004857556 0.027629716 0.23852047 0.14741376 -0.38593423
0.03337967 0.0016882339 0.039999999 0.23852047 0.14741376 -0.38593423
0.039999999 0.0079142265 0.02488865 0.23852047 0.14741376 -0.38593423
0.039999999 0.0094270501 0.02353294 0.23852047 0.14741376 -0.38593423
0.039999999 0.010929707 0.022186948 0.23852047 0.14741376 -0.38593423
0.030654624 0.0060675847 0.039999999 0.23852047 0.14741376 -0.38593423
0.039999999 0.013905025 0.019523643 0.23852047 0.14741376 -0.38593423
0.039999999 0.015377934 0.018206097 0.23852047 0.14741376 -0.38593423
0.039999999 0.016841173 0.016897799 0.23852047 0.14741376 -0.38593423
0.039999999 0.01829486 0.01559864 0.23852047 0.14741376 -0.38593423
0.039999999 0.019739114 0.014308507 0.23852047 0.14741376 -0.38593423
0.039999999 0.021174049 0.013027291 0.23852047 0.14741376 -0.38593423
0.039999999 0.022599779 0.011754885 0.23852047 0.14741376 -0.38593423
0.039999999 0.024016416 0.010491184 0.23852047 0.14741376 -0.38593423
0.039999999 0.025424073 0.0092360834 0.23852047 0.14741376 -0.38593423
0.039999999 0.026822854 0.0079894811 0.23852047 0.14741376 -0.38593423
0.039999999 0.02821287 0.0067512756 0.23852047 0.14741376 -0.38593423
0.039999999 0.029594224 0.0055213678 0.23852047 0.14741376 -0.38593423
0.039999999 0.030967021 0.0042996602 0.23852047 0.14741376 -0.38593423
0.039999999 0.032331362 0.0030860559 0.23852047 0.14741376 -0.38593423
0.039999999 0.033687349 0.0018804603 0.23852047 0.14741376 -0.38593423
0.039999999 0.035035081 0.00068278005 0.23852047 0.14741376 -0.38593423
0.039738823 0.036228567 0 0.23852047 0.14741376 -0.38593423
0.039127272 0.037223876 0 0.23852047 0.14741376 -0.38593423
0.03851594 0.038219474 0 0.23852047 0.14741376 -0.38593423
0.037904814 0.039215382 0 0.23852047 0.14741376 -0.38593423
0.037293892 0.04021161 0 0.23852047 0.14741376 -0.38593423
0.036683165 0.04120817 0 0.23852047 0.14741376 -0.38593423
0.036072619 0.042205073 0 0.23852047 0.14741376 -0.38593423
0.035462257 0.043202337 0 0.23852047 0.14741376 -0.38593423
0.034852061 0.044199966 0 0.23852047 0.14741376 -0.38593423
0.034242034 0.045197979 0 0.23852047 0.14741376 -0.38593423
0.033632159 0.046196386 0 0.23852047 0.14741376 -0.38593423
0.033022437 0.047195204 0 0.23852047 0.14741376 -0.38593423
0.032412853 0.048194434 0 0.23852047 0.14741376 -0.38593423
0.031803403 0.049194101 0 0.23852047 0.14741376 -0.38593423
0.03119408 0.050194211 0 0.23852047 0.14741376 -0.38593423
0.030584874 0.05119478 0 0.23852047 0.14741376 -0.38593423
0.029975781 0.052195814 0 0.23852047 0.14741376 -0.38593423
0.029366791 0.053197332 0 0.23852047 0.14741376 -0.38593423
0.028757898 0.054199345 0 0.23852047 0.14741376 -0.38593423
0.028149094 0.055201869 0 0.23852047 0.14741376 -0.38593423
0.027540371 0.056204908 0 0.23852047 0.14741376 -0.38593423
0.026931722 0.057208482 0 0.23852047 0.14741376 -0.38593423
0.02632314 0.058212604 0 0.23852047 0.14741376 -0.38593423
0.025714615 0.059217282 0 0.23852047 0.14741376 -0.38593423
0.025106141 0.060222529 0 0.23852047 0.14741376 -0.38593423
0.024497714 0.061228361 0 0.23852047 0.14741376 -0.38593423
0.023889322 0.062234793 0 0.23852047 0.14741376 -0.38593423
0.023280958 0.063241832 0 0.23852047 0.14741376 -0.38593423
0.022672616 0.064249493 0 0.23852047 0.14741376 -0.38593423
0.022064287 0.065257788 0 0.23852047 0.14741376 -0.38593423
0.021455966 0.06626673 0 0.23852047 0.14741376 -0.38593423
0.020847643 0.067276336 0 0.23852047 0.14741376 -0.38593423
0.020239312 0.068286613 0 0.23852047 0.14741376 -0.38593423
0.019630963 0.069297582 0 0.23852047 0.14741376 -0.38593423
0.019022591 0.070309252 0 0.23852047 0.14741376 -0.38593423
0.01841419 0.071321629 0 0.23852047 0.14741376 -0.38593423
0.017805748 0.072334737 0 0.23852047 0.14741376 -0.38593423
0.017197259 0.073348582 0 0.23852047 0.14741376 -0.38593423
0.016588718 0.07436318 0 0.23852047 0.14741376 -0.38593423
0.015980113 0.075378545 0 0.23852047 0.14741376 -0.38593423
0.015371441 0.076394685 0 0.23852047 0.14741376 -0.38593423
0.014762692 0.077411622 0 0.23852047 0.14741376 -0.38593423
0.014153859 0.078429364 0 0.23852047 0.14741376 -0.38593423
0.013544933 0.079447925 0 0.23852047 0.14741376 -0.38593423
0.011361219 0.079999998 0.0026940065 0.23852047 0.14741376 -0.38593423
0.0072229467 0.079999998 0.0087082097 0.23852047 0.14741376 -0.38593423
0.0029513396 0.079999998 0.014916792 0.23852047 0.14741376 -0.38593423
0.039999999 0.00030103407 0.02923038 0.23852047 0.14741376 -0.38593423
0.039999999 0.0018594323 0.02783931 0.23852047 0.14741376 -0.38593423
0.035303149 0 0.036215331 0.23852047 0.14741376 -0.38593423
0.039999999 0.0049441527 0.025087582 0.23852047 0.14741376 -0.38593423
0.039999999 0.006470745 0.02372667 0.23852047 0.14741376 -0.38593423
0.031430986 0.001968733 0.039999999 0.23852047 0.14741376 -0.38593423
0.03074839 0.0030655628 0.039999999 0.23852047 0.14741376 -0.38593423
0.039999999 0.010989027 0.019702271 0.23852047 0.14741376 -0.38593423
0.039999999 0.012475048 0.01837985 0.23852047 0.14741376 -0.38593423
0.028702961 0.0063564 0.039999999 0.23852047 0.14741376 -0.38593423
0.039999999 0.015417725 0.015762882 0.23852047 0.14741376 -0.38593423
0.039999999 0.016874623 0.014468107 0.23852047 0.14741376 -0.38593423
0.039999999 0.018322051 0.013182324 0.23852047 0.14741376 -0.38593423
0.039999999 0.019760126 0.011905425 0.23852047 0.14741376 -0.38593423
0.039999999 0.021188961 0.010637301 0.23852047 0.14741376 -0.38593423
0.024621962 0.012940863 0.039999999 0.23852047 0.14741376 -0.38593423
0.039999999 0.024019361 0.0081269639 0.23852047 0.14741376 -0.38593423
0.039999999 0.025421146 0.0068845432 0.23852047 0.14741376 -0.38593423
0.039999999 0.026814131 0.0056504877 0.23852047 0.14741376 -0.38593423
0.039999999 0.028198423 0.0044246977 0.23852047 0.14741376 -0.38593423
0.039999999 0.029574122 0.0032070761 0.23852047 0.14741376 -0.38593423
0.039999999 0.030941335 0.0019975267 0.23852047 0.14741376 -0.38593423
0.039999999 0.032300163 0.00079595507 0.23852047 0.14741376 -0.38593423
0.039795198 0.033533342 0 0.23852047 0.14741376 -0.38593423
0.039182041 0.03452985 0 0.23852047 0.14741376 -0.38593423
0.038569111 0.035526626 0 0.23852047 0.14741376 -0.38593423
0.037956394 0.036523681 0 0.23852047 0.14741376 -0.38593423
0.037343886 0.037521023 0 0.23852047 0.14741376 -0.38593423
0.036731582 0.038518675 0 0.23852047 0.14741376 -0.38593423
0.036119469 0.039516639 0 0.23852047 0.14741376 -0.38593423
0.035507545 0.040514935 0 0.23852047 0.14741376 -0.38593423
0.034895796 0.04151357 0 0.23852047 0.14741376 -0.38593423
0.034284223 0.042512558 0 0.23852047 0.14741376 -0.38593423
0.03367281 0.043511912 0 0.23852047 0.14741376 -0.38593423
0.033061553 0.044511646 0 0.23852047 0.14741376 -0.38593423
0.032450445 0.045511771 0 0.23852047 0.14741376 -0.38593423
0.031839479 0.046512298 0 0.23852047 0.14741376 -0.38593423
0.031228648 0.047513243 0 0.23852047 0.14741376 -0.38593423
0.030617941 0.048514616 0 0.23852047 0.14741376 -0.38593423
0.030007353 0.049516432 0 0.23852047 0.14741376 -0.38593423
0.029396877 0.050518699 0 0.23852047 0.14741376 -0.38593423
0.028786503 0.051521435 0 0.23852047 0.14741376 -0.38593423
0.028176226 0.052524649 0 0.23852047 0.14741376 -0.38593423
0.027566036 0.053528354 0 0.23852047 0.14741376 -0.38593423
0.026955929 0.054532565 0 0.23852047 0.14741376 -0.38593423
0.026345894 0.055537295 0 0.23852047 0.14741376 -0.38593423
0.025735924 0.056542553 0 0.23852047 0.14741376 -0.38593423
0.025126014 0.057548352 0 0.23852047 0.14741376 -0.38593423
0.024516154 0.058554709 0 0.23852047 0.14741376 -0.38593423
0.023906337 0.059561636 0 0.23852047 0.14741376 -0.38593423
0.023296556 0.060569141 0 0.23852047 0.14741376 -0.38593423
0.022686804 0.061577242 0 0.23852047 0.14741376 -0.38593423
0.022077071 0.06258595 0 0.23852047 0.14741376 -0.38593423
0.021467352 0.06359528 0 0.23852047 0.14741376 -0.38593423
0.020857638 0.064605236 0 0.23852047 0.14741376 -0.38593423
0.020247923 0.065615848 0 0.23852047 0.14741376 -0.38593423
0.019638197 0.066627115 0 0.23852047 0.14741376 -0.38593423
0.019028455 0.067639045 0 0.23852047 0.14741376 -0.38593423
0.018418688 0.068651669 0 0.23852047 0.14741376 -0.38593423
0.017808888 0.069664992 0 0.23852047 0.14741376 -0.38593423
0.017199049 0.070679024 0 0.23852047 0.14741376 -0.38593423
0.016589163 0.071693778 0 0.23852047 0.14741376 -0.38593423
0.015979221 0.072709277 0 0.23852047 0.14741376 -0.38593423
0.015369215 0.073725522 0 0.23852047 0.14741376 -0.38593423
0.01475914 0.074742526 0 0.23852047 0.14741376 -0.38593423
0.014148987 0.075760312 0 0.23852047 0.14741376 -0.38593423
0.013538749 0.076778896 0 0.23852047 0.14741376 -0.38593423
0.012928417 0.077798277 0 0.23852047 0.14741376 -0.38593423
0.012317984 0.07881847 0 0.23852047 0.14741376 -0.38593423
0.011707443 0.079839505 0 0.23852047 0.14741376 -0.38593423
0.0081532653 0.079999998 0.0049951039 0.23852047 0.14741376 -0.38593423
0.003929541 0.079999998 0.011096407 0.23852047 0.14741376 -0.38593423
0.039999999 0.00040807575 0.02666737 0.23852047 0.14741376 -0.38593423
0.039999999 0.0019592985 0.025291188 0.23852047 0.14741376 -0.38593423
0.039999999 0.0034998807 0.023925019 0.23852047 0.14741376 -0.38593423
0.039999999 0.0050299563 0.02256874 0.23852047 0.14741376 -0.38593423
0.039999999 0.0065496578 0.021222224 0.23852047 0.14741376 -0.38593423
0.039999999 0.0080591161 0.019885356 0.23852047 0.14741376 -0.38593423
0.039999999 0.0095584579 0.01855801 0.23852047 0.14741376 -0.38593423
0.039999999 0.01104781 0.017240074 0.23852047 0.14741376 -0.38593423
0.039999999 0.012527297 0.015931429 0.23852047 0.14741376 -0.38593423
0.039999999 0.01399704 0.014631964 0.23852047 0.14741376 -0.38593423
0.039999999 0.01545716 0.013341567 0.23852047 0.14741376 -0.38593423
0.026063528 0.0077460343 0.039999999 0.23852047 0.14741376 -0.38593423
0.039999999 0.018348999 0.010787535 0.23852047 0.14741376 -0.38593423
0.039999999 0.019780951 0.009523686 0.23852047 0.14741376 -0.38593423
0.039999999 0.021203741 0.0082684737 0.23852047 0.14741376 -0.38593423
0.039999999 0.022617482 0.0070217964 0.23852047 0.14741376 -0.38593423
0.039999999 0.024022279 0.0057835514 0.23852047 0.14741376 -0.38593423
0.039999999 0.025418246 0.0045536384 0.23852047 0.14741376 -0.38593423
0.039999999 0.026805485 0.0033319592 0.23852047 0.14741376 -0.38593423
0.039999999 0.028184101 0.0021184168 0.23852047 0.14741376 -0.38593423
0.039999999 0.029554196 0.00091291516 0.23852047 0.14741376 -0.38593423
0.039853476 0.03082989 0 0.23852047 0.14741376 -0.38593423
0.039238706 0.031827673 0 0.23852047 0.14741376 -0.38593423
0.038624167 0.032825693 0 0.23852047 0.14741376 -0.38593423
0.038009856 0.033823963 0 0.23852047 0.14741376 -0.38593423
0.03739576 0.034822498 0 0.23852047 0.14741376 -0.38593423
0.036781874 0.035821307 0 0.23852047 0.14741376 -0.38593423
0.036168188 0.036820401 0 0.23852047 0.14741376 -0.38593423
0.035554696 0.037819799 0 0.23852047 0.14741376 -0.38593423
0.03494139 0.038819507 0 0.23852047 0.14741376 -0.38593423
0.034328263 0.039819539 0 0.23852047 0.14741376 -0.38593423
0.033715308 0.040819909 0 0.23852047 0.14741376 -0.38593423
0.03310252 0.04182063 0 0.23852047 0.14741376 -0.38593423
0.032489885 0.042821717 0 0.23852047 0.14741376 -0.38593423
0.031877398 0.043823175 0 0.23852047 0.14741376 -0.38593423
0.03126505 0.044825021 0 0.23852047 0.14741376 -0.38593423
0.03065284 0.04582727 0 0.23852047 0.14741376 -0.38593423
0.030040754 0.046829928 0 0.23852047 0.14741376 -0.38593423
0.029428786 0.047833014 0 0.23852047 0.14741376 -0.38593423
0.028816929 0.048836537 0 0.23852047 0.14741376 -0.38593423
0.028205175 0.049840514 0 0.23852047 0.14741376 -0.38593423
0.027593518 0.050844952 0 0.23852047 0.14741376 -0.38593423
0.026981946 0.051849864 0 0.23852047 0.14741376 -0.38593423
0.026370456 0.052855268 0 0.23852047 0.14741376 -0.38593423
0.025759039 0.053861175 0 0.23852047 0.14741376 -0.38593423
0.02514769 0.054867595 0 0.23852047 0.14741376 -0.38593423
0.024536395 0.055874541 0 0.23852047 0.14741376 -0.38593423
0.023925152 0.056882031 0 0.23852047 0.14741376 -0.38593423
0.023313951 0.057890069 0 0.23852047 0.14741376 -0.38593423
0.022702785 0.058898676 0 0.23852047 0.14741376 -0.38593423
0.022091646 0.059907861 0 0.23852047 0.14741376 -0.38593423
0.021480529 0.060917638 0 0.23852047 0.14741376 -0.38593423
0.020869421 0.061928023 0 0.23852047 0.14741376 -0.38593423
0.02025832 0.062939018 0 0.23852047 0.14741376 -0.38593423
0.019647216 0.06395065 0 0.23852047 0.14741376 -0.38593423
0.019036101 0.064962924 0 0.23852047 0.14741376 -0.38593423
0.018424967 0.065975852 0 0.23852047 0.14741376 -0.38593423
0.017813809 0.066989459 0 0.23852047 0.14741376 -0.38593423
0.017202618 0.068003736 0 0.23852047 0.14741376 -0.38593423
0.016591383 0.069018722 0 0.23852047 0.14741376 -0.38593423
0.015980102 0.070034407 0 0.23852047 0.14741376 -0.38593423
0.015368764 0.071050815 0 0.23852047 0.14741376 -0.38593423
0.014757362 0.072067969 0 0.23852047 0.14741376 -0.38593423
0.014145889 0.073085859 0 0.23852047 0.14741376 -0.38593423
0.013534336 0.074104518 0 0.23852047 0.14741376 -0.38593423
0.012922698 0.075123951 0 0.23852047 0.14741376 -0.38593423
0.012310963 0.076144181 0 0.23852047 0.14741376 -0.38593423
0.011699127 0.077165201 0 0.23852047 0.14741376 -0.38593423
0.011087181 0.078187048 0 0.23852047 0.14741376 -0.38593423
0.010475117 0.079209715 0 0.23852047 0.14741376 -0.38593423
0.0090690842 0.079999998 0.001339869 0.23852047 0.14741376 -0.38593423
0.0048922631 0.079999998 0.0073364773 0.23852047 0.14741376 -0.38593423
0.00058073271 0.079999998 0.01352705 0.23852047 0.14741376 -0.38593423
0.039999999 0.00051413308 0.02412793 0.23852047 0.14741376 -0.38593423
0.039999999 0.0020582494 0.022766422 0.23852047 0.14741376 -0.38593423
0.039999999 0.0035918201 0.021414766 0.23852047 0.14741376 -0.38593423
0.039999999 0.0051149782 0.020072836 0.23852047 0.14741376 -0.38593423
0.039999999 0.0066278544 0.018740516 0.23852047 0.14741376 -0.38593423
0.039999999 0.0081305765 0.017417682 0.23852047 0.14741376 -0.38593423
0.039999999 0.0096232723 0.016104223 0.23852047 0.14741376 -0.38593423
0.039999999 0.011106065 0.014800019 0.23852047 0.14741376 -0.38593423
0.026832016 0.0036354116 0.039999999 0.23852047 0.14741376 -0.38593423
0.039999999 0.014042431 0.01221893 0.23852047 0.14741376 -0.38593423
0.039999999 0.015496243 0.010941824 0.23852047 0.14741376 -0.38593423
0.024781834 0.0069388323 0.039999999 0.23852047 0.14741376 -0.38593423
0.039999999 0.01837571 0.0084139518 0.23852047 0.14741376 -0.38593423
0.039999999 0.019801592 0.0071629733 0.23852047 0.14741376 -0.38593423
0.039999999 0.021218391 0.0059204968 0.23852047 0.14741376 -0.38593423
0.039999999 0.022626216 0.0046864194 0.23852047 0.14741376 -0.38593423
0.039999999 0.024025174 0.0034606424 0.23852047 0.14741376 -0.38593423
0.039999999 0.02541537 0.0022430674 0.23852047 0.14741376 -0.38593423
0.039999999 0.026796913 0.0010335972 0.23852047 0.14741376 -0.38593423
0.039913613 0.028118014 0 0.23852047 0.14741376 -0.38593423
0.039297227 0.029117143 0 0.23852047 0.14741376 -0.38593423
0.038681079 0.03011648 0 0.23852047 0.14741376 -0.38593423
0.038065162 0.031116039 0 0.23852047 0.14741376 -0.38593423
0.037449472 0.032115832 0 0.23852047 0.14741376 -0.38593423
0.036833998 0.033115868 0 0.23852047 0.14741376 -0.38593423
0.036218736 0.034116164 0 0.23852047 0.14741376 -0.38593423
0.035603672 0.035116732 0 0.23852047 0.14741376 -0.38593423
0.034988806 0.036117584 0 0.23852047 0.14741376 -0.38593423
0.034374125 0.037118733 0 0.23852047 0.14741376 -0.38593423
0.033759624 0.038120192 0 0.23852047 0.14741376 -0.38593423
0.033145294 0.039121967 0 0.23852047 0.14741376 -0.38593423
0.032531124 0.040124081 0 0.23852047 0.14741376 -0.38593423
0.031917114 0.041126538 0 0.23852047 0.14741376 -0.38593423
0.031303253 0.042129356 0 0.23852047 0.14741376 -0.38593423
0.030689532 0.043132547 0 0.23852047 0.14741376 -0.38593423
0.030075943 0.044136122 0 0.23852047 0.14741376 -0.38593423
0.029462481 0.045140091 0 0.23852047 0.14741376 -0.38593423
0.028849138 0.046144471 0 0.23852047 0.14741376 -0.38593423
0.028235903 0.047149274 0 0.23852047 0.14741376 -0.38593423
0.027622772 0.048154514 0 0.23852047 0.14741376 -0.38593423
0.027009737 0.049160197 0 0.23852047 0.14741376 -0.38593423
0.026396791 0.050166346 0 0.23852047 0.14741376 -0.38593423
0.025783923 0.051172964 0 0.23852047 0.14741376 -0.38593423
0.025171127 0.05218007 0 0.23852047 0.14741376 -0.38593423
0.024558397 0.053187676 0 0.23852047 0.14741376 -0.38593423
0.023945723 0.054195795 0 0.23852047 0.14741376 -0.38593423
0.023333101 0.055204436 0 0.23852047 0.14741376 -0.38593423
0.022720519 0.056213614 0 0.23852047 0.14741376 -0.38593423
0.022107972 0.057223342 0 0.23852047 0.14741376 -0.38593423
0.021495452 0.058233637 0 0.23852047 0.14741376 -0.38593423
0.020882951 0.059244506 0 0.23852047 0.14741376 -0.38593423
0.020270461 0.060255963 0 0.23852047 0.14741376 -0.38593423
0.019657975 0.061268024 0 0.23852047 0.14741376 -0.38593423
0.019045485 0.0622807 0 0.23852047 0.14741376 -0.38593423
0.018432986 0.063294001 0 0.23852047 0.14741376 -0.38593423
0.017820466 0.06430795 0 0.23852047 0.14741376 -0.38593423
0.017207919 0.065322548 0 0.23852047 0.14741376 -0.38593423
0.016595339 0.066337816 0 0.23852047 0.14741376 -0.38593423
0.015982715 0.067353763 0 0.23852047 0.14741376 -0.38593423
0.015370044 0.068370409 0 0.23852047 0.14741376 -0.38593423
0.014757314 0.069387756 0 0.23852047 0.14741376 -0.38593423
0.014144519 0.070405826 0 0.23852047 0.14741376 -0.38593423
0.013531652 0.071424633 0 0.23852047 0.14741376 -0.38593423
0.012918704 0.072444186 0 0.23852047 0.14741376 -0.38593423
0.012305668 0.073464498 0 0.23852047 0.14741376 -0.38593423
0.011692536 0.074485585 0 0.23852047 0.14741376 -0.38593423
0.0110793 0.075507455 0 0.23852047 0.14741376 -0.38593423
0.010465953 0.076530136 0 0.23852047 0.14741376 -0.38593423
0.0098524876 0.077553622 0 0.23852047 0.14741376 -0.38593423
0.009238895 0.078577943 0 0.23852047 0.14741376 -0.38593423
0.0086251674 0.079603098 0 0.23852047 0.14741376 -0.38593423
0.0058398824 0.079999998 0.0036355311 0.23852047 0.14741376 -0.38593423
0.0015768212 0.079999998 0.0097191157 0.23852047 0.14741376 -0.38593423
0.039999999 0.0006192209 0.021611702 0.23852047 0.14741376 -0.38593423
0.039999999 0.0021562986 0.020264661 0.23852047 0.14741376 -0.38593423
0.039999999 0.0036829249 0.01892731 0.23852047 0.14741376 -0.38593423
0.039999999 0.0051992307 0.017599529 0.23852047 0.14741376 -0.38593423
0.039999999 0.0067053451 0.016281202 0.23852047 0.14741376 -0.38593423
0.039999999 0.0082013952 0.014972209 0.23852047 0.14741376 -0.38593423
0.026920738 0.00061359099 0.039999999 0.23852047 0.14741376 -0.38593423
0.039999999 0.011163799 0.012381774 0.23852047 0.14741376 -0.38593423
0.039999999 0.012630397 0.011100109 0.23852047 0.14741376 -0.38593423
0.039999999 0.014087418 0.0098273316 0.23852047 0.14741376 -0.38593423
0.039999999 0.015534979 0.0085633351 0.23852047 0.14741376 -0.38593423
0.039999999 0.016973197 0.0073080133 0.23852047 0.14741376 -0.38593423
0.039999999 0.018402185 0.006061262 0.23852047 0.14741376 -0.38593423
0.039999999 0.019822054 0.0048229792 0.23852047 0.14741376 -0.38593423
0.039999999 0.021232914 0.0035930634 0.23852047 0.14741376 -0.38593423
0.039999999 0.022634875 0.0023714157 0.23852047 0.14741376 -0.38593423
0.039999999 0.02402804 0.0011579379 0.23852047 0.14741376 -0.38593423
0.03997558 0.025397513 0 0.23852047 0.14741376 -0.38593423
0.039357569 0.026398059 0 0.23852047 0.14741376 -0.38593423
0.038739804 0.027398786 0 0.23852047 0.14741376 -0.38593423
0.038122281 0.028399702 0 0.23852047 0.14741376 -0.38593423
0.03750499 0.029400826 0 0.23852047 0.14741376 -0.38593423
0.036887925 0.030402165 0 0.23852047 0.14741376 -0.38593423
0.036271077 0.031403732 0 0.23852047 0.14741376 -0.38593423
0.035654441 0.032405544 0 0.23852047 0.14741376 -0.38593423
0.035038006 0.03340761 0 0.23852047 0.14741376 -0.38593423
0.034421764 0.034409944 0 0.23852047 0.14741376 -0.38593423
0.033805709 0.035412554 0 0.23852047 0.14741376 -0.38593423
0.033189837 0.036415461 0 0.23852047 0.14741376 -0.38593423
0.032574132 0.037418671 0 0.23852047 0.14741376 -0.38593423
0.031958595 0.038422201 0 0.23852047 0.14741376 -0.38593423
0.03134321 0.039426059 0 0.23852047 0.14741376 -0.38593423
0.030727977 0.040430259 0 0.23852047 0.14741376 -0.38593423
0.030112883 0.041434817 0 0.23852047 0.14741376 -0.38593423
0.029497921 0.04243974 0 0.23852047 0.14741376 -0.38593423
0.028883087 0.043445047 0 0.23852047 0.14741376 -0.38593423
0.028268371 0.044450749 0 0.23852047 0.14741376 -0.38593423
0.027653763 0.045456853 0 0.23852047 0.14741376 -0.38593423
0.02703926 0.046463381 0 0.23852047 0.14741376 -0.38593423
0.026424849 0.047470339 0 0.23852047 0.14741376 -0.38593423
0.025810529 0.048477739 0 0.23852047 0.14741376 -0.38593423
0.025196286 0.049485601 0 0.23852047 0.14741376 -0.38593423
0.024582116 0.05049393 0 0.23852047 0.14741376 -0.38593423
0.023968011 0.051502746 0 0.23852047 0.14741376 -0.38593423
0.023353962 0.052512053 0 0.23852047 0.14741376 -0.38593423
0.022739964 0.053521872 0 0.23852047 0.14741376 -0.38593423
0.022126004 0.054532211 0 0.23852047 0.14741376 -0.38593423
0.02151208 0.055543087 0 0.23852047 0.14741376 -0.38593423
0.020898182 0.056554511 0 0.23852047 0.14741376 -0.38593423
0.020284303 0.057566494 0 0.23852047 0.14741376 -0.38593423
0.019670434 0.05857905 0 0.23852047 0.14741376 -0.38593423
0.019056568 0.059592195 0 0.23852047 0.14741376 -0.38593423
0.018442698 0.060605939 0 0.23852047 0.14741376 -0.38593423
0.017828815 0.061620295 0 0.23852047 0.14741376 -0.38593423
0.017214913 0.06263528 0 0.23852047 0.14741376 -0.38593423
0.016600983 0.063650899 0 0.23852047 0.14741376 -0.38593423
0.015987018 0.064667173 0 0.23852047 0.14741376 -0.38593423
0.015373009 0.065684117 0 0.23852047 0.14741376 -0.38593423
0.01475895 0.066701733 0 0.23852047 0.14741376 -0.38593423
0.014144833 0.067720041 0 0.23852047 0.14741376 -0.38593423
0.013530649 0.068739057 0 0.23852047 0.14741376 -0.38593423
0.012916393 0.069758795 0 0.23852047 0.14741376 -0.38593423
0.012302053 0.070779264 0 0.23852047 0.14741376 -0.38593423
0.011687624 0.07180047 0 0.23852047 0.14741376 -0.38593423
0.011073099 0.072822444 0 0.23852047 0.14741376 -0.38593423
