# .PCD v0.7 - Point Cloud Data file format
VERSION 0.7
FIELDS x y z vp_x vp_y vp_z
SIZE 4 4 4 4 4 4
TYPE F F F F F F
COUNT 1 1 1 1 1 1
WIDTH 693
HEIGHT 1
VIEWPOINT 0 0 0 1 0 0 0
POINTS 693
DATA ascii
0.012898456 0.032917131 0.039999999 0.38593423 0.23852047 0.14741376
0.034070265 0.045820102 0.046263803 0.38593423 0.23852047 0.14741376
0.03609528 0.048152234 0.047012154 0.38593423 0.23852047 0.14741376
0.037320025 0.050033927 0.047528993 0.38593423 0.23852047 0.14741376
0.03819716 0.051716793 0.047944944 0.38593423 0.23852047 0.14741376
0.038807027 0.053247396 0.04828345 0.38593423 0.23852047 0.14741376
0.039249472 0.05468151 0.048573367 0.38593423 0.23852047 0.14741376
0.039590634 0.056055758 0.048833754 0.38593423 0.23852047 0.14741376
0.03980406 0.057357382 0.049057245 0.38593423 0.23852047 0.14741376
0.039924435 0.058605772 0.049253866 0.38593423 0.23852047 0.14741376
0.039990343 0.059821848 0.049434677 0.38593423 0.23852047 0.14741376
0.039946988 0.060978081 0.049584262 0.38593423 0.23852047 0.14741376
0.039884999 0.062121816 0.049728364 0.38593423 0.23852047 0.14741376
0.039711636 0.063206308 0.049840871 0.38593423 0.23852047 0.14741376
0.039534464 0.064286813 0.049952216 0.38593423 0.23852047 0.14741376
0.03925119 0.065312296 0.050033666 0.38593423 0.23852047 0.14741376
0.038966972 0.066336028 0.050114863 0.38593423 0.23852047 0.14741376
0.038584836 0.067310244 0.05016866 0.38593423 0.23852047 0.14741376
0.038197838 0.068281502 0.050221208 0.38593423 0.23852047 0.14741376
0.037721518 0.069208801 0.050248947 0.38593423 0.23852047 0.14741376
0.037232969 0.070130274 0.050273474 0.38593423 0.23852047 0.14741376
0.036661725 0.071012273 0.050275218 0.38593423 0.23852047 0.14741376
0.0360699 0.071885206 0.050271541 0.38593423 0.23852047 0.14741376
0.035397459 0.072720893 0.050245825 0.38593423 0.23852047 0.14741376
0.034697395 0.073545046 0.050212853 0.38593423 0.23852047 0.14741376
0.033911146 0.074330613 0.050156485 0.38593423 0.23852047 0.14741376
0.033094391 0.075104252 0.050092198 0.38593423 0.23852047 0.14741376
0.032172967 0.075832158 0.049999613 0.38593423 0.23852047 0.14741376
0.031226465 0.076551698 0.049900752 0.38593423 0.23852047 0.14741376
0.030135065 0.077208802 0.049762774 0.38593423 0.23852047 0.14741376
0.028989162 0.077845566 0.049610637 0.38593423 0.23852047 0.14741376
0.027721047 0.078432262 0.0494259 0.38593423 0.23852047 0.14741376
0.026293155 0.0789534 0.049198467 0.38593423 0.23852047 0.14741376
0.024709214 0.07941217 0.048929576 0.38593423 0.23852047 0.14741376
0.022887599 0.079774357 0.048597224 0.38593423 0.23852047 0.14741376
0.020688085 0.079981379 0.048163623 0.38593423 0.23852047 0.14741376
0.017632915 0.079830989 0.047499683 0.38593423 0.23852047 0.14741376
0.038466368 0.00041745391 0.039999999 0.38593423 0.23852047 0.14741376
0.037879601 0.00139179 0.039999999 0.38593423 0.23852047 0.14741376
0.037292361 0.0023654194 0.039999999 0.38593423 0.23852047 0.14741376
0.036704637 0.0033383607 0.039999999 0.38593423 0.23852047 0.14741376
0.036116421 0.0043106321 0.039999999 0.38593423 0.23852047 0.14741376
0.035527695 0.005282253 0.039999999 0.38593423 0.23852047 0.14741376
0.034938455 0.0062532406 0.039999999 0.38593423 0.23852047 0.14741376
0.034348689 0.007223614 0.039999999 0.38593423 0.23852047 0.14741376
0.033758383 0.0081933923 0.039999999 0.38593423 0.23852047 0.14741376
0.033167526 0.0091625918 0.039999999 0.38593423 0.23852047 0.14741376
0.03257611 0.010131233 0.039999999 0.38593423 0.23852047 0.14741376
0.031984124 0.011099334 0.039999999 0.38593423 0.23852047 0.14741376
0.031391557 0.012066911 0.039999999 0.38593423 0.23852047 0.14741376
0.030798394 0.013033984 0.039999999 0.38593423 0.23852047 0.14741376
0.03020463 0.014000571 0.039999999 0.38593423 0.23852047 0.14741376
0.029610248 0.014966691 0.039999999 0.38593423 0.23852047 0.14741376
0.029015239 0.015932361 0.039999999 0.38593423 0.23852047 0.14741376
0.028419595 0.016897598 0.039999999 0.38593423 0.23852047 0.14741376
0.027823299 0.017862422 0.039999999 0.38593423 0.23852047 0.14741376
0.027226346 0.018826852 0.039999999 0.38593423 0.23852047 0.14741376
0.02662872 0.019790903 0.039999999 0.38593423 0.23852047 0.14741376
0.026030412 0.020754596 0.039999999 0.38593423 0.23852047 0.14741376
0.025431411 0.021717947 0.039999999 0.38593423 0.23852047 0.14741376
0.024831705 0.022680975 0.039999999 0.38593423 0.23852047 0.14741376
0.024231281 0.023643699 0.039999999 0.38593423 0.23852047 0.14741376
0.023630131 0.024606135 0.039999999 0.38593423 0.23852047 0.14741376
0.023028241 0.025568303 0.039999999 0.38593423 0.23852047 0.14741376
0.022425599 0.026530219 0.039999999 0.38593423 0.23852047 0.14741376
0.021822197 0.027491903 0.039999999 0.38593423 0.23852047 0.14741376
0.02121802 0.028453371 0.039999999 0.38593423 0.23852047 0.14741376
0.020613059 0.029414643 0.039999999 0.38593423 0.23852047 0.14741376
0.020007301 0.030375734 0.039999999 0.38593423 0.23852047 0.14741376
0.019400734 0.031336665 0.039999999 0.38593423 0.23852047 0.14741376
0.018793346 0.032297455 0.039999999 0.38593423 0.23852047 0.14741376
0.018185128 0.033258118 0.039999999 0.38593423 0.23852047 0.14741376
0.017576065 0.034218676 0.039999999 0.38593423 0.23852047 0.14741376
0.016966147 0.035179142 0.039999999 0.38593423 0.23852047 0.14741376
0.034120556 0.045867737 0.045163244 0.38593423 0.23852047 0.14741376
0.036117777 0.048185416 0.045911703 0.38593423 0.23852047 0.14741376
0.037336245 0.050064515 0.046432346 0.38593423 0.23852047 0.14741376
0.038208671 0.05174569 0.046851441 0.38593423 0.23852047 0.14741376
0.038818974 0.053277381 0.047193717 0.38593423 0.23852047 0.14741376
0.039257452 0.05471025 0.047485586 0.38593423 0.23852047 0.14741376
0.039595194 0.056083571 0.047747757 0.38593423 0.23852047 0.14741376
0.03980878 0.057386167 0.047973644 0.38593423 0.23852047 0.14741376
0.039925952 0.058633778 0.04817139 0.38593423 0.23852047 0.14741376
0.039991912 0.059850778 0.048354078 0.38593423 0.23852047 0.14741376
0.039945457 0.061006323 0.048504286 0.38593423 0.23852047 0.14741376
0.039883424 0.06215094 0.048649818 0.38593423 0.23852047 0.14741376
0.039706964 0.063234784 0.04876253 0.38593423 0.23852047 0.14741376
0.039527986 0.064315304 0.048874423 0.38593423 0.23852047 0.14741376
0.039243229 0.065340973 0.048956174 0.38593423 0.23852047 0.14741376
0.03895878 0.066365533 0.049038019 0.38593423 0.23852047 0.14741376
0.038573351 0.067339063 0.049091287 0.38593423 0.23852047 0.14741376
0.038186036 0.068311118 0.049144123 0.38593423 0.23852047 0.14741376
0.037706211 0.069237672 0.049170967 0.38593423 0.23852047 0.14741376
0.037217252 0.07015992 0.049195435 0.38593423 0.23852047 0.14741376
0.036642201 0.071041062 0.049195901 0.38593423 0.23852047 0.14741376
0.036049869 0.071914747 0.049191799 0.38593423 0.23852047 0.14741376
0.035373211 0.072749443 0.049164373 0.38593423 0.23852047 0.14741376
0.034672529 0.073574319 0.049130611 0.38593423 0.23852047 0.14741376
0.033881504 0.074358694 0.049072023 0.38593423 0.23852047 0.14741376
0.033064008 0.075133033 0.049006548 0.38593423 0.23852047 0.14741376
0.032137059 0.075859457 0.048911121 0.38593423 0.23852047 0.14741376
0.031184567 0.076577343 0.048809215 0.38593423 0.23852047 0.14741376
0.03009169 0.077234901 0.048668999 0.38593423 0.23852047 0.14741376
0.028937938 0.077869266 0.048512701 0.38593423 0.23852047 0.14741376
0.02766853 0.078456558 0.048325244 0.38593423 0.23852047 0.14741376
0.026230639 0.07897447 0.048092213 0.38593423 0.23852047 0.14741376
0.024633728 0.079428785 0.047816437 0.38593423 0.23852047 0.14741376
0.022794273 0.079784513 0.047475155 0.38593423 0.23852047 0.14741376
0.020575061 0.079984441 0.047030997 0.38593423 0.23852047 0.14741376
0.017467089 0.079812944 0.046344861 0.38593423 0.23852047 0.14741376
0.039999999 7.4009993e-05 0.03911816 0.38593423 0.23852047 0.14741376
0.039999999 0.0014483024 0.039301232 0.38593423 0.23852047 0.14741376
0.039999999 0.0028175518 0.039483819 0.38593423 0.23852047 0.14741376
0.039999999 0.0041818046 0.03966593 0.38593423 0.23852047 0.14741376
0.039999999 0.0055411053 0.039847564 0.38593423 0.23852047 0.14741376
0.039907437 0.006833524 0.039999999 0.38593423 0.23852047 0.14741376
0.039324179 0.007795162 0.039999999 0.38593423 0.23852047 0.14741376
0.038740437 0.0087561971 0.039999999 0.38593423 0.23852047 0.14741376
0.038156204 0.0097166477 0.039999999 0.38593423 0.23852047 0.14741376
0.037571471 0.01067653 0.039999999 0.38593423 0.23852047 0.14741376
0.036986224 0.011635865 0.039999999 0.38593423 0.23852047 0.14741376
0.036400456 0.012594667 0.039999999 0.38593423 0.23852047 0.14741376
0.035814155 0.013552957 0.039999999 0.38593423 0.23852047 0.14741376
0.035227306 0.014510751 0.039999999 0.38593423 0.23852047 0.14741376
0.034639902 0.015468067 0.039999999 0.38593423 0.23852047 0.14741376
0.034051936 0.016424922 0.039999999 0.38593423 0.23852047 0.14741376
0.033463389 0.017381337 0.039999999 0.38593423 0.23852047 0.14741376
0.032874256 0.018337326 0.039999999 0.38593423 0.23852047 0.14741376
0.032284521 0.01929291 0.039999999 0.38593423 0.23852047 0.14741376
0.031694181 0.020248104 0.039999999 0.38593423 0.23852047 0.14741376
0.031103216 0.021202926 0.039999999 0.38593423 0.23852047 0.14741376
0.030511623 0.022157395 0.039999999 0.38593423 0.23852047 0.14741376
0.029919386 0.023111528 0.039999999 0.38593423 0.23852047 0.14741376
0.029326495 0.024065342 0.039999999 0.38593423 0.23852047 0.14741376
0.028732941 0.025018856 0.039999999 0.38593423 0.23852047 0.14741376
0.02813871 0.025972087 0.039999999 0.38593423 0.23852047 0.14741376
0.027543793 0.026925052 0.039999999 0.38593423 0.23852047 0.14741376
0.026948176 0.027877769 0.039999999 0.38593423 0.23852047 0.14741376
0.026351852 0.028830256 0.039999999 0.38593423 0.23852047 0.14741376
0.025754808 0.02978253 0.039999999 0.38593423 0.23852047 0.14741376
0.025157031 0.03073461 0.039999999 0.38593423 0.23852047 0.14741376
0.024558512 0.031686511 0.039999999 0.38593423 0.23852047 0.14741376
0.023959238 0.032638252 0.039999999 0.38593423 0.23852047 0.14741376
0.0233592 0.033589851 0.039999999 0.38593423 0.23852047 0.14741376
0.022758383 0.034541328 0.039999999 0.38593423 0.23852047 0.14741376
0.022156781 0.035492696 0.039999999 0.38593423 0.23852047 0.14741376
0.021554377 0.036443971 0.039999999 0.38593423 0.23852047 0.14741376
0.020951161 0.037395179 0.039999999 0.38593423 0.23852047 0.14741376
0.034170892 0.045915417 0.044061583 0.38593423 0.23852047 0.14741376
0.0361403 0.048218634 0.044809978 0.38593423 0.23852047 0.14741376
0.03735248 0.050095141 0.045334395 0.38593423 0.23852047 0.14741376
0.038220201 0.051774617 0.045756608 0.38593423 0.23852047 0.14741376
0.038830936 0.053307403 0.046102665 0.38593423 0.23852047 0.14741376
0.039265439 0.054739024 0.046396468 0.38593423 0.23852047 0.14741376
0.039599761 0.056111418 0.046660405 0.38593423 0.23852047 0.14741376
0.039813507 0.057414986 0.046888694 0.38593423 0.23852047 0.14741376
0.039927471 0.058661819 0.047087554 0.38593423 0.23852047 0.14741376
0.03999348 0.059879746 0.047272123 0.38593423 0.23852047 0.14741376
0.039943926 0.061034601 0.047422938 0.38593423 0.23852047 0.14741376
0.039880048 0.062179189 0.047569383 0.38593423 0.23852047 0.14741376
0.039702289 0.06326329 0.047682799 0.38593423 0.23852047 0.14741376
0.039520241 0.064343192 0.047794867 0.38593423 0.23852047 0.14741376
0.039235257 0.065369695 0.047877282 0.38593423 0.23852047 0.14741376
0.038949665 0.06639462 0.047959514 0.38593423 0.23852047 0.14741376
0.038561851 0.067367926 0.048012491 0.38593423 0.23852047 0.14741376
0.038174219 0.068340771 0.048065618 0.38593423 0.23852047 0.14741376
0.037690885 0.06926658 0.048091549 0.38593423 0.23852047 0.14741376
0.037201516 0.070189603 0.048115954 0.38593423 0.23852047 0.14741376
0.036622651 0.071069904 0.048115116 0.38593423 0.23852047 0.14741376
0.036029812 0.071944334 0.048110597 0.38593423 0.23852047 0.14741376
0.035348926 0.072778031 0.048081435 0.38593423 0.23852047 0.14741376
0.034647625 0.073603638 0.048046879 0.38593423 0.23852047 0.14741376
0.033851821 0.074386805 0.047986042 0.38593423 0.23852047 0.14741376
0.03303358 0.075161852 0.047919374 0.38593423 0.23852047 0.14741376
0.032101095 0.075886793 0.047821067 0.38593423 0.23852047 0.14741376
0.031142192 0.076602839 0.047715958 0.38593423 0.23852047 0.14741376
0.030048249 0.077261031 0.047573619 0.38593423 0.23852047 0.14741376
0.028886635 0.077892996 0.047413103 0.38593423 0.23852047 0.14741376
0.027615933 0.078480892 0.047222923 0.38593423 0.23852047 0.14741376
0.026168024 0.078995571 0.046984218 0.38593423 0.23852047 0.14741376
0.024558118 0.079445422 0.046701472 0.38593423 0.23852047 0.14741376
0.022700785 0.079794683 0.046351142 0.38593423 0.23852047 0.14741376
0.020461829 0.079987504 0.045896288 0.38593423 0.23852047 0.14741376
0.017300915 0.079794869 0.045187596 0.38593423 0.23852047 0.14741376
0.039999999 5.2680451e-05 0.037941318 0.38593423 0.23852047 0.14741376
0.039999999 0.0014281992 0.038126718 0.38593423 0.23852047 0.14741376
0.039999999 0.0027986662 0.038311619 0.38593423 0.23852047 0.14741376
0.039999999 0.0041641272 0.038496025 0.38593423 0.23852047 0.14741376
0.039999999 0.0055246279 0.038679939 0.38593423 0.23852047 0.14741376
0.039999999 0.006880213 0.038863368 0.38593423 0.23852047 0.14741376
0.039999999 0.0082309274 0.039046314 0.38593423 0.23852047 0.14741376
0.039999999 0.0095768152 0.03922879 0.38593423 0.23852047 0.14741376
0.039999999 0.01091792 0.039410792 0.38593423 0.23852047 0.14741376
0.039999999 0.012254285 0.039592329 0.38593423 0.23852047 0.14741376
0.039999999 0.013585952 0.039773405 0.38593423 0.23852047 0.14741376
0.039999999 0.014912965 0.039954025 0.38593423 0.23852047 0.14741376
0.039567266 0.015957305 0.039999999 0.38593423 0.23852047 0.14741376
0.038986027 0.016905515 0.039999999 0.38593423 0.23852047 0.14741376
0.038404271 0.017853271 0.039999999 0.38593423 0.23852047 0.14741376
0.037821986 0.018800594 0.039999999 0.38593423 0.23852047 0.14741376
0.03723916 0.019747498 0.039999999 0.38593423 0.23852047 0.14741376
0.036655784 0.020694003 0.039999999 0.38593423 0.23852047 0.14741376
0.036071844 0.021640126 0.039999999 0.38593423 0.23852047 0.14741376
0.035487335 0.022585882 0.039999999 0.38593423 0.23852047 0.14741376
0.034902245 0.02353129 0.039999999 0.38593423 0.23852047 0.14741376
0.034316558 0.024476368 0.039999999 0.38593423 0.23852047 0.14741376
0.033730268 0.025421131 0.039999999 0.38593423 0.23852047 0.14741376
0.033143364 0.026365599 0.039999999 0.38593423 0.23852047 0.14741376
0.032555833 0.027309788 0.039999999 0.38593423 0.23852047 0.14741376
0.031967666 0.028253714 0.039999999 0.38593423 0.23852047 0.14741376
0.031378854 0.029197395 0.039999999 0.38593423 0.23852047 0.14741376
0.030789381 0.030140851 0.039999999 0.38593423 0.23852047 0.14741376
0.030199239 0.031084094 0.039999999 0.38593423 0.23852047 0.14741376
0.029608419 0.032027144 0.039999999 0.38593423 0.23852047 0.14741376
0.029016906 0.032970019 0.039999999 0.38593423 0.23852047 0.14741376
0.028424691 0.033912733 0.039999999 0.38593423 0.23852047 0.14741376
0.027831765 0.03485531 0.039999999 0.38593423 0.23852047 0.14741376
0.027238114 0.035797756 0.039999999 0.38593423 0.23852047 0.14741376
0.026643729 0.036740098 0.039999999 0.38593423 0.23852047 0.14741376
0.026048595 0.037682351 0.039999999 0.38593423 0.23852047 0.14741376
0.025452705 0.038624533 0.039999999 0.38593423 0.23852047 0.14741376
0.024856048 0.039566655 0.039999999 0.38593423 0.23852047 0.14741376
0.034221284 0.045963146 0.042958807 0.38593423 0.23852047 0.14741376
0.03616285 0.048251893 0.043706965 0.38593423 0.23852047 0.14741376
0.037368737 0.050125804 0.044235121 0.38593423 0.23852047 0.14741376
0.038231742 0.051803585 0.044660434 0.38593423 0.23852047 0.14741376
0.038842909 0.053337459 0.04501028 0.38593423 0.23852047 0.14741376
0.039273437 0.054767836 0.045305997 0.38593423 0.23852047 0.14741376
0.039604332 0.056139298 0.045571681 0.38593423 0.23852047 0.14741376
0.039818238 0.057443839 0.045802381 0.38593423 0.23852047 0.14741376
0.039928995 0.058689896 0.046002332 0.38593423 0.23852047 0.14741376
0.039995052 0.059908748 0.04618879 0.38593423 0.23852047 0.14741376
0.039942391 0.061062913 0.046340197 0.38593423 0.23852047 0.14741376
0.039875507 0.062206883 0.046487208 0.38593423 0.23852047 0.14741376
0.03969761 0.06329184 0.046601664 0.38593423 0.23852047 0.14741376
0.039512489 0.064371124 0.046713896 0.38593423 0.23852047 0.14741376
0.039227273 0.065398447 0.046796966 0.38593423 0.23852047 0.14741376
0.03893847 0.066422716 0.046878982 0.38593423 0.23852047 0.14741376
0.038550336 0.06739682 0.046932261 0.38593423 0.23852047 0.14741376
0.038162388 0.068370469 0.046985678 0.38593423 0.23852047 0.14741376
0.037675537 0.069295533 0.047010675 0.38593423 0.23852047 0.14741376
0.037185755 0.070219323 0.047035016 0.38593423 0.23852047 0.14741376
0.036603078 0.071098775 0.047032855 0.38593423 0.23852047 0.14741376
0.036009725 0.071973957 0.047027916 0.38593423 0.23852047 0.14741376
0.035324607 0.072806664 0.046996988 0.38593423 0.23852047 0.14741376
0.034622688 0.073632993 0.046961635 0.38593423 0.23852047 0.14741376
0.033822097 0.074414961 0.046898518 0.38593423 0.23852047 0.14741376
0.03300311 0.075190708 0.046830654 0.38593423 0.23852047 0.14741376
0.032065082 0.075914174 0.046729434 0.38593423 0.23852047 0.14741376
0.031099753 0.076628372 0.046621084 0.38593423 0.23852047 0.14741376
0.030004745 0.077287212 0.046476614 0.38593423 0.23852047 0.14741376
0.028835256 0.077916771 0.046311829 0.38593423 0.23852047 0.14741376
0.027563255 0.078505263 0.046118915 0.38593423 0.23852047 0.14741376
0.026105309 0.0790167 0.045874473 0.38593423 0.23852047 0.14741376
0.024482384 0.079462089 0.045584667 0.38593423 0.23852047 0.14741376
0.022607135 0.079804875 0.045225166 0.38593423 0.23852047 0.14741376
0.020348389 0.079990573 0.044759482 0.38593423 0.23852047 0.14741376
0.017134385 0.079776749 0.044027865 0.38593423 0.23852047 0.14741376
0.0021327036 0.074544467 0.039999999 0.38593423 0.23852047 0.14741376
0.0014980634 0.075497381 0.039999999 0.38593423 0.23852047 0.14741376
0.00086217839 0.076450929 0.039999999 0.38593423 0.23852047 0.14741376
0.00022503488 0.077405117 0.039999999 0.38593423 0.23852047 0.14741376
0.039999999 3.1320564e-05 0.036762804 0.38593423 0.23852047 0.14741376
0.039999999 0.0014080676 0.03695054 0.38593423 0.23852047 0.14741376
0.039999999 0.0027797539 0.037137758 0.38593423 0.23852047 0.14741376
0.039999999 0.0041464251 0.037324466 0.38593423 0.23852047 0.14741376
0.039999999 0.0055081276 0.037510667 0.38593423 0.23852047 0.14741376
0.039999999 0.0068649058 0.037696362 0.38593423 0.23852047 0.14741376
0.039999999 0.0082168039 0.037881564 0.38593423 0.23852047 0.14741376
0.039999999 0.0095638679 0.038066272 0.38593423 0.23852047 0.14741376
0.039999999 0.010906139 0.038250495 0.38593423 0.23852047 0.14741376
0.039999999 0.012243664 0.038434237 0.38593423 0.23852047 0.14741376
0.039999999 0.013576482 0.038617499 0.38593423 0.23852047 0.14741376
0.039999999 0.014904638 0.038800292 0.38593423 0.23852047 0.14741376
0.039999999 0.016228173 0.038982619 0.38593423 0.23852047 0.14741376
0.039999999 0.017547129 0.039164484 0.38593423 0.23852047 0.14741376
0.039999999 0.018861547 0.03934589 0.38593423 0.23852047 0.14741376
0.039999999 0.020171469 0.039526846 0.38593423 0.23852047 0.14741376
0.039999999 0.021476934 0.039707355 0.38593423 0.23852047 0.14741376
0.039999999 0.022777982 0.039887421 0.38593423 0.23852047 0.14741376
0.039783932 0.02394071 0.039999999 0.38593423 0.23852047 0.14741376
0.039205138 0.024877219 0.039999999 0.38593423 0.23852047 0.14741376
0.038625799 0.025813399 0.039999999 0.38593423 0.23852047 0.14741376
0.038045902 0.026749272 0.039999999 0.38593423 0.23852047 0.14741376
0.037465438 0.027684851 0.039999999 0.38593423 0.23852047 0.14741376
0.036884401 0.028620156 0.039999999 0.38593423 0.23852047 0.14741376
0.036302771 0.029555202 0.039999999 0.38593423 0.23852047 0.14741376
0.035720546 0.030490007 0.039999999 0.38593423 0.23852047 0.14741376
0.035137709 0.031424586 0.039999999 0.38593423 0.23852047 0.14741376
0.034554254 0.032358959 0.039999999 0.38593423 0.23852047 0.14741376
0.033970166 0.033293139 0.039999999 0.38593423 0.23852047 0.14741376
0.033385437 0.034227144 0.039999999 0.38593423 0.23852047 0.14741376
0.03280006 0.035160996 0.039999999 0.38593423 0.23852047 0.14741376
0.032214019 0.036094703 0.039999999 0.38593423 0.23852047 0.14741376
0.031627305 0.037028287 0.039999999 0.38593423 0.23852047 0.14741376
0.031039905 0.037961762 0.039999999 0.38593423 0.23852047 0.14741376
0.03045181 0.038895149 0.039999999 0.38593423 0.23852047 0.14741376
0.029863011 0.039828461 0.039999999 0.38593423 0.23852047 0.14741376
0.029273493 0.040761717 0.039999999 0.38593423 0.23852047 0.14741376
0.028683251 0.041694932 0.039999999 0.38593423 0.23852047 0.14741376
0.034271725 0.046010926 0.041854892 0.38593423 0.23852047 0.14741376
0.036185425 0.048285194 0.042602647 0.38593423 0.23852047 0.14741376
0.037385013 0.0501565 0.043134507 0.38593423 0.23852047 0.14741376
0.038243294 0.051832583 0.043562897 0.38593423 0.23852047 0.14741376
0.038854901 0.053367551 0.043916538 0.38593423 0.23852047 0.14741376
0.039281446 0.054796681 0.044214152 0.38593423 0.23852047 0.14741376
0.039608911 0.056167215 0.044481568 0.38593423 0.23852047 0.14741376
0.039822973 0.057472732 0.044714686 0.38593423 0.23852047 0.14741376
0.039930519 0.058718011 0.044915713 0.38593423 0.23852047 0.14741376
0.039996628 0.05993779 0.045104064 0.38593423 0.23852047 0.14741376
0.039940856 0.061091267 0.045256048 0.38593423 0.23852047 0.14741376
0.039870959 0.062234614 0.045403611 0.38593423 0.23852047 0.14741376
0.03969292 0.063320428 0.045519106 0.38593423 0.23852047 0.14741376
0.039504722 0.064399086 0.045631483 0.38593423 0.23852047 0.14741376
0.039219279 0.065427244 0.045715217 0.38593423 0.23852047 0.14741376
0.038927257 0.066450849 0.045796998 0.38593423 0.23852047 0.14741376
0.038538806 0.067425758 0.045850575 0.38593423 0.23852047 0.14741376
0.038150288 0.068400085 0.045904212 0.38593423 0.23852047 0.14741376
0.037660167 0.069324516 0.045928329 0.38593423 0.23852047 0.14741376
0.037169978 0.070249088 0.045952607 0.38593423 0.23852047 0.14741376
0.036583472 0.07112769 0.045949098 0.38593423 0.23852047 0.14741376
0.035989612 0.072003625 0.045943733 0.38593423 0.23852047 0.14741376
0.035300255 0.072835334 0.045911014 0.38593423 0.23852047 0.14741376
0.034597717 0.073662385 0.045874868 0.38593423 0.23852047 0.14741376
0.033792328 0.074443161 0.04580944 0.38593423 0.23852047 0.14741376
0.0329726 0.075219616 0.045740377 0.38593423 0.23852047 0.14741376
0.032029018 0.075941592 0.045636203 0.38593423 0.23852047 0.14741376
0.031057253 0.076653942 0.045524571 0.38593423 0.23852047 0.14741376
0.029961176 0.077313423 0.045377959 0.38593423 0.23852047 0.14741376
0.028783794 0.077940576 0.045208856 0.38593423 0.23852047 0.14741376
0.027510496 0.078529671 0.0450132 0.38593423 0.23852047 0.14741376
0.026042495 0.079037867 0.044762954 0.38593423 0.23852047 0.14741376
0.024406524 0.079478785 0.044466 0.38593423 0.23852047 0.14741376
0.022513319 0.079815075 0.044097204 0.38593423 0.23852047 0.14741376
0.020234738 0.07999365 0.043620553 0.38593423 0.23852047 0.14741376
0.016967498 0.079758599 0.042865645 0.38593423 0.23852047 0.14741376
0.0062289345 0.076350659 0.039999999 0.38593423 0.23852047 0.14741376
0.0056025051 0.077294976 0.039999999 0.38593423 0.23852047 0.14741376
0.0049748844 0.078239925 0.039999999 0.38593423 0.23852047 0.14741376
0.0043460606 0.079185523 0.039999999 0.38593423 0.23852047 0.14741376
0.0033979909 0.079999998 0.039910626 0.38593423 0.23852047 0.14741376
0.00046158652 0.079999998 0.039264034 0.38593423 0.23852047 0.14741376
0.039999999 9.9299732e-06 0.035582595 0.38593423 0.23852047 0.14741376
0.039999999 0.0013879071 0.035772674 0.38593423 0.23852047 0.14741376
0.039999999 0.0027608143 0.03596222 0.38593423 0.23852047 0.14741376
0.039999999 0.0041286978 0.036151234 0.38593423 0.23852047 0.14741376
0.039999999 0.0054916036 0.036339726 0.38593423 0.23852047 0.14741376
0.039999999 0.0068495763 0.036527697 0.38593423 0.23852047 0.14741376
0.039999999 0.0082026608 0.036715157 0.38593423 0.23852047 0.14741376
0.039999999 0.0095509021 0.036902111 0.38593423 0.23852047 0.14741376
0.039999999 0.010894343 0.037088558 0.38593423 0.23852047 0.14741376
0.039999999 0.012233028 0.03727451 0.38593423 0.23852047 0.14741376
0.039999999 0.013567 0.03745997 0.38593423 0.23852047 0.14741376
0.039999999 0.0148963 0.037644941 0.38593423 0.23852047 0.14741376
0.039999999 0.016220972 0.037829429 0.38593423 0.23852047 0.14741376
0.039999999 0.017541056 0.038013443 0.38593423 0.23852047 0.14741376
0.039999999 0.018856596 0.038196981 0.38593423 0.23852047 0.14741376
0.039999999 0.02016763 0.038380053 0.38593423 0.23852047 0.14741376
0.039999999 0.021474201 0.038562663 0.38593423 0.23852047 0.14741376
0.039999999 0.022776349 0.038744811 0.38593423 0.23852047 0.14741376
0.039999999 0.024074109 0.038926508 0.38593423 0.23852047 0.14741376
0.039999999 0.025367526 0.039107759 0.38593423 0.23852047 0.14741376
0.039999999 0.026656639 0.039288562 0.38593423 0.23852047 0.14741376
0.039999999 0.027941482 0.039468929 0.38593423 0.23852047 0.14741376
0.039999999 0.029222095 0.039648861 0.38593423 0.23852047 0.14741376
0.039999999 0.03049852 0.03982836 0.38593423 0.23852047 0.14741376
0.039976045 0.031756472 0.039999999 0.38593423 0.23852047 0.14741376
0.039399639 0.032682333 0.039999999 0.38593423 0.23852047 0.14741376
0.038822658 0.033607986 0.039999999 0.38593423 0.23852047 0.14741376
0.038245097 0.034533452 0.039999999 0.38593423 0.23852047 0.14741376
0.037666939 0.035458747 0.039999999 0.38593423 0.23852047 0.14741376
0.037088178 0.036383882 0.039999999 0.38593423 0.23852047 0.14741376
0.036508806 0.037308879 0.039999999 0.38593423 0.23852047 0.14741376
0.035928808 0.038233753 0.039999999 0.38593423 0.23852047 0.14741376
0.035348177 0.039158519 0.039999999 0.38593423 0.23852047 0.14741376
0.034766898 0.040083192 0.039999999 0.38593423 0.23852047 0.14741376
0.034184963 0.041007794 0.039999999 0.38593423 0.23852047 0.14741376
0.033602361 0.041932337 0.039999999 0.38593423 0.23852047 0.14741376
0.033019081 0.042856839 0.039999999 0.38593423 0.23852047 0.14741376
0.032435115 0.043781314 0.039999999 0.38593423 0.23852047 0.14741376
0.034322221 0.046058755 0.040749826 0.38593423 0.23852047 0.14741376
0.036208026 0.048318531 0.041497003 0.38593423 0.23852047 0.14741376
0.037401307 0.050187238 0.04203254 0.38593423 0.23852047 0.14741376
0.038254865 0.051861621 0.042463977 0.38593423 0.23852047 0.14741376
0.038866907 0.053397685 0.04282143 0.38593423 0.23852047 0.14741376
0.039289467 0.054825567 0.043120917 0.38593423 0.23852047 0.14741376
0.039613493 0.05619517 0.043390047 0.38593423 0.23852047 0.14741376
0.039827719 0.057501659 0.043625589 0.38593423 0.23852047 0.14741376
0.039932042 0.058746163 0.043827679 0.38593423 0.23852047 0.14741376
0.039998204 0.059966866 0.04401793 0.38593423 0.23852047 0.14741376
0.039939318 0.061119653 0.044170469 0.38593423 0.23852047 0.14741376
0.039866406 0.062262382 0.044318568 0.38593423 0.23852047 0.14741376
0.039688226 0.063349053 0.044435106 0.38593423 0.23852047 0.14741376
0.039496947 0.064427093 0.044547614 0.38593423 0.23852047 0.14741376
0.039211273 0.06545607 0.04463201 0.38593423 0.23852047 0.14741376
0.038916033 0.066479027 0.044713542 0.38593423 0.23852047 0.14741376
0.038527261 0.067454733 0.044767417 0.38593423 0.23852047 0.14741376
0.038135309 0.068428338 0.044820428 0.38593423 0.23852047 0.14741376
0.037644777 0.069353543 0.04484449 0.38593423 0.23852047 0.14741376
0.037154175 0.07027889 0.044868704 0.38593423 0.23852047 0.14741376
0.036563843 0.071156643 0.044863824 0.38593423 0.23852047 0.14741376
0.035969473 0.072033331 0.044858035 0.38593423 0.23852047 0.14741376
0.035275869 0.072864041 0.044823498 0.38593423 0.23852047 0.14741376
0.034572709 0.07369183 0.04478655 0.38593423 0.23852047 0.14741376
0.033762518 0.074471399 0.044718783 0.38593423 0.23852047 0.14741376
0.032941177 0.075248159 0.044648264 0.38593423 0.23852047 0.14741376
0.031992897 0.075969048 0.044541359 0.38593423 0.23852047 0.14741376
0.031014688 0.076679558 0.044426396 0.38593423 0.23852047 0.14741376
0.02991754 0.077339679 0.044277642 0.38593423 0.23852047 0.14741376
0.028732255 0.077964425 0.044104166 0.38593423 0.23852047 0.14741376
0.027457654 0.078554124 0.043905757 0.38593423 0.23852047 0.14741376
0.02597958 0.079059064 0.04364964 0.38593423 0.23852047 0.14741376
0.024330536 0.079495512 0.043345451 0.38593423 0.23852047 0.14741376
0.022419335 0.079825304 0.042967238 0.38593423 0.23852047 0.14741376
0.020120872 0.079996727 0.042479482 0.38593423 0.23852047 0.14741376
0.016800251 0.079740398 0.041700907 0.38593423 0.23852047 0.14741376
0.01024363 0.078120902 0.039999999 0.38593423 0.23852047 0.14741376
0.0096252104 0.079056777 0.039999999 0.38593423 0.23852047 0.14741376
0.0090056518 0.079993278 0.039999999 0.38593423 0.23852047 0.14741376
0.0061558289 0.079999998 0.039365809 0.38593423 0.23852047 0.14741376
0.0032529377 0.079999998 0.038718965 0.38593423 0.23852047 0.14741376
0.00031218497 0.079999998 0.038063847 0.38593423 0.23852047 0.14741376
0.039999999 0.0013677174 0.034593102 0.38593423 0.23852047 0.14741376
0.039999999 0.0027418474 0.03478498 0.38593423 0.23852047 0.14741376
0.039999999 0.0041109449 0.034976311 0.38593423 0.23852047 0.14741376
0.039999999 0.0054750554 0.035167102 0.38593423 0.23852047 0.14741376
0.039999999 0.0068342248 0.035357356 0.38593423 0.23852047 0.14741376
0.039999999 0.0081884973 0.035547081 0.38593423 0.23852047 0.14741376
0.039999999 0.0095379176 0.035736281 0.38593423 0.23852047 0.14741376
0.039999999 0.010882529 0.035924964 0.38593423 0.23852047 0.14741376
0.039999999 0.012222378 0.036113132 0.38593423 0.23852047 0.14741376
0.039999999 0.013557503 0.036300793 0.38593423 0.23852047 0.14741376
0.039999999 0.01488795 0.036487948 0.38593423 0.23852047 0.14741376
0.039999999 0.01621376 0.036674608 0.38593423 0.23852047 0.14741376
0.039999999 0.017534975 0.036860771 0.38593423 0.23852047 0.14741376
0.039999999 0.018851638 0.037046451 0.38593423 0.23852047 0.14741376
0.039999999 0.020163788 0.037231643 0.38593423 0.23852047 0.14741376
0.039999999 0.021471465 0.037416361 0.38593423 0.23852047 0.14741376
0.039999999 0.022774711 0.037600603 0.38593423 0.23852047 0.14741376
0.039999999 0.024073567 0.037784375 0.38593423 0.23852047 0.14741376
0.039999999 0.025368068 0.037967689 0.38593423 0.23852047 0.14741376
0.039999999 0.026658257 0.038150538 0.38593423 0.23852047 0.14741376
0.039999999 0.027944172 0.038332935 0.38593423 0.23852047 0.14741376
0.039999999 0.02922585 0.038514886 0.38593423 0.23852047 0.14741376
0.039999999 0.030503331 0.03869639 0.38593423 0.23852047 0.14741376
0.039999999 0.031776652 0.038877454 0.38593423 0.23852047 0.14741376
0.039999999 0.033045847 0.039058082 0.38593423 0.23852047 0.14741376
0.039999999 0.034310956 0.039238278 0.38593423 0.23852047 0.14741376
0.039999999 0.035572015 0.039418049 0.38593423 0.23852047 0.14741376
0.039999999 0.036829062 0.039597396 0.38593423 0.23852047 0.14741376
0.039999999 0.03808213 0.039776325 0.38593423 0.23852047 0.14741376
0.039999999 0.039331254 0.039954841 0.38593423 0.23852047 0.14741376
0.039571289 0.040331163 0.039999999 0.38593423 0.23852047 0.14741376
0.038996615 0.041247278 0.039999999 0.38593423 0.23852047 0.14741376
0.038421329 0.04216332 0.039999999 0.38593423 0.23852047 0.14741376
0.037845425 0.043079302 0.039999999 0.38593423 0.23852047 0.14741376
0.037268892 0.043995243 0.039999999 0.38593423 0.23852047 0.14741376
0.036691718 0.044911154 0.039999999 0.38593423 0.23852047 0.14741376
0.036113895 0.045827057 0.039999999 0.38593423 0.23852047 0.14741376
0.035535414 0.046742965 0.039999999 0.38593423 0.23852047 0.14741376
0.036230657 0.04835191 0.040390015 0.38593423 0.23852047 0.14741376
0.037417624 0.050218012 0.040929195 0.38593423 0.23852047 0.14741376
0.03826645 0.051890697 0.041363664 0.38593423 0.23852047 0.14741376
0.038878929 0.053427853 0.041724935 0.38593423 0.23852047 0.14741376
0.039297495 0.054854486 0.042026278 0.38593423 0.23852047 0.14741376
0.039618082 0.056223158 0.042297103 0.38593423 0.23852047 0.14741376
0.039832465 0.057530627 0.042535074 0.38593423 0.23852047 0.14741376
0.03993357 0.058774348 0.04273821 0.38593423 0.23852047 0.14741376
0.039999783 0.059995983 0.042930365 0.38593423 0.23852047 0.14741376
0.039937776 0.061148081 0.043083448 0.38593423 0.23852047 0.14741376
0.039861847 0.062290188 0.043232065 0.38593423 0.23852047 0.14741376
0.039683528 0.063377723 0.04334965 0.38593423 0.23852047 0.14741376
0.039489165 0.064455137 0.043462269 0.38593423 0.23852047 0.14741376
0.03920326 0.065484941 0.043547329 0.38593423 0.23852047 0.14741376
0.03890479 0.066507243 0.043628592 0.38593423 0.23852047 0.14741376
0.038515702 0.067483753 0.043682773 0.38593423 0.23852047 0.14741376
0.038120307 0.068456627 0.043735135 0.38593423 0.23852047 0.14741376
0.037629366 0.069382615 0.043759137 0.38593423 0.23852047 0.14741376
0.03713835 0.070308737 0.043783288 0.38593423 0.23852047 0.14741376
0.036544185 0.071185641 0.043777015 0.38593423 0.23852047 0.14741376
0.035949305 0.072063081 0.043770801 0.38593423 0.23852047 0.14741376
0.035251446 0.072892793 0.043734424 0.38593423 0.23852047 0.14741376
0.034547664 0.073721312 0.043696672 0.38593423 0.23852047 0.14741376
0.033732664 0.074499674 0.043626532 0.38593423 0.23852047 0.14741376
0.032905895 0.075274982 0.043553427 0.38593423 0.23852047 0.14741376
0.031956725 0.075996548 0.043444879 0.38593423 0.23852047 0.14741376
0.030972058 0.076705202 0.043326549 0.38593423 0.23852047 0.14741376
0.029873839 0.077365972 0.043175638 0.38593423 0.23852047 0.14741376
0.028680636 0.077988304 0.04299774 0.38593423 0.23852047 0.14741376
0.027404731 0.078578606 0.042796571 0.38593423 0.23852047 0.14741376
0.025916561 0.079080299 0.042534512 0.38593423 0.23852047 0.14741376
0.024254419 0.079512268 0.042222999 0.38593423 0.23852047 0.14741376
0.022325184 0.079835542 0.041835245 0.38593423 0.23852047 0.14741376
0.020004204 0.079998694 0.041335493 0.38593423 0.23852047 0.14741376
0.016562769 0.079692125 0.040513411 0.38593423 0.23852047 0.14741376
0.014179254 0.079856277 0.039999999 0.38593423 0.23852047 0.14741376
0.011718203 0.079999998 0.039466213 0.38593423 0.23852047 0.14741376
0.0088846963 0.079999998 0.038827229 0.38593423 0.23852047 0.14741376
0.006014741 0.079999998 0.038180176 0.38593423 0.23852047 0.14741376
0.0031075911 0.079999998 0.037524894 0.38593423 0.23852047 0.14741376
0.00016247907 0.079999998 0.036861215 0.38593423 0.23852047 0.14741376
0.039999999 0.0013474982 0.033411805 0.38593423 0.23852047 0.14741376
0.039999999 0.0027228529 0.033606019 0.38593423 0.23852047 0.14741376
0.039999999 0.0040931664 0.033799674 0.38593423 0.23852047 0.14741376
0.039999999 0.0054584839 0.033992771 0.38593423 0.23852047 0.14741376
0.039999999 0.006818851 0.034185316 0.38593423 0.23852047 0.14741376
0.039999999 0.0081743132 0.034377314 0.38593423 0.23852047 0.14741376
0.039999999 0.0095249144 0.034568772 0.38593423 0.23852047 0.14741376
0.039999999 0.010870699 0.034759693 0.38593423 0.23852047 0.14741376
0.039999999 0.012211711 0.034950085 0.38593423 0.23852047 0.14741376
0.039999999 0.013547993 0.035139952 0.38593423 0.23852047 0.14741376
0.039999999 0.014879588 0.035329301 0.38593423 0.23852047 0.14741376
0.039999999 0.016206538 0.035518136 0.38593423 0.23852047 0.14741376
0.039999999 0.017528886 0.03570646 0.38593423 0.23852047 0.14741376
0.039999999 0.018846672 0.035894282 0.38593423 0.23852047 0.14741376
0.039999999 0.020159939 0.036081605 0.38593423 0.23852047 0.14741376
0.039999999 0.021468725 0.036268432 0.38593423 0.23852047 0.14741376
0.039999999 0.022773074 0.036454774 0.38593423 0.23852047 0.14741376
0.039999999 0.024073021 0.036640633 0.38593423 0.23852047 0.14741376
0.039999999 0.02536861 0.036826011 0.38593423 0.23852047 0.14741376
0.039999999 0.02665988 0.037010916 0.38593423 0.23852047 0.14741376
0.039999999 0.027946867 0.037195351 0.38593423 0.23852047 0.14741376
0.039999999 0.029229611 0.037379321 0.38593423 0.23852047 0.14741376
0.039999999 0.030508149 0.037562832 0.38593423 0.23852047 0.14741376
0.039999999 0.031782519 0.037745893 0.38593423 0.23852047 0.14741376
0.039999999 0.033052761 0.037928499 0.38593423 0.23852047 0.14741376
0.039999999 0.034318909 0.038110662 0.38593423 0.23852047 0.14741376
0.039999999 0.035581 0.038292382 0.38593423 0.23852047 0.14741376
0.039999999 0.036839068 0.038473666 0.38593423 0.23852047 0.14741376
0.039999999 0.038093157 0.038654521 0.38593423 0.23852047 0.14741376
0.039999999 0.039343294 0.038834944 0.38593423 0.23852047 0.14741376
0.039999999 0.040589515 0.039014947 0.38593423 0.23852047 0.14741376
0.039999999 0.041831862 0.039194532 0.38593423 0.23852047 0.14741376
0.039999999 0.043070365 0.039373703 0.38593423 0.23852047 0.14741376
0.039999999 0.044305056 0.039552461 0.38593423 0.23852047 0.14741376
0.039999999 0.04553597 0.039730817 0.38593423 0.23852047 0.14741376
0.039999999 0.046763144 0.03990877 0.38593423 0.23852047 0.14741376
0.039721757 0.047833361 0.039999999 0.38593423 0.23852047 0.14741376
0.039149329 0.048740868 0.039999999 0.38593423 0.23852047 0.14741376
0.038576268 0.049648408 0.039999999 0.38593423 0.23852047 0.14741376
0.038002562 0.050556 0.039999999 0.38593423 0.23852047 0.14741376
0.038278051 0.051919807 0.040261932 0.38593423 0.23852047 0.14741376
0.038890965 0.053458061 0.040627036 0.38593423 0.23852047 0.14741376
0.039305534 0.054883447 0.040930212 0.38593423 0.23852047 0.14741376
0.039622679 0.056251187 0.041202717 0.38593423 0.23852047 0.14741376
0.039837223 0.057559632 0.041443124 0.38593423 0.23852047 0.14741376
0.039935101 0.058802575 0.041647289 0.38593423 0.23852047 0.14741376
0.03999871 0.06002377 0.041840542 0.38593423 0.23852047 0.14741376
0.039936233 0.061176546 0.041994963 0.38593423 0.23852047 0.14741376
0.039857283 0.062318031 0.042144082 0.38593423 0.23852047 0.14741376
0.039678819 0.063406423 0.042262718 0.38593423 0.23852047 0.14741376
0.039481368 0.064483218 0.04237543 0.38593423 0.23852047 0.14741376
0.039195232 0.065513857 0.042461161 0.38593423 0.23852047 0.14741376
0.038893532 0.066535495 0.042542133 0.38593423 0.23852047 0.14741376
0.038504124 0.067512803 0.042596616 0.38593423 0.23852047 0.14741376
0.038105287 0.068484962 0.042648315 0.38593423 0.23852047 0.14741376
0.037613932 0.069411725 0.042672258 0.38593423 0.23852047 0.14741376
0.037119441 0.070337147 0.042695425 0.38593423 0.23852047 0.14741376
0.036524501 0.071214676 0.042688653 0.38593423 0.23852047 0.14741376
0.035929106 0.072092876 0.042682014 0.38593423 0.23852047 0.14741376
0.03522699 0.072921582 0.042643767 0.38593423 0.23852047 0.14741376
0.034522586 0.073750839 0.04260521 0.38593423 0.23852047 0.14741376
0.033702765 0.074527994 0.042532671 0.38593423 0.23852047 0.14741376
0.032870557 0.075301841 0.042456944 0.38593423 0.23852047 0.14741376
0.031920496 0.076024085 0.042346746 0.38593423 0.23852047 0.14741376
0.030929361 0.076730892 0.042225007 0.38593423 0.23852047 0.14741376
0.029830068 0.07739231 0.042071935 0.38593423 0.23852047 0.14741376
0.028628932 0.078012228 0.041889556 0.38593423 0.23852047 0.14741376
0.027343521 0.078599475 0.041683201 0.38593423 0.23852047 0.14741376
0.02585344 0.07910157 0.04141755 0.38593423 0.23852047 0.14741376
0.02417817 0.079529047 0.041098621 0.38593423 0.23852047 0.14741376
0.022230864 0.079845808 0.040701203 0.38593423 0.23852047 0.14741376
0.01987816 0.079996705 0.040186625 0.38593423 0.23852047 0.14741376
0.017153516 0.079999998 0.039565247 0.38593423 0.23852047 0.14741376
0.014386849 0.079999998 0.038933929 0.38593423 0.23852047 0.14741376
0.011585078 0.079999998 0.038294747 0.38593423 0.23852047 0.14741376
0.0087474938 0.079999998 0.037647542 0.38593423 0.23852047 0.14741376
0.0058733677 0.079999998 0.036992144 0.38593423 0.23852047 0.14741376
0.0029619483 0.079999998 0.036328394 0.38593423 0.23852047 0.14741376
1.2465835e-05 0.079999998 0.035656109 0.38593423 0.23852047 0.14741376
0.039999999 0.0013272489 0.032228757 0.38593423 0.23852047 0.14741376
0.039999999 0.0027038304 0.032425322 0.38593423 0.23852047 0.14741376
0.039999999 0.0040753614 0.032621305 0.38593423 0.23852047 0.14741376
0.039999999 0.0054418878 0.032816716 0.38593423 0.23852047 0.14741376
0.039999999 0.0068034548 0.033011556 0.38593423 0.23852047 0.14741376
0.039999999 0.0081601087 0.033205833 0.38593423 0.23852047 0.14741376
0.039999999 0.0095118927 0.033399556 0.38593423 0.23852047 0.14741376
0.039999999 0.010858851 0.033592723 0.38593423 0.23852047 0.14741376
0.039999999 0.01220103 0.033785347 0.38593423 0.23852047 0.14741376
0.039999999 0.01353847 0.033977427 0.38593423 0.23852047 0.14741376
0.039999999 0.014871214 0.034168974 0.38593423 0.23852047 0.14741376
0.039999999 0.016199306 0.034359992 0.38593423 0.23852047 0.14741376
0.039999999 0.017522788 0.034550481 0.38593423 0.23852047 0.14741376
0.039999999 0.018841699 0.034740455 0.38593423 0.23852047 0.14741376
0.039999999 0.020156084 0.034929913 0.38593423 0.23852047 0.14741376
0.039999999 0.021465981 0.035118859 0.38593423 0.23852047 0.14741376
0.039999999 0.022771433 0.035307307 0.38593423 0.23852047 0.14741376
0.039999999 0.024072478 0.035495251 0.38593423 0.23852047 0.14741376
0.039999999 0.025369154 0.035682704 0.38593423 0.23852047 0.14741376
0.039999999 0.026661504 0.035869669 0.38593423 0.23852047 0.14741376
0.039999999 0.027949564 0.03605615 0.38593423 0.23852047 0.14741376
0.039999999 0.029233376 0.03624215 0.38593423 0.23852047 0.14741376
0.039999999 0.030512974 0.036427677 0.38593423 0.23852047 0.14741376
0.039999999 0.031788398 0.036612734 0.38593423 0.23852047 0.14741376
0.039999999 0.033059686 0.036797326 0.38593423 0.23852047 0.14741376
0.039999999 0.03432687 0.03698146 0.38593423 0.23852047 0.14741376
0.039999999 0.035589997 0.037165135 0.38593423 0.23852047 0.14741376
0.039999999 0.036849093 0.037348364 0.38593423 0.23852047 0.14741376
0.039999999 0.038104199 0.037531145 0.38593423 0.23852047 0.14741376
0.039999999 0.039355349 0.037713487 0.38593423 0.23852047 0.14741376
0.039999999 0.04060258 0.037895389 0.38593423 0.23852047 0.14741376
0.039999999 0.041845925 0.038076859 0.38593423 0.23852047 0.14741376
0.039999999 0.043085422 0.038257901 0.38593423 0.23852047 0.14741376
0.039999999 0.044321101 0.038438521 0.38593423 0.23852047 0.14741376
0.039999999 0.045552999 0.038618721 0.38593423 0.23852047 0.14741376
0.039999999 0.046781152 0.038798507 0.38593423 0.23852047 0.14741376
0.039999999 0.048005588 0.03897788 0.38593423 0.23852047 0.14741376
0.039999999 0.049226344 0.03915685 0.38593423 0.23852047 0.14741376
0.039999999 0.050443448 0.039335418 0.38593423 0.23852047 0.14741376
0.039999999 0.051656943 0.039513584 0.38593423 0.23852047 0.14741376
0.039999999 0.05286685 0.039691359 0.38593423 0.23852047 0.14741376
0.039999999 0.054073203 0.039868746 0.38593423 0.23852047 0.14741376
0.039852608 0.055197969 0.039999999 0.38593423 0.23852047 0.14741376
0.03962728 0.056279249 0.040106874 0.38593423 0.23852047 0.14741376
0.039841983 0.057588674 0.040349722 0.38593423 0.23852047 0.14741376
0.039936632 0.058830839 0.0405549 0.38593423 0.23852047 0.14741376
0.039997213 0.060051378 0.04074911 0.38593423 0.23852047 0.14741376
0.039934687 0.061205048 0.040904995 0.38593423 0.23852047 0.14741376
0.039852712 0.062345911 0.041054606 0.38593423 0.23852047 0.14741376
0.039674107 0.063435167 0.041174293 0.38593423 0.23852047 0.14741376
0.03947356 0.064511336 0.041287083 0.38593423 0.23852047 0.14741376
0.039187193 0.065542802 0.041373484 0.38593423 0.23852047 0.14741376
0.038882259 0.066563785 0.041454151 0.38593423 0.23852047 0.14741376
0.038492531 0.067541905 0.041508935 0.38593423 0.23852047 0.14741376
0.038090244 0.068513334 0.041559946 0.38593423 0.23852047 0.14741376
0.037598476 0.069440879 0.041583836 0.38593423 0.23852047 0.14741376
0.037100237 0.070365474 0.041605916 0.38593423 0.23852047 0.14741376
0.036504783 0.071243756 0.041598726 0.38593423 0.23852047 0.14741376
0.035906531 0.072121598 0.041590948 0.38593423 0.23852047 0.14741376
0.035202496 0.072950415 0.041551512 0.38593423 0.23852047 0.14741376
0.034493826 0.073778696 0.041511051 0.38593423 0.23852047 0.14741376
0.033672821 0.074556358 0.041437175 0.38593423 0.23852047 0.14741376
0.032835171 0.075328745 0.041358791 0.38593423 0.23852047 0.14741376
0.031884212 0.076051675 0.041246943 0.38593423 0.23852047 0.14741376
0.030886598 0.076756626 0.041121747 0.38593423 0.23852047 0.14741376
0.029786229 0.077418685 0.040966507 0.38593423 0.23852047 0.14741376
0.028577147 0.078036182 0.040779602 0.38593423 0.23852047 0.14741376
0.027281901 0.07862024 0.040567901 0.38593423 0.23852047 0.14741376
0.025790215 0.079122871 0.040298734 0.38593423 0.23852047 0.14741376
0.024195066 0.079586841 0.039999999 0.38593423 0.23852047 0.14741376
0.022466343 0.079999998 0.039662916 0.38593423 0.23852047 0.14741376
0.019764094 0.079999998 0.039039083 0.38593423 0.23852047 0.14741376
0.017028021 0.079999998 0.038407579 0.38593423 0.23852047 0.14741376
0.014257449 0.079999998 0.037768245 0.38593423 0.23852047 0.14741376
0.011451685 0.079999998 0.037120927 0.38593423 0.23852047 0.14741376
0.0086100148 0.079999998 0.036465466 0.38593423 0.23852047 0.14741376
0.005731706 0.079999998 0.03580169 0.38593423 0.23852047 0.14741376
0.0028160063 0.079999998 0.035129432 0.38593423 0.23852047 0.14741376
0.039999999 0.0013069696 0.031043945 0.38593423 0.23852047 0.14741376
0.039999999 0.0026847795 0.031242862 0.38593423 0.23852047 0.14741376
0.039999999 0.0040575298 0.031441186 0.38593423 0.23852047 0.14741376
0.039999999 0.0054252669 0.031638913 0.38593423 0.23852047 0.14741376
0.039999999 0.0067880359 0.031836059 0.38593423 0.23852047 0.14741376
0.039999999 0.0081458827 0.032032624 0.38593423 0.23852047 0.14741376
0.039999999 0.0094988514 0.032228615 0.38593423 0.23852047 0.14741376
0.039999999 0.010846986 0.032424036 0.38593423 0.23852047 0.14741376
0.039999999 0.012190332 0.032618895 0.38593423 0.23852047 0.14741376
0.039999999 0.013528931 0.032813199 0.38593423 0.23852047 0.14741376
0.039999999 0.014862827 0.033006951 0.38593423 0.23852047 0.14741376
0.039999999 0.016192064 0.033200156 0.38593423 0.23852047 0.14741376
0.039999999 0.01751668 0.033392821 0.38593423 0.23852047 0.14741376
0.039999999 0.01883672 0.033584949 0.38593423 0.23852047 0.14741376
0.039999999 0.020152224 0.033776548 0.38593423 0.23852047 0.14741376
0.039999999 0.021463234 0.033967625 0.38593423 0.23852047 0.14741376
0.039999999 0.02276979 0.034158181 0.38593423 0.23852047 0.14741376
0.039999999 0.024071932 0.034348223 0.38593423 0.23852047 0.14741376
0.039999999 0.025369698 0.034537755 0.38593423 0.23852047 0.14741376
0.039999999 0.02666313 0.034726784 0.38593423 0.23852047 0.14741376
0.039999999 0.027952267 0.034915313 0.38593423 0.23852047 0.14741376
0.039999999 0.029237146 0.035103351 0.38593423 0.23852047 0.14741376
0.039999999 0.030517805 0.035290897 0.38593423 0.23852047 0.14741376
0.039999999 0.031794284 0.035477959 0.38593423 0.23852047 0.14741376
0.039999999 0.033066619 0.035664544 0.38593423 0.23852047 0.14741376
0.039999999 0.034334846 0.035850655 0.38593423 0.23852047 0.14741376
0.039999999 0.035599004 0.036036294 0.38593423 0.23852047 0.14741376
0.039999999 0.036859129 0.036221471 0.38593423 0.23852047 0.14741376
0.039999999 0.038115256 0.036406185 0.38593423 0.23852047 0.14741376
0.039999999 0.039367422 0.036590446 0.38593423 0.23852047 0.14741376
0.039999999 0.040615659 0.036774255 0.38593423 0.23852047 0.14741376
0.039999999 0.041860007 0.036957618 0.38593423 0.23852047 0.14741376
0.039999999 0.043100502 0.037140537 0.38593423 0.23852047 0.14741376
0.039999999 0.044337172 0.037323024 0.38593423 0.23852047 0.14741376
0.039999999 0.045570053 0.037505075 0.38593423 0.23852047 0.14741376
