# .PCD v0.7 - Point Cloud Data file format
VERSION 0.7
FIELDS x y z vp_x vp_y vp_z
SIZE 4 4 4 4 4 4
TYPE F F F F F F
COUNT 1 1 1 1 1 1
WIDTH 810
HEIGHT 1
VIEWPOINT 0 0 0 1 0 0 0
POINTS 810
DATA ascii
0.039999999 0.0514125 0.029654872 0.25019264 0.4048202 0
0.039999999 0.05350918 0.029525012 0.25019264 0.4048202 0
0.039999999 0.05558759 0.029396484 0.25019264 0.4048202 0
0.039999999 0.057647992 0.029269269 0.25019264 0.4048202 0
0.039999999 0.059690658 0.02914335 0.25019264 0.4048202 0
0.039999999 0.061715834 0.029018709 0.25019264 0.4048202 0
0.039999999 0.063723773 0.028895326 0.25019264 0.4048202 0
0.039999999 0.065714732 0.028773183 0.25019264 0.4048202 0
0.039999999 0.067688935 0.028652266 0.25019264 0.4048202 0
0.039999999 0.069646627 0.028532553 0.25019264 0.4048202 0
0.039999999 0.071588047 0.028414031 0.25019264 0.4048202 0
0.039999999 0.073513418 0.028296685 0.25019264 0.4048202 0
0.039999999 0.075422958 0.028180495 0.25019264 0.4048202 0
0.039999999 0.077316903 0.028065447 0.25019264 0.4048202 0
0.039999999 0.079195447 0.027951524 0.25019264 0.4048202 0
0.039312586 0.079999998 0.027929757 0.25019264 0.4048202 0
0.038101725 0.079999998 0.027977405 0.25019264 0.4048202 0
0.036886718 0.079999998 0.028025409 0.25019264 0.4048202 0
0.035667524 0.079999998 0.028073769 0.25019264 0.4048202 0
0.034444105 0.079999998 0.02812249 0.25019264 0.4048202 0
0.033216428 0.079999998 0.028171575 0.25019264 0.4048202 0
0.031984448 0.079999998 0.028221024 0.25019264 0.4048202 0
0.030748125 0.079999998 0.028270841 0.25019264 0.4048202 0
0.029507423 0.079999998 0.028321028 0.25019264 0.4048202 0
0.028262299 0.079999998 0.028371589 0.25019264 0.4048202 0
0.027012713 0.079999998 0.028422527 0.25019264 0.4048202 0
0.025758622 0.079999998 0.028473843 0.25019264 0.4048202 0
0.024499986 0.079999998 0.028525541 0.25019264 0.4048202 0
0.023236765 0.079999998 0.028577622 0.25019264 0.4048202 0
0.021968912 0.079999998 0.028630091 0.25019264 0.4048202 0
0.020696387 0.079999998 0.028682951 0.25019264 0.4048202 0
0.019419145 0.079999998 0.028736202 0.25019264 0.4048202 0
0.018137142 0.079999998 0.02878985 0.25019264 0.4048202 0
0.016850336 0.079999998 0.028843896 0.25019264 0.4048202 0
0.015558681 0.079999998 0.028898343 0.25019264 0.4048202 0
0.01426213 0.079999998 0.028953196 0.25019264 0.4048202 0
0.012960639 0.079999998 0.029008457 0.25019264 0.4048202 0
0.011654162 0.079999998 0.029064128 0.25019264 0.4048202 0
0.010342651 0.079999998 0.029120214 0.25019264 0.4048202 0
0.0090260599 0.079999998 0.029176718 0.25019264 0.4048202 0
0.0077043404 0.079999998 0.02923364 0.25019264 0.4048202 0
0.0063774446 0.079999998 0.029290987 0.25019264 0.4048202 0
0.0050453232 0.079999998 0.029348761 0.25019264 0.4048202 0
0.0037079274 0.079999998 0.029406967 0.25019264 0.4048202 0
0.0023652073 0.079999998 0.029465605 0.25019264 0.4048202 0
0.0010171124 0.079999998 0.029524678 0.25019264 0.4048202 0
0.039999999 5.2183485e-05 0.031692944 0.25019264 0.4048202 0
0.039999999 0.0026301024 0.031534076 0.25019264 0.4048202 0
0.039999999 0.0051823226 0.031377006 0.25019264 0.4048202 0
0.039999999 0.0077092606 0.031221703 0.25019264 0.4048202 0
0.039999999 0.010211324 0.031068144 0.25019264 0.4048202 0
0.039999999 0.012688914 0.030916298 0.25019264 0.4048202 0
0.039999999 0.015142419 0.030766141 0.25019264 0.4048202 0
0.039999999 0.017572224 0.030617641 0.25019264 0.4048202 0
0.039999999 0.019978702 0.030470777 0.25019264 0.4048202 0
0.039999999 0.022362219 0.030325523 0.25019264 0.4048202 0
0.039999999 0.024723137 0.030181853 0.25019264 0.4048202 0
0.039999999 0.027061803 0.030039743 0.25019264 0.4048202 0
0.039999999 0.029378569 0.029899167 0.25019264 0.4048202 0
0.039999999 0.031673767 0.029760106 0.25019264 0.4048202 0
0.039999999 0.033947729 0.029622532 0.25019264 0.4048202 0
0.039999999 0.036200777 0.029486427 0.25019264 0.4048202 0
0.039999999 0.038433235 0.029351767 0.25019264 0.4048202 0
0.039999999 0.040645406 0.02921853 0.25019264 0.4048202 0
0.039999999 0.042837601 0.029086696 0.25019264 0.4048202 0
0.039999999 0.04501012 0.028956246 0.25019264 0.4048202 0
0.039999999 0.047163252 0.028827155 0.25019264 0.4048202 0
0.039999999 0.049297284 0.028699405 0.25019264 0.4048202 0
0.039999999 0.0514125 0.02857298 0.25019264 0.4048202 0
0.039999999 0.05350918 0.028447857 0.25019264 0.4048202 0
0.039999999 0.05558759 0.028324017 0.25019264 0.4048202 0
0.039999999 0.057647992 0.028201444 0.25019264 0.4048202 0
0.039999999 0.059690658 0.028080121 0.25019264 0.4048202 0
0.039999999 0.061715834 0.027960025 0.25019264 0.4048202 0
0.039999999 0.063723773 0.027841143 0.25019264 0.4048202 0
0.039999999 0.065714732 0.027723458 0.25019264 0.4048202 0
0.039999999 0.067688935 0.027606951 0.25019264 0.4048202 0
0.039999999 0.069646627 0.027491607 0.25019264 0.4048202 0
0.039999999 0.071588047 0.02737741 0.25019264 0.4048202 0
0.039999999 0.073513418 0.027264342 0.25019264 0.4048202 0
0.039999999 0.075422958 0.027152391 0.25019264 0.4048202 0
0.039999999 0.077316903 0.027041541 0.25019264 0.4048202 0
0.039999999 0.079195447 0.026931776 0.25019264 0.4048202 0
0.039312586 0.079999998 0.026910802 0.25019264 0.4048202 0
0.038101725 0.079999998 0.026956711 0.25019264 0.4048202 0
0.036886718 0.079999998 0.027002962 0.25019264 0.4048202 0
0.035667524 0.079999998 0.02704956 0.25019264 0.4048202 0
0.034444105 0.079999998 0.027096502 0.25019264 0.4048202 0
0.033216428 0.079999998 0.027143797 0.25019264 0.4048202 0
0.031984448 0.079999998 0.027191442 0.25019264 0.4048202 0
0.030748125 0.079999998 0.027239442 0.25019264 0.4048202 0
0.029507423 0.079999998 0.027287798 0.25019264 0.4048202 0
0.028262299 0.079999998 0.027336515 0.25019264 0.4048202 0
0.027012713 0.079999998 0.027385594 0.25019264 0.4048202 0
0.025758622 0.079999998 0.027435038 0.25019264 0.4048202 0
0.024499986 0.079999998 0.027484849 0.25019264 0.4048202 0
0.023236765 0.079999998 0.027535031 0.25019264 0.4048202 0
0.021968912 0.079999998 0.027585587 0.25019264 0.4048202 0
0.020696387 0.079999998 0.027636517 0.25019264 0.4048202 0
0.019419145 0.079999998 0.027687825 0.25019264 0.4048202 0
0.018137142 0.079999998 0.027739516 0.25019264 0.4048202 0
0.016850336 0.079999998 0.027791589 0.25019264 0.4048202 0
0.015558681 0.079999998 0.027844051 0.25019264 0.4048202 0
0.01426213 0.079999998 0.027896903 0.25019264 0.4048202 0
0.012960639 0.079999998 0.027950147 0.25019264 0.4048202 0
0.011654162 0.079999998 0.028003788 0.25019264 0.4048202 0
0.010342651 0.079999998 0.028057829 0.25019264 0.4048202 0
0.0090260599 0.079999998 0.02811227 0.25019264 0.4048202 0
0.0077043404 0.079999998 0.028167116 0.25019264 0.4048202 0
0.0063774446 0.079999998 0.028222371 0.25019264 0.4048202 0
0.0050453232 0.079999998 0.028278036 0.25019264 0.4048202 0
0.0037079274 0.079999998 0.028334118 0.25019264 0.4048202 0
0.0023652073 0.079999998 0.028390616 0.25019264 0.4048202 0
0.0010171124 0.079999998 0.028447537 0.25019264 0.4048202 0
0.039999999 5.2183485e-05 0.030493354 0.25019264 0.4048202 0
0.039999999 0.0026301024 0.030340498 0.25019264 0.4048202 0
0.039999999 0.0051823226 0.030189373 0.25019264 0.4048202 0
0.039999999 0.0077092606 0.030039949 0.25019264 0.4048202 0
0.039999999 0.010211324 0.029892202 0.25019264 0.4048202 0
0.039999999 0.012688914 0.029746104 0.25019264 0.4048202 0
0.039999999 0.015142419 0.02960163 0.25019264 0.4048202 0
0.039999999 0.017572224 0.029458752 0.25019264 0.4048202 0
0.039999999 0.019978702 0.029317446 0.25019264 0.4048202 0
0.039999999 0.022362219 0.02917769 0.25019264 0.4048202 0
0.039999999 0.024723137 0.029039457 0.25019264 0.4048202 0
0.039999999 0.027061803 0.028902726 0.25019264 0.4048202 0
0.039999999 0.029378569 0.028767472 0.25019264 0.4048202 0
0.039999999 0.031673767 0.028633673 0.25019264 0.4048202 0
0.039999999 0.033947729 0.028501308 0.25019264 0.4048202 0
0.039999999 0.036200777 0.028370354 0.25019264 0.4048202 0
0.039999999 0.038433235 0.028240791 0.25019264 0.4048202 0
0.039999999 0.040645406 0.028112598 0.25019264 0.4048202 0
0.039999999 0.042837601 0.027985753 0.25019264 0.4048202 0
0.039999999 0.04501012 0.027860239 0.25019264 0.4048202 0
0.039999999 0.047163252 0.027736034 0.25019264 0.4048202 0
0.039999999 0.049297284 0.027613122 0.25019264 0.4048202 0
0.039999999 0.0514125 0.02749148 0.25019264 0.4048202 0
0.039999999 0.05350918 0.027371094 0.25019264 0.4048202 0
0.039999999 0.05558759 0.027251942 0.25019264 0.4048202 0
0.039999999 0.057647992 0.027134009 0.25019264 0.4048202 0
0.039999999 0.059690658 0.027017275 0.25019264 0.4048202 0
0.039999999 0.061715834 0.026901728 0.25019264 0.4048202 0
0.039999999 0.063723773 0.026787344 0.25019264 0.4048202 0
0.039999999 0.065714732 0.026674112 0.25019264 0.4048202 0
0.039999999 0.067688935 0.026562016 0.25019264 0.4048202 0
0.039999999 0.069646627 0.026451038 0.25019264 0.4048202 0
0.039999999 0.071588047 0.026341163 0.25019264 0.4048202 0
0.039999999 0.073513418 0.026232377 0.25019264 0.4048202 0
0.039999999 0.075422958 0.026124662 0.25019264 0.4048202 0
0.039999999 0.077316903 0.026018007 0.25019264 0.4048202 0
0.039999999 0.079195447 0.025912397 0.25019264 0.4048202 0
0.039312586 0.079999998 0.025892217 0.25019264 0.4048202 0
0.038101725 0.079999998 0.025936389 0.25019264 0.4048202 0
0.036886718 0.079999998 0.02598089 0.25019264 0.4048202 0
0.035667524 0.079999998 0.026025724 0.25019264 0.4048202 0
0.034444105 0.079999998 0.026070889 0.25019264 0.4048202 0
0.033216428 0.079999998 0.026116394 0.25019264 0.4048202 0
0.031984448 0.079999998 0.026162235 0.25019264 0.4048202 0
0.030748125 0.079999998 0.026208417 0.25019264 0.4048202 0
0.029507423 0.079999998 0.026254945 0.25019264 0.4048202 0
0.028262299 0.079999998 0.026301816 0.25019264 0.4048202 0
0.027012713 0.079999998 0.026349038 0.25019264 0.4048202 0
0.025758622 0.079999998 0.02639661 0.25019264 0.4048202 0
0.024499986 0.079999998 0.026444536 0.25019264 0.4048202 0
0.023236765 0.079999998 0.026492819 0.25019264 0.4048202 0
0.021968912 0.079999998 0.02654146 0.25019264 0.4048202 0
0.020696387 0.079999998 0.026590463 0.25019264 0.4048202 0
0.019419145 0.079999998 0.02663983 0.25019264 0.4048202 0
0.018137142 0.079999998 0.026689563 0.25019264 0.4048202 0
0.016850336 0.079999998 0.026739666 0.25019264 0.4048202 0
0.015558681 0.079999998 0.026790142 0.25019264 0.4048202 0
0.01426213 0.079999998 0.026840994 0.25019264 0.4048202 0
0.012960639 0.079999998 0.026892222 0.25019264 0.4048202 0
0.011654162 0.079999998 0.026943834 0.25019264 0.4048202 0
0.010342651 0.079999998 0.026995828 0.25019264 0.4048202 0
0.0090260599 0.079999998 0.027048208 0.25019264 0.4048202 0
0.0077043404 0.079999998 0.027100978 0.25019264 0.4048202 0
0.0063774446 0.079999998 0.027154142 0.25019264 0.4048202 0
0.0050453232 0.079999998 0.027207702 0.25019264 0.4048202 0
0.0037079274 0.079999998 0.02726166 0.25019264 0.4048202 0
0.0023652073 0.079999998 0.027316021 0.25019264 0.4048202 0
0.0010171124 0.079999998 0.027370786 0.25019264 0.4048202 0
0.039999999 5.2183485e-05 0.029294183 0.25019264 0.4048202 0
0.039999999 0.0026301024 0.029147338 0.25019264 0.4048202 0
0.039999999 0.0051823226 0.029002156 0.25019264 0.4048202 0
0.039999999 0.0077092606 0.028858609 0.25019264 0.4048202 0
0.039999999 0.010211324 0.028716672 0.25019264 0.4048202 0
0.039999999 0.012688914 0.028576318 0.25019264 0.4048202 0
0.039999999 0.015142419 0.028437525 0.25019264 0.4048202 0
0.039999999 0.017572224 0.028300267 0.25019264 0.4048202 0
0.039999999 0.019978702 0.028164519 0.25019264 0.4048202 0
0.039999999 0.022362219 0.028030258 0.25019264 0.4048202 0
0.039999999 0.024723137 0.027897462 0.25019264 0.4048202 0
0.039999999 0.027061803 0.027766107 0.25019264 0.4048202 0
0.039999999 0.029378569 0.027636172 0.25019264 0.4048202 0
0.039999999 0.031673767 0.027507635 0.25019264 0.4048202 0
0.039999999 0.033947729 0.027380476 0.25019264 0.4048202 0
0.039999999 0.036200777 0.027254671 0.25019264 0.4048202 0
0.039999999 0.038433235 0.027130203 0.25019264 0.4048202 0
0.039999999 0.040645406 0.027007051 0.25019264 0.4048202 0
0.039999999 0.042837601 0.026885195 0.25019264 0.4048202 0
0.039999999 0.04501012 0.026764616 0.25019264 0.4048202 0
0.039999999 0.047163252 0.026645297 0.25019264 0.4048202 0
0.039999999 0.049297284 0.026527219 0.25019264 0.4048202 0
0.039999999 0.0514125 0.02641036 0.25019264 0.4048202 0
0.039999999 0.05350918 0.026294708 0.25019264 0.4048202 0
0.039999999 0.05558759 0.026180241 0.25019264 0.4048202 0
0.039999999 0.057647992 0.026066946 0.25019264 0.4048202 0
0.039999999 0.059690658 0.025954803 0.25019264 0.4048202 0
0.039999999 0.061715834 0.025843799 0.25019264 0.4048202 0
0.039999999 0.063723773 0.025733914 0.25019264 0.4048202 0
0.039999999 0.065714732 0.025625136 0.25019264 0.4048202 0
0.039999999 0.067688935 0.025517447 0.25019264 0.4048202 0
0.039999999 0.069646627 0.025410833 0.25019264 0.4048202 0
0.039999999 0.071588047 0.025305279 0.25019264 0.4048202 0
0.039999999 0.073513418 0.025200771 0.25019264 0.4048202 0
0.039999999 0.075422958 0.025097294 0.25019264 0.4048202 0
0.039999999 0.077316903 0.024994832 0.25019264 0.4048202 0
0.039999999 0.079195447 0.024893375 0.25019264 0.4048202 0
0.039312586 0.079999998 0.024873989 0.25019264 0.4048202 0
0.038101725 0.079999998 0.024916423 0.25019264 0.4048202 0
0.036886718 0.079999998 0.024959175 0.25019264 0.4048202 0
0.035667524 0.079999998 0.025002245 0.25019264 0.4048202 0
0.034444105 0.079999998 0.025045635 0.25019264 0.4048202 0
0.033216428 0.079999998 0.025089348 0.25019264 0.4048202 0
0.031984448 0.079999998 0.025133388 0.25019264 0.4048202 0
0.030748125 0.079999998 0.025177754 0.25019264 0.4048202 0
0.029507423 0.079999998 0.02522245 0.25019264 0.4048202 0
0.028262299 0.079999998 0.02526748 0.25019264 0.4048202 0
0.027012713 0.079999998 0.025312845 0.25019264 0.4048202 0
0.025758622 0.079999998 0.025358547 0.25019264 0.4048202 0
0.024499986 0.079999998 0.025404587 0.25019264 0.4048202 0
0.023236765 0.079999998 0.025450971 0.25019264 0.4048202 0
0.021968912 0.079999998 0.025497699 0.25019264 0.4048202 0
0.020696387 0.079999998 0.025544776 0.25019264 0.4048202 0
0.019419145 0.079999998 0.0255922 0.25019264 0.4048202 0
0.018137142 0.079999998 0.025639979 0.25019264 0.4048202 0
0.016850336 0.079999998 0.025688112 0.25019264 0.4048202 0
0.015558681 0.079999998 0.025736604 0.25019264 0.4048202 0
0.01426213 0.079999998 0.025785455 0.25019264 0.4048202 0
0.012960639 0.079999998 0.025834668 0.25019264 0.4048202 0
0.011654162 0.079999998 0.02588425 0.25019264 0.4048202 0
0.010342651 0.079999998 0.025934199 0.25019264 0.4048202 0
0.0090260599 0.079999998 0.02598452 0.25019264 0.4048202 0
0.0077043404 0.079999998 0.026035216 0.25019264 0.4048202 0
0.0063774446 0.079999998 0.026086288 0.25019264 0.4048202 0
0.0050453232 0.079999998 0.026137741 0.25019264 0.4048202 0
0.0037079274 0.079999998 0.026189577 0.25019264 0.4048202 0
0.0023652073 0.079999998 0.0262418 0.25019264 0.4048202 0
0.0010171124 0.079999998 0.026294412 0.25019264 0.4048202 0
0.039999999 5.2183485e-05 0.028095417 0.25019264 0.4048202 0
0.039999999 0.0026301024 0.02795458 0.25019264 0.4048202 0
0.039999999 0.0051823226 0.027815338 0.25019264 0.4048202 0
0.039999999 0.0077092606 0.027677665 0.25019264 0.4048202 0
0.039999999 0.010211324 0.027541537 0.25019264 0.4048202 0
0.039999999 0.012688914 0.027406927 0.25019264 0.4048202 0
0.039999999 0.015142419 0.027273813 0.25019264 0.4048202 0
0.039999999 0.017572224 0.027142173 0.25019264 0.4048202 0
0.039999999 0.019978702 0.027011979 0.25019264 0.4048202 0
0.039999999 0.022362219 0.026883213 0.25019264 0.4048202 0
0.039999999 0.024723137 0.026755851 0.25019264 0.4048202 0
0.039999999 0.027061803 0.026629871 0.25019264 0.4048202 0
0.039999999 0.029378569 0.026505252 0.25019264 0.4048202 0
0.039999999 0.031673767 0.026381975 0.25019264 0.4048202 0
0.039999999 0.033947729 0.02626002 0.25019264 0.4048202 0
0.039999999 0.036200777 0.026139364 0.25019264 0.4048202 0
0.039999999 0.038433235 0.026019989 0.25019264 0.4048202 0
0.039999999 0.040645406 0.025901876 0.25019264 0.4048202 0
0.039999999 0.042837601 0.025785008 0.25019264 0.4048202 0
0.039999999 0.04501012 0.025669364 0.25019264 0.4048202 0
0.039999999 0.047163252 0.025554927 0.25019264 0.4048202 0
0.039999999 0.049297284 0.025441678 0.25019264 0.4048202 0
0.039999999 0.0514125 0.025329603 0.25019264 0.4048202 0
0.039999999 0.05350918 0.025218684 0.25019264 0.4048202 0
0.039999999 0.05558759 0.025108902 0.25019264 0.4048202 0
0.039999999 0.057647992 0.025000243 0.25019264 0.4048202 0
0.039999999 0.059690658 0.02489269 0.25019264 0.4048202 0
0.039999999 0.061715834 0.024786226 0.25019264 0.4048202 0
0.039999999 0.063723773 0.02468084 0.25019264 0.4048202 0
0.039999999 0.065714732 0.024576511 0.25019264 0.4048202 0
0.039999999 0.067688935 0.024473229 0.25019264 0.4048202 0
0.039999999 0.069646627 0.02437098 0.25019264 0.4048202 0
0.039999999 0.071588047 0.024269745 0.25019264 0.4048202 0
0.039999999 0.073513418 0.024169512 0.25019264 0.4048202 0
0.039999999 0.075422958 0.024070268 0.25019264 0.4048202 0
0.039999999 0.077316903 0.023972001 0.25019264 0.4048202 0
0.039999999 0.079195447 0.023874694 0.25019264 0.4048202 0
0.039312586 0.079999998 0.023856103 0.25019264 0.4048202 0
0.038101725 0.079999998 0.0238968 0.25019264 0.4048202 0
0.036886718 0.079999998 0.023937803 0.25019264 0.4048202 0
0.035667524 0.079999998 0.023979111 0.25019264 0.4048202 0
0.034444105 0.079999998 0.024020724 0.25019264 0.4048202 0
0.033216428 0.079999998 0.02406265 0.25019264 0.4048202 0
0.031984448 0.079999998 0.024104886 0.25019264 0.4048202 0
0.030748125 0.079999998 0.024147438 0.25019264 0.4048202 0
0.029507423 0.079999998 0.024190307 0.25019264 0.4048202 0
0.028262299 0.079999998 0.024233492 0.25019264 0.4048202 0
0.027012713 0.079999998 0.024277 0.25019264 0.4048202 0
0.025758622 0.079999998 0.024320832 0.25019264 0.4048202 0
0.024499986 0.079999998 0.024364989 0.25019264 0.4048202 0
0.023236765 0.079999998 0.024409475 0.25019264 0.4048202 0
0.021968912 0.079999998 0.02445429 0.25019264 0.4048202 0
0.020696387 0.079999998 0.024499441 0.25019264 0.4048202 0
0.019419145 0.079999998 0.024544924 0.25019264 0.4048202 0
0.018137142 0.079999998 0.024590747 0.25019264 0.4048202 0
0.016850336 0.079999998 0.024636911 0.25019264 0.4048202 0
0.015558681 0.079999998 0.024683418 0.25019264 0.4048202 0
0.01426213 0.079999998 0.024730271 0.25019264 0.4048202 0
0.012960639 0.079999998 0.02477747 0.25019264 0.4048202 0
0.011654162 0.079999998 0.024825022 0.25019264 0.4048202 0
0.010342651 0.079999998 0.024872927 0.25019264 0.4048202 0
0.0090260599 0.079999998 0.02492119 0.25019264 0.4048202 0
0.0077043404 0.079999998 0.024969811 0.25019264 0.4048202 0
0.0063774446 0.079999998 0.025018793 0.25019264 0.4048202 0
0.0050453232 0.079999998 0.02506814 0.25019264 0.4048202 0
0.0037079274 0.079999998 0.025117856 0.25019264 0.4048202 0
0.0023652073 0.079999998 0.02516794 0.25019264 0.4048202 0
0.0010171124 0.079999998 0.025218399 0.25019264 0.4048202 0
0.039999999 5.2183485e-05 0.026897036 0.25019264 0.4048202 0
0.039999999 0.0026301024 0.026762206 0.25019264 0.4048202 0
0.039999999 0.0051823226 0.026628904 0.25019264 0.4048202 0
0.039999999 0.0077092606 0.026497103 0.25019264 0.4048202 0
0.039999999 0.010211324 0.026366781 0.25019264 0.4048202 0
0.039999999 0.012688914 0.026237912 0.25019264 0.4048202 0
0.039999999 0.015142419 0.026110478 0.25019264 0.4048202 0
0.039999999 0.017572224 0.025984449 0.25019264 0.4048202 0
0.039999999 0.019978702 0.02585981 0.25019264 0.4048202 0
0.039999999 0.022362219 0.025736537 0.25019264 0.4048202 0
0.039999999 0.024723137 0.025614606 0.25019264 0.4048202 0
0.039999999 0.027061803 0.025494 0.25019264 0.4048202 0
0.039999999 0.029378569 0.025374698 0.25019264 0.4048202 0
0.039999999 0.031673767 0.02525668 0.25019264 0.4048202 0
0.039999999 0.033947729 0.025139924 0.25019264 0.4048202 0
0.039999999 0.036200777 0.025024416 0.25019264 0.4048202 0
0.039999999 0.038433235 0.024910133 0.25019264 0.4048202 0
0.039999999 0.040645406 0.024797058 0.25019264 0.4048202 0
0.039999999 0.042837601 0.024685174 0.25019264 0.4048202 0
0.039999999 0.04501012 0.024574462 0.25019264 0.4048202 0
0.039999999 0.047163252 0.024464907 0.25019264 0.4048202 0
0.039999999 0.049297284 0.02435649 0.25019264 0.4048202 0
0.039999999 0.0514125 0.024249196 0.25019264 0.4048202 0
0.039999999 0.05350918 0.024143007 0.25019264 0.4048202 0
0.039999999 0.05558759 0.024037907 0.25019264 0.4048202 0
0.039999999 0.057647992 0.023933882 0.25019264 0.4048202 0
0.039999999 0.059690658 0.023830917 0.25019264 0.4048202 0
0.039999999 0.061715834 0.023728995 0.25019264 0.4048202 0
0.039999999 0.063723773 0.023628103 0.25019264 0.4048202 0
0.039999999 0.065714732 0.023528226 0.25019264 0.4048202 0
0.039999999 0.067688935 0.023429349 0.25019264 0.4048202 0
0.039999999 0.069646627 0.02333146 0.25019264 0.4048202 0
0.039999999 0.071588047 0.023234542 0.25019264 0.4048202 0
0.039999999 0.073513418 0.023138586 0.25019264 0.4048202 0
0.039999999 0.075422958 0.023043577 0.25019264 0.4048202 0
0.039999999 0.077316903 0.0229495 0.25019264 0.4048202 0
0.039999999 0.079195447 0.022856345 0.25019264 0.4048202 0
0.039312586 0.079999998 0.022838546 0.25019264 0.4048202 0
0.038101725 0.079999998 0.022877507 0.25019264 0.4048202 0
0.036886718 0.079999998 0.02291676 0.25019264 0.4048202 0
0.035667524 0.079999998 0.022956306 0.25019264 0.4048202 0
0.034444105 0.079999998 0.022996146 0.25019264 0.4048202 0
0.033216428 0.079999998 0.023036283 0.25019264 0.4048202 0
0.031984448 0.079999998 0.023076717 0.25019264 0.4048202 0
0.030748125 0.079999998 0.023117453 0.25019264 0.4048202 0
0.029507423 0.079999998 0.023158493 0.25019264 0.4048202 0
0.028262299 0.079999998 0.023199838 0.25019264 0.4048202 0
0.027012713 0.079999998 0.02324149 0.25019264 0.4048202 0
0.025758622 0.079999998 0.023283452 0.25019264 0.4048202 0
0.024499986 0.079999998 0.023325725 0.25019264 0.4048202 0
0.023236765 0.079999998 0.023368314 0.25019264 0.4048202 0
0.021968912 0.079999998 0.023411218 0.25019264 0.4048202 0
0.020696387 0.079999998 0.023454441 0.25019264 0.4048202 0
0.019419145 0.079999998 0.023497986 0.25019264 0.4048202 0
0.018137142 0.079999998 0.023541855 0.25019264 0.4048202 0
0.016850336 0.079999998 0.023586048 0.25019264 0.4048202 0
0.015558681 0.079999998 0.023630572 0.25019264 0.4048202 0
0.01426213 0.079999998 0.023675425 0.25019264 0.4048202 0
0.012960639 0.079999998 0.023720613 0.25019264 0.4048202 0
0.011654162 0.079999998 0.023766136 0.25019264 0.4048202 0
0.010342651 0.079999998 0.023811998 0.25019264 0.4048202 0
0.0090260599 0.079999998 0.023858201 0.25019264 0.4048202 0
0.0077043404 0.079999998 0.023904748 0.25019264 0.4048202 0
0.0063774446 0.079999998 0.023951642 0.25019264 0.4048202 0
0.0050453232 0.079999998 0.023998884 0.25019264 0.4048202 0
0.0037079274 0.079999998 0.024046479 0.25019264 0.4048202 0
0.0023652073 0.079999998 0.024094427 0.25019264 0.4048202 0
0.0010171124 0.079999998 0.024142735 0.25019264 0.4048202 0
0.039999999 5.2183485e-05 0.025699023 0.25019264 0.4048202 0
0.039999999 0.0026301024 0.025570199 0.25019264 0.4048202 0
0.039999999 0.0051823226 0.025442835 0.25019264 0.4048202 0
0.039999999 0.0077092606 0.025316905 0.25019264 0.4048202 0
0.039999999 0.010211324 0.025192387 0.25019264 0.4048202 0
0.039999999 0.012688914 0.025069259 0.25019264 0.4048202 0
0.039999999 0.015142419 0.0249475 0.25019264 0.4048202 0
0.039999999 0.017572224 0.024827085 0.25019264 0.4048202 0
0.039999999 0.019978702 0.024707997 0.25019264 0.4048202 0
0.039999999 0.022362219 0.024590215 0.25019264 0.4048202 0
0.039999999 0.024723137 0.024473716 0.25019264 0.4048202 0
0.039999999 0.027061803 0.024358481 0.25019264 0.4048202 0
0.039999999 0.029378569 0.024244493 0.25019264 0.4048202 0
0.039999999 0.031673767 0.02413173 0.25019264 0.4048202 0
0.039999999 0.033947729 0.024020176 0.25019264 0.4048202 0
0.039999999 0.036200777 0.023909813 0.25019264 0.4048202 0
0.039999999 0.038433235 0.023800619 0.25019264 0.4048202 0
0.039999999 0.040645406 0.023692582 0.25019264 0.4048202 0
0.039999999 0.042837601 0.023585681 0.25019264 0.4048202 0
0.039999999 0.04501012 0.023479901 0.25019264 0.4048202 0
0.039999999 0.047163252 0.023375224 0.25019264 0.4048202 0
0.039999999 0.049297284 0.023271637 0.25019264 0.4048202 0
0.039999999 0.0514125 0.023169121 0.25019264 0.4048202 0
0.039999999 0.05350918 0.023067661 0.25019264 0.4048202 0
0.039999999 0.05558759 0.022967244 0.25019264 0.4048202 0
0.039999999 0.057647992 0.022867853 0.25019264 0.4048202 0
0.039999999 0.059690658 0.022769472 0.25019264 0.4048202 0
0.039999999 0.061715834 0.022672091 0.25019264 0.4048202 0
0.039999999 0.063723773 0.022575693 0.25019264 0.4048202 0
0.039999999 0.065714732 0.022480264 0.25019264 0.4048202 0
0.039999999 0.067688935 0.022385791 0.25019264 0.4048202 0
0.039999999 0.069646627 0.022292262 0.25019264 0.4048202 0
0.039999999 0.071588047 0.022199662 0.25019264 0.4048202 0
0.039999999 0.073513418 0.022107979 0.25019264 0.4048202 0
0.039999999 0.075422958 0.022017201 0.25019264 0.4048202 0
0.039999999 0.077316903 0.021927314 0.25019264 0.4048202 0
0.039999999 0.079195447 0.021838307 0.25019264 0.4048202 0
0.039312586 0.079999998 0.021821301 0.25019264 0.4048202 0
0.038101725 0.079999998 0.021858528 0.25019264 0.4048202 0
0.036886718 0.079999998 0.021896033 0.25019264 0.4048202 0
0.035667524 0.079999998 0.021933816 0.25019264 0.4048202 0
0.034444105 0.079999998 0.021971881 0.25019264 0.4048202 0
0.033216428 0.079999998 0.022010231 0.25019264 0.4048202 0
0.031984448 0.079999998 0.022048866 0.25019264 0.4048202 0
0.030748125 0.079999998 0.022087788 0.25019264 0.4048202 0
0.029507423 0.079999998 0.022126999 0.25019264 0.4048202 0
0.028262299 0.079999998 0.022166502 0.25019264 0.4048202 0
0.027012713 0.079999998 0.022206299 0.25019264 0.4048202 0
0.025758622 0.079999998 0.022246392 0.25019264 0.4048202 0
0.024499986 0.079999998 0.022286782 0.25019264 0.4048202 0
0.023236765 0.079999998 0.022327473 0.25019264 0.4048202 0
0.021968912 0.079999998 0.022368466 0.25019264 0.4048202 0
0.020696387 0.079999998 0.022409765 0.25019264 0.4048202 0
0.019419145 0.079999998 0.022451371 0.25019264 0.4048202 0
0.018137142 0.079999998 0.022493284 0.25019264 0.4048202 0
0.016850336 0.079999998 0.02253551 0.25019264 0.4048202 0
0.015558681 0.079999998 0.022578051 0.25019264 0.4048202 0
0.01426213 0.079999998 0.022620907 0.25019264 0.4048202 0
0.012960639 0.079999998 0.022664081 0.25019264 0.4048202 0
0.011654162 0.079999998 0.022707578 0.25019264 0.4048202 0
0.010342651 0.079999998 0.022751397 0.25019264 0.4048202 0
0.0090260599 0.079999998 0.022795541 0.25019264 0.4048202 0
0.0077043404 0.079999998 0.022840016 0.25019264 0.4048202 0
0.0063774446 0.079999998 0.02288482 0.25019264 0.4048202 0
0.0050453232 0.079999998 0.022929959 0.25019264 0.4048202 0
0.0037079274 0.079999998 0.022975434 0.25019264 0.4048202 0
0.0023652073 0.079999998 0.023021247 0.25019264 0.4048202 0
0.0010171124 0.079999998 0.023067402 0.25019264 0.4048202 0
0.039999999 5.2183485e-05 0.024501365 0.25019264 0.4048202 0
0.039999999 0.0026301024 0.024378546 0.25019264 0.4048202 0
0.039999999 0.0051823226 0.024257116 0.25019264 0.4048202 0
0.039999999 0.0077092606 0.024137056 0.25019264 0.4048202 0
0.039999999 0.010211324 0.02401834 0.25019264 0.4048202 0
0.039999999 0.012688914 0.02390095 0.25019264 0.4048202 0
0.039999999 0.015142419 0.023784865 0.25019264 0.4048202 0
0.039999999 0.017572224 0.023670062 0.25019264 0.4048202 0
0.039999999 0.019978702 0.023556525 0.25019264 0.4048202 0
0.039999999 0.022362219 0.02344423 0.25019264 0.4048202 0
0.039999999 0.024723137 0.02333316 0.25019264 0.4048202 0
0.039999999 0.027061803 0.023223298 0.25019264 0.4048202 0
0.039999999 0.029378569 0.023114622 0.25019264 0.4048202 0
0.039999999 0.031673767 0.023007113 0.25019264 0.4048202 0
0.039999999 0.033947729 0.022900758 0.25019264 0.4048202 0
0.039999999 0.036200777 0.022795537 0.25019264 0.4048202 0
0.039999999 0.038433235 0.022691434 0.25019264 0.4048202 0
0.039999999 0.040645406 0.02258843 0.25019264 0.4048202 0
0.039999999 0.042837601 0.022486512 0.25019264 0.4048202 0
0.039999999 0.04501012 0.022385661 0.25019264 0.4048202 0
0.039999999 0.047163252 0.022285864 0.25019264 0.4048202 0
0.039999999 0.049297284 0.022187103 0.25019264 0.4048202 0
0.039999999 0.0514125 0.022089364 0.25019264 0.4048202 0
0.039999999 0.05350918 0.021992633 0.25019264 0.4048202 0
0.039999999 0.05558759 0.021896895 0.25019264 0.4048202 0
0.039999999 0.057647992 0.021802137 0.25019264 0.4048202 0
0.039999999 0.059690658 0.021708341 0.25019264 0.4048202 0
0.039999999 0.061715834 0.021615498 0.25019264 0.4048202 0
0.039999999 0.063723773 0.021523591 0.25019264 0.4048202 0
0.039999999 0.065714732 0.02143261 0.25019264 0.4048202 0
0.039999999 0.067688935 0.02134254 0.25019264 0.4048202 0
0.039999999 0.069646627 0.02125337 0.25019264 0.4048202 0
0.039999999 0.071588047 0.021165086 0.25019264 0.4048202 0
0.039999999 0.073513418 0.021077676 0.25019264 0.4048202 0
0.039999999 0.075422958 0.020991128 0.25019264 0.4048202 0
0.039999999 0.077316903 0.020905429 0.25019264 0.4048202 0
0.039999999 0.079195447 0.020820573 0.25019264 0.4048202 0
0.039312586 0.079999998 0.020804359 0.25019264 0.4048202 0
0.038101725 0.079999998 0.020839849 0.25019264 0.4048202 0
0.036886718 0.079999998 0.020875607 0.25019264 0.4048202 0
0.035667524 0.079999998 0.02091163 0.25019264 0.4048202 0
0.034444105 0.079999998 0.020947922 0.25019264 0.4048202 0
0.033216428 0.079999998 0.020984482 0.25019264 0.4048202 0
0.031984448 0.079999998 0.021021318 0.25019264 0.4048202 0
0.030748125 0.079999998 0.021058425 0.25019264 0.4048202 0
0.029507423 0.079999998 0.021095809 0.25019264 0.4048202 0
0.028262299 0.079999998 0.021133471 0.25019264 0.4048202 0
0.027012713 0.079999998 0.021171413 0.25019264 0.4048202 0
0.025758622 0.079999998 0.021209637 0.25019264 0.4048202 0
0.024499986 0.079999998 0.021248147 0.25019264 0.4048202 0
0.023236765 0.079999998 0.02128694 0.25019264 0.4048202 0
0.021968912 0.079999998 0.021326024 0.25019264 0.4048202 0
0.020696387 0.079999998 0.021365399 0.25019264 0.4048202 0
0.019419145 0.079999998 0.021405064 0.25019264 0.4048202 0
0.018137142 0.079999998 0.021445025 0.25019264 0.4048202 0
0.016850336 0.079999998 0.021485282 0.25019264 0.4048202 0
0.015558681 0.079999998 0.021525841 0.25019264 0.4048202 0
0.01426213 0.079999998 0.021566698 0.25019264 0.4048202 0
0.012960639 0.079999998 0.021607861 0.25019264 0.4048202 0
0.011654162 0.079999998 0.021649331 0.25019264 0.4048202 0
0.010342651 0.079999998 0.021691108 0.25019264 0.4048202 0
0.0090260599 0.079999998 0.021733196 0.25019264 0.4048202 0
0.0077043404 0.079999998 0.021775596 0.25019264 0.4048202 0
0.0063774446 0.079999998 0.021818314 0.25019264 0.4048202 0
0.0050453232 0.079999998 0.021861348 0.25019264 0.4048202 0
0.0037079274 0.079999998 0.021904703 0.25019264 0.4048202 0
0.0023652073 0.079999998 0.021948382 0.25019264 0.4048202 0
0.0010171124 0.079999998 0.021992385 0.25019264 0.4048202 0
0.039999999 5.2183485e-05 0.023304045 0.25019264 0.4048202 0
0.039999999 0.0026301024 0.023187226 0.25019264 0.4048202 0
0.039999999 0.0051823226 0.023071731 0.25019264 0.4048202 0
0.039999999 0.0077092606 0.022957537 0.25019264 0.4048202 0
0.039999999 0.010211324 0.022844624 0.25019264 0.4048202 0
0.039999999 0.012688914 0.022732971 0.25019264 0.4048202 0
0.039999999 0.015142419 0.022622557 0.25019264 0.4048202 0
0.039999999 0.017572224 0.022513365 0.25019264 0.4048202 0
0.039999999 0.019978702 0.022405377 0.25019264 0.4048202 0
0.039999999 0.022362219 0.022298569 0.25019264 0.4048202 0
0.039999999 0.024723137 0.022192927 0.25019264 0.4048202 0
0.039999999 0.027061803 0.022088433 0.25019264 0.4048202 0
0.039999999 0.029378569 0.021985067 0.25019264 0.4048202 0
0.039999999 0.031673767 0.021882813 0.25019264 0.4048202 0
0.039999999 0.033947729 0.021781655 0.25019264 0.4048202 0
0.039999999 0.036200777 0.021681575 0.25019264 0.4048202 0
0.039999999 0.038433235 0.021582559 0.25019264 0.4048202 0
0.039999999 0.040645406 0.021484589 0.25019264 0.4048202 0
0.039999999 0.042837601 0.021387652 0.25019264 0.4048202 0
0.039999999 0.04501012 0.021291729 0.25019264 0.4048202 0
0.039999999 0.047163252 0.021196809 0.25019264 0.4048202 0
0.039999999 0.049297284 0.021102874 0.25019264 0.4048202 0
0.039999999 0.0514125 0.021009911 0.25019264 0.4048202 0
0.039999999 0.05350918 0.020917907 0.25019264 0.4048202 0
0.039999999 0.05558759 0.020826848 0.25019264 0.4048202 0
0.039999999 0.057647992 0.020736719 0.25019264 0.4048202 0
0.039999999 0.059690658 0.020647509 0.25019264 0.4048202 0
0.039999999 0.061715834 0.020559201 0.25019264 0.4048202 0
0.039999999 0.063723773 0.020471787 0.25019264 0.4048202 0
0.039999999 0.065714732 0.020385252 0.25019264 0.4048202 0
0.039999999 0.067688935 0.020299584 0.25019264 0.4048202 0
0.039999999 0.069646627 0.02021477 0.25019264 0.4048202 0
0.039999999 0.071588047 0.0201308 0.25019264 0.4048202 0
0.039999999 0.073513418 0.020047661 0.25019264 0.4048202 0
0.039999999 0.075422958 0.019965343 0.25019264 0.4048202 0
0.039999999 0.077316903 0.019883834 0.25019264 0.4048202 0
0.039999999 0.079195447 0.019803122 0.25019264 0.4048202 0
0.039312586 0.079999998 0.019787701 0.25019264 0.4048202 0
0.038101725 0.079999998 0.019821458 0.25019264 0.4048202 0
0.036886718 0.079999998 0.019855468 0.25019264 0.4048202 0
0.035667524 0.079999998 0.019889731 0.25019264 0.4048202 0
0.034444105 0.079999998 0.019924248 0.25019264 0.4048202 0
0.033216428 0.079999998 0.019959023 0.25019264 0.4048202 0
0.031984448 0.079999998 0.019994058 0.25019264 0.4048202 0
0.030748125 0.079999998 0.020029351 0.25019264 0.4048202 0
0.029507423 0.079999998 0.020064909 0.25019264 0.4048202 0
0.028262299 0.079999998 0.020100731 0.25019264 0.4048202 0
0.027012713 0.079999998 0.020136818 0.25019264 0.4048202 0
0.025758622 0.079999998 0.020173175 0.25019264 0.4048202 0
0.024499986 0.079999998 0.020209802 0.25019264 0.4048202 0
0.023236765 0.079999998 0.020246701 0.25019264 0.4048202 0
0.021968912 0.079999998 0.020283874 0.25019264 0.4048202 0
0.020696387 0.079999998 0.020321324 0.25019264 0.4048202 0
0.019419145 0.079999998 0.020359052 0.25019264 0.4048202 0
0.018137142 0.079999998 0.02039706 0.25019264 0.4048202 0
0.016850336 0.079999998 0.02043535 0.25019264 0.4048202 0
0.015558681 0.079999998 0.020473925 0.25019264 0.4048202 0
0.01426213 0.079999998 0.020512788 0.25019264 0.4048202 0
0.012960639 0.079999998 0.020551939 0.25019264 0.4048202 0
0.011654162 0.079999998 0.020591382 0.25019264 0.4048202 0
0.010342651 0.079999998 0.020631118 0.25019264 0.4048202 0
0.0090260599 0.079999998 0.020671148 0.25019264 0.4048202 0
0.0077043404 0.079999998 0.020711478 0.25019264 0.4048202 0
0.0063774446 0.079999998 0.020752106 0.25019264 0.4048202 0
0.0050453232 0.079999998 0.020793037 0.25019264 0.4048202 0
0.0037079274 0.079999998 0.020834275 0.25019264 0.4048202 0
0.0023652073 0.079999998 0.020875819 0.25019264 0.4048202 0
0.0010171124 0.079999998 0.020917673 0.25019264 0.4048202 0
0.039999999 5.2183485e-05 0.022107044 0.25019264 0.4048202 0
0.039999999 0.0026301024 0.021996226 0.25019264 0.4048202 0
0.039999999 0.0051823226 0.021886664 0.25019264 0.4048202 0
0.039999999 0.0077092606 0.021778334 0.25019264 0.4048202 0
0.039999999 0.010211324 0.021671221 0.25019264 0.4048202 0
0.039999999 0.012688914 0.021565303 0.25019264 0.4048202 0
0.039999999 0.015142419 0.021460561 0.25019264 0.4048202 0
0.039999999 0.017572224 0.021356978 0.25019264 0.4048202 0
0.039999999 0.019978702 0.021254536 0.25019264 0.4048202 0
0.039999999 0.022362219 0.021153213 0.25019264 0.4048202 0
0.039999999 0.024723137 0.021052998 0.25019264 0.4048202 0
0.039999999 0.027061803 0.020953871 0.25019264 0.4048202 0
0.039999999 0.029378569 0.020855814 0.25019264 0.4048202 0
0.039999999 0.031673767 0.020758813 0.25019264 0.4048202 0
0.039999999 0.033947729 0.020662852 0.25019264 0.4048202 0
0.039999999 0.036200777 0.020567913 0.25019264 0.4048202 0
0.039999999 0.038433235 0.020473981 0.25019264 0.4048202 0
0.039999999 0.040645406 0.020381045 0.25019264 0.4048202 0
0.039999999 0.042837601 0.020289086 0.25019264 0.4048202 0
0.039999999 0.04501012 0.02019809 0.25019264 0.4048202 0
0.039999999 0.047163252 0.020108044 0.25019264 0.4048202 0
0.039999999 0.049297284 0.020018935 0.25019264 0.4048202 0
0.039999999 0.0514125 0.019930748 0.25019264 0.4048202 0
0.039999999 0.05350918 0.01984347 0.25019264 0.4048202 0
0.039999999 0.05558759 0.019757088 0.25019264 0.4048202 0
0.039999999 0.057647992 0.019671587 0.25019264 0.4048202 0
0.039999999 0.059690658 0.01958696 0.25019264 0.4048202 0
0.039999999 0.061715834 0.019503189 0.25019264 0.4048202 0
0.039999999 0.063723773 0.019420264 0.25019264 0.4048202 0
0.039999999 0.065714732 0.019338174 0.25019264 0.4048202 0
0.039999999 0.067688935 0.019256905 0.25019264 0.4048202 0
0.039999999 0.069646627 0.019176448 0.25019264 0.4048202 0
0.039999999 0.071588047 0.019096792 0.25019264 0.4048202 0
0.039999999 0.073513418 0.019017924 0.25019264 0.4048202 0
0.039999999 0.075422958 0.018939834 0.25019264 0.4048202 0
0.039999999 0.077316903 0.01886251 0.25019264 0.4048202 0
0.039999999 0.079195447 0.018785944 0.25019264 0.4048202 0
0.039312586 0.079999998 0.018771315 0.25019264 0.4048202 0
0.038101725 0.079999998 0.018803339 0.25019264 0.4048202 0
0.036886718 0.079999998 0.0188356 0.25019264 0.4048202 0
0.035667524 0.079999998 0.018868104 0.25019264 0.4048202 0
0.034444105 0.079999998 0.018900849 0.25019264 0.4048202 0
0.033216428 0.079999998 0.018933838 0.25019264 0.4048202 0
0.031984448 0.079999998 0.018967072 0.25019264 0.4048202 0
0.030748125 0.079999998 0.019000554 0.25019264 0.4048202 0
0.029507423 0.079999998 0.019034285 0.25019264 0.4048202 0
0.028262299 0.079999998 0.019068267 0.25019264 0.4048202 0
0.027012713 0.079999998 0.019102501 0.25019264 0.4048202 0
0.025758622 0.079999998 0.019136989 0.25019264 0.4048202 0
0.024499986 0.079999998 0.019171735 0.25019264 0.4048202 0
0.023236765 0.079999998 0.019206738 0.25019264 0.4048202 0
0.021968912 0.079999998 0.019242004 0.25019264 0.4048202 0
0.020696387 0.079999998 0.019277528 0.25019264 0.4048202 0
0.019419145 0.079999998 0.019313319 0.25019264 0.4048202 0
0.018137142 0.079999998 0.019349374 0.25019264 0.4048202 0
0.016850336 0.079999998 0.019385699 0.25019264 0.4048202 0
0.015558681 0.079999998 0.019422293 0.25019264 0.4048202 0
0.01426213 0.079999998 0.019459158 0.25019264 0.4048202 0
0.012960639 0.079999998 0.019496299 0.25019264 0.4048202 0
0.011654162 0.079999998 0.019533714 0.25019264 0.4048202 0
0.010342651 0.079999998 0.01957141 0.25019264 0.4048202 0
0.0090260599 0.079999998 0.019609384 0.25019264 0.4048202 0
0.0077043404 0.079999998 0.019647643 0.25019264 0.4048202 0
0.0063774446 0.079999998 0.019686185 0.25019264 0.4048202 0
0.0050453232 0.079999998 0.019725014 0.25019264 0.4048202 0
0.0037079274 0.079999998 0.019764133 0.25019264 0.4048202 0
0.0023652073 0.079999998 0.019803543 0.25019264 0.4048202 0
0.0010171124 0.079999998 0.019843247 0.25019264 0.4048202 0
0.039999999 5.2183485e-05 0.020910347 0.25019264 0.4048202 0
0.039999999 0.0026301024 0.020805528 0.25019264 0.4048202 0
0.039999999 0.0051823226 0.020701896 0.25019264 0.4048202 0
0.039999999 0.0077092606 0.02059943 0.25019264 0.4048202 0
0.039999999 0.010211324 0.020498116 0.25019264 0.4048202 0
0.039999999 0.012688914 0.020397931 0.25019264 0.4048202 0
0.039999999 0.015142419 0.020298859 0.25019264 0.4048202 0
0.039999999 0.017572224 0.020200884 0.25019264 0.4048202 0
0.039999999 0.019978702 0.020103985 0.25019264 0.4048202 0
0.039999999 0.022362219 0.02000815 0.25019264 0.4048202 0
0.039999999 0.024723137 0.019913359 0.25019264 0.4048202 0
0.039999999 0.027061803 0.019819597 0.25019264 0.4048202 0
0.039999999 0.029378569 0.019726848 0.25019264 0.4048202 0
0.039999999 0.031673767 0.019635098 0.25019264 0.4048202 0
0.039999999 0.033947729 0.019544331 0.25019264 0.4048202 0
0.039999999 0.036200777 0.019454531 0.25019264 0.4048202 0
0.039999999 0.038433235 0.019365685 0.25019264 0.4048202 0
0.039999999 0.040645406 0.019277779 0.25019264 0.4048202 0
0.039999999 0.042837601 0.019190798 0.25019264 0.4048202 0
0.039999999 0.04501012 0.019104728 0.25019264 0.4048202 0
0.039999999 0.047163252 0.019019557 0.25019264 0.4048202 0
0.039999999 0.049297284 0.018935272 0.25019264 0.4048202 0
0.039999999 0.0514125 0.018851858 0.25019264 0.4048202 0
0.039999999 0.05350918 0.018769305 0.25019264 0.4048202 0
0.039999999 0.05558759 0.018687598 0.25019264 0.4048202 0
0.039999999 0.057647992 0.018606726 0.25019264 0.4048202 0
0.039999999 0.059690658 0.018526679 0.25019264 0.4048202 0
0.039999999 0.061715834 0.018447444 0.25019264 0.4048202 0
0.039999999 0.063723773 0.018369008 0.25019264 0.4048202 0
0.039999999 0.065714732 0.018291362 0.25019264 0.4048202 0
0.039999999 0.067688935 0.018214492 0.25019264 0.4048202 0
0.039999999 0.069646627 0.01813839 0.25019264 0.4048202 0
0.039999999 0.071588047 0.018063046 0.25019264 0.4048202 0
0.039999999 0.073513418 0.017988447 0.25019264 0.4048202 0
0.039999999 0.075422958 0.017914584 0.25019264 0.4048202 0
0.039999999 0.077316903 0.017841447 0.25019264 0.4048202 0
0.039999999 0.079195447 0.017769026 0.25019264 0.4048202 0
0.039312586 0.079999998 0.017755188 0.25019264 0.4048202 0
0.038101725 0.079999998 0.017785478 0.25019264 0.4048202 0
0.036886718 0.079999998 0.017815994 0.25019264 0.4048202 0
0.035667524 0.079999998 0.017846737 0.25019264 0.4048202 0
0.034444105 0.079999998 0.017877709 0.25019264 0.4048202 0
0.033216428 0.079999998 0.017908912 0.25019264 0.4048202 0
0.031984448 0.079999998 0.017940348 0.25019264 0.4048202 0
0.030748125 0.079999998 0.017972017 0.25019264 0.4048202 0
0.029507423 0.079999998 0.018003922 0.25019264 0.4048202 0
0.028262299 0.079999998 0.018036064 0.25019264 0.4048202 0
0.027012713 0.079999998 0.018068446 0.25019264 0.4048202 0
0.025758622 0.079999998 0.018101068 0.25019264 0.4048202 0
0.024499986 0.079999998 0.018133933 0.25019264 0.4048202 0
0.023236765 0.079999998 0.018167041 0.25019264 0.4048202 0
0.021968912 0.079999998 0.018200396 0.25019264 0.4048202 0
0.020696387 0.079999998 0.018234 0.25019264 0.4048202 0
0.019419145 0.079999998 0.018267851 0.25019264 0.4048202 0
0.018137142 0.079999998 0.018301956 0.25019264 0.4048202 0
0.016850336 0.079999998 0.018336313 0.25019264 0.4048202 0
0.015558681 0.079999998 0.018370926 0.25019264 0.4048202 0
0.01426213 0.079999998 0.018405797 0.25019264 0.4048202 0
0.012960639 0.079999998 0.018440926 0.25019264 0.4048202 0
0.011654162 0.079999998 0.018476317 0.25019264 0.4048202 0
0.010342651 0.079999998 0.018511971 0.25019264 0.4048202 0
0.0090260599 0.079999998 0.018547891 0.25019264 0.4048202 0
0.0077043404 0.079999998 0.018584078 0.25019264 0.4048202 0
0.0063774446 0.079999998 0.018620534 0.25019264 0.4048202 0
0.0050453232 0.079999998 0.018657262 0.25019264 0.4048202 0
0.0037079274 0.079999998 0.018694261 0.25019264 0.4048202 0
0.0023652073 0.079999998 0.018731538 0.25019264 0.4048202 0
0.0010171124 0.079999998 0.018769093 0.25019264 0.4048202 0
0.039999999 5.2183485e-05 0.019713936 0.25019264 0.4048202 0
0.039999999 0.0026301024 0.019615116 0.25019264 0.4048202 0
0.039999999 0.0051823226 0.019517412 0.25019264 0.4048202 0
0.039999999 0.0077092606 0.01942081 0.25019264 0.4048202 0
0.039999999 0.010211324 0.019325292 0.25019264 0.4048202 0
0.039999999 0.012688914 0.019230839 0.25019264 0.4048202 0
0.039999999 0.015142419 0.019137437 0.25019264 0.4048202 0
0.039999999 0.017572224 0.019045066 0.25019264 0.4048202 0
0.039999999 0.019978702 0.018953713 0.25019264 0.4048202 0
0.039999999 0.022362219 0.018863359 0.25019264 0.4048202 0
0.039999999 0.024723137 0.018773993 0.25019264 0.4048202 0
0.039999999 0.027061803 0.018685596 0.25019264 0.4048202 0
0.039999999 0.029378569 0.018598154 0.25019264 0.4048202 0
0.039999999 0.031673767 0.018511653 0.25019264 0.4048202 0
0.039999999 0.033947729 0.018426079 0.25019264 0.4048202 0
0.039999999 0.036200777 0.018341418 0.25019264 0.4048202 0
0.039999999 0.038433235 0.018257655 0.25019264 0.4048202 0
0.039999999 0.040645406 0.018174779 0.25019264 0.4048202 0
0.039999999 0.042837601 0.018092774 0.25019264 0.4048202 0
0.039999999 0.04501012 0.01801163 0.25019264 0.4048202 0
0.039999999 0.047163252 0.017931331 0.25019264 0.4048202 0
0.039999999 0.049297284 0.017851869 0.25019264 0.4048202 0
0.039999999 0.0514125 0.017773228 0.25019264 0.4048202 0
0.039999999 0.05350918 0.017695397 0.25019264 0.4048202 0
0.039999999 0.05558759 0.017618366 0.25019264 0.4048202 0
0.039999999 0.057647992 0.017542122 0.25019264 0.4048202 0
0.039999999 0.059690658 0.017466653 0.25019264 0.4048202 0
0.039999999 0.061715834 0.017391952 0.25019264 0.4048202 0
0.039999999 0.063723773 0.017318003 0.25019264 0.4048202 0
0.039999999 0.065714732 0.017244799 0.25019264 0.4048202 0
0.039999999 0.067688935 0.017172329 0.25019264 0.4048202 0
0.039999999 0.069646627 0.017100582 0.25019264 0.4048202 0
0.039999999 0.071588047 0.017029548 0.25019264 0.4048202 0
0.039999999 0.073513418 0.016959216 0.25019264 0.4048202 0
0.039999999 0.075422958 0.01688958 0.25019264 0.4048202 0
0.039999999 0.077316903 0.016820626 0.25019264 0.4048202 0
0.039999999 0.079195447 0.016752349 0.25019264 0.4048202 0
0.039312586 0.079999998 0.016739303 0.25019264 0.4048202 0
0.038101725 0.079999998 0.016767861 0.25019264 0.4048202 0
0.036886718 0.079999998 0.016796632 0.25019264 0.4048202 0
0.035667524 0.079999998 0.016825614 0.25019264 0.4048202 0
0.034444105 0.079999998 0.016854815 0.25019264 0.4048202 0
0.033216428 0.079999998 0.016884234 0.25019264 0.4048202 0
0.031984448 0.079999998 0.01691387 0.25019264 0.4048202 0
0.030748125 0.079999998 0.016943727 0.25019264 0.4048202 0
0.029507423 0.079999998 0.016973807 0.25019264 0.4048202 0
0.028262299 0.079999998 0.01700411 0.25019264 0.4048202 0
0.027012713 0.079999998 0.017034639 0.25019264 0.4048202 0
0.025758622 0.079999998 0.017065395 0.25019264 0.4048202 0
0.024499986 0.079999998 0.017096378 0.25019264 0.4048202 0
0.023236765 0.079999998 0.017127592 0.25019264 0.4048202 0
0.021968912 0.079999998 0.017159039 0.25019264 0.4048202 0
0.020696387 0.079999998 0.017190719 0.25019264 0.4048202 0
0.019419145 0.079999998 0.017222635 0.25019264 0.4048202 0
0.018137142 0.079999998 0.017254788 0.25019264 0.4048202 0
0.016850336 0.079999998 0.01728718 0.25019264 0.4048202 0
0.015558681 0.079999998 0.017319813 0.25019264 0.4048202 0
0.01426213 0.079999998 0.017352687 0.25019264 0.4048202 0
0.012960639 0.079999998 0.017385807 0.25019264 0.4048202 0
0.011654162 0.079999998 0.017419174 0.25019264 0.4048202 0
0.010342651 0.079999998 0.017452788 0.25019264 0.4048202 0
0.0090260599 0.079999998 0.017486652 0.25019264 0.4048202 0
0.0077043404 0.079999998 0.017520769 0.25019264 0.4048202 0
0.0063774446 0.079999998 0.017555138 0.25019264 0.4048202 0
0.0050453232 0.079999998 0.017589765 0.25019264 0.4048202 0
0.0037079274 0.079999998 0.017624648 0.25019264 0.4048202 0
0.0023652073 0.079999998 0.017659793 0.25019264 0.4048202 0
0.0010171124 0.079999998 0.017695198 0.25019264 0.4048202 0
0.039999999 5.2183485e-05 0.018517798 0.25019264 0.4048202 0
0.039999999 0.0026301024 0.018424973 0.25019264 0.4048202 0
0.039999999 0.0051823226 0.018333197 0.25019264 0.4048202 0
0.039999999 0.0077092606 0.018242458 0.25019264 0.4048202 0
0.039999999 0.010211324 0.018152734 0.25019264 0.4048202 0
0.039999999 0.012688914 0.018064013 0.25019264 0.4048202 0
0.039999999 0.015142419 0.017976277 0.25019264 0.4048202 0
0.039999999 0.017572224 0.017889511 0.25019264 0.4048202 0
0.039999999 0.019978702 0.017803701 0.25019264 0.4048202 0
0.039999999 0.022362219 0.017718829 0.25019264 0.4048202 0
0.039999999 0.024723137 0.017634885 0.25019264 0.4048202 0
0.039999999 0.027061803 0.017551851 0.25019264 0.4048202 0
0.039999999 0.029378569 0.017469715 0.25019264 0.4048202 0
0.039999999 0.031673767 0.017388463 0.25019264 0.4048202 0
0.039999999 0.033947729 0.017308081 0.25019264 0.4048202 0
0.039999999 0.036200777 0.017228557 0.25019264 0.4048202 0
