# .PCD v0.7 - Point Cloud Data file format
VERSION 0.7
FIELDS x y z vp_x vp_y vp_z
SIZE 4 4 4 4 4 4
TYPE F F F F F F
COUNT 1 1 1 1 1 1
WIDTH 852
HEIGHT 1
VIEWPOINT 0 0 0 1 0 0 0
POINTS 852
DATA ascii
0.039999999 0.013238137 0.023908753 0.25019264 -0.4048202 0
0.039999999 0.015979532 0.024033979 0.25019264 -0.4048202 0
0.039999999 0.018749816 0.024160692 0.25019264 -0.4048202 0
0.039999999 0.021549484 0.024288915 0.25019264 -0.4048202 0
0.039999999 0.024379047 0.024418674 0.25019264 -0.4048202 0
0.039999999 0.027239025 0.024549996 0.25019264 -0.4048202 0
0.039999999 0.03012995 0.024682909 0.25019264 -0.4048202 0
0.039999999 0.03305237 0.024817441 0.25019264 -0.4048202 0
0.039999999 0.036006842 0.024953619 0.25019264 -0.4048202 0
0.020579318 0.079999998 0.02740979 0.25019264 -0.4048202 0
0.02213135 0.079999998 0.02737594 0.25019264 -0.4048202 0
0.039999999 0.045068342 0.025372323 0.25019264 -0.4048202 0
0.039999999 0.048156869 0.025515385 0.25019264 -0.4048202 0
0.026764678 0.079999998 0.027276009 0.25019264 -0.4048202 0
0.039999999 0.054439716 0.025806939 0.25019264 -0.4048202 0
0.039999999 0.057635333 0.025955498 0.25019264 -0.4048202 0
0.039999999 0.06086798 0.026105957 0.25019264 -0.4048202 0
0.039999999 0.064138345 0.026258351 0.25019264 -0.4048202 0
0.034413081 0.079999998 0.027114768 0.25019264 -0.4048202 0
0.039999999 0.070795089 0.026569095 0.25019264 -0.4048202 0
0.039999999 0.074182943 0.026727516 0.25019264 -0.4048202 0
0.039999999 0.077611461 0.026888024 0.25019264 -0.4048202 0
0 0.0011874269 0.023115972 0.25019264 -0.4048202 0
0.0021916383 0 0.023011321 0.25019264 -0.4048202 0
0.0036468774 5.5511151e-17 0.022974553 0.25019264 -0.4048202 0
0.0050974833 0 0.022938058 0.25019264 -0.4048202 0
0.0065434976 5.5511151e-17 0.022901837 0.25019264 -0.4048202 0
0 0.013345879 0.023619715 0.25019264 -0.4048202 0
0.0094219185 5.5511151e-17 0.022830203 0.25019264 -0.4048202 0
0.010854406 0 0.022794787 0.25019264 -0.4048202 0
0.012282467 0 0.022759639 0.25019264 -0.4048202 0
0.01370614 0 0.022724751 0.25019264 -0.4048202 0
0.015125465 0 0.022690129 0.25019264 -0.4048202 0
0.016540481 0 0.022655765 0.25019264 -0.4048202 0
0.017951228 0 0.02262166 0.25019264 -0.4048202 0
0 0.033948097 0.024482019 0.25019264 -0.4048202 0
0.020760065 5.5511151e-17 0.022554221 0.25019264 -0.4048202 0
0.022158232 0 0.022520883 0.25019264 -0.4048202 0
0.02355228 0 0.022487797 0.25019264 -0.4048202 0
0 0.044826232 0.024941426 0.25019264 -0.4048202 0
0.026328173 0 0.022422375 0.25019264 -0.4048202 0
0 0.050420158 0.025178704 0.25019264 -0.4048202 0
0.029088037 0 0.022357944 0.25019264 -0.4048202 0
0.030462049 0 0.022326097 0.25019264 -0.4048202 0
0.031832162 0 0.022294493 0.25019264 -0.4048202 0
0.033198409 0 0.02226313 0.25019264 -0.4048202 0
0.034560829 0 0.022232009 0.25019264 -0.4048202 0
0.035919454 0 0.022201125 0.25019264 -0.4048202 0
0 0.070869416 0.02605173 0.25019264 -0.4048202 0
0.038625456 0 0.022140069 0.25019264 -0.4048202 0
0.039972901 0 0.022109894 0.25019264 -0.4048202 0
0.039999999 0.0025518602 0.022219136 0.25019264 -0.4048202 0
0.039999999 0.0051824641 0.022332527 0.25019264 -0.4048202 0
0.039999999 0.0078400727 0.022447234 0.25019264 -0.4048202 0
0.039999999 0.010525142 0.022563281 0.25019264 -0.4048202 0
0.039999999 0.013238137 0.022680691 0.25019264 -0.4048202 0
0.039999999 0.015979532 0.022799486 0.25019264 -0.4048202 0
0.039999999 0.018749816 0.02291969 0.25019264 -0.4048202 0
0.039999999 0.021549484 0.023041327 0.25019264 -0.4048202 0
0.039999999 0.024379047 0.023164421 0.25019264 -0.4048202 0
0.039999999 0.027239025 0.023288999 0.25019264 -0.4048202 0
0.015899958 0.079999998 0.026099786 0.25019264 -0.4048202 0
0.039999999 0.03305237 0.023542704 0.25019264 -0.4048202 0
0.039999999 0.036006842 0.023671888 0.25019264 -0.4048202 0
0.039999999 0.038993932 0.02380266 0.25019264 -0.4048202 0
0.02213135 0.079999998 0.025969788 0.25019264 -0.4048202 0
0.039999999 0.045068342 0.024069086 0.25019264 -0.4048202 0
0.039999999 0.048156869 0.0242048 0.25019264 -0.4048202 0
0.039999999 0.051280446 0.02434222 0.25019264 -0.4048202 0
0.028301649 0.079999998 0.0258439 0.25019264 -0.4048202 0
0.039999999 0.06086798 0.024765037 0.25019264 -0.4048202 0
0.039999999 0.064138345 0.024909604 0.25019264 -0.4048202 0
0.039999999 0.067447141 0.025056042 0.25019264 -0.4048202 0
0.039999999 0.070795089 0.025204385 0.25019264 -0.4048202 0
0.039999999 0.074182943 0.02535467 0.25019264 -0.4048202 0
0.039999999 0.077611461 0.025506934 0.25019264 -0.4048202 0
0.00073172385 5.5511151e-17 0.021800714 0.25019264 -0.4048202 0
0.0021916383 0 0.021765674 0.25019264 -0.4048202 0
0.0036468774 5.5511151e-17 0.021730896 0.25019264 -0.4048202 0
0.0050974833 0 0.021696378 0.25019264 -0.4048202 0
0.0065434976 0 0.021662116 0.25019264 -0.4048202 0
0.0079849623 0 0.02162811 0.25019264 -0.4048202 0
0.0094219185 0 0.02159436 0.25019264 -0.4048202 0
0.010854406 5.5511151e-17 0.021560863 0.25019264 -0.4048202 0
0.012282467 0 0.021527614 0.25019264 -0.4048202 0
0.01370614 0 0.021494618 0.25019264 -0.4048202 0
0.015125465 5.5511151e-17 0.021461869 0.25019264 -0.4048202 0
0.016540481 5.5511151e-17 0.021429364 0.25019264 -0.4048202 0
0.017951228 5.5511151e-17 0.021397106 0.25019264 -0.4048202 0
0.019357743 0 0.021365091 0.25019264 -0.4048202 0
0 0.036629908 0.023263648 0.25019264 -0.4048202 0
0.022158232 5.5511151e-17 0.021301784 0.25019264 -0.4048202 0
0 0.042068586 0.0234809 0.25019264 -0.4048202 0
0.024942249 0 0.021239432 0.25019264 -0.4048202 0
0.026328173 0 0.021208609 0.25019264 -0.4048202 0
0.027710091 0 0.021178022 0.25019264 -0.4048202 0
0.029088037 0 0.021147666 0.25019264 -0.4048202 0
0.030462049 0 0.021117542 0.25019264 -0.4048202 0
0.031832162 0 0.02108765 0.25019264 -0.4048202 0
0.033198409 0 0.021057984 0.25019264 -0.4048202 0
0 0.064883389 0.02439894 0.25019264 -0.4048202 0
0.035919454 5.5511151e-17 0.020999335 0.25019264 -0.4048202 0
0 0.070869416 0.024641499 0.25019264 -0.4048202 0
0.038625456 0 0.020941585 0.25019264 -0.4048202 0
0.039972901 0 0.020913042 0.25019264 -0.4048202 0
0.039999999 0.0025518602 0.021016372 0.25019264 -0.4048202 0
0.039999999 0.0051824641 0.021123623 0.25019264 -0.4048202 0
0.039999999 0.0078400727 0.021232123 0.25019264 -0.4048202 0
0.039999999 0.010525142 0.021341886 0.25019264 -0.4048202 0
0.039999999 0.013238137 0.021452941 0.25019264 -0.4048202 0
0.0080212951 0.079999998 0.02484625 0.25019264 -0.4048202 0
0.039999999 0.018749816 0.021679003 0.25019264 -0.4048202 0
0.039999999 0.021549484 0.021794055 0.25019264 -0.4048202 0
0.039999999 0.024379047 0.021910487 0.25019264 -0.4048202 0
0.039999999 0.027239025 0.02202832 0.25019264 -0.4048202 0
0.039999999 0.03012995 0.022147581 0.25019264 -0.4048202 0
0.039999999 0.03305237 0.022268293 0.25019264 -0.4048202 0
0.039999999 0.036006842 0.022390483 0.25019264 -0.4048202 0
0.039999999 0.038993932 0.022514176 0.25019264 -0.4048202 0
0.039999999 0.042014234 0.022639399 0.25019264 -0.4048202 0
0.023679564 0.079999998 0.024533864 0.25019264 -0.4048202 0
0.039999999 0.048156869 0.022894548 0.25019264 -0.4048202 0
0.039999999 0.051280446 0.023024529 0.25019264 -0.4048202 0
0.028301649 0.079999998 0.024444919 0.25019264 -0.4048202 0
0.039999999 0.057635333 0.023289453 0.25019264 -0.4048202 0
0.039999999 0.06086798 0.023424458 0.25019264 -0.4048202 0
0.032890622 0.079999998 0.024358114 0.25019264 -0.4048202 0
0.039999999 0.067447141 0.02369971 0.25019264 -0.4048202 0
0.039999999 0.070795089 0.023840023 0.25019264 -0.4048202 0
0.039999999 0.074182943 0.023982173 0.25019264 -0.4048202 0
0.039999999 0.077611461 0.024126194 0.25019264 -0.4048202 0
0.00073172385 0 0.02055336 0.25019264 -0.4048202 0
0.0021916383 0 0.020520326 0.25019264 -0.4048202 0
0.0036468774 0 0.020487538 0.25019264 -0.4048202 0
0.0050974833 5.5511151e-17 0.020454993 0.25019264 -0.4048202 0
0.0065434976 0 0.020422693 0.25019264 -0.4048202 0
0.0079849623 0 0.020390633 0.25019264 -0.4048202 0
0 0.015841557 0.021155501 0.25019264 -0.4048202 0
0.010854406 0 0.020327233 0.25019264 -0.4048202 0
0.012282467 0 0.020295888 0.25019264 -0.4048202 0
0 0.023462323 0.021439271 0.25019264 -0.4048202 0
0.015125465 5.5511151e-17 0.020233901 0.25019264 -0.4048202 0
0 0.028657647 0.021633469 0.25019264 -0.4048202 0
0 0.031290799 0.021732116 0.25019264 -0.4048202 0
0 0.033948097 0.02183182 0.25019264 -0.4048202 0
0.020760065 0 0.020112706 0.25019264 -0.4048202 0
0.022158232 0 0.020082977 0.25019264 -0.4048202 0
0 0.042068586 0.022137413 0.25019264 -0.4048202 0
0.024942249 0 0.020024192 0.25019264 -0.4048202 0
0.026328173 0 0.019995134 0.25019264 -0.4048202 0
0 0.050420158 0.022453088 0.25019264 -0.4048202 0
0.029088037 0 0.019937677 0.25019264 -0.4048202 0
0 0.056121696 0.022669373 0.25019264 -0.4048202 0
0.031832162 0 0.019881096 0.25019264 -0.4048202 0
0.033198409 0 0.019853128 0.25019264 -0.4048202 0
0 0.064883389 0.023002926 0.25019264 -0.4048202 0
0.035919454 0 0.019797834 0.25019264 -0.4048202 0
0.037274316 0 0.019770505 0.25019264 -0.4048202 0
0.038625456 0 0.019743387 0.25019264 -0.4048202 0
0.039972901 0 0.019716479 0.25019264 -0.4048202 0
0.039999999 0.0025518602 0.019813895 0.25019264 -0.4048202 0
0.039999999 0.0051824641 0.019915011 0.25019264 -0.4048202 0
0.039999999 0.0078400727 0.020017302 0.25019264 -0.4048202 0
0.039999999 0.010525142 0.020120787 0.25019264 -0.4048202 0
0.039999999 0.013238137 0.020225486 0.25019264 -0.4048202 0
0.039999999 0.015979532 0.020331422 0.25019264 -0.4048202 0
0.009605173 0.079999998 0.023394132 0.25019264 -0.4048202 0
0.011184941 0.079999998 0.023363858 0.25019264 -0.4048202 0
0.039999999 0.024379047 0.020656852 0.25019264 -0.4048202 0
0.039999999 0.027239025 0.020767944 0.25019264 -0.4048202 0
0.015899958 0.079999998 0.023274461 0.25019264 -0.4048202 0
0.039999999 0.03305237 0.020994186 0.25019264 -0.4048202 0
0.039999999 0.036006842 0.021109385 0.25019264 -0.4048202 0
0.039999999 0.038993932 0.021226002 0.25019264 -0.4048202 0
0.02213135 0.079999998 0.023158535 0.25019264 -0.4048202 0
0.039999999 0.045068342 0.021463588 0.25019264 -0.4048202 0
0.039999999 0.048156869 0.02158461 0.25019264 -0.4048202 0
0.039999999 0.051280446 0.021707153 0.25019264 -0.4048202 0
0.039999999 0.054439716 0.021831248 0.25019264 -0.4048202 0
0.029834941 0.079999998 0.023018772 0.25019264 -0.4048202 0
0.039999999 0.06086798 0.022084201 0.25019264 -0.4048202 0
0.032890622 0.079999998 0.022964437 0.25019264 -0.4048202 0
0.039999999 0.067447141 0.022343704 0.25019264 -0.4048202 0
0.039999999 0.070795089 0.02247599 0.25019264 -0.4048202 0
0.039999999 0.074182943 0.022610005 0.25019264 -0.4048202 0
0.038959328 0.079999998 0.022858402 0.25019264 -0.4048202 0
0.00073172385 0 0.019306289 0.25019264 -0.4048202 0
0.0021916383 0 0.019275259 0.25019264 -0.4048202 0
0.0036468774 0 0.01924446 0.25019264 -0.4048202 0
0.0050974833 0 0.019213891 0.25019264 -0.4048202 0
0.0065434976 0 0.01918355 0.25019264 -0.4048202 0
0.0079849623 0 0.019153435 0.25019264 -0.4048202 0
0.0094219185 0 0.019123547 0.25019264 -0.4048202 0
0 0.018359303 0.019959822 0.25019264 -0.4048202 0
0 0.020899447 0.020048669 0.25019264 -0.4048202 0
0.01370614 0 0.019035216 0.25019264 -0.4048202 0
0.015125465 0 0.019006215 0.25019264 -0.4048202 0
0.016540481 0 0.01897743 0.25019264 -0.4048202 0
0.017951228 0 0.018948862 0.25019264 -0.4048202 0
0 0.033948097 0.020507179 0.25019264 -0.4048202 0
0.020760065 0 0.018892372 0.25019264 -0.4048202 0
0.022158232 5.5511151e-17 0.018864447 0.25019264 -0.4048202 0
0.02355228 0 0.018836733 0.25019264 -0.4048202 0
0.024942249 0 0.018809229 0.25019264 -0.4048202 0
0.026328173 5.5511151e-17 0.018781934 0.25019264 -0.4048202 0
0.027710091 0 0.018754845 0.25019264 -0.4048202 0
0.029088037 0 0.018727964 0.25019264 -0.4048202 0
0.030462049 0 0.018701287 0.25019264 -0.4048202 0
0.031832162 5.5511151e-17 0.018674813 0.25019264 -0.4048202 0
0.033198409 0 0.018648542 0.25019264 -0.4048202 0
0.034560829 0 0.018622473 0.25019264 -0.4048202 0
0 0.067861594 0.021714026 0.25019264 -0.4048202 0
0.037274316 0 0.018570933 0.25019264 -0.4048202 0
0.038625456 0 0.018545462 0.25019264 -0.4048202 0
0.039972901 0 0.018520186 0.25019264 -0.4048202 0
0.039999999 0.0025518602 0.018611692 0.25019264 -0.4048202 0
0.039999999 0.0051824641 0.018706672 0.25019264 -0.4048202 0
0.039999999 0.0078400727 0.018802756 0.25019264 -0.4048202 0
0.039999999 0.010525142 0.018899962 0.25019264 -0.4048202 0
0.006433269 0.079999998 0.022032246 0.25019264 -0.4048202 0
0.039999999 0.015979532 0.019097816 0.25019264 -0.4048202 0
0.039999999 0.021549484 0.019300394 0.25019264 -0.4048202 0
0.039999999 0.024379047 0.019403502 0.25019264 -0.4048202 0
0.039999999 0.027239025 0.019507853 0.25019264 -0.4048202 0
0.039999999 0.03012995 0.019613469 0.25019264 -0.4048202 0
0.039999999 0.03305237 0.019720368 0.25019264 -0.4048202 0
0.039999999 0.036006842 0.019828578 0.25019264 -0.4048202 0
0.039999999 0.042014234 0.020049013 0.25019264 -0.4048202 0
0.039999999 0.045068342 0.020161288 0.25019264 -0.4048202 0
0.039999999 0.048156869 0.020274967 0.25019264 -0.4048202 0
0.039999999 0.054439716 0.020506641 0.25019264 -0.4048202 0
0.039999999 0.057635333 0.02062469 0.25019264 -0.4048202 0
0.039999999 0.06086798 0.020744247 0.25019264 -0.4048202 0
0.039999999 0.064138345 0.020865342 0.25019264 -0.4048202 0
0.039999999 0.070795089 0.021112263 0.25019264 -0.4048202 0
0.039999999 0.074182943 0.021238148 0.25019264 -0.4048202 0
0.039999999 0.077611461 0.021365691 0.25019264 -0.4048202 0
0 0.0011874269 0.018112456 0.25019264 -0.4048202 0
0.0021916383 0 0.018030457 0.25019264 -0.4048202 0
0.0036468774 0 0.018001648 0.25019264 -0.4048202 0
0.0050974833 0 0.017973052 0.25019264 -0.4048202 0
0.0065434976 0 0.017944671 0.25019264 -0.4048202 0
0 0.013345879 0.018507162 0.25019264 -0.4048202 0
0.0094219185 0 0.017888542 0.25019264 -0.4048202 0
0 0.018359303 0.01867081 0.25019264 -0.4048202 0
0.012282467 5.5511151e-17 0.017833252 0.25019264 -0.4048202 0
0.01370614 0 0.017805917 0.25019264 -0.4048202 0
0.015125465 5.5511151e-17 0.017778788 0.25019264 -0.4048202 0
0.016540481 0 0.017751861 0.25019264 -0.4048202 0
0.017951228 5.5511151e-17 0.01772514 0.25019264 -0.4048202 0
0.019357743 5.5511151e-17 0.017698618 0.25019264 -0.4048202 0
0.020760065 5.5511151e-17 0.017672297 0.25019264 -0.4048202 0
0.022158232 0 0.017646175 0.25019264 -0.4048202 0
0.02355228 0 0.017620251 0.25019264 -0.4048202 0
0.024942249 0 0.017594524 0.25019264 -0.4048202 0
0 0.047609951 0.019635238 0.25019264 -0.4048202 0
0.027710091 0 0.017543651 0.25019264 -0.4048202 0
0.029088037 5.5511151e-17 0.017518505 0.25019264 -0.4048202 0
0.030462049 0 0.017493552 0.25019264 -0.4048202 0
0.031832162 0 0.01746879 0.25019264 -0.4048202 0
0.033198409 0 0.017444214 0.25019264 -0.4048202 0
0.034560829 0 0.017419828 0.25019264 -0.4048202 0
0.035919454 5.5511151e-17 0.01739563 0.25019264 -0.4048202 0
0.037274316 0 0.017371617 0.25019264 -0.4048202 0
0.038625456 0 0.01734779 0.25019264 -0.4048202 0
0.039972901 0 0.017324146 0.25019264 -0.4048202 0
0.039999999 0.0025518602 0.017409744 0.25019264 -0.4048202 0
0.039999999 0.0051824641 0.01749859 0.25019264 -0.4048202 0
0.039999999 0.0078400727 0.017588468 0.25019264 -0.4048202 0
0.039999999 0.010525142 0.017679397 0.25019264 -0.4048202 0
0.039999999 0.013238137 0.017771393 0.25019264 -0.4048202 0
0.0080212951 0.079999998 0.020582376 0.25019264 -0.4048202 0
0.039999999 0.021549484 0.018053968 0.25019264 -0.4048202 0
0.039999999 0.024379047 0.018150419 0.25019264 -0.4048202 0
0.039999999 0.027239025 0.018248031 0.25019264 -0.4048202 0
0.039999999 0.03012995 0.018346826 0.25019264 -0.4048202 0
0.039999999 0.03305237 0.018446822 0.25019264 -0.4048202 0
0.039999999 0.036006842 0.018548042 0.25019264 -0.4048202 0
0.039999999 0.038993932 0.018650508 0.25019264 -0.4048202 0
0.039999999 0.042014234 0.018754242 0.25019264 -0.4048202 0
0.039999999 0.045068342 0.018859267 0.25019264 -0.4048202 0
0.039999999 0.048156869 0.018965604 0.25019264 -0.4048202 0
0.026764678 0.079999998 0.020274278 0.25019264 -0.4048202 0
0.039999999 0.054439716 0.019182317 0.25019264 -0.4048202 0
0.039999999 0.057635333 0.01929274 0.25019264 -0.4048202 0
0.039999999 0.06086798 0.019404577 0.25019264 -0.4048202 0
0.039999999 0.064138345 0.019517852 0.25019264 -0.4048202 0
0.039999999 0.067447141 0.019632593 0.25019264 -0.4048202 0
0.035931997 0.079999998 0.020131039 0.25019264 -0.4048202 0
0.039999999 0.074182943 0.019866582 0.25019264 -0.4048202 0
0.039999999 0.077611461 0.019985888 0.25019264 -0.4048202 0
0.00073172385 0 0.016812926 0.25019264 -0.4048202 0
0.0021916383 0 0.016785903 0.25019264 -0.4048202 0
0.0036468774 0 0.016759081 0.25019264 -0.4048202 0
0.0050974833 0 0.01673246 0.25019264 -0.4048202 0
0.0065434976 0 0.016706038 0.25019264 -0.4048202 0
0.0079849623 0 0.016679812 0.25019264 -0.4048202 0
0 0.015841557 0.017305486 0.25019264 -0.4048202 0
0.010854406 0 0.016627951 0.25019264 -0.4048202 0
0.012282467 5.5511151e-17 0.016602309 0.25019264 -0.4048202 0
0.01370614 0 0.016576862 0.25019264 -0.4048202 0
0.015125465 5.5511151e-17 0.016551604 0.25019264 -0.4048202 0
0.016540481 5.5511151e-17 0.016526537 0.25019264 -0.4048202 0
0.017951228 0 0.01650166 0.25019264 -0.4048202 0
0.019357743 0 0.016476968 0.25019264 -0.4048202 0
0 0.036629908 0.017941156 0.25019264 -0.4048202 0
0.022158232 5.5511151e-17 0.016428147 0.25019264 -0.4048202 0
0.02355228 5.5511151e-17 0.01640401 0.25019264 -0.4048202 0
0.024942249 0 0.016380059 0.25019264 -0.4048202 0
0.026328173 0 0.016356289 0.25019264 -0.4048202 0
0.027710091 5.5511151e-17 0.016332699 0.25019264 -0.4048202 0
0.029088037 0 0.016309289 0.25019264 -0.4048202 0
0.030462049 0 0.016286058 0.25019264 -0.4048202 0
0.031832162 5.5511151e-17 0.016263004 0.25019264 -0.4048202 0
0.033198409 0 0.016240126 0.25019264 -0.4048202 0
0.034560829 5.5511151e-17 0.016217424 0.25019264 -0.4048202 0
0.035919454 5.5511151e-17 0.016194895 0.25019264 -0.4048202 0
0.037274316 0 0.016172539 0.25019264 -0.4048202 0
0.038625456 0 0.016150357 0.25019264 -0.4048202 0
0.039972901 0 0.016128344 0.25019264 -0.4048202 0
0.039999999 0.0025518602 0.016208034 0.25019264 -0.4048202 0
0.039999999 0.0051824641 0.016290747 0.25019264 -0.4048202 0
0.039999999 0.0078400727 0.016374422 0.25019264 -0.4048202 0
0.0048410571 0.079999998 0.019212186 0.25019264 -0.4048202 0
0.039999999 0.013238137 0.01654472 0.25019264 -0.4048202 0
0.039999999 0.015979532 0.016631378 0.25019264 -0.4048202 0
0.039999999 0.018749816 0.016719062 0.25019264 -0.4048202 0
0.039999999 0.021549484 0.016807791 0.25019264 -0.4048202 0
0.039999999 0.024379047 0.016897583 0.25019264 -0.4048202 0
0.039999999 0.027239025 0.016988458 0.25019264 -0.4048202 0
0.039999999 0.03012995 0.017080434 0.25019264 -0.4048202 0
0.039999999 0.03305237 0.017173527 0.25019264 -0.4048202 0
0.039999999 0.036006842 0.017267762 0.25019264 -0.4048202 0
0.039999999 0.038993932 0.017363155 0.25019264 -0.4048202 0
0.039999999 0.042014234 0.017459728 0.25019264 -0.4048202 0
0.039999999 0.045068342 0.017557504 0.25019264 -0.4048202 0
0.039999999 0.048156869 0.017656501 0.25019264 -0.4048202 0
0.039999999 0.051280446 0.017756745 0.25019264 -0.4048202 0
0.039999999 0.054439716 0.017858256 0.25019264 -0.4048202 0
0.039999999 0.057635333 0.017961057 0.25019264 -0.4048202 0
0.039999999 0.06086798 0.018065173 0.25019264 -0.4048202 0
0.032890622 0.079999998 0.018785218 0.25019264 -0.4048202 0
0.034413081 0.079999998 0.018763265 0.25019264 -0.4048202 0
0.039999999 0.070795089 0.018385662 0.25019264 -0.4048202 0
0.039999999 0.074182943 0.01849529 0.25019264 -0.4048202 0
0.039999999 0.077611461 0.018606359 0.25019264 -0.4048202 0
0 0.0011874269 0.015612259 0.25019264 -0.4048202 0
0.0021916383 0 0.015541579 0.25019264 -0.4048202 0
0.0036468774 5.5511151e-17 0.015516746 0.25019264 -0.4048202 0
0.0050974833 5.5511151e-17 0.015492098 0.25019264 -0.4048202 0
0.0065434976 0 0.015467634 0.25019264 -0.4048202 0
0.0079849623 0 0.015443353 0.25019264 -0.4048202 0
0 0.015841557 0.016022645 0.25019264 -0.4048202 0
0.010854406 0 0.015395335 0.25019264 -0.4048202 0
0.012282467 0 0.015371596 0.25019264 -0.4048202 0
0.01370614 0 0.015348034 0.25019264 -0.4048202 0
0.015125465 0 0.015324649 0.25019264 -0.4048202 0
0.016540481 0 0.015301441 0.25019264 -0.4048202 0
0 0.031290799 0.016459359 0.25019264 -0.4048202 0
0.019357743 5.5511151e-17 0.015255546 0.25019264 -0.4048202 0
0.020760065 5.5511151e-17 0.015232858 0.25019264 -0.4048202 0
0.022158232 5.5511151e-17 0.015210343 0.25019264 -0.4048202 0
0.02355228 0 0.015187996 0.25019264 -0.4048202 0
0 0.044826232 0.01684515 0.25019264 -0.4048202 0
0 0.047609951 0.016924839 0.25019264 -0.4048202 0
0.027710091 0 0.015121971 0.25019264 -0.4048202 0
0.029088037 0 0.015100297 0.25019264 -0.4048202 0
0 0.056121696 0.017169215 0.25019264 -0.4048202 0
0.031832162 5.5511151e-17 0.015057442 0.25019264 -0.4048202 0
0.033198409 0 0.01503626 0.25019264 -0.4048202 0
0.034560829 5.5511151e-17 0.015015241 0.25019264 -0.4048202 0
0.035919454 5.5511151e-17 0.014994382 0.25019264 -0.4048202 0
0.037274316 0 0.014973684 0.25019264 -0.4048202 0
0.038625456 0 0.014953146 0.25019264 -0.4048202 0
0.039972901 0 0.014932766 0.25019264 -0.4048202 0
0.039999999 0.0025518602 0.015006547 0.25019264 -0.4048202 0
0.039999999 0.0051824641 0.015083129 0.25019264 -0.4048202 0
0.039999999 0.0078400727 0.015160601 0.25019264 -0.4048202 0
0.039999999 0.010525142 0.015238978 0.25019264 -0.4048202 0
0.039999999 0.013238137 0.015318275 0.25019264 -0.4048202 0
0.039999999 0.015979532 0.015398508 0.25019264 -0.4048202 0
0.009605173 0.079999998 0.017718127 0.25019264 -0.4048202 0
0.011184941 0.079999998 0.0176952 0.25019264 -0.4048202 0
0.012760636 0.079999998 0.017672451 0.25019264 -0.4048202 0
0.039999999 0.027239025 0.01572912 0.25019264 -0.4048202 0
0.039999999 0.03012995 0.015814276 0.25019264 -0.4048202 0
0.039999999 0.03305237 0.01590047 0.25019264 -0.4048202 0
0.039999999 0.036006842 0.015987718 0.25019264 -0.4048202 0
0.039999999 0.038993932 0.01607604 0.25019264 -0.4048202 0
0.039999999 0.042014234 0.016165454 0.25019264 -0.4048202 0
0.039999999 0.045068342 0.016255982 0.25019264 -0.4048202 0
0.039999999 0.048156869 0.016347641 0.25019264 -0.4048202 0
0.039999999 0.051280446 0.016440453 0.25019264 -0.4048202 0
0.039999999 0.054439716 0.016534438 0.25019264 -0.4048202 0
0.039999999 0.057635333 0.01662962 0.25019264 -0.4048202 0
0.031364586 0.079999998 0.017413178 0.25019264 -0.4048202 0
0.039999999 0.064138345 0.016823657 0.25019264 -0.4048202 0
0.039999999 0.067447141 0.01692256 0.25019264 -0.4048202 0
0.039999999 0.070795089 0.017022749 0.25019264 -0.4048202 0
0.039999999 0.074182943 0.017124251 0.25019264 -0.4048202 0
0.039999999 0.077611461 0.017227087 0.25019264 -0.4048202 0
0.00073172385 0 0.014320485 0.25019264 -0.4048202 0
0 0.0035774834 0.014423818 0.25019264 -0.4048202 0
0.0036468774 0 0.014274623 0.25019264 -0.4048202 0
0.0050974833 0 0.014251948 0.25019264 -0.4048202 0
0.0065434976 0 0.014229443 0.25019264 -0.4048202 0
0 0.013345879 0.014675478 0.25019264 -0.4048202 0
0.0094219185 0 0.014184935 0.25019264 -0.4048202 0
0.010854406 5.5511151e-17 0.014162931 0.25019264 -0.4048202 0
0 0.020899447 0.014871147 0.25019264 -0.4048202 0
0.01370614 0 0.014119416 0.25019264 -0.4048202 0
0.015125465 0 0.014097904 0.25019264 -0.4048202 0
0.016540481 0 0.014076553 0.25019264 -0.4048202 0
0.017951228 0 0.014055363 0.25019264 -0.4048202 0
0.019357743 0 0.014034333 0.25019264 -0.4048202 0
0.020760065 0 0.014013461 0.25019264 -0.4048202 0
0.022158232 0 0.013992747 0.25019264 -0.4048202 0
0.02355228 0 0.01397219 0.25019264 -0.4048202 0
0.024942249 5.5511151e-17 0.013951789 0.25019264 -0.4048202 0
0.026328173 0 0.013931543 0.25019264 -0.4048202 0
0.027710091 5.5511151e-17 0.01391145 0.25019264 -0.4048202 0
0.029088037 0 0.013891511 0.25019264 -0.4048202 0
0.030462049 5.5511151e-17 0.013871723 0.25019264 -0.4048202 0
0.031832162 0 0.013852087 0.25019264 -0.4048202 0
0.033198409 0 0.0138326 0.25019264 -0.4048202 0
0.034560829 0 0.013813264 0.25019264 -0.4048202 0
0 0.067861594 0.01610643 0.25019264 -0.4048202 0
0.037274316 0 0.013775034 0.25019264 -0.4048202 0
0.038625456 0 0.013756139 0.25019264 -0.4048202 0
0.039972901 0 0.013737391 0.25019264 -0.4048202 0
3.891806e-05 0.079999998 0.016429875 0.25019264 -0.4048202 0
0.039999999 0.0051824641 0.013875717 0.25019264 -0.4048202 0
0.039999999 0.0078400727 0.013946988 0.25019264 -0.4048202 0
0.039999999 0.010525142 0.014019091 0.25019264 -0.4048202 0
0.039999999 0.013238137 0.01409204 0.25019264 -0.4048202 0
0.039999999 0.015979532 0.01416585 0.25019264 -0.4048202 0
0.009605173 0.079999998 0.016299782 0.25019264 -0.4048202 0
0.039999999 0.021549484 0.014316112 0.25019264 -0.4048202 0
0.039999999 0.024379047 0.014392593 0.25019264 -0.4048202 0
0.039999999 0.027239025 0.014469996 0.25019264 -0.4048202 0
0.039999999 0.03012995 0.014548336 0.25019264 -0.4048202 0
0.039999999 0.03305237 0.01462763 0.25019264 -0.4048202 0
0.039999999 0.036006842 0.014707894 0.25019264 -0.4048202 0
0.039999999 0.038993932 0.014789145 0.25019264 -0.4048202 0
0.039999999 0.042014234 0.014871403 0.25019264 -0.4048202 0
0.039999999 0.045068342 0.014954682 0.25019264 -0.4048202 0
0.039999999 0.048156869 0.015039004 0.25019264 -0.4048202 0
0.039999999 0.051280446 0.015124387 0.25019264 -0.4048202 0
0.039999999 0.054439716 0.015210849 0.25019264 -0.4048202 0
0.039999999 0.057635333 0.015298411 0.25019264 -0.4048202 0
0.039999999 0.06086798 0.015387094 0.25019264 -0.4048202 0
0.032890622 0.079999998 0.016000394 0.25019264 -0.4048202 0
0.034413081 0.079999998 0.015981697 0.25019264 -0.4048202 0
0.039999999 0.070795089 0.01566007 0.25019264 -0.4048202 0
0.039999999 0.074182943 0.015753446 0.25019264 -0.4048202 0
0.039999999 0.077611461 0.01584805 0.25019264 -0.4048202 0
0 0.0011874269 0.013112918 0.25019264 -0.4048202 0
0.0021916383 0 0.013053554 0.25019264 -0.4048202 0
0.0036468774 0 0.013032696 0.25019264 -0.4048202 0
0.0050974833 0 0.013011994 0.25019264 -0.4048202 0
0.0065434976 5.5511151e-17 0.012991447 0.25019264 -0.4048202 0
0.0079849623 0 0.012971053 0.25019264 -0.4048202 0
0 0.015841557 0.013457607 0.25019264 -0.4048202 0
0 0.018359303 0.013517153 0.25019264 -0.4048202 0
0.012282467 0 0.012910782 0.25019264 -0.4048202 0
0.01370614 0 0.012890993 0.25019264 -0.4048202 0
0.015125465 0 0.012871352 0.25019264 -0.4048202 0
0 0.028657647 0.013761655 0.25019264 -0.4048202 0
0.017951228 0 0.012832512 0.25019264 -0.4048202 0
0 0.033948097 0.013887832 0.25019264 -0.4048202 0
0.020760065 0 0.012794256 0.25019264 -0.4048202 0
0 0.039336607 0.014016732 0.25019264 -0.4048202 0
0 0.042068586 0.014082229 0.25019264 -0.4048202 0
0.024942249 0 0.012737949 0.25019264 -0.4048202 0
0.026328173 0 0.012719464 0.25019264 -0.4048202 0
0.027710091 0 0.01270112 0.25019264 -0.4048202 0
0 0.05325726 0.014351452 0.25019264 -0.4048202 0
0.030462049 0 0.01266485 0.25019264 -0.4048202 0
0.031832162 0 0.012646921 0.25019264 -0.4048202 0
0.033198409 0 0.012629131 0.25019264 -0.4048202 0
0.034560829 0 0.012611476 0.25019264 -0.4048202 0
0.035919454 0 0.012593957 0.25019264 -0.4048202 0
0.037274316 0 0.012576573 0.25019264 -0.4048202 0
0.038625456 0 0.012559322 0.25019264 -0.4048202 0
0.039972901 0 0.012542204 0.25019264 -0.4048202 0
0.039999999 0.0025518602 0.012604174 0.25019264 -0.4048202 0
0.039999999 0.0051824641 0.012668496 0.25019264 -0.4048202 0
0.039999999 0.0078400727 0.012733566 0.25019264 -0.4048202 0
0.039999999 0.010525142 0.012799396 0.25019264 -0.4048202 0
0.039999999 0.013238137 0.012865999 0.25019264 -0.4048202 0
0.039999999 0.015979532 0.012933386 0.25019264 -0.4048202 0
0.039999999 0.018749816 0.013001574 0.25019264 -0.4048202 0
0.039999999 0.021549484 0.013070575 0.25019264 -0.4048202 0
0.039999999 0.024379047 0.013140403 0.25019264 -0.4048202 0
0.039999999 0.027239025 0.013211071 0.25019264 -0.4048202 0
0.039999999 0.03012995 0.013282595 0.25019264 -0.4048202 0
0.039999999 0.03305237 0.013354991 0.25019264 -0.4048202 0
0.039999999 0.036006842 0.013428271 0.25019264 -0.4048202 0
0.039999999 0.038993932 0.013502453 0.25019264 -0.4048202 0
0.039999999 0.042014234 0.013577554 0.25019264 -0.4048202 0
0.039999999 0.045068342 0.013653588 0.25019264 -0.4048202 0
0.039999999 0.048156869 0.013730574 0.25019264 -0.4048202 0
0.039999999 0.051280446 0.013808529 0.25019264 -0.4048202 0
0.039999999 0.054439716 0.013887469 0.25019264 -0.4048202 0
0.039999999 0.057635333 0.013967413 0.25019264 -0.4048202 0
0.039999999 0.064138345 0.014130387 0.25019264 -0.4048202 0
0.039999999 0.067447141 0.014213456 0.25019264 -0.4048202 0
0.039999999 0.070795089 0.014297606 0.25019264 -0.4048202 0
0.039999999 0.074182943 0.014382858 0.25019264 -0.4048202 0
0.039999999 0.077611461 0.014469231 0.25019264 -0.4048202 0
0.00073172385 0 0.01182883 0.25019264 -0.4048202 0
0.0021916383 0 0.011809818 0.25019264 -0.4048202 0
0.0036468774 0 0.011790948 0.25019264 -0.4048202 0
0.0050974833 5.5511151e-17 0.011772218 0.25019264 -0.4048202 0
0 0.010871945 0.012069287 0.25019264 -0.4048202 0
0.0079849623 0 0.011735178 0.25019264 -0.4048202 0
0 0.015841557 0.012175374 0.25019264 -0.4048202 0
0.010854406 0 0.011698689 0.25019264 -0.4048202 0
0 0.020899447 0.012283681 0.25019264 -0.4048202 0
0.01370614 0 0.011662746 0.25019264 -0.4048202 0
0.015125465 5.5511151e-17 0.011644976 0.25019264 -0.4048202 0
0.016540481 0 0.011627341 0.25019264 -0.4048202 0
0.017951228 0 0.011609837 0.25019264 -0.4048202 0
0 0.033948097 0.012564607 0.25019264 -0.4048202 0
0.020760065 0 0.011575227 0.25019264 -0.4048202 0
0.022158232 5.5511151e-17 0.011558116 0.25019264 -0.4048202 0
0.02355228 0 0.011541137 0.25019264 -0.4048202 0
0.024942249 0 0.011524284 0.25019264 -0.4048202 0
0.026328173 0 0.011507561 0.25019264 -0.4048202 0
0.027710091 0 0.011490964 0.25019264 -0.4048202 0
0.029088037 5.5511151e-17 0.011474494 0.25019264 -0.4048202 0
0.030462049 5.5511151e-17 0.011458149 0.25019264 -0.4048202 0
0.031832162 0 0.011441929 0.25019264 -0.4048202 0
0.033198409 0 0.011425834 0.25019264 -0.4048202 0
0.034560829 0 0.011409861 0.25019264 -0.4048202 0
0 0.067861594 0.013304034 0.25019264 -0.4048202 0
0.037274316 0 0.011378284 0.25019264 -0.4048202 0
0.038625456 0 0.011362677 0.25019264 -0.4048202 0
0.039972901 0 0.01134719 0.25019264 -0.4048202 0
3.891806e-05 0.079999998 0.013571202 0.25019264 -0.4048202 0
0.039999999 0.0051824641 0.011461449 0.25019264 -0.4048202 0
0.039999999 0.0078400727 0.011520319 0.25019264 -0.4048202 0
0.039999999 0.010525142 0.011579877 0.25019264 -0.4048202 0
0.039999999 0.013238137 0.011640133 0.25019264 -0.4048202 0
0.039999999 0.018749816 0.011762791 0.25019264 -0.4048202 0
0.039999999 0.021549484 0.011825218 0.25019264 -0.4048202 0
0.039999999 0.024379047 0.011888392 0.25019264 -0.4048202 0
0.014332296 0.079999998 0.013411888 0.25019264 -0.4048202 0
0.039999999 0.03012995 0.012017037 0.25019264 -0.4048202 0
0.039999999 0.03305237 0.012082534 0.25019264 -0.4048202 0
0.039999999 0.036006842 0.012148833 0.25019264 -0.4048202 0
0.039999999 0.042014234 0.012283892 0.25019264 -0.4048202 0
0.039999999 0.045068342 0.012352683 0.25019264 -0.4048202 0
0.039999999 0.048156869 0.012422333 0.25019264 -0.4048202 0
0.039999999 0.051280446 0.01249286 0.25019264 -0.4048202 0
0.039999999 0.054439716 0.012564278 0.25019264 -0.4048202 0
0.039999999 0.057635333 0.012636605 0.25019264 -0.4048202 0
0.039999999 0.06086798 0.012709857 0.25019264 -0.4048202 0
0.039999999 0.064138345 0.012784052 0.25019264 -0.4048202 0
0.034413081 0.079999998 0.013201003 0.25019264 -0.4048202 0
0.039999999 0.070795089 0.012935338 0.25019264 -0.4048202 0
0.039999999 0.074182943 0.013012467 0.25019264 -0.4048202 0
0.039999999 0.077611461 0.013090611 0.25019264 -0.4048202 0
0.00073172385 0 0.010583255 0.25019264 -0.4048202 0
0.0021916383 0 0.010566245 0.25019264 -0.4048202 0
0.0036468774 0 0.010549362 0.25019264 -0.4048202 0
0.0050974833 0 0.010532605 0.25019264 -0.4048202 0
0.0065434976 0 0.010515972 0.25019264 -0.4048202 0
0.0079849623 5.5511151e-17 0.010499464 0.25019264 -0.4048202 0
0.0094219185 0 0.01048308 0.25019264 -0.4048202 0
0.010854406 0 0.010466818 0.25019264 -0.4048202 0
0.012282467 0 0.010450678 0.25019264 -0.4048202 0
0 0.023462323 0.011039425 0.25019264 -0.4048202 0
0.015125465 0 0.010418761 0.25019264 -0.4048202 0
0.016540481 0 0.010402982 0.25019264 -0.4048202 0
0.017951228 0 0.010387322 0.25019264 -0.4048202 0
0.019357743 0 0.01037178 0.25019264 -0.4048202 0
0 0.036629908 0.011293444 0.25019264 -0.4048202 0
0.022158232 0 0.010341047 0.25019264 -0.4048202 0
0.02355228 0 0.010325855 0.25019264 -0.4048202 0
0.024942249 0 0.010310778 0.25019264 -0.4048202 0
0.026328173 0 0.010295816 0.25019264 -0.4048202 0
0.027710091 0 0.010280967 0.25019264 -0.4048202 0
0 0.05325726 0.011616834 0.25019264 -0.4048202 0
0 0.056121696 0.011672825 0.25019264 -0.4048202 0
0.031832162 0 0.010237095 0.25019264 -0.4048202 0
0.033198409 5.5511151e-17 0.010222694 0.25019264 -0.4048202 0
0.034560829 0 0.010208404 0.25019264 -0.4048202 0
0 0.067861594 0.01190312 0.25019264 -0.4048202 0
0.037274316 0 0.010180151 0.25019264 -0.4048202 0
0.038625456 0 0.010166187 0.25019264 -0.4048202 0
0.039972901 0 0.010152332 0.25019264 -0.4048202 0
0.039999999 0.0025518602 0.010202494 0.25019264 -0.4048202 0
0.039999999 0.0051824641 0.010254559 0.25019264 -0.4048202 0
0.039999999 0.0078400727 0.01030723 0.25019264 -0.4048202 0
0.039999999 0.010525142 0.010360516 0.25019264 -0.4048202 0
0.039999999 0.013238137 0.010414427 0.25019264 -0.4048202 0
0.039999999 0.015979532 0.010468976 0.25019264 -0.4048202 0
0.039999999 0.018749816 0.01052417 0.25019264 -0.4048202 0
0.011184941 0.079999998 0.012030425 0.25019264 -0.4048202 0
0.039999999 0.024379047 0.010636545 0.25019264 -0.4048202 0
0.039999999 0.027239025 0.010693748 0.25019264 -0.4048202 0
0.039999999 0.03012995 0.010751643 0.25019264 -0.4048202 0
0.039999999 0.03305237 0.010810244 0.25019264 -0.4048202 0
0.039999999 0.036006842 0.010869562 0.25019264 -0.4048202 0
0.039999999 0.038993932 0.010929609 0.25019264 -0.4048202 0
0.02213135 0.079999998 0.011924702 0.25019264 -0.4048202 0
0.039999999 0.045068342 0.011051945 0.25019264 -0.4048202 0
0.025223995 0.079999998 0.011895566 0.25019264 -0.4048202 0
0.039999999 0.051280446 0.011177362 0.25019264 -0.4048202 0
0.039999999 0.054439716 0.01124126 0.25019264 -0.4048202 0
0.039999999 0.057635333 0.011305971 0.25019264 -0.4048202 0
0.031364586 0.079999998 0.011838689 0.25019264 -0.4048202 0
0.039999999 0.067447141 0.011505132 0.25019264 -0.4048202 0
0.035931997 0.079999998 0.011797233 0.25019264 -0.4048202 0
0.039999999 0.074182943 0.011642255 0.25019264 -0.4048202 0
0.039999999 0.077611461 0.01171217 0.25019264 -0.4048202 0
0.00073172385 5.5511151e-17 0.0093378248 0.25019264 -0.4048202 0
0.0021916383 0 0.0093228165 0.25019264 -0.4048202 0
0.0036468774 0 0.00930792 0.25019264 -0.4048202 0
0.0050974833 0 0.0092931343 0.25019264 -0.4048202 0
0.0065434976 5.5511151e-17 0.0092784595 0.25019264 -0.4048202 0
0.0079849623 5.5511151e-17 0.0092638945 0.25019264 -0.4048202 0
0.0094219185 0 0.0092494385 0.25019264 -0.4048202 0
0.010854406 0 0.0092350896 0.25019264 -0.4048202 0
0 0.020899447 0.0096968897 0.25019264 -0.4048202 0
0.01370614 0 0.009206716 0.25019264 -0.4048202 0
0 0.026048273 0.0097841946 0.25019264 -0.4048202 0
0 0.028657647 0.0098285405 0.25019264 -0.4048202 0
0.017951228 5.5511151e-17 0.0091649489 0.25019264 -0.4048202 0
0.019357743 0 0.0091512362 0.25019264 -0.4048202 0
0.020760065 0 0.0091376267 0.25019264 -0.4048202 0
0 0.039336607 0.010010716 0.25019264 -0.4048202 0
0 0.042068586 0.010057494 0.25019264 -0.4048202 0
0.024942249 0 0.0090974122 0.25019264 -0.4048202 0
0 0.047609951 0.010152583 0.25019264 -0.4048202 0
0 0.050420158 0.010200911 0.25019264 -0.4048202 0
0 0.05325726 0.010249772 0.25019264 -0.4048202 0
0.030462049 0 0.0090452051 0.25019264 -0.4048202 0
0.031832162 0 0.0090324003 0.25019264 -0.4048202 0
0.033198409 5.5511151e-17 0.0090196943 0.25019264 -0.4048202 0
0.034560829 0 0.0090070851 0.25019264 -0.4048202 0
0 0.067861594 0.010502369 0.25019264 -0.4048202 0
0.037274316 0 0.0089821573 0.25019264 -0.4048202 0
0.038625456 0 0.0089698369 0.25019264 -0.4048202 0
0.039972901 0 0.0089576123 0.25019264 -0.4048202 0
0.039999999 0.0025518602 0.0090018706 0.25019264 -0.4048202 0
0.039999999 0.0051824641 0.0090478091 0.25019264 -0.4048202 0
0.039999999 0.0078400727 0.0090942821 0.25019264 -0.4048202 0
0.039999999 0.010525142 0.0091412971 0.25019264 -0.4048202 0
0.006433269 0.079999998 0.010656281 0.25019264 -0.4048202 0
0.039999999 0.015979532 0.0092369933 0.25019264 -0.4048202 0
0.039999999 0.018749816 0.0092856931 0.25019264 -0.4048202 0
0.039999999 0.021549484 0.0093349731 0.25019264 -0.4048202 0
0.039999999 0.024379047 0.0093848435 0.25019264 -0.4048202 0
0.014332296 0.079999998 0.01058751 0.25019264 -0.4048202 0
0.039999999 0.03012995 0.0094863977 0.25019264 -0.4048202 0
0.039999999 0.03305237 0.009538102 0.25019264 -0.4048202 0
0.039999999 0.036006842 0.0095904386 0.25019264 -0.4048202 0
0.039999999 0.038993932 0.0096434196 0.25019264 -0.4048202 0
0.039999999 0.042014234 0.0096970564 0.25019264 -0.4048202 0
0.039999999 0.045068342 0.0097513599 0.25019264 -0.4048202 0
0.039999999 0.051280446 0.0098620178 0.25019264 -0.4048202 0
0.039999999 0.054439716 0.0099183964 0.25019264 -0.4048202 0
0.039999999 0.06086798 0.010033318 0.25019264 -0.4048202 0
0.039999999 0.064138345 0.010091888 0.25019264 -0.4048202 0
0.039999999 0.067447141 0.010151216 0.25019264 -0.4048202 0
0.039999999 0.070795089 0.010211316 0.25019264 -0.4048202 0
0.039999999 0.074182943 0.010272202 0.25019264 -0.4048202 0
0.039999999 0.077611461 0.01033389 0.25019264 -0.4048202 0
0.00073172385 0 0.0080925226 0.25019264 -0.4048202 0
0.0021916383 0 0.0080795158 0.25019264 -0.4048202 0
0.0036468774 0 0.0080666058 0.25019264 -0.4048202 0
0.0050974833 5.5511151e-17 0.0080537926 0.25019264 -0.4048202 0
0.0065434976 0 0.0080410745 0.25019264 -0.4048202 0
0.0079849623 5.5511151e-17 0.0080284514 0.25019264 -0.4048202 0
0.0094219185 5.5511151e-17 0.0080159232 0.25019264 -0.4048202 0
0.010854406 5.5511151e-17 0.0080034891 0.25019264 -0.4048202 0
0 0.020899447 0.0084037026 0.25019264 -0.4048202 0
0 0.023462323 0.0084413346 0.25019264 -0.4048202 0
0.015125465 0 0.0079667419 0.25019264 -0.4048202 0
0 0.028657647 0.0085177962 0.25019264 -0.4048202 0
0.017951228 0 0.0079427017 0.25019264 -0.4048202 0
0.019357743 0 0.007930818 0.25019264 -0.4048202 0
0.020760065 5.5511151e-17 0.0079190228 0.25019264 -0.4048202 0
0.022158232 0 0.007907318 0.25019264 -0.4048202 0
0.02355228 0 0.0078957006 0.25019264 -0.4048202 0
0.024942249 0 0.0078841718 0.25019264 -0.4048202 0
0.026328173 0 0.0078727305 0.25019264 -0.4048202 0
0.027710091 0 0.0078613767 0.25019264 -0.4048202 0
0.029088037 0 0.0078501087 0.25019264 -0.4048202 0
0.030462049 0 0.0078389263 0.25019264 -0.4048202 0
0.031832162 5.5511151e-17 0.0078278305 0.25019264 -0.4048202 0
0.033198409 5.5511151e-17 0.0078168185 0.25019264 -0.4048202 0
0.034560829 0 0.0078058909 0.25019264 -0.4048202 0
0 0.067861594 0.0091017615 0.25019264 -0.4048202 0
0.037274316 0 0.0077842874 0.25019264 -0.4048202 0
0.038625456 0 0.0077736103 0.25019264 -0.4048202 0
0.039972901 0 0.0077630151 0.25019264 -0.4048202 0
0.039999999 0.0051824641 0.0078411838 0.25019264 -0.4048202 0
0.0032446205 0.079999998 0.0092596523 0.25019264 -0.4048202 0
0.0048410571 0.079999998 0.0092473524 0.25019264 -0.4048202 0
0.039999999 0.013238137 0.0079634283 0.25019264 -0.4048202 0
0.0080212951 0.079999998 0.0092230402 0.25019264 -0.4048202 0
0.011184941 0.079999998 0.0091991071 0.25019264 -0.4048202 0
0.039999999 0.024379047 0.0081332708 0.25019264 -0.4048202 0
0.039999999 0.027239025 0.0081770113 0.25019264 -0.4048202 0
0.015899958 0.079999998 0.0091639077 0.25019264 -0.4048202 0
0.039999999 0.03305237 0.0082660904 0.25019264 -0.4048202 0
0.039999999 0.036006842 0.0083114477 0.25019264 -0.4048202 0
0.039999999 0.038993932 0.0083573628 0.25019264 -0.4048202 0
0.039999999 0.042014234 0.008403847 0.25019264 -0.4048202 0
0.039999999 0.045068342 0.0084509086 0.25019264 -0.4048202 0
0.025223995 0.079999998 0.0090959854 0.25019264 -0.4048202 0
0.039999999 0.051280446 0.0085468087 0.25019264 -0.4048202 0
0.039999999 0.054439716 0.0085956687 0.25019264 -0.4048202 0
0.039999999 0.057635333 0.0086451499 0.25019264 -0.4048202 0
0.039999999 0.06086798 0.0086952643 0.25019264 -0.4048202 0
0.039999999 0.064138345 0.0087460233 0.25019264 -0.4048202 0
0.034413081 0.079999998 0.0090312744 0.25019264 -0.4048202 0
0.039999999 0.070795089 0.008849524 0.25019264 -0.4048202 0
0.039999999 0.074182943 0.0089022899 0.25019264 -0.4048202 0
0.039999999 0.077611461 0.0089557515 0.25019264 -0.4048202 0
0.00073172385 0 0.0068473313 0.25019264 -0.4048202 0
0.0021916383 0 0.0068363259 0.25019264 -0.4048202 0
0 0.0059880554 0.0069263633 0.25019264 -0.4048202 0
0 0.0084194411 0.0069562895 0.25019264 -0.4048202 0
0.0065434976 0 0.0068037994 0.25019264 -0.4048202 0
0.0079849623 5.5511151e-17 0.006793119 0.25019264 -0.4048202 0
0.0094219185 5.5511151e-17 0.0067825182 0.25019264 -0.4048202 0
0.010854406 0 0.0067719971 0.25019264 -0.4048202 0
0.012282467 5.5511151e-17 0.0067615546 0.25019264 -0.4048202 0
0.01370614 0 0.0067511904 0.25019264 -0.4048202 0
0 0.026048273 0.0071746497 0.25019264 -0.4048202 0
0.016540481 0 0.0067306953 0.25019264 -0.4048202 0
0.017951228 0 0.0067205634 0.25019264 -0.4048202 0
0.019357743 0 0.0067105079 0.25019264 -0.4048202 0
0.020760065 0 0.0067005279 0.25019264 -0.4048202 0
0.022158232 0 0.0066906237 0.25019264 -0.4048202 0
0.02355228 0 0.0066807945 0.25019264 -0.4048202 0
0 0.044826232 0.0074097319 0.25019264 -0.4048202 0
0.026328173 0 0.0066613588 0.25019264 -0.4048202 0
0.027710091 0 0.0066517517 0.25019264 -0.4048202 0
0.029088037 5.5511151e-17 0.0066422173 0.25019264 -0.4048202 0
0.030462049 0 0.006632756 0.25019264 -0.4048202 0
0.031832162 5.5511151e-17 0.0066233668 0.25019264 -0.4048202 0
0.033198409 0 0.0066140494 0.25019264 -0.4048202 0
0.034560829 0 0.0066048037 0.25019264 -0.4048202 0
0.035919454 0 0.0065956288 0.25019264 -0.4048202 0
0.037274316 0 0.0065865242 0.25019264 -0.4048202 0
0.038625456 0 0.0065774899 0.25019264 -0.4048202 0
0.039972901 0 0.006568525 0.25019264 -0.4048202 0
0.039999999 0.0025518602 0.0066009797 0.25019264 -0.4048202 0
0.039999999 0.0051824641 0.0066346661 0.25019264 -0.4048202 0
0.0032446205 0.079999998 0.007834875 0.25019264 -0.4048202 0
0.039999999 0.010525142 0.0067032198 0.25019264 -0.4048202 0
0.039999999 0.013238137 0.0067381007 0.25019264 -0.4048202 0
0.039999999 0.015979532 0.0067733927 0.25019264 -0.4048202 0
0.009605173 0.079999998 0.0077937315 0.25019264 -0.4048202 0
0.039999999 0.021549484 0.00684524 0.25019264 -0.4048202 0
0.039999999 0.024379047 0.0068818098 0.25019264 -0.4048202 0
0.039999999 0.027239025 0.0069188196 0.25019264 -0.4048202 0
0.039999999 0.03012995 0.0069562779 0.25019264 -0.4048202 0
0.039999999 0.03305237 0.0069941925 0.25019264 -0.4048202 0
0.039999999 0.036006842 0.0070325704 0.25019264 -0.4048202 0
0.020579318 0.079999998 0.0077247829 0.25019264 -0.4048202 0
0.039999999 0.042014234 0.0071107522 0.25019264 -0.4048202 0
0.023679564 0.079999998 0.0077057797 0.25019264 -0.4048202 0
0.039999999 0.048156869 0.0071908911 0.25019264 -0.4048202 0
0.039999999 0.051280446 0.0072317165 0.25019264 -0.4048202 0
0.039999999 0.054439716 0.0072730584 0.25019264 -0.4048202 0
0.039999999 0.057635333 0.007314926 0.25019264 -0.4048202 0
0.039999999 0.06086798 0.0073573296 0.25019264 -0.4048202 0
0.032890622 0.079999998 0.0076505789 0.25019264 -0.4048202 0
0.039999999 0.067447141 0.0074437824 0.25019264 -0.4048202 0
0.039999999 0.070795089 0.0074878531 0.25019264 -0.4048202 0
0.039999999 0.074182943 0.0075325007 0.25019264 -0.4048202 0
0.039999999 0.077611461 0.0075777359 0.25019264 -0.4048202 0
0.00073172385 0 0.005602234 0.25019264 -0.4048202 0
0.0021916383 0 0.00559323 0.25019264 -0.4048202 0
0.0036468774 5.5511151e-17 0.0055842926 0.25019264 -0.4048202 0
0.0050974833 0 0.0055754222 0.25019264 -0.4048202 0
0.0065434976 0 0.0055666179 0.25019264 -0.4048202 0
0.0079849623 5.5511151e-17 0.0055578793 0.25019264 -0.4048202 0
0.0094219185 5.5511151e-17 0.0055492064 0.25019264 -0.4048202 0
0.010854406 0 0.0055405982 0.25019264 -0.4048202 0
0.012282467 0 0.0055320547 0.25019264 -0.4048202 0
0.01370614 0 0.005523575 0.25019264 -0.4048202 0
0 0.026048273 0.005870034 0.25019264 -0.4048202 0
0.016540481 0 0.005506807 0.25019264 -0.4048202 0
0.017951228 0 0.0054985173 0.25019264 -0.4048202 0
0.019357743 5.5511151e-17 0.00549029 0.25019264 -0.4048202 0
0.020760065 0 0.0054821251 0.25019264 -0.4048202 0
0.022158232 5.5511151e-17 0.0054740217 0.25019264 -0.4048202 0
0 0.042068586 0.0060339998 0.25019264 -0.4048202 0
0.024942249 5.5511151e-17 0.0054579987 0.25019264 -0.4048202 0
0.026328173 0 0.0054500783 0.25019264 -0.4048202 0
0 0.050420158 0.0061200433 0.25019264 -0.4048202 0
0.029088037 0 0.0054344176 0.25019264 -0.4048202 0
0.030462049 0 0.0054266765 0.25019264 -0.4048202 0
0.031832162 5.5511151e-17 0.0054189945 0.25019264 -0.4048202 0
0.033198409 5.5511151e-17 0.0054113716 0.25019264 -0.4048202 0
0 0.064883389 0.0062699132 0.25019264 -0.4048202 0
0.035919454 0 0.0053963 0.25019264 -0.4048202 0
0.037274316 0 0.0053888513 0.25019264 -0.4048202 0
0.038625456 0 0.0053814598 0.25019264 -0.4048202 0
0.039972901 0 0.0053741252 0.25019264 -0.4048202 0
3.891806e-05 0.079999998 0.0064274361 0.25019264 -0.4048202 0
0.039999999 0.0051824641 0.0054282392 0.25019264 -0.4048202 0
0.039999999 0.0078400727 0.0054561202 0.25019264 -0.4048202 0
0.039999999 0.010525142 0.0054843272 0.25019264 -0.4048202 0
0.039999999 0.013238137 0.0055128653 0.25019264 -0.4048202 0
0.0080212951 0.079999998 0.0063848607 0.25019264 -0.4048202 0
0.039999999 0.018749816 0.0055709574 0.25019264 -0.4048202 0
0.039999999 0.021549484 0.0056005232 0.25019264 -0.4048202 0
0.039999999 0.024379047 0.0056304429 0.25019264 -0.4048202 0
0.039999999 0.027239025 0.0056607234 0.25019264 -0.4048202 0
0.039999999 0.03012995 0.00569137 0.25019264 -0.4048202 0
0.039999999 0.03305237 0.00572239 0.25019264 -0.4048202 0
0.039999999 0.036006842 0.00575379 0.25019264 -0.4048202 0
0.039999999 0.038993932 0.0057855761 0.25019264 -0.4048202 0
0.039999999 0.042014234 0.0058177551 0.25019264 -0.4048202 0
0.039999999 0.045068342 0.0058503347 0.25019264 -0.4048202 0
0.039999999 0.048156869 0.0058833221 0.25019264 -0.4048202 0
0.039999999 0.051280446 0.005916724 0.25019264 -0.4048202 0
0.039999999 0.054439716 0.0059505482 0.25019264 -0.4048202 0
0.039999999 0.057635333 0.0059848027 0.25019264 -0.4048202 0
0.039999999 0.06086798 0.0060194954 0.25019264 -0.4048202 0
0.032890622 0.079999998 0.0062594214 0.25019264 -0.4048202 0
0.039999999 0.067447141 0.0060902284 0.25019264 -0.4048202 0
0.035931997 0.079999998 0.0062448517 0.25019264 -0.4048202 0
0.039999999 0.074182943 0.0061628143 0.25019264 -0.4048202 0
0.039999999 0.077611461 0.0061998242 0.25019264 -0.4048202 0
0 0.0011874269 0.0043699942 0.25019264 -0.4048202 0
0.0021916383 0 0.0043502105 0.25019264 -0.4048202 0
0.0036468774 0 0.0043432591 0.25019264 -0.4048202 0
0 0.0084194411 0.0044265478 0.25019264 -0.4048202 0
0.0065434976 0 0.0043295124 0.25019264 -0.4048202 0
0.0079849623 0 0.004322716 0.25019264 -0.4048202 0
0.0094219185 5.5511151e-17 0.0043159705 0.25019264 -0.4048202 0
0.010854406 0 0.0043092757 0.25019264 -0.4048202 0
0.012282467 5.5511151e-17 0.0043026307 0.25019264 -0.4048202 0
0.01370614 0 0.0042960355 0.25019264 -0.4048202 0
0.015125465 5.5511151e-17 0.0042894902 0.25019264 -0.4048202 0
0 0.028657647 0.0045861914 0.25019264 -0.4048202 0
0 0.031290799 0.0046071042 0.25019264 -0.4048202 0
0.019357743 0 0.0042701475 0.25019264 -0.4048202 0
0.020760065 0 0.0042637968 0.25019264 -0.4048202 0
0.022158232 0 0.0042574946 0.25019264 -0.4048202 0
0.02355228 0 0.0042512398 0.25019264 -0.4048202 0
0.024942249 0 0.0042450326 0.25019264 -0.4048202 0
0.026328173 0 0.0042388723 0.25019264 -0.4048202 0
