# .PCD v0.7 - Point Cloud Data file format
VERSION 0.7
FIELDS x y z
SIZE 4 4 4
TYPE F F F
COUNT 1 1 1
WIDTH 1372
HEIGHT 1
VIEWPOINT 0 0 0 1 0 0 0
POINTS 1372
DATA ascii
0.015448043 0.032016777 0.53000003
0.016411556 0.032016777 0.53000003
0.026550297 0.033889454 0.56100005
0.02752102 0.033829045 0.56
0.028539071 0.033829045 0.56
0.029557122 0.033829045 0.56
0.030520575 0.033768639 0.55900002
0.031593226 0.033829045 0.56
0.032611273 0.033829045 0.56
0.033629324 0.033829045 0.56
0.034647375 0.033829045 0.56
0.035665426 0.033829045 0.56
0.036617972 0.033768639 0.55900002
0.037634205 0.033768639 0.55900002
0.038650438 0.033768639 0.55900002
0.039737631 0.033829045 0.56
0.040682904 0.033768639 0.55900002
0.041699138 0.033768639 0.55900002
0.042715371 0.033768639 0.55900002
0.043731604 0.033768639 0.55900002
0.044667784 0.03370823 0.55800003
0.045682199 0.03370823 0.55800003
0.046696614 0.03370823 0.55800003
0.047625527 0.033647817 0.55700004
0.048550807 0.033587407 0.55600005
0.049561586 0.033587407 0.55600005
0.050572362 0.033587407 0.55600005
0.051490366 0.033527002 0.55500001
0.052499328 0.033527002 0.55500001
0.053411879 0.033466592 0.55400002
0.05432079 0.033406183 0.55300003
0.055326115 0.033406183 0.55300003
0.056331441 0.033406183 0.55300003
0.057233084 0.033345774 0.55200005
0.058131091 0.033285365 0.551
0.059132781 0.033285365 0.551
0.060134467 0.033285365 0.551
0.061025206 0.033224955 0.55000001
0.062025078 0.033224955 0.55000001
0.063024946 0.033224955 0.55000001
0.064141229 0.033285365 0.551
0.065142915 0.033285365 0.551
0.066264644 0.033345774 0.55200005
0.067390017 0.033406183 0.55300003
0.068642706 0.033527002 0.55500001
0.069902666 0.033647817 0.55700004
0.071042575 0.03370823 0.55800003
0.072186127 0.033768639 0.55900002
0.073333308 0.033829045 0.56
0.074616902 0.033949863 0.56200004
0.07577318 0.034010272 0.56300002
0.076933086 0.034070682 0.56400001
0.078234859 0.0341915 0.56600004
0.079543903 0.034312315 0.56800002
0.08086022 0.034433138 0.57000005
0.082183808 0.034553953 0.57200003
0.083514668 0.034674771 0.574
0.084558167 0.034674771 0.574
0.085750796 0.03473518 0.57500005
0.086947069 0.03479559 0.57600003
0.08799421 0.03479559 0.57600003
-0.10065202 0.036275249 0.583
-0.099592157 0.036275249 0.583
-0.098532297 0.036275249 0.583
-0.097305246 0.036213025 0.58200002
-0.09591645 0.036088586 0.58000004
-0.094534934 0.035964139 0.57800001
-0.093322419 0.035901919 0.57700002
-0.09211354 0.035839695 0.57600003
-0.090750195 0.035715252 0.574
-0.089550413 0.035653032 0.57300001
-0.088199802 0.035528589 0.57100004
-0.087009102 0.035466366 0.57000005
-0.085671216 0.035341922 0.56800002
-0.084638618 0.035341922 0.56800002
-0.083606027 0.035341922 0.56800002
-0.081410423 0.034844149 0.56
-0.080392376 0.034844149 0.56
-0.079374321 0.034844149 0.56
-0.07807643 0.034719706 0.55800003
-0.076923907 0.034657486 0.55700004
-0.075502455 0.034470819 0.55400002
-0.074226379 0.034346376 0.55200005
-0.07295756 0.034221932 0.55000001
-0.071696028 0.034097489 0.54800004
-0.070699796 0.034097489 0.54800004
-0.069449164 0.033973046 0.546
-0.068331189 0.033910826 0.54500002
-0.067216843 0.033848602 0.54400003
-0.066106141 0.033786379 0.54300004
-0.065118998 0.033786379 0.54300004
-0.064131849 0.033786379 0.54300004
-0.063260995 0.033848602 0.54400003
-0.062500969 0.033973046 0.546
-0.061508369 0.033973046 0.546
-0.060515769 0.033973046 0.546
-0.059741203 0.034097489 0.54800004
-0.058744971 0.034097489 0.54800004
-0.057643354 0.034035269 0.54700005
-0.056545373 0.033973046 0.546
-0.055552773 0.033973046 0.546
-0.0546601 0.034035269 0.54700005
-0.053567573 0.033973046 0.546
-0.052574977 0.033973046 0.546
-0.05205474 0.034284156 0.551
-0.051053051 0.034284156 0.551
-0.050323874 0.034470819 0.55400002
-0.04940575 0.034533042 0.55500001
-0.048309587 0.034470819 0.55400002
-0.047046293 0.034284156 0.551
-0.046378866 0.034533042 0.55500001
-0.045451652 0.034595262 0.55600005
-0.044520807 0.034657486 0.55700004
-0.043508209 0.034657486 0.55700004
-0.042953372 0.035030816 0.56300002
-0.041780915 0.034906372 0.56100005
-0.040761046 0.034906372 0.56100005
-0.027048189 0.033101942 0.53200001
-0.026081041 0.033101942 0.53200001
-0.025113892 0.033101942 0.53200001
-0.024146743 0.033101942 0.53200001
-0.023136025 0.033039719 0.53100002
-0.022170695 0.033039719 0.53100002
-0.021245299 0.033101942 0.53200001
-0.02027815 0.033101942 0.53200001
-0.019311002 0.033101942 0.53200001
-0.018343853 0.033101942 0.53200001
-0.017376706 0.033101942 0.53200001
-0.016378712 0.033039719 0.53100002
-0.015413382 0.033039719 0.53100002
-0.014448051 0.033039719 0.53100002
-0.013482721 0.033039719 0.53100002
-0.012517391 0.033039719 0.53100002
-0.01155206 0.033039719 0.53100002
-0.010566792 0.032977499 0.53000003
-0.0096032806 0.032977499 0.53000003
-0.0086397678 0.032977499 0.53000003
-0.0076762554 0.032977499 0.53000003
-0.0067127426 0.032977499 0.53000003
-0.0057492298 0.032977499 0.53000003
-0.0047857175 0.032977499 0.53000003
-0.0038294171 0.033039719 0.53100002
-0.0028640865 0.033039719 0.53100002
-0.0018987561 0.033039719 0.53100002
-0.00093342579 0.033039719 0.53100002
3.1964773e-05 0.033101942 0.53200001
0.00099911308 0.033101942 0.53200001
0.0019662615 0.033101942 0.53200001
0.0029334098 0.033101942 0.53200001
0.0039005585 0.033101942 0.53200001
0.0048677069 0.033101942 0.53200001
0.0058348551 0.033101942 0.53200001
0.0068020034 0.033101942 0.53200001
0.0077691516 0.033101942 0.53200001
0.0087363003 0.033101942 0.53200001
0.009685209 0.033039719 0.53100002
0.010650539 0.033039719 0.53100002
0.01161587 0.033039719 0.53100002
0.012604893 0.033101942 0.53200001
0.013495508 0.032915276 0.52900004
0.014457203 0.032915276 0.52900004
0.015418896 0.032915276 0.52900004
0.016380591 0.032915276 0.52900004
0.025575938 0.034968592 0.56200004
0.026597623 0.034968592 0.56200004
0.027570166 0.034906372 0.56100005
0.028590035 0.034906372 0.56100005
0.029609904 0.034906372 0.56100005
0.030575173 0.034844149 0.56
0.031536806 0.034781929 0.55900002
0.032553039 0.034781929 0.55900002
0.033569273 0.034781929 0.55900002
0.034585506 0.034781929 0.55900002
0.035601739 0.034781929 0.55900002
0.036552466 0.034719706 0.55800003
0.037566882 0.034719706 0.55800003
0.038650438 0.034781929 0.55900002
0.039666671 0.034781929 0.55900002
0.040610127 0.034719706 0.55800003
0.041624542 0.034719706 0.55800003
0.042638954 0.034719706 0.55800003
0.043653369 0.034719706 0.55800003
0.044667784 0.034719706 0.55800003
0.045682199 0.034719706 0.55800003
0.046696614 0.034719706 0.55800003
0.047625527 0.034657486 0.55700004
0.048638124 0.034657486 0.55700004
0.049561586 0.034595262 0.55600005
0.050572362 0.034595262 0.55600005
0.051490366 0.034533042 0.55500001
0.052404735 0.034470819 0.55400002
0.053315464 0.034408599 0.55300003
0.05432079 0.034408599 0.55300003
0.055326115 0.034408599 0.55300003
0.056229576 0.034346376 0.55200005
0.057129402 0.034284156 0.551
0.058025587 0.034221932 0.55000001
0.059025459 0.034221932 0.55000001
0.060134467 0.034284156 0.551
0.061025206 0.034221932 0.55000001
0.062025078 0.034221932 0.55000001
0.063024946 0.034221932 0.55000001
0.064141229 0.034284156 0.551
0.06526114 0.034346376 0.55200005
0.066264644 0.034346376 0.55200005
0.067511879 0.034470819 0.55400002
0.068642706 0.034533042 0.55500001
0.069902666 0.034657486 0.55700004
0.071042575 0.034719706 0.55800003
0.072186127 0.034781929 0.55900002
0.073333308 0.034844149 0.56
0.074616902 0.034968592 0.56200004
0.07577318 0.035030816 0.56300002
0.077069491 0.035155259 0.565
0.078373082 0.035279702 0.56700003
0.079683945 0.035404146 0.56900001
0.08086022 0.035466366 0.57000005
0.082183808 0.035590809 0.57200003
0.083514668 0.035715252 0.574
0.084558167 0.035715252 0.574
0.085750796 0.035777476 0.57500005
0.08679612 0.035777476 0.57500005
0.08799421 0.035839695 0.57600003
-0.10065202 0.037332043 0.583
-0.099592157 0.037332043 0.583
-0.098532297 0.037332043 0.583
-0.097305246 0.037268009 0.58200002
-0.09591645 0.037139941 0.58000004
-0.094534934 0.037011873 0.57800001
-0.093322419 0.036947835 0.57700002
-0.09211354 0.036883801 0.57600003
-0.090908304 0.036819771 0.57500005
-0.089550413 0.036691699 0.57300001
-0.088199802 0.036563631 0.57100004
-0.08716175 0.036563631 0.57100004
-0.085822046 0.036435563 0.56900001
-0.084787637 0.036435563 0.56900001
-0.082281277 0.035795219 0.55900002
-0.081265047 0.035795219 0.55900002
-0.08024881 0.035795219 0.55900002
-0.079232581 0.035795219 0.55900002
-0.07807643 0.035731185 0.55800003
-0.076923907 0.035667151 0.55700004
-0.075502455 0.035475049 0.55400002
-0.074226379 0.035346977 0.55200005
-0.07295756 0.035218909 0.55000001
-0.071696028 0.035090841 0.54800004
-0.070699796 0.035090841 0.54800004
-0.069576368 0.035026807 0.54700005
-0.068581946 0.035026807 0.54700005
-0.067340411 0.034898739 0.54500002
-0.066349626 0.034898739 0.54500002
-0.065358847 0.034898739 0.54500002
-0.064368062 0.034898739 0.54500002
-0.063493565 0.034962773 0.546
-0.062615439 0.035026807 0.54700005
-0.061621025 0.035026807 0.54700005
-0.060626607 0.035026807 0.54700005
-0.059741203 0.035090841 0.54800004
-0.058744971 0.035090841 0.54800004
-0.057748735 0.035090841 0.54800004
-0.056752499 0.035090841 0.54800004
-0.055654518 0.035026807 0.54700005
-0.0546601 0.035026807 0.54700005
-0.053665683 0.035026807 0.54700005
-0.053441592 0.035539083 0.55500001
-0.052432634 0.035539083 0.55500001
-0.051423673 0.035539083 0.55500001
-0.050414711 0.035539083 0.55500001
-0.04940575 0.035539083 0.55500001
-0.048396789 0.035539083 0.55500001
-0.047387827 0.035539083 0.55500001
-0.046546001 0.035667151 0.55700004
-0.045615148 0.035731185 0.55800003
-0.044840522 0.035923287 0.56100005
-0.043820653 0.035923287 0.56100005
-0.042953372 0.036051359 0.56300002
-0.041855391 0.035987321 0.56200004
-0.040761046 0.035923287 0.56100005
-0.02501948 0.033938222 0.53000003
-0.024055967 0.033938222 0.53000003
-0.023136025 0.034002256 0.53100002
-0.022128941 0.033938222 0.53000003
-0.021205364 0.034002256 0.53100002
-0.02027815 0.03406629 0.53200001
-0.019311002 0.03406629 0.53200001
-0.018343853 0.03406629 0.53200001
-0.017376706 0.03406629 0.53200001
-0.016378712 0.034002256 0.53100002
-0.015413382 0.034002256 0.53100002
-0.014448051 0.034002256 0.53100002
-0.013482721 0.034002256 0.53100002
-0.012517391 0.034002256 0.53100002
-0.01155206 0.034002256 0.53100002
-0.010566792 0.033938222 0.53000003
-0.0096032806 0.033938222 0.53000003
-0.0086397678 0.033938222 0.53000003
-0.0076762554 0.033938222 0.53000003
-0.0067127426 0.033938222 0.53000003
-0.0057492298 0.033938222 0.53000003
-0.0047857175 0.033938222 0.53000003
-0.0038294171 0.034002256 0.53100002
-0.0028640865 0.034002256 0.53100002
-0.0018951802 0.033938222 0.53000003
-0.00093342579 0.034002256 0.53100002
3.1964773e-05 0.03406629 0.53200001
0.00099911308 0.03406629 0.53200001
0.0019625654 0.034002256 0.53100002
0.0029334098 0.03406629 0.53200001
0.0039005585 0.03406629 0.53200001
0.0048677069 0.03406629 0.53200001
0.005823887 0.034002256 0.53100002
0.0067892172 0.034002256 0.53100002
0.007754548 0.034002256 0.53100002
0.0087363003 0.03406629 0.53200001
0.009685209 0.034002256 0.53100002
0.010650539 0.034002256 0.53100002
0.011637745 0.03406629 0.53200001
0.012604893 0.03406629 0.53200001
0.01354653 0.034002256 0.53100002
0.014484531 0.033938222 0.53000003
0.015448043 0.033938222 0.53000003
0.016380591 0.033874188 0.52900004
0.024466868 0.035859253 0.56
0.02548492 0.035859253 0.56
0.026502969 0.035859253 0.56
0.02752102 0.035859253 0.56
0.028539071 0.035859253 0.56
0.029557122 0.035859253 0.56
0.030520575 0.035795219 0.55900002
0.031480391 0.035731185 0.55800003
0.032494806 0.035731185 0.55800003
0.033509221 0.035731185 0.55800003
0.034523636 0.035731185 0.55800003
0.035474364 0.035667151 0.55700004
0.036421455 0.035603113 0.55600005
0.037432235 0.035603113 0.55600005
0.038443014 0.035603113 0.55600005
0.039524749 0.035667151 0.55700004
0.040537346 0.035667151 0.55700004
0.041549943 0.035667151 0.55700004
0.042562541 0.035667151 0.55700004
0.043575138 0.035667151 0.55700004
0.044587735 0.035667151 0.55700004
0.045682199 0.035731185 0.55800003
0.046696614 0.035731185 0.55800003
0.047625527 0.035667151 0.55700004
0.048463482 0.035539083 0.55500001
0.049561586 0.035603113 0.55600005
0.050481405 0.035539083 0.55500001
0.051490366 0.035539083 0.55500001
0.052404735 0.035475049 0.55400002
0.053315464 0.035411011 0.55300003
0.05432079 0.035411011 0.55300003
0.055226069 0.035346977 0.55200005
0.056127712 0.035282947 0.551
0.057129402 0.035282947 0.551
0.058025587 0.035218909 0.55000001
0.059025459 0.035218909 0.55000001
0.060025334 0.035218909 0.55000001
0.060914248 0.035154875 0.54900002
0.062025078 0.035218909 0.55000001
0.063024946 0.035218909 0.55000001
0.064141229 0.035282947 0.551
0.06526114 0.035346977 0.55200005
0.066264644 0.035346977 0.55200005
0.067511879 0.035475049 0.55400002
0.068642706 0.035539083 0.55500001
0.069902666 0.035667151 0.55700004
0.071042575 0.035731185 0.55800003
0.072186127 0.035795219 0.55900002
0.073333308 0.035859253 0.56
0.074616902 0.035987321 0.56200004
0.075907767 0.036115389 0.56400001
0.077069491 0.036179423 0.565
0.078373082 0.036307495 0.56700003
0.079543903 0.036371525 0.56800002
0.081002079 0.036563631 0.57100004
0.082327478 0.036691699 0.57300001
0.083660156 0.036819771 0.57500005
0.084705479 0.036819771 0.57500005
0.085899934 0.036883801 0.57600003
0.086947069 0.036883801 0.57600003
0.088146977 0.036947835 0.57700002
0.089041345 0.036883801 0.57600003
-0.10065202 0.038388841 0.583
-0.099592157 0.038388841 0.583
-0.098363288 0.038322993 0.58200002
-0.097305246 0.038322993 0.58200002
-0.09591645 0.0381913 0.58000004
-0.094698481 0.038125452 0.57900006
-0.093322419 0.037993755 0.57700002
-0.09211354 0.037927907 0.57600003
-0.090908304 0.037862062 0.57500005
-0.089706697 0.037796218 0.574
-0.08835426 0.037664521 0.57200003
-0.08716175 0.037598677 0.57100004
-0.085972868 0.037532829 0.57000005
-0.084936641 0.037532829 0.57000005
-0.082281277 0.036808513 0.55900002
-0.081265047 0.036808513 0.55900002
-0.08024881 0.036808513 0.55900002
-0.079232581 0.036808513 0.55900002
-0.077936508 0.036676817 0.55700004
-0.076923907 0.036676817 0.55700004
-0.075502455 0.036479276 0.55400002
-0.074091904 0.036281735 0.551
-0.072824918 0.036150038 0.54900002
-0.071696028 0.03608419 0.54800004
-0.070699796 0.03608419 0.54800004
-0.069703557 0.03608419 0.54800004
-0.068581946 0.036018346 0.54700005
-0.067587532 0.036018346 0.54700005
-0.066593111 0.036018346 0.54700005
-0.065598696 0.036018346 0.54700005
-0.064722382 0.03608419 0.54800004
-0.063726142 0.03608419 0.54800004
-0.06272991 0.03608419 0.54800004
-0.061733674 0.03608419 0.54800004
-0.060737438 0.03608419 0.54800004
-0.059850223 0.036150038 0.54900002
-0.05885217 0.036150038 0.54900002
-0.057854116 0.036150038 0.54900002
-0.05778813 0.036742665 0.55800003
-0.056773715 0.036742665 0.55800003
-0.0557593 0.036742665 0.55800003
-0.054842994 0.036808513 0.55900002
-0.052527104 0.036610968 0.55600005
-0.051516324 0.036610968 0.55600005
-0.050505549 0.036610968 0.55600005
-0.049494769 0.036610968 0.55600005
-0.04848399 0.036610968 0.55600005
-0.047643978 0.036742665 0.55800003
-0.046713129 0.036808513 0.55900002
-0.045778643 0.036874358 0.56
-0.045000382 0.037071899 0.56300002
-0.043898765 0.03700605 0.56200004
-0.042953372 0.037071899 0.56300002
-0.041929867 0.037071899 0.56300002
-0.040833704 0.03700605 0.56200004
-0.026032016 0.034964792 0.53100002
-0.025113892 0.035030637 0.53200001
-0.024146743 0.035030637 0.53200001
-0.023136025 0.034964792 0.53100002
-0.022128941 0.034898948 0.53000003
-0.021245299 0.035030637 0.53200001
-0.02027815 0.035030637 0.53200001
-0.019311002 0.035030637 0.53200001
-0.018343853 0.035030637 0.53200001
-0.017344043 0.034964792 0.53100002
-0.016378712 0.034964792 0.53100002
-0.015413382 0.034964792 0.53100002
-0.014448051 0.034964792 0.53100002
-0.013482721 0.034964792 0.53100002
-0.012517391 0.034964792 0.53100002
-0.011530305 0.034898948 0.53000003
-0.010566792 0.034898948 0.53000003
-0.0096032806 0.034898948 0.53000003
-0.0086397678 0.034898948 0.53000003
-0.0076762554 0.034898948 0.53000003
-0.0067127426 0.034898948 0.53000003
-0.0057492298 0.034898948 0.53000003
-0.0047947476 0.034964792 0.53100002
-0.0038294171 0.034964792 0.53100002
-0.0028640865 0.034964792 0.53100002
-0.0018987561 0.034964792 0.53100002
-0.00093518361 0.035030637 0.53200001
3.1964773e-05 0.035030637 0.53200001
0.00099911308 0.035030637 0.53200001
0.0019625654 0.034964792 0.53100002
0.0029278959 0.034964792 0.53100002
0.0038932262 0.034964792 0.53100002
0.0048585567 0.034964792 0.53100002
0.0058129192 0.034898948 0.53000003
0.0067892172 0.034964792 0.53100002
0.007754548 0.034964792 0.53100002
0.0087363003 0.035030637 0.53200001
0.009703449 0.035030637 0.53200001
0.010650539 0.034964792 0.53100002
0.011637745 0.035030637 0.53200001
0.012604893 0.035030637 0.53200001
0.01354653 0.034964792 0.53100002
0.014484531 0.034898948 0.53000003
0.015448043 0.034898948 0.53000003
0.025393903 0.036742665 0.55800003
0.026408317 0.036742665 0.55800003
0.027422732 0.036742665 0.55800003
0.028488111 0.036808513 0.55900002
0.029504344 0.036808513 0.55900002
0.030465975 0.036742665 0.55800003
0.031480391 0.036742665 0.55800003
0.032494806 0.036742665 0.55800003
0.033509221 0.036742665 0.55800003
0.034523636 0.036742665 0.55800003
0.035474364 0.036676817 0.55700004
0.036421455 0.036610968 0.55600005
0.037364911 0.036545124 0.55500001
0.038373873 0.036545124 0.55500001
0.039453793 0.036610968 0.55600005
0.040464573 0.036610968 0.55600005
0.041475352 0.036610968 0.55600005
0.042486131 0.036610968 0.55600005
0.04349691 0.036610968 0.55600005
0.04450769 0.036610968 0.55600005
0.045600332 0.036676817 0.55700004
0.04661293 0.036676817 0.55700004
0.047540028 0.036610968 0.55600005
0.048463482 0.036545124 0.55500001
0.049472444 0.036545124 0.55500001
0.050481405 0.036545124 0.55500001
0.050840937 0.03608419 0.54800004
0.052310143 0.036413427 0.55300003
0.053315464 0.036413427 0.55300003
0.05432079 0.036413427 0.55300003
0.055226069 0.036347579 0.55200005
0.056127712 0.036281735 0.551
0.057025716 0.036215886 0.55000001
0.058025587 0.036215886 0.55000001
0.059025459 0.036215886 0.55000001
0.060025334 0.036215886 0.55000001
0.060914248 0.036150038 0.54900002
0.062025078 0.036215886 0.55000001
0.063024946 0.036215886 0.55000001
0.064141229 0.036281735 0.551
0.06526114 0.036347579 0.55200005
0.066384695 0.036413427 0.55300003
0.067511879 0.036479276 0.55400002
0.068642706 0.036545124 0.55500001
0.069902666 0.036676817 0.55700004
0.071169898 0.036808513 0.55900002
0.072315261 0.036874358 0.56
0.073595218 0.03700605 0.56200004
0.074882448 0.037137743 0.56400001
0.076042354 0.037203591 0.565
0.077069491 0.037203591 0.565
0.078234859 0.03726944 0.56600004
0.079543903 0.037401132 0.56800002
0.081002079 0.037598677 0.57100004
0.082471162 0.037796218 0.574
0.083805658 0.037927907 0.57600003
0.084852792 0.037927907 0.57600003
0.086049065 0.037993755 0.57700002
0.087098017 0.037993755 0.57700002
0.088146977 0.037993755 0.57700002
0.089195929 0.037993755 0.57700002
-0.10065202 0.039445635 0.583
-0.099592157 0.039445635 0.583
-0.098363288 0.039377976 0.58200002
-0.097305246 0.039377976 0.58200002
-0.09591645 0.039242659 0.58000004
-0.094534934 0.039107338 0.57800001
-0.093322419 0.039039675 0.57700002
-0.09211354 0.038972016 0.57600003
-0.090908304 0.038904358 0.57500005
-0.089706697 0.038836699 0.574
-0.08835426 0.038701378 0.57200003
-0.08716175 0.038633719 0.57100004
-0.086123705 0.038633719 0.57100004
-0.081692509 0.037551165 0.55500001
-0.080683544 0.037551165 0.55500001
-0.079674587 0.037551165 0.55500001
-0.078665622 0.037551165 0.55500001
-0.077656664 0.037551165 0.55500001
-0.076647699 0.037551165 0.55500001
-0.075502455 0.037483502 0.55400002
-0.074091904 0.037280526 0.551
-0.07295756 0.037212864 0.55000001
-0.071696028 0.037077542 0.54800004
-0.070699796 0.037077542 0.54800004
-0.069703557 0.037077542 0.54800004
-0.068707325 0.037077542 0.54800004
-0.067587532 0.037009887 0.54700005
-0.066593111 0.037009887 0.54700005
-0.065718614 0.037077542 0.54800004
-0.064722382 0.037077542 0.54800004
-0.063842438 0.037145205 0.54900002
-0.062844381 0.037145205 0.54900002
-0.063198157 0.037957121 0.56100005
-0.062178288 0.037957121 0.56100005
-0.061158422 0.037957121 0.56100005
-0.060352948 0.038092442 0.56300002
-0.059118688 0.037957121 0.56100005
-0.05778813 0.037754141 0.55800003
-0.056773715 0.037754141 0.55800003
-0.0557593 0.037754141 0.55800003
-0.054842994 0.037821803 0.55900002
-0.053923052 0.037889458 0.56
-0.052905001 0.037889458 0.56
-0.051794294 0.037821803 0.55900002
-0.050687224 0.037754141 0.55800003
-0.049583789 0.037686482 0.55700004
-0.048571192 0.037686482 0.55700004
-0.04815628 0.038160097 0.56400001
-0.047047392 0.038092442 0.56300002
-0.046023887 0.038092442 0.56300002
-0.045080312 0.038160097 0.56400001
-0.044054989 0.038160097 0.56400001
-0.043029666 0.038160097 0.56400001
-0.042004343 0.038160097 0.56400001
-0.04097902 0.038160097 0.56400001
-0.030916784 0.035994988 0.53200001
-0.029949635 0.035994988 0.53200001
-0.028982485 0.035994988 0.53200001
-0.028015338 0.035994988 0.53200001
-0.026997346 0.035927325 0.53100002
-0.026032016 0.035927325 0.53100002
-0.02501948 0.03585967 0.53000003
-0.024101356 0.035927325 0.53100002
-0.023092454 0.03585967 0.53000003
-0.022128941 0.03585967 0.53000003
-0.021205364 0.035927325 0.53100002
-0.020240033 0.035927325 0.53100002
-0.019274704 0.035927325 0.53100002
-0.018343853 0.035994988 0.53200001
-0.017344043 0.035927325 0.53100002
-0.016378712 0.035927325 0.53100002
-0.015413382 0.035927325 0.53100002
-0.014448051 0.035927325 0.53100002
-0.01345733 0.03585967 0.53000003
-0.012517391 0.035927325 0.53100002
-0.011530305 0.03585967 0.53000003
-0.010566792 0.03585967 0.53000003
-0.0096032806 0.03585967 0.53000003
-0.0086397678 0.03585967 0.53000003
-0.0076762554 0.03585967 0.53000003
-0.0067127426 0.03585967 0.53000003
-0.0057600779 0.035927325 0.53100002
-0.0047947476 0.035927325 0.53100002
-0.0038294171 0.035927325 0.53100002
-0.0028694803 0.035994988 0.53200001
-0.0018987561 0.035927325 0.53100002
-0.00093518361 0.035994988 0.53200001
3.1904689e-05 0.035927325 0.53100002
0.00099911308 0.035994988 0.53200001
0.0019625654 0.035927325 0.53100002
0.0029278959 0.035927325 0.53100002
0.0038932262 0.035927325 0.53100002
0.0048585567 0.035927325 0.53100002
0.005823887 0.035927325 0.53100002
0.0067892172 0.035927325 0.53100002
0.007754548 0.035927325 0.53100002
0.0087198783 0.035927325 0.53100002
0.009685209 0.035927325 0.53100002
0.010650539 0.035927325 0.53100002
0.01161587 0.035927325 0.53100002
0.0125812 0.035927325 0.53100002
0.01354653 0.035927325 0.53100002
0.014484531 0.03585967 0.53000003
0.015418896 0.035792008 0.52900004
0.023281327 0.03761882 0.55600005
0.024292106 0.03761882 0.55600005
0.025302885 0.03761882 0.55600005
0.026313663 0.03761882 0.55600005
0.027324442 0.03761882 0.55600005
0.028284259 0.037551165 0.55500001
0.029346 0.03761882 0.55600005
0.030302182 0.037551165 0.55500001
0.031311143 0.037551165 0.55500001
0.032320105 0.037551165 0.55500001
0.033329066 0.037551165 0.55500001
0.034338027 0.037551165 0.55500001
0.035346989 0.037551165 0.55500001
0.03635595 0.037551165 0.55500001
0.037297588 0.037483502 0.55400002
0.038304731 0.037483502 0.55400002
0.039240912 0.037415843 0.55300003
0.040391795 0.037551165 0.55500001
0.041400757 0.037551165 0.55500001
0.042409718 0.037551165 0.55500001
0.043340445 0.037483502 0.55400002
0.044347588 0.037483502 0.55400002
0.044863526 0.037077542 0.54800004
0.045943446 0.037145205 0.54900002
0.0469415 0.037145205 0.54900002
0.047852229 0.037077542 0.54800004
0.048937608 0.037145205 0.54900002
0.049844701 0.037077542 0.54800004
0.050840937 0.037077542 0.54800004
0.051647983 0.036942225 0.546
0.052640583 0.036942225 0.546
0.054026105 0.037212864 0.55000001
0.055025972 0.037212864 0.55000001
0.05592398 0.037145205 0.54900002
0.056818351 0.037077542 0.54800004
0.057814587 0.037077542 0.54800004
0.058810823 0.037077542 0.54800004
0.059916195 0.037145205 0.54900002
0.060803294 0.037077542 0.54800004
0.061912302 0.037145205 0.54900002
0.062910356 0.037145205 0.54900002
0.064141229 0.037280526 0.551
0.06526114 0.037348181 0.55200005
0.066264644 0.037348181 0.55200005
0.067511879 0.037483502 0.55400002
0.068642706 0.037551165 0.55500001
0.071042575 0.037754141 0.55800003
0.072315261 0.037889458 0.56
0.073595218 0.038024779 0.56200004
0.07501521 0.038227759 0.565
0.076042354 0.038227759 0.565
0.077069491 0.038227759 0.565
0.078373082 0.03836308 0.56700003
0.079683945 0.038498398 0.56900001
0.081143938 0.038701378 0.57200003
0.082471162 0.038836699 0.574
0.083805658 0.038972016 0.57600003
0.085000105 0.039039675 0.57700002
0.086049065 0.039039675 0.57700002
0.087098017 0.039039675 0.57700002
0.088299736 0.039107338 0.57800001
0.089350514 0.039107338 0.57800001
-0.10188635 0.040571906 0.58400005
-0.10065202 0.040502433 0.583
-0.099762991 0.040571906 0.58400005
-0.098532297 0.040502433 0.583
-0.097305246 0.04043296 0.58200002
-0.09591645 0.040294014 0.58000004
-0.094534934 0.040155068 0.57800001
-0.093322419 0.040085595 0.57700002
-0.09211354 0.040016122 0.57600003
-0.090908304 0.039946653 0.57500005
-0.089706697 0.03987718 0.574
-0.08835426 0.039738234 0.57200003
-0.08716175 0.039668761 0.57100004
-0.086123705 0.039668761 0.57100004
-0.080974296 0.038696148 0.55700004
-0.079818144 0.038626675 0.55600005
-0.078949101 0.038696148 0.55700004
-0.077796586 0.038626675 0.55600005
-0.07678581 0.038626675 0.55600005
-0.075638741 0.038557205 0.55500001
-0.07436084 0.038418259 0.55300003
-0.073355518 0.038418259 0.55300003
-0.07182686 0.038140368 0.54900002
-0.070699796 0.038070895 0.54800004
-0.069703557 0.038070895 0.54800004
-0.068707325 0.038070895 0.54800004
-0.067711085 0.038070895 0.54800004
-0.066714853 0.038070895 0.54800004
-0.065958463 0.038209841 0.55000001
-0.065076701 0.038279314 0.551
-0.064218029 0.038974036 0.56100005
-0.063198157 0.038974036 0.56100005
-0.062178288 0.038974036 0.56100005
-0.061267439 0.039043508 0.56200004
-0.060352948 0.039112985 0.56300002
-0.059118688 0.038974036 0.56100005
-0.058098819 0.038974036 0.56100005
-0.056977205 0.038904563 0.56
-0.055959154 0.038904563 0.56
-0.054941103 0.038904563 0.56
-0.053923052 0.038904563 0.56
-0.052999474 0.038974036 0.56100005
-0.051979605 0.038974036 0.56100005
-0.051050574 0.039043508 0.56200004
-0.050028887 0.039043508 0.56200004
-0.049268801 0.039251927 0.565
-0.048241664 0.039251927 0.565
-0.047214523 0.039251927 0.565
-0.046187382 0.039251927 0.565
-0.045160241 0.039251927 0.565
-0.044133101 0.039251927 0.565
-0.04310596 0.039251927 0.565
-0.042078819 0.039251927 0.565
-0.029949635 0.036959335 0.53200001
-0.028982485 0.036959335 0.53200001
-0.028015338 0.036959335 0.53200001
-0.026997346 0.036889862 0.53100002
-0.026032016 0.036889862 0.53100002
-0.02501948 0.036820393 0.53000003
-0.024055967 0.036820393 0.53000003
-0.023092454 0.036820393 0.53000003
-0.022128941 0.036820393 0.53000003
-0.021165431 0.036820393 0.53000003
-0.020201918 0.036820393 0.53000003
-0.019274704 0.036889862 0.53100002
-0.018309373 0.036889862 0.53100002
-0.017344043 0.036889862 0.53100002
-0.016347868 0.036820393 0.53000003
-0.015413382 0.036889862 0.53100002
-0.014420843 0.036820393 0.53000003
-0.013482721 0.036889862 0.53100002
-0.012517391 0.036889862 0.53100002
-0.01155206 0.036889862 0.53100002
-0.010566792 0.036820393 0.53000003
-0.0096213995 0.036889862 0.53100002
-0.0086560687 0.036889862 0.53100002
-0.0076907384 0.036889862 0.53100002
-0.0067127426 0.036820393 0.53000003
-0.0057492298 0.036820393 0.53000003
-0.0047947476 0.036889862 0.53100002
-0.0038294171 0.036889862 0.53100002
-0.0028694803 0.036959335 0.53200001
-0.0018987561 0.036889862 0.53100002
-0.00093342579 0.036889862 0.53100002
3.1904689e-05 0.036889862 0.53100002
0.00099723507 0.036889862 0.53100002
0.0019625654 0.036889862 0.53100002
0.002922382 0.036820393 0.53000003
0.0038858945 0.036820393 0.53000003
0.0048494069 0.036820393 0.53000003
0.005823887 0.036889862 0.53100002
0.0067892172 0.036889862 0.53100002
0.007754548 0.036889862 0.53100002
0.0087198783 0.036889862 0.53100002
0.009703449 0.036959335 0.53200001
0.010650539 0.036889862 0.53100002
0.011637745 0.036959335 0.53200001
0.012604893 0.036959335 0.53200001
0.01354653 0.036889862 0.53100002
0.014511861 0.036889862 0.53100002
0.015477191 0.036889862 0.53100002
0.023239452 0.038557205 0.55500001
0.024248414 0.038557205 0.55500001
0.025257375 0.038557205 0.55500001
0.026266336 0.038557205 0.55500001
0.027275298 0.038557205 0.55500001
0.028233295 0.038487732 0.55400002
0.029240439 0.038487732 0.55400002
0.030302182 0.038557205 0.55500001
0.031254727 0.038487732 0.55400002
0.032261871 0.038487732 0.55400002
0.033269014 0.038487732 0.55400002
0.034214288 0.038418259 0.55300003
0.035155922 0.038348783 0.55200005
0.036224935 0.038418259 0.55300003
0.037230261 0.038418259 0.55300003
0.038235586 0.038418259 0.55300003
0.03902803 0.038209841 0.55000001
0.040027902 0.038209841 0.55000001
0.041027773 0.038209841 0.55000001
0.042027645 0.038209841 0.55000001
0.043027516 0.038209841 0.55000001
0.04386729 0.038070895 0.54800004
0.044863526 0.038070895 0.54800004
0.045859758 0.038070895 0.54800004
0.046855994 0.038070895 0.54800004
0.047852229 0.038070895 0.54800004
0.048848465 0.038070895 0.54800004
0.049844701 0.038070895 0.54800004
0.050748162 0.038001426 0.54700005
0.051647983 0.037931953 0.546
0.052544173 0.03786248 0.54500002
0.05482588 0.038070895 0.54800004
0.055822115 0.038070895 0.54800004
0.056818351 0.038070895 0.54800004
0.057709083 0.038001426 0.54700005
0.058810823 0.038070895 0.54800004
0.059807062 0.038070895 0.54800004
0.060803294 0.038070895 0.54800004
0.06179953 0.038070895 0.54800004
0.062910356 0.038140368 0.54900002
0.064141229 0.038279314 0.551
0.06526114 0.038348783 0.55200005
0.066384695 0.038418259 0.55300003
0.067633748 0.038557205 0.55500001
0.068642706 0.038557205 0.55500001
0.069777161 0.038626675 0.55600005
0.071169898 0.038835093 0.55900002
0.072315261 0.038904563 0.56
0.073595218 0.039043508 0.56200004
0.07501521 0.039251927 0.565
0.076042354 0.039251927 0.565
0.077205904 0.0393214 0.56600004
0.078787759 0.039599288 0.57000005
0.080244109 0.039807707 0.57300001
0.081427664 0.03987718 0.574
0.082614839 0.039946653 0.57500005
0.083951153 0.040085595 0.57700002
0.085000105 0.040085595 0.57700002
0.086198188 0.040155068 0.57800001
0.087098017 0.040085595 0.57700002
0.088299736 0.040155068 0.57800001
0.089350514 0.040155068 0.57800001
-0.10065202 0.041559227 0.583
-0.099762991 0.041630514 0.58400005
-0.098532297 0.041559227 0.583
-0.097305246 0.04148794 0.58200002
-0.09591645 0.041345373 0.58000004
-0.094698481 0.041274086 0.57900006
-0.093322419 0.041131515 0.57700002
-0.09211354 0.041060228 0.57600003
-0.090908304 0.040988948 0.57500005
-0.089706697 0.040917661 0.574
-0.08835426 0.04077509 0.57200003
-0.087314397 0.04077509 0.57200003
-0.086123705 0.040703807 0.57100004
-0.084194794 0.04077509 0.57200003
-0.080974296 0.039705813 0.55700004
-0.079961702 0.039705813 0.55700004
-0.078949101 0.039705813 0.55700004
-0.077936508 0.039705813 0.55700004
-0.076923907 0.039705813 0.55700004
-0.075638741 0.039563246 0.55500001
-0.074629776 0.039563246 0.55500001
-0.073620819 0.039563246 0.55500001
-0.07182686 0.039135531 0.54900002
-0.070699796 0.039064247 0.54800004
-0.069703557 0.039064247 0.54800004
-0.068707325 0.039064247 0.54800004
-0.067711085 0.039064247 0.54800004
-0.067810535 0.039705813 0.55700004
-0.066797934 0.039705813 0.55700004
-0.065903448 0.0397771 0.55800003
-0.065005317 0.039848384 0.55900002
-0.064103559 0.039919667 0.56
-0.063198157 0.039990954 0.56100005
-0.062178288 0.039990954 0.56100005
-0.061267439 0.040062241 0.56200004
-0.060352948 0.040133525 0.56300002
-0.059224065 0.040062241 0.56200004
-0.058202378 0.040062241 0.56200004
-0.05707895 0.039990954 0.56100005
-0.056059081 0.039990954 0.56100005
-0.055039212 0.039990954 0.56100005
-0.054115634 0.040062241 0.56200004
-0.053093947 0.040062241 0.56200004
-0.052164916 0.040133525 0.56300002
-0.051141411 0.040133525 0.56300002
-0.050117906 0.040133525 0.56300002
-0.049181603 0.040204808 0.56400001
-0.048241664 0.040276095 0.565
-0.047214523 0.040276095 0.565
-0.046187382 0.040276095 0.565
-0.045160241 0.040276095 0.565
-0.044133101 0.040276095 0.565
-0.04310596 0.040276095 0.565
-0.042153295 0.040347379 0.56600004
-0.031823996 0.037852399 0.53100002
-0.030916784 0.037923686 0.53200001
-0.029949635 0.037923686 0.53200001
-0.028982485 0.037923686 0.53200001
-0.027910016 0.037781116 0.53000003
-0.026946504 0.037781116 0.53000003
-0.025982993 0.037781116 0.53000003
-0.025066687 0.037852399 0.53100002
-0.024101356 0.037852399 0.53100002
-0.023092454 0.037781116 0.53000003
-0.022128941 0.037781116 0.53000003
-0.021165431 0.037781116 0.53000003
-0.020240033 0.037852399 0.53100002
-0.019274704 0.037852399 0.53100002
-0.018309373 0.037852399 0.53100002
-0.017344043 0.037852399 0.53100002
-0.016347868 0.037781116 0.53000003
-0.015413382 0.037852399 0.53100002
-0.014420843 0.037781116 0.53000003
-0.013482721 0.037852399 0.53100002
-0.012493818 0.037781116 0.53000003
-0.011530305 0.037781116 0.53000003
-0.010566792 0.037781116 0.53000003
-0.0096032806 0.037781116 0.53000003
-0.0086397678 0.037781116 0.53000003
-0.0076762554 0.037781116 0.53000003
-0.0067127426 0.037781116 0.53000003
-0.0057492298 0.037781116 0.53000003
-0.0047857175 0.037781116 0.53000003
-0.0038222051 0.037781116 0.53000003
-0.0028586925 0.037781116 0.53000003
-0.0018951802 0.037781116 0.53000003
-0.00093166786 0.037781116 0.53000003
3.1904689e-05 0.037852399 0.53100002
0.00099723507 0.037852399 0.53100002
0.0019625654 0.037852399 0.53100002
0.002922382 0.037781116 0.53000003
0.0038858945 0.037781116 0.53000003
0.0048494069 0.037781116 0.53000003
0.005823887 0.037852399 0.53100002
0.0067892172 0.037852399 0.53100002
0.007754548 0.037852399 0.53100002
0.0087198783 0.037852399 0.53100002
0.009703449 0.037923686 0.53200001
0.010670597 0.037923686 0.53200001
0.011637745 0.037923686 0.53200001
0.012604893 0.037923686 0.53200001
0.013572042 0.037923686 0.53200001
0.014511861 0.037852399 0.53100002
0.015477191 0.037852399 0.53100002
0.023239452 0.039563246 0.55500001
0.024248414 0.039563246 0.55500001
0.025257375 0.039563246 0.55500001
0.026266336 0.039563246 0.55500001
0.027226152 0.039491959 0.55400002
0.028182335 0.039420672 0.55300003
0.029187661 0.039420672 0.55300003
0.030192984 0.039420672 0.55300003
0.03119831 0.039420672 0.55300003
0.032203637 0.039420672 0.55300003
0.033148907 0.039349388 0.55200005
0.034028675 0.039206818 0.55000001
0.034964856 0.039135531 0.54900002
0.036093924 0.039278105 0.551
0.037095614 0.039278105 0.551
0.037959017 0.039135531 0.54900002
0.038957071 0.039135531 0.54900002
0.039955124 0.039135531 0.54900002
0.040729389 0.038921677 0.546
0.041874819 0.039064247 0.54800004
0.042871054 0.039064247 0.54800004
0.043787237 0.038992964 0.54700005
0.044781655 0.038992964 0.54700005
0.045692388 0.038921677 0.546
0.046770491 0.038992964 0.54700005
0.047677588 0.038921677 0.546
0.048759326 0.038992964 0.54700005
0.049753744 0.038992964 0.54700005
0.050655387 0.038921677 0.546
0.051553391 0.038850393 0.54500002
0.052544173 0.038850393 0.54500002
0.053338498 0.038707819 0.54300004
0.054525737 0.038850393 0.54500002
0.055516519 0.038850393 0.54500002
0.056610983 0.038921677 0.546
0.057603583 0.038921677 0.546
0.058703501 0.038992964 0.54700005
0.059807062 0.039064247 0.54800004
0.060803294 0.039064247 0.54800004
0.06179953 0.039064247 0.54800004
0.062910356 0.039135531 0.54900002
0.064141229 0.039278105 0.551
0.06526114 0.039349388 0.55200005
0.066384695 0.039420672 0.55300003
0.067633748 0.039563246 0.55500001
0.068642706 0.039563246 0.55500001
0.069777161 0.039634526 0.55600005
0.071042575 0.0397771 0.55800003
0.072315261 0.039919667 0.56
0.073595218 0.040062241 0.56200004
0.074882448 0.040204808 0.56400001
0.076176941 0.040347379 0.56600004
0.077342302 0.040418666 0.56700003
0.078787759 0.04063252 0.57000005
0.080244109 0.040846374 0.57300001
0.081285797 0.040846374 0.57300001
0.082614839 0.040988948 0.57500005
0.083951153 0.041131515 0.57700002
0.085147418 0.041202802 0.57800001
0.086049065 0.041131515 0.57700002
0.087098017 0.041131515 0.57700002
0.088299736 0.041202802 0.57800001
0.089350514 0.041202802 0.57800001
-0.10082467 0.042689122 0.58400005
-0.099762991 0.042689122 0.58400005
-0.098532297 0.042616025 0.583
-0.097305246 0.042542923 0.58200002
-0.096081823 0.042469826 0.58100003
-0.094698481 0.04232363 0.57900006
-0.093322419 0.042177435 0.57700002
-0.09211354 0.042104337 0.57600003
-0.091066398 0.042104337 0.57600003
-0.08986298 0.04203124 0.57500005
-0.088663191 0.041958142 0.574
-0.087314397 0.041811943 0.57200003
-0.086274527 0.041811943 0.57200003
-0.085234664 0.041811943 0.57200003
-0.084194794 0.041811943 0.57200003
-0.08082892 0.040642381 0.55600005
-0.079818144 0.040642381 0.55600005
-0.078807369 0.040642381 0.55600005
-0.077796586 0.040642381 0.55600005
-0.07678581 0.040642381 0.55600005
-0.075638741 0.040569287 0.55500001
-0.07436084 0.040423088 0.55300003
-0.073090218 0.040276892 0.551
-0.071957693 0.040203795 0.55000001
-0.07082881 0.040130697 0.54900002
-0.069957949 0.040203795 0.55000001
-0.068958081 0.040203795 0.55000001
-0.067958206 0.040203795 0.55000001
-0.067810535 0.040715478 0.55700004
-0.066917866 0.040788576 0.55800003
-0.065903448 0.040788576 0.55800003
-0.065121613 0.040934771 0.56
-0.064103559 0.040934771 0.56
-0.063198157 0.041007869 0.56100005
-0.062178288 0.041007869 0.56100005
-0.061376452 0.041154068 0.56300002
-0.06046015 0.041227162 0.56400001
-0.059329446 0.041154068 0.56300002
-0.058202378 0.04108097 0.56200004
-0.057180695 0.04108097 0.56200004
-0.056059081 0.041007869 0.56100005
-0.055137321 0.04108097 0.56200004
-0.054115634 0.04108097 0.56200004
-0.053093947 0.04108097 0.56200004
-0.052164916 0.041154068 0.56300002
-0.051323082 0.04130026 0.565
-0.050295942 0.04130026 0.565
-0.049268801 0.04130026 0.565
-0.048327044 0.041373361 0.56600004
-0.047298085 0.041373361 0.56600004
-0.046269126 0.041373361 0.56600004
-0.045320097 0.041446459 0.56700003
-0.044289321 0.041446459 0.56700003
-0.043258544 0.041446459 0.56700003
-0.042302243 0.041519552 0.56800002
-0.031764064 0.038741838 0.53000003
-0.030800553 0.038741838 0.53000003
-0.02983704 0.038741838 0.53000003
-0.028982485 0.038888033 0.53200001
-0.028015338 0.038888033 0.53200001
-0.027048189 0.038888033 0.53200001
-0.026081041 0.038888033 0.53200001
-0.025113892 0.038888033 0.53200001
-0.024146743 0.038888033 0.53200001
-0.023136025 0.038814936 0.53100002
-0.022170695 0.038814936 0.53100002
-0.021205364 0.038814936 0.53100002
-0.020240033 0.038814936 0.53100002
-0.019274704 0.038814936 0.53100002
-0.018309373 0.038814936 0.53100002
-0.017344043 0.038814936 0.53100002
-0.016347868 0.038741838 0.53000003
-0.015413382 0.038814936 0.53100002
-0.014420843 0.038741838 0.53000003
-0.013482721 0.038814936 0.53100002
-0.012517391 0.038814936 0.53100002
-0.011530305 0.038741838 0.53000003
-0.010566792 0.038741838 0.53000003
-0.0096032806 0.038741838 0.53000003
-0.0086397678 0.038741838 0.53000003
-0.0076907384 0.038814936 0.53100002
-0.0067127426 0.038741838 0.53000003
-0.0057492298 0.038741838 0.53000003
-0.0047857175 0.038741838 0.53000003
-0.0038222051 0.038741838 0.53000003
-0.0028586925 0.038741838 0.53000003
-0.0018951802 0.038741838 0.53000003
-0.00093166786 0.038741838 0.53000003
3.1904689e-05 0.038814936 0.53100002
0.00099723507 0.038814936 0.53100002
0.0019625654 0.038814936 0.53100002
0.002922382 0.038741838 0.53000003
0.0038858945 0.038741838 0.53000003
0.0048494069 0.038741838 0.53000003
0.005823887 0.038814936 0.53100002
0.0067892172 0.038814936 0.53100002
0.0077691516 0.038888033 0.53200001
0.0087363003 0.038888033 0.53200001
0.009703449 0.038888033 0.53200001
0.010670597 0.038888033 0.53200001
0.011637745 0.038888033 0.53200001
0.012604893 0.038888033 0.53200001
0.013572042 0.038888033 0.53200001
0.014539191 0.038888033 0.53200001
0.015477191 0.038814936 0.53100002
0.01709279 0.04034999 0.55200005
0.019099806 0.04034999 0.55200005
0.021106821 0.04034999 0.55200005
0.022110328 0.04034999 0.55200005
0.023113836 0.04034999 0.55200005
0.024161033 0.040423088 0.55300003
0.025166359 0.040423088 0.55300003
0.026171684 0.040423088 0.55300003
0.02717701 0.040423088 0.55300003
0.028182335 0.040423088 0.55300003
0.029187661 0.040423088 0.55300003
0.030138386 0.04034999 0.55200005
0.031085476 0.040276892 0.551
0.032087166 0.040276892 0.551
0.032968752 0.040130697 0.54900002
0.033966802 0.040130697 0.54900002
0.034901168 0.0400576 0.54800004
0.035962909 0.040130697 0.54900002
0.03689364 0.0400576 0.54800004
0.037889875 0.0400576 0.54800004
0.038886111 0.0400576 0.54800004
0.039736789 0.039911404 0.546
0.040729389 0.039911404 0.546
0.041721988 0.039911404 0.546
0.042792819 0.039984502 0.54700005
0.043707188 0.039911404 0.546
0.044699788 0.039911404 0.546
0.045608703 0.039838307 0.54500002
0.046599485 0.039838307 0.54500002
0.047590263 0.039838307 0.54500002
0.048581045 0.039838307 0.54500002
0.049571827 0.039838307 0.54500002
0.050562609 0.039838307 0.54500002
0.051458802 0.039765205 0.54400003
0.052447766 0.039765205 0.54400003
0.053338498 0.039692108 0.54300004
0.054325644 0.039692108 0.54300004
0.055414658 0.039765205 0.54400003
0.056507301 0.039838307 0.54500002
0.057498083 0.039838307 0.54500002
0.058703501 0.039984502 0.54700005
0.059697919 0.039984502 0.54700005
0.060803294 0.0400576 0.54800004
0.06179953 0.0400576 0.54800004
0.063024946 0.040203795 0.55000001
0.064257629 0.04034999 0.55200005
0.065379366 0.040423088 0.55300003
0.066384695 0.040423088 0.55300003
0.067633748 0.040569287 0.55500001
0.068642706 0.040569287 0.55500001
0.069777161 0.040642381 0.55600005
0.071169898 0.040861677 0.55900002
0.072702669 0.041154068 0.56300002
0.07372617 0.041154068 0.56300002
0.07501521 0.04130026 0.565
0.076176941 0.041373361 0.56600004
0.077478714 0.041519552 0.56800002
0.078925982 0.041738849 0.57100004
0.080244109 0.041885044 0.57300001
0.081427664 0.041958142 0.574
0.082614839 0.04203124 0.57500005
0.083951153 0.042177435 0.57700002
0.085000105 0.042177435 0.57700002
0.086198188 0.042250533 0.57800001
0.087098017 0.042177435 0.57700002
0.088299736 0.042250533 0.57800001
-0.10082467 0.043747731 0.58400005
-0.099762991 0.043747731 0.58400005
-0.098532297 0.043672819 0.583
-0.097305246 0.043597907 0.58200002
-0.096081823 0.043522995 0.58100003
-0.094698481 0.043373175 0.57900006
-0.093484156 0.043298267 0.57800001
-0.092273459 0.043223355 0.57700002
-0.091066398 0.043148443 0.57600003
-0.08986298 0.043073535 0.57500005
-0.088663191 0.042998623 0.574
-0.087467045 0.042923711 0.57300001
-0.086425364 0.042923711 0.57300001
-0.085383676 0.042923711 0.57300001
-0.084194794 0.042848799 0.57200003
-0.083154932 0.042848799 0.57200003
-0.079674587 0.041575324 0.55500001
-0.077656664 0.041575324 0.55500001
-0.076647699 0.041575324 0.55500001
-0.075502455 0.041500416 0.55400002
-0.074226379 0.041350592 0.55200005
-0.073090218 0.041275684 0.551
-0.071957693 0.041200772 0.55000001
-0.070957825 0.041200772 0.55000001
-0.069957949 0.041200772 0.55000001
-0.068958081 0.041200772 0.55000001
-0.068823129 0.041725144 0.55700004
-0.067810535 0.041725144 0.55700004
-0.066797934 0.041725144 0.55700004
-0.066021554 0.041874968 0.55900002
-0.065121613 0.041949876 0.56
-0.064103559 0.041949876 0.56
-0.063198157 0.042024788 0.56100005
-0.062289126 0.042099699 0.56200004
-0.061376452 0.042174608 0.56300002
-0.060352948 0.042174608 0.56300002
-0.059329446 0.042174608 0.56300002
-0.058305942 0.042174608 0.56300002
-0.057180695 0.042099699 0.56200004
-0.056159008 0.042099699 0.56200004
-0.055137321 0.042099699 0.56200004
-0.054115634 0.042099699 0.56200004
-0.053188421 0.042174608 0.56300002
-0.052257571 0.042249516 0.56400001
-0.051323082 0.042324428 0.565
-0.050295942 0.042324428 0.565
-0.049356002 0.042399339 0.56600004
-0.048497811 0.042549159 0.56800002
-0.047465216 0.042549159 0.56800002
-0.046350874 0.042474251 0.56700003
-0.044367433 0.042549159 0.56800002
-0.043411132 0.042624071 0.56900001
-0.032789327 0.039777473 0.53100002
-0.031823996 0.039777473 0.53100002
-0.030800553 0.039702564 0.53000003
-0.02983704 0.039702564 0.53000003
-0.028873529 0.039702564 0.53000003
-0.027910016 0.039702564 0.53000003
-0.026946504 0.039702564 0.53000003
-0.026032016 0.039777473 0.53100002
-0.025113892 0.039852381 0.53200001
-0.024146743 0.039852381 0.53200001
-0.023136025 0.039777473 0.53100002
-0.022170695 0.039777473 0.53100002
-0.021205364 0.039777473 0.53100002
-0.020240033 0.039777473 0.53100002
-0.019274704 0.039777473 0.53100002
-0.018309373 0.039777473 0.53100002
-0.017344043 0.039777473 0.53100002
-0.016378712 0.039777473 0.53100002
-0.015413382 0.039777473 0.53100002
-0.014448051 0.039777473 0.53100002
-0.013482721 0.039777473 0.53100002
-0.012517391 0.039777473 0.53100002
-0.01155206 0.039777473 0.53100002
-0.01058673 0.039777473 0.53100002
-0.0096213995 0.039777473 0.53100002
-0.0086397678 0.039702564 0.53000003
-0.0076762554 0.039702564 0.53000003
-0.0067127426 0.039702564 0.53000003
-0.0057492298 0.039702564 0.53000003
-0.0047857175 0.039702564 0.53000003
-0.0038222051 0.039702564 0.53000003
-0.0028586925 0.039702564 0.53000003
-0.0018987561 0.039777473 0.53100002
-0.00093166786 0.039702564 0.53000003
3.1844604e-05 0.039702564 0.53000003
0.00099535706 0.039702564 0.53000003
0.0019625654 0.039777473 0.53100002
0.002922382 0.039702564 0.53000003
0.0038858945 0.039702564 0.53000003
0.0048494069 0.039702564 0.53000003
0.005823887 0.039777473 0.53100002
0.0067892172 0.039777473 0.53100002
0.007754548 0.039777473 0.53100002
0.0087198783 0.039777473 0.53100002
0.009703449 0.039852381 0.53200001
0.010670597 0.039852381 0.53200001
0.011637745 0.039852381 0.53200001
0.012604893 0.039852381 0.53200001
0.013572042 0.039852381 0.53200001
0.014539191 0.039852381 0.53200001
0.016089285 0.041350592 0.55200005
0.01709279 0.041350592 0.55200005
0.018096298 0.041350592 0.55200005
0.019099806 0.041350592 0.55200005
0.020103313 0.041350592 0.55200005
0.021106821 0.041350592 0.55200005
0.022110328 0.041350592 0.55200005
0.023113836 0.041350592 0.55200005
0.024117343 0.041350592 0.55200005
0.025120851 0.041350592 0.55200005
0.026171684 0.041425504 0.55300003
0.02717701 0.041425504 0.55300003
0.028131371 0.041350592 0.55200005
0.029134879 0.041350592 0.55200005
0.030083787 0.041275684 0.551
0.03102906 0.041200772 0.55000001
0.031912461 0.041050948 0.54800004
0.032908697 0.041050948 0.54800004
0.033904932 0.041050948 0.54800004
0.034901168 0.041050948 0.54800004
0.035897404 0.041050948 0.54800004
0.036826316 0.04097604 0.54700005
0.037751589 0.040901132 0.546
0.038744189 0.040901132 0.546
0.039736789 0.040901132 0.546
0.040654793 0.04082622 0.54500002
0.041645575 0.04082622 0.54500002
0.042714588 0.040901132 0.546
0.043627139 0.04082622 0.54500002
0.044617921 0.04082622 0.54500002
0.045357648 0.040601488 0.54200006
0.046342976 0.040601488 0.54200006
0.047328304 0.040601488 0.54200006
0.048313629 0.040601488 0.54200006
0.049480874 0.040751308 0.54400003
0.050377063 0.040676396 0.54300004
0.051269613 0.040601488 0.54200006
0.052254941 0.040601488 0.54200006
0.053240269 0.040601488 0.54200006
0.054325644 0.040676396 0.54300004
0.055414658 0.040751308 0.54400003
0.056507301 0.04082622 0.54500002
0.057498083 0.04082622 0.54500002
0.058703501 0.04097604 0.54700005
0.059807062 0.041050948 0.54800004
0.060803294 0.041050948 0.54800004
0.06179953 0.041050948 0.54800004
0.063024946 0.041200772 0.55000001
0.064141229 0.041275684 0.551
0.06526114 0.041350592 0.55200005
0.066384695 0.041425504 0.55300003
0.067511879 0.041500416 0.55400002
0.068642706 0.041575324 0.55500001
0.069902666 0.041725144 0.55700004
0.071169898 0.041874968 0.55900002
0.072573528 0.042099699 0.56200004
0.07372617 0.042174608 0.56300002
0.07501521 0.042324428 0.565
