# .PCD v0.7 - Point Cloud Data file format
VERSION 0.7
FIELDS x y z vp_x vp_y vp_z
SIZE 4 4 4 4 4 4
TYPE F F F F F F
COUNT 1 1 1 1 1 1
WIDTH 867
HEIGHT 1
VIEWPOINT 0 0 0 1 0 0 0
POINTS 867
DATA ascii
0.025143838 0.079643719 0.039999999 0 0.25019264 -0.4048202
0.02386371 0.079999998 0.039037403 0 0.25019264 -0.4048202
0.022636658 0.079999998 0.039005727 0 0.25019264 -0.4048202
0.021410121 0.079999998 0.038975731 0 0.25019264 -0.4048202
0.01895849 0.079999998 0.038920756 0 0.25019264 -0.4048202
0.017733339 0.079999998 0.038895778 0 0.25019264 -0.4048202
0.016508592 0.079999998 0.038872473 0 0.25019264 -0.4048202
0.015284223 0.079999998 0.038850836 0 0.25019264 -0.4048202
0.014060201 0.079999998 0.038830869 0 0.25019264 -0.4048202
0.01287086 0.079544462 0.039999999 0 0.25019264 -0.4048202
0.011613095 0.079999998 0.038795937 0 0.25019264 -0.4048202
0.010389953 0.079999998 0.038780969 0 0.25019264 -0.4048202
0.0091670481 0.079999998 0.038767666 0 0.25019264 -0.4048202
0.0079443529 0.079999998 0.038756028 0 0.25019264 -0.4048202
0.0067218379 0.079999998 0.038746051 0 0.25019264 -0.4048202
0.0054994766 0.079999998 0.03873774 0 0.25019264 -0.4048202
0.004277241 0.079999998 0.038731094 0 0.25019264 -0.4048202
0.0030551024 0.079999998 0.038726106 0 0.25019264 -0.4048202
0.0018330335 0.079999998 0.038722783 0 0.25019264 -0.4048202
0.00061100652 0.079999998 0.038721122 0 0.25019264 -0.4048202
0.039971266 0.078506649 0.039999999 0 0.25019264 -0.4048202
0.038395099 0.079999998 0.036078669 0 0.25019264 -0.4048202
0.037167482 0.079999998 0.036028106 0 0.25019264 -0.4048202
0.036268555 0.078447565 0.039999999 0 0.25019264 -0.4048202
0.03471477 0.079999998 0.035931941 0 0.25019264 -0.4048202
0.033802211 0.078411378 0.039999999 0 0.25019264 -0.4048202
0.03226522 0.079999998 0.035842389 0 0.25019264 -0.4048202
0.031041563 0.079999998 0.035800084 0 0.25019264 -0.4048202
0.029818611 0.079999998 0.035759423 0 0.25019264 -0.4048202
0.02859634 0.079999998 0.035720408 0 0.25019264 -0.4048202
0.027374716 0.079999998 0.035683032 0 0.25019264 -0.4048202
0.026153715 0.079999998 0.035647295 0 0.25019264 -0.4048202
0.02493331 0.079999998 0.035613194 0 0.25019264 -0.4048202
0.02371347 0.079999998 0.035580732 0 0.25019264 -0.4048202
0.022494167 0.079999998 0.035549901 0 0.25019264 -0.4048202
0.021275377 0.079999998 0.035520703 0 0.25019264 -0.4048202
0.020057067 0.079999998 0.035493135 0 0.25019264 -0.4048202
0.018839212 0.079999998 0.035467196 0 0.25019264 -0.4048202
0.019004954 0.066641241 0.07 0 0.25019264 -0.4048202
0.016404757 0.079999998 0.035420202 0 0.25019264 -0.4048202
0.015188102 0.079999998 0.035399143 0 0.25019264 -0.4048202
0.015070625 0.066614904 0.07 0 0.25019264 -0.4048202
0.012755793 0.079999998 0.035361893 0 0.25019264 -0.4048202
0.011540085 0.079999998 0.035345703 0 0.25019264 -0.4048202
0.010434156 0.078194693 0.039999999 0 0.25019264 -0.4048202
0.0091094263 0.079999998 0.035318188 0 0.25019264 -0.4048202
0.0078944191 0.079999998 0.03530686 0 0.25019264 -0.4048202
0.0067509655 0.078181416 0.039999999 0 0.25019264 -0.4048202
0.0054649143 0.079999998 0.03528906 0 0.25019264 -0.4048202
0.0042503607 0.079999998 0.035282589 0 0.25019264 -0.4048202
0.0030359032 0.079999998 0.035277739 0 0.25019264 -0.4048202
0.0018215145 0.079999998 0.035274502 0 0.25019264 -0.4048202
0.0006071669 0.079999998 0.035272885 0 0.25019264 -0.4048202
0.039375111 0.079999998 0.032706045 0 0.25019264 -0.4048202
0.038154397 0.079999998 0.032655217 0 0.25019264 -0.4048202
0.036934547 0.079999998 0.032606009 0 0.25019264 -0.4048202
0.036323201 0.07710433 0.039999999 0 0.25019264 -0.4048202
0.034497332 0.079999998 0.032512426 0 0.25019264 -0.4048202
0.033279907 0.079999998 0.032468047 0 0.25019264 -0.4048202
0.032063235 0.079999998 0.032425273 0 0.25019264 -0.4048202
0.030847285 0.079999998 0.032384101 0 0.25019264 -0.4048202
0.029632034 0.079999998 0.032344531 0 0.25019264 -0.4048202
0.028417451 0.079999998 0.032306559 0 0.25019264 -0.4048202
0.02720351 0.079999998 0.032270186 0 0.25019264 -0.4048202
0.025990181 0.079999998 0.032235406 0 0.25019264 -0.4048202
0.024777437 0.079999998 0.032202221 0 0.25019264 -0.4048202
0.023565251 0.079999998 0.032170627 0 0.25019264 -0.4048202
0.022353597 0.079999998 0.032140624 0 0.25019264 -0.4048202
0.022975774 0.065242052 0.07 0 0.25019264 -0.4048202
0.019931769 0.079999998 0.032085378 0 0.25019264 -0.4048202
0.018721541 0.079999998 0.032060131 0 0.25019264 -0.4048202
0.017511735 0.079999998 0.032036472 0 0.25019264 -0.4048202
0.016302321 0.079999998 0.032014396 0 0.25019264 -0.4048202
0.015093274 0.079999998 0.031993899 0 0.25019264 -0.4048202
0.013884566 0.079999998 0.031974982 0 0.25019264 -0.4048202
0.012676169 0.079999998 0.031957649 0 0.25019264 -0.4048202
0.011468058 0.079999998 0.031941891 0 0.25019264 -0.4048202
0.010260203 0.079999998 0.031927712 0 0.25019264 -0.4048202
0.0090525793 0.079999998 0.031915113 0 0.25019264 -0.4048202
0.0078451578 0.079999998 0.031904086 0 0.25019264 -0.4048202
0.0066379127 0.079999998 0.031894639 0 0.25019264 -0.4048202
0.0054308167 0.079999998 0.031886768 0 0.25019264 -0.4048202
0.0042238422 0.079999998 0.031880468 0 0.25019264 -0.4048202
0.0030169624 0.079999998 0.031875744 0 0.25019264 -0.4048202
0.0018101503 0.079999998 0.031872597 0 0.25019264 -0.4048202
0.00060337893 0.079999998 0.031871021 0 0.25019264 -0.4048202
0.039129961 0.079999998 0.029327113 0 0.25019264 -0.4048202
0.037916921 0.079999998 0.029277658 0 0.25019264 -0.4048202
0.036704734 0.079999998 0.029229773 0 0.25019264 -0.4048202
0.03549337 0.079999998 0.029183459 0 0.25019264 -0.4048202
0.034282804 0.079999998 0.02913871 0 0.25019264 -0.4048202
0.033073008 0.079999998 0.029095525 0 0.25019264 -0.4048202
0.03186395 0.079999998 0.029053902 0 0.25019264 -0.4048202
0.030655609 0.079999998 0.02901384 0 0.25019264 -0.4048202
0.029447954 0.079999998 0.028975334 0 0.25019264 -0.4048202
0.028240956 0.079999998 0.028938385 0 0.25019264 -0.4048202
0.027034592 0.079999998 0.028902989 0 0.25019264 -0.4048202
0.024623649 0.079999998 0.028836854 0 0.25019264 -0.4048202
0.023419015 0.079999998 0.028806109 0 0.25019264 -0.4048202
0.022214906 0.079999998 0.02877691 0 0.25019264 -0.4048202
0.023010351 0.063807502 0.07 0 0.25019264 -0.4048202
0.019808145 0.079999998 0.02872315 0 0.25019264 -0.4048202
0.018605443 0.079999998 0.028698584 0 0.25019264 -0.4048202
0.017403154 0.079999998 0.02867556 0 0.25019264 -0.4048202
0.016201252 0.079999998 0.028654076 0 0.25019264 -0.4048202
0.014999713 0.079999998 0.028634133 0 0.25019264 -0.4048202
0.013798508 0.079999998 0.028615726 0 0.25019264 -0.4048202
0.012597609 0.079999998 0.028598856 0 0.25019264 -0.4048202
0.011396992 0.079999998 0.028583525 0 0.25019264 -0.4048202
0.010196628 0.079999998 0.028569726 0 0.25019264 -0.4048202
0.0089964904 0.079999998 0.028557464 0 0.25019264 -0.4048202
0.0077965539 0.079999998 0.028546736 0 0.25019264 -0.4048202
0.0065967906 0.079999998 0.028537542 0 0.25019264 -0.4048202
0.005397174 0.079999998 0.028529879 0 0.25019264 -0.4048202
0.0041976776 0.079999998 0.028523751 0 0.25019264 -0.4048202
0.0029982743 0.079999998 0.028519154 0 0.25019264 -0.4048202
0.0017989379 0.079999998 0.02851609 0 0.25019264 -0.4048202
0.00059964153 0.079999998 0.028514558 0 0.25019264 -0.4048202
0.038888071 0.079999998 0.025993146 0 0.25019264 -0.4048202
0.03891211 0.074446969 0.039999999 0 0.25019264 -0.4048202
0.036477976 0.079999998 0.025898438 0 0.25019264 -0.4048202
0.035274159 0.079999998 0.025853375 0 0.25019264 -0.4048202
0.034071129 0.079999998 0.025809838 0 0.25019264 -0.4048202
0.032868858 0.079999998 0.02576782 0 0.25019264 -0.4048202
0.034923628 0.062499296 0.07 0 0.25019264 -0.4048202
0.030466478 0.079999998 0.025688343 0 0.25019264 -0.4048202
0.029266316 0.079999998 0.025650878 0 0.25019264 -0.4048202
0.028066806 0.079999998 0.025614927 0 0.25019264 -0.4048202
0.026867917 0.079999998 0.025580488 0 0.25019264 -0.4048202
0.025669625 0.079999998 0.025547558 0 0.25019264 -0.4048202
0.024471901 0.079999998 0.025516137 0 0.25019264 -0.4048202
0.02327472 0.079999998 0.025486223 0 0.25019264 -0.4048202
0.022078054 0.079999998 0.025457814 0 0.25019264 -0.4048202
0.020881876 0.079999998 0.025430908 0 0.25019264 -0.4048202
0.019686162 0.079999998 0.025405506 0 0.25019264 -0.4048202
0.018490883 0.079999998 0.025381604 0 0.25019264 -0.4048202
0.017296012 0.079999998 0.0253592 0 0.25019264 -0.4048202
0.016101524 0.079999998 0.025338298 0 0.25019264 -0.4048202
0.014907393 0.079999998 0.025318891 0 0.25019264 -0.4048202
0.01371359 0.079999998 0.025300981 0 0.25019264 -0.4048202
0.012520091 0.079999998 0.025284568 0 0.25019264 -0.4048202
0.012504888 0.062299564 0.07 0 0.25019264 -0.4048202
0.010133894 0.079999998 0.025256224 0 0.25019264 -0.4048202
0.0089411456 0.079999998 0.025244292 0 0.25019264 -0.4048202
0.0077485936 0.079999998 0.025233854 0 0.25019264 -0.4048202
0.0072388276 0.062280018 0.07 0 0.25019264 -0.4048202
0.005363977 0.079999998 0.025217453 0 0.25019264 -0.4048202
0.0041718595 0.079999998 0.025211489 0 0.25019264 -0.4048202
0.0029798339 0.079999998 0.025207017 0 0.25019264 -0.4048202
0.0017878739 0.079999998 0.025204036 0 0.25019264 -0.4048202
0.00059595361 0.079999998 0.025202544 0 0.25019264 -0.4048202
0.039848231 0.079999998 0.022751501 0 0.25019264 -0.4048202
0.038649376 0.079999998 0.022703202 0 0.25019264 -0.4048202
0.037451379 0.079999998 0.02265639 0 0.25019264 -0.4048202
0.036254209 0.079999998 0.022611069 0 0.25019264 -0.4048202
0.035057843 0.079999998 0.022567229 0 0.25019264 -0.4048202
0.033862248 0.079999998 0.022524873 0 0.25019264 -0.4048202
0.032667398 0.079999998 0.022483997 0 0.25019264 -0.4048202
0.031473272 0.079999998 0.022444598 0 0.25019264 -0.4048202
0.030279839 0.079999998 0.022406677 0 0.25019264 -0.4048202
0.029087074 0.079999998 0.02237023 0 0.25019264 -0.4048202
0.031007646 0.061008811 0.07 0 0.25019264 -0.4048202
0.026703438 0.079999998 0.02230175 0 0.25019264 -0.4048202
0.025512515 0.079999998 0.022269715 0 0.25019264 -0.4048202
0.02432215 0.079999998 0.022239147 0 0.25019264 -0.4048202
0.025721116 0.060953341 0.07 0 0.25019264 -0.4048202
0.021943003 0.079999998 0.022182407 0 0.25019264 -0.4048202
0.020754164 0.079999998 0.022156231 0 0.25019264 -0.4048202
0.019565783 0.079999998 0.022131518 0 0.25019264 -0.4048202
0.018377829 0.079999998 0.022108262 0 0.25019264 -0.4048202
0.017190279 0.079999998 0.022086468 0 0.25019264 -0.4048202
0.016003108 0.079999998 0.022066131 0 0.25019264 -0.4048202
0.014816285 0.079999998 0.022047251 0 0.25019264 -0.4048202
0.013629789 0.079999998 0.022029828 0 0.25019264 -0.4048202
0.01244359 0.079999998 0.02201386 0 0.25019264 -0.4048202
0.011205037 0.060854129 0.07 0 0.25019264 -0.4048202
0.0088865273 0.079999998 0.021974677 0 0.25019264 -0.4048202
0.0077012638 0.079999998 0.02196452 0 0.25019264 -0.4048202
0.0065161688 0.079999998 0.021955816 0 0.25019264 -0.4048202
0.0053312164 0.079999998 0.021948565 0 0.25019264 -0.4048202
0.0043218224 0.072798789 0.039999999 0 0.25019264 -0.4048202
0.0029616356 0.079999998 0.021938412 0 0.25019264 -0.4048202
0.0017769554 0.079999998 0.021935511 0 0.25019264 -0.4048202
0.00061738881 0.072795175 0.039999999 0 0.25019264 -0.4048202
0.039605282 0.079999998 0.019503353 0 0.25019264 -0.4048202
0.038413811 0.079999998 0.019456372 0 0.25019264 -0.4048202
0.037223186 0.079999998 0.019410839 0 0.25019264 -0.4048202
0.036033377 0.079999998 0.019366752 0 0.25019264 -0.4048202
0.034844354 0.079999998 0.019324111 0 0.25019264 -0.4048202
0.033656098 0.079999998 0.019282911 0 0.25019264 -0.4048202
0.03246858 0.079999998 0.019243151 0 0.25019264 -0.4048202
0.031281769 0.079999998 0.019204827 0 0.25019264 -0.4048202
0.030095642 0.079999998 0.019167941 0 0.25019264 -0.4048202
0.028910175 0.079999998 0.019132487 0 0.25019264 -0.4048202
0.027725339 0.079999998 0.019098466 0 0.25019264 -0.4048202
0.026541108 0.079999998 0.019065876 0 0.25019264 -0.4048202
0.025357457 0.079999998 0.019034714 0 0.25019264 -0.4048202
0.024174359 0.079999998 0.01900498 0 0.25019264 -0.4048202
0.022991786 0.079999998 0.01897667 0 0.25019264 -0.4048202
0.021809716 0.079999998 0.018949786 0 0.25019264 -0.4048202
0.020628121 0.079999998 0.018924324 0 0.25019264 -0.4048202
0.019446975 0.079999998 0.018900285 0 0.25019264 -0.4048202
0.018266253 0.079999998 0.018877665 0 0.25019264 -0.4048202
0.017085928 0.079999998 0.018856464 0 0.25019264 -0.4048202
0.015905974 0.079999998 0.018836681 0 0.25019264 -0.4048202
0.014726368 0.079999998 0.018818317 0 0.25019264 -0.4048202
0.013547082 0.079999998 0.018801367 0 0.25019264 -0.4048202
0.012368089 0.079999998 0.018785834 0 0.25019264 -0.4048202
0.011189366 0.079999998 0.018771715 0 0.25019264 -0.4048202
0.010010885 0.079999998 0.01875901 0 0.25019264 -0.4048202
0.0088326223 0.079999998 0.018747719 0 0.25019264 -0.4048202
0.0076545514 0.079999998 0.01873784 0 0.25019264 -0.4048202
0.0064766468 0.079999998 0.018729372 0 0.25019264 -0.4048202
0.0052988827 0.079999998 0.018722318 0 0.25019264 -0.4048202
0.0041212342 0.079999998 0.018716674 0 0.25019264 -0.4048202
0.0029436748 0.079999998 0.018712441 0 0.25019264 -0.4048202
0.0017661792 0.079999998 0.01870962 0 0.25019264 -0.4048202
0.00058872218 0.079999998 0.018708209 0 0.25019264 -0.4048202
0.039365493 0.079999998 0.016297461 0 0.25019264 -0.4048202
0.038181309 0.079999998 0.016251771 0 0.25019264 -0.4048202
0.036997959 0.079999998 0.016207486 0 0.25019264 -0.4048202
0.03581541 0.079999998 0.01616461 0 0.25019264 -0.4048202
0.034633644 0.079999998 0.016123138 0 0.25019264 -0.4048202
0.03345263 0.079999998 0.016083067 0 0.25019264 -0.4048202
0.032272339 0.079999998 0.016044399 0 0.25019264 -0.4048202
0.031092752 0.079999998 0.016007127 0 0.25019264 -0.4048202
0.029913839 0.079999998 0.015971251 0 0.25019264 -0.4048202
0.028735572 0.079999998 0.01593677 0 0.25019264 -0.4048202
0.02755793 0.079999998 0.015903682 0 0.25019264 -0.4048202
0.026380885 0.079999998 0.015871985 0 0.25019264 -0.4048202
0.025204411 0.079999998 0.015841678 0 0.25019264 -0.4048202
0.024028482 0.079999998 0.015812758 0 0.25019264 -0.4048202
0.022853073 0.079999998 0.015785225 0 0.25019264 -0.4048202
0.021678157 0.079999998 0.015759077 0 0.25019264 -0.4048202
0.020503711 0.079999998 0.015734313 0 0.25019264 -0.4048202
0.019329708 0.079999998 0.015710931 0 0.25019264 -0.4048202
0.018156122 0.079999998 0.015688932 0 0.25019264 -0.4048202
0.016982928 0.079999998 0.015668312 0 0.25019264 -0.4048202
0.015810102 0.079999998 0.015649071 0 0.25019264 -0.4048202
0.014637616 0.079999998 0.01563121 0 0.25019264 -0.4048202
0.013465445 0.079999998 0.015614725 0 0.25019264 -0.4048202
0.012293565 0.079999998 0.015599617 0 0.25019264 -0.4048202
0.01112195 0.079999998 0.015585884 0 0.25019264 -0.4048202
0.0099505754 0.079999998 0.015573528 0 0.25019264 -0.4048202
0.0087794149 0.079999998 0.015562545 0 0.25019264 -0.4048202
0.007608444 0.079999998 0.015552936 0 0.25019264 -0.4048202
0.0064376369 0.079999998 0.015544701 0 0.25019264 -0.4048202
0.0052669682 0.079999998 0.01553784 0 0.25019264 -0.4048202
0.004096413 0.079999998 0.015532351 0 0.25019264 -0.4048202
0.0029259464 0.079999998 0.015528235 0 0.25019264 -0.4048202
0.0017555426 0.079999998 0.01552549 0 0.25019264 -0.4048202
0.00058517669 0.079999998 0.015524118 0 0.25019264 -0.4048202
0.039128799 0.079999998 0.013132965 0 0.25019264 -0.4048202
0.037951808 0.079999998 0.013088535 0 0.25019264 -0.4048202
0.036775637 0.079999998 0.013045474 0 0.25019264 -0.4048202
0.03560026 0.079999998 0.01300378 0 0.25019264 -0.4048202
0.03442565 0.079999998 0.012963451 0 0.25019264 -0.4048202
0.033251781 0.079999998 0.012924487 0 0.25019264 -0.4048202
0.032078631 0.079999998 0.012886884 0 0.25019264 -0.4048202
0.030906171 0.079999998 0.012850639 0 0.25019264 -0.4048202
0.029734375 0.079999998 0.012815753 0 0.25019264 -0.4048202
0.02856322 0.079999998 0.012782223 0 0.25019264 -0.4048202
0.027392678 0.079999998 0.012750046 0 0.25019264 -0.4048202
0.026222724 0.079999998 0.012719223 0 0.25019264 -0.4048202
0.025053335 0.079999998 0.012689751 0 0.25019264 -0.4048202
0.023884485 0.079999998 0.012661628 0 0.25019264 -0.4048202
0.022716144 0.079999998 0.012634854 0 0.25019264 -0.4048202
0.021548292 0.079999998 0.012609426 0 0.25019264 -0.4048202
0.020380903 0.079999998 0.012585345 0 0.25019264 -0.4048202
0.01921395 0.079999998 0.012562607 0 0.25019264 -0.4048202
0.018047409 0.079999998 0.012541213 0 0.25019264 -0.4048202
0.016881254 0.079999998 0.012521162 0 0.25019264 -0.4048202
0.015715461 0.079999998 0.012502451 0 0.25019264 -0.4048202
0.014550004 0.079999998 0.012485081 0 0.25019264 -0.4048202
0.013384858 0.079999998 0.01246905 0 0.25019264 -0.4048202
0.01222 0.079999998 0.012454359 0 0.25019264 -0.4048202
0.011055402 0.079999998 0.012441005 0 0.25019264 -0.4048202
0.0098910416 0.079999998 0.012428988 0 0.25019264 -0.4048202
0.0087268921 0.079999998 0.012418307 0 0.25019264 -0.4048202
0.0075629293 0.079999998 0.012408964 0 0.25019264 -0.4048202
0.0063991281 0.079999998 0.012400956 0 0.25019264 -0.4048202
0.0052354638 0.079999998 0.012394283 0 0.25019264 -0.4048202
0.0040719113 0.079999998 0.012388945 0 0.25019264 -0.4048202
0.0029084459 0.079999998 0.012384942 0 0.25019264 -0.4048202
0.0017450426 0.079999998 0.012382274 0 0.25019264 -0.4048202
0.00058167672 0.079999998 0.012380939 0 0.25019264 -0.4048202
0.038895141 0.079999998 0.010009026 0 0.25019264 -0.4048202
0.037725247 0.079999998 0.0099658277 0 0.25019264 -0.4048202
0.036556162 0.079999998 0.0099239619 0 0.25019264 -0.4048202
0.035387862 0.079999998 0.0098834252 0 0.25019264 -0.4048202
0.034220319 0.079999998 0.0098442156 0 0.25019264 -0.4048202
0.033053506 0.079999998 0.0098063312 0 0.25019264 -0.4048202
0.031887401 0.079999998 0.0097697703 0 0.25019264 -0.4048202
0.030721977 0.079999998 0.0097345309 0 0.25019264 -0.4048202
0.029557208 0.079999998 0.0097006122 0 0.25019264 -0.4048202
0.028393071 0.079999998 0.0096680112 0 0.25019264 -0.4048202
0.027229538 0.079999998 0.0096367272 0 0.25019264 -0.4048202
0.026066586 0.079999998 0.0096067581 0 0.25019264 -0.4048202
0.024904191 0.079999998 0.0095781032 0 0.25019264 -0.4048202
0.023742326 0.079999998 0.0095507596 0 0.25019264 -0.4048202
0.022580964 0.079999998 0.0095247272 0 0.25019264 -0.4048202
0.021420086 0.079999998 0.0095000044 0 0.25019264 -0.4048202
0.020259662 0.079999998 0.00947659 0 0.25019264 -0.4048202
0.01909967 0.079999998 0.0094544822 0 0.25019264 -0.4048202
0.017940082 0.079999998 0.0094336811 0 0.25019264 -0.4048202
0.016780876 0.079999998 0.0094141848 0 0.25019264 -0.4048202
0.015622027 0.079999998 0.0093959933 0 0.25019264 -0.4048202
0.01446351 0.079999998 0.0093791038 0 0.25019264 -0.4048202
0.0133053 0.079999998 0.0093635172 0 0.25019264 -0.4048202
0.012147373 0.079999998 0.0093492325 0 0.25019264 -0.4048202
0.010989703 0.079999998 0.009336248 0 0.25019264 -0.4048202
0.0098322667 0.079999998 0.0093245646 0 0.25019264 -0.4048202
0.0086750388 0.079999998 0.0093141804 0 0.25019264 -0.4048202
0.0075179948 0.079999998 0.0093050953 0 0.25019264 -0.4048202
0.0063611101 0.079999998 0.0092973085 0 0.25019264 -0.4048202
0.0052043609 0.079999998 0.0092908209 0 0.25019264 -0.4048202
0.0040477216 0.079999998 0.0092856307 0 0.25019264 -0.4048202
0.0028911685 0.079999998 0.0092817377 0 0.25019264 -0.4048202
0.0017346767 0.079999998 0.0092791431 0 0.25019264 -0.4048202
0.00057822146 0.079999998 0.0092778457 0 0.25019264 -0.4048202
0.039828159 0.079999998 0.0069681141 0 0.25019264 -0.4048202
0.038664453 0.079999998 0.0069248257 0 0.25019264 -0.4048202
0.03750157 0.079999998 0.0068828338 0 0.25019264 -0.4048202
0.03633948 0.079999998 0.0068421359 0 0.25019264 -0.4048202
0.035178166 0.079999998 0.0068027303 0 0.25019264 -0.4048202
0.034017596 0.079999998 0.006764615 0 0.25019264 -0.4048202
0.03285775 0.079999998 0.0067277877 0 0.25019264 -0.4048202
0.031698599 0.079999998 0.006692247 0 0.25019264 -0.4048202
0.030540122 0.079999998 0.0066579911 0 0.25019264 -0.4048202
0.02938229 0.079999998 0.0066250181 0 0.25019264 -0.4048202
0.028225081 0.079999998 0.0065933266 0 0.25019264 -0.4048202
0.02706847 0.079999998 0.0065629147 0 0.25019264 -0.4048202
0.02591243 0.079999998 0.0065337815 0 0.25019264 -0.4048202
0.024756938 0.079999998 0.0065059247 0 0.25019264 -0.4048202
0.02360197 0.079999998 0.0064793439 0 0.25019264 -0.4048202
0.0224475 0.079999998 0.0064540375 0 0.25019264 -0.4048202
0.021293504 0.079999998 0.0064300038 0 0.25019264 -0.4048202
0.020139959 0.079999998 0.0064072418 0 0.25019264 -0.4048202
0.018986836 0.079999998 0.0063857506 0 0.25019264 -0.4048202
0.017834116 0.079999998 0.0063655293 0 0.25019264 -0.4048202
0.016681772 0.079999998 0.0063465764 0 0.25019264 -0.4048202
0.015529778 0.079999998 0.006328891 0 0.25019264 -0.4048202
0.014378113 0.079999998 0.0063124727 0 0.25019264 -0.4048202
0.013226749 0.079999998 0.0062973206 0 0.25019264 -0.4048202
0.012075665 0.079999998 0.0062834332 0 0.25019264 -0.4048202
0.010924836 0.079999998 0.006270811 0 0.25019264 -0.4048202
0.009774236 0.079999998 0.0062594526 0 0.25019264 -0.4048202
0.0086238421 0.079999998 0.0062493575 0 0.25019264 -0.4048202
0.0074736294 0.079999998 0.0062405257 0 0.25019264 -0.4048202
0.0063235741 0.079999998 0.0062329564 0 0.25019264 -0.4048202
0.005173652 0.079999998 0.006226649 0 0.25019264 -0.4048202
0.0040238388 0.079999998 0.0062216036 0 0.25019264 -0.4048202
0.0028741099 0.079999998 0.0062178196 0 0.25019264 -0.4048202
0.0017244418 0.079999998 0.0062152972 0 0.25019264 -0.4048202
0.00057480991 0.079999998 0.0062140357 0 0.25019264 -0.4048202
0.039593458 0.079999998 0.0039216424 0 0.25019264 -0.4048202
0.038436677 0.079999998 0.0038795702 0 0.25019264 -0.4048202
0.037280712 0.079999998 0.0038387578 0 0.25019264 -0.4048202
0.036125533 0.079999998 0.0037992029 0 0.25019264 -0.4048202
0.034971114 0.079999998 0.0037609038 0 0.25019264 -0.4048202
0.033817433 0.079999998 0.0037238586 0 0.25019264 -0.4048202
0.032664463 0.079999998 0.0036880653 0 0.25019264 -0.4048202
0.031512178 0.079999998 0.0036535223 0 0.25019264 -0.4048202
0.030360557 0.079999998 0.003620228 0 0.25019264 -0.4048202
0.029209577 0.079999998 0.0035881805 0 0.25019264 -0.4048202
0.028059207 0.079999998 0.0035573782 0 0.25019264 -0.4048202
0.026909428 0.079999998 0.0035278199 0 0.25019264 -0.4048202
0.025760213 0.079999998 0.0034995042 0 0.25019264 -0.4048202
0.024611538 0.079999998 0.0034724292 0 0.25019264 -0.4048202
0.023463381 0.079999998 0.0034465941 0 0.25019264 -0.4048202
0.022315715 0.079999998 0.0034219972 0 0.25019264 -0.4048202
0.021168515 0.079999998 0.0033986378 0 0.25019264 -0.4048202
0.020021761 0.079999998 0.0033765142 0 0.25019264 -0.4048202
0.018875424 0.079999998 0.0033556258 0 0.25019264 -0.4048202
0.017729484 0.079999998 0.0033359714 0 0.25019264 -0.4048202
0.016583912 0.079999998 0.0033175501 0 0.25019264 -0.4048202
0.015438689 0.079999998 0.0033003606 0 0.25019264 -0.4048202
0.014293789 0.079999998 0.0032844029 0 0.25019264 -0.4048202
0.013149187 0.079999998 0.0032696754 0 0.25019264 -0.4048202
0.01200486 0.079999998 0.0032561778 0 0.25019264 -0.4048202
0.010860784 0.079999998 0.0032439092 0 0.25019264 -0.4048202
0.0097169345 0.079999998 0.0032328693 0 0.25019264 -0.4048202
0.0085732881 0.079999998 0.0032230574 0 0.25019264 -0.4048202
0.0074298214 0.079999998 0.0032144729 0 0.25019264 -0.4048202
0.0062865093 0.079999998 0.0032071157 0 0.25019264 -0.4048202
0.005143329 0.079999998 0.003200985 0 0.25019264 -0.4048202
0.0040002554 0.079999998 0.0031960809 0 0.25019264 -0.4048202
0.0028572658 0.079999998 0.0031924031 0 0.25019264 -0.4048202
0.0017143355 0.079999998 0.0031899514 0 0.25019264 -0.4048202
0.0005714412 0.079999998 0.0031887256 0 0.25019264 -0.4048202
0.039361697 0.079999998 0.00091336761 0 0.25019264 -0.4048202
0.038211759 0.079999998 0.00087248511 0 0.25019264 -0.4048202
0.037062623 0.079999998 0.00083282654 0 0.25019264 -0.4048202
0.035914265 0.079999998 0.00079438993 0 0.25019264 -0.4048202
0.034766655 0.079999998 0.00075717346 0 0.25019264 -0.4048202
0.033619773 0.079999998 0.00072117522 0 0.25019264 -0.4048202
0.032473594 0.079999998 0.00068639347 0 0.25019264 -0.4048202
0.03132809 0.079999998 0.00065282657 0 0.25019264 -0.4048202
0.030183241 0.079999998 0.00062047283 0 0.25019264 -0.4048202
0.029039022 0.079999998 0.00058933068 0 0.25019264 -0.4048202
0.027895408 0.079999998 0.00055939867 0 0.25019264 -0.4048202
0.026752375 0.079999998 0.00053067529 0 0.25019264 -0.4048202
0.025609899 0.079999998 0.00050315913 0 0.25019264 -0.4048202
0.024467958 0.079999998 0.00047684886 0 0.25019264 -0.4048202
0.023326524 0.079999998 0.00045174322 0 0.25019264 -0.4048202
0.022185575 0.079999998 0.00042784101 0 0.25019264 -0.4048202
0.021045089 0.079999998 0.00040514104 0 0.25019264 -0.4048202
0.019905038 0.079999998 0.00038364218 0 0.25019264 -0.4048202
0.018765403 0.079999998 0.00036334345 0 0.25019264 -0.4048202
0.017626157 0.079999998 0.00034424386 0 0.25019264 -0.4048202
0.016487276 0.079999998 0.00032634244 0 0.25019264 -0.4048202
0.015348737 0.079999998 0.00030963836 0 0.25019264 -0.4048202
0.014210518 0.079999998 0.00029413079 0 0.25019264 -0.4048202
0.013072592 0.079999998 0.00027981898 0 0.25019264 -0.4048202
0.011934938 0.079999998 0.00026670229 0 0.25019264 -0.4048202
0.010797531 0.079999998 0.00025478 0 0.25019264 -0.4048202
0.0096603483 0.079999998 0.00024405161 0 0.25019264 -0.4048202
0.0085233664 0.079999998 0.00023451656 0 0.25019264 -0.4048202
0.0073865601 0.079999998 0.00022617439 0 0.25019264 -0.4048202
0.0062499074 0.079999998 0.0002190247 0 0.25019264 -0.4048202
0.0051133842 0.079999998 0.00021306718 0 0.25019264 -0.4048202
0.0039769667 0.079999998 0.00020830148 0 0.25019264 -0.4048202
0.0028406316 0.079999998 0.00020472742 0 0.25019264 -0.4048202
0.0017043555 0.079999998 0.00020234482 0 0.25019264 -0.4048202
0.00056811457 0.079999998 0.00020115354 0 0.25019264 -0.4048202
0.039332725 0.07913059 0 0 0.25019264 -0.4048202
0.03818747 0.079113722 0 0 0.25019264 -0.4048202
0.037042674 0.079097353 0 0 0.25019264 -0.4048202
0.035898324 0.079081483 0 0 0.25019264 -0.4048202
0.034754403 0.079066113 0 0 0.25019264 -0.4048202
0.033610899 0.079051249 0 0 0.25019264 -0.4048202
0.032467797 0.079036884 0 0 0.25019264 -0.4048202
0.031325083 0.079023011 0 0 0.25019264 -0.4048202
0.030182745 0.079009645 0 0 0.25019264 -0.4048202
0.029040769 0.078996778 0 0 0.25019264 -0.4048202
0.027899139 0.078984402 0 0 0.25019264 -0.4048202
0.026757844 0.078972533 0 0 0.25019264 -0.4048202
0.025616867 0.078961156 0 0 0.25019264 -0.4048202
0.024476198 0.078950278 0 0 0.25019264 -0.4048202
0.02333582 0.078939892 0 0 0.25019264 -0.4048202
0.022195723 0.078930005 0 0 0.25019264 -0.4048202
0.02105589 0.078920618 0 0 0.25019264 -0.4048202
0.019916307 0.078911722 0 0 0.25019264 -0.4048202
0.018776964 0.078903325 0 0 0.25019264 -0.4048202
0.017637845 0.078895427 0 0 0.25019264 -0.4048202
0.016498934 0.078888014 0 0 0.25019264 -0.4048202
0.015360223 0.078881107 0 0 0.25019264 -0.4048202
0.014221693 0.078874685 0 0 0.25019264 -0.4048202
0.013083334 0.078868762 0 0 0.25019264 -0.4048202
0.011945131 0.07886333 0 0 0.25019264 -0.4048202
0.01080707 0.078858398 0 0 0.25019264 -0.4048202
0.0096691381 0.078853957 0 0 0.25019264 -0.4048202
0.0085313208 0.078850009 0 0 0.25019264 -0.4048202
0.007393606 0.078846551 0 0 0.25019264 -0.4048202
0.0062559792 0.078843594 0 0 0.25019264 -0.4048202
0.0051184264 0.078841127 0 0 0.25019264 -0.4048202
0.0039809351 0.078839153 0 0 0.25019264 -0.4048202
0.0028434913 0.078837678 0 0 0.25019264 -0.4048202
0.0017060812 0.078836687 0 0 0.25019264 -0.4048202
0.00056869147 0.078836195 0 0 0.25019264 -0.4048202
0.039392497 0.077875257 0 0 0.25019264 -0.4048202
0.038245492 0.077858627 0 0 0.25019264 -0.4048202
0.037098944 0.077842496 0 0 0.25019264 -0.4048202
0.035952844 0.077826858 0 0 0.25019264 -0.4048202
0.034807175 0.077811711 0 0 0.25019264 -0.4048202
0.033661924 0.077797055 0 0 0.25019264 -0.4048202
0.032517076 0.077782899 0 0 0.25019264 -0.4048202
0.031372622 0.077769227 0 0 0.25019264 -0.4048202
0.030228542 0.077756055 0 0 0.25019264 -0.4048202
0.029084824 0.077743366 0 0 0.25019264 -0.4048202
0.027941456 0.077731177 0 0 0.25019264 -0.4048202
0.026798423 0.077719472 0 0 0.25019264 -0.4048202
0.025655713 0.077708259 0 0 0.25019264 -0.4048202
0.024513308 0.077697538 0 0 0.25019264 -0.4048202
0.023371197 0.077687301 0 0 0.25019264 -0.4048202
0.022229366 0.077677563 0 0 0.25019264 -0.4048202
0.021087801 0.077668309 0 0 0.25019264 -0.4048202
0.019946489 0.07765954 0 0 0.25019264 -0.4048202
0.018805416 0.077651262 0 0 0.25019264 -0.4048202
0.017664568 0.077643476 0 0 0.25019264 -0.4048202
0.016523931 0.077636175 0 0 0.25019264 -0.4048202
0.015383491 0.077629358 0 0 0.25019264 -0.4048202
0.014243236 0.077623032 0 0 0.25019264 -0.4048202
0.01310315 0.077617191 0 0 0.25019264 -0.4048202
0.011963222 0.077611841 0 0 0.25019264 -0.4048202
0.010823436 0.077606976 0 0 0.25019264 -0.4048202
0.0096837804 0.077602603 0 0 0.25019264 -0.4048202
0.0085442392 0.077598713 0 0 0.25019264 -0.4048202
0.007404801 0.077595308 0 0 0.25019264 -0.4048202
0.0062654512 0.077592388 0 0 0.25019264 -0.4048202
0.0051261764 0.077589959 0 0 0.25019264 -0.4048202
0.0039869626 0.077588014 0 0 0.25019264 -0.4048202
0.0028477963 0.077586554 0 0 0.25019264 -0.4048202
0.0017086642 0.077585578 0 0 0.25019264 -0.4048202
0.00056955247 0.077585094 0 0 0.25019264 -0.4048202
0.039452404 0.076617107 0 0 0.25019264 -0.4048202
0.03830364 0.076600723 0 0 0.25019264 -0.4048202
0.037155338 0.076584823 0 0 0.25019264 -0.4048202
0.036007483 0.076569416 0 0 0.25019264 -0.4048202
0.034860063 0.076554492 0 0 0.25019264 -0.4048202
0.033713061 0.076540053 0 0 0.25019264 -0.4048202
0.032566469 0.076526098 0 0 0.25019264 -0.4048202
0.031420264 0.076512635 0 0 0.25019264 -0.4048202
0.030274441 0.076499648 0 0 0.25019264 -0.4048202
0.02912898 0.076487154 0 0 0.25019264 -0.4048202
0.02798387 0.076475136 0 0 0.25019264 -0.4048202
0.026839096 0.076463602 0 0 0.25019264 -0.4048202
0.025694644 0.076452553 0 0 0.25019264 -0.4048202
0.024550501 0.076441988 0 0 0.25019264 -0.4048202
0.023406653 0.076431908 0 0 0.25019264 -0.4048202
0.022263085 0.076422311 0 0 0.25019264 -0.4048202
0.021119785 0.076413192 0 0 0.25019264 -0.4048202
0.019976739 0.076404549 0 0 0.25019264 -0.4048202
0.018833932 0.076396398 0 0 0.25019264 -0.4048202
0.017691351 0.076388724 0 0 0.25019264 -0.4048202
0.016548982 0.076381527 0 0 0.25019264 -0.4048202
0.015406812 0.076374814 0 0 0.25019264 -0.4048202
0.014264826 0.076368578 0 0 0.25019264 -0.4048202
0.01312301 0.076362826 0 0 0.25019264 -0.4048202
0.011981353 0.076357558 0 0 0.25019264 -0.4048202
0.010839839 0.07635276 0 0 0.25019264 -0.4048202
0.0096984552 0.076348446 0 0 0.25019264 -0.4048202
0.0085571865 0.076344617 0 0 0.25019264 -0.4048202
0.0074160215 0.076341264 0 0 0.25019264 -0.4048202
0.0062749446 0.076338388 0 0 0.25019264 -0.4048202
0.0051339432 0.076335989 0 0 0.25019264 -0.4048202
0.0039930032 0.076334074 0 0 0.25019264 -0.4048202
0.0028521109 0.076332636 0 0 0.25019264 -0.4048202
0.001711253 0.076331675 0 0 0.25019264 -0.4048202
0.00057041534 0.076331198 0 0 0.25019264 -0.4048202
0.039512444 0.075356111 0 0 0.25019264 -0.4048202
0.038361918 0.075339973 0 0 0.25019264 -0.4048202
0.037211858 0.075324312 0 0 0.25019264 -0.4048202
0.036062248 0.075309128 0 0 0.25019264 -0.4048202
0.03491307 0.075294428 0 0 0.25019264 -0.4048202
0.033764318 0.075280204 0 0 0.25019264 -0.4048202
0.032615971 0.075266466 0 0 0.25019264 -0.4048202
0.031468019 0.075253196 0 0 0.25019264 -0.4048202
0.030320443 0.075240411 0 0 0.25019264 -0.4048202
0.029173234 0.075228095 0 0 0.25019264 -0.4048202
0.028026378 0.075216264 0 0 0.25019264 -0.4048202
0.026879858 0.075204901 0 0 0.25019264 -0.4048202
0.025733663 0.075194024 0 0 0.25019264 -0.4048202
0.024587778 0.075183615 0 0 0.25019264 -0.4048202
0.023442188 0.075173683 0 0 0.25019264 -0.4048202
0.022296881 0.075164229 0 0 0.25019264 -0.4048202
0.021151841 0.075155243 0 0 0.25019264 -0.4048202
0.020007055 0.075146735 0 0 0.25019264 -0.4048202
0.018862512 0.075138703 0 0 0.25019264 -0.4048202
0.017718194 0.075131141 0 0 0.25019264 -0.4048202
0.01657409 0.075124055 0 0 0.25019264 -0.4048202
0.015430184 0.075117439 0 0 0.25019264 -0.4048202
0.014286464 0.0751113 0 0 0.25019264 -0.4048202
0.013142915 0.075105637 0 0 0.25019264 -0.4048202
0.011999525 0.075100444 0 0 0.25019264 -0.4048202
0.010856279 0.075095721 0 0 0.25019264 -0.4048202
0.0097131627 0.075091474 0 0 0.25019264 -0.4048202
0.0085701635 0.075087696 0 0 0.25019264 -0.4048202
0.0074272668 0.075084388 0 0 0.25019264 -0.4048202
0.0062844595 0.075081557 0 0 0.25019264 -0.4048202
0.0051417276 0.075079203 0 0 0.25019264 -0.4048202
0.0039990577 0.07507731 0 0 0.25019264 -0.4048202
0.0028564353 0.075075895 0 0 0.25019264 -0.4048202
0.0017138475 0.075074956 0 0 0.25019264 -0.4048202
0.00057128019 0.075074479 0 0 0.25019264 -0.4048202
0.039572623 0.074092239 0 0 0.25019264 -0.4048202
0.038420331 0.074076347 0 0 0.25019264 -0.4048202
0.037268508 0.074060924 0 0 0.25019264 -0.4048202
0.036117136 0.074045978 0 0 0.25019264 -0.4048202
0.034966201 0.074031502 0 0 0.25019264 -0.4048202
0.033815689 0.074017495 0 0 0.25019264 -0.4048202
0.032665584 0.074003965 0 0 0.25019264 -0.4048202
0.031515878 0.073990896 0 0 0.25019264 -0.4048202
0.030366551 0.073978305 0 0 0.25019264 -0.4048202
0.029217592 0.073966183 0 0 0.25019264 -0.4048202
0.028068984 0.07395453 0 0 0.25019264 -0.4048202
0.026920715 0.073943347 0 0 0.25019264 -0.4048202
0.025772771 0.073932625 0 0 0.25019264 -0.4048202
0.024625139 0.073922381 0 0 0.25019264 -0.4048202
0.023477804 0.073912598 0 0 0.25019264 -0.4048202
0.022330752 0.073903285 0 0 0.25019264 -0.4048202
0.021183969 0.073894441 0 0 0.25019264 -0.4048202
0.020037442 0.073886059 0 0 0.25019264 -0.4048202
0.018891156 0.073878154 0 0 0.25019264 -0.4048202
0.017745098 0.073870704 0 0 0.25019264 -0.4048202
0.016599255 0.07386373 0 0 0.25019264 -0.4048202
0.01545361 0.073857218 0 0 0.25019264 -0.4048202
0.014308152 0.073851168 0 0 0.25019264 -0.4048202
0.013162866 0.073845588 0 0 0.25019264 -0.4048202
0.012017738 0.073840477 0 0 0.25019264 -0.4048202
0.010872756 0.073835827 0 0 0.25019264 -0.4048202
0.0097279036 0.073831648 0 0 0.25019264 -0.4048202
0.0085831694 0.073827922 0 0 0.25019264 -0.4048202
0.0074385377 0.073824674 0 0 0.25019264 -0.4048202
0.0062939958 0.07382188 0 0 0.25019264 -0.4048202
0.0051495298 0.073819563 0 0 0.25019264 -0.4048202
0.0040051257 0.0738177 0 0 0.25019264 -0.4048202
0.0028607696 0.073816307 0 0 0.25019264 -0.4048202
0.001716448 0.073815376 0 0 0.25019264 -0.4048202
0.00057214702 0.073814914 0 0 0.25019264 -0.4048202
0.039632939 0.072825469 0 0 0.25019264 -0.4048202
0.038478881 0.072809823 0 0 0.25019264 -0.4048202
0.037325289 0.072794639 0 0 0.25019264 -0.4048202
0.036172152 0.072779924 0 0 0.25019264 -0.4048202
0.035019454 0.072765678 0 0 0.25019264 -0.4048202
0.033867177 0.072751887 0 0 0.25019264 -0.4048202
0.032715317 0.072738566 0 0 0.25019264 -0.4048202
0.031563848 0.072725706 0 0 0.25019264 -0.4048202
0.030412763 0.072713308 0 0 0.25019264 -0.4048202
0.029262047 0.07270138 0 0 0.25019264 -0.4048202
0.028111687 0.072689906 0 0 0.25019264 -0.4048202
0.026961664 0.072678894 0 0 0.25019264 -0.4048202
0.02581197 0.072668344 0 0 0.25019264 -0.4048202
0.024662586 0.072658256 0 0 0.25019264 -0.4048202
0.023513502 0.07264863 0 0 0.25019264 -0.4048202
0.022364702 0.072639458 0 0 0.25019264 -0.4048202
0.021216171 0.072630756 0 0 0.25019264 -0.4048202
0.020067899 0.072622508 0 0 0.25019264 -0.4048202
0.018919867 0.072614722 0 0 0.25019264 -0.4048202
0.017772064 0.072607391 0 0 0.25019264 -0.4048202
0.016624477 0.072600521 0 0 0.25019264 -0.4048202
0.015477089 0.072594114 0 0 0.25019264 -0.4048202
0.014329889 0.072588161 0 0 0.25019264 -0.4048202
0.013182862 0.07258267 0 0 0.25019264 -0.4048202
0.012035994 0.072577633 0 0 0.25019264 -0.4048202
0.01088927 0.072573058 0 0 0.25019264 -0.4048202
0.0097426791 0.072568938 0 0 0.25019264 -0.4048202
0.0085962052 0.07256528 0 0 0.25019264 -0.4048202
0.0074498346 0.072562076 0 0 0.25019264 -0.4048202
0.0063035539 0.072559327 0 0 0.25019264 -0.4048202
0.0051573496 0.07255704 0 0 0.25019264 -0.4048202
0.0040112073 0.072555214 0 0 0.25019264 -0.4048202
0.0028651136 0.072553843 0 0 0.25019264 -0.4048202
0.0017190544 0.072552927 0 0 0.25019264 -0.4048202
0.00057301583 0.072552465 0 0 0.25019264 -0.4048202
0.039693393 0.071555763 0 0 0.25019264 -0.4048202
0.038537562 0.071540371 0 0 0.25019264 -0.4048202
0.0373822 0.071525432 0 0 0.25019264 -0.4048202
0.036227293 0.071510948 0 0 0.25019264 -0.4048202
0.035072826 0.071496926 0 0 0.25019264 -0.4048202
0.033918787 0.071483359 0 0 0.25019264 -0.4048202
0.032765158 0.071470253 0 0 0.25019264 -0.4048202
0.031611931 0.071457595 0 0 0.25019264 -0.4048202
0.030459084 0.071445398 0 0 0.25019264 -0.4048202
0.029306607 0.071433656 0 0 0.25019264 -0.4048202
0.028154487 0.071422361 0 0 0.25019264 -0.4048202
0.027002709 0.071411528 0 0 0.25019264 -0.4048202
0.025851257 0.071401149 0 0 0.25019264 -0.4048202
0.02470012 0.071391217 0 0 0.25019264 -0.4048202
0.023549281 0.071381748 0 0 0.25019264 -0.4048202
0.022398729 0.071372725 0 0 0.25019264 -0.4048202
0.021248449 0.071364157 0 0 0.25019264 -0.4048202
0.020098424 0.071356043 0 0 0.25019264 -0.4048202
0.018948643 0.071348377 0 0 0.25019264 -0.4048202
0.017799092 0.071341164 0 0 0.25019264 -0.4048202
0.016649757 0.071334407 0 0 0.25019264 -0.4048202
0.015500623 0.071328096 0 0 0.25019264 -0.4048202
0.014351676 0.07132224 0 0 0.25019264 -0.4048202
0.013202904 0.071316838 0 0 0.25019264 -0.4048202
0.012054291 0.071311884 0 0 0.25019264 -0.4048202
0.010905823 0.071307376 0 0 0.25019264 -0.4048202
0.009757488 0.071303323 0 0 0.25019264 -0.4048202
0.0086092707 0.071299724 0 0 0.25019264 -0.4048202
0.0074611572 0.071296573 0 0 0.25019264 -0.4048202
0.0063131345 0.071293868 0 0 0.25019264 -0.4048202
0.0051651876 0.071291618 0 0 0.25019264 -0.4048202
0.0040173032 0.071289822 0 0 0.25019264 -0.4048202
0.0028694677 0.071288466 0 0 0.25019264 -0.4048202
0.0017216668 0.071287572 0 0 0.25019264 -0.4048202
0.00057388662 0.071287118 0 0 0.25019264 -0.4048202
0.039753988 0.070283107 0 0 0.25019264 -0.4048202
0.038596381 0.07026796 0 0 0.25019264 -0.4048202
0.037439242 0.070253268 0 0 0.25019264 -0.4048202
0.036282562 0.070239022 0 0 0.25019264 -0.4048202
0.035126325 0.070225231 0 0 0.25019264 -0.4048202
0.033970516 0.07021188 0 0 0.25019264 -0.4048202
0.032815117 0.07019899 0 0 0.25019264 -0.4048202
0.031660121 0.07018654 0 0 0.25019264 -0.4048202
0.03050551 0.070174538 0 0 0.25019264 -0.4048202
0.029351272 0.070162982 0 0 0.25019264 -0.4048202
0.028197387 0.07015188 0 0 0.25019264 -0.4048202
0.027043847 0.070141219 0 0 0.25019264 -0.4048202
0.025890637 0.070131011 0 0 0.25019264 -0.4048202
0.02473774 0.070121244 0 0 0.25019264 -0.4048202
0.023585144 0.070111923 0 0 0.25019264 -0.4048202
0.022432836 0.070103049 0 0 0.25019264 -0.4048202
0.021280799 0.070094623 0 0 0.25019264 -0.4048202
0.020129021 0.070086636 0 0 0.25019264 -0.4048202
0.018977487 0.070079103 0 0 0.25019264 -0.4048202
0.017826183 0.070072003 0 0 0.25019264 -0.4048202
0.016675096 0.070065357 0 0 0.25019264 -0.4048202
0.01552421 0.07005915 0 0 0.25019264 -0.4048202
0.014373514 0.070053391 0 0 0.25019264 -0.4048202
0.013222991 0.070048071 0 0 0.25019264 -0.4048202
0.012072629 0.070043199 0 0 0.25019264 -0.4048202
0.010922414 0.070038766 0 0 0.25019264 -0.4048202
0.0097723315 0.07003478 0 0 0.25019264 -0.4048202
0.008622366 0.070031241 0 0 0.25019264 -0.4048202
0.0074725063 0.070028141 0 0 0.25019264 -0.4048202
0.0063227364 0.070025481 0 0 0.25019264 -0.4048202
0.0051730438 0.070023268 0 0 0.25019264 -0.4048202
0.0040234132 0.070021495 0 0 0.25019264 -0.4048202
0.0028738319 0.070020169 0 0 0.25019264 -0.4048202
0.0017242852 0.070019282 0 0 0.25019264 -0.4048202
0.00057475944 0.070018835 0 0 0.25019264 -0.4048202
0.039814729 0.069007464 0 0 0.25019264 -0.4048202
0.038655337 0.068992577 0 0 0.25019264 -0.4048202
0.037496421 0.068978123 0 0 0.25019264 -0.4048202
0.036337964 0.068964116 0 0 0.25019264 -0.4048202
0.03517995 0.068950549 0 0 0.25019264 -0.4048202
0.034022365 0.068937428 0 0 0.25019264 -0.4048202
0.032865196 0.068924747 0 0 0.25019264 -0.4048202
0.031708427 0.068912506 0 0 0.25019264 -0.4048202
0.030552046 0.068900704 0 0 0.25019264 -0.4048202
0.029396039 0.068889342 0 0 0.25019264 -0.4048202
0.028240388 0.068878427 0 0 0.25019264 -0.4048202
0.027085084 0.068867944 0 0 0.25019264 -0.4048202
0.025930109 0.068857901 0 0 0.25019264 -0.4048202
0.024775449 0.068848297 0 0 0.25019264 -0.4048202
0.023621092 0.068839133 0 0 0.25019264 -0.4048202
0.022467021 0.068830408 0 0 0.25019264 -0.4048202
0.021313226 0.068822123 0 0 0.25019264 -0.4048202
0.020159688 0.06881427 0 0 0.25019264 -0.4048202
0.019006398 0.068806857 0 0 0.25019264 -0.4048202
0.017853336 0.068799883 0 0 0.25019264 -0.4048202
0.016700493 0.068793342 0 0 0.25019264 -0.4048202
0.015547854 0.068787239 0 0 0.25019264 -0.4048202
0.014395403 0.068781577 0 0 0.25019264 -0.4048202
0.013243127 0.068776347 0 0 0.25019264 -0.4048202
0.012091012 0.068771556 0 0 0.25019264 -0.4048202
0.010939044 0.068767197 0 0 0.25019264 -0.4048202
0.0097872093 0.068763278 0 0 0.25019264 -0.4048202
0.008635493 0.068759792 0 0 0.25019264 -0.4048202
0.0074838814 0.068756744 0 0 0.25019264 -0.4048202
0.0063323616 0.068754129 0 0 0.25019264 -0.4048202
0.0051809181 0.068751954 0 0 0.25019264 -0.4048202
0.0040295376 0.06875021 0 0 0.25019264 -0.4048202
0.0028782063 0.068748906 0 0 0.25019264 -0.4048202
0.0017269098 0.068748035 0 0 0.25019264 -0.4048202
0.00057563424 0.068747602 0 0 0.25019264 -0.4048202
0.039875608 0.067728817 0 0 0.25019264 -0.4048202
0.038714435 0.067714177 0 0 0.25019264 -0.4048202
0.037553735 0.067699969 0 0 0.25019264 -0.4048202
0.036393493 0.0676862 0 0 0.25019264 -0.4048202
0.035233699 0.067672871 0 0 0.25019264 -0.4048202
0.034074336 0.067659967 0 0 0.25019264 -0.4048202
0.032915391 0.067647502 0 0 0.25019264 -0.4048202
0.031756848 0.067635469 0 0 0.25019264 -0.4048202
0.030598693 0.067623869 0 0 0.25019264 -0.4048202
0.029440911 0.0676127 0 0 0.25019264 -0.4048202
0.028283492 0.067601971 0 0 0.25019264 -0.4048202
0.027126417 0.067591667 0 0 0.25019264 -0.4048202
0.025969673 0.067581795 0 0 0.25019264 -0.4048202
0.024813246 0.067572355 0 0 0.25019264 -0.4048202
0.023657123 0.067563348 0 0 0.25019264 -0.4048202
0.022501288 0.067554772 0 0 0.25019264 -0.4048202
0.021345729 0.067546621 0 0 0.25019264 -0.4048202
0.020190429 0.06753891 0 0 0.25019264 -0.4048202
0.019035377 0.067531623 0 0 0.25019264 -0.4048202
0.017880555 0.067524761 0 0 0.25019264 -0.4048202
0.016725952 0.067518339 0 0 0.25019264 -0.4048202
0.015571552 0.067512341 0 0 0.25019264 -0.4048202
0.014417343 0.067506768 0 0 0.25019264 -0.4048202
0.013263309 0.067501627 0 0 0.25019264 -0.4048202
0.012109437 0.067496918 0 0 0.25019264 -0.4048202
0.010955713 0.067492634 0 0 0.25019264 -0.4048202
0.0098021217 0.067488782 0 0 0.25019264 -0.4048202
0.0086486498 0.067485362 0 0 0.25019264 -0.4048202
0.0074952836 0.06748236 0 0 0.25019264 -0.4048202
0.0063420087 0.067479797 0 0 0.25019264 -0.4048202
0.0051888111 0.067477651 0 0 0.25019264 -0.4048202
0.0040356764 0.067475945 0 0 0.25019264 -0.4048202
0.0028825908 0.067474656 0 0 0.25019264 -0.4048202
0.0017295405 0.067473799 0 0 0.25019264 -0.4048202
0.00057651114 0.067473374 0 0 0.25019264 -0.4048202
0.039936636 0.066447124 0 0 0.25019264 -0.4048202
0.038773671 0.066432737 0 0 0.25019264 -0.4048202
0.037611183 0.066418782 0 0 0.25019264 -0.4048202
0.036449157 0.066405252 0 0 0.25019264 -0.4048202
0.035287578 0.066392154 0 0 0.25019264 -0.4048202
0.034126431 0.066379473 0 0 0.25019264 -0.4048202
0.032965705 0.066367224 0 0 0.25019264 -0.4048202
0.031805381 0.0663554 0 0 0.25019264 -0.4048202
0.030645449 0.066344008 0 0 0.25019264 -0.4048202
0.029485891 0.066333033 0 0 0.25019264 -0.4048202
0.028326696 0.066322483 0 0 0.25019264 -0.4048202
0.027167847 0.066312365 0 0 0.25019264 -0.4048202
0.026009331 0.066302665 0 0 0.25019264 -0.4048202
0.024851134 0.066293389 0 0 0.25019264 -0.4048202
0.023693239 0.066284537 0 0 0.25019264 -0.4048202
0.022535637 0.066276111 0 0 0.25019264 -0.4048202
0.021378309 0.066268109 0 0 0.25019264 -0.4048202
0.020221243 0.066260524 0 0 0.25019264 -0.4048202
0.019064423 0.066253364 0 0 0.25019264 -0.4048202
0.017907837 0.066246629 0 0 0.25019264 -0.4048202
0.01675147 0.066240311 0 0 0.25019264 -0.4048202
0.015595308 0.066234417 0 0 0.25019264 -0.4048202
0.014439335 0.066228949 0 0 0.25019264 -0.4048202
0.01328354 0.066223897 0 0 0.25019264 -0.4048202
0.012127906 0.06621927 0 0 0.25019264 -0.4048202
0.010972421 0.066215061 0 0 0.25019264 -0.4048202
0.0098170703 0.066211276 0 0 0.25019264 -0.4048202
0.0086618382 0.066207908 0 0 0.25019264 -0.4048202
0.0075067128 0.066204965 0 0 0.25019264 -0.4048202
0.0063516791 0.066202439 0 0 0.25019264 -0.4048202
0.0051967227 0.066200338 0 0 0.25019264 -0.4048202
0.0040418296 0.066198654 0 0 0.25019264 -0.4048202
0.0028869859 0.066197395 0 0 0.25019264 -0.4048202
0.0017321775 0.066196553 0 0 0.25019264 -0.4048202
0.00057739014 0.066196129 0 0 0.25019264 -0.4048202
0.039997809 0.065162361 0 0 0.25019264 -0.4048202
0.038833048 0.065148234 0 0 0.25019264 -0.4048202
0.037668768 0.065134525 0 0 0.25019264 -0.4048202
0.03650495 0.065121233 0 0 0.25019264 -0.4048202
0.035341583 0.065108366 0 0 0.25019264 -0.4048202
0.034178652 0.065095916 0 0 0.25019264 -0.4048202
0.033016138 0.065083891 0 0 0.25019264 -0.4048202
0.03185403 0.065072276 0 0 0.25019264 -0.4048202
0.030692317 0.065061085 0 0 0.25019264 -0.4048202
0.029530978 0.065050304 0 0 0.25019264 -0.4048202
0.028370004 0.065039948 0 0 0.25019264 -0.4048202
0.027209377 0.065030009 0 0 0.25019264 -0.4048202
0.026049083 0.065020479 0 0 0.25019264 -0.4048202
0.024889112 0.065011367 0 0 0.25019264 -0.4048202
0.023729444 0.06500268 0 0 0.25019264 -0.4048202
0.022570066 0.064994402 0 0 0.25019264 -0.4048202
0.021410966 0.064986534 0 0 0.25019264 -0.4048202
0.020252129 0.064979091 0 0 0.25019264 -0.4048202
0.01909354 0.064972058 0 0 0.25019264 -0.4048202
0.017935185 0.064965442 0 0 0.25019264 -0.4048202
0.016777048 0.064959235 0 0 0.25019264 -0.4048202
0.015619119 0.064953454 0 0 0.25019264 -0.4048202
0.014461379 0.064948075 0 0 0.25019264 -0.4048202
0.013303818 0.06494312 0 0 0.25019264 -0.4048202
0.012146419 0.064938568 0 0 0.25019264 -0.4048202
0.01098917 0.06493444 0 0 0.25019264 -0.4048202
0.0098320534 0.064930722 0 0 0.25019264 -0.4048202
0.0086750584 0.064927414 0 0 0.25019264 -0.4048202
0.0075181695 0.064924523 0 0 0.25019264 -0.4048202
0.0063613723 0.064922042 0 0 0.25019264 -0.4048202
0.0052046529 0.064919978 0 0 0.25019264 -0.4048202
0.0040479973 0.064918324 0 0 0.25019264 -0.4048202
0.0028913913 0.064917088 0 0 0.25019264 -0.4048202
0.0017348207 0.064916261 0 0 0.25019264 -0.4048202
0.00057827117 0.064915851 0 0 0.25019264 -0.4048202
0.038892571 0.063860632 0 0 0.25019264 -0.4048202
0.037726492 0.063847177 0 0 0.25019264 -0.4048202
0.036560882 0.063834131 0 0 0.25019264 -0.4048202
0.035395719 0.063821495 0 0 0.25019264 -0.4048202
0.034230996 0.063809276 0 0 0.25019264 -0.4048202
0.033066694 0.063797466 0 0 0.25019264 -0.4048202
0.031902798 0.063786067 0 0 0.25019264 -0.4048202
0.030739298 0.063775077 0 0 0.25019264 -0.4048202
0.029576175 0.063764498 0 0 0.25019264 -0.4048202
0.028413415 0.063754328 0 0 0.25019264 -0.4048202
0.027251005 0.06374456 0 0 0.25019264 -0.4048202
0.026088933 0.063735209 0 0 0.25019264 -0.4048202
0.024927178 0.063726269 0 0 0.25019264 -0.4048202
0.023765733 0.063717738 0 0 0.25019264 -0.4048202
0.022604579 0.063709609 0 0 0.25019264 -0.4048202
0.021443702 0.06370189 0 0 0.25019264 -0.4048202
0.02028309 0.063694581 0 0 0.25019264 -0.4048202
0.019122725 0.063687675 0 0 0.25019264 -0.4048202
0.017962597 0.063681178 0 0 0.25019264 -0.4048202
0.016802689 0.063675091 0 0 0.25019264 -0.4048202
0.015642988 0.063669406 0 0 0.25019264 -0.4048202
0.014483477 0.063664131 0 0 0.25019264 -0.4048202
