# .PCD v0.7 - Point Cloud Data file format
VERSION 0.7
FIELDS x y z vp_x vp_y vp_z
SIZE 4 4 4 4 4 4
TYPE F F F F F F
COUNT 1 1 1 1 1 1
WIDTH 710
HEIGHT 1
VIEWPOINT 0 0 0 1 0 0 0
POINTS 710
DATA ascii
0.035623975 0.064972952 0.07 -0.14741376 0.38593423 0.23852047
0.03461051 0.064619906 0.07 -0.14741376 0.38593423 0.23852047
0.033598196 0.06426663 0.07 -0.14741376 0.38593423 0.23852047
0.032587014 0.063913114 0.07 -0.14741376 0.38593423 0.23852047
0.031576946 0.063559368 0.07 -0.14741376 0.38593423 0.23852047
0.030567968 0.063205369 0.07 -0.14741376 0.38593423 0.23852047
0.029560067 0.062851124 0.07 -0.14741376 0.38593423 0.23852047
0.028553221 0.062496621 0.07 -0.14741376 0.38593423 0.23852047
0.027547412 0.062141851 0.07 -0.14741376 0.38593423 0.23852047
0.026542621 0.061786816 0.07 -0.14741376 0.38593423 0.23852047
0.025538828 0.061431505 0.07 -0.14741376 0.38593423 0.23852047
0.024536015 0.061075911 0.07 -0.14741376 0.38593423 0.23852047
0.023534166 0.06072003 0.07 -0.14741376 0.38593423 0.23852047
0.022533258 0.060363859 0.07 -0.14741376 0.38593423 0.23852047
0.021533275 0.060007386 0.07 -0.14741376 0.38593423 0.23852047
0.020534199 0.059650611 0.07 -0.14741376 0.38593423 0.23852047
0.019536011 0.059293523 0.07 -0.14741376 0.38593423 0.23852047
0.018538691 0.058936119 0.07 -0.14741376 0.38593423 0.23852047
0.017542224 0.058578391 0.07 -0.14741376 0.38593423 0.23852047
0.016546588 0.058220334 0.07 -0.14741376 0.38593423 0.23852047
0.015551768 0.057861947 0.07 -0.14741376 0.38593423 0.23852047
0.014557745 0.057503216 0.07 -0.14741376 0.38593423 0.23852047
0.0135645 0.057144135 0.07 -0.14741376 0.38593423 0.23852047
0.012572016 0.056784704 0.07 -0.14741376 0.38593423 0.23852047
0.011580274 0.056424916 0.07 -0.14741376 0.38593423 0.23852047
0.010589257 0.056064762 0.07 -0.14741376 0.38593423 0.23852047
0.0095989462 0.055704236 0.07 -0.14741376 0.38593423 0.23852047
0.0086093238 0.055343334 0.07 -0.14741376 0.38593423 0.23852047
0.0076203733 0.054982048 0.07 -0.14741376 0.38593423 0.23852047
0.0066320756 0.054620374 0.07 -0.14741376 0.38593423 0.23852047
0.0056444136 0.054258302 0.07 -0.14741376 0.38593423 0.23852047
0.0046573696 0.053895831 0.07 -0.14741376 0.38593423 0.23852047
0.0036709257 0.053532951 0.07 -0.14741376 0.38593423 0.23852047
0.0026850642 0.05316966 0.07 -0.14741376 0.38593423 0.23852047
0.0016997679 0.052805945 0.07 -0.14741376 0.38593423 0.23852047
0.037465423 0.06827461 0.07 -0.14741376 0.38593423 0.23852047
0.036454491 0.067923106 0.07 -0.14741376 0.38593423 0.23852047
0.035444748 0.067571409 0.07 -0.14741376 0.38593423 0.23852047
0.03443617 0.067219518 0.07 -0.14741376 0.38593423 0.23852047
0.033428743 0.066867419 0.07 -0.14741376 0.38593423 0.23852047
0.032422449 0.066515118 0.07 -0.14741376 0.38593423 0.23852047
0.031417266 0.066162601 0.07 -0.14741376 0.38593423 0.23852047
0.030413171 0.065809861 0.07 -0.14741376 0.38593423 0.23852047
0.029410152 0.06545689 0.07 -0.14741376 0.38593423 0.23852047
0.028408187 0.065103695 0.07 -0.14741376 0.38593423 0.23852047
0.027407257 0.064750254 0.07 -0.14741376 0.38593423 0.23852047
0.026407344 0.064396575 0.07 -0.14741376 0.38593423 0.23852047
0.025408432 0.064042643 0.07 -0.14741376 0.38593423 0.23852047
0.024410499 0.06368845 0.07 -0.14741376 0.38593423 0.23852047
0.023413528 0.063334003 0.07 -0.14741376 0.38593423 0.23852047
0.022417501 0.062979281 0.07 -0.14741376 0.38593423 0.23852047
0.021422397 0.062624291 0.07 -0.14741376 0.38593423 0.23852047
0.020428201 0.062269021 0.07 -0.14741376 0.38593423 0.23852047
0.019434895 0.061913464 0.07 -0.14741376 0.38593423 0.23852047
0.018442458 0.061557613 0.07 -0.14741376 0.38593423 0.23852047
0.017450875 0.061201468 0.07 -0.14741376 0.38593423 0.23852047
0.016460124 0.060845017 0.07 -0.14741376 0.38593423 0.23852047
0.015470191 0.060488258 0.07 -0.14741376 0.38593423 0.23852047
0.014481056 0.060131185 0.07 -0.14741376 0.38593423 0.23852047
0.013492702 0.059773788 0.07 -0.14741376 0.38593423 0.23852047
0.012505109 0.059416063 0.07 -0.14741376 0.38593423 0.23852047
0.011518262 0.059058007 0.07 -0.14741376 0.38593423 0.23852047
0.010532144 0.058699612 0.07 -0.14741376 0.38593423 0.23852047
0.0095467335 0.05834087 0.07 -0.14741376 0.38593423 0.23852047
0.0085620144 0.057981778 0.07 -0.14741376 0.38593423 0.23852047
0.0075779706 0.057622328 0.07 -0.14741376 0.38593423 0.23852047
0.0065945834 0.057262518 0.07 -0.14741376 0.38593423 0.23852047
0.0056118355 0.056902338 0.07 -0.14741376 0.38593423 0.23852047
0.0046297088 0.056541778 0.07 -0.14741376 0.38593423 0.23852047
0.0036481863 0.056180842 0.07 -0.14741376 0.38593423 0.23852047
0.0026672508 0.055819515 0.07 -0.14741376 0.38593423 0.23852047
0.0016868847 0.055457797 0.07 -0.14741376 0.38593423 0.23852047
0.0007070704 0.055095676 0.07 -0.14741376 0.38593423 0.23852047
0.036273021 0.07049302 0.07 -0.14741376 0.38593423 0.23852047
0.03526812 0.070142418 0.07 -0.14741376 0.38593423 0.23852047
0.034264382 0.069791637 0.07 -0.14741376 0.38593423 0.23852047
0.033261795 0.069440685 0.07 -0.14741376 0.38593423 0.23852047
0.032260332 0.069089547 0.07 -0.14741376 0.38593423 0.23852047
0.03125998 0.068738215 0.07 -0.14741376 0.38593423 0.23852047
0.030260719 0.068386681 0.07 -0.14741376 0.38593423 0.23852047
0.02926253 0.068034954 0.07 -0.14741376 0.38593423 0.23852047
0.028265394 0.067683011 0.07 -0.14741376 0.38593423 0.23852047
0.027269294 0.06733086 0.07 -0.14741376 0.38593423 0.23852047
0.026274212 0.066978484 0.07 -0.14741376 0.38593423 0.23852047
0.025280125 0.066625886 0.07 -0.14741376 0.38593423 0.23852047
0.024287021 0.066273056 0.07 -0.14741376 0.38593423 0.23852047
0.023294877 0.065919988 0.07 -0.14741376 0.38593423 0.23852047
0.022303676 0.065566674 0.07 -0.14741376 0.38593423 0.23852047
0.021313401 0.065213114 0.07 -0.14741376 0.38593423 0.23852047
0.020324035 0.064859301 0.07 -0.14741376 0.38593423 0.23852047
0.019335557 0.064505219 0.07 -0.14741376 0.38593423 0.23852047
0.018347951 0.064150877 0.07 -0.14741376 0.38593423 0.23852047
0.017361198 0.063796259 0.07 -0.14741376 0.38593423 0.23852047
0.016375279 0.063441366 0.07 -0.14741376 0.38593423 0.23852047
0.01539018 0.063086182 0.07 -0.14741376 0.38593423 0.23852047
0.01440588 0.062730715 0.07 -0.14741376 0.38593423 0.23852047
0.013422363 0.062374946 0.07 -0.14741376 0.38593423 0.23852047
0.012439611 0.062018875 0.07 -0.14741376 0.38593423 0.23852047
0.011457606 0.061662499 0.07 -0.14741376 0.38593423 0.23852047
0.010476331 0.061305806 0.07 -0.14741376 0.38593423 0.23852047
0.0094957687 0.060948797 0.07 -0.14741376 0.38593423 0.23852047
0.0085159 0.060591459 0.07 -0.14741376 0.38593423 0.23852047
0.0075367088 0.06023379 0.07 -0.14741376 0.38593423 0.23852047
0.006558178 0.059875783 0.07 -0.14741376 0.38593423 0.23852047
0.0055802893 0.059517432 0.07 -0.14741376 0.38593423 0.23852047
0.004603026 0.059158731 0.07 -0.14741376 0.38593423 0.23852047
0.003626371 0.058799673 0.07 -0.14741376 0.38593423 0.23852047
0.0026503066 0.058440257 0.07 -0.14741376 0.38593423 0.23852047
0.0016748157 0.058080472 0.07 -0.14741376 0.38593423 0.23852047
0.00069988129 0.057720311 0.07 -0.14741376 0.38593423 0.23852047
0.00046707349 0.055703744 0.069150649 -0.14741376 0.38593423 0.23852047
0.035094026 0.072686501 0.07 -0.14741376 0.38593423 0.23852047
0.034095079 0.072336793 0.07 -0.14741376 0.38593423 0.23852047
0.033097275 0.071986936 0.07 -0.14741376 0.38593423 0.23852047
0.032100599 0.071636915 0.07 -0.14741376 0.38593423 0.23852047
0.03110503 0.07128673 0.07 -0.14741376 0.38593423 0.23852047
0.030110551 0.070936367 0.07 -0.14741376 0.38593423 0.23852047
0.029117143 0.070585832 0.07 -0.14741376 0.38593423 0.23852047
0.028124785 0.070235111 0.07 -0.14741376 0.38593423 0.23852047
0.027133465 0.069884196 0.07 -0.14741376 0.38593423 0.23852047
0.026143158 0.069533087 0.07 -0.14741376 0.38593423 0.23852047
0.025153849 0.06918177 0.07 -0.14741376 0.38593423 0.23852047
0.024165522 0.068830252 0.07 -0.14741376 0.38593423 0.23852047
0.023178155 0.068478517 0.07 -0.14741376 0.38593423 0.23852047
0.022191731 0.068126567 0.07 -0.14741376 0.38593423 0.23852047
0.021206234 0.067774385 0.07 -0.14741376 0.38593423 0.23852047
0.020221643 0.06742198 0.07 -0.14741376 0.38593423 0.23852047
0.019237943 0.067069329 0.07 -0.14741376 0.38593423 0.23852047
0.018255116 0.06671644 0.07 -0.14741376 0.38593423 0.23852047
0.017273143 0.066363305 0.07 -0.14741376 0.38593423 0.23852047
0.016292006 0.066009916 0.07 -0.14741376 0.38593423 0.23852047
0.015311688 0.06565626 0.07 -0.14741376 0.38593423 0.23852047
0.014332173 0.065302342 0.07 -0.14741376 0.38593423 0.23852047
0.013353442 0.064948156 0.07 -0.14741376 0.38593423 0.23852047
0.012375477 0.064593688 0.07 -0.14741376 0.38593423 0.23852047
0.011398262 0.064238936 0.07 -0.14741376 0.38593423 0.23852047
0.010421779 0.063883893 0.07 -0.14741376 0.38593423 0.23852047
0.00944601 0.06352856 0.07 -0.14741376 0.38593423 0.23852047
0.0084709395 0.063172922 0.07 -0.14741376 0.38593423 0.23852047
0.0074965484 0.062816978 0.07 -0.14741376 0.38593423 0.23852047
0.0065228203 0.062460721 0.07 -0.14741376 0.38593423 0.23852047
0.0055497386 0.062104147 0.07 -0.14741376 0.38593423 0.23852047
0.0045772851 0.061747245 0.07 -0.14741376 0.38593423 0.23852047
0.0036054438 0.061390016 0.07 -0.14741376 0.38593423 0.23852047
0.0026341968 0.061032448 0.07 -0.14741376 0.38593423 0.23852047
0.0016635276 0.060674537 0.07 -0.14741376 0.38593423 0.23852047
0.00069341913 0.06031628 0.07 -0.14741376 0.38593423 0.23852047
4.0306699e-05 0.05925658 0.069637559 -0.14741376 0.38593423 0.23852047
0.0004484111 0.055817578 0.068047427 -0.14741376 0.38593423 0.23852047
0.023634791 0.0010811567 0.039999999 -0.14741376 0.38593423 0.23852047
0.022494428 0.00065740896 0.039999999 -0.14741376 0.38593423 0.23852047
0.021354625 0.00023321553 0.039999999 -0.14741376 0.38593423 0.23852047
0.034680542 0.07356488 0.069300845 -0.14741376 0.38593423 0.23852047
0.032935124 0.074506685 0.07 -0.14741376 0.38593423 0.23852047
0.031943183 0.074157745 0.07 -0.14741376 0.38593423 0.23852047
0.030952351 0.073808663 0.07 -0.14741376 0.38593423 0.23852047
0.029962603 0.073459424 0.07 -0.14741376 0.38593423 0.23852047
0.028973926 0.073110037 0.07 -0.14741376 0.38593423 0.23852047
0.027986301 0.072760485 0.07 -0.14741376 0.38593423 0.23852047
0.026999708 0.07241077 0.07 -0.14741376 0.38593423 0.23852047
0.026014131 0.072060876 0.07 -0.14741376 0.38593423 0.23852047
0.025029549 0.07171081 0.07 -0.14741376 0.38593423 0.23852047
0.024045948 0.071360558 0.07 -0.14741376 0.38593423 0.23852047
0.023063308 0.071010113 0.07 -0.14741376 0.38593423 0.23852047
0.022081612 0.070659474 0.07 -0.14741376 0.38593423 0.23852047
0.02110084 0.070308633 0.07 -0.14741376 0.38593423 0.23852047
0.020120976 0.069957584 0.07 -0.14741376 0.38593423 0.23852047
0.019142006 0.069606319 0.07 -0.14741376 0.38593423 0.23852047
0.018163906 0.069254838 0.07 -0.14741376 0.38593423 0.23852047
0.017186662 0.068903133 0.07 -0.14741376 0.38593423 0.23852047
0.016210256 0.068551198 0.07 -0.14741376 0.38593423 0.23852047
0.01523467 0.068199024 0.07 -0.14741376 0.38593423 0.23852047
0.014259887 0.067846604 0.07 -0.14741376 0.38593423 0.23852047
0.01328589 0.067493945 0.07 -0.14741376 0.38593423 0.23852047
0.012312663 0.067141026 0.07 -0.14741376 0.38593423 0.23852047
0.011340186 0.066787854 0.07 -0.14741376 0.38593423 0.23852047
0.010368443 0.066434413 0.07 -0.14741376 0.38593423 0.23852047
0.0093974173 0.066080697 0.07 -0.14741376 0.38593423 0.23852047
0.0084270919 0.065726712 0.07 -0.14741376 0.38593423 0.23852047
0.0074574496 0.065372437 0.07 -0.14741376 0.38593423 0.23852047
0.0064884732 0.065017879 0.07 -0.14741376 0.38593423 0.23852047
0.0055201454 0.064663023 0.07 -0.14741376 0.38593423 0.23852047
0.00455245 0.064307868 0.07 -0.14741376 0.38593423 0.23852047
0.00358537 0.063952409 0.07 -0.14741376 0.38593423 0.23852047
0.0026188882 0.063596636 0.07 -0.14741376 0.38593423 0.23852047
0.0016529878 0.063240543 0.07 -0.14741376 0.38593423 0.23852047
0.00068765221 0.06288413 0.07 -0.14741376 0.38593423 0.23852047
9.2928829e-05 0.061713982 0.069576152 -0.14741376 0.38593423 0.23852047
3.5695572e-05 0.059341628 0.068527661 -0.14741376 0.38593423 0.23852047
0.00042971419 0.055931624 0.066942155 -0.14741376 0.38593423 0.23852047
0.022510177 0.0036913722 0.039999999 -0.14741376 0.38593423 0.23852047
0.021376025 0.0032694985 0.039999999 -0.14741376 0.38593423 0.23852047
0.020242419 0.0028472017 0.039999999 -0.14741376 0.38593423 0.23852047
0.019109342 0.0024244748 0.039999999 -0.14741376 0.38593423 0.23852047
0.017976774 0.0020013107 0.039999999 -0.14741376 0.38593423 0.23852047
0.016844694 0.0015777026 0.039999999 -0.14741376 0.38593423 0.23852047
0.015713084 0.0011536431 0.039999999 -0.14741376 0.38593423 0.23852047
0.014581924 0.0007291254 0.039999999 -0.14741376 0.38593423 0.23852047
0.013451195 0.0003041423 0.039999999 -0.14741376 0.38593423 0.23852047
0.034995064 0.073194616 0.067923963 -0.14741376 0.38593423 0.23852047
0.032334525 0.075709343 0.069486082 -0.14741376 0.38593423 0.23852047
0.030801881 0.076304503 0.07 -0.14741376 0.38593423 0.23852047
0.029816819 0.075956352 0.07 -0.14741376 0.38593423 0.23852047
0.028832825 0.075608075 0.07 -0.14741376 0.38593423 0.23852047
0.027849881 0.075259656 0.07 -0.14741376 0.38593423 0.23852047
0.026867969 0.074911088 0.07 -0.14741376 0.38593423 0.23852047
0.02588707 0.074562378 0.07 -0.14741376 0.38593423 0.23852047
0.024907168 0.074213505 0.07 -0.14741376 0.38593423 0.23852047
0.023928246 0.073864475 0.07 -0.14741376 0.38593423 0.23852047
0.022950282 0.073515274 0.07 -0.14741376 0.38593423 0.23852047
0.021973263 0.073165901 0.07 -0.14741376 0.38593423 0.23852047
0.02099717 0.07281635 0.07 -0.14741376 0.38593423 0.23852047
0.020021986 0.072466619 0.07 -0.14741376 0.38593423 0.23852047
0.019047692 0.072116695 0.07 -0.14741376 0.38593423 0.23852047
0.01807427 0.071766578 0.07 -0.14741376 0.38593423 0.23852047
0.017101707 0.071416251 0.07 -0.14741376 0.38593423 0.23852047
0.016129982 0.071065724 0.07 -0.14741376 0.38593423 0.23852047
0.015159078 0.07071498 0.07 -0.14741376 0.38593423 0.23852047
0.014188978 0.070364021 0.07 -0.14741376 0.38593423 0.23852047
0.013219666 0.070012838 0.07 -0.14741376 0.38593423 0.23852047
0.012251125 0.069661424 0.07 -0.14741376 0.38593423 0.23852047
0.011283336 0.069309771 0.07 -0.14741376 0.38593423 0.23852047
0.010316283 0.06895788 0.07 -0.14741376 0.38593423 0.23852047
0.0093499506 0.068605743 0.07 -0.14741376 0.38593423 0.23852047
0.00838432 0.068253346 0.07 -0.14741376 0.38593423 0.23852047
0.0074193752 0.067900695 0.07 -0.14741376 0.38593423 0.23852047
0.0064550992 0.067547783 0.07 -0.14741376 0.38593423 0.23852047
0.0054914751 0.067194596 0.07 -0.14741376 0.38593423 0.23852047
0.0045284862 0.066841133 0.07 -0.14741376 0.38593423 0.23852047
0.0035661156 0.066487387 0.07 -0.14741376 0.38593423 0.23852047
0.0026043472 0.066133358 0.07 -0.14741376 0.38593423 0.23852047
0.0016431641 0.06577903 0.07 -0.14741376 0.38593423 0.23852047
0.00074339076 0.065292731 0.06993077 -0.14741376 0.38593423 0.23852047
0.0003643579 0.063669726 0.069264844 -0.14741376 0.38593423 0.23852047
9.6691714e-05 0.061783388 0.068462402 -0.14741376 0.38593423 0.23852047
3.1075037e-05 0.059426848 0.067415498 -0.14741376 0.38593423 0.23852047
0.00041098235 0.056045882 0.06583482 -0.14741376 0.38593423 0.23852047
0.021397898 0.0062729577 0.039999999 -0.14741376 0.38593423 0.23852047
0.020269888 0.0058529414 0.039999999 -0.14741376 0.38593423 0.23852047
0.01914241 0.0054325238 0.039999999 -0.14741376 0.38593423 0.23852047
0.018015448 0.0050116987 0.039999999 -0.14741376 0.38593423 0.23852047
0.016888982 0.0045904587 0.039999999 -0.14741376 0.38593423 0.23852047
0.01576299 0.0041687973 0.039999999 -0.14741376 0.38593423 0.23852047
0.014637458 0.0037467068 0.039999999 -0.14741376 0.38593423 0.23852047
0.013512364 0.0033241804 0.039999999 -0.14741376 0.38593423 0.23852047
0.012387688 0.0029012114 0.039999999 -0.14741376 0.38593423 0.23852047
0.011263413 0.0024777926 0.039999999 -0.14741376 0.38593423 0.23852047
0.010139518 0.0020539169 0.039999999 -0.14741376 0.38593423 0.23852047
0.0090159858 0.0016295775 0.039999999 -0.14741376 0.38593423 0.23852047
0.0078927958 0.001204767 0.039999999 -0.14741376 0.38593423 0.23852047
0.0067699295 0.0007794784 0.039999999 -0.14741376 0.38593423 0.23852047
0.0056473683 0.00035370464 0.039999999 -0.14741376 0.38593423 0.23852047
0.0353112 0.072822444 0.06654004 -0.14741376 0.38593423 0.23852047
0.032506388 0.07557869 0.068246514 -0.14741376 0.38593423 0.23852047
0.030502278 0.076987855 0.069210969 -0.14741376 0.38593423 0.23852047
0.028770171 0.077946879 0.069926903 -0.14741376 0.38593423 0.23852047
0.027715469 0.077733092 0.07 -0.14741376 0.38593423 0.23852047
0.026738189 0.077385642 0.07 -0.14741376 0.38593423 0.23852047
0.025761923 0.077038065 0.07 -0.14741376 0.38593423 0.23852047
0.024786651 0.076690346 0.07 -0.14741376 0.38593423 0.23852047
0.023812359 0.076342493 0.07 -0.14741376 0.38593423 0.23852047
0.022839027 0.075994499 0.07 -0.14741376 0.38593423 0.23852047
0.021866638 0.075646356 0.07 -0.14741376 0.38593423 0.23852047
0.020895174 0.075298049 0.07 -0.14741376 0.38593423 0.23852047
0.019924618 0.074949585 0.07 -0.14741376 0.38593423 0.23852047
0.018954955 0.074600957 0.07 -0.14741376 0.38593423 0.23852047
0.017986165 0.074252151 0.07 -0.14741376 0.38593423 0.23852047
0.017018232 0.073903173 0.07 -0.14741376 0.38593423 0.23852047
0.016051138 0.073554002 0.07 -0.14741376 0.38593423 0.23852047
0.015084867 0.073204644 0.07 -0.14741376 0.38593423 0.23852047
0.014119403 0.072855093 0.07 -0.14741376 0.38593423 0.23852047
0.013154726 0.07250534 0.07 -0.14741376 0.38593423 0.23852047
0.012190822 0.072155379 0.07 -0.14741376 0.38593423 0.23852047
0.011227672 0.071805201 0.07 -0.14741376 0.38593423 0.23852047
0.01026526 0.071454816 0.07 -0.14741376 0.38593423 0.23852047
0.0093035707 0.071104199 0.07 -0.14741376 0.38593423 0.23852047
0.0083425855 0.070753351 0.07 -0.14741376 0.38593423 0.23852047
0.0073822881 0.070402265 0.07 -0.14741376 0.38593423 0.23852047
0.0064226622 0.070050947 0.07 -0.14741376 0.38593423 0.23852047
0.0054636914 0.069699377 0.07 -0.14741376 0.38593423 0.23852047
0.0045053586 0.069347553 0.07 -0.14741376 0.38593423 0.23852047
0.0035476477 0.068995468 0.07 -0.14741376 0.38593423 0.23852047
0.0025905422 0.068643123 0.07 -0.14741376 0.38593423 0.23852047
0.0017268914 0.0680926 0.069894999 -0.14741376 0.38593423 0.23852047
0.0012100373 0.066795357 0.069394663 -0.14741376 0.38593423 0.23852047
0.0007578393 0.065344766 0.068814412 -0.14741376 0.38593423 0.23852047
0.0003740885 0.063729078 0.0681483 -0.14741376 0.38593423 0.23852047
0.00010046271 0.061852939 0.067346253 -0.14741376 0.38593423 0.23852047
2.6444994e-05 0.059512246 0.066301048 -0.14741376 0.38593423 0.23852047
0.00039221527 0.056160353 0.064725406 -0.14741376 0.38593423 0.23852047
0.020297738 0.008826416 0.039999999 -0.14741376 0.38593423 0.23852047
0.0191758 0.008408241 0.039999999 -0.14741376 0.38593423 0.23852047
0.018054381 0.007989686 0.039999999 -0.14741376 0.38593423 0.23852047
0.016933467 0.0075707454 0.039999999 -0.14741376 0.38593423 0.23852047
0.015813034 0.0071514118 0.039999999 -0.14741376 0.38593423 0.23852047
0.014693066 0.0067316783 0.039999999 -0.14741376 0.38593423 0.23852047
0.013573544 0.0063115382 0.039999999 -0.14741376 0.38593423 0.23852047
0.012454447 0.0058909841 0.039999999 -0.14741376 0.38593423 0.23852047
0.011335758 0.0054700095 0.039999999 -0.14741376 0.38593423 0.23852047
0.010217458 0.0050486079 0.039999999 -0.14741376 0.38593423 0.23852047
0.0090995273 0.0046267714 0.039999999 -0.14741376 0.38593423 0.23852047
0.0079819476 0.0042044935 0.039999999 -0.14741376 0.38593423 0.23852047
0.0068647005 0.0037817669 0.039999999 -0.14741376 0.38593423 0.23852047
0.0057477662 0.0033585848 0.039999999 -0.14741376 0.38593423 0.23852047
0.0046311268 0.0029349404 0.039999999 -0.14741376 0.38593423 0.23852047
0.0035147627 0.0025108263 0.039999999 -0.14741376 0.38593423 0.23852047
0.0023986562 0.0020862357 0.039999999 -0.14741376 0.38593423 0.23852047
0.0012827878 0.0016611613 0.039999999 -0.14741376 0.38593423 0.23852047
0.00016713901 0.0012355961 0.039999999 -0.14741376 0.38593423 0.23852047
0.03562896 0.072448365 0.065148987 -0.14741376 0.38593423 0.23852047
0.032678872 0.075447567 0.06700249 -0.14741376 0.38593423 0.23852047
0.030646121 0.076901309 0.067999072 -0.14741376 0.38593423 0.23852047
0.028894886 0.077889182 0.068736672 -0.14741376 0.38593423 0.23852047
0.027305376 0.078612328 0.069326922 -0.14741376 0.38593423 0.23852047
0.02585795 0.07910005 0.069786429 -0.14741376 0.38593423 0.23852047
0.024667948 0.079141818 0.07 -0.14741376 0.38593423 0.23852047
0.023698239 0.078795105 0.07 -0.14741376 0.38593423 0.23852047
0.02272949 0.078448273 0.07 -0.14741376 0.38593423 0.23852047
0.021761684 0.078101307 0.07 -0.14741376 0.38593423 0.23852047
0.020794801 0.077754214 0.07 -0.14741376 0.38593423 0.23852047
0.019828828 0.077406973 0.07 -0.14741376 0.38593423 0.23852047
0.018863747 0.077059589 0.07 -0.14741376 0.38593423 0.23852047
0.017899541 0.076712057 0.07 -0.14741376 0.38593423 0.23852047
0.01693619 0.076364368 0.07 -0.14741376 0.38593423 0.23852047
0.015973682 0.076016523 0.07 -0.14741376 0.38593423 0.23852047
0.015011996 0.075668506 0.07 -0.14741376 0.38593423 0.23852047
0.014051117 0.075320311 0.07 -0.14741376 0.38593423 0.23852047
0.013091028 0.074971944 0.07 -0.14741376 0.38593423 0.23852047
0.012131712 0.074623391 0.07 -0.14741376 0.38593423 0.23852047
0.011173153 0.074274644 0.07 -0.14741376 0.38593423 0.23852047
0.010215335 0.073925704 0.07 -0.14741376 0.38593423 0.23852047
0.0092582386 0.073576562 0.07 -0.14741376 0.38593423 0.23852047
0.0083018495 0.073227212 0.07 -0.14741376 0.38593423 0.23852047
0.0073461514 0.072877653 0.07 -0.14741376 0.38593423 0.23852047
0.0063911271 0.072527871 0.07 -0.14741376 0.38593423 0.23852047
0.0054367604 0.072177872 0.07 -0.14741376 0.38593423 0.23852047
0.0044830348 0.071827635 0.07 -0.14741376 0.38593423 0.23852047
0.0035811428 0.071370482 0.069942832 -0.14741376 0.38593423 0.23852047
0.002923388 0.070400372 0.069611318 -0.14741376 0.38593423 0.23852047
0.0023249593 0.069296509 0.069209158 -0.14741376 0.38593423 0.23852047
0.0017460518 0.068140693 0.068780281 -0.14741376 0.38593423 0.23852047
0.0012285495 0.066841818 0.068276174 -0.14741376 0.38593423 0.23852047
0.00077232084 0.065396927 0.067695506 -0.14741376 0.38593423 0.23852047
0.00038384087 0.063788563 0.067029253 -0.14741376 0.38593423 0.23852047
0.0001042419 0.061922643 0.066227674 -0.14741376 0.38593423 0.23852047
2.1805352e-05 0.05959782 0.065184288 -0.14741376 0.38593423 0.23852047
0.00037341256 0.056275044 0.063613884 -0.14741376 0.38593423 0.23852047
0.019209484 0.011352239 0.039999999 -0.14741376 0.38593423 0.23852047
0.018093551 0.010935889 0.039999999 -0.14741376 0.38593423 0.23852047
0.016978126 0.01051918 0.039999999 -0.14741376 0.38593423 0.23852047
0.015863191 0.010102106 0.039999999 -0.14741376 0.38593423 0.23852047
0.014748727 0.0096846614 0.039999999 -0.14741376 0.38593423 0.23852047
0.013634714 0.0092668384 0.039999999 -0.14741376 0.38593423 0.23852047
0.012521136 0.0088486308 0.039999999 -0.14741376 0.38593423 0.23852047
0.011407971 0.0084300302 0.039999999 -0.14741376 0.38593423 0.23852047
0.010295203 0.008011031 0.039999999 -0.14741376 0.38593423 0.23852047
0.0091828126 0.0075916261 0.039999999 -0.14741376 0.38593423 0.23852047
0.0080707809 0.0071718087 0.039999999 -0.14741376 0.38593423 0.23852047
0.0069590891 0.0067515718 0.039999999 -0.14741376 0.38593423 0.23852047
0.005847719 0.0063309083 0.039999999 -0.14741376 0.38593423 0.23852047
0.0047366521 0.0059098112 0.039999999 -0.14741376 0.38593423 0.23852047
0.0036258702 0.0054882742 0.039999999 -0.14741376 0.38593423 0.23852047
0.0025153542 0.00506629 0.039999999 -0.14741376 0.38593423 0.23852047
0.0014050857 0.004643851 0.039999999 -0.14741376 0.38593423 0.23852047
0.00029504628 0.0042209513 0.039999999 -0.14741376 0.38593423 0.23852047
2.7755576e-17 0.0016737058 0.038896643 -0.14741376 0.38593423 0.23852047
0.035981651 0.072015367 0.063719012 -0.14741376 0.38593423 0.23852047
0.032851979 0.075315967 0.065753959 -0.14741376 0.38593423 0.23852047
0.030790443 0.07681448 0.066783145 -0.14741376 0.38593423 0.23852047
0.029019993 0.077831298 0.067542717 -0.14741376 0.38593423 0.23852047
0.027417745 0.078572586 0.068147883 -0.14741376 0.38593423 0.23852047
0.025966214 0.079063572 0.068613142 -0.14741376 0.38593423 0.23852047
0.024586799 0.079439111 0.069013551 -0.14741376 0.38593423 0.23852047
0.023260396 0.079731047 0.069366917 -0.14741376 0.38593423 0.23852047
0.022025434 0.079868153 0.069634117 -0.14741376 0.38593423 0.23852047
0.020813935 0.079970814 0.069881782 -0.14741376 0.38593423 0.23852047
0.019734569 0.079839252 0.07 -0.14741376 0.38593423 0.23852047
0.018774023 0.079493076 0.07 -0.14741376 0.38593423 0.23852047
0.017814353 0.079146773 0.07 -0.14741376 0.38593423 0.23852047
0.01685554 0.078800336 0.07 -0.14741376 0.38593423 0.23852047
0.015897566 0.078453757 0.07 -0.14741376 0.38593423 0.23852047
0.014940419 0.078107029 0.07 -0.14741376 0.38593423 0.23852047
0.013984079 0.07776016 0.07 -0.14741376 0.38593423 0.23852047
0.013028531 0.077413127 0.07 -0.14741376 0.38593423 0.23852047
0.012073757 0.077065937 0.07 -0.14741376 0.38593423 0.23852047
0.011119741 0.076718576 0.07 -0.14741376 0.38593423 0.23852047
0.010166467 0.076371036 0.07 -0.14741376 0.38593423 0.23852047
0.0092139179 0.076023325 0.07 -0.14741376 0.38593423 0.23852047
0.0082620783 0.075675428 0.07 -0.14741376 0.38593423 0.23852047
0.0073109306 0.075327337 0.07 -0.14741376 0.38593423 0.23852047
0.0064921887 0.074712679 0.069855638 -0.14741376 0.38593423 0.23852047
0.005726425 0.073987328 0.06965179 -0.14741376 0.38593423 0.23852047
0.0049962923 0.073184431 0.069406576 -0.14741376 0.38593423 0.23852047
0.0042818901 0.072343372 0.069141418 -0.14741376 0.38593423 0.23852047
0.0036084487 0.07141076 0.068827569 -0.14741376 0.38593423 0.23852047
0.0029498299 0.070439368 0.068493649 -0.14741376 0.38593423 0.23852047
0.0023479108 0.069339804 0.068091594 -0.14741376 0.38593423 0.23852047
0.0017652569 0.068188891 0.067662962 -0.14741376 0.38593423 0.23852047
0.0012471051 0.066888392 0.067155063 -0.14741376 0.38593423 0.23852047
0.00078683568 0.065449201 0.066574022 -0.14741376 0.38593423 0.23852047
0.00039361522 0.063848183 0.065907694 -0.14741376 0.38593423 0.23852047
0.00010802934 0.0619925 0.06510666 -0.14741376 0.38593423 0.23852047
1.715602e-05 0.059683573 0.064065188 -0.14741376 0.38593423 0.23852047
0.00035457389 0.056389954 0.062500231 -0.14741376 0.38593423 0.23852047
0.018132931 0.013850907 0.039999999 -0.14741376 0.38593423 0.23852047
0.017022936 0.013436365 0.039999999 -0.14741376 0.38593423 0.23852047
0.015913438 0.013021487 0.039999999 -0.14741376 0.38593423 0.23852047
0.014804418 0.012606264 0.039999999 -0.14741376 0.38593423 0.23852047
0.013695856 0.01219069 0.039999999 -0.14741376 0.38593423 0.23852047
0.012587734 0.011774761 0.039999999 -0.14741376 0.38593423 0.23852047
0.011480034 0.011358466 0.039999999 -0.14741376 0.38593423 0.23852047
0.010372737 0.010941801 0.039999999 -0.14741376 0.38593423 0.23852047
0.0092658252 0.010524758 0.039999999 -0.14741376 0.38593423 0.23852047
0.0081592798 0.010107331 0.039999999 -0.14741376 0.38593423 0.23852047
0.0070530823 0.0096895127 0.039999999 -0.14741376 0.38593423 0.23852047
0.005947215 0.0092712957 0.039999999 -0.14741376 0.38593423 0.23852047
0.0048416592 0.0088526746 0.039999999 -0.14741376 0.38593423 0.23852047
0.0037363963 0.0084336419 0.039999999 -0.14741376 0.38593423 0.23852047
0.0026314082 0.00801419 0.039999999 -0.14741376 0.38593423 0.23852047
0.0015266767 0.0075943135 0.039999999 -0.14741376 0.38593423 0.23852047
0.00042218357 0.0071740043 0.039999999 -0.14741376 0.38593423 0.23852047
0 0.0049906145 0.039077166 -0.14741376 0.38593423 0.23852047
0 0.0016761409 0.037565093 -0.14741376 0.38593423 0.23852047
0.036708292 0.070943587 0.06192429 -0.14741376 0.38593423 0.23852047
0.033044539 0.075151473 0.064482741 -0.14741376 0.38593423 0.23852047
0.030935248 0.076727353 0.065563142 -0.14741376 0.38593423 0.23852047
0.029145494 0.077773236 0.066344999 -0.14741376 0.38593423 0.23852047
0.027539942 0.078516051 0.066955969 -0.14741376 0.38593423 0.23852047
0.026074803 0.079026982 0.067436323 -0.14741376 0.38593423 0.23852047
0.02468474 0.079417557 0.067848615 -0.14741376 0.38593423 0.23852047
0.023355935 0.079710014 0.068205453 -0.14741376 0.38593423 0.23852047
0.022112524 0.079858683 0.068481639 -0.14741376 0.38593423 0.23852047
0.020893214 0.079971932 0.068737604 -0.14741376 0.38593423 0.23852047
0.019740203 0.079971746 0.068930164 -0.14741376 0.38593423 0.23852047
0.018609265 0.079937205 0.06910333 -0.14741376 0.38593423 0.23852047
0.017526338 0.079819389 0.069230109 -0.14741376 0.38593423 0.23852047
0.016462747 0.079670109 0.06933929 -0.14741376 0.38593423 0.23852047
0.0154415 0.07944534 0.069406636 -0.14741376 0.38593423 0.23852047
0.014433651 0.079198308 0.069461636 -0.14741376 0.38593423 0.23852047
0.013468268 0.078873016 0.069473498 -0.14741376 0.38593423 0.23852047
0.012508553 0.078538485 0.069480337 -0.14741376 0.38593423 0.23852047
0.011595115 0.07811588 0.069438852 -0.14741376 0.38593423 0.23852047
0.010681767 0.077693321 0.069397576 -0.14741376 0.38593423 0.23852047
0.0098152775 0.077178933 0.06930615 -0.14741376 0.38593423 0.23852047
0.0089510307 0.076658949 0.06921196 -0.14741376 0.38593423 0.23852047
0.0081260372 0.07605949 0.069074608 -0.14741376 0.38593423 0.23852047
0.0073101679 0.075439252 0.068926312 -0.14741376 0.38593423 0.23852047
0.0065285005 0.074747071 0.068739198 -0.14741376 0.38593423 0.23852047
0.00576169 0.074020736 0.068533994 -0.14741376 0.38593423 0.23852047
0.0050280755 0.073221847 0.068289861 -0.14741376 0.38593423 0.23852047
0.0043127155 0.072379664 0.06802284 -0.14741376 0.38593423 0.23852047
0.0036358205 0.071451128 0.067709625 -0.14741376 0.38593423 0.23852047
0.0029763354 0.070478462 0.067373283 -0.14741376 0.38593423 0.23852047
0.002370917 0.069383197 0.066971369 -0.14741376 0.38593423 0.23852047
0.0017845071 0.068237208 0.066543013 -0.14741376 0.38593423 0.23852047
0.0012657043 0.06693507 0.066031314 -0.14741376 0.38593423 0.23852047
0.00080138416 0.065501601 0.065449946 -0.14741376 0.38593423 0.23852047
0.00040341172 0.063907936 0.064783588 -0.14741376 0.38593423 0.23852047
0.00011182514 0.062062509 0.063983165 -0.14741376 0.38593423 0.23852047
1.2496902e-05 0.059769504 0.062943742 -0.14741376 0.38593423 0.23852047
0.00033569886 0.056505084 0.061384436 -0.14741376 0.38593423 0.23852047
0.017067874 0.016322888 0.039999999 -0.14741376 0.38593423 0.23852047
0.015963756 0.015910141 0.039999999 -0.14741376 0.38593423 0.23852047
0.014860119 0.015497075 0.039999999 -0.14741376 0.38593423 0.23852047
0.013756949 0.015083686 0.039999999 -0.14741376 0.38593423 0.23852047
0.012654224 0.014669969 0.039999999 -0.14741376 0.38593423 0.23852047
0.011551929 0.014255913 0.039999999 -0.14741376 0.38593423 0.23852047
0.010450044 0.013841514 0.039999999 -0.14741376 0.38593423 0.23852047
0.0093485508 0.013426767 0.039999999 -0.14741376 0.38593423 0.23852047
0.0082474314 0.013011661 0.039999999 -0.14741376 0.38593423 0.23852047
0.0071466682 0.012596193 0.039999999 -0.14741376 0.38593423 0.23852047
0.0060462425 0.012180354 0.039999999 -0.14741376 0.38593423 0.23852047
0.0049461364 0.011764138 0.039999999 -0.14741376 0.38593423 0.23852047
0.0038463317 0.011347539 0.039999999 -0.14741376 0.38593423 0.23852047
0.0027468104 0.010930549 0.039999999 -0.14741376 0.38593423 0.23852047
0.0016475542 0.010513162 0.039999999 -0.14741376 0.38593423 0.23852047
0.00054854539 0.010095371 0.039999999 -0.14741376 0.38593423 0.23852047
0 0.0082674967 0.03925623 -0.14741376 0.38593423 0.23852047
0 0.0049978285 0.037754457 -0.14741376 0.38593423 0.23852047
0.033261061 0.074946381 0.063184075 -0.14741376 0.38593423 0.23852047
0.03108054 0.076639935 0.064339042 -0.14741376 0.38593423 0.23852047
0.029271394 0.077714987 0.065143481 -0.14741376 0.38593423 0.23852047
0.027662525 0.078459337 0.065760285 -0.14741376 0.38593423 0.23852047
0.026183719 0.078990281 0.066255949 -0.14741376 0.38593423 0.23852047
0.024782969 0.079395935 0.066680282 -0.14741376 0.38593423 0.23852047
0.023451751 0.079688929 0.0670406 -0.14741376 0.38593423 0.23852047
0.022199862 0.079849176 0.067325898 -0.14741376 0.38593423 0.23852047
0.020972714 0.079973057 0.067590266 -0.14741376 0.38593423 0.23852047
0.019817794 0.079972863 0.067784853 -0.14741376 0.38593423 0.23852047
0.018681319 0.079945043 0.067963645 -0.14741376 0.38593423 0.23852047
0.01759666 0.07982704 0.068091877 -0.14741376 0.38593423 0.23852047
0.016527696 0.079684407 0.068206169 -0.14741376 0.38593423 0.23852047
0.01550487 0.079459287 0.068274453 -0.14741376 0.38593423 0.23852047
0.014492214 0.079218037 0.068333693 -0.14741376 0.38593423 0.23852047
0.013525381 0.078892261 0.068346009 -0.14741376 0.38593423 0.23852047
0.012561284 0.078562886 0.068356387 -0.14741376 0.38593423 0.23852047
0.011646509 0.078139663 0.06831491 -0.14741376 0.38593423 0.23852047
0.010731827 0.077716477 0.068273626 -0.14741376 0.38593423 0.23852047
0.0098613743 0.077206671 0.068184718 -0.14741376 0.38593423 0.23852047
0.0089958925 0.076685943 0.068090081 -0.14741376 0.38593423 0.23852047
0.0081671607 0.076090753 0.067954749 -0.14741376 0.38593423 0.23852047
0.0073501514 0.07546965 0.067805558 -0.14741376 0.38593423 0.23852047
0.0065649026 0.074781552 0.067620002 -0.14741376 0.38593423 0.23852047
0.005797042 0.074054219 0.067413427 -0.14741376 0.38593423 0.23852047
0.005059937 0.073259354 0.067170411 -0.14741376 0.38593423 0.23852047
0.0043436168 0.072416045 0.066901512 -0.14741376 0.38593423 0.23852047
0.0036632586 0.071491599 0.066588968 -0.14741376 0.38593423 0.23852047
0.0030029053 0.070517652 0.06625019 -0.14741376 0.38593423 0.23852047
0.0023939784 0.069426693 0.065848455 -0.14741376 0.38593423 0.23852047
0.0018038027 0.068285637 0.065420426 -0.14741376 0.38593423 0.23852047
0.0012843476 0.066981867 0.064904906 -0.14741376 0.38593423 0.23852047
0.00081596652 0.06555412 0.064323246 -0.14741376 0.38593423 0.23852047
0.00041323062 0.063967831 0.063656911 -0.14741376 0.38593423 0.23852047
0.00011562935 0.062132675 0.062857181 -0.14741376 0.38593423 0.23852047
7.8279036e-06 0.059855621 0.061819911 -0.14741376 0.38593423 0.23852047
0.00031678716 0.056620438 0.060266469 -0.14741376 0.38593423 0.23852047
0.016014118 0.018768644 0.039999999 -0.14741376 0.38593423 0.23852047
0.014915809 0.018357674 0.039999999 -0.14741376 0.38593423 0.23852047
0.013817972 0.017946405 0.039999999 -0.14741376 0.38593423 0.23852047
0.012720588 0.017534835 0.039999999 -0.14741376 0.38593423 0.23852047
0.011623639 0.017122954 0.039999999 -0.14741376 0.38593423 0.23852047
0.010527106 0.016710758 0.039999999 -0.14741376 0.38593423 0.23852047
0.0094309738 0.016298238 0.039999999 -0.14741376 0.38593423 0.23852047
0.0083352216 0.015885388 0.039999999 -0.14741376 0.38593423 0.23852047
0.0072398335 0.015472202 0.039999999 -0.14741376 0.38593423 0.23852047
0.00614479 0.015058673 0.039999999 -0.14741376 0.38593423 0.23852047
0.0050500738 0.014644795 0.039999999 -0.14741376 0.38593423 0.23852047
0.0039556674 0.014230561 0.039999999 -0.14741376 0.38593423 0.23852047
0.0028615526 0.013815963 0.039999999 -0.14741376 0.38593423 0.23852047
0.0017677116 0.013400996 0.039999999 -0.14741376 0.38593423 0.23852047
0.00067412626 0.012985652 0.039999999 -0.14741376 0.38593423 0.23852047
0 0.01150511 0.039433829 -0.14741376 0.38593423 0.23852047
0 0.008279372 0.037942227 -0.14741376 0.38593423 0.23852047
0 0.0050050612 0.036428384 -0.14741376 0.38593423 0.23852047
2.7755576e-17 0.0016810299 0.034891784 -0.14741376 0.38593423 0.23852047
0.03347848 0.07474044 0.061880022 -0.14741376 0.38593423 0.23852047
0.03122675 0.076551482 0.063110381 -0.14741376 0.38593423 0.23852047
0.029401286 0.077650294 0.063934579 -0.14741376 0.38593423 0.23852047
0.027785497 0.078402445 0.064560808 -0.14741376 0.38593423 0.23852047
0.026292969 0.078953467 0.065071985 -0.14741376 0.38593423 0.23852047
0.024881486 0.079374254 0.065508515 -0.14741376 0.38593423 0.23852047
0.023547849 0.079667777 0.065872341 -0.14741376 0.38593423 0.23852047
0.022287447 0.079839647 0.066166863 -0.14741376 0.38593423 0.23852047
0.021053918 0.079971485 0.066438235 -0.14741376 0.38593423 0.23852047
0.0198956 0.079973988 0.066636369 -0.14741376 0.38593423 0.23852047
0.018753568 0.079952903 0.066820852 -0.14741376 0.38593423 0.23852047
0.017667174 0.079834715 0.066950545 -0.14741376 0.38593423 0.23852047
0.016592819 0.079698734 0.06707003 -0.14741376 0.38593423 0.23852047
0.015568408 0.079473272 0.067139246 -0.14741376 0.38593423 0.23852047
0.01455093 0.079237826 0.067202784 -0.14741376 0.38593423 0.23852047
0.013582642 0.07891155 0.067215569 -0.14741376 0.38593423 0.23852047
0.012615096 0.078585528 0.067228518 -0.14741376 0.38593423 0.23852047
0.011698037 0.078163497 0.067188062 -0.14741376 0.38593423 0.23852047
0.010782015 0.077739701 0.067146778 -0.14741376 0.38593423 0.23852047
0.0099075884 0.077234477 0.067060426 -0.14741376 0.38593423 0.23852047
0.0090408698 0.076713003 0.066965342 -0.14741376 0.38593423 0.23852047
0.0082083885 0.076122098 0.066832066 -0.14741376 0.38593423 0.23852047
0.0073902356 0.075500123 0.066681974 -0.14741376 0.38593423 0.23852047
0.0066013951 0.074816123 0.066498011 -0.14741376 0.38593423 0.23852047
0.0058324821 0.074087791 0.066290066 -0.14741376 0.38593423 0.23852047
0.0050918767 0.073296957 0.066048197 -0.14741376 0.38593423 0.23852047
0.0043745944 0.072452515 0.065777421 -0.14741376 0.38593423 0.23852047
0.0036907636 0.071532167 0.065465577 -0.14741376 0.38593423 0.23852047
0.0030295402 0.070556931 0.065124363 -0.14741376 0.38593423 0.23852047
0.0024170957 0.069470301 0.064722829 -0.14741376 0.38593423 0.23852047
0.0018231443 0.068334185 0.064295165 -0.14741376 0.38593423 0.23852047
0.0013030354 0.067028768 0.0637758 -0.14741376 0.38593423 0.23852047
0.00083058322 0.065606765 0.063193902 -0.14741376 0.38593423 0.23852047
0.00042307211 0.064027861 0.062527642 -0.14741376 0.38593423 0.23852047
0.00012271809 0.062195808 0.061724756 -0.14741376 0.38593423 0.23852047
3.148928e-06 0.059941921 0.060693681 -0.14741376 0.38593423 0.23852047
0.00029783839 0.056736019 0.059146311 -0.14741376 0.38593423 0.23852047
0.014971468 0.02118862 0.039999999 -0.14741376 0.38593423 0.23852047
0.013878907 0.020779412 0.039999999 -0.14741376 0.38593423 0.23852047
0.012786806 0.020369926 0.039999999 -0.14741376 0.38593423 0.23852047
0.011695147 0.019960158 0.039999999 -0.14741376 0.38593423 0.23852047
0.01060391 0.019550098 0.039999999 -0.14741376 0.38593423 0.23852047
0.0095130801 0.019139742 0.039999999 -0.14741376 0.38593423 0.23852047
0.0084226374 0.018729083 0.039999999 -0.14741376 0.38593423 0.23852047
0.0073325657 0.018318115 0.039999999 -0.14741376 0.38593423 0.23852047
0.0062428461 0.01790683 0.039999999 -0.14741376 0.38593423 0.23852047
0.0051534623 0.017495222 0.039999999 -0.14741376 0.38593423 0.23852047
0.0040643951 0.017083285 0.039999999 -0.14741376 0.38593423 0.23852047
0.0029756275 0.016671013 0.039999999 -0.14741376 0.38593423 0.23852047
0.0018871421 0.016258398 0.039999999 -0.14741376 0.38593423 0.23852047
0.00079892081 0.015845433 0.039999999 -0.14741376 0.38593423 0.23852047
0 0.014704193 0.039609969 -0.14741376 0.38593423 0.23852047
0 0.011521531 0.038128398 -0.14741376 0.38593423 0.23852047
0 0.0082912771 0.036624886 -0.14741376 0.38593423 0.23852047
0 0.0050123124 0.035098918 -0.14741376 0.38593423 0.23852047
0 0.0016834838 0.033549957 -0.14741376 0.38593423 0.23852047
0.033696804 0.074533641 0.060570534 -0.14741376 0.38593423 0.23852047
0.031396922 0.076422118 0.061854351 -0.14741376 0.38593423 0.23852047
0.029543433 0.077564768 0.062709995 -0.14741376 0.38593423 0.23852047
0.027908863 0.078345366 0.063357495 -0.14741376 0.38593423 0.23852047
0.02640255 0.078916542 0.0638844 -0.14741376 0.38593423 0.23852047
0.024980294 0.079352506 0.06433329 -0.14741376 0.38593423 0.23852047
0.023644228 0.079646565 0.064700633 -0.14741376 0.38593423 0.23852047
0.022375284 0.079830095 0.065004513 -0.14741376 0.38593423 0.23852047
0.021138234 0.079964675 0.065279998 -0.14741376 0.38593423 0.23852047
0.019973623 0.079975113 0.06548468 -0.14741376 0.38593423 0.23852047
0.018826017 0.079960786 0.065674938 -0.14741376 0.38593423 0.23852047
0.01773788 0.079842404 0.065806091 -0.14741376 0.38593423 0.23852047
0.016658116 0.079713106 0.065930828 -0.14741376 0.38593423 0.23852047
0.015632117 0.079487294 0.066000991 -0.14741376 0.38593423 0.23852047
0.014609801 0.07925766 0.066068895 -0.14741376 0.38593423 0.23852047
0.013640055 0.0789309 0.066082135 -0.14741376 0.38593423 0.23852047
0.012671053 0.078604385 0.066095546 -0.14741376 0.38593423 0.23852047
0.011749699 0.078187399 0.066058278 -0.14741376 0.38593423 0.23852047
0.010832334 0.077762976 0.066016987 -0.14741376 0.38593423 0.23852047
0.0099539217 0.077262349 0.06593325 -0.14741376 0.38593423 0.23852047
0.0090859616 0.076740131 0.065837711 -0.14741376 0.38593423 0.23852047
0.0082497196 0.076153517 0.065706536 -0.14741376 0.38593423 0.23852047
0.0074304217 0.075530671 0.065555535 -0.14741376 0.38593423 0.23852047
0.0066379793 0.074850775 0.065373205 -0.14741376 0.38593423 0.23852047
0.0058680116 0.074121445 0.065163881 -0.14741376 0.38593423 0.23852047
0.0051238956 0.073334657 0.064923197 -0.14741376 0.38593423 0.23852047
0.0044056484 0.072489075 0.064650536 -0.14741376 0.38593423 0.23852047
0.0037183363 0.071572833 0.064339429 -0.14741376 0.38593423 0.23852047
0.0030562407 0.070596315 0.063995756 -0.14741376 0.38593423 0.23852047
0.0024402689 0.069514006 0.063594468 -0.14741376 0.38593423 0.23852047
0.0018425322 0.068382844 0.063167207 -0.14741376 0.38593423 0.23852047
0.0013217683 0.067075789 0.062643982 -0.14741376 0.38593423 0.23852047
0.00084523443 0.06565953 0.062061884 -0.14741376 0.38593423 0.23852047
0.00043293639 0.064088032 0.061395761 -0.14741376 0.38593423 0.23852047
0.00013222749 0.06225381 0.060586829 -0.14741376 0.38593423 0.23852047
1.2104171e-06 0.060022324 0.059561688 -0.14741376 0.38593423 0.23852047
0.00027885215 0.05685183 0.058023941 -0.14741376 0.38593423 0.23852047
0.013939736 0.023583256 0.039999999 -0.14741376 0.38593423 0.23852047
0.012852862 0.023175795 0.039999999 -0.14741376 0.38593423 0.23852047
0.011766436 0.022768075 0.039999999 -0.14741376 0.38593423 0.23852047
0.010680439 0.022360092 0.039999999 -0.14741376 0.38593423 0.23852047
0.0095948549 0.021951837 0.039999999 -0.14741376 0.38593423 0.23852047
0.0085096648 0.021543307 0.039999999 -0.14741376 0.38593423 0.23852047
0.0074248528 0.021134492 0.039999999 -0.14741376 0.38593423 0.23852047
0.0063404003 0.020725386 0.039999999 -0.14741376 0.38593423 0.23852047
0.0052562905 0.020315986 0.039999999 -0.14741376 0.38593423 0.23852047
0.0041725053 0.019906281 0.039999999 -0.14741376 0.38593423 0.23852047
0.0030890272 0.019496268 0.039999999 -0.14741376 0.38593423 0.23852047
0.0020058393 0.019085938 0.039999999 -0.14741376 0.38593423 0.23852047
0.00092292362 0.018675284 0.039999999 -0.14741376 0.38593423 0.23852047
0 0.017865466 0.039784651 -0.14741376 0.38593423 0.23852047
0 0.014725048 0.038312983 -0.14741376 0.38593423 0.23852047
0 0.011537993 0.036819659 -0.14741376 0.38593423 0.23852047
0 0.008303212 0.035304181 -0.14741376 0.38593423 0.23852047
0 0.0050195823 0.03376602 -0.14741376 0.38593423 0.23852047
0 0.0016859442 0.032204643 -0.14741376 0.38593423 0.23852047
0.033916041 0.074325979 0.059255559 -0.14741376 0.38593423 0.23852047
0.031567719 0.076292269 0.060593683 -0.14741376 0.38593423 0.23852047
0.029686064 0.077478953 0.061481241 -0.14741376 0.38593423 0.23852047
0.028032625 0.078288108 0.062150318 -0.14741376 0.38593423 0.23852047
0.02651247 0.078879505 0.062693156 -0.14741376 0.38593423 0.23852047
0.025079396 0.079330698 0.063154563 -0.14741376 0.38593423 0.23852047
0.023740895 0.079625286 0.063525453 -0.14741376 0.38593423 0.23852047
0.022463374 0.079820514 0.063838802 -0.14741376 0.38593423 0.23852047
0.02122418 0.079955325 0.064117014 -0.14741376 0.38593423 0.23852047
0.020051865 0.079976238 0.064329766 -0.14741376 0.38593423 0.23852047
0.018898664 0.079968683 0.064525865 -0.14741376 0.38593423 0.23852047
0.017808782 0.079850115 0.064658485 -0.14741376 0.38593423 0.23852047
0.01672359 0.079727516 0.06478855 -0.14741376 0.38593423 0.23852047
0.015695998 0.079501353 0.064859658 -0.14741376 0.38593423 0.23852047
0.014669904 0.079275519 0.064930834 -0.14741376 0.38593423 0.23852047
0.013697621 0.078950293 0.06494569 -0.14741376 0.38593423 0.23852047
0.01272716 0.078623287 0.064959556 -0.14741376 0.38593423 0.23852047
0.011801496 0.078211367 0.064925529 -0.14741376 0.38593423 0.23852047
0.010882785 0.077786319 0.064884245 -0.14741376 0.38593423 0.23852047
0.010000374 0.077290297 0.064803153 -0.14741376 0.38593423 0.23852047
0.0091311708 0.076767333 0.064707167 -0.14741376 0.38593423 0.23852047
0.008291157 0.076185018 0.064578123 -0.14741376 0.38593423 0.23852047
0.0074707102 0.0755613 0.064426221 -0.14741376 0.38593423 0.23852047
0.0066746557 0.07488551 0.064245552 -0.14741376 0.38593423 0.23852047
0.005903631 0.074155182 0.064034849 -0.14741376 0.38593423 0.23852047
0.005155995 0.073372446 0.063795395 -0.14741376 0.38593423 0.23852047
0.0044367807 0.072525725 0.063520834 -0.14741376 0.38593423 0.23852047
0.0037459771 0.071613595 0.063210495 -0.14741376 0.38593423 0.23852047
0.0030830074 0.070635788 0.062864356 -0.14741376 0.38593423 0.23852047
0.0024634991 0.069557823 0.062463347 -0.14741376 0.38593423 0.23852047
0.0018640613 0.068427168 0.062034044 -0.14741376 0.38593423 0.23852047
0.0013405464 0.067122914 0.061509427 -0.14741376 0.38593423 0.23852047
0.00085992063 0.06571243 0.060927168 -0.14741376 0.38593423 0.23852047
0.00044282372 0.064148337 0.060261235 -0.14741376 0.38593423 0.23852047
0.0001417592 0.062311951 0.059446231 -0.14741376 0.38593423 0.23852047
4.9039236e-06 0.060090449 0.058420312 -0.14741376 0.38593423 0.23852047
0.00025982814 0.056967869 0.056899335 -0.14741376 0.38593423 0.23852047
0.01291874 0.025952978 0.039999999 -0.14741376 0.38593423 0.23852047
0.011837491 0.025547249 0.039999999 -0.14741376 0.38593423 0.23852047
0.010756678 0.02514128 0.039999999 -0.14741376 0.38593423 0.23852047
0.0096762842 0.024735067 0.039999999 -0.14741376 0.38593423 0.23852047
0.0085962918 0.024328602 0.039999999 -0.14741376 0.38593423 0.23852047
0.0075166835 0.023921881 0.039999999 -0.14741376 0.38593423 0.23852047
0.0064374418 0.023514893 0.039999999 -0.14741376 0.38593423 0.23852047
0.0053585493 0.023107635 0.039999999 -0.14741376 0.38593423 0.23852047
0.0042799893 0.022700099 0.039999999 -0.14741376 0.38593423 0.23852047
0.0032017443 0.022292281 0.039999999 -0.14741376 0.38593423 0.23852047
0.0021237966 0.021884171 0.039999999 -0.14741376 0.38593423 0.23852047
0.0010461294 0.021475764 0.039999999 -0.14741376 0.38593423 0.23852047
0 0.02098963 0.039957874 -0.14741376 0.38593423 0.23852047
0 0.017890647 0.038495976 -0.14741376 0.38593423 0.23852047
0 0.014745955 0.037012711 -0.14741376 0.38593423 0.23852047
0 0.011554497 0.035507582 -0.14741376 0.38593423 0.23852047
0 0.0083151786 0.033980075 -0.14741376 0.38593423 0.23852047
0 0.0050268709 0.032429665 -0.14741376 0.38593423 0.23852047
0 0.001688411 0.03085581 -0.14741376 0.38593423 0.23852047
0.034136206 0.074117437 0.057935037 -0.14741376 0.38593423 0.23852047
0.031739149 0.076161951 0.059328336 -0.14741376 0.38593423 0.23852047
0.029829184 0.077392839 0.060248282 -0.14741376 0.38593423 0.23852047
0.028156787 0.078230664 0.060939237 -0.14741376 0.38593423 0.23852047
0.026622731 0.078842349 0.061498228 -0.14741376 0.38593423 0.23852047
0.025178794 0.079308815 0.061972313 -0.14741376 0.38593423 0.23852047
0.023837849 0.079603948 0.062346768 -0.14741376 0.38593423 0.23852047
