# .PCD v0.7 - Point Cloud Data file format
VERSION 0.7
FIELDS x y z vp_x vp_y vp_z
SIZE 4 4 4 4 4 4
TYPE F F F F F F
COUNT 1 1 1 1 1 1
WIDTH 705
HEIGHT 1
VIEWPOINT 0 0 0 1 0 0 0
POINTS 705
DATA ascii
0.00041674857 0.056010708 0.062976025 -0.23852047 0.14741376 0.38593423
0.00073293748 0.054744918 0.061768495 -0.23852047 0.14741376 0.38593423
0.0011139425 0.053445835 0.060467716 -0.23852047 0.14741376 0.38593423
0.0016612427 0.052072171 0.058934849 -0.23852047 0.14741376 0.38593423
0.0023667307 0.050624698 0.057179265 -0.23852047 0.14741376 0.38593423
0.0032732685 0.049083594 0.0551407 -0.23852047 0.14741376 0.38593423
0.004503998 0.047395144 0.052648205 -0.23852047 0.14741376 0.38593423
0.0063288421 0.045442045 0.049327385 -0.23852047 0.14741376 0.38593423
0.010123242 0.042635776 0.043276671 -0.23852047 0.14741376 0.38593423
0.011888612 0.040651709 0.039999999 -0.23852047 0.14741376 0.38593423
0.011276734 0.039670017 0.039999999 -0.23852047 0.14741376 0.38593423
0.010665263 0.038688738 0.039999999 -0.23852047 0.14741376 0.38593423
0.010054191 0.037707862 0.039999999 -0.23852047 0.14741376 0.38593423
0.0094435075 0.036727376 0.039999999 -0.23852047 0.14741376 0.38593423
0.0088332035 0.035747264 0.039999999 -0.23852047 0.14741376 0.38593423
0.008223271 0.034767512 0.039999999 -0.23852047 0.14741376 0.38593423
0.0076137008 0.033788104 0.039999999 -0.23852047 0.14741376 0.38593423
0.0070044841 0.03280903 0.039999999 -0.23852047 0.14741376 0.38593423
0.0063956119 0.03183027 0.039999999 -0.23852047 0.14741376 0.38593423
0.0057870755 0.030851817 0.039999999 -0.23852047 0.14741376 0.38593423
0.005178866 0.029873652 0.039999999 -0.23852047 0.14741376 0.38593423
0.004570974 0.028895764 0.039999999 -0.23852047 0.14741376 0.38593423
0.0039633918 0.027918136 0.039999999 -0.23852047 0.14741376 0.38593423
0.0033561098 0.026940756 0.039999999 -0.23852047 0.14741376 0.38593423
0.0027491197 0.025963608 0.039999999 -0.23852047 0.14741376 0.38593423
0.0021424124 0.024986679 0.039999999 -0.23852047 0.14741376 0.38593423
0.0015359793 0.024009958 0.039999999 -0.23852047 0.14741376 0.38593423
0.00092981174 0.023033425 0.039999999 -0.23852047 0.14741376 0.38593423
0.00032390089 0.022057073 0.039999999 -0.23852047 0.14741376 0.38593423
0 0.020931471 0.039590865 -0.23852047 0.14741376 0.38593423
0 0.019629544 0.038708482 -0.23852047 0.14741376 0.38593423
0 0.018321229 0.037821926 -0.23852047 0.14741376 0.38593423
0 0.017006462 0.036931161 -0.23852047 0.14741376 0.38593423
2.7755576e-17 0.015685178 0.036036141 -0.23852047 0.14741376 0.38593423
0 0.01435731 0.035136823 -0.23852047 0.14741376 0.38593423
2.7755576e-17 0.013022792 0.034233164 -0.23852047 0.14741376 0.38593423
0 0.011681558 0.033325121 -0.23852047 0.14741376 0.38593423
0 0.010333538 0.032412648 -0.23852047 0.14741376 0.38593423
0 0.0089786639 0.031495702 -0.23852047 0.14741376 0.38593423
0 0.0076168664 0.030574229 -0.23852047 0.14741376 0.38593423
0 0.0062480737 0.02964819 -0.23852047 0.14741376 0.38593423
0 0.004872214 0.028717536 -0.23852047 0.14741376 0.38593423
0 0.0034892156 0.027782219 -0.23852047 0.14741376 0.38593423
0 0.0020990043 0.026842188 -0.23852047 0.14741376 0.38593423
0 0.00070150563 0.025897399 -0.23852047 0.14741376 0.38593423
0.039824281 0.079999998 0.034479797 -0.23852047 0.14741376 0.38593423
0.035021808 0.079999998 0.03974276 -0.23852047 0.14741376 0.38593423
0.034185488 0.079042345 0.039999999 -0.23852047 0.14741376 0.38593423
0.033553187 0.078035608 0.039999999 -0.23852047 0.14741376 0.38593423
0.021939367 0.079877518 0.053996157 -0.23852047 0.14741376 0.38593423
0.017788842 0.079847947 0.058524854 -0.23852047 0.14741376 0.38593423
0.015281067 0.079410031 0.060972236 -0.23852047 0.14741376 0.38593423
0.013349357 0.078832947 0.062692627 -0.23852047 0.14741376 0.38593423
0.011735287 0.07818073 0.064013325 -0.23852047 0.14741376 0.38593423
0.010320089 0.077482656 0.065084636 -0.23852047 0.14741376 0.38593423
0.0090871844 0.076740868 0.065926202 -0.23852047 0.14741376 0.38593423
0.0079999184 0.075963616 0.066583879 -0.23852047 0.14741376 0.38593423
0.0069778045 0.075172663 0.06716086 -0.23852047 0.14741376 0.38593423
0.0061018709 0.074342959 0.067551099 -0.23852047 0.14741376 0.38593423
0.0052678818 0.073504165 0.067889243 -0.23852047 0.14741376 0.38593423
0.0045324196 0.072638318 0.068100922 -0.23852047 0.14741376 0.38593423
0.0038451124 0.071759813 0.068251252 -0.23852047 0.14741376 0.38593423
0.0032343497 0.070859008 0.068302475 -0.23852047 0.14741376 0.38593423
0.0026687344 0.069944941 0.068295233 -0.23852047 0.14741376 0.38593423
0.0021725702 0.069009081 0.068197019 -0.23852047 0.14741376 0.38593423
0.0017142583 0.06806089 0.068048969 -0.23852047 0.14741376 0.38593423
0.0013269344 0.067088753 0.06780678 -0.23852047 0.14741376 0.38593423
0.00096912682 0.066105746 0.067524903 -0.23852047 0.14741376 0.38593423
0.0006885007 0.065095037 0.067139521 -0.23852047 0.14741376 0.38593423
0.00043071579 0.064074486 0.066722482 -0.23852047 0.14741376 0.38593423
0.00025811899 0.063021705 0.066190049 -0.23852047 0.14741376 0.38593423
0.00010619045 0.061958581 0.065627992 -0.23852047 0.14741376 0.38593423
4.6562644e-05 0.060858805 0.064939708 -0.23852047 0.14741376 0.38593423
1.382184e-05 0.05974507 0.064212508 -0.23852047 0.14741376 0.38593423
7.6366487e-05 0.058591492 0.063353628 -0.23852047 0.14741376 0.38593423
0.0001865854 0.057414625 0.062426638 -0.23852047 0.14741376 0.38593423
0.0003860672 0.056197856 0.06137453 -0.23852047 0.14741376 0.38593423
0.00067929627 0.054938111 0.06019029 -0.23852047 0.14741376 0.38593423
0.001038358 0.05364491 0.058911055 -0.23852047 0.14741376 0.38593423
0.0015824187 0.05227001 0.057373058 -0.23852047 0.14741376 0.38593423
0.0022564456 0.050832715 0.055649903 -0.23852047 0.14741376 0.38593423
0.003122604 0.049305808 0.053654749 -0.23852047 0.14741376 0.38593423
0.0042972327 0.047638565 0.051225234 -0.23852047 0.14741376 0.38593423
0.0060349074 0.045720465 0.048006408 -0.23852047 0.14741376 0.38593423
0.0092659388 0.043151584 0.042703811 -0.23852047 0.14741376 0.38593423
0.010607115 0.041349869 0.039999999 -0.23852047 0.14741376 0.38593423
0.0099967485 0.040369924 0.039999999 -0.23852047 0.14741376 0.38593423
0.0093867788 0.039390396 0.039999999 -0.23852047 0.14741376 0.38593423
0.0087771965 0.038411275 0.039999999 -0.23852047 0.14741376 0.38593423
0.0081679923 0.037432544 0.039999999 -0.23852047 0.14741376 0.38593423
0.0075591588 0.036454193 0.039999999 -0.23852047 0.14741376 0.38593423
0.0069506853 0.035476204 0.039999999 -0.23852047 0.14741376 0.38593423
0.0063425642 0.034498565 0.039999999 -0.23852047 0.14741376 0.38593423
0.0057347864 0.033521261 0.039999999 -0.23852047 0.14741376 0.38593423
0.0051273429 0.032544278 0.039999999 -0.23852047 0.14741376 0.38593423
0.0045202253 0.031567603 0.039999999 -0.23852047 0.14741376 0.38593423
0.003913424 0.030591222 0.039999999 -0.23852047 0.14741376 0.38593423
0.0033069311 0.029615119 0.039999999 -0.23852047 0.14741376 0.38593423
0.0027007377 0.028639281 0.039999999 -0.23852047 0.14741376 0.38593423
0.0020948346 0.027663695 0.039999999 -0.23852047 0.14741376 0.38593423
0.0014892133 0.026688347 0.039999999 -0.23852047 0.14741376 0.38593423
0.00088386534 0.02571322 0.039999999 -0.23852047 0.14741376 0.38593423
0.00027878187 0.024738304 0.039999999 -0.23852047 0.14741376 0.38593423
0 0.023594329 0.039526477 -0.23852047 0.14741376 0.38593423
2.7755576e-17 0.022300899 0.038644992 -0.23852047 0.14741376 0.38593423
2.7755576e-17 0.021001164 0.037759364 -0.23852047 0.14741376 0.38593423
0 0.019695064 0.036869545 -0.23852047 0.14741376 0.38593423
0 0.018382533 0.035975493 -0.23852047 0.14741376 0.38593423
0 0.017063506 0.03507717 -0.23852047 0.14741376 0.38593423
0 0.015737921 0.034174524 -0.23852047 0.14741376 0.38593423
0 0.014405709 0.03326752 -0.23852047 0.14741376 0.38593423
0 0.013066803 0.032356109 -0.23852047 0.14741376 0.38593423
0 0.011721135 0.031440247 -0.23852047 0.14741376 0.38593423
0 0.010368638 0.030519886 -0.23852047 0.14741376 0.38593423
0 0.0090092393 0.029594982 -0.23852047 0.14741376 0.38593423
0 0.0076428708 0.028665489 -0.23852047 0.14741376 0.38593423
0 0.0062694601 0.027731357 -0.23852047 0.14741376 0.38593423
0 0.0048889345 0.026792537 -0.23852047 0.14741376 0.38593423
0 0.0035012211 0.025848985 -0.23852047 0.14741376 0.38593423
0 0.0021062454 0.024900649 -0.23852047 0.14741376 0.38593423
0 0.00070393202 0.023947477 -0.23852047 0.14741376 0.38593423
0.036243767 0.079999998 0.036478385 -0.23852047 0.14741376 0.38593423
0.032843746 0.079673283 0.039999999 -0.23852047 0.14741376 0.38593423
0.03221339 0.078668207 0.039999999 -0.23852047 0.14741376 0.38593423
0.031583779 0.077664115 0.039999999 -0.23852047 0.14741376 0.38593423
0.018515648 0.07992702 0.055968672 -0.23852047 0.14741376 0.38593423
0.01582415 0.079529561 0.058660951 -0.23852047 0.14741376 0.38593423
0.013776322 0.07897681 0.060536537 -0.23852047 0.14741376 0.38593423
0.012081008 0.078340679 0.061966047 -0.23852047 0.14741376 0.38593423
0.010604785 0.077653944 0.063119218 -0.23852047 0.14741376 0.38593423
0.0093659079 0.076908566 0.063970357 -0.23852047 0.14741376 0.38593423
0.0082316352 0.07613977 0.064690128 -0.23852047 0.14741376 0.38593423
0.0071916999 0.075349197 0.065290995 -0.23852047 0.14741376 0.38593423
0.0062911026 0.074522205 0.065713227 -0.23852047 0.14741376 0.38593423
0.005424655 0.073688738 0.066093467 -0.23852047 0.14741376 0.38593423
0.0046863272 0.072819509 0.066307895 -0.23852047 0.14741376 0.38593423
0.0039710221 0.071945511 0.066493772 -0.23852047 0.14741376 0.38593423
0.0033580167 0.071041398 0.066546202 -0.23852047 0.14741376 0.38593423
0.002767547 0.070131317 0.06656979 -0.23852047 0.14741376 0.38593423
0.002269659 0.069192208 0.06647139 -0.23852047 0.14741376 0.38593423
0.0017886878 0.068247698 0.066350751 -0.23852047 0.14741376 0.38593423
0.0014000868 0.067272358 0.066107109 -0.23852047 0.14741376 0.38593423
0.0010210928 0.066292904 0.065850168 -0.23852047 0.14741376 0.38593423
0.00073958701 0.065279029 0.06546212 -0.23852047 0.14741376 0.38593423
0.00046147191 0.064262085 0.065068334 -0.23852047 0.14741376 0.38593423
0.00028836049 0.063206166 0.064532019 -0.23852047 0.14741376 0.38593423
0.00011639955 0.06214688 0.06399224 -0.23852047 0.14741376 0.38593423
5.6602788e-05 0.061043985 0.063298836 -0.23852047 0.14741376 0.38593423
3.5502223e-06 0.059934519 0.062593594 -0.23852047 0.14741376 0.38593423
6.6262888e-05 0.058777843 0.061728284 -0.23852047 0.14741376 0.38593423
0.00015521933 0.057605948 0.060823672 -0.23852047 0.14741376 0.38593423
0.00035520675 0.056386095 0.059763692 -0.23852047 0.14741376 0.38593423
0.00062535162 0.0551324 0.058603156 -0.23852047 0.14741376 0.38593423
0.00098526501 0.05383613 0.057314422 -0.23852047 0.14741376 0.38593423
0.0015031631 0.052468933 0.055802718 -0.23852047 0.14741376 0.38593423
0.0021455842 0.051041823 0.054112546 -0.23852047 0.14741376 0.38593423
0.0029712003 0.049529113 0.052161507 -0.23852047 0.14741376 0.38593423
0.0040895455 0.047883075 0.049795918 -0.23852047 0.14741376 0.38593423
0.005739864 0.045999937 0.046680447 -0.23852047 0.14741376 0.38593423
0.0085803727 0.043595117 0.041893132 -0.23852047 0.14741376 0.38593423
0.0093308212 0.042045198 0.039999999 -0.23852047 0.14741376 0.38593423
0.0087219588 0.041066993 0.039999999 -0.23852047 0.14741376 0.38593423
0.008113482 0.040089209 0.039999999 -0.23852047 0.14741376 0.38593423
0.0075053824 0.039111834 0.039999999 -0.23852047 0.14741376 0.38593423
0.0068976516 0.038134854 0.039999999 -0.23852047 0.14741376 0.38593423
0.0062902798 0.037158258 0.039999999 -0.23852047 0.14741376 0.38593423
0.0056832591 0.036182027 0.039999999 -0.23852047 0.14741376 0.38593423
0.0050765802 0.035206147 0.039999999 -0.23852047 0.14741376 0.38593423
0.0044702343 0.034230608 0.039999999 -0.23852047 0.14741376 0.38593423
0.0038642129 0.033255395 0.039999999 -0.23852047 0.14741376 0.38593423
0.003258507 0.03228049 0.039999999 -0.23852047 0.14741376 0.38593423
0.0026531082 0.031305883 0.039999999 -0.23852047 0.14741376 0.38593423
0.0020480074 0.030331561 0.039999999 -0.23852047 0.14741376 0.38593423
0.0014431961 0.029357508 0.039999999 -0.23852047 0.14741376 0.38593423
0.00083866552 0.028383708 0.039999999 -0.23852047 0.14741376 0.38593423
0.00023440717 0.027410151 0.039999999 -0.23852047 0.14741376 0.38593423
0 0.026249077 0.03946314 -0.23852047 0.14741376 0.38593423
0 0.024964025 0.038582563 -0.23852047 0.14741376 0.38593423
0 0.023672758 0.037697863 -0.23852047 0.14741376 0.38593423
2.7755576e-17 0.022375207 0.036808994 -0.23852047 0.14741376 0.38593423
0 0.021071313 0.035915915 -0.23852047 0.14741376 0.38593423
0 0.019761011 0.035018582 -0.23852047 0.14741376 0.38593423
0 0.018444236 0.034116957 -0.23852047 0.14741376 0.38593423
0 0.017120926 0.033210993 -0.23852047 0.14741376 0.38593423
0 0.015791012 0.032300647 -0.23852047 0.14741376 0.38593423
0 0.014454427 0.031385873 -0.23852047 0.14741376 0.38593423
0 0.013111105 0.030466624 -0.23852047 0.14741376 0.38593423
0 0.011760975 0.029542856 -0.23852047 0.14741376 0.38593423
0 0.01040397 0.028614523 -0.23852047 0.14741376 0.38593423
0 0.0090400185 0.02768158 -0.23852047 0.14741376 0.38593423
0 0.0076690493 0.026743975 -0.23852047 0.14741376 0.38593423
0 0.0062909899 0.02580166 -0.23852047 0.14741376 0.38593423
0 0.0049057673 0.024854589 -0.23852047 0.14741376 0.38593423
0 0.0035133073 0.023902711 -0.23852047 0.14741376 0.38593423
0.0034695156 0 0.017665954 -0.23852047 0.14741376 0.38593423
2.7755576e-17 0.00070637482 0.021984333 -0.23852047 0.14741376 0.38593423
0.037483841 0.079999998 0.033165619 -0.23852047 0.14741376 0.38593423
0.032721106 0.079999998 0.038445238 -0.23852047 0.14741376 0.38593423
0.030879077 0.079298213 0.039999999 -0.23852047 0.14741376 0.38593423
0.030251388 0.078295782 0.039999999 -0.23852047 0.14741376 0.38593423
0.019345358 0.079982288 0.053261034 -0.23852047 0.14741376 0.38593423
0.016372748 0.079650298 0.056326196 -0.23852047 0.14741376 0.38593423
0.01420724 0.079122014 0.058360472 -0.23852047 0.14741376 0.38593423
0.012429716 0.078502014 0.059901085 -0.23852047 0.14741376 0.38593423
0.010940538 0.077813037 0.061074279 -0.23852047 0.14741376 0.38593423
0.0096469009 0.077077627 0.06199858 -0.23852047 0.14741376 0.38593423
0.0084651541 0.076317295 0.062781647 -0.23852047 0.14741376 0.38593423
0.0074205636 0.075523183 0.063389339 -0.23852047 0.14741376 0.38593423
0.0064817476 0.074702784 0.063861638 -0.23852047 0.14741376 0.38593423
0.0056014429 0.073868945 0.064259849 -0.23852047 0.14741376 0.38593423
0.0048413435 0.073002011 0.064501949 -0.23852047 0.14741376 0.38593423
0.0041017476 0.072131291 0.064718805 -0.23852047 0.14741376 0.38593423
0.0034825476 0.071225069 0.064777657 -0.23852047 0.14741376 0.38593423
0.0028679867 0.070318662 0.064831354 -0.23852047 0.14741376 0.38593423
0.0023674069 0.06937658 0.064734049 -0.23852047 0.14741376 0.38593423
0.0018678672 0.06843435 0.064635605 -0.23852047 0.14741376 0.38593423
0.001473723 0.067457177 0.064396195 -0.23852047 0.14741376 0.38593423
0.0010835358 0.06647785 0.064151011 -0.23852047 0.14741376 0.38593423
0.00079100311 0.065464213 0.063773878 -0.23852047 0.14741376 0.38593423
0.00050813128 0.064445414 0.063382573 -0.23852047 0.14741376 0.38593423
0.00031879271 0.06339179 0.062863536 -0.23852047 0.14741376 0.38593423
0.00014470286 0.062329907 0.06232198 -0.23852047 0.14741376 0.38593423
6.6704786e-05 0.061230306 0.061647855 -0.23852047 0.14741376 0.38593423
6.5190929e-06 0.060120236 0.060946845 -0.23852047 0.14741376 0.38593423
5.6098499e-05 0.058965318 0.060093157 -0.23852047 0.14741376 0.38593423
0.00012366976 0.057798389 0.059211325 -0.23852047 0.14741376 0.38593423
0.00032416522 0.056575436 0.0581434 -0.23852047 0.14741376 0.38593423
0.00057110022 0.055327792 0.057007 -0.23852047 0.14741376 0.38593423
0.00093186903 0.054028444 0.055708677 -0.23852047 0.14741376 0.38593423
0.0014234716 0.052668948 0.054223739 -0.23852047 0.14741376 0.38593423
0.0020341405 0.051252026 0.052567117 -0.23852047 0.14741376 0.38593423
0.0028312125 0.049748596 0.050644007 -0.23852047 0.14741376 0.38593423
0.0039360193 0.048106112 0.048283469 -0.23852047 0.14741376 0.38593423
0.0054546781 0.046275917 0.045334138 -0.23852047 0.14741376 0.38593423
0.0081223883 0.043943282 0.040762775 -0.23852047 0.14741376 0.38593423
0.0080596795 0.042737719 0.039999999 -0.23852047 0.14741376 0.38593423
0.0074523138 0.041761246 0.039999999 -0.23852047 0.14741376 0.38593423
0.0068453234 0.040785201 0.039999999 -0.23852047 0.14741376 0.38593423
0.0062387004 0.039809566 0.039999999 -0.23852047 0.14741376 0.38593423
0.005632435 0.038834333 0.039999999 -0.23852047 0.14741376 0.38593423
0.0050265188 0.037859481 0.039999999 -0.23852047 0.14741376 0.38593423
0.0044209436 0.036885001 0.039999999 -0.23852047 0.14741376 0.38593423
0.0038156998 0.035910878 0.039999999 -0.23852047 0.14741376 0.38593423
0.0032107793 0.034937095 0.039999999 -0.23852047 0.14741376 0.38593423
0.0026061733 0.033963643 0.039999999 -0.23852047 0.14741376 0.38593423
0.0020018728 0.032990504 0.039999999 -0.23852047 0.14741376 0.38593423
0.0013978694 0.032017667 0.039999999 -0.23852047 0.14741376 0.38593423
0.00079415442 0.031045118 0.039999999 -0.23852047 0.14741376 0.38593423
0.00019071909 0.03007284 0.039999999 -0.23852047 0.14741376 0.38593423
0 0.028895883 0.039400779 -0.23852047 0.14741376 0.38593423
0 0.027619101 0.038521111 -0.23852047 0.14741376 0.38593423
0 0.026336184 0.037637342 -0.23852047 0.14741376 0.38593423
2.7755576e-17 0.025047069 0.036749423 -0.23852047 0.14741376 0.38593423
0 0.023751695 0.035857316 -0.23852047 0.14741376 0.38593423
0 0.02245 0.034960985 -0.23852047 0.14741376 0.38593423
0 0.02114192 0.034060378 -0.23852047 0.14741376 0.38593423
0 0.019827392 0.033155456 -0.23852047 0.14741376 0.38593423
0 0.018506348 0.032246172 -0.23852047 0.14741376 0.38593423
0 0.017178725 0.031332489 -0.23852047 0.14741376 0.38593423
0 0.015844455 0.030414354 -0.23852047 0.14741376 0.38593423
0 0.01450347 0.029491724 -0.23852047 0.14741376 0.38593423
0 0.013155702 0.028564556 -0.23852047 0.14741376 0.38593423
0 0.011801083 0.027632799 -0.23852047 0.14741376 0.38593423
0 0.01043954 0.026696408 -0.23852047 0.14741376 0.38593423
0 0.0090710046 0.025755335 -0.23852047 0.14741376 0.38593423
0 0.0076954039 0.02480953 -0.23852047 0.14741376 0.38593423
0 0.0063126651 0.023858946 -0.23852047 0.14741376 0.38593423
0 0.0049227136 0.022903532 -0.23852047 0.14741376 0.38593423
0 0.0035254755 0.021943236 -0.23852047 0.14741376 0.38593423
0.0034817397 0 0.015650658 -0.23852047 0.14741376 0.38593423
0 0.00070883433 0.0200078 -0.23852047 0.14741376 0.38593423
0.038742453 0.079999998 0.029803328 -0.23852047 0.14741376 0.38593423
0.03392474 0.079999998 0.035174575 -0.23852047 0.14741376 0.38593423
0.029550195 0.079925656 0.039999999 -0.23852047 0.14741376 0.38593423
0.028924415 0.078924887 0.039999999 -0.23852047 0.14741376 0.38593423
0.02037072 0.079989962 0.050279532 -0.23852047 0.14741376 0.38593423
0.016975377 0.079759456 0.053904653 -0.23852047 0.14741376 0.38593423
0.014642176 0.079268567 0.056164127 -0.23852047 0.14741376 0.38593423
0.012819388 0.078654371 0.057768647 -0.23852047 0.14741376 0.38593423
0.011284296 0.077972084 0.059005041 -0.23852047 0.14741376 0.38593423
0.0099301953 0.077248074 0.060010653 -0.23852047 0.14741376 0.38593423
0.0087005002 0.076496206 0.060858235 -0.23852047 0.14741376 0.38593423
0.007651214 0.075698525 0.061472837 -0.23852047 0.14741376 0.38593423
0.0066738236 0.074884728 0.061996143 -0.23852047 0.14741376 0.38593423
0.0057898397 0.074047402 0.062399004 -0.23852047 0.14741376 0.38593423
0.0049974835 0.073185831 0.062682912 -0.23852047 0.14741376 0.38593423
0.0042549903 0.072311707 0.06290257 -0.23852047 0.14741376 0.38593423
0.0036079527 0.07141003 0.062996693 -0.23852047 0.14741376 0.38593423
0.0029911227 0.07050027 0.063051611 -0.23852047 0.14741376 0.38593423
0.002465822 0.069562204 0.062984854 -0.23852047 0.14741376 0.38593423
0.001964536 0.068616681 0.062886216 -0.23852047 0.14741376 0.38593423
0.0015478492 0.067643225 0.062673897 -0.23852047 0.14741376 0.38593423
0.0011563667 0.06666065 0.062427219 -0.23852047 0.14741376 0.38593423
0.00084275298 0.065650597 0.06207468 -0.23852047 0.14741376 0.38593423
0.00055898784 0.064628579 0.061680634 -0.23852047 0.14741376 0.38593423
0.00034941788 0.063578598 0.061184473 -0.23852047 0.14741376 0.38593423
0.00017480474 0.062513515 0.060638934 -0.23852047 0.14741376 0.38593423
7.6869357e-05 0.061417781 0.059986647 -0.23852047 0.14741376 0.38593423
1.6511593e-05 0.060304541 0.059280373 -0.23852047 0.14741376 0.38593423
4.5872628e-05 0.059153922 0.05844814 -0.23852047 0.14741376 0.38593423
0.00010922318 0.057985481 0.057565708 -0.23852047 0.14741376 0.38593423
0.00029294059 0.056765895 0.056513552 -0.23852047 0.14741376 0.38593423
0.00051653868 0.055524301 0.05540172 -0.23852047 0.14741376 0.38593423
0.0008781667 0.054221857 0.054093719 -0.23852047 0.14741376 0.38593423
0.0013433392 0.052870072 0.052636024 -0.23852047 0.14741376 0.38593423
0.0019221085 0.051463339 0.051013526 -0.23852047 0.14741376 0.38593423
0.0027207325 0.049956981 0.049076632 -0.23852047 0.14741376 0.38593423
0.003784931 0.048328951 0.046759028 -0.23852047 0.14741376 0.38593423
0.0052469745 0.046520445 0.043872289 -0.23852047 0.14741376 0.38593423
0.0073998948 0.044402644 0.039999999 -0.23852047 0.14741376 0.38593423
0.0067936438 0.043427456 0.039999999 -0.23852047 0.14741376 0.38593423
0.0061877668 0.042452712 0.039999999 -0.23852047 0.14741376 0.38593423
0.0055822558 0.041478399 0.039999999 -0.23852047 0.14741376 0.38593423
0.004977101 0.0405045 0.039999999 -0.23852047 0.14741376 0.38593423
0.0043722945 0.039531 0.039999999 -0.23852047 0.14741376 0.38593423
0.0037678273 0.038557891 0.039999999 -0.23852047 0.14741376 0.38593423
0.0031636904 0.037585158 0.039999999 -0.23852047 0.14741376 0.38593423
0.0025598754 0.036612783 0.039999999 -0.23852047 0.14741376 0.38593423
0.0019563735 0.03564075 0.039999999 -0.23852047 0.14741376 0.38593423
0.0013531762 0.034669053 0.039999999 -0.23852047 0.14741376 0.38593423
0.00075027469 0.033697676 0.039999999 -0.23852047 0.14741376 0.38593423
0.00014766042 0.032726601 0.039999999 -0.23852047 0.14741376 0.38593423
2.7755576e-17 0.031534925 0.039339308 -0.23852047 0.14741376 0.38593423
2.7755576e-17 0.030266298 0.038460553 -0.23852047 0.14741376 0.38593423
0 0.028991619 0.037577711 -0.23852047 0.14741376 0.38593423
0 0.027710827 0.036690749 -0.23852047 0.14741376 0.38593423
2.7755576e-17 0.026423858 0.035799619 -0.23852047 0.14741376 0.38593423
2.7755576e-17 0.025130656 0.034904283 -0.23852047 0.14741376 0.38593423
0 0.023831151 0.034004699 -0.23852047 0.14741376 0.38593423
0 0.022525286 0.033100821 -0.23852047 0.14741376 0.38593423
0 0.021212995 0.032192606 -0.23852047 0.14741376 0.38593423
0 0.019894211 0.031280011 -0.23852047 0.14741376 0.38593423
0 0.018568872 0.030362993 -0.23852047 0.14741376 0.38593423
0 0.017236907 0.029441504 -0.23852047 0.14741376 0.38593423
0 0.015898254 0.028515499 -0.23852047 0.14741376 0.38593423
0 0.014552839 0.027584931 -0.23852047 0.14741376 0.38593423
0 0.013200598 0.026649754 -0.23852047 0.14741376 0.38593423
0 0.011841458 0.025709921 -0.23852047 0.14741376 0.38593423
0 0.010475349 0.024765385 -0.23852047 0.14741376 0.38593423
0 0.0091022002 0.023816094 -0.23852047 0.14741376 0.38593423
0 0.0077219368 0.022862 -0.23852047 0.14741376 0.38593423
0 0.0063344869 0.021903053 -0.23852047 0.14741376 0.38593423
2.7755576e-17 0.0049397754 0.020939203 -0.23852047 0.14741376 0.38593423
0 0.0035377268 0.019970398 -0.23852047 0.14741376 0.38593423
0 0.0021282644 0.018996587 -0.23852047 0.14741376 0.38593423
0 0.00071131065 0.018017717 -0.23852047 0.14741376 0.38593423
0.035146225 0.079999998 0.031855389 -0.23852047 0.14741376 0.38593423
0.030423118 0.079999998 0.037151538 -0.23852047 0.14741376 0.38593423
0.027602814 0.079551436 0.039999999 -0.23852047 0.14741376 0.38593423
0.021826603 0.079889782 0.046714157 -0.23852047 0.14741376 0.38593423
0.017702704 0.079838581 0.051302817 -0.23852047 0.14741376 0.38593423
0.015184546 0.079388782 0.053811885 -0.23852047 0.14741376 0.38593423
0.013247439 0.0787986 0.055571184 -0.23852047 0.14741376 0.38593423
0.011631048 0.07813251 0.056917783 -0.23852047 0.14741376 0.38593423
0.010215824 0.077419929 0.058006346 -0.23852047 0.14741376 0.38593423
0.0089665391 0.076668285 0.058881573 -0.23852047 0.14741376 0.38593423
0.0078836745 0.075875245 0.059541289 -0.23852047 0.14741376 0.38593423
0.0068673505 0.075068034 0.060116559 -0.23852047 0.14741376 0.38593423
0.0059796567 0.074227199 0.060524132 -0.23852047 0.14741376 0.38593423
0.005154761 0.073370993 0.06085062 -0.23852047 0.14741376 0.38593423
0.0044093486 0.072493427 0.061073113 -0.23852047 0.14741376 0.38593423
0.0037342438 0.071596295 0.061203156 -0.23852047 0.14741376 0.38593423
0.0031151278 0.070683166 0.061259307 -0.23852047 0.14741376 0.38593423
0.0025649129 0.069749109 0.061223641 -0.23852047 0.14741376 0.38593423
0.0020618686 0.068800271 0.061124817 -0.23852047 0.14741376 0.38593423
0.0016224709 0.067830518 0.060940076 -0.23852047 0.14741376 0.38593423
0.0012296847 0.066844665 0.060691893 -0.23852047 0.14741376 0.38593423
0.00089484057 0.065838195 0.060364392 -0.23852047 0.14741376 0.38593423
0.00061017665 0.064812943 0.059967574 -0.23852047 0.14741376 0.38593423
0.00038023823 0.063766591 0.059494711 -0.23852047 0.14741376 0.38593423
0.00020509874 0.062698297 0.058945145 -0.23852047 0.14741376 0.38593423
8.7097222e-05 0.061606426 0.058315095 -0.23852047 0.14741376 0.38593423
2.6566429e-05 0.06048999 0.057603508 -0.23852047 0.14741376 0.38593423
3.558458e-05 0.059343677 0.056793123 -0.23852047 0.14741376 0.38593423
9.9107434e-05 0.058172058 0.055904012 -0.23852047 0.14741376 0.38593423
0.0002615308 0.056957483 0.05487404 -0.23852047 0.14741376 0.38593423
0.00046425316 0.055720948 0.053783614 -0.23852047 0.14741376 0.38593423
0.00082415453 0.054416388 0.052469444 -0.23852047 0.14741376 0.38593423
0.0012627612 0.053072315 0.05103948 -0.23852047 0.14741376 0.38593423
0.0018210037 0.051671188 0.049435552 -0.23852047 0.14741376 0.38593423
0.0026096625 0.05016648 0.047500893 -0.23852047 0.14741376 0.38593423
0.0036330845 0.048552908 0.045226935 -0.23852047 0.14741376 0.38593423
0.005038321 0.046766091 0.042403754 -0.23852047 0.14741376 0.38593423
0.0061374228 0.045087907 0.039999999 -0.23852047 0.14741376 0.38593423
0.0055326642 0.044114441 0.039999999 -0.23852047 0.14741376 0.38593423
0.0049282694 0.043141417 0.039999999 -0.23852047 0.14741376 0.38593423
0.0043242304 0.042168826 0.039999999 -0.23852047 0.14741376 0.38593423
0.0037205378 0.041196655 0.039999999 -0.23852047 0.14741376 0.38593423
0.003117183 0.040224891 0.039999999 -0.23852047 0.14741376 0.38593423
0.0025141574 0.039253518 0.039999999 -0.23852047 0.14741376 0.38593423
0.0019114524 0.038282521 0.039999999 -0.23852047 0.14741376 0.38593423
0.0013090593 0.037311886 0.039999999 -0.23852047 0.14741376 0.38593423
0.00070696953 0.0363416 0.039999999 -0.23852047 0.14741376 0.38593423
0.00010517439 0.03537165 0.039999999 -0.23852047 0.14741376 0.38593423
2.7755576e-17 0.03416637 0.039278649 -0.23852047 0.14741376 0.38593423
0 0.032905791 0.038400803 -0.23852047 0.14741376 0.38593423
0 0.031639241 0.037518896 -0.23852047 0.14741376 0.38593423
0 0.030366655 0.036632892 -0.23852047 0.14741376 0.38593423
2.7755576e-17 0.029087981 0.035742737 -0.23852047 0.14741376 0.38593423
0 0.027803153 0.034848403 -0.23852047 0.14741376 0.38593423
0 0.026512111 0.033949841 -0.23852047 0.14741376 0.38593423
0 0.025214791 0.033047006 -0.23852047 0.14741376 0.38593423
0 0.023911133 0.03213986 -0.23852047 0.14741376 0.38593423
0 0.02260107 0.03122836 -0.23852047 0.14741376 0.38593423
0 0.021284539 0.030312456 -0.23852047 0.14741376 0.38593423
0 0.019961474 0.029392106 -0.23852047 0.14741376 0.38593423
0 0.01863181 0.028467266 -0.23852047 0.14741376 0.38593423
0 0.017295478 0.027537888 -0.23852047 0.14741376 0.38593423
0 0.015952412 0.026603928 -0.23852047 0.14741376 0.38593423
0 0.014602541 0.025665335 -0.23852047 0.14741376 0.38593423
0 0.013245796 0.024722066 -0.23852047 0.14741376 0.38593423
0 0.011882106 0.023774069 -0.23852047 0.14741376 0.38593423
0 0.0105114 0.022821296 -0.23852047 0.14741376 0.38593423
0 0.0091336062 0.021863697 -0.23852047 0.14741376 0.38593423
2.7755576e-17 0.0077486504 0.020901222 -0.23852047 0.14741376 0.38593423
0 0.0063564582 0.019933822 -0.23852047 0.14741376 0.38593423
0.0082996031 0 0.0061921892 -0.23852047 0.14741376 0.38593423
0 0.0035500622 0.017984034 -0.23852047 0.14741376 0.38593423
2.7755576e-17 0.002135705 0.017001541 -0.23852047 0.14741376 0.38593423
0 0.00071380404 0.016013913 -0.23852047 0.14741376 0.38593423
0.036385991 0.079999998 0.028486541 -0.23852047 0.14741376 0.38593423
0.031608548 0.079999998 0.033874445 -0.23852047 0.14741376 0.38593423
0.026977586 0.079999998 0.039097231 -0.23852047 0.14741376 0.38593423
0.025068413 0.079333112 0.040781487 -0.23852047 0.14741376 0.38593423
0.018438527 0.07991863 0.04867059 -0.23852047 0.14741376 0.38593423
0.015734233 0.079509765 0.051433202 -0.23852047 0.14741376 0.38593423
0.013679506 0.078944191 0.053353097 -0.23852047 0.14741376 0.38593423
0.011980836 0.078294337 0.054812249 -0.23852047 0.14741376 0.38593423
0.010503819 0.0775932 0.055985432 -0.23852047 0.14741376 0.38593423
0.0092484066 0.076837867 0.056870658 -0.23852047 0.14741376 0.38593423
0.008117971 0.076053359 0.057594493 -0.23852047 0.14741376 0.38593423
0.0070641343 0.07525222 0.058220323 -0.23852047 0.14741376 0.38593423
0.0061709126 0.07440836 0.058635049 -0.23852047 0.14741376 0.38593423
0.0053131911 0.073557511 0.059004903 -0.23852047 0.14741376 0.38593423
0.0045648366 0.07267648 0.059230268 -0.23852047 0.14741376 0.38593423
0.0038614315 0.071783878 0.059396878 -0.23852047 0.14741376 0.38593423
0.0032400128 0.07086736 0.059454285 -0.23852047 0.14741376 0.38593423
0.0026646878 0.069937311 0.059450276 -0.23852047 0.14741376 0.38593423
0.0021598728 0.068985127 0.059351262 -0.23852047 0.14741376 0.38593423
0.0016975945 0.06801907 0.059194598 -0.23852047 0.14741376 0.38593423
0.001303496 0.067029923 0.058944892 -0.23852047 0.14741376 0.38593423
0.00094726996 0.066027023 0.058642887 -0.23852047 0.14741376 0.38593423
0.0006617016 0.064998515 0.058243267 -0.23852047 0.14741376 0.38593423
0.0004112561 0.063955784 0.05779412 -0.23852047 0.14741376 0.38593423
0.00023558714 0.062884271 0.057240486 -0.23852047 0.14741376 0.38593423
9.7389115e-05 0.061796252 0.056633078 -0.23852047 0.14741376 0.38593423
3.6684334e-05 0.060676608 0.055916127 -0.23852047 0.14741376 0.38593423
2.5233636e-05 0.059534587 0.055127986 -0.23852047 0.14741376 0.38593423
8.8929693e-05 0.058359776 0.054232132 -0.23852047 0.14741376 0.38593423
0.00022993375 0.057150215 0.05322475 -0.23852047 0.14741376 0.38593423
0.00043317807 0.055910494 0.052126072 -0.23852047 0.14741376 0.38593423
0.0007698292 0.054612048 0.050835751 -0.23852047 0.14741376 0.38593423
0.0011817327 0.053275686 0.04943401 -0.23852047 0.14741376 0.38593423
0.0017412057 0.051871471 0.047818251 -0.23852047 0.14741376 0.38593423
0.0024979967 0.050377104 0.045916699 -0.23852047 0.14741376 0.38593423
0.0034804717 0.048777994 0.043687116 -0.23852047 0.14741376 0.38593423
0.0048287082 0.047012866 0.040928468 -0.23852047 0.14741376 0.38593423
0.0048799673 0.045770448 0.039999999 -0.23852047 0.14741376 0.38593423
0.0042766938 0.044798695 0.039999999 -0.23852047 0.14741376 0.38593423
0.0036737747 0.043827388 0.039999999 -0.23852047 0.14741376 0.38593423
0.0030712003 0.042856518 0.039999999 -0.23852047 0.14741376 0.38593423
0.0024689627 0.041886069 0.039999999 -0.23852047 0.14741376 0.38593423
0.0018670529 0.040916029 0.039999999 -0.23852047 0.14741376 0.38593423
0.0012654624 0.039946381 0.039999999 -0.23852047 0.14741376 0.38593423
0.00066418253 0.038977116 0.039999999 -0.23852047 0.14741376 0.38593423
6.3204716e-05 0.038008217 0.039999999 -0.23852047 0.14741376 0.38593423
2.7755576e-17 0.036790393 0.039218713 -0.23852047 0.14741376 0.38593423
2.7755576e-17 0.035537753 0.038341783 -0.23852047 0.14741376 0.38593423
0 0.034279216 0.037460815 -0.23852047 0.14741376 0.38593423
0 0.033014733 0.036575764 -0.23852047 0.14741376 0.38593423
0 0.031744238 0.035686594 -0.23852047 0.14741376 0.38593423
0 0.03046767 0.034793258 -0.23852047 0.14741376 0.38593423
0 0.029184975 0.033895716 -0.23852047 0.14741376 0.38593423
0 0.027896086 0.032993931 -0.23852047 0.14741376 0.38593423
0 0.026600944 0.032087855 -0.23852047 0.14741376 0.38593423
0 0.025299484 0.031177444 -0.23852047 0.14741376 0.38593423
0 0.023991644 0.030262658 -0.23852047 0.14741376 0.38593423
2.7755576e-17 0.022677358 0.02934345 -0.23852047 0.14741376 0.38593423
0 0.021356562 0.028419774 -0.23852047 0.14741376 0.38593423
0 0.020029189 0.027491586 -0.23852047 0.14741376 0.38593423
0 0.018695172 0.026558841 -0.23852047 0.14741376 0.38593423
0 0.017354444 0.025621491 -0.23852047 0.14741376 0.38593423
0 0.016006935 0.024679488 -0.23852047 0.14741376 0.38593423
0 0.014652577 0.023732783 -0.23852047 0.14741376 0.38593423
0 0.013291299 0.022781331 -0.23852047 0.14741376 0.38593423
0 0.01192303 0.021825079 -0.23852047 0.14741376 0.38593423
0 0.010547697 0.02086398 -0.23852047 0.14741376 0.38593423
0 0.0091652274 0.019897982 -0.23852047 0.14741376 0.38593423
0 0.0077755465 0.018927036 -0.23852047 0.14741376 0.38593423
0 0.0063785799 0.017951088 -0.23852047 0.14741376 0.38593423
0 0.0049742507 0.016970085 -0.23852047 0.14741376 0.38593423
0 0.0035624825 0.015983976 -0.23852047 0.14741376 0.38593423
2.7755576e-17 0.0021431968 0.014992706 -0.23852047 0.14741376 0.38593423
0.0011646809 0 0.012180069 -0.23852047 0.14741376 0.38593423
0.037644461 0.079999998 0.025066866 -0.23852047 0.14741376 0.38593423
0.032811578 0.079999998 0.030548686 -0.23852047 0.14741376 0.38593423
0.028127978 0.079999998 0.035861254 -0.23852047 0.14741376 0.38593423
0.024356082 0.079802133 0.039999999 -0.23852047 0.14741376 0.38593423
0.019258268 0.079979934 0.045908123 -0.23852047 0.14741376 0.38593423
0.016289605 0.079631999 0.049029913 -0.23852047 0.14741376 0.38593423
0.014115653 0.079091154 0.051114071 -0.23852047 0.14741376 0.38593423
0.012333707 0.078457594 0.052688163 -0.23852047 0.14741376 0.38593423
0.010824642 0.077759422 0.053907156 -0.23852047 0.14741376 0.38593423
0.0095326165 0.077008866 0.054843035 -0.23852047 0.14741376 0.38593423
0.0083541274 0.076232888 0.055632237 -0.23852047 0.14741376 0.38593423
0.0072955135 0.075428113 0.056265198 -0.23852047 0.14741376 0.38593423
0.0063636266 0.074590899 0.056731563 -0.23852047 0.14741376 0.38593423
0.0054727881 0.0737454 0.057145584 -0.23852047 0.14741376 0.38593423
0.0047214688 0.072860882 0.057373859 -0.23852047 0.14741376 0.38593423
0.003989527 0.07197281 0.057577707 -0.23852047 0.14741376 0.38593423
0.0033657891 0.071052864 0.057636384 -0.23852047 0.14741376 0.38593423
0.0027651549 0.070126809 0.057664603 -0.23852047 0.14741376 0.38593423
0.0022585569 0.069171265 0.057565399 -0.23852047 0.14741376 0.38593423
0.0017732261 0.068208896 0.057437323 -0.23852047 0.14741376 0.38593423
0.0013778065 0.067216434 0.057186078 -0.23852047 0.14741376 0.38593423
0.0010000452 0.066217102 0.056910019 -0.23852047 0.14741376 0.38593423
0.00071356673 0.065185316 0.056507573 -0.23852047 0.14741376 0.38593423
0.0004424738 0.064146206 0.056082573 -0.23852047 0.14741376 0.38593423
0.00026627223 0.063071437 0.05552483 -0.23852047 0.14741376 0.38593423
0.00010774579 0.06198727 0.054940473 -0.23852047 0.14741376 0.38593423
4.6866033e-05 0.0608644 0.054218106 -0.23852047 0.14741376 0.38593423
1.4819081e-05 0.059726674 0.053452615 -0.23852047 0.14741376 0.38593423
7.8689256e-05 0.058548652 0.052549951 -0.23852047 0.14741376 0.38593423
0.00019814733 0.057344101 0.05156558 -0.23852047 0.14741376 0.38593423
0.00040191616 0.056101181 0.050458565 -0.23852047 0.14741376 0.38593423
0.00071518717 0.054808848 0.049192537 -0.23852047 0.14741376 0.38593423
0.001100249 0.0534802 0.047819521 -0.23852047 0.14741376 0.38593423
0.0016609572 0.052072886 0.046191819 -0.23852047 0.14741376 0.38593423
0.0023857283 0.050588865 0.044323955 -0.23852047 0.14741376 0.38593423
0.0033270847 0.049004223 0.042139485 -0.23852047 0.14741376 0.38593423
0.0042296289 0.047420811 0.039999999 -0.23852047 0.14741376 0.38593423
0.0036274814 0.046450295 0.039999999 -0.23852047 0.14741376 0.38593423
0.0030256864 0.045480244 0.039999999 -0.23852047 0.14741376 0.38593423
0.002424235 0.044510648 0.039999999 -0.23852047 0.14741376 0.38593423
0.0018231189 0.043541491 0.039999999 -0.23852047 0.14741376 0.38593423
0.0012223293 0.042572755 0.039999999 -0.23852047 0.14741376 0.38593423
0.00062185776 0.041604437 0.039999999 -0.23852047 0.14741376 0.38593423
2.1695574e-05 0.04063651 0.039999999 -0.23852047 0.14741376 0.38593423
2.7755576e-17 0.039407168 0.039159428 -0.23852047 0.14741376 0.38593423
2.7755576e-17 0.038162354 0.038283415 -0.23852047 0.14741376 0.38593423
2.7755576e-17 0.036911726 0.037403382 -0.23852047 0.14741376 0.38593423
0 0.03565523 0.036519289 -0.23852047 0.14741376 0.38593423
0 0.034392804 0.035631098 -0.23852047 0.14741376 0.38593423
0 0.033124387 0.034738764 -0.23852047 0.14741376 0.38593423
0 0.031849924 0.033842251 -0.23852047 0.14741376 0.38593423
2.7755576e-17 0.03056935 0.032941509 -0.23852047 0.14741376 0.38593423
0 0.029282609 0.032036502 -0.23852047 0.14741376 0.38593423
0 0.027989635 0.031127186 -0.23852047 0.14741376 0.38593423
0 0.026690366 0.030213516 -0.23852047 0.14741376 0.38593423
0 0.025384741 0.02929545 -0.23852047 0.14741376 0.38593423
0 0.024072692 0.02837294 -0.23852047 0.14741376 0.38593423
0 0.022754155 0.027445942 -0.23852047 0.14741376 0.38593423
0 0.021429066 0.026514411 -0.23852047 0.14741376 0.38593423
0 0.020097356 0.025578301 -0.23852047 0.14741376 0.38593423
0 0.01875896 0.024637565 -0.23852047 0.14741376 0.38593423
0 0.017413806 0.023692153 -0.23852047 0.14741376 0.38593423
0 0.016061828 0.02274202 -0.23852047 0.14741376 0.38593423
0 0.014702953 0.021787114 -0.23852047 0.14741376 0.38593423
0 0.013337113 0.02082739 -0.23852047 0.14741376 0.38593423
0 0.011964234 0.019862793 -0.23852047 0.14741376 0.38593423
0 0.010584242 0.018893277 -0.23852047 0.14741376 0.38593423
0.011613637 0.0024672502 0 -0.23852047 0.14741376 0.38593423
0.010949644 0.0013935663 0 -0.23852047 0.14741376 0.38593423
0 0.0064008539 0.015954683 -0.23852047 0.14741376 0.38593423
0 0.0049916669 0.014964961 -0.23852047 0.14741376 0.38593423
0 0.0021507409 0.012969907 -0.23852047 0.14741376 0.38593423
0 0.00071884296 0.011964465 -0.23852047 0.14741376 0.38593423
0.038922079 0.079999998 0.021595152 -0.23852047 0.14741376 0.38593423
0.034032624 0.079999998 0.027173124 -0.23852047 0.14741376 0.38593423
0.029295327 0.079999998 0.032577574 -0.23852047 0.14741376 0.38593423
0.024703132 0.079999998 0.037816543 -0.23852047 0.14741376 0.38593423
0.020278318 0.079992466 0.042859275 -0.23852047 0.14741376 0.38593423
0.016876478 0.07974869 0.046567429 -0.23852047 0.14741376 0.38593423
0.014555944 0.07923951 0.04885377 -0.23852047 0.14741376 0.38593423
0.01270874 0.078617081 0.050519835 -0.23852047 0.14741376 0.38593423
0.011172451 0.077920333 0.051778536 -0.23852047 0.14741376 0.38593423
0.0098192021 0.077181295 0.052798469 -0.23852047 0.14741376 0.38593423
0.0085921697 0.076413855 0.053654313 -0.23852047 0.14741376 0.38593423
0.0075287358 0.075605415 0.054294497 -0.23852047 0.14741376 0.38593423
0.0065578176 0.074774839 0.054813486 -0.23852047 0.14741376 0.38593423
0.0056618578 0.073926173 0.055234179 -0.23852047 0.14741376 0.38593423
0.0048792604 0.073046647 0.055503711 -0.23852047 0.14741376 0.38593423
0.0041266261 0.072160579 0.055734474 -0.23852047 0.14741376 0.38593423
0.0034924676 0.071239702 0.055805437 -0.23852047 0.14741376 0.38593423
0.0028671173 0.07031738 0.055865385 -0.23852047 0.14741376 0.38593423
0.0023579297 0.069358699 0.055767078 -0.23852047 0.14741376 0.38593423
0.00184962 0.068399929 0.055667758 -0.23852047 0.14741376 0.38593423
0.0014526224 0.067404218 0.055415303 -0.23852047 0.14741376 0.38593423
0.0010555589 0.066407628 0.055162363 -0.23852047 0.14741376 0.38593423
0.00076577615 0.065373354 0.054760359 -0.23852047 0.14741376 0.38593423
0.00047788167 0.064336464 0.054354403 -0.23852047 0.14741376 0.38593423
0.00029715634 0.063259818 0.053798046 -0.23852047 0.14741376 0.38593423
0.00011994025 0.062178865 0.053234693 -0.23852047 0.14741376 0.38593423
5.711228e-05 0.06105338 0.052509319 -0.23852047 0.14741376 0.38593423
4.3401787e-06 0.05991995 0.051766895 -0.23852047 0.14741376 0.38593423
6.8385394e-05 0.058738697 0.05085735 -0.23852047 0.14741376 0.38593423
0.00016616941 0.057539154 0.049896412 -0.23852047 0.14741376 0.38593423
0.00037046531 0.056293022 0.048780981 -0.23852047 0.14741376 0.38593423
0.00066022488 0.055006798 0.047539689 -0.23852047 0.14741376 0.38593423
0.0010280428 0.053682063 0.0461821 -0.23852047 0.14741376 0.38593423
0.0015802532 0.052275445 0.044556156 -0.23852047 0.14741376 0.38593423
0.0022728511 0.050801773 0.042722575 -0.23852047 0.14741376 0.38593423
0.0031729159 0.049231604 0.040583961 -0.23852047 0.14741376 0.38593423
0.002980585 0.048096284 0.039999999 -0.23852047 0.14741376 0.38593423
0.0023799187 0.047127467 0.039999999 -0.23852047 0.14741376 0.38593423
0.0017795948 0.046159115 0.039999999 -0.23852047 0.14741376 0.38593423
0.0011796047 0.045191225 0.039999999 -0.23852047 0.14741376 0.38593423
0.00057993975 0.04422377 0.039999999 -0.23852047 0.14741376 0.38593423
2.7755576e-17 0.043248273 0.039971847 -0.23852047 0.14741376 0.38593423
5.5511151e-17 0.04201686 0.03910071 -0.23852047 0.14741376 0.38593423
2.7755576e-17 0.040779769 0.038225614 -0.23852047 0.14741376 0.38593423
5.5511151e-17 0.039536942 0.03734652 -0.23852047 0.14741376 0.38593423
0 0.038288325 0.036463387 -0.23852047 0.14741376 0.38593423
0 0.037033856 0.035576176 -0.23852047 0.14741376 0.38593423
0 0.035773478 0.034684844 -0.23852047 0.14741376 0.38593423
0 0.034507137 0.033789355 -0.23852047 0.14741376 0.38593423
0 0.033234764 0.03288966 -0.23852047 0.14741376 0.38593423
0 0.031956308 0.031985726 -0.23852047 0.14741376 0.38593423
2.7755576e-17 0.030671705 0.031077502 -0.23852047 0.14741376 0.38593423
0 0.029380891 0.03016495 -0.23852047 0.14741376 0.38593423
0 0.028083807 0.029248023 -0.23852047 0.14741376 0.38593423
0 0.026780386 0.028326677 -0.23852047 0.14741376 0.38593423
0 0.025470566 0.02740087 -0.23852047 0.14741376 0.38593423
2.7755576e-17 0.024154283 0.026470555 -0.23852047 0.14741376 0.38593423
0 0.022831468 0.025535684 -0.23852047 0.14741376 0.38593423
0 0.021502059 0.024596212 -0.23852047 0.14741376 0.38593423
0 0.020165985 0.023652093 -0.23852047 0.14741376 0.38593423
2.7755576e-17 0.018823178 0.022703279 -0.23852047 0.14741376 0.38593423
0 0.017473571 0.021749718 -0.23852047 0.14741376 0.38593423
0 0.016117094 0.020791365 -0.23852047 0.14741376 0.38593423
0 0.014753673 0.019828171 -0.23852047 0.14741376 0.38593423
0 0.01338324 0.018860081 -0.23852047 0.14741376 0.38593423
0.011592067 0.0054249042 0 -0.23852047 0.14741376 0.38593423
2.7755576e-17 0.0092291227 0.015925946 -0.23852047 0.14741376 0.38593423
0.0096037667 0.0022097034 0 -0.23852047 0.14741376 0.38593423
0 0.0064232824 0.013944438 -0.23852047 0.14741376 0.38593423
0 0.0050092041 0.012945898 -0.23852047 0.14741376 0.38593423
0 0.0035875824 0.011942094 -0.23852047 0.14741376 0.38593423
0 0.0021583375 0.010932972 -0.23852047 0.14741376 0.38593423
0 0.00072138885 0.0099184727 -0.23852047 0.14741376 0.38593423
0.03527211 0.079999998 0.023746584 -0.23852047 0.14741376 0.38593423
0.030480027 0.079999998 0.029245084 -0.23852047 0.14741376 0.38593423
0.02583581 0.079999998 0.034573965 -0.23852047 0.14741376 0.38593423
0.021332663 0.079999998 0.039741028 -0.23852047 0.14741376 0.38593423
0.017612947 0.079828814 0.043887239 -0.23852047 0.14741376 0.38593423
0.015084439 0.079366751 0.046459425 -0.23852047 0.14741376 0.38593423
0.013141987 0.078763068 0.048258301 -0.23852047 0.14741376 0.38593423
0.011523347 0.078082681 0.049631014 -0.23852047 0.14741376 0.38593423
0.010108195 0.077355169 0.050736714 -0.23852047 0.14741376 0.38593423
0.0088420995 0.076593414 0.051647022 -0.23852047 0.14741376 0.38593423
0.0077638272 0.075784132 0.052308004 -0.23852047 0.14741376 0.38593423
0.0067535061 0.074960202 0.052880622 -0.23852047 0.14741376 0.38593423
0.0058537377 0.074107923 0.053306233 -0.23852047 0.14741376 0.38593423
0.0050382265 0.073233798 0.053619646 -0.23852047 0.14741376 0.38593423
0.0042825942 0.072344199 0.05385337 -0.23852047 0.14741376 0.38593423
0.0036200602 0.071427882 0.053961281 -0.23852047 0.14741376 0.38593423
0.0029923618 0.070502102 0.054022517 -0.23852047 0.14741376 0.38593423
0.0024579996 0.069547452 0.053956136 -0.23852047 0.14741376 0.38593423
0.0019478832 0.068585269 0.053856615 -0.23852047 0.14741376 0.38593423
0.0015279497 0.067593277 0.05363242 -0.23852047 0.14741376 0.38593423
0.001129546 0.066593334 0.0533779 -0.23852047 0.14741376 0.38593423
0.00081833405 0.065562651 0.053001482 -0.23852047 0.14741376 0.38593423
0.00052951497 0.06452243 0.052592624 -0.23852047 0.14741376 0.38593423
0.00032824185 0.063449427 0.052060004 -0.23852047 0.14741376 0.38593423
0.00015048393 0.062365171 0.051492427 -0.23852047 0.14741376 0.38593423
6.7423833e-05 0.061243568 0.050789639 -0.23852047 0.14741376 0.38593423
5.9623699e-06 0.060109969 0.05005357 -0.23852047 0.14741376 0.38593423
5.8017376e-05 0.058929924 0.049154215 -0.23852047 0.14741376 0.38593423
0.00013399779 0.057735391 0.048217133 -0.23852047 0.14741376 0.38593423
0.00033882339 0.056486025 0.047093205 -0.23852047 0.14741376 0.38593423
0.00060493883 0.055205919 0.045877106 -0.23852047 0.14741376 0.38593423
0.00097364938 0.053877965 0.044509258 -0.23852047 0.14741376 0.38593423
0.0014990889 0.052479159 0.042911161 -0.23852047 0.14741376 0.38593423
0.0021593585 0.051015843 0.041112464 -0.23852047 0.14741376 0.38593423
0.0023359582 0.049736731 0.039999999 -0.23852047 0.14741376 0.38593423
0.0017364252 0.048769116 0.039999999 -0.23852047 0.14741376 0.38593423
0.0011372331 0.04780199 0.039999999 -0.23852047 0.14741376 0.38593423
0.00053837342 0.046835337 0.039999999 -0.23852047 0.14741376 0.38593423
2.7755576e-17 0.045843519 0.039912723 -0.23852047 0.14741376 0.38593423
2.7755576e-17 0.04461965 0.03904248 -0.23852047 0.14741376 0.38593423
2.7755576e-17 0.043390173 0.038168304 -0.23852047 0.14741376 0.38593423
2.7755576e-17 0.042155039 0.037290145 -0.23852047 0.14741376 0.38593423
2.7755576e-17 0.040914189 0.036407974 -0.23852047 0.14741376 0.38593423
2.7755576e-17 0.039667569 0.035521742 -0.23852047 0.14741376 0.38593423
0 0.038415123 0.034631416 -0.23852047 0.14741376 0.38593423
0 0.037156787 0.033736952 -0.23852047 0.14741376 0.38593423
0 0.035892505 0.032838307 -0.23852047 0.14741376 0.38593423
0 0.034622222 0.031935439 -0.23852047 0.14741376 0.38593423
0 0.033345874 0.03102831 -0.23852047 0.14741376 0.38593423
0 0.032063399 0.030116873 -0.23852047 0.14741376 0.38593423
0 0.030774739 0.029201087 -0.23852047 0.14741376 0.38593423
0 0.02947983 0.028280906 -0.23852047 0.14741376 0.38593423
0 0.028178606 0.027356287 -0.23852047 0.14741376 0.38593423
0 0.026871009 0.026427185 -0.23852047 0.14741376 0.38593423
0 0.025556969 0.025493555 -0.23852047 0.14741376 0.38593423
2.7755576e-17 0.024236424 0.024555348 -0.23852047 0.14741376 0.38593423
0 0.022909304 0.02361252 -0.23852047 0.14741376 0.38593423
0 0.021575546 0.02266502 -0.23852047 0.14741376 0.38593423
2.7755576e-17 0.020235078 0.021712804 -0.23852047 0.14741376 0.38593423
0 0.018887836 0.020755824 -0.23852047 0.14741376 0.38593423
0 0.017533746 0.019794026 -0.23852047 0.14741376 0.38593423
0 0.016172739 0.018827364 -0.23852047 0.14741376 0.38593423
0 0.014804741 0.017855786 -0.23852047 0.14741376 0.38593423
0 0.013429684 0.01687924 -0.23852047 0.14741376 0.38593423
0 0.012047491 0.015897678 -0.23852047 0.14741376 0.38593423
